# .PCD v0.7 - Point Cloud Data file format
VERSION 0.7
FIELDS x y z
SIZE 4 4 4
TYPE F F F
COUNT 1 1 1
WIDTH 1662
HEIGHT 1
VIEWPOINT 0 0 0 1 0 0 0
POINTS 1662
DATA ascii
-3.8168001 -7.1329999 73.338997
-3.7360001 -7.1314001 73.322998
-3.6556001 -7.1306 73.315002
-3.5754001 -7.1300001 73.307999
-3.4954 -7.1297998 73.306
-3.4156001 -7.1300998 73.308998
-3.3361001 -7.1311002 73.319
-3.2569001 -7.1328001 73.336998
-3.178 -7.1350999 73.361
-3.0991001 -7.1375999 73.386002
-3.0201001 -7.1399999 73.411003
-2.9424 -7.1458001 73.471001
-2.8655 -7.1536999 73.551003
-2.7892001 -7.1637998 73.654999
-2.7146001 -7.1788998 73.810997
-2.641 -7.1974001 74.001999
-2.5683999 -7.2203002 74.236
-2.4972999 -7.2490001 74.530998
-2.4503 -7.3518 75.588997
-2.3757 -7.3758998 75.835999
-2.2976999 -7.3912001 75.994003
-2.2177999 -7.4008999 76.094002
-2.1364999 -7.4067998 76.153999
-2.0532999 -7.4061999 76.148003
-1.9694 -7.4029002 76.113998
-1.8846 -7.3957 76.040001
-1.7995 -7.3868999 75.948997
-1.7149 -7.3789001 75.866997
-1.6308 -7.3727002 75.803001
-1.5472 -7.3683 75.758003
-1.4641 -7.3657999 75.732002
-1.3812 -7.3641 75.714996
-1.2984999 -7.3632998 75.707001
-1.2158999 -7.3631001 75.705002
-1.1335 -7.3636999 75.710999
-1.051 -7.3639998 75.714996
-0.96849 -7.3645 75.720001
-0.88589001 -7.3642001 75.716003
-0.80324 -7.3634 75.708
-0.72057003 -7.3621998 75.695
-0.63800001 -7.3617001 75.691002
-0.55546999 -7.3617001 75.691002
-0.47297999 -7.3622999 75.696999
-0.39048001 -7.3629999 75.704002
-0.30794999 -7.3632998 75.707001
-0.22539 -7.3629999 75.704002
-0.14285 -7.3627 75.700996
-0.060298 -7.3618999 75.693001
0.022233 -7.3614998 75.689003
0.10476 -7.3613 75.686996
0.18737 -7.3646002 75.721001
0.27011999 -7.3699002 75.775002
0.35304001 -7.3761001 75.838997
0.43614 -7.3829999 75.910004
0.51951998 -7.3917999 76
0.60316002 -7.4013 76.097
0.68677002 -7.4081001 76.167
0.77042001 -7.4138999 76.226997
0.85408002 -7.4186001 76.276001
0.93734002 -7.4194002 76.282997
1.0203 -7.4180999 76.269997
1.1033 -7.4165001 76.253998
1.1863 -7.4157 76.246002
1.2694 -7.4159002 76.247002
1.3528 -7.4172001 76.261002
1.4365 -7.4197001 76.287003
1.5203 -7.4231 76.321999
1.6045001 -7.4274998 76.367996
1.6889 -7.4324999 76.418999
1.7736 -7.4382 76.476997
1.8585 -7.4443002 76.539001
1.9435 -7.4503999 76.602997
2.0287001 -7.4563999 76.664001
2.1140001 -7.4624 76.725998
2.1995001 -7.4685998 76.789001
2.2849 -7.4742999 76.848
2.3706 -7.4801002 76.906998
2.4563 -7.4857998 76.966003
2.5421 -7.4913998 77.024002
2.6280999 -7.4970999 77.082001
2.7142 -7.5028 77.141998
2.8006999 -7.5091 77.206001
2.8873999 -7.5156999 77.274002
2.9746001 -7.5232 77.350998
3.0622001 -7.5310998 77.431999
3.1501 -7.5394001 77.517998
3.2381999 -7.5478001 77.603996
3.3267 -7.5567002 77.695999
3.4164 -7.5676999 77.807999
3.5078001 -7.5819001 77.955002
3.6013 -7.5998001 78.139
3.6968999 -7.6213002 78.359001
3.7941999 -7.6451998 78.605003
3.8954999 -7.6760001 78.921997
4.0187001 -7.7474999 79.656998
4.1243 -7.783 80.022003
4.2261 -7.8097 80.296997
4.3249998 -7.8304 80.509003
4.4211998 -7.8453002 80.662003
4.5146999 -7.8548999 80.762001
4.6066999 -7.8617001 80.831001
4.6973 -7.8657999 80.874001
4.7856998 -7.8662 80.877998
4.8737998 -7.8659 80.875
4.9615998 -7.8653998 80.869003
5.0492001 -7.8645 80.860001
5.1367002 -7.8635001 80.849998
5.2241998 -7.8624001 80.838997
5.3116002 -7.8614998 80.829002
5.3987999 -7.8600998 80.815002
5.4860001 -7.8587999 80.801003
5.5724001 -7.8564 80.776001
5.6578999 -7.8527999 80.738998
5.7420001 -7.8473001 80.682999
5.8253999 -7.8413 80.621002
5.9070001 -7.8329 80.535004
5.9875998 -7.8234 80.438004
6.0679002 -7.8140001 80.339996
6.1497998 -7.8066001 80.264999
6.2337999 -7.8021998 80.220001
6.3199 -7.8006001 80.203003
6.4047999 -7.7975001 80.170998
6.4910002 -7.7961001 80.155998
7.1415 -6.9039998 70.985001
7.2160001 -6.9013 70.957001
7.2941999 -6.9021001 70.964996
7.3744001 -6.9046998 70.991997
7.4566002 -6.9092002 71.038002
7.5422001 -6.9166002 71.113998
7.6308999 -6.9267001 71.218002
7.7199998 -6.9369998 71.323997
7.8126998 -6.9503002 71.460999
7.9018002 -6.9601002 71.561996
7.9892998 -6.9684 71.647003
8.0738001 -6.9738998 71.703003
8.1547003 -6.9762998 71.727997
8.2315998 -6.9752002 71.716003
8.3070002 -6.9727998 71.692001
8.3814001 -6.9696999 71.660004
8.4566002 -6.9671998 71.635002
8.5311003 -6.9643002 71.603996
8.6056004 -6.9614 71.574997
8.6794004 -6.9580002 71.540001
9.0949001 -6.6550999 67.667
9.0830002 -6.5728002 67.579002
9.1592999 -6.5746002 67.598
9.2361002 -6.5767999 67.620003
9.3140001 -6.5798001 67.651001
9.3924999 -6.5830002 67.684998
9.4691 -6.585 67.705002
9.5441999 -6.5858998 67.713997
9.6167002 -6.585 67.705002
9.684 -6.5805998 67.658997
9.7486 -6.5743999 67.595001
9.9968004 -6.5439 67.281998
10.072 -6.5451002 67.294998
10.154 -6.5507998 67.352997
10.242 -6.5597 67.444
10.334 -6.5718999 67.57
10.43 -6.5861001 67.716003
10.531 -6.6027002 67.887001
10.63 -6.6183 68.046997
10.726 -6.6321001 68.189003
10.821 -6.6444998 68.316002
10.912 -6.6545 68.419998
10.998 -6.6615 68.490997
11.081 -6.6666002 68.542999
11.163 -6.671 68.588997
11.251 -6.6788998 68.669998
11.345 -6.6901999 68.786003
11.45 -6.7077999 68.968002
14.549 -7.8055 80.253998
14.639 -7.8067999 80.266998
14.723 -7.8049002 80.247002
14.801 -7.8000002 80.196999
14.874 -7.7921 80.114998
14.941 -7.7817001 80.009003
15.005 -7.7698002 79.886002
15.063 -7.7546 79.730003
15.127 -7.7428999 79.609001
15.194 -7.7326999 79.504997
15.262 -7.7231002 79.405998
15.335 -7.7164998 79.337997
15.414 -7.7128 79.301003
15.496 -7.7104001 79.276001
15.58 -7.7094002 79.264999
15.666 -7.7091999 79.263
15.751 -7.7086 79.258003
15.838 -7.7084999 79.255997
15.922 -7.7077999 79.249001
16.01 -7.7082 79.252998
16.097 -7.7087998 79.259003
16.186001 -7.7098999 79.269997
16.273001 -7.7101998 79.274002
16.358999 -7.7098999 79.269997
16.441 -7.7076001 79.247002
16.518999 -7.704 79.209999
16.594 -7.6985002 79.153
16.667 -7.6922998 79.088997
16.737 -7.6852002 79.015999
16.808001 -7.6778998 78.941002
16.878 -7.6708999 78.870003
16.950001 -7.6645999 78.804001
17.024 -7.6588998 78.746002
17.101 -7.6550002 78.706001
17.181 -7.6524 78.679001
17.264 -7.6511998 78.667
17.347 -7.6501999 78.655998
17.431 -7.6494999 78.649002
17.516001 -7.6487999 78.641998
17.6 -7.6483998 78.638
17.684999 -7.6480999 78.635002
17.771 -7.6479001 78.633003
17.857 -7.6482 78.636002
17.944 -7.6487999 78.641998
18.033001 -7.6500001 78.654999
18.124001 -7.6522999 78.679001
18.216999 -7.6553001 78.709
18.312 -7.6592002 78.749001
18.409 -7.6637998 78.795998
18.509001 -7.6694002 78.853996
18.611 -7.6760001 78.921997
18.716 -7.6838999 79.002998
18.825001 -7.6932001 79.098
18.936001 -7.7031999 79.202003
19.048 -7.7136998 79.308998
19.162001 -7.7249999 79.425003
19.277 -7.7363 79.542
19.393 -7.7479 79.661003
19.507999 -7.7593002 79.778999
19.624001 -7.7705002 79.893997
19.74 -7.7820001 80.012001
19.858 -7.7940998 80.136002
19.978001 -7.8067002 80.264999
20.099001 -7.8196998 80.400002
20.219999 -7.8327999 80.533997
20.344 -7.8466001 80.676003
20.461 -7.8580999 80.793999
20.573 -7.8670001 80.886002
20.677 -7.8731999 80.948997
20.775999 -7.8772001 80.989998
20.868999 -7.8787999 81.007004
20.958 -7.8790002 81.009003
21.051001 -7.8807998 81.028
21.172001 -7.8930001 81.153
21.302999 -7.9087 81.315002
21.444 -7.9281001 81.514
21.597 -7.9519 81.758003
21.836 -8.0067997 82.322998
22.021 -8.0414 82.679001
22.211 -8.0780001 83.055
22.386 -8.1083002 83.366997
22.546 -8.1331997 83.623001
22.663 -8.1427002 83.720001
22.775999 -8.1503 83.799004
22.871 -8.1518002 83.814003
22.966999 -8.1532001 83.828003
23.054001 -8.1517 83.813004
-14.829 -7.9885998 83.067001
-14.765 -8.0029001 83.216003
-14.698 -8.0158997 83.351997
-14.649 -8.0384998 83.585999
-14.574 -8.0476999 83.681
-14.508 -8.0614996 83.824997
-14.436 -8.0721998 83.936996
-14.357 -8.0797997 84.014999
-14.261 -8.0770998 83.987999
-14.162 -8.0726995 83.942001
-14.061 -8.0672998 83.886002
-13.96 -8.0621004 83.832001
-13.862 -8.0581999 83.791
-13.767 -8.0559998 83.767998
-13.677 -8.0565004 83.774002
-13.59 -8.0592003 83.801003
-13.506 -8.0635996 83.847
-13.425 -8.0696001 83.910004
-13.345 -8.0768995 83.986
-13.266 -8.0846004 84.065002
-13.186 -8.0915003 84.137001
-13.104 -8.0979004 84.204002
-13.02 -8.1028004 84.254997
-12.933 -8.1057997 84.286003
-12.844 -8.1076002 84.305
-12.755 -8.1091003 84.320999
-12.665 -8.1105003 84.334
-12.576 -8.1125002 84.356003
-12.487 -8.1145 84.375999
-12.399 -8.1169996 84.402
-12.311 -8.1196003 84.429001
-12.224 -8.1226997 84.461998
-12.135 -8.1248999 84.485001
-12.045 -8.1267996 84.504997
-11.955 -8.1278 84.514999
-11.863 -8.1279001 84.515999
-11.768 -8.1262999 84.499001
-11.672 -8.1231003 84.466003
-11.575 -8.1197004 84.43
-11.479 -8.1171999 84.404999
-11.424 -8.1434002 84.677002
-11.375 -8.1749001 85.003998
-11.335 -8.2131996 85.403
-11.308 -8.2612 85.902
-7.0939002 -7.1318998 74.160004
-7.0160999 -7.1350002 74.192001
-6.9348001 -7.1346002 74.186996
-6.8534002 -7.1341 74.181999
-6.7704 -7.1318998 74.160004
-6.6848998 -7.1269999 74.108002
-6.5957999 -7.118 74.014999
-6.5042 -7.1061001 73.890999
-6.4120998 -7.0932999 73.758003
-6.3169999 -7.0769 73.586998
-6.2223001 -7.0605001 73.416
-6.1280999 -7.0443001 73.248001
-6.0332999 -7.0268002 73.067001
-5.9396 -7.0102 72.893997
-5.8527999 -7.0015001 72.803001
-5.7707 -6.9981999 72.768997
-5.6931 -7.0002999 72.791
-5.6174002 -7.0049 72.838997
-5.5430999 -7.0114002 72.905998
-5.4745002 -7.0254002 73.052002
-5.4029002 -7.0358 73.160004
-5.3302999 -7.0454001 73.260002
-5.2572999 -7.0545001 73.355003
-5.1833 -7.0626998 73.440002
-5.1065998 -7.0674 73.487999
-5.0268998 -7.0679998 73.495003
-4.9464998 -7.0675998 73.490997
-4.8656998 -7.0665998 73.480003
-4.7849002 -7.0655999 73.470001
-4.7037001 -7.0640998 73.454002
-4.6227999 -7.0627999 73.440002
-4.5416999 -7.0611 73.422997
-4.461 -7.0601001 73.412003
-4.3800998 -7.0588002 73.399002
-4.2996001 -7.0580001 73.390999
-4.2188001 -7.0566001 73.376999
-4.1381998 -7.0558 73.366997
-4.0574002 -7.0542002 73.350998
-3.9768 -7.0532999 73.341003
-3.8961999 -7.052 73.329002
-3.8158 -7.0513 73.320999
-3.7355001 -7.0504999 73.313004
-3.6554999 -7.0503998 73.311996
-3.5755999 -7.0503998 73.311996
-3.4958999 -7.0509 73.317001
-3.4163001 -7.0517001 73.324997
-3.3371 -7.0531998 73.341003
-3.2581 -7.0552001 73.362
-3.1791 -7.0574999 73.385002
-3.0999999 -7.0597 73.407997
-3.0216999 -7.0637002 73.449997
-2.9447999 -7.0713 73.528999
-2.8685 -7.0809999 73.629997
-2.7931001 -7.0932999 73.758003
-2.7195001 -7.1111999 73.943001
-2.6470001 -7.1331 74.171997
-2.5759001 -7.1601 74.452003
-2.5309999 -7.2642002 75.535004
-2.457 -7.2891002 75.793999
-2.3806 -7.3081999 75.992996
-2.3011999 -7.3192 76.106003
-2.2200999 -7.3253999 76.171997
-2.1378 -7.3281002 76.199997
-2.0539 -7.3249998 76.167
-1.9692 -7.3192 76.107002
-1.8839 -7.3101001 76.012001
-1.799 -7.3018999 75.927002
-1.7146 -7.2950001 75.855003
-1.6307 -7.2898002 75.801003
-1.5474 -7.2865 75.766998
-1.4645 -7.2849998 75.751999
-1.3817 -7.2842002 75.742996
-1.2991 -7.2842002 75.742996
-1.2165999 -7.2842999 75.744003
-1.1341 -7.2848001 75.749001
-1.0515 -7.2849998 75.750999
-0.96886998 -7.2848001 75.749001
-0.88612998 -7.2835999 75.737
-0.80334002 -7.2817001 75.717003
-0.72055 -7.2793999 75.693001
-0.63788003 -7.2778001 75.676003
-0.55526 -7.2764001 75.661003
-0.47272 -7.2757001 75.654999
-0.39021 -7.2753 75.651001
-0.30768999 -7.2747002 75.643997
-0.22518 -7.2736001 75.633003
-0.1427 -7.2726002 75.622002
-0.060231999 -7.2715001 75.611
0.022209 -7.2712998 75.609001
0.10466 -7.2722998 75.620003
0.18724 -7.2772999 75.670998
0.27000001 -7.2841001 75.741997
0.35295999 -7.2919002 75.822998
0.43614 -7.3003001 75.910004
0.51972002 -7.3116999 76.028999
0.60338002 -7.3209 76.124001
0.68704998 -7.3280001 76.198997
0.77076 -7.3340001 76.260002
0.85430002 -7.3374 76.295998
0.93741 -7.3368001 76.289001
1.0203 -7.3344002 76.264
1.103 -7.3318 76.237999
1.1859 -7.3302002 76.221001
1.2689 -7.3295999 76.214996
1.3522 -7.3305001 76.223999
1.4357001 -7.3323998 76.244003
1.5194 -7.3355999 76.277
1.6035 -7.3397999 76.320999
1.6878999 -7.3448 76.373001
1.7725 -7.3504 76.431
1.8573 -7.3562999 76.491997
1.9424 -7.3624001 76.556
2.0274 -7.3681998 76.616997
2.1127 -7.3741002 76.677002
2.198 -7.3800001 76.737999
2.2835 -7.3859 76.801003
2.3691001 -7.3917999 76.862
2.4549 -7.3976998 76.922997
2.5408001 -7.4035001 76.984001
2.6268001 -7.4092999 77.043999
2.7128999 -7.4152002 77.105003
2.7994001 -7.4215002 77.169998
2.8859999 -7.428 77.237999
2.9732001 -7.4354 77.315002
3.0608001 -7.4432998 77.397003
3.1487 -7.4516001 77.483002
3.2369001 -7.4601998 77.571999
3.3255 -7.4692998 77.667
3.4145 -7.4787002 77.764999
3.5051999 -7.4913001 77.896004
3.5978 -7.5072999 78.063004
3.6921999 -7.5263 78.261002
3.7881999 -7.5475001 78.481003
3.8868001 -7.5728002 78.744003
3.99 -7.6058998 79.087997
4.1145 -7.6774001 79.831001
4.2175002 -7.7065001 80.134003
4.3189998 -7.7318001 80.397003
4.4169002 -7.7498002 80.584
4.5118999 -7.7620001 80.710999
4.6052999 -7.7712002 80.806
4.6971998 -7.7774 80.871002
4.7866998 -7.7796001 80.893997
4.8748999 -7.7796001 80.893997
4.9628 -7.7790999 80.889
5.0503001 -7.7781 80.877998
5.1378002 -7.777 80.866997
5.2252002 -7.7758002 80.855003
5.3126001 -7.7747002 80.843002
5.3997002 -7.7732 80.827003
5.4868999 -7.7718 80.813004
5.5734 -7.7697001 80.791
5.6592002 -7.7665 80.758003
5.7437 -7.7617002 80.708
5.8269 -7.7554002 80.641998
5.9095001 -7.7484002 80.569
5.9916 -7.7409 80.491997
6.0734 -7.7333002 80.413002
6.1566 -7.7277002 80.353996
6.2413001 -7.7241001 80.317001
6.3288002 -7.724 80.316002
6.4143 -7.7214999 80.290001
6.5014 -7.7210002 80.285004
6.5907001 -7.7231002 80.306
7.1589999 -6.8432999 71.158997
7.2343001 -6.8411999 71.137001
7.3126001 -6.8418999 71.143997
7.3913002 -6.8428998 71.153999
7.4720001 -6.8457999 71.183998
7.5565 -6.8520002 71.249001
7.6429 -6.8597999 71.330002
7.7322998 -6.8702002 71.438004
7.8206 -6.8793001 71.532997
7.9081998 -6.8877001 71.620003
7.9941001 -6.8944001 71.690002
8.0775995 -6.8990002 71.737
8.1577997 -6.9007001 71.754997
8.2342997 -6.8992 71.738998
8.3079004 -6.8954 71.699997
8.3803997 -6.8906999 71.651001
8.4532003 -6.8864002 71.606003
8.5270004 -6.8829002 71.57
8.6001997 -6.8790998 71.529999
8.6715002 -6.8737998 71.474998
9.0118999 -6.5746002 67.598
8.9989004 -6.4914999 67.5
9.0740004 -6.4926 67.511002
9.1499004 -6.4942002 67.528
9.2264004 -6.4962001 67.549004
9.3044004 -6.4993 67.581001
9.3827 -6.5023999 67.613998
9.4596996 -6.5047998 67.638
9.5344 -6.5054002 67.643997
9.6077995 -6.5050998 67.641998
9.6764002 -6.5016999 67.606003
9.7423 -6.4965 67.552002
10.003 -6.4745002 67.322998
10.08 -6.4766998 67.346001
10.164 -6.4835 67.417
10.252 -6.4928002 67.513
10.346 -6.5054002 67.644997
10.444 -6.5205002 67.802002
10.543 -6.5363998 67.967003
10.64 -6.5503001 68.111
10.734 -6.5626998 68.239998
10.826 -6.573 68.348
10.914 -6.5811 68.431
10.998 -6.5867 68.489998
11.079 -6.5904002 68.528
11.159 -6.5936999 68.563004
11.25 -6.6030002 68.658997
11.348 -6.6164999 68.799004
11.457 -6.6363001 69.005997
11.581 -6.6645999 69.300003
13.769 -7.7115002 79.287003
13.698 -7.5858998 78.879997
13.847 -7.6204 79.237999
13.909 -7.7413998 79.595001
13.984 -7.6483002 79.528999
14.039 -7.7652998 79.839996
14.107 -7.6676002 79.728996
14.263 -7.7926998 80.122002
14.224 -7.6838999 79.899002
14.329 -7.6939001 80.002998
14.364 -7.7997999 80.195
14.428 -7.6999002 80.065002
14.456 -7.8025999 80.223
14.521 -7.7031002 80.098999
14.612 -7.7048001 80.115997
14.699 -7.7045999 80.113998
14.78 -7.7012 80.078003
14.853 -7.6940999 80.004997
14.924 -7.6858001 79.917999
14.992 -7.6759 79.816002
15.055 -7.6634998 79.686996
15.117 -7.651 79.556999
15.183 -7.6406999 79.449997
15.252 -7.6314998 79.355003
15.323 -7.6241002 79.277
15.398 -7.6181998 79.216003
15.476 -7.6145 79.177002
15.559 -7.6124001 79.155998
15.643 -7.6114998 79.146004
15.728 -7.6108999 79.139999
15.816 -7.6114998 79.146004
15.902 -7.6114998 79.147003
15.99 -7.6124001 79.155998
16.080999 -7.6145 79.177002
16.172001 -7.6169 79.202003
16.261999 -7.6183 79.217003
16.349001 -7.6187 79.221001
16.431 -7.6169 79.202003
16.511 -7.6135998 79.167999
16.586 -7.6083999 79.113998
16.659 -7.6027002 79.055
16.73 -7.5956001 78.981003
16.801001 -7.5888 78.910004
16.872 -7.5822001 78.842003
16.945 -7.5763998 78.780998
17.018999 -7.5711002 78.725998
17.097 -7.5676999 78.691002
17.177999 -7.5654998 78.667999
17.261999 -7.5644999 78.656998
17.344999 -7.5636001 78.648003
17.43 -7.5629001 78.640999
17.514 -7.5623002 78.635002
17.599001 -7.5619998 78.630997
17.684 -7.5616999 78.627998
17.768999 -7.5615001 78.625999
17.856001 -7.5618 78.628998
17.943001 -7.5625 78.636002
18.032 -7.5637999 78.651001
18.124001 -7.5664001 78.677002
18.216999 -7.5696001 78.710999
18.313999 -7.5739002 78.754997
18.412001 -7.5788999 78.806999
18.511999 -7.585 78.870003
18.615 -7.5918999 78.942001
18.722 -7.6004 79.030998
18.832001 -7.6099 79.129997
18.944 -7.6204 79.237999
19.056999 -7.6308999 79.348
19.171 -7.6419001 79.461998
19.285999 -7.6531 79.578003
19.402 -7.6645002 79.696999
19.516001 -7.6753001 79.808998
19.632 -7.6865001 79.926003
19.749001 -7.6981001 80.046997
19.867001 -7.7103 80.172997
19.988001 -7.723 80.306
20.110001 -7.7365999 80.446999
20.235001 -7.7508998 80.595001
20.362 -7.7656999 80.75
20.482 -7.7778001 80.875999
20.594999 -7.7870998 80.972
20.700001 -7.7933998 81.038002
20.798 -7.7972002 81.077003
20.889999 -7.7983999 81.089996
20.976999 -7.7978001 81.084
21.073 -7.8007998 81.113998
21.198 -7.8141999 81.253998
21.332001 -7.8309002 81.427002
21.476999 -7.8513999 81.640999
21.635 -7.8764 81.901001
21.896 -7.9387999 82.549004
22.101 -7.9804001 82.982002
22.290001 -8.0157003 83.348999
22.466 -8.0460997 83.665001
22.620001 -8.0684996 83.898003
22.73 -8.0753002 83.968002
22.83 -8.0782003 83.999001
22.923 -8.0787001 84.003998
23.014999 -8.0789003 84.005997
23.101999 -8.0773001 83.989998
-14.821 -7.8936 83.021004
-14.761 -7.9098001 83.191002
-14.692 -7.9215999 83.315002
-14.644 -7.9447999 83.558998
-14.571 -7.9545002 83.661003
-14.505 -7.9685001 83.808998
-14.433 -7.9794998 83.924004
-14.356 -7.9871998 84.004997
-14.259 -7.9843001 83.974998
-14.158 -7.9791002 83.919998
-14.056 -7.9733 83.859001
-13.955 -7.9678001 83.801003
-13.857 -7.9636998 83.758003
-13.761 -7.9612002 83.732002
-13.67 -7.9615002 83.735001
-13.583 -7.9640002 83.761002
-13.499 -7.9682999 83.806
-13.418 -7.9744 83.870003
-13.339 -7.9819002 83.949997
-13.261 -7.9899001 84.032997
-13.182 -7.9973998 84.112
-13.1 -8.0037003 84.179001
-13.017 -8.0086002 84.230003
-12.929 -8.0115004 84.261002
-12.84 -8.0132999 84.279999
-12.751 -8.0149002 84.295998
-12.661 -8.0162001 84.309998
-12.573 -8.0181999 84.332001
-12.484 -8.0204 84.353996
-12.396 -8.0228996 84.379997
-12.307 -8.0251999 84.403999
-12.219 -8.0278997 84.432999
-12.13 -8.0293999 84.448997
-12.039 -8.0305004 84.460999
-11.948 -8.0307999 84.463997
-11.855 -8.0302 84.458
-11.759 -8.0277996 84.431999
-11.661 -8.0241003 84.392998
-11.564 -8.0202999 84.352997
-11.469 -8.0178003 84.327003
-11.413 -8.0436001 84.598999
-11.365 -8.0747995 84.927002
-11.326 -8.1129999 85.328003
-11.299 -8.1609001 85.832001
-7.0264001 -7.0644999 74.300003
-6.9439001 -7.0630002 74.285004
-6.8614998 -7.0616002 74.269997
-6.7782998 -7.0592999 74.246002
-6.6929002 -7.0545001 74.195999
-6.6018 -7.0437002 74.082001
-6.5086002 -7.0303001 73.941002
-6.4144001 -7.0153999 73.783997
-6.2196999 -6.9775 73.386002
-6.1208 -6.9561 73.160004
-6.0258999 -6.9386001 72.976997
-5.9342999 -6.9245 72.829002
-5.8498001 -6.9184999 72.765999
-5.7690001 -6.9169002 72.748001
-5.6926999 -6.9204998 72.786003
-5.6174002 -6.9254999 72.838997
-5.5434999 -6.9324002 72.911003
-5.4734001 -6.9443002 73.037003
-5.4029999 -6.9562001 73.162003
-5.3302999 -6.9654002 73.258003
-5.2565999 -6.9737 73.346001
-5.1820998 -6.9811001 73.422997
-5.1047001 -6.9847002 73.461998
-5.0243001 -6.9842 73.456001
-4.9436998 -6.9835 73.448997
-4.8627 -6.9822001 73.435997
-4.7818999 -6.9811001 73.422997
-4.7006998 -6.9794002 73.405998
-4.6198001 -6.9780998 73.391998
-4.5387998 -6.9766002 73.376999
-4.4582 -6.9756999 73.366997
-4.3775001 -6.9745002 73.353996
-4.2971001 -6.9738998 73.348
-4.2164998 -6.9728999 73.336998
-4.1360998 -6.9721999 73.330002
-4.0556002 -6.9713001 73.32
-3.9754 -6.9707999 73.315002
-3.8952 -6.9703002 73.309998
-3.8153 -6.9703002 73.309998
-3.7353001 -6.9702001 73.308998
-3.6557 -6.9709001 73.316002
-3.5761001 -6.9714999 73.322998
-3.4967 -6.9727001 73.334999
-3.4173999 -6.9738998 73.348
-3.3383 -6.9758 73.367996
-3.2593 -6.9777999 73.389
-3.1802001 -6.9798999 73.411003
-3.1018 -6.9836998 73.450996
-3.0242 -6.9893999 73.510002
-2.948 -6.9987001 73.609001
-2.8726001 -7.0106001 73.733002
-2.7981 -7.0254002 73.889
-2.7256999 -7.0465002 74.111
-2.6545999 -7.0724001 74.384003
-2.6111 -7.1759 75.472
-2.5380001 -7.2019 75.745003
-2.4621 -7.2214999 75.952003
-2.3841 -7.2360001 76.105003
-2.3034 -7.2431998 76.181
-2.2212999 -7.2463999 76.213997
-2.1382 -7.2462001 76.211998
-2.0536001 -7.2410002 76.156998
-1.9684 -7.2332001 76.074997
-1.8832 -7.2244 75.983002
-1.7984999 -7.2172999 75.906998
-1.7144001 -7.2114 75.846001
-1.6307 -7.2072001 75.801003
-1.5476 -7.2051001 75.778999
-1.4649 -7.2047 75.776001
-1.3823 -7.2048998 75.777
-1.2999001 -7.2056999 75.786003
-1.2173001 -7.2062001 75.791
-1.1348 -7.2066998 75.795998
-1.052 -7.2062001 75.791
-0.96925002 -7.2051001 75.778999
-0.88634002 -7.2027001 75.754997
-0.80338001 -7.1996002 75.721001
-0.72046 -7.1960001 75.683998
-0.63766998 -7.1929002 75.651001
-0.55495 -7.1898999 75.620003
-0.47237 -7.1880002 75.599998
-0.38986 -7.1865001 75.584
-0.30737999 -7.1848998 75.567001
-0.22493 -7.1831999 75.549004
-0.14252999 -7.1817002 75.533997
-0.060159001 -7.1803002 75.518997
0.022182001 -7.1802001 75.516998
0.10456 -7.1830001 75.546997
0.18711001 -7.1897001 75.617996
0.26987001 -7.1981001 75.706001
0.35288 -7.2076001 75.805
0.43612999 -7.2174001 75.907997
0.51995999 -7.2321 76.063004
0.60363001 -7.2409 76.155998
0.68738002 -7.2484999 76.235001
0.77113998 -7.2544999 76.299004
0.85457999 -7.2565999 76.320999
0.93755001 -7.2546 76.300003
1.0202 -7.2511001 76.264
1.1029 -7.2477002 76.226997
1.1856 -7.2451 76.199997
1.2684 -7.2438002 76.185997
1.3515 -7.2438002 76.186996
1.4349 -7.2452998 76.202003
1.5185 -7.2480001 76.231003
1.6025 -7.2521 76.274002
1.6868 -7.257 76.324997
1.7714 -7.2624998 76.383003
1.8562 -7.2684002 76.445
1.9412 -7.2744002 76.508003
2.0262001 -7.2802 76.57
2.1113999 -7.2860999 76.630997
2.1966 -7.2918 76.691002
2.2821 -7.2975001 76.750999
2.3677001 -7.3035002 76.815002
2.4535 -7.3095999 76.877998
2.5394001 -7.3154998 76.940002
2.6254001 -7.3214002 77.001999
2.7114999 -7.3273001 77.065002
2.7980001 -7.3337002 77.132004
2.8845999 -7.3401999 77.199997
2.9717 -7.3474002 77.276001
3.0592999 -7.3552999 77.359001
3.1472001 -7.3636999 77.447998
3.2355001 -7.3723998 77.539001
3.3241999 -7.3817 77.637001
3.4131999 -7.3912001 77.736
3.5033 -7.4022999 77.853996
3.5950999 -7.4166999 78.004997
3.6886001 -7.4337001 78.183998
3.7832999 -7.4521999 78.378998
3.8806 -7.4749999 78.617996
3.9807 -7.5022998 78.904999
4.0837998 -7.5338001 79.236
4.2083998 -7.6027002 79.960999
4.3112998 -7.6304998 80.252998
4.4109001 -7.6515002 80.474998
4.5077 -7.6669002 80.636002
4.6026001 -7.6785998 80.759003
4.6957998 -7.6869001 80.847
4.7866001 -7.6911001 80.890999
4.8758001 -7.6928 80.908997
4.9639001 -7.6925998 80.906998
5.0514998 -7.6915998 80.897003
5.1389999 -7.6905999 80.885002
5.2262998 -7.6893001 80.872002
5.3137002 -7.6880999 80.859001
5.4007001 -7.6866002 80.843002
5.4878998 -7.6851001 80.828003
5.5746002 -7.6831999 80.806999
5.6606002 -7.6803002 80.778
5.7452998 -7.6759 80.731003
5.8291001 -7.6703 80.671997
5.9123001 -7.6641002 80.607002
5.9952002 -7.6577001 80.540001
6.0778999 -7.6513 80.473
6.1623001 -7.6471 80.428001
6.2473998 -7.6440001 80.394997
6.3354998 -7.6444998 80.401001
6.4215999 -7.6426001 80.380997
6.5092001 -7.6424999 80.379997
6.5987 -7.6447001 80.403
6.691 -7.6501002 80.459999
7.1876001 -6.7927999 71.443001
7.2624002 -6.7898998 71.413002
7.3395 -6.7891998 71.404999
7.4143 -6.7863998 71.375999
7.4924998 -6.7866998 71.378998
7.5745001 -6.7904 71.417999
7.6610999 -6.7982998 71.5
7.7463002 -6.8045998 71.567001
7.8323002 -6.8115001 71.639
7.9176998 -6.8178 71.706001
8.0017004 -6.8227 71.758003
8.0834999 -6.8256998 71.790001
8.1626997 -6.8264999 71.797997
8.2383003 -6.8242998 71.774002
8.3095999 -6.8186002 71.714996
8.3795004 -6.8118 71.642998
8.4488001 -6.8048 71.569
8.5185003 -6.7981 71.499001
8.5882998 -6.7916999 71.431
8.6557999 -6.7835002 71.346001
8.9902 -6.4116998 67.434998
9.0648003 -6.4124999 67.443001
9.1401997 -6.4137998 67.457001
9.2159996 -6.4152999 67.473
9.2932997 -6.4179001 67.5
9.3710003 -6.4207001 67.529999
9.4474001 -6.4225998 67.550003
9.5213003 -6.4228001 67.551003
9.5948 -6.4226999 67.550003
9.6644001 -6.4200001 67.522003
9.7313995 -6.4155998 67.475998
9.8657999 -6.4808002 67.389
9.8654003 -6.4071002 67.386002
9.9322996 -6.4762998 67.342003
9.9354 -6.4049001 67.362999
10.01 -6.4053998 67.367996
10.089 -6.4088998 67.404999
10.175 -6.4172001 67.492996
10.266 -6.4277 67.602997
10.36 -6.4404998 67.737999
10.458 -6.4555001 67.896004
10.556 -6.4703999 68.052002
10.651 -6.4829998 68.184998
10.744 -6.4938998 68.300003
10.832 -6.5021 68.386002
10.917 -6.5086002 68.454002
10.998 -6.5124002 68.494003
11.077 -6.5146999 68.517998
11.155 -6.5166998 68.539001
11.248 -6.5268998 68.647003
11.348 -6.5415001 68.800003
11.461 -6.5632 69.028
11.587 -6.5921998 69.333
13.124 -7.4071999 77.022003
13.262 -7.3530998 77.335999
13.364 -7.4949002 77.932999
13.456 -7.4137001 77.973
13.535 -7.5427999 78.431
13.631 -7.4633002 78.495003
13.788 -7.5016999 78.899002
13.932 -7.533 79.228996
14.061 -7.5562 79.472
14.184 -7.5755 79.675003
14.296 -7.5889001 79.816002
14.399 -7.5971999 79.903999
14.496 -7.6026001 79.959999
14.588 -7.6048999 79.984001
14.676 -7.6055999 79.991997
14.76 -7.6036 79.971001
14.838 -7.5988002 79.920998
14.912 -7.5922999 79.850998
14.982 -7.5840001 79.764
15.049 -7.5738001 79.656998
15.113 -7.5625 79.538002
15.18 -7.5527 79.434998
15.247 -7.5426998 79.330002
15.315 -7.5334001 79.233002
15.384 -7.5253 79.147003
15.459 -7.5197001 79.088997
15.535 -7.5148001 79.037003
15.617 -7.5124998 79.012001
15.699 -7.5105 78.990997
15.786 -7.5109 78.996002
15.873 -7.5117998 79.004997
15.968 -7.5158 79.046997
16.062 -7.5194998 79.085999
16.157 -7.5233998 79.126999
16.249001 -7.5258999 79.153999
16.337999 -7.5272002 79.167
16.421 -7.5258002 79.152
16.500999 -7.5228 79.121002
16.577 -7.5180998 79.071999
16.650999 -7.5128002 79.015999
16.722 -7.5061002 78.945
16.794001 -7.4998002 78.878998
16.867001 -7.4937 78.815002
16.940001 -7.4882998 78.757004
17.014999 -7.4833999 78.707001
17.094 -7.4805002 78.676003
17.176001 -7.4786 78.655998
17.259001 -7.4777002 78.647003
17.343 -7.4769001 78.638
17.427999 -7.4762998 78.632004
17.511999 -7.4756999 78.625999
17.597 -7.4754 78.622002
17.681999 -7.4752002 78.620003
17.768 -7.4751 78.619003
17.854 -7.4754 78.623001
17.941999 -7.4762998 78.632004
18.031 -7.4777999 78.648003
18.124001 -7.4805999 78.677002
18.218 -7.4842 78.713997
18.316 -7.4889002 78.764
18.415001 -7.4942002 78.82
18.517 -7.5007 78.888
18.621 -7.5081 78.966003
18.728001 -7.5165 79.055
18.839001 -7.5265002 79.160004
18.952 -7.5372 79.272003
19.066 -7.5478001 79.384003
19.179001 -7.5584998 79.497002
19.294001 -7.5695 79.612
19.409 -7.5805001 79.727997
19.524 -7.5914001 79.843002
19.641001 -7.6030002 79.963997
19.76 -7.6150999 80.092003
19.879 -7.6275001 80.222
20.000999 -7.6406002 80.360001
20.127001 -7.6553001 80.514999
20.257 -7.6711001 80.68
20.381001 -7.6848001 80.823997
20.502001 -7.6971002 80.954002
20.615 -7.7062001 81.050003
20.719 -7.7122002 81.112999
20.816 -7.7154002 81.146004
20.905001 -7.7154999 81.148003
20.990999 -7.7145 81.137001
21.091 -7.7189002 81.182999
21.219 -7.7333002 81.334999
21.357 -7.7512002 81.523003
21.506001 -7.7728 81.750999
21.674 -7.8011999 82.049004
21.976999 -7.8778 82.853996
22.184 -7.9193001 83.291
22.375 -7.9549999 83.666
22.540001 -7.9812999 83.943001
22.68 -7.9980998 84.120003
22.783001 -8.0022001 84.162003
22.879999 -8.0039997 84.181999
22.969999 -8.0036001 84.177002
23.059 -8.0024004 84.165001
-14.817 -7.8010001 82.999001
-14.754 -7.8157001 83.154999
-14.686 -7.8274999 83.280998
-14.638 -7.8506999 83.527
-14.566 -7.8608999 83.636002
-14.501 -7.8751001 83.787003
-14.431 -7.8866 83.908997
-14.355 -7.8951001 83.999001
-14.258 -7.8924999 83.972
-14.157 -7.8871002 83.915001
-14.055 -7.8811002 83.850998
-13.953 -7.8752999 83.789001
-13.854 -7.8709002 83.741997
-13.758 -7.8683 83.713997
-13.668 -7.8685999 83.718002
-13.581 -7.8710999 83.744003
-13.497 -7.8755002 83.791
-13.416 -7.8814998 83.855003
-13.337 -7.8892002 83.936996
-13.259 -7.8969998 84.019997
-13.18 -7.9046998 84.101997
-13.099 -7.9109998 84.168999
-13.015 -7.9159999 84.222
-12.928 -7.9187002 84.25
-12.839 -7.9204001 84.268997
-12.749 -7.9218998 84.285004
-12.659 -7.9231 84.297997
-12.571 -7.9250002 84.318001
-12.482 -7.9271002 84.339996
-12.393 -7.9292998 84.363998
-12.305 -7.9313998 84.386002
-12.216 -7.9338002 84.411003
-12.126 -7.9347 84.420998
-12.034 -7.9351001 84.425003
-11.941 -7.9345002 84.418999
-11.847 -7.9329 84.402
-11.75 -7.9298 84.369003
-11.652 -7.9253001 84.321999
-11.553 -7.9211001 84.276001
-11.458 -7.9187002 84.250999
-11.399 -7.9414001 84.492996
-11.351 -7.9724998 84.822998
-11.313 -8.0108995 85.232002
-11.288 -8.0594997 85.749001
-7.0297999 -6.9868999 74.336998
-6.9471002 -6.9851999 74.319
-6.8660002 -6.9850998 74.318001
-6.7838001 -6.9840002 74.306
-6.6985998 -6.9796 74.260002
-6.6062999 -6.9677 74.132004
-6.5110002 -6.9521999 73.967003
-6.4148998 -6.9355001 73.791
-6.2115998 -6.8885002 73.290001
-6.1115999 -6.8660002 73.050003
-6.0188999 -6.8511 72.891998
-5.9296999 -6.8397999 72.772003
-5.8467999 -6.8358002 72.728996
-5.7673998 -6.8354998 72.726997
-5.6915998 -6.8397999 72.772003
-5.6167002 -6.8452001 72.830002
-5.5430999 -6.8523998 72.905998
-5.4726 -6.8636999 73.026001
-5.4022002 -6.8754001 73.150002
-5.329 -6.8839998 73.241997
-5.2550001 -6.8915 73.321999
-5.1799002 -6.8979998 73.390999
-5.1019001 -6.9007001 73.419998
-5.0212998 -6.9000001 73.413002
-4.9407001 -6.8993001 73.404999
-4.8597002 -6.8979001 73.389999
-4.7788 -6.8966999 73.376999
-4.6977 -6.895 73.359001
-4.6169 -6.8938999 73.347
-4.5360999 -6.8924999 73.332001
-4.4555998 -6.8916998 73.324997
-4.3751998 -6.8909001 73.316002
-4.2950001 -6.8906002 73.311996
-4.2146001 -6.8899002 73.305
-4.1345 -6.8895998 73.301003
-4.0542998 -6.8891001 73.295998
-3.9744999 -6.8892999 73.299004
-3.8947001 -6.8894 73.300003
-3.8151 -6.8901 73.306999
-3.7355001 -6.8906999 73.314003
-3.6563001 -6.8920002 73.327003
-3.5769999 -6.8931999 73.339996
-3.4978001 -6.8948998 73.358002
-3.4187 -6.8965998 73.375999
-3.3397 -6.8986001 73.397003
-3.2605 -6.9004002 73.417
-3.1822 -6.9040999 73.456001
-3.1045001 -6.9095001 73.513
-3.0274999 -6.9168 73.591003
-2.9521999 -6.9282999 73.712997
-2.8777001 -6.9425998 73.864998
-2.8043001 -6.9601998 74.053001
-2.7334001 -6.9854002 74.320999
-2.6912 -7.0876999 75.408997
-2.6187999 -7.1143999 75.693001
-2.5434999 -7.1346002 75.908997
-2.4658999 -7.1497998 76.07
-2.3864999 -7.1602998 76.181999
-2.3048 -7.1644001 76.225998
-2.2217 -7.1645002 76.226997
-2.1378 -7.1620002 76.199997
-2.0525999 -7.1546998 76.122002
-1.9675 -7.1468 76.039001
-1.8825999 -7.1394 75.959999
-1.7982 -7.1331 75.892998
-1.7143 -7.1283998 75.842003
-1.6309 -7.1252999 75.808998
-1.548 -7.1244001 75.799004
-1.4655 -7.125 75.806
-1.3831 -7.1261001 75.818001
-1.3006999 -7.1279001 75.836998
-1.2183 -7.1294999 75.855003
-1.1356 -7.1293998 75.852997
-1.0527 -7.1279001 75.836998
-0.96961999 -7.1251001 75.807999
-0.88647002 -7.1212001 75.765999
-0.80335999 -7.1167998 75.719002
-0.72030002 -7.1118002 75.666
-0.63738 -7.1072998 75.617996
-0.55458999 -7.1027999 75.57
-0.47198001 -7.0995998 75.536003
-0.38947001 -7.0969 75.507004
-0.30704001 -7.0946999 75.484001
-0.22465999 -7.0921998 75.457001
-0.14235 -7.0904999 75.440002
-0.060084 -7.0890999 75.424004
0.022158001 -7.0901999 75.435997
0.10447 -7.0943999 75.481003
0.18698999 -7.1027999 75.57
0.26976001 -7.1125002 75.674004
0.35286 -7.1243 75.799004
0.43621001 -7.1357999 75.921997
0.52025002 -7.1532001 76.106003
0.60400999 -7.1623998 76.204002
0.68786001 -7.1704001 76.289001
0.77156001 -7.1752 76.339996
0.8549 -7.1760001 76.348999
0.93773001 -7.1729002 76.315002
1.0203 -7.1683998 76.267998
1.1028 -7.1641002 76.222
1.1853 -7.1605 76.183998
1.268 -7.1582999 76.161003
1.3509001 -7.1574998 76.152
1.4341 -7.1582999 76.161003
1.5176001 -7.1606998 76.185997
1.6015 -7.1644001 76.224998
1.6858 -7.1691999 76.277
1.7703 -7.1746998 76.334999
1.855 -7.1805 76.397003
1.9400001 -7.1866002 76.460999
2.0250001 -7.1922998 76.523003
2.1101 -7.1982002 76.584999
2.1953001 -7.2038002 76.643997
2.2806001 -7.2093 76.703003
2.3662 -7.2150998 76.764999
2.4519 -7.2212 76.830002
2.5378001 -7.2272 76.893997
2.6238 -7.2332001 76.958
2.71 -7.2392998 77.023003
2.7965 -7.2456999 77.091003
2.8831 -7.2522001 77.158997
2.9702001 -7.2593999 77.236
3.0578001 -7.2673998 77.320999
3.1457 -7.2758002 77.411003
3.234 -7.2845001 77.502998
3.3229001 -7.2940998 77.606003
3.4119999 -7.3038001 77.709
3.5014 -7.3134999 77.811996
3.5926001 -7.3263998 77.948997
3.6849999 -7.3413 78.108002
3.7788 -7.3580999 78.287003
3.8745999 -7.3779001 78.497002
3.9732001 -7.4022999 78.755997
4.0742998 -7.4299002 79.050003
4.1771002 -7.4594998 79.365997
4.3014002 -7.5256 80.069
4.4036002 -7.5513 80.342003
4.5022001 -7.5696998 80.538002
4.5987 -7.5840998 80.690002
4.6932998 -7.5946999 80.804001
4.7852998 -7.6009998 80.871002
4.8758001 -7.6046 80.908997
4.9647999 -7.6058002 80.921997
5.0525999 -7.6051002 80.914001
5.1401 -7.6040001 80.903
5.2275 -7.6027999 80.889999
5.3147998 -7.6015 80.875999
5.4018998 -7.5999999 80.860001
5.4889002 -7.5984001 80.843002
5.5756998 -7.5964999 80.822998
5.6617999 -7.5939002 80.795998
5.7467999 -7.5897002 80.750999
5.8308001 -7.5844998 80.695
5.9144001 -7.5788999 80.636002
5.9979 -7.5732999 80.575996
6.0813999 -7.5679998 80.518997
6.1655998 -7.5634999 80.471001
6.2509999 -7.5606999 80.442001
6.3396001 -7.5616999 80.453003
6.4257998 -7.5598998 80.432999
6.5135002 -7.5599999 80.433998
6.6030002 -7.5619998 80.455002
6.6947999 -7.5665998 80.503998
7.2228999 -6.7479 71.793999
7.2954998 -6.7426 71.737999
7.3685002 -6.7378998 71.688004
7.4419999 -6.7336001 71.641998
7.5174999 -6.7312999 71.617996
7.5970998 -6.7326002 71.632004
7.6792002 -6.7361999 71.668999
7.7620001 -6.7402 71.712997
7.8456998 -6.7449002 71.763
7.9291 -6.7493 71.808998
8.0109997 -6.7523999 71.842003
8.0909004 -6.7536001 71.855003
8.1686001 -6.7532001 71.849998
8.2434998 -6.7502999 71.82
8.3119001 -6.7423 71.735001
8.3788004 -6.7332001 71.638
8.4446001 -6.7234001 71.532997
8.5093002 -6.7129002 71.421997
8.9806995 -6.3315001 67.362999
9.0546999 -6.3319001 67.367996
9.1287003 -6.3323002 67.372002
9.2039003 -6.3334999 67.385002
9.2804003 -6.3354998 67.405998
9.3571997 -6.3376999 67.43
9.4335003 -6.3396001 67.449997
9.5072002 -6.3397002 67.450996
9.5796003 -6.3390002 67.444
9.6506004 -6.3372998 67.425003
9.7205 -6.335 67.401001
9.7907 -6.3327999 67.377998
9.8626003 -6.3318 67.366997
9.9370003 -6.3323998 67.374001
10.016 -6.3358002 67.408997
10.098 -6.3411999 67.467003
10.186 -6.3502002 67.563004
10.279 -6.3621001 67.690002
10.376 -6.3764 67.841003
10.474 -6.3913999 68.000999
10.571 -6.4049001 68.144997
10.664 -6.4162998 68.265999
10.754 -6.4254999 68.362999
10.84 -6.4323001 68.435997
10.921 -6.4363999 68.480003
10.999 -6.4383001 68.5
11.075 -6.4390001 68.507004
11.152 -6.4401002 68.519997
11.246 -6.4513998 68.639
11.347 -6.4663 68.799004
11.463 -6.4892998 69.042999
11.597 -6.5222998 69.393997
12.365 -6.9445 73.039001
12.344 -6.8533001 72.915001
12.54 -6.9172001 73.595001
12.589 -7.0251002 73.886002
12.735 -6.98 74.264
13.736 -7.3878999 78.603996
13.886 -7.4221001 78.968002
14.02 -7.4478002 79.240997
14.149 -7.4699998 79.476997
14.266 -7.4858999 79.646004
14.373 -7.4967999 79.762001
14.474 -7.5039001 79.837997
14.57 -7.5085001 79.887001
14.659 -7.5096998 79.899002
14.744 -7.5086002 79.888
14.826 -7.5057001 79.857002
14.903 -7.5007 79.804001
14.975 -7.4935002 79.726997
15.044 -7.4842 79.627998
15.11 -7.4738998 79.518997
15.177 -7.4643998 79.417999
15.241 -7.4534998 79.301003
15.304 -7.4418001 79.177002
15.37 -7.4320998 79.072998
15.438 -7.4235001 78.983002
15.511 -7.4171 78.914001
15.586 -7.4120002 78.859001
15.668 -7.4099998 78.838997
15.756 -7.4110999 78.849998
15.848 -7.4138999 78.879997
15.944 -7.4180999 78.925003
16.041 -7.4236002 78.983002
16.141001 -7.4295998 79.046997
16.235001 -7.4331999 79.084999
16.325001 -7.4352002 79.106003
16.409 -7.4341998 79.097
16.49 -7.4317002 79.07
16.566999 -7.4275999 79.026001
16.642 -7.4228001 78.974998
16.715 -7.4168 78.910004
16.788 -7.4109998 78.848999
16.861 -7.4052 78.788002
16.934999 -7.4001999 78.734001
17.011 -7.3958001 78.686996
17.091 -7.3931999 78.660004
17.173 -7.3916998 78.643997
17.257 -7.3908 78.634003
17.341 -7.3901 78.625999
17.424999 -7.3895001 78.620003
17.51 -7.3889999 78.614998
17.594999 -7.3888001 78.612999
17.68 -7.3885999 78.611
17.766001 -7.3885999 78.611
17.853001 -7.3891001 78.615997
17.941 -7.3902001 78.627998
18.031 -7.3919001 78.646004
18.124001 -7.395 78.679001
18.219999 -7.3989 78.721001
18.318001 -7.4040999 78.775002
18.419001 -7.4099002 78.836998
18.521 -7.4164 78.906998
18.625999 -7.4242001 78.988998
18.733999 -7.4327002 79.080002
18.846001 -7.4429002 79.189003
18.959999 -7.4537001 79.304001
19.073 -7.4640002 79.413002
19.187 -7.4747 79.527
19.302999 -7.4860001 79.647003
19.417 -7.4966998 79.761002
19.533001 -7.5078001 79.878998
19.652 -7.5198998 80.008003
19.773001 -7.5328999 80.146004
19.893999 -7.5458002 80.282997
20.018 -7.5595002 80.429001
20.148001 -7.5753002 80.597
20.278 -7.5911002 80.764999
20.400999 -7.6041002 80.903999
20.521 -7.6160002 81.029999
20.632999 -7.6245999 81.122002
20.736 -7.6300998 81.18
20.829 -7.6315999 81.196999
20.916 -7.6311002 81.191002
20.997 -7.6283002 81.161003
21.103001 -7.6346002 81.227997
21.236 -7.6506 81.399002
21.377001 -7.6694999 81.599998
21.531 -7.6926999 81.846001
21.708 -7.7238002 82.177002
22.062 -7.8174 83.172997
22.259001 -7.855 83.572998
22.437 -7.8855 83.897003
22.605 -7.9123001 84.182999
22.73 -7.9239998 84.307999
22.83 -7.9267998 84.336998
22.924999 -7.9277 84.346001
23.014999 -7.9271002 84.341003
23.098 -7.9240999 84.307999
-14.872 -7.7824998 82.802002
-14.872 -7.6922998 82.802002
-14.814 -7.7089 82.981003
-14.749 -7.7224002 83.125999
-14.68 -7.7336998 83.248001
-14.631 -7.756 83.487999
-14.561 -7.7670002 83.607002
-14.496 -7.7811999 83.760002
-14.427 -7.7933002 83.889999
-14.355 -7.8032999 83.998001
-14.258 -7.8004999 83.968002
-14.156 -7.7951002 83.908997
-14.054 -7.7888999 83.843002
-13.952 -7.7831001 83.779999
-13.853 -7.7786002 83.732002
-13.757 -7.776 83.704002
-13.666 -7.7763 83.707001
-13.579 -7.7789998 83.735001
-13.495 -7.7832999 83.781998
-13.415 -7.7895002 83.848
-13.336 -7.7971001 83.931
-13.258 -7.8049998 84.015999
-13.18 -7.8129001 84.100998
-13.099 -7.8192 84.168999
-13.015 -7.8241 84.221001
-12.928 -7.8267002 84.249001
-12.838 -7.8281999 84.265999
-12.749 -7.8295002 84.279999
-12.658 -7.8305998 84.292
-12.569 -7.8323998 84.310997
-12.481 -7.8344002 84.333
-12.392 -7.8365998 84.356003
-12.303 -7.8385 84.376999
-12.215 -7.8407998 84.401001
-12.124 -7.8415999 84.410004
-12.032 -7.8417001 84.411003
-11.939 -7.8408999 84.402
-11.843 -7.8386002 84.377998
-11.745 -7.8346 84.334999
-11.646 -7.8298001 84.282997
-11.547 -7.8248 84.228996
-11.45 -7.8211002 84.190002
-11.387 -7.8414001 84.407997
-11.335 -7.8687 84.700996
-11.291 -7.9028001 85.069
-11.26 -7.9466 85.540001
-7.0173998 -6.8936 74.206001
-6.9387002 -6.8958998 74.230003
-6.8604002 -6.8985 74.258003
-6.7807002 -6.8997998 74.272003
-6.6973 -6.8972998 74.246002
-6.6029 -6.8832998 74.094002
-6.5054998 -6.8657999 73.905998
-6.4078002 -6.8474998 73.709
-6.2010999 -6.7971001 73.167
-6.1059999 -6.7800999 72.984001
-6.0145001 -6.7666998 72.838997
-5.9268999 -6.7572999 72.737999
-5.8455 -6.7549 72.711998
-5.7673001 -6.7561998 72.725998
-5.6918001 -6.7607002 72.775002
-5.6171999 -6.7663999 72.835999
-5.5437002 -6.7737002 72.914001
-5.473 -6.7845001 73.030998
-5.4017 -6.7950001 73.143997
-5.3281002 -6.8028002 73.227997
-5.2535 -6.8095999 73.301003
-5.1777 -6.8151002 73.360001
-5.0991001 -6.8168998 73.379997
-5.0184999 -6.8161998 73.372002
-4.9380002 -6.8154001 73.363998
-4.8569002 -6.8140001 73.348
-4.7761002 -6.8126998 73.334999
-4.6950998 -6.8112998 73.319
-4.6145 -6.8102002 73.307999
-4.5338001 -6.8091998 73.295998
-4.4535999 -6.8085999 73.291
-4.3734002 -6.8081999 73.286003
-4.2933002 -6.8080001 73.282997
-4.2132001 -6.8076 73.278999
-4.1334 -6.8077002 73.280998
-4.0534 -6.8077002 73.279999
-3.974 -6.8084002 73.289001
-3.8945 -6.8091998 73.296997
-3.8153 -6.8105001 73.310997
-3.7361 -6.8119001 73.324997
-3.6571 -6.8136001 73.344002
-3.5781 -6.8154001 73.362999
-3.4992001 -6.8175001 73.386002
-3.4201 -6.8193002 73.404999
-3.3410001 -6.8213 73.427002
-3.2625 -6.8246002 73.462997
-3.1849 -6.8298998 73.518997
-3.1078999 -6.8369002 73.595001
-3.0318 -6.8462 73.695
-2.9574001 -6.8600998 73.844002
-2.8841 -6.8772001 74.028
-2.8120999 -6.8987002 74.260002
-2.7418001 -6.9257002 74.551003
-2.6993001 -7.0267 75.637001
-2.6245999 -7.0474 75.861
-2.5474 -7.0627999 76.027
-2.4684999 -7.0739999 76.147003
-2.3879001 -7.0813999 76.226997
-2.3051 -7.0823998 76.237
-2.2212999 -7.0802002 76.213997
-2.1368001 -7.0753999 76.162003
-2.0517001 -7.0686002 76.088997
-1.9667 -7.0612001 76.009003
-1.8821 -7.0548 75.940002
-1.798 -7.0493999 75.882004
-1.7143 -7.0455999 75.841003
-1.6312 -7.0437002 75.820999
-1.5484999 -7.0439 75.822998
-1.4662 -7.0455999 75.842003
-1.3839 -7.0476999 75.863998
-1.3017 -7.0503998 75.892998
-1.219 -7.0507002 75.896004
-1.1361001 -7.0500002 75.888
-1.0531 -7.0482001 75.869003
-0.96991998 -7.0447001 75.832001
-0.88651001 -7.0388999 75.769997
-0.80316001 -7.0324998 75.700996
-0.71998 -7.0261998 75.633003
-0.63696998 -7.0202999 75.569
-0.55410999 -7.0142999 75.504997
-0.47150999 -7.0103002 75.460999
-0.38903999 -7.0068998 75.425003
-0.30669001 -7.0043001 75.396004
-0.22438 -7.0012999 75.363998
-0.14217 -6.9993 75.343002
-0.060008001 -6.9980001 75.329002
0.022135001 -7.0005999 75.356003
0.10439 -7.0064001 75.418999
0.18688001 -7.0162001 75.525002
0.26966 -7.0275002 75.646004
0.35275999 -7.0398002 75.778999
0.43629 -7.0544 75.935997
0.52051997 -7.0739002 76.144997
0.60438001 -7.0836 76.25
0.68832999 -7.092 76.341003
0.77196002 -7.0956001 76.379997
0.85521001 -7.0953999 76.376999
0.93791997 -7.0910001 76.331001
1.0204 -7.0857 76.273003
1.1028 -7.0805998 76.218002
1.1851 -7.0762 76.170998
1.2676001 -7.0731001 76.137001
1.3503 -7.0716 76.121002
1.4333 -7.0716 76.121002
1.5167 -7.0734 76.139999
1.6005 -7.0767002 76.176003
1.6847 -7.0813999 76.226997
1.7692 -7.0871 76.288002
1.8539 -7.0929999 76.351997
1.9388 -7.0988998 76.415001
2.0237999 -7.1047001 76.476997
2.1089001 -7.1106 76.541
2.194 -7.1160998 76.599998
2.2793 -7.1213999 76.656998
2.3647001 -7.1271 76.719002
2.4504001 -7.1328001 76.779999
2.5362999 -7.1391001 76.848
2.6222999 -7.1451001 76.913002
2.7084999 -7.1513 76.978996
2.7950001 -7.1578002 77.049004
2.8815999 -7.1641998 77.117996
2.9686 -7.1711998 77.194
3.0560999 -7.1792002 77.279999
3.1441 -7.1876001 77.370003
3.2323 -7.1963 77.463997
3.3213 -7.2059999 77.568001
3.4103999 -7.2157001 77.672997
3.4999001 -7.2255001 77.778
3.5905001 -7.2371998 77.903999
3.6823001 -7.2507 78.049004
3.7751999 -7.2658 78.211998
3.8699 -7.2835002 78.402
3.9669001 -7.3046999 78.629997
4.0658002 -7.3284998 78.887001
4.1679001 -7.3568001 79.191002
4.2914 -7.421 79.882004
4.395 -7.4491 80.184998
4.4958 -7.4712 80.422997
4.5939002 -7.4882998 80.607002
4.6900001 -7.5014 80.747002
4.7834001 -7.5099001 80.838997
4.8751998 -7.5153999 80.898003
4.9654002 -7.5184002 80.931
5.0535002 -7.5181999 80.929001
5.1412001 -7.5173998 80.919998
5.2286 -7.5163002 80.907997
5.3158998 -7.5149999 80.893997
5.4029999 -7.5134001 80.876999
5.4899001 -7.5117002 80.859001
5.5766001 -7.5096002 80.836998
5.6627998 -7.5071001 80.808998
5.7479 -7.5030999 80.765999
5.8319001 -7.4980001 80.710999
5.9158001 -7.4927001 80.653999
5.9994998 -7.4874001 80.597
6.0833998 -7.4826002 80.545998
6.1677999 -7.4784002 80.500999
6.2533998 -7.4758 80.472
6.342 -7.4768 80.483002
6.4284 -7.4752002 80.466003
6.5160999 -7.4752002 80.464996
6.6054001 -7.4770002 80.485001
6.6968999 -7.4812002 80.529999
7.2547998 -6.6989999 72.111
7.3246002 -6.691 72.024002
7.3948002 -6.6834998 71.944
7.4668999 -6.6778002 71.882004
7.5405002 -6.6736002 71.836998
7.6181002 -6.6729002 71.829002
7.6973 -6.6736999 71.837997
7.7775002 -6.6753001 71.855003
7.8593001 -6.6782999 71.887001
7.9401999 -6.6803999 71.910004
8.0199003 -6.6813998 71.920998
8.0979996 -6.6812 71.917999
8.1745005 -6.6795998 71.901001
8.2489004 -6.6764002 71.866997
8.3142996 -6.6659999 71.754997
8.3780003 -6.6543999 71.630997
8.4397001 -6.6415 71.490997
8.4984999 -6.6265998 71.331001
8.5597 -6.6138 71.193001
8.9076004 -6.3316998 67.365997
8.8980999 -6.2515998 67.293999
8.9702997 -6.2508001 67.286003
9.0438995 -6.2509999 67.288002
9.1176004 -6.2512002 67.290001
9.1920996 -6.2519002 67.297997
9.2672997 -6.2532001 67.311996
9.3429003 -6.2546 67.327003
9.4174004 -6.2554002 67.334999
9.4902 -6.2550001 67.331001
9.5623999 -6.2542 67.321999
9.6344004 -6.2533002 67.311996
9.7067003 -6.2525001 67.305
9.7798996 -6.2523999 67.303001
9.8568001 -6.2547002 67.328003
9.9365997 -6.2586999 67.371002
10.02 -6.2649999 67.438004
10.106 -6.2728 67.523003
10.2 -6.2851 67.654999
10.295 -6.2983999 67.797997
10.394 -6.3136001 67.961998
10.492 -6.3280001 68.116997
10.587 -6.3404002 68.25
10.678 -6.3502002 68.356003
10.766 -6.3579001 68.439003
10.848 -6.3622999 68.486
10.926 -6.3643999 68.508003
11.001 -6.3643999 68.509003
11.075 -6.3639002 68.502998
11.15 -6.3641 68.504997
11.244 -6.3755002 68.627998
11.348 -6.3917999 68.804001
11.465 -6.4151001 69.054001
11.605 -6.4512 69.443001
12.134 -6.7802 72.138
12.131 -6.6999998 72.122002
12.307 -6.7535 72.696999
12.478 -6.8032999 73.233002
12.65 -6.8529 73.767998
12.805 -6.8934002 74.203003
12.923 -7.0384998 74.886002
12.955 -6.9303999 74.600998
13.837 -7.3104 78.692001
13.98 -7.3406 79.016998
14.114 -7.3652 79.280998
14.236 -7.3836999 79.481003
14.348 -7.3969998 79.624001
14.454 -7.4066 79.726997
14.554 -7.4133 79.800003
14.648 -7.4166999 79.835999
14.735 -7.4168 79.836998
14.818 -7.4147 79.814003
14.896 -7.4105 79.768997
14.971 -7.4043002 79.702003
15.04 -7.3955002 79.608002
15.106 -7.3852 79.497002
15.172 -7.3755002 79.391998
15.235 -7.3639002 79.267998
15.294 -7.3509002 79.127998
15.355 -7.3389001 78.999001
15.418 -7.3278999 78.879997
15.487 -7.3196001 78.790001
15.563 -7.3148999 78.739998
15.645 -7.3132 78.722
15.733 -7.3143001 78.733002
15.826 -7.3174 78.767998
15.923 -7.3225002 78.821999
16.023001 -7.329 78.890999
16.122 -7.3351002 78.957001
16.219999 -7.3400998 79.012001
16.311001 -7.3427 79.040001
16.396999 -7.3422999 79.035004
16.478001 -7.3401999 79.013
16.556 -7.3367 78.974998
16.632999 -7.3326001 78.931
16.707001 -7.3270001 78.871002
16.781 -7.3218002 78.815002
16.855 -7.3168001 78.760002
16.93 -7.3122001 78.710999
17.007 -7.3081999 78.667999
17.087 -7.3060002 78.643997
17.17 -7.3045998 78.629997
17.254 -7.3038998 78.621002
17.337999 -7.3031001 78.612999
17.422001 -7.3025999 78.607002
17.507 -7.3021002 78.602997
17.591999 -7.302 78.600998
17.677999 -7.3018999 78.600998
17.764 -7.3021002 78.602997
17.851 -7.3028002 78.610001
17.940001 -7.3042002 78.625
18.031 -7.3060999 78.646004
18.125 -7.3095999 78.682999
18.222 -7.3140001 78.730003
18.322001 -7.3195 78.789001
18.423 -7.3256001 78.855003
18.525999 -7.3325 78.93
18.632 -7.3404002 79.014
18.74 -7.3487 79.103996
18.851999 -7.3590002 79.214996
18.966 -7.3695998 79.329002
19.079 -7.3797998 79.438004
19.193001 -7.3902998 79.552002
19.309 -7.4018002 79.675003
19.426001 -7.4129 79.794998
19.544001 -7.4247999 79.922997
