# .PCD v0.7 - Point Cloud Data file format
VERSION 0.7
FIELDS x y z
SIZE 4 4 4
TYPE F F F
COUNT 1 1 1
WIDTH 1786
HEIGHT 1
VIEWPOINT 0 0 0 1 0 0 0
POINTS 1786
DATA ascii
18.051001 -26.174999 100.78
18.149 -26.158001 100.71
18.215 -26.094999 100.47
17.837999 -23.184999 89.267998
17.941999 -23.193001 89.299004
18.044001 -23.198999 89.320999
18.148001 -23.207001 89.353996
18.247 -23.209999 89.363998
18.344999 -23.209999 89.364998
18.438 -23.205 89.345001
18.531 -23.198999 89.322998
18.621 -23.190001 89.287003
18.709999 -23.18 89.247002
18.796 -23.165001 89.193001
18.882 -23.152 89.140999
18.966999 -23.136999 89.084
19.052999 -23.124001 89.033997
19.141001 -23.112 88.988998
19.23 -23.103001 88.954002
19.32 -23.094 88.918999
19.41 -23.087 88.890999
19.500999 -23.08 88.863998
19.594 -23.073999 88.842003
19.686001 -23.069 88.822998
19.781 -23.066999 88.816002
19.878 -23.066999 88.814003
19.976 -23.069 88.82
20.076 -23.072001 88.833
20.174 -23.073 88.838997
20.271999 -23.073999 88.841003
20.368 -23.073999 88.841003
20.462999 -23.072001 88.832001
20.556 -23.068001 88.817001
20.646 -23.059999 88.787003
20.733 -23.048 88.740997
20.813999 -23.031 88.675003
20.891001 -23.01 88.594002
20.966 -22.986 88.501999
21.035999 -22.957001 88.389
21.094999 -22.916 88.233002
21.146999 -22.868999 88.050003
21.193001 -22.815001 87.842003
21.236 -22.757999 87.625
21.273001 -22.695 87.382004
21.325001 -22.649 87.206001
21.379 -22.607 87.041
21.436001 -22.566 86.887001
21.496 -22.530001 86.745003
21.563999 -22.502001 86.639
21.635 -22.476999 86.543999
21.707001 -22.454 86.455002
21.780001 -22.431999 86.371002
21.853001 -22.410999 86.289001
21.917999 -22.382 86.176003
21.969 -22.337 86.004997
22.002001 -22.275999 85.767998
22.030001 -22.209999 85.515999
22.056 -21.958 84.543999
22.082001 -21.892 84.290001
22.121 -21.84 84.089996
22.181999 -21.809 83.971001
22.250999 -21.788 83.888
22.319 -21.764 83.797997
22.389999 -21.745001 83.722
22.464001 -21.728001 83.657997
22.541 -21.714001 83.606003
22.621 -21.702999 83.563004
22.702 -21.694 83.527
22.785 -21.686001 83.498001
22.870001 -21.68 83.473999
22.955 -21.674999 83.455002
23.041 -21.671 83.436996
23.129999 -21.667999 83.429001
23.219 -21.666 83.419998
23.306999 -21.664 83.411003
23.395 -21.660999 83.400002
-12.499 -19.285999 74.569
-12.418 -19.285999 74.570999
-12.337 -19.285999 74.57
-12.255 -19.285999 74.569
-12.173 -19.285 74.564003
-12.095 -19.290001 74.584
-12.017 -19.295 74.602997
-11.939 -19.299999 74.622002
-11.859 -19.302999 74.634003
-11.78 -19.306 74.647003
-11.701 -19.309999 74.662003
-11.623 -19.316 74.684998
-11.553 -19.334999 74.759003
-11.486 -19.358999 74.850998
-11.42 -19.386999 74.958
-11.363 -19.427999 75.119003
-11.313 -19.483999 75.334999
-11.27 -19.551001 75.593002
-11.474 -20.201 78.106003
-11.453 -20.315001 78.549004
-11.402 -20.309 78.194
-11.369 -20.403 78.556999
-11.418 -20.405001 78.896004
-11.368 -20.469999 79.144997
-11.306 -20.514999 79.32
-9.9927998 -20.568001 79.191002
-9.9818001 -20.459 79.102997
-9.9073 -20.483 79.197998
-9.9196997 -20.594999 79.296997
-9.8417997 -20.527 79.365997
-9.8556004 -20.642 79.476997
-9.7827997 -20.584 79.589996
-9.7999001 -20.707001 79.728996
-5.7135 -21.264999 82.222
-5.6156998 -21.235001 82.102997
-5.5149002 -21.191 81.935997
-5.4117999 -21.136999 81.727997
-4.9833999 -20.924999 80.565002
-4.9665999 -20.766001 80.292
-4.8727002 -20.827 80.188004
-4.8566999 -20.671 79.925003
-4.7526002 -20.598 79.640999
-4.6518998 -20.537001 79.403999
-4.5524001 -20.478001 79.179001
-4.4552002 -20.427999 78.987
-4.3610001 -20.391001 78.839996
-4.2670999 -20.353001 78.695
-4.1746998 -20.320999 78.570999
-4.0822001 -20.287001 78.438004
-3.9906001 -20.256001 78.319
-3.8992 -20.225 78.199997
-3.8083999 -20.195999 78.085999
-3.7183001 -20.167999 77.981003
-3.6285999 -20.143 77.880997
-3.5397 -20.120001 77.794998
-3.4509001 -20.097 77.705002
-3.3629 -20.077 77.627998
-3.2750001 -20.056999 77.552002
-3.1877999 -20.041 77.487999
-3.1011 -20.027 77.432999
-3.0146999 -20.014 77.382004
-2.9287 -20.002001 77.337997
-2.8429 -19.992001 77.297997
-2.7572999 -19.983 77.262001
-2.6719 -19.974001 77.230003
-2.5868001 -19.966999 77.202003
-2.5019 -19.961 77.18
-2.4172001 -19.955999 77.161003
-2.3326001 -19.952 77.144997
-2.2481999 -19.950001 77.135002
-2.1638 -19.947001 77.125999
-2.0795 -19.945 77.117996
-1.9953001 -19.944 77.112999
-1.9111 -19.943001 77.111
-1.8272001 -19.945 77.114998
-1.7431999 -19.945999 77.121002
-1.6595 -19.950001 77.138
-1.5759 -19.957001 77.162003
-1.4924001 -19.965 77.194
-1.4089 -19.975 77.231003
-1.3255 -19.987 77.279999
-1.242 -20 77.329002
-1.1585 -20.014 77.385002
-1.0749 -20.027 77.434998
-0.99110001 -20.041 77.487999
-0.90723002 -20.054001 77.540001
-0.82326001 -20.069 77.595001
-0.73918998 -20.083 77.651001
-0.65500998 -20.098 77.709
-0.57067001 -20.112 77.762001
-0.48618001 -20.124001 77.808998
-0.40154001 -20.134001 77.848999
-0.31681001 -20.143 77.885002
-0.23197 -20.150999 77.914001
-0.14707001 -20.157 77.938004
-0.062098999 -20.160999 77.954002
0.0229 -20.163 77.961998
5.6471 -28.950001 111.93
5.7653999 -28.931 111.86
5.8839998 -28.915001 111.8
6.0019999 -28.896 111.73
6.1199999 -28.878 111.66
6.2354999 -28.849001 111.55
6.3512001 -28.822001 111.44
6.4665999 -28.795 111.34
6.5833001 -28.774 111.26
6.7014999 -28.761 111.2
6.8211002 -28.754 111.18
6.9422998 -28.754 111.18
7.0654001 -28.761 111.21
7.1900001 -28.775 111.26
7.3157001 -28.792 111.33
7.4422998 -28.812 111.4
7.5693002 -28.834 111.48
7.6961999 -28.853001 111.56
7.8227 -28.872 111.63
7.9488001 -28.888 111.69
8.0738001 -28.899 111.74
8.198 -28.907 111.77
8.3212996 -28.912001 111.79
8.4448004 -28.917999 111.81
8.5679998 -28.922001 111.83
8.6911001 -28.926001 111.84
8.8144999 -28.931 111.86
8.9382 -28.937 111.88
9.0614996 -28.941 111.9
9.1854 -28.945999 111.92
9.3093004 -28.952 111.94
9.4331999 -28.958 111.97
9.5564003 -28.961 111.98
9.6794004 -28.964001 111.99
9.8024998 -28.966999 112
9.9250002 -28.968 112
10.047 -28.969 112.01
10.17 -28.969 112.01
10.291 -28.966999 112
10.412 -28.965 111.99
10.534 -28.964001 111.99
10.656 -28.964001 111.99
10.779 -28.965 111.99
10.902 -28.968 112
11.026 -28.973 112.02
11.151 -28.979 112.05
11.277 -28.989 112.09
11.402 -28.997999 112.12
11.528 -29.007999 112.16
11.651 -29.009001 112.16
11.774 -29.009001 112.16
11.895 -29.007999 112.16
12.016 -29.004999 112.15
12.137 -29.000999 112.13
12.257 -28.996 112.11
12.377 -28.99 112.09
12.498 -28.987 112.08
12.619 -28.985001 112.07
12.744 -28.990999 112.09
12.869 -28.997 112.12
12.994 -29.004 112.14
13.119 -29.009001 112.16
13.242 -29.011999 112.17
13.365 -29.013 112.18
13.488 -29.014999 112.19
13.612 -29.018 112.2
13.736 -29.02 112.21
13.859 -29.021999 112.21
13.981 -29.021999 112.21
14.104 -29.023001 112.22
14.226 -29.021999 112.22
14.35 -29.025999 112.23
14.475 -29.031 112.25
14.601 -29.038 112.28
14.727 -29.044001 112.3
14.855 -29.056 112.34
14.983 -29.066 112.38
15.114 -29.082001 112.45
15.243 -29.094999 112.5
15.375 -29.112 112.56
15.503 -29.122999 112.61
15.633 -29.136999 112.66
15.759 -29.143 112.68
15.886 -29.15 112.71
16.007999 -29.148001 112.7
16.129999 -29.146999 112.69
16.247999 -29.138 112.66
16.368 -29.132 112.64
16.486 -29.125 112.61
16.608 -29.122999 112.6
17.41 -26.202999 100.89
17.443001 -26.142 101.08
17.558001 -26.149 101.1
17.653 -26.127001 101.02
17.733999 -26.083 100.85
17.815001 -26.042 100.69
17.882999 -25.98 100.45
17.944 -25.910999 100.18
18.016001 -25.857 99.975998
18.070999 -25.780001 99.677002
18.099001 -25.666 99.236
17.917999 -23.065001 89.181999
18.021 -23.073 89.209999
18.127001 -23.083 89.25
18.228001 -23.089001 89.272003
18.327999 -23.091999 89.283997
18.422001 -23.087 89.266998
18.518 -23.086 89.262001
18.612 -23.080999 89.241997
18.702999 -23.073999 89.214996
18.791 -23.062 89.168999
18.878 -23.049999 89.123001
18.964001 -23.037001 89.070999
19.052 -23.025 89.025002
19.139 -23.013 88.981003
19.229 -23.004999 88.946999
19.319 -22.996 88.913002
19.41 -22.989 88.887001
19.500999 -22.983 88.862
19.594 -22.978001 88.845001
19.688 -22.974001 88.830002
19.784 -22.973 88.825996
19.881001 -22.974001 88.828003
19.98 -22.976 88.835999
20.079 -22.979 88.848999
20.177 -22.98 88.850998
20.274 -22.98 88.849998
20.368999 -22.978001 88.843002
20.462 -22.974001 88.827003
20.554001 -22.968 88.806999
20.643 -22.959 88.772003
20.728001 -22.947001 88.723
20.809 -22.929001 88.655998
20.888 -22.91 88.580002
20.965 -22.888 88.497002
21.037001 -22.862 88.393997
21.101 -22.826 88.257004
21.157 -22.783001 88.089996
21.202999 -22.73 87.884003
21.243 -22.67 87.652
21.273001 -22.601 87.386002
21.32 -22.549999 87.188004
21.370001 -22.500999 87.001999
21.422001 -22.457001 86.831001
21.478001 -22.417 86.674004
21.547001 -22.389999 86.572998
21.618999 -22.367001 86.482002
21.695 -22.348 86.410004
21.773001 -22.330999 86.343002
21.851 -22.315001 86.280998
21.917 -22.287001 86.170998
21.966999 -22.242001 85.997002
21.997 -22.177999 85.75
22.021999 -22.108 85.482002
22.030001 -21.839001 84.441002
22.056999 -21.775999 84.195999
22.1 -21.728001 84.010002
22.162001 -21.698999 83.898003
22.233999 -21.679001 83.823997
22.304001 -21.658001 83.740997
22.375999 -21.639999 83.669998
22.452 -21.625 83.613998
22.530001 -21.613001 83.566002
22.611 -21.603001 83.528999
22.694 -21.594999 83.497002
22.778 -21.587999 83.472
22.863001 -21.583 83.448997
22.948999 -21.577999 83.431
23.035 -21.573 83.414001
23.122999 -21.570999 83.404999
23.212 -21.569 83.396004
23.299999 -21.566 83.387001
23.388 -21.563999 83.375999
-12.491 -19.191 74.516998
-12.409 -19.191 74.515999
-12.332 -19.198 74.541
-12.254 -19.202999 74.561996
-12.175 -19.207001 74.577003
-12.1 -19.216 74.614998
-12.027 -19.229 74.663002
-11.952 -19.240999 74.709
-11.878 -19.252001 74.751999
-11.803 -19.263 74.796997
-11.73 -19.275999 74.845001
-11.653 -19.284 74.877998
-11.584 -19.305 74.959999
-11.519 -19.333 75.068001
-11.457 -19.367001 75.198997
-11.403 -19.415001 75.386002
-11.359 -19.479 75.635002
-11.517 -20.190001 78.397003
-11.483 -20.282 78.750999
-11.449 -20.374001 79.107002
-11.395 -20.431999 79.335999
-11.33 -20.471001 79.485001
-11.261 -20.502001 79.608002
-11.02 -20.625 79.748001
-11.016 -20.533001 79.724998
-10.929 -20.532 79.721001
-10.936 -20.632 79.772003
-10.85 -20.632999 79.776001
-10.838 -20.523001 79.689003
-10.762 -20.632 79.773003
-10.745 -20.511999 79.646004
-10.665 -20.613001 79.697998
-10.645 -20.486 79.544998
-10.569 -20.594999 79.628998
-10.546 -20.462999 79.454002
-10.461 -20.552 79.463997
-10.445 -20.434999 79.347
-10.347 -20.412001 79.255997
-10.249 -20.476 79.170998
-10.25 -20.391001 79.176003
-10.156 -20.461 79.113998
-10.155 -20.374001 79.108002
-10.066 -20.454 79.084999
-10.064 -20.364 79.07
-9.9780998 -20.365 79.073997
-9.9017 -20.385 79.152
-9.8317003 -20.419001 79.283997
-9.7687998 -20.468 79.475998
-9.7117004 -20.531 79.718002
-5.6006999 -21.089001 81.884003
-5.4973001 -21.034 81.674004
-5.3924999 -20.973 81.435997
-5.2883 -20.912001 81.198997
-5.0774002 -20.862 80.662003
-5.0584998 -20.695999 80.361
-4.9492998 -20.607 80.012001
-4.8435001 -20.528 79.707001
-4.7421999 -20.466 79.466003
-4.6427002 -20.41 79.248001
-4.5447998 -20.358 79.047997
-4.4489999 -20.313999 78.875999
-4.3555999 -20.280001 78.742996
-4.2624998 -20.245001 78.609001
-4.1694002 -20.209999 78.471001
-4.0770998 -20.176001 78.339996
-3.9851999 -20.143 78.213997
-3.8940001 -20.113001 78.096001
-3.8034 -20.084 77.983002
-3.7133 -20.056999 77.876999
-3.6238 -20.031 77.778999
-3.5349 -20.007999 77.688004
-3.4461 -19.983999 77.597
-3.3580999 -19.964001 77.518997
-3.2707 -19.947001 77.450996
-3.1838 -19.931 77.389
-3.0973001 -19.917 77.336998
-3.0112 -19.906 77.291
-2.9252 -19.893999 77.246002
-2.8396001 -19.884001 77.208
-2.7541001 -19.875 77.170998
-2.6688001 -19.865999 77.137001
-2.5836999 -19.858999 77.109001
-2.4988 -19.851999 77.084
-2.4142001 -19.847 77.065002
-2.3296001 -19.843 77.047997
-2.2453001 -19.84 77.037003
-2.161 -19.837999 77.028
-2.0769 -19.836 77.022003
-1.9928 -19.834999 77.016998
-1.9088 -19.834999 77.014999
-1.8249 -19.834999 77.017998
-1.7411 -19.837 77.026001
-1.6574 -19.841999 77.042
-1.5739 -19.848 77.067001
-1.4905 -19.857 77.099998
-1.4072 -19.867001 77.140999
-1.3239 -19.879 77.185997
-1.2405 -19.892 77.237
-1.1571 -19.906 77.291
-1.0736001 -19.919001 77.341003
-0.98992997 -19.933001 77.396004
-0.90614003 -19.945999 77.446999
-0.82226002 -19.959999 77.5
-0.73830003 -19.974001 77.556999
-0.65426999 -19.99 77.620003
-0.57010001 -20.007 77.683998
-0.48576999 -20.021999 77.744003
-0.40125999 -20.035 77.792999
-0.31661999 -20.046 77.837997
-0.23186 -20.056 77.874001
-0.147 -20.063999 77.904999
-0.062079001 -20.07 77.929001
0.022895001 -20.073999 77.943001
0.1079 -20.077 77.956001
5.6473999 -28.83 111.94
5.7656002 -28.809999 111.87
5.8842001 -28.794001 111.8
6.0023999 -28.775999 111.73
6.1205001 -28.757999 111.66
6.2364998 -28.732 111.56
6.3522 -28.705 111.46
6.4678001 -28.679001 111.36
6.5840001 -28.656 111.27
6.7019 -28.641001 111.21
6.8211999 -28.632999 111.18
6.9418001 -28.631001 111.17
7.0644999 -28.636999 111.19
7.1886001 -28.648001 111.24
7.3140001 -28.664 111.3
7.4401999 -28.683001 111.37
7.5669999 -28.702999 111.45
7.6939998 -28.724001 111.53
7.8207998 -28.743 111.6
7.9473 -28.76 111.67
8.0727997 -28.773001 111.72
8.1973 -28.783001 111.76
8.3210001 -28.789 111.78
8.4447002 -28.796 111.81
8.5681 -28.799999 111.83
8.6913004 -28.805 111.84
8.8147001 -28.809999 111.86
8.9384003 -28.815001 111.89
9.0616999 -28.819 111.9
9.1854 -28.825001 111.92
9.3092003 -28.83 111.94
9.4330997 -28.836 111.96
9.5562 -28.839001 111.98
9.6792002 -28.841 111.99
9.8022003 -28.844 112
9.9249001 -28.846001 112
10.047 -28.847 112.01
10.17 -28.847 112.01
10.291 -28.846001 112
10.413 -28.843 112
10.534 -28.843 111.99
10.656 -28.841999 111.99
10.779 -28.844 112
10.902 -28.847 112.01
11.026 -28.851 112.03
11.151 -28.858 112.05
11.277 -28.868 112.09
11.402 -28.875999 112.12
11.528 -28.885 112.16
11.651 -28.886999 112.16
11.773 -28.886999 112.16
11.895 -28.885 112.16
12.016 -28.882 112.14
12.136 -28.877001 112.13
12.256 -28.872 112.11
12.376 -28.865 112.08
12.496 -28.861 112.06
12.617 -28.858 112.05
12.741 -28.863001 112.07
12.866 -28.868999 112.1
12.992 -28.875999 112.12
13.116 -28.881001 112.14
13.24 -28.885 112.15
13.363 -28.886 112.16
13.486 -28.888 112.17
13.61 -28.892 112.18
13.734 -28.895 112.2
13.858 -28.896999 112.2
13.98 -28.896999 112.2
14.103 -28.899 112.21
14.225 -28.898001 112.21
14.349 -28.902 112.22
14.474 -28.906 112.24
14.6 -28.914 112.27
14.725 -28.92 112.29
14.853 -28.93 112.33
14.98 -28.938999 112.37
15.111 -28.954 112.43
15.239 -28.966 112.47
15.371 -28.982 112.53
15.499 -28.993 112.58
15.629 -29.007 112.63
15.756 -29.014 112.66
15.884 -29.021999 112.69
16.007 -29.023001 112.69
16.129 -29.021999 112.69
16.247 -29.014 112.66
16.367001 -29.007999 112.64
16.487 -29.003 112.61
16.608 -29.000999 112.61
16.726999 -28.993 112.58
17.438999 -25.863001 100.42
17.539 -25.849001 100.37
17.611 -25.792999 100.15
17.681 -25.737 99.931999
17.737 -25.66 99.633003
17.787001 -25.576 99.307999
17.834 -25.488001 98.966003
17.875 -25.393 98.597
17.875 -25.240999 98.008003
17.893999 -22.937 89.059998
17.996 -22.943001 89.084
18.101999 -22.954 89.127998
18.205999 -22.962999 89.163002
18.309 -22.971001 89.192001
18.408001 -22.972 89.197998
18.507 -22.975 89.207001
18.603001 -22.973 89.200996
18.695999 -22.968 89.182999
18.785999 -22.959 89.148003
18.875 -22.948999 89.109001
18.962 -22.937 89.059998
19.049999 -22.926001 89.017998
19.138 -22.915001 88.975998
19.228001 -22.906 88.943001
19.318001 -22.898001 88.908997
19.409 -22.892 88.885002
19.500999 -22.886 88.862
19.594999 -22.882 88.847
19.688999 -22.879 88.834999
19.785999 -22.879 88.834999
19.884001 -22.879999 88.838997
19.983 -22.882 88.848
20.082001 -22.885 88.859001
20.179001 -22.885 88.859001
20.274 -22.884001 88.853996
20.368999 -22.881001 88.843002
20.461 -22.875 88.821999
20.551001 -22.868 88.794998
20.639 -22.858 88.754997
20.724001 -22.844999 88.704002
20.805 -22.827999 88.639
20.885 -22.809999 88.568001
20.964001 -22.790001 88.490997
21.038 -22.767 88.400002
21.106001 -22.735001 88.278
21.165001 -22.695999 88.124001
21.215 -22.646 87.932999
21.254999 -22.587 87.703003
21.290001 -22.523001 87.454002
21.322001 -22.457001 87.195999
21.365999 -22.403 86.988998
21.415001 -22.355 86.800003
21.466 -22.309999 86.625999
21.533001 -22.281 86.514
21.603001 -22.257 86.418999
21.681999 -22.24 86.356003
21.763 -22.226999 86.304001
21.84 -22.209 86.236
21.903999 -22.18 86.121002
21.952 -22.132999 85.938004
21.98 -22.066999 85.682999
22.000999 -21.995001 85.402
22.007999 -21.909 84.712997
21.971001 -21.780001 84.570999
21.993999 -21.712 84.303001
22.025999 -21.653 84.074997
22.073999 -21.610001 83.910004
22.142 -21.587999 83.822998
22.218 -21.572001 83.761002
22.289 -21.552999 83.688004
22.364 -21.537001 83.625
22.441 -21.524 83.574997
22.521999 -21.514 83.533997
22.604 -21.504999 83.501999
22.687 -21.497999 83.473999
22.771999 -21.492001 83.449997
22.857 -21.486 83.428001
22.943001 -21.481001 83.410004
23.028 -21.476999 83.389999
23.117001 -21.474001 83.382004
23.205 -21.472 83.372002
23.292999 -21.469 83.362
23.381001 -21.466 83.350998
-12.49 -19.108999 74.514
-12.413 -19.115999 74.539001
-12.339 -19.128 74.584999
-12.264 -19.136999 74.623001
-12.188 -19.145 74.652
-12.116 -19.16 74.711998
-12.047 -19.18 74.791
-11.979 -19.201 74.873001
-11.91 -19.222 74.954002
-11.836 -19.235001 75.004997
-11.764 -19.25 75.063004
-11.688 -19.26 75.103996
-11.62 -19.283001 75.193001
-11.556 -19.313999 75.310997
-11.497 -19.351999 75.461998
-11.579 -19.774 77.103996
-11.593 -19.941 77.759003
-11.535 -20.073999 77.944
-11.57 -20.049999 78.181999
-11.546 -20.157 78.598
-11.506 -20.237 78.911003
-11.463 -20.313 79.207001
-11.401 -20.356001 79.376999
-11.33 -20.385 79.487
-11.255 -20.406 79.57
-11.173 -20.414 79.601997
-11.174 -20.503 79.609001
-11.089 -20.417999 79.617996
-11.094 -20.514999 79.657997
-11.006 -20.424999 79.646004
-10.913 -20.415001 79.606003
-10.819 -20.402 79.554001
-10.723 -20.384001 79.486
-10.629 -20.370001 79.43
-10.536 -20.358 79.383003
-10.443 -20.344 79.330002
-10.347 -20.326 79.258003
-10.252 -20.309 79.191002
-10.157 -20.292 79.126999
-10.065 -20.281 79.083
-9.9785004 -20.280001 79.077003
-9.9001999 -20.296 79.139999
-9.8262997 -20.320999 79.239998
-9.7594004 -20.362 79.399002
-9.7000999 -20.42 79.623001
-5.4728999 -20.851999 81.310997
-5.3685999 -20.792 81.074997
-5.0426998 -20.545 80.111
-4.9375 -20.469999 79.821999
-4.8343 -20.402 79.556999
-4.7347999 -20.347 79.342003
-4.6368999 -20.298 79.148003
-4.5401001 -20.250999 78.966003
-4.4450998 -20.211 78.807999
-4.3512998 -20.174 78.666
-4.2578001 -20.136999 78.522003
-4.1648002 -20.101999 78.384003
-4.0725002 -20.068001 78.251999
-3.9809 -20.035999 78.128998
-3.8898001 -20.006001 78.011002
-3.7993 -19.976999 77.899002
-3.7091999 -19.950001 77.791
-3.6197 -19.924 77.691002
-3.5307 -19.899 77.595001
-3.4421999 -19.877001 77.509003
-3.3543999 -19.858 77.432999
-3.2671001 -19.841 77.365997
-3.1803 -19.825001 77.306
-3.0940001 -19.812 77.255997
-3.0079999 -19.801001 77.210999
-2.9223001 -19.790001 77.169998
-2.8367 -19.780001 77.130997
-2.7513001 -19.771 77.094002
-2.6661 -19.761999 77.059998
-2.5811 -19.754999 77.030998
-2.4963 -19.747999 77.004997
-2.4116001 -19.742001 76.983002
-2.3271 -19.738001 76.964996
-2.2428 -19.735001 76.952003
-2.1586001 -19.732 76.941002
-2.0745001 -19.73 76.932999
-1.9905 -19.728001 76.928001
-1.9065 -19.728001 76.926003
-1.8227 -19.728001 76.928001
-1.739 -19.73 76.934998
-1.6555001 -19.733999 76.950996
-1.5721 -19.740999 76.975998
-1.4888 -19.749001 77.010002
-1.4056 -19.76 77.052002
-1.3224 -19.771999 77.099998
-1.2391 -19.785 77.150002
-1.1558 -19.799 77.203003
-1.0723 -19.812 77.253998
-0.98879999 -19.826 77.307999
-0.90512002 -19.839001 77.360001
-0.82134002 -19.853001 77.414001
-0.73750001 -19.868 77.473
-0.65355003 -19.884001 77.535004
-0.56950998 -19.900999 77.602997
-0.48532999 -19.919001 77.672997
-0.40096 -19.934999 77.735001
-0.31641001 -19.948999 77.787003
-0.23173 -19.959999 77.832001
-0.14693999 -19.969999 77.870003
-0.062058002 -19.978001 77.902
0.02289 -19.983999 77.925003
0.10789 -19.99 77.949997
0.19295 -19.997 77.976997
5.6472998 -28.707001 111.94
5.7655001 -28.688 111.86
5.8842001 -28.672001 111.8
6.0026002 -28.655001 111.74
6.1208 -28.638 111.67
6.2372999 -28.614 111.58
6.3534002 -28.589001 111.48
6.4691 -28.563 111.38
6.5854001 -28.541 111.29
6.7030001 -28.525 111.23
6.822 -28.514999 111.19
6.9421 -28.511 111.17
7.0640998 -28.514 111.19
7.1876998 -28.523001 111.22
7.3126001 -28.537001 111.28
7.4382 -28.554001 111.34
7.5647998 -28.573999 111.42
7.6918001 -28.594 111.5
7.8186002 -28.613001 111.57
7.9454002 -28.632 111.65
8.0712004 -28.646 111.7
8.1961002 -28.657 111.74
8.3200998 -28.664 111.77
8.4441004 -28.672001 111.8
8.5676003 -28.677 111.82
8.691 -28.681999 111.84
8.8144999 -28.687 111.86
8.9382 -28.691999 111.88
9.0614996 -28.697001 111.9
9.1852999 -28.702 111.92
9.3091002 -28.708 111.94
9.4329004 -28.712999 111.96
9.5558996 -28.716 111.97
9.6789999 -28.719 111.98
9.802 -28.721001 112
9.9247999 -28.723 112
10.047 -28.725 112.01
10.17 -28.725 112.01
10.291 -28.724001 112.01
10.413 -28.722 112
10.535 -28.722 112
10.657 -28.722 112
10.78 -28.724001 112.01
10.903 -28.726999 112.02
11.027 -28.732 112.03
11.151 -28.737 112.06
11.277 -28.746 112.09
11.403 -28.754 112.12
11.528 -28.761999 112.16
11.651 -28.763 112.16
11.773 -28.763 112.16
11.894 -28.761 112.15
12.015 -28.757999 112.14
12.135 -28.752001 112.12
12.255 -28.747 112.1
12.375 -28.74 112.07
12.495 -28.736 112.05
12.615 -28.732 112.04
12.74 -28.737 112.06
12.864 -28.743 112.08
12.989 -28.749001 112.1
13.114 -28.754999 112.12
13.238 -28.757999 112.14
13.361 -28.76 112.15
13.485 -28.761999 112.15
13.609 -28.766001 112.17
13.733 -28.77 112.18
13.856 -28.773001 112.19
13.979 -28.773001 112.2
14.102 -28.774 112.2
14.223 -28.771999 112.19
14.348 -28.775999 112.21
14.472 -28.780001 112.22
14.598 -28.787001 112.25
14.723 -28.792999 112.27
14.85 -28.801001 112.31
14.977 -28.809999 112.34
15.106 -28.823 112.39
15.235 -28.834 112.44
15.366 -28.851 112.5
15.494 -28.861 112.54
15.625 -28.875999 112.6
15.752 -28.884001 112.63
15.88 -28.893 112.66
16.004 -28.895 112.67
16.125999 -28.893999 112.67
16.245001 -28.886999 112.64
16.364 -28.881001 112.62
16.485001 -28.877001 112.6
16.606001 -28.874001 112.59
16.724001 -28.865 112.56
17.285999 -25.527 99.539001
17.384001 -25.511 99.476997
17.450001 -25.450001 99.237
17.518999 -25.393 99.015999
17.556 -25.291 98.617996
17.579 -25.017 97.550003
17.562 -24.843 96.872002
17.552999 -24.681999 96.245003
17.981001 -22.827 89.011002
18.084999 -22.836 89.046997
18.188999 -22.844 89.079002
18.294001 -22.854 89.116997
18.395 -22.858999 89.135002
18.497 -22.865 89.158997
18.594999 -22.865999 89.163002
18.691 -22.864 89.154999
18.782 -22.857 89.127998
18.872999 -22.849001 89.097
18.959999 -22.837999 89.052002
19.049 -22.827999 89.014
19.138 -22.816999 88.973999
19.226999 -22.809 88.940002
19.316999 -22.799999 88.906998
19.409 -22.794001 88.884003
19.500999 -22.789 88.862
19.594999 -22.785 88.848999
19.690001 -22.783001 88.838997
19.787001 -22.783001 88.841003
19.885 -22.785 88.846001
19.983999 -22.787001 88.855003
20.083 -22.789 88.862999
20.179001 -22.789 88.862
20.274 -22.785999 88.851997
20.368 -22.783001 88.838997
20.459 -22.775999 88.814003
20.549 -22.768999 88.785004
20.636 -22.757999 88.741997
20.721001 -22.745001 88.692001
20.802999 -22.729 88.629997
20.884001 -22.712 88.564003
20.964001 -22.695 88.494003
21.042 -22.674 88.415001
21.113001 -22.646999 88.308998
21.177 -22.612 88.174004
21.23 -22.566999 87.997002
21.27 -22.507 87.764
21.302999 -22.441 87.505997
21.323 -22.363001 87.200996
21.358999 -22.301001 86.958
21.402 -22.247 86.748001
21.452 -22.200001 86.567001
21.514999 -22.167999 86.442001
21.587999 -22.146999 86.359001
21.669001 -22.132999 86.306999
21.747999 -22.118 86.246002
21.822001 -22.097 86.165001
21.881001 -22.063 86.030998
21.921 -22.007999 85.817001
21.945 -21.938999 85.547997
21.929001 -21.646999 84.408997
21.955 -21.580999 84.153999
21.996 -21.532 83.962997
22.052 -21.497999 83.828003
22.127001 -21.481001 83.764
22.202999 -21.466 83.705002
22.277 -21.450001 83.640999
22.354 -21.436001 83.586998
22.433001 -21.424999 83.543999
22.514999 -21.416 83.508003
22.598 -21.408001 83.478996
22.681999 -21.402 83.454002
22.767 -21.396 83.431
22.851999 -21.389999 83.407997
22.937 -21.385 83.388
23.021999 -21.379999 83.366997
23.110001 -21.377001 83.357002
23.198 -21.374001 83.347
23.285999 -21.372 83.335999
23.372999 -21.368 83.322998
-12.513 -19.063 74.652
-12.437 -19.070999 74.681999
-12.365 -19.084999 74.738998
-12.291 -19.097 74.785004
-12.216 -19.108 74.824997
-12.148 -19.129 74.907997
-12.081 -19.152 75.000999
-12.014 -19.177 75.096001
-11.947 -19.200001 75.188004
-11.874 -19.215 75.245003
-11.803 -19.232 75.311996
-11.728 -19.243999 75.358002
-11.66 -19.267 75.452003
-11.597 -19.299999 75.580002
-11.624 -19.483 76.295998
-11.597 -19.579 76.669998
-11.614 -19.747999 77.334999
-11.619 -19.900999 77.934998
-11.595 -20.007 78.346001
-11.562 -20.098 78.705002
-11.514 -20.164 78.963997
-11.464 -20.228001 79.213997
-11.397 -20.263 79.349998
-11.324 -20.287001 79.445999
-11.245 -20.299999 79.495003
-11.159 -20.302 79.500999
-11.071 -20.299 79.489998
-10.983 -20.297001 79.484001
-10.894 -20.292999 79.466003
-10.805 -20.288 79.446999
-10.714 -20.278999 79.415001
-10.625 -20.275999 79.400002
-10.533 -20.264999 79.360001
-10.441 -20.254999 79.318001
-10.347 -20.24 79.261002
-10.254 -20.226 79.206001
-10.161 -20.212 79.152
-10.07 -20.204 79.117996
-9.9835997 -20.204 79.117996
-9.9052 -20.219999 79.18
-9.8303003 -20.243 79.273003
-9.7608995 -20.278999 79.411003
-9.698 -20.327999 79.605003
-5.4475999 -20.667999 80.934998
-5.1487999 -20.620001 80.403999
-5.1327 -20.468 80.152
-5.0307002 -20.409 79.920998
-4.9277 -20.343 79.663002
-4.8267999 -20.284 79.431999
-4.7287998 -20.235001 79.241997
-4.6322999 -20.191 79.069
-4.5363998 -20.148001 78.902
-4.4411001 -20.106001 78.736
-4.3467999 -20.066999 78.584
-4.2535 -20.031 78.444
-4.1606002 -19.996 78.305
-4.0683999 -19.962999 78.174004
-3.9769001 -19.931 78.051003
-3.8861001 -19.902 77.935997
-3.7955999 -19.872999 77.822998
-3.7056 -19.846001 77.716003
-3.6163001 -19.820999 77.617996
-3.5272999 -19.796 77.522003
-3.4389999 -19.774 77.436996
-3.3513999 -19.754999 77.362999
-3.2642 -19.739 77.296997
-3.1775999 -19.724001 77.237999
-3.0913999 -19.712 77.191002
-3.0056 -19.701 77.149002
-2.9200001 -19.690001 77.108002
-2.8343999 -19.68 77.068001
-2.7491 -19.671 77.030998
-2.6638999 -19.662001 76.996002
-2.5788 -19.653999 76.963997
-2.494 -19.646999 76.936996
-2.4094 -19.641001 76.913002
-2.3248999 -19.635 76.889999
-2.2406001 -19.631001 76.874001
-2.1563001 -19.627001 76.860001
-2.0723 -19.624001 76.849998
-1.9883 -19.622999 76.842003
-1.9044 -19.622 76.838997
-1.8206 -19.622 76.839996
-1.737 -19.624001 76.847
-1.6536 -19.628 76.862
-1.5702 -19.634001 76.887001
-1.4871 -19.643 76.924004
-1.4040999 -19.655001 76.967003
-1.321 -19.667 77.017998
-1.2379 -19.681 77.069
-1.1546 -19.694 77.124001
-1.0712 -19.707001 77.174004
-0.98777002 -19.721001 77.226997
-0.90417999 -19.733999 77.279999
-0.82049 -19.747999 77.334
-0.73672998 -19.763 77.392998
-0.65287 -19.778999 77.454002
-0.56889999 -19.796 77.521004
-0.48484001 -19.813999 77.594002
-0.40061 -19.833 77.667
-0.31617999 -19.85 77.731003
-0.23159 -19.863001 77.783997
-0.14686 -19.874001 77.828003
-0.062031001 -19.884001 77.867996
0.022883 -19.893 77.901001
0.10787 -19.902 77.936996
0.19295 -19.912001 77.976997
0.27812001 -19.923 78.019997
5.7649999 -28.563 111.85
5.8838 -28.548 111.79
6.0023999 -28.532 111.73
6.1209998 -28.517 111.67
6.2382002 -28.496 111.59
6.3544998 -28.472 111.5
6.4706001 -28.448 111.4
6.5872002 -28.427 111.32
6.7047 -28.410999 111.26
6.8234 -28.4 111.21
6.9431 -28.393 111.19
7.0644002 -28.393999 111.19
7.1873999 -28.400999 111.22
7.3116002 -28.412001 111.26
7.4362998 -28.424999 111.31
7.5627999 -28.444 111.39
7.6894002 -28.464001 111.46
7.8162999 -28.483 111.54
7.9432998 -28.502001 111.62
8.0693998 -28.518 111.68
8.1947002 -28.530001 111.73
8.3190002 -28.539 111.76
8.4433002 -28.547001 111.79
8.5670004 -28.552999 111.81
8.6906004 -28.558001 111.84
8.8140001 -28.563 111.85
8.9378004 -28.569 111.88
9.0612001 -28.573999 111.89
9.1850996 -28.58 111.92
9.3088999 -28.584999 111.94
9.4327002 -28.59 111.96
9.5558004 -28.593 111.97
9.6788998 -28.596001 111.98
9.8018999 -28.599001 111.99
9.9247999 -28.601 112
10.048 -28.603001 112.01
10.17 -28.603001 112.01
10.292 -28.603001 112.01
10.414 -28.601999 112.01
10.536 -28.603001 112.01
10.658 -28.604 112.01
10.781 -28.606001 112.02
10.905 -28.608 112.03
11.028 -28.613001 112.05
11.153 -28.618 112.07
11.278 -28.625999 112.1
11.403 -28.632999 112.13
11.528 -28.639 112.15
11.65 -28.639 112.15
11.772 -28.638 112.15
11.893 -28.636 112.14
12.014 -28.632999 112.13
12.134 -28.627001 112.11
12.254 -28.622 112.09
12.374 -28.615999 112.06
12.494 -28.611 112.04
12.614 -28.608 112.03
12.738 -28.611 112.04
12.863 -28.617001 112.06
12.988 -28.622999 112.09
13.113 -28.629 112.11
13.236 -28.632 112.12
13.36 -28.634001 112.13
13.483 -28.636999 112.14
13.608 -28.641001 112.16
13.732 -28.645 112.18
13.855 -28.648001 112.19
13.978 -28.648001 112.19
14.1 -28.648001 112.19
14.221 -28.646 112.18
14.345 -28.65 112.19
14.469 -28.653 112.21
14.595 -28.659 112.23
14.72 -28.664 112.25
14.846 -28.672001 112.28
14.972 -28.679001 112.31
15.102 -28.691999 112.36
15.23 -28.702999 112.4
15.361 -28.719 112.46
15.49 -28.73 112.51
15.62 -28.745001 112.56
15.748 -28.753 112.6
15.876 -28.761999 112.63
15.999 -28.764 112.64
16.122 -28.764 112.64
16.240999 -28.757 112.61
16.358999 -28.749001 112.58
16.478001 -28.743 112.56
16.599001 -28.739 112.54
16.715 -28.728001 112.5
16.832001 -28.719 112.46
17.113001 -25.164 98.541
17.188999 -25.118 98.361
17.261 -25.068001 98.165001
17.34 -25.027 98.005997
17.240999 -24.431999 95.674004
17.233 -24.273001 95.055
17.302 -24.225 94.865997
18.075001 -22.726 88.994003
18.177 -22.732 89.021004
18.282 -22.742001 89.058998
18.384001 -22.749001 89.084999
18.489 -22.757 89.119003
18.587999 -22.761 89.130997
18.686001 -22.761 89.132004
18.778999 -22.756001 89.113998
18.871 -22.75 89.087997
18.959 -22.739 89.047997
19.049 -22.73 89.012001
19.138 -22.719999 88.973999
19.226999 -22.712 88.940002
19.316999 -22.702999 88.906998
19.409 -22.698 88.885002
19.500999 -22.691999 88.862
19.594999 -22.688999 88.849998
19.690001 -22.686001 88.839996
19.787001 -22.687 88.842003
19.885 -22.688 88.847
19.983999 -22.690001 88.853996
20.082001 -22.691 88.860001
20.177999 -22.690001 88.856003
20.271999 -22.687 88.843002
20.365 -22.683001 88.827003
20.455999 -22.676001 88.800003
20.546 -22.667999 88.769997
20.632999 -22.658001 88.727997
20.718 -22.645 88.68
20.801001 -22.629999 88.621002
20.884001 -22.615 88.560997
20.965 -22.599001 88.498001
21.045 -22.580999 88.429001
21.118999 -22.558001 88.335999
21.188 -22.528 88.220001
21.245001 -22.487 88.058998
21.290001 -22.433001 87.847
21.32 -22.364 87.579002
21.334999 -22.280001 87.249001
21.358 -22.205 86.954002
21.398001 -22.148001 86.732002
21.443001 -22.097 86.531998
21.502001 -22.059999 86.389
21.573999 -22.038 86.300003
21.657 -22.027 86.258003
21.732 -22.007 86.181
21.801001 -21.982 86.081001
21.854 -21.941 85.921997
21.886 -21.879 85.68
21.905001 -21.805 85.390999
21.881001 -21.507999 84.224998
21.919001 -21.455 84.017998
21.968 -21.413 83.853996
22.033001 -21.386999 83.752998
22.113001 -21.377001 83.710999
22.188999 -21.362 83.653999
22.266001 -21.348 83.599998
22.344 -21.336 83.552002
22.424999 -21.326 83.514999
22.507999 -21.319 83.484001
22.591999 -21.312 83.458
22.677 -21.306 83.433998
22.761 -21.299999 83.411003
22.846001 -21.294001 83.387001
22.93 -21.288 83.364998
23.014999 -21.283001 83.343002
23.103001 -21.280001 83.332001
23.191 -21.277 83.320999
23.278 -21.274 83.307999
23.365 -21.27 83.293999
-12.465 -19.033001 74.850998
-12.395 -19.049999 74.920998
-12.322 -19.065001 74.977997
-12.249 -19.077 75.027
-12.184 -19.103001 75.129997
-12.119 -19.131001 75.237999
-12.054 -19.158001 75.344002
-11.988 -19.184 75.446999
-12.041 -19.402 76.305
-11.964 -19.410999 76.342003
-11.883 -19.415001 76.356003
-11.802 -19.417999 76.366997
-11.73 -19.438 76.446999
-11.591 -19.625999 77.185997
-11.62 -19.819 77.944
-11.591 -19.914 78.318001
-11.554 -19.999001 78.651001
-11.5 -20.054001 78.870003
-11.445 -20.108999 79.084
-11.378 -20.141001 79.212997
-11.304 -20.164 79.302002
-11.221 -20.171 79.330002
-11.138 -20.176001 79.349998
-11.053 -20.179001 79.361
-10.968 -20.183001 79.376999
-10.882 -20.184 79.377998
-10.797 -20.186001 79.389
-10.71 -20.184999 79.385002
-10.622 -20.181999 79.373001
-10.531 -20.174999 79.343002
-10.44 -20.166 79.307999
-10.349 -20.156 79.269997
-10.257 -20.146999 79.233002
-10.166 -20.136999 79.194
-10.077 -20.131001 79.172997
-9.9910002 -20.132 79.177002
-9.9123001 -20.148001 79.237
-9.8374996 -20.172001 79.331001
-9.7672997 -20.205 79.462997
-9.7040997 -20.254 79.655998
-5.2349 -20.525999 80.378998
-5.217 -20.368 80.103996
-5.1185999 -20.323999 79.931999
-5.0198002 -20.277 79.747002
-4.9197001 -20.223 79.535004
-4.8200998 -20.17 79.322998
-4.7231002 -20.125 79.146004
-4.6272998 -20.083 78.984001
-4.5313001 -20.039 78.811996
-4.4363999 -19.999001 78.653
-4.3424001 -19.961 78.503998
-4.2493 -19.926001 78.365997
-4.1566 -19.892 78.230003
-4.0647998 -19.858999 78.103996
-3.9735 -19.829 77.984001
-3.8829 -19.801001 77.872002
-3.7923999 -19.771999 77.758003
-3.7025001 -19.743999 77.650002
-3.6131999 -19.719 77.551003
-3.5246 -19.695999 77.460999
-3.4363999 -19.674999 77.377998
-3.3489001 -19.656 77.305
-3.2618999 -19.639999 77.241997
-3.1754 -19.625999 77.185997
-3.0894001 -19.615 77.139999
-3.0035999 -19.604 77.097
-2.918 -19.593 77.056
-2.8325 -19.583 77.015999
-2.7471001 -19.573 76.976997
-2.6619 -19.563 76.939003
-2.5768001 -19.554001 76.903999
-2.4920001 -19.547001 76.873001
-2.4073 -19.539 76.845001
-2.3227 -19.533001 76.819
-2.2384 -19.528 76.800003
-2.1542001 -19.524 76.782997
-2.0701001 -19.52 76.767998
-1.9861 -19.518 76.759003
-1.9023 -19.516001 76.753998
-1.8186001 -19.517 76.754997
-1.7351 -19.518 76.761002
-1.6517 -19.521999 76.776001
-1.5685 -19.528 76.801003
-1.4855 -19.539 76.842003
-1.4026 -19.549999 76.886002
-1.3197 -19.563999 76.940002
-1.2366 -19.577 76.994003
-1.1535 -19.591999 77.050003
-1.0702 -19.605 77.100998
-0.98683 -19.618 77.153999
-0.90333003 -19.632 77.207001
-0.81971002 -19.645 77.260002
-0.736 -19.659 77.316002
-0.65222001 -19.674999 77.377998
-0.56834 -19.691999 77.444
-0.48434001 -19.709999 77.514
-0.40022999 -19.73 77.593002
-0.31592 -19.747999 77.667
-0.23142999 -19.764999 77.730003
-0.14677 -19.778 77.783997
-0.062001001 -19.790001 77.830002
0.022875 -19.801001 77.874001
0.10785 -19.813 77.920998
0.19294 -19.826 77.973
0.27816001 -19.84 78.028999
0.36344001 -19.851999 78.072998
5.7642002 -28.437 111.84
5.8831 -28.423 111.78
6.0019999 -28.409 111.73
6.1209002 -28.395 111.67
6.2386999 -28.377001 111.6
6.3555002 -28.355 111.52
6.4720998 -28.333 111.43
6.5889001 -28.313 111.35
6.7066002 -28.298 111.29
6.8253999 -28.287001 111.25
6.9446001 -28.278999 111.21
7.0654001 -28.277 111.21
7.1876998 -28.281 111.22
7.3112001 -28.289 111.26
7.4354 -28.299999 111.3
7.5611 -28.316999 111.36
7.6875 -28.334999 111.44
7.8143001 -28.354 111.51
7.9412999 -28.372999 111.59
8.0676003 -28.389999 111.65
8.1932001 -28.403 111.7
8.3177004 -28.412001 111.74
8.4421997 -28.421 111.78
8.5661001 -28.427999 111.8
8.6899004 -28.434 111.83
8.8134003 -28.438999 111.85
8.9371996 -28.445 111.87
9.0607996 -28.450001 111.89
9.1848001 -28.455999 111.91
9.3086004 -28.462 111.94
9.4323997 -28.466999 111.96
9.5556002 -28.471001 111.97
9.6787996 -28.474001 111.98
9.8017998 -28.476999 111.99
9.9247999 -28.479 112
10.048 -28.481001 112.01
10.17 -28.482 112.02
10.293 -28.483 112.02
10.415 -28.483 112.02
10.537 -28.485001 112.02
10.66 -28.486 112.03
10.783 -28.489 112.04
10.906 -28.490999 112.05
11.03 -28.495001 112.07
11.154 -28.499001 112.08
11.279 -28.504999 112.11
11.403 -28.51 112.12
11.527 -28.514999 112.14
11.649 -28.513 112.14
11.77 -28.511999 112.13
11.891 -28.509001 112.12
12.012 -28.506001 112.11
12.133 -28.502001 112.09
12.253 -28.497 112.07
12.372 -28.490999 112.05
12.493 -28.487 112.03
12.614 -28.483999 112.02
12.737 -28.487 112.03
12.862 -28.493 112.06
12.987 -28.497999 112.08
13.112 -28.504 112.1
13.235 -28.507 112.11
13.359 -28.51 112.13
13.482 -28.513 112.14
13.607 -28.518 112.16
13.731 -28.521999 112.17
13.855 -28.525 112.18
13.977 -28.524 112.18
14.099 -28.524 112.18
14.22 -28.521 112.17
14.344 -28.523001 112.18
14.467 -28.525999 112.19
14.592 -28.531 112.21
14.717 -28.535999 112.23
14.843 -28.544001 112.26
14.97 -28.551001 112.29
15.099 -28.563999 112.34
15.228 -28.576 112.38
15.358 -28.591 112.44
15.487 -28.603001 112.49
15.618 -28.618 112.55
15.746 -28.627001 112.58
15.873 -28.634001 112.61
15.996 -28.635 112.62
16.118 -28.632999 112.61
16.236 -28.625 112.58
16.353001 -28.615 112.54
16.471001 -28.607 112.51
16.59 -28.601 112.48
16.707001 -28.591 112.44
16.823 -28.58 112.4
17.02 -24.016001 94.450996
17.076 -23.948999 94.189003
17.125 -23.875 93.897003
17.155001 -23.775 93.501999
18.072001 -22.625 88.980003
18.172001 -22.629 88.994003
18.275 -22.636 89.024002
18.377001 -22.643 89.051003
18.482 -22.652 89.084999
18.583 -22.657 89.103996
18.681999 -22.659 89.112
18.775999 -22.656 89.100998
18.868999 -22.650999 89.081001
18.959 -22.642 89.044998
19.049 -22.632999 89.011002
19.138 -22.624001 88.974998
19.228001 -22.615999 88.943001
19.318001 -22.607 88.908997
19.41 -22.601 88.887001
19.502001 -22.596001 88.863998
19.596001 -22.593 88.851997
19.691 -22.59 88.842003
19.788 -22.59 88.843002
19.885 -22.591 88.846001
19.983 -22.591999 88.851997
20.080999 -22.593 88.853996
20.176001 -22.591 88.848
20.27 -22.587999 88.833
20.363001 -22.583 88.816002
20.452999 -22.576 88.788002
20.542999 -22.569 88.760002
20.631001 -22.559 88.720001
20.716999 -22.547001 88.674004
20.801001 -22.534 88.621002
20.885 -22.52 88.568001
20.968 -22.506001 88.510002
21.049999 -22.49 88.447998
21.127001 -22.469999 88.370003
21.200001 -22.444 88.269997
21.261999 -22.409 88.129997
21.311001 -22.358999 87.932999
21.364 -22.115999 86.976997
21.396999 -22.052 86.727997
21.437 -21.996 86.507004
21.486 -21.950001 86.324997
21.549 -21.919001 86.203003
21.629 -21.905001 86.148003
21.698999 -21.879999 86.051003
21.761 -21.849001 85.926003
21.806 -21.799999 85.735001
21.861 -21.577999 84.5
21.809999 -21.436001 84.305
21.841999 -21.377001 84.071999
21.889 -21.334 83.902
21.947001 -21.302 83.775002
22.018999 -21.283001 83.700996
22.1 -21.273001 83.662003
22.177 -21.259001 83.607002
22.254999 -21.247 83.559998
22.334999 -21.236 83.517998
22.417999 -21.228001 83.487
22.502001 -21.221001 83.459
22.586 -21.215 83.434998
22.67 -21.209 83.411003
22.754999 -21.202999 83.388
22.839001 -21.197001 83.362999
22.924 -21.191 83.339996
23.007999 -21.184999 83.316002
23.096001 -21.181999 83.304001
23.183001 -21.177999 83.291
23.27 -21.174999 83.277
23.356001 -21.171 83.262001
-12.509 -19.018 75.115997
-12.439 -19.035999 75.188004
-12.367 -19.051001 75.247002
-12.291 -19.059999 75.282997
-12.225 -19.084999 75.383003
-12.287 -19.313 76.279999
-12.226 -19.348 76.417999
-12.157 -19.370001 76.508003
-12.079 -19.378 76.540001
-11.999 -19.385 76.567001
-11.917 -19.386999 76.572998
-11.838 -19.393999 76.602997
-11.766 -19.413 76.678001
-11.694 -19.433001 76.754997
-11.593 -19.544001 77.195
-11.558 -19.628 77.526001
-11.578 -19.806999 78.234001
-11.535 -19.879999 78.523003
-11.483 -19.938 78.75
-11.427 -19.990999 78.959999
-11.359 -20.023001 79.085999
-11.288 -20.049 79.186996
-11.206 -20.056999 79.219002
-11.124 -20.065001 79.251999
-11.04 -20.07 79.273003
-10.958 -20.077999 79.302002
-10.874 -20.080999 79.317001
-10.789 -20.084 79.328003
-10.702 -20.084 79.327003
-10.615 -20.083 79.322998
-10.527 -20.079 79.308998
-10.438 -20.075001 79.292999
-10.349 -20.07 79.272003
-10.26 -20.066 79.253998
-10.171 -20.059999 79.233002
-10.084 -20.059 79.225998
-9.9981003 -20.059999 79.233002
-9.9188995 -20.075001 79.290001
-9.8438997 -20.098 79.382004
-9.7733002 -20.131001 79.512001
-9.7081003 -20.176001 79.688004
-5.3151002 -20.41 80.267998
-5.2996001 -20.263 80.032997
-5.2037001 -20.229 79.900002
-5.1090999 -20.200001 79.782997
-5.0124998 -20.160999 79.630997
-4.9141002 -20.114 79.443001
-4.8154998 -20.063999 79.247002
-4.7181001 -20.017 79.061996
-4.6220999 -19.975 78.894997
-4.5261998 -19.931 78.723
-4.4320998 -19.893999 78.577003
-4.3382001 -19.857 78.429001
-4.2452998 -19.822001 78.292999
-4.1529002 -19.789 78.160004
-4.0612998 -19.757 78.037003
-3.9703 -19.728001 77.921997
-3.8800001 -19.701 77.813004
-3.7895999 -19.672001 77.698997
-3.6998999 -19.646 77.596001
-3.6106999 -19.621 77.498001
-3.5222001 -19.599001 77.410004
-3.4342 -19.577999 77.329002
-3.3469 -19.561001 77.259003
-3.2600999 -19.545 77.197998
-3.1737001 -19.532 77.144997
-3.0878 -19.52 77.098999
-3.0020001 -19.509001 77.056
-2.9164 -19.497999 77.014
-2.8308001 -19.487 76.970001
-2.7454 -19.476 76.927002
-2.6600001 -19.466 76.884003
-2.5748 -19.455 76.844002
-2.4899001 -19.445999 76.807999
-2.4051001 -19.438 76.775002
-2.3206 -19.431 76.749001
-2.2362001 -19.426001 76.725998
-2.152 -19.421 76.707001
-2.0680001 -19.417 76.692001
-1.9841 -19.414 76.681999
-1.9003 -19.412001 76.674004
-1.8167 -19.413 76.675003
-1.7333 -19.414 76.681
-1.65 -19.417999 76.695999
-1.5669 -19.424 76.722
-1.484 -19.434 76.760002
-1.4011 -19.445999 76.806999
-1.3184 -19.459999 76.863998
-1.2355 -19.475 76.922997
-1.1525 -19.49 76.983002
-1.0693001 -19.504 77.037003
-0.98602998 -19.518 77.091003
-0.90258002 -19.531 77.142998
-0.81901002 -19.544001 77.194
-0.73536998 -19.558001 77.25
-0.65162998 -19.573 77.306999
-0.56782001 -19.589001 77.373001
-0.48388001 -19.607 77.441002
-0.39985001 -19.627001 77.519997
-0.31564 -19.646 77.597
-0.23125 -19.665001 77.670998
-0.14668 -19.681 77.734001
-0.061967999 -19.695 77.790001
0.022864999 -19.708 77.842003
0.10782 -19.722 77.897003
0.1929 -19.738001 77.958
0.27814001 -19.754 78.025002
0.36346999 -19.768 78.079002
0.44896999 -19.784 78.141998
5.7627001 -28.308001 111.81
5.8818998 -28.295 111.76
6.0012999 -28.283001 111.71
6.1206002 -28.271999 111.67
6.2391 -28.257 111.61
6.3565001 -28.238001 111.53
6.4738002 -28.219 111.46
6.5911002 -28.201 111.39
6.7090998 -28.187 111.33
6.8277998 -28.176001 111.29
6.9467001 -28.166 111.25
7.0668998 -28.160999 111.23
7.1884999 -28.163 111.24
7.3112998 -28.167999 111.26
7.4348001 -28.177 111.29
7.5598998 -28.191 111.35
7.6858001 -28.207001 111.41
7.8123002 -28.225 111.48
7.9390998 -28.243999 111.56
8.0656004 -28.261 111.62
8.1913996 -28.275 111.68
8.3161001 -28.285 111.72
8.4407997 -28.295 111.76
8.5648003 -28.302 111.79
8.6887999 -28.309 111.81
8.8125 -28.313999 111.83
8.9364996 -28.320999 111.86
9.0602999 -28.327 111.88
9.1844997 -28.334 111.91
9.3084002 -28.339001 111.93
9.4323997 -28.344999 111.96
9.5557003 -28.349001 111.97
9.6788998 -28.351999 111.98
9.8018999 -28.355 111.99
9.9250002 -28.357 112
10.048 -28.360001 112.01
10.171 -28.362 112.02
10.294 -28.364 112.03
10.416 -28.365 112.03
10.539 -28.367001 112.04
10.662 -28.368999 112.05
10.785 -28.372 112.06
10.909 -28.375 112.07
11.032 -28.378 112.09
11.155 -28.379999 112.1
11.279 -28.385 112.11
11.402 -28.386999 112.12
11.526 -28.389999 112.13
11.647 -28.386999 112.12
11.768 -28.385 112.12
11.89 -28.382999 112.1
12.01 -28.379999 112.09
12.131 -28.375999 112.08
12.252 -28.372 112.06
12.372 -28.367001 112.04
12.492 -28.363001 112.03
12.613 -28.361 112.02
12.737 -28.364 112.03
12.861 -28.368999 112.05
12.986 -28.374001 112.07
13.111 -28.379999 112.09
13.234 -28.382999 112.11
13.358 -28.386 112.12
13.482 -28.389 112.13
13.606 -28.393999 112.15
13.731 -28.399 112.17
13.855 -28.402 112.18
13.976 -28.400999 112.18
14.098 -28.399 112.17
14.219 -28.396 112.16
14.342 -28.398001 112.16
14.465 -28.399 112.17
14.589 -28.403 112.19
14.714 -28.408001 112.2
14.841 -28.416 112.24
14.967 -28.424 112.27
15.097 -28.438 112.32
15.226 -28.451 112.37
15.357 -28.466 112.43
15.486 -28.478001 112.48
15.616 -28.492001 112.53
15.744 -28.5 112.57
15.869 -28.506001 112.59
15.992 -28.504999 112.59
16.112 -28.500999 112.57
16.23 -28.490999 112.53
16.346001 -28.48 112.49
16.462999 -28.471001 112.45
16.580999 -28.462 112.42
16.697001 -28.451 112.37
16.813 -28.440001 112.33
16.947001 -24.059 94.617996
16.798 -23.745001 93.787003
16.864 -23.694 93.584999
16.927999 -23.639999 93.374001
16.988001 -23.583 93.144997
17.042999 -23.518 92.889
17.974001 -22.624001 88.976997
17.983 -22.538 89.018997
18.076 -22.534 89.002998
18.174 -22.534 89.003998
18.274 -22.539 89.022003
18.375 -22.542999 89.038002
18.479 -22.551001 89.07
18.58 -22.556 89.088997
18.679001 -22.558001 89.098999
18.775 -22.556999 89.093002
18.868 -22.552 89.074997
18.958 -22.544001 89.042
19.049 -22.535999 89.011002
19.138 -22.527 88.976997
19.228001 -22.518999 88.945
19.318001 -22.511 88.911003
19.41 -22.504999 88.889
19.502001 -22.499001 88.866997
19.596001 -22.496 88.853996
19.690001 -22.493 88.842003
19.787001 -22.493 88.841003
19.884001 -22.493 88.843002
19.982 -22.493999 88.845001
20.077999 -22.493999 88.844002
20.173 -22.490999 88.834999
20.266001 -22.487 88.818001
20.358999 -22.483 88.801003
20.448999 -22.476 88.773003
20.540001 -22.469 88.747002
20.628 -22.459 88.709
20.715 -22.448999 88.667999
20.801001 -22.437 88.619003
20.886 -22.424999 88.570999
20.969999 -22.410999 88.519997
21.054001 -22.396999 88.463997
21.135 -22.381001 88.401001
21.209999 -22.358999 88.314003
21.278 -22.329 88.194
21.330999 -22.284 88.015999
21.372 -22.226999 87.792
21.410999 -21.973 86.787003
21.438999 -21.905001 86.517998
21.476 -21.846001 86.287003
21.528 -21.804001 86.117996
21.598 -21.778999 86.021004
21.660999 -21.747999 85.898003
21.714001 -21.708 85.739998
21.749001 -21.65 85.512001
21.77 -21.577999 85.228996
21.759001 -21.294001 84.108002
21.802999 -21.247 83.921997
21.861 -21.215 83.792999
21.927 -21.190001 83.695999
22.004999 -21.177999 83.647003
22.086 -21.167999 83.609001
22.165001 -21.157 83.563004
22.245001 -21.146 83.523003
22.327 -21.136999 83.487
22.410999 -21.129999 83.459999
22.495001 -21.124001 83.434998
22.579 -21.118 83.411003
22.664 -21.112 83.387001
22.747999 -21.106001 83.362999
22.832001 -21.099001 83.335999
22.916 -21.093 83.310997
22.999001 -21.086 83.285004
23.086 -21.083 83.272003
23.173 -21.079 83.257004
23.26 -21.075001 83.241997
23.346001 -21.070999 83.224998
-12.563 -19.018 75.442001
-12.492 -19.035 75.509003
-12.417 -19.046 75.552002
-12.453 -19.229 76.279999
-12.388 -19.257 76.390999
-12.325 -19.289 76.517998
-12.261 -19.319 76.634003
-12.189 -19.337999 76.709999
-12.109 -19.343 76.730003
-12.028 -19.348 76.75
-11.945 -19.348 76.751999
-11.861 -19.349001 76.755997
-11.779 -19.35 76.760002
-11.706 -19.368999 76.834999
-11.638 -19.479 76.938004
-11.649 -19.413 77.010002
-11.597 -19.468 77.224998
-11.551 -19.533001 77.483002
-11.523 -19.629 77.862999
-11.518 -19.764999 78.403
-11.463 -19.818001 78.613998
-11.406 -19.868 78.814003
-11.341 -19.905001 78.959
-11.272 -19.936001 79.081001
-11.192 -19.945 79.119003
-11.111 -19.955999 79.161003
-11.029 -19.964001 79.194
-10.948 -19.974001 79.232002
-10.865 -19.98 79.255997
-10.782 -19.985001 79.277
-10.696 -19.987 79.283997
-10.61 -19.988001 79.289001
-10.524 -19.987 79.286003
-10.437 -19.987 79.283997
-10.35 -19.985001 79.278
-10.263 -19.983999 79.275002
-10.176 -19.983 79.269997
-10.09 -19.985001 79.276001
-10.006 -19.989 79.291
-9.9261999 -20.003 79.348
-9.8514996 -20.027 79.444
-9.7804003 -20.059 79.57
-9.7140999 -20.101 79.737999
-9.6575003 -20.165001 79.989998
-5.2870998 -20.128 79.844002
-5.1935 -20.101999 79.742996
-5.0992999 -20.073999 79.630997
-5.0047998 -20.044001 79.509003
-4.9077001 -20.000999 79.339996
-4.8098998 -19.954 79.154999
-4.7129998 -19.909 78.976997
-4.6166 -19.865 78.801003
-4.5215001 -19.825001 78.641998
