# .PCD v0.7 - Point Cloud Data file format
VERSION 0.7
FIELDS x y z
SIZE 4 4 4
TYPE F F F
COUNT 1 1 1
WIDTH 1717
HEIGHT 1
VIEWPOINT 0 0 0 1 0 0 0
POINTS 1717
DATA ascii
-6.3452001 -1.2029999 64.139999
-6.3456998 -1.1331 64.144997
-6.2849998 -1.1348 64.238998
-6.2852998 -1.2049 64.241997
-6.2234001 -1.1363 64.325996
-6.1591001 -1.1374 64.387001
-6.0924001 -1.1381 64.424004
-6.0286002 -1.1393 64.494003
-5.9721999 -1.1418999 64.643997
-5.9194999 -1.1454 64.838997
-5.8687 -1.1493 65.059998
-5.8322001 -1.1704 66.257004
-5.7909999 -1.1767 66.612999
-5.7526002 -1.1838 67.013
-5.7136002 -1.1909 67.414001
-5.6724 -1.1977 67.800003
-6.0475998 -1.2938 73.239998
-6.0001998 -1.3008 73.638
-5.9436998 -1.306 73.933998
-5.8811002 -1.3101 74.161003
-5.8126001 -1.3128 74.319
-5.7318001 -1.3128999 74.321999
-5.6471 -1.312 74.273003
-5.5625 -1.3112 74.225998
-5.4787002 -1.3105 74.185997
-5.3958001 -1.3099999 74.158997
-5.3126998 -1.3095 74.126999
-5.2298002 -1.3089 74.098
-5.1458001 -1.3081 74.052002
-5.0612001 -1.3071001 73.995003
-4.9749999 -1.3056999 73.914001
-4.8885999 -1.3041 73.825996
-4.8007998 -1.3022 73.714996
-4.7136002 -1.3003 73.608002
-4.6254001 -1.2981 73.482002
-4.5412002 -1.2969 73.415001
-4.4591999 -1.2963001 73.384003
-4.381 -1.2968 73.413002
-4.3038998 -1.2977 73.462997
-4.2289 -1.2993 73.553001
-4.1581998 -1.3023 73.722
-4.0840001 -1.3042001 73.832001
-4.0096998 -1.3063 73.946999
-3.9349999 -1.3082 74.058998
-3.8584001 -1.3097 74.139
-3.7804 -1.3106 74.194
-3.7000999 -1.3109 74.207001
-3.6194 -1.3109 74.210999
-3.5386 -1.311 74.211998
-3.4575 -1.3109 74.209999
-3.3762 -1.3108 74.200996
-3.2939 -1.3102 74.168999
-3.2112 -1.3095 74.126999
-3.1284001 -1.3085999 74.080002
-3.0455999 -1.3077 74.029999
-2.9628 -1.3068 73.978996
-2.8803999 -1.3061 73.934998
-2.7983 -1.3054 73.896004
-2.7167001 -1.3048 73.865997
-2.6368999 -1.3052 73.887001
-2.559 -1.3066 73.964996
-2.4816 -1.3083 74.063004
-2.4045999 -1.3103 74.177002
-2.3304 -1.3141 74.389999
-2.2530999 -1.3163 74.515999
-2.1752999 -1.3184 74.634003
-2.0971 -1.3205 74.75
-2.0186 -1.3224 74.860001
-1.9387 -1.3236001 74.925003
-1.8577 -1.3241 74.954002
-1.7767 -1.3246 74.984001
-1.6954 -1.325 75.007004
-1.614 -1.3253 75.025002
-1.5324 -1.3255 75.032997
-1.4506 -1.3255 75.036003
-1.3686 -1.3253 75.022003
-1.2865 -1.325 75.003998
-1.2042 -1.3243999 74.974998
-1.122 -1.3239 74.946999
-1.04 -1.3235 74.920998
-0.95811999 -1.3233 74.908997
-0.87642002 -1.3232 74.906998
-0.79484999 -1.3234 74.917
-0.71328998 -1.3237 74.931
-0.63186997 -1.3242 74.962997
-0.55032003 -1.3247 74.987999
-0.46875 -1.3252 75.018997
-0.38703999 -1.3255 75.037003
-0.30526999 -1.3257 75.046997
-0.22342999 -1.3257 75.044998
-0.14159 -1.3255 75.035004
-0.059760001 -1.3252 75.016998
0.02203 -1.3248 74.997002
0.10377 -1.3243999 74.973
0.18547 -1.3241 74.955002
0.26716 -1.3239 74.945
0.34891 -1.324 74.952003
0.43074 -1.3243001 74.969002
0.51269001 -1.3249 75
0.59473002 -1.3255 75.032997
0.67690998 -1.3262 75.073997
0.75917 -1.3269 75.113998
0.84148002 -1.3275 75.151001
0.92379999 -1.3281 75.181999
1.0062 -1.3286 75.210999
1.0884 -1.3289 75.228996
1.1707 -1.3292 75.244003
1.2529 -1.3293 75.251999
1.335 -1.3295 75.259003
1.4172 -1.3296 75.264999
1.4995 -1.3298 75.277
1.582 -1.3301001 75.296997
1.6647 -1.3306 75.323997
1.7474999 -1.3311 75.351997
1.8304 -1.3316 75.382004
1.9133 -1.3322001 75.412003
1.9962 -1.3326 75.436996
2.0790999 -1.3329999 75.460999
2.1619 -1.3333 75.478996
2.2447 -1.3336 75.495003
2.3273001 -1.3338 75.502998
2.4096999 -1.3338 75.505997
2.4921 -1.3339 75.509003
2.5747001 -1.334 75.515999
2.6573 -1.3342 75.525002
2.7402999 -1.3344001 75.541
2.8232999 -1.3348 75.558998
2.9065001 -1.3351001 75.581001
2.9897001 -1.3355 75.600998
3.0731001 -1.3358999 75.624001
3.1565001 -1.3363 75.644997
3.2397001 -1.3365999 75.664001
3.3229001 -1.3369 75.678001
3.4061999 -1.3372 75.695999
3.4893 -1.3374 75.709999
3.5725 -1.3376 75.722
3.6556001 -1.3378 75.734001
3.7388999 -1.3381 75.749001
3.8223 -1.3384 75.764
3.9059 -1.3387001 75.783997
3.9902999 -1.3393 75.817001
4.0750999 -1.34 75.857002
4.1603999 -1.3408 75.903999
4.2462001 -1.3418 75.958
4.3326001 -1.3429 76.021004
4.4194999 -1.3441 76.089996
4.5065999 -1.3454 76.158997
4.5938001 -1.3466001 76.230003
4.6812 -1.3478 76.299004
4.7679 -1.3487999 76.355003
4.8541002 -1.3496 76.402
4.9397998 -1.3503 76.439003
5.0250001 -1.3508 76.467003
5.1096001 -1.3511 76.485001
5.1939998 -1.3514 76.5
5.2782001 -1.3516001 76.511002
5.3621001 -1.3516999 76.517998
6.0123 -1.184 67.025002
6.0853 -1.184 67.024002
6.1581998 -1.184 67.022003
6.2311001 -1.1839 67.019997
6.3039999 -1.1839 67.017998
6.3769999 -1.1839 67.017998
6.4502001 -1.1839 67.018997
6.5235 -1.1839 67.021004
6.5967002 -1.184 67.023003
6.6697998 -1.184 67.023003
6.7428002 -1.1839 67.022003
6.8154998 -1.1839 67.017998
6.8878999 -1.1838 67.012001
6.9601998 -1.1835999 67.004997
7.0321999 -1.1834 66.994003
7.1034999 -1.1832 66.977997
7.1746998 -1.1829 66.959999
7.2456002 -1.1825 66.941002
7.3161998 -1.1821001 66.918999
7.3867002 -1.1817 66.897003
7.4570999 -1.1813 66.874001
7.5272002 -1.1809 66.848999
7.5970001 -1.1804 66.821999
7.6669998 -1.1799999 66.796997
7.7371998 -1.1796 66.775002
7.8077998 -1.1792001 66.754997
7.8790998 -1.179 66.742996
7.9510999 -1.1789 66.736
8.0235996 -1.1789 66.734001
8.0965004 -1.1789 66.736
8.1702995 -1.179 66.744003
8.2440996 -1.1792001 66.751999
8.3184004 -1.1794 66.764999
8.3922997 -1.1795 66.773003
8.4659996 -1.1797 66.779999
8.5389004 -1.1797 66.780998
8.6113997 -1.1796 66.778
8.6833 -1.1795 66.771004
8.7546997 -1.1793 66.760002
8.8253002 -1.179 66.744003
8.8951998 -1.1787 66.723
8.9642 -1.1782 66.694
9.0326004 -1.1776 66.663002
9.1008997 -1.177 66.630997
9.1694002 -1.1765 66.600998
9.2382002 -1.176 66.572998
9.3073997 -1.1756001 66.549004
9.3772001 -1.1752 66.528999
9.4475002 -1.175 66.514
9.5184002 -1.1748 66.501999
9.5897999 -1.1746 66.494003
9.6616001 -1.1745 66.488998
9.7336998 -1.1745 66.487
9.8060999 -1.1745 66.486
9.8786001 -1.1745 66.486
9.9512997 -1.1745 66.487999
10.024 -1.1745 66.487999
10.097 -1.1745 66.488998
10.169 -1.1745 66.487999
10.241 -1.1745 66.487999
10.313 -1.1745 66.486
10.386 -1.1744 66.484001
10.458 -1.1744 66.482002
10.53 -1.1744 66.480003
10.602 -1.1743 66.476997
10.674 -1.1742001 66.472
10.745 -1.1741 66.467003
10.817 -1.174 66.459
10.888 -1.1738 66.449997
10.958 -1.1737 66.440002
11.029 -1.1734999 66.43
11.099 -1.1733 66.417
11.17 -1.1731 66.404999
11.24 -1.1729 66.393997
11.312 -1.1727 66.388
11.383 -1.1727 66.384003
11.456 -1.1727 66.386002
11.529 -1.1727999 66.389999
11.602 -1.1729 66.393997
11.674 -1.1727999 66.391998
11.745 -1.1726 66.382004
11.812 -1.1720999 66.351997
11.877 -1.1714 66.308998
11.94 -1.1705 66.260002
12.003 -1.1695 66.206001
12.063 -1.1684 66.143997
12.127 -1.1676 66.096001
12.191 -1.1669 66.055
12.259 -1.1664 66.030998
12.328 -1.1661 66.014
12.402 -1.1663001 66.024002
12.477 -1.1667 66.044998
12.555 -1.1672 66.073997
12.633 -1.1677999 66.107002
12.712 -1.1684 66.142998
12.791 -1.169 66.176003
12.869 -1.1696 66.208
12.945 -1.1698999 66.225998
13.019 -1.17 66.234001
13.092 -1.1701 66.237999
13.163 -1.17 66.234001
13.259 -1.1720999 66.353996
13.363 -1.1749001 66.509003
13.478 -1.1786 66.718002
15.959 -1.3806 78.155998
16.125999 -1.3877 78.557999
16.275999 -1.3932 78.867996
16.413 -1.3976001 79.114998
16.525999 -1.3997999 79.241997
16.632 -1.4015 79.336998
16.736 -1.4029 79.418999
16.837999 -1.4042 79.490997
16.931999 -1.4048001 79.527
17.021999 -1.4051 79.539001
17.098 -1.4042 79.489998
17.167 -1.4028 79.408997
17.219 -1.3999 79.248001
17.261999 -1.4326 76.384003
17.212999 -1.3455 76.167
17.261999 -1.3428 76.015999
17.323999 -1.3412 75.922997
17.400999 -1.3407 75.897003
17.478001 -1.3403 75.874001
17.554001 -1.3398 75.843002
17.629999 -1.3392 75.814003
17.707001 -1.3388 75.789001
17.788 -1.3387001 75.782997
17.874001 -1.3389 75.796997
17.959999 -1.3392 75.811996
18.046 -1.3395 75.825996
18.131001 -1.3396 75.834999
18.207001 -1.3392 75.809998
18.281 -1.3385 75.772003
18.400999 -1.4177001 75.588997
18.469 -1.3342 75.526001
18.532 -1.3328 75.447998
18.601 -1.3318 75.393997
18.679001 -1.3315001 75.376999
18.759001 -1.3314 75.367996
18.844999 -1.3317 75.385002
18.934999 -1.3322001 75.415001
19.035 -1.3335 75.487
19.156 -1.3362 75.638
19.280001 -1.3391 75.803001
19.413 -1.3426 76.000999
19.563 -1.3471 76.259003
19.924999 -1.3663 77.342003
20.146999 -1.3757 77.875
20.349001 -1.3837 78.328003
20.535999 -1.3904999 78.714996
20.702999 -1.396 79.026001
20.837999 -1.3993 79.210999
20.982 -1.4032 79.431
21.105 -1.4056 79.568001
21.215 -1.4071 79.654999
21.354 -1.4105 79.848
21.51 -1.4151 80.107002
-9.0851002 -1.0405 62.776001
-9.0267 -1.0416 62.846001
-8.9734001 -1.0434 62.952
-8.9252996 -1.0458 63.098
-8.8746004 -1.048 63.227001
-8.8295002 -1.0508 63.397999
-8.8519001 -1.0618 64.059998
-8.8017998 -1.0642 64.205002
-8.7472 -1.066 64.318001
-8.6824999 -1.0667 64.358002
-8.6094999 -1.0664001 64.336998
-8.5258999 -1.0647 64.235001
-8.4341002 -1.0619 64.07
-8.3431997 -1.0592999 63.909
-8.2553997 -1.057 63.769001
-8.1681995 -1.0547 63.631001
-8.0872002 -1.0532 63.540001
-8.0086002 -1.0519 63.466
-7.9334002 -1.0511 63.417999
-7.8596001 -1.0505 63.381001
-7.7874999 -1.0501 63.356998
-7.7161999 -1.0498 63.339001
-7.6462002 -1.0497 63.330002
-7.5767999 -1.0496 63.327999
-7.5078001 -1.0496 63.327999
-7.4390001 -1.0497 63.330002
-7.3706999 -1.0498 63.337002
-7.3024998 -1.0499001 63.344002
-7.2344999 -1.0501 63.353001
-7.1668 -1.0503 63.366001
-7.1005001 -1.0506999 63.389999
-7.0342002 -1.0511 63.416
-6.9678998 -1.0515 63.442001
-6.9017 -1.052 63.469002
-6.836 -1.0525 63.500999
-6.7705002 -1.0531 63.536999
-6.7059002 -1.0538 63.581001
-6.6441998 -1.0551 63.654999
-6.5834999 -1.0563999 63.737999
-6.5212998 -1.0576 63.810001
-6.4608002 -1.0591 63.900002
-6.4011002 -1.0608 63.999001
-6.4033999 -1.131 64.022003
-6.3427 -1.0627 64.113998
-6.2821999 -1.0642999 64.210999
-6.2200999 -1.0656 64.292
-6.1571999 -1.0669 64.367996
-6.0939999 -1.0681 64.442001
-6.0338998 -1.0699 64.550003
-5.9797001 -1.0728 64.724998
-5.928 -1.0762 64.931999
-5.8790998 -1.0802 65.175003
-5.8941998 -1.0963 66.141998
-5.8471999 -1.101 66.427002
-5.8074002 -1.1072 66.802002
-5.7660999 -1.1133 67.169998
-5.7255998 -1.1197 67.555
-5.6855001 -1.1264 67.958
-6.0553002 -1.2155 73.333
-6.0061002 -1.2217 73.709999
-5.9484 -1.2264 73.992996
-5.8850999 -1.23 74.210999
-5.8143001 -1.2322 74.341003
-5.7318001 -1.2319 74.320999
-5.6472001 -1.2311 74.275002
-5.5629001 -1.2304 74.231003
-5.4791999 -1.2297 74.194
-5.3962002 -1.2293 74.165001
-5.3127999 -1.2287 74.128998
-5.2298002 -1.2282 74.098
-5.1458001 -1.2273999 74.053001
-5.0616002 -1.2265 74.000999
-4.9756999 -1.2253 73.924004
-4.8895001 -1.2239 73.839996
-4.8017998 -1.2221 73.730003
-4.7147002 -1.2203 73.624001
-4.6265001 -1.2182 73.499001
-4.5418 -1.217 73.425003
-4.4591999 -1.2163 73.383003
-4.3807001 -1.2167 73.410004
-4.3031998 -1.2175 73.453003
-4.2276001 -1.2187001 73.529999
-4.1531 -1.2204 73.630997
-4.0826001 -1.2233 73.807999
-4.0085001 -1.2253 73.925003
-3.9339001 -1.2272 74.038002
-3.8577001 -1.2286 74.125999
-3.7802 -1.2297 74.190002
-3.6998999 -1.2299 74.202003
-3.6191001 -1.2299 74.205002
-3.5381999 -1.2299 74.205002
-3.4572001 -1.2299 74.203003
-3.3759 -1.2297 74.193001
-3.2937 -1.2293 74.165001
-3.2112 -1.2286 74.125999
-3.1284001 -1.2279 74.081001
-3.0457001 -1.2271 74.033997
-2.9631 -1.2263 73.985001
-2.8808 -1.2256 73.945
-2.7988 -1.225 73.907997
-2.7172 -1.2244999 73.879997
-2.6373999 -1.2249 73.903
-2.5595 -1.2262 73.978996
-2.4820001 -1.2277 74.072998
-2.4049001 -1.2296 74.185997
-2.3303001 -1.2329 74.387001
-2.2528999 -1.235 74.511002
-2.1751001 -1.2369 74.626999
-2.0969 -1.2388 74.742996
-2.0184 -1.2407 74.851997
-1.9385 -1.2417001 74.917
-1.8575 -1.2422 74.946999
-1.7765 -1.2427 74.975998
-1.6952 -1.2431 74.997002
-1.6138 -1.2433 75.012001
-1.5319999 -1.2434 75.015999
-1.4502 -1.2433 75.014
-1.368 -1.243 74.992996
-1.2859 -1.2427 74.973
-1.2036999 -1.2421 74.941002
-1.1216 -1.2417001 74.917999
-1.0396 -1.2414 74.897003
-0.95788997 -1.2413 74.890999
-0.87628001 -1.2414 74.894997
-0.79477 -1.2416 74.908997
-0.71327001 -1.2419 74.928001
-0.63183999 -1.2424001 74.959999
-0.55027997 -1.2428 74.983002
-0.46867001 -1.2431999 75.008003
-0.38694 -1.2434 75.016998
-0.30515999 -1.2435 75.021004
-0.22333001 -1.2433 75.012001
-0.14151999 -1.2431 74.997002
-0.059730001 -1.2428 74.980003
0.022018 -1.2424001 74.959
0.10372 -1.2421 74.936996
0.18539999 -1.2419 74.926003
0.26708001 -1.2418 74.921997
0.34883001 -1.242 74.933998
0.43065 -1.2423 74.954002
0.5126 -1.2429 74.987
0.59464997 -1.2435 75.024002
0.67682999 -1.2442 75.066002
0.75910997 -1.2449 75.108002
0.84143001 -1.2455 75.146004
0.92376 -1.2460999 75.178001
1.0061001 -1.2465 75.207001
1.0884 -1.2467999 75.225998
1.1706001 -1.2471 75.239998
1.2528 -1.2472 75.249001
1.335 -1.2473 75.254997
1.4172 -1.2474999 75.262001
1.4995 -1.2477 75.276001
1.582 -1.248 75.297997
1.6648 -1.2485 75.327003
1.7476 -1.249 75.357002
1.8305 -1.2495 75.389
1.9135 -1.2501 75.419998
1.9965 -1.2505 75.445999
2.0794001 -1.2509 75.470001
2.1622 -1.2512 75.487
2.2449 -1.2514 75.5
2.3274 -1.2515 75.505997
2.4096999 -1.2515 75.505997
2.4921 -1.2515 75.508003
2.5746 -1.2516 75.514999
2.6573 -1.2517999 75.523003
2.7402 -1.252 75.538002
2.8232 -1.2523 75.556
2.9064 -1.2527 75.578003
2.9895999 -1.253 75.598
3.073 -1.2534 75.622002
3.1564 -1.2538 75.643997
3.2397001 -1.2541 75.663002
3.3227999 -1.2543 75.678001
3.4061999 -1.2546 75.695
3.4893 -1.2549 75.709
3.5724001 -1.255 75.721001
3.6556001 -1.2553 75.733002
3.7388 -1.2555 75.747002
3.8222001 -1.2557 75.762001
3.9058001 -1.256 75.780998
3.99 -1.2565 75.810997
4.0746999 -1.2572 75.849998
4.1599002 -1.2579 75.896004
4.2456002 -1.2588 75.946999
4.3319001 -1.2598 76.010002
4.4184999 -1.2609 76.073997
4.5057001 -1.2621 76.143997
4.5928001 -1.2632 76.212997
4.6802001 -1.2644 76.282997
4.7670002 -1.2653 76.339996
4.8533001 -1.2661 76.389999
4.9390998 -1.2668 76.428001
5.0244999 -1.2673 76.459
5.1090999 -1.2676001 76.477997
5.1936002 -1.2679 76.495003
5.2779002 -1.2681 76.507004
5.3618999 -1.2682 76.514999
6.0124002 -1.1109 67.026001
6.0854001 -1.1109 67.025002
6.1584001 -1.1109 67.024002
6.2314 -1.1109 67.023003
6.3042998 -1.1109 67.022003
6.3773999 -1.1109 67.022003
6.4506998 -1.1109 67.024002
6.5239 -1.1109 67.026001
6.5970998 -1.1109 67.026001
6.6700001 -1.1109 67.025002
6.7427001 -1.1108 67.021004
6.8151002 -1.1107 67.014
6.8871999 -1.1106 67.004997
6.9593 -1.1104 66.996002
7.0307999 -1.1102 66.980003
7.1020999 -1.1099 66.963997
7.1732001 -1.1095999 66.946999
7.2442999 -1.1093 66.929001
7.3153 -1.109 66.911003
7.3863001 -1.1087 66.892998
7.4573002 -1.1084 66.875999
7.5278001 -1.1081001 66.855003
7.5981002 -1.1077 66.832001
7.6684999 -1.1073999 66.810997
7.7391 -1.107 66.791
7.8097 -1.1066999 66.771004
7.8808999 -1.1065 66.758003
7.9526 -1.1063 66.749001
8.0246 -1.1062 66.742996
8.0971003 -1.1062 66.740997
8.1703997 -1.1063 66.745003
8.2438002 -1.1064 66.75
8.3176003 -1.1065 66.758003
8.3913002 -1.1066 66.764999
8.4649 -1.1066999 66.771004
8.5377998 -1.1066999 66.772003
8.6105003 -1.1066999 66.772003
8.6827002 -1.1066 66.766998
8.7543001 -1.1065 66.758003
8.8252001 -1.1062 66.742996
8.8954 -1.1059 66.723999
8.9646997 -1.1055 66.697998
9.0333004 -1.105 66.667999
9.1014996 -1.1045001 66.635002
9.1700001 -1.104 66.605003
9.2385998 -1.1035 66.575996
9.3076 -1.103 66.550003
9.3771 -1.1027 66.528999
9.4473 -1.1023999 66.512001
9.5180998 -1.1022 66.5
9.5895004 -1.1021 66.491997
9.6612997 -1.102 66.487
9.7334995 -1.102 66.485001
9.8058996 -1.102 66.485001
9.8788004 -1.102 66.487
9.9518995 -1.1021 66.490997
10.025 -1.1021 66.494003
10.098 -1.1022 66.496002
10.17 -1.1021 66.495003
10.242 -1.1021 66.490997
10.313 -1.102 66.485001
10.385 -1.1019 66.480003
10.457 -1.1018 66.475998
10.529 -1.1016999 66.472
10.6 -1.1016999 66.467003
10.672 -1.1016001 66.459999
10.743 -1.1015 66.455002
10.815 -1.1014 66.449997
10.887 -1.1013 66.444
10.958 -1.1012 66.436996
11.029 -1.1011 66.43
11.1 -1.1009001 66.417999
11.17 -1.1007 66.405998
11.24 -1.1005 66.394997
11.312 -1.1004 66.388
11.383 -1.1003 66.383003
11.456 -1.1003 66.383003
11.528 -1.1003 66.385002
11.601 -1.1003 66.387001
11.673 -1.1003 66.382004
11.743 -1.1001 66.372002
11.81 -1.0996 66.342003
11.875 -1.0989 66.302002
11.939 -1.0980999 66.254997
12.002 -1.0973001 66.204002
12.064 -1.0964 66.148003
12.128 -1.0956 66.100998
12.193 -1.095 66.061996
12.26 -1.0946 66.040001
12.33 -1.0943 66.025002
12.404 -1.0944999 66.037003
12.48 -1.0949 66.059998
12.559 -1.0955 66.092003
12.637 -1.0961 66.127998
12.717 -1.0967 66.168999
12.797 -1.0974 66.208
12.876 -1.0979 66.240997
12.951 -1.0982 66.259003
13.025 -1.0984 66.266998
13.098 -1.0984 66.267998
13.17 -1.0984 66.266998
13.267 -1.1004 66.389999
13.369 -1.1029 66.541
13.484 -1.1064 66.750999
15.975 -1.2967 78.234001
16.141001 -1.3032 78.627998
16.291 -1.3084 78.940002
16.427999 -1.3125 79.183998
16.538 -1.3144 79.299004
16.648001 -1.3162 79.410004
16.754999 -1.3178 79.507004
16.855 -1.3189 79.571999
16.952999 -1.3198 79.625
17.046 -1.3202 79.653
17.121 -1.3193001 79.597
17.238001 -1.2582 75.910004
17.309999 -1.2574 75.860001
17.388 -1.257 75.841003
17.466 -1.2567 75.82
17.542 -1.2562 75.792999
17.618 -1.2558 75.764
17.695999 -1.2555 75.746002
17.778999 -1.2553999 75.744003
17.865 -1.2557 75.762001
17.952 -1.256 75.780998
18.039 -1.2563 75.795998
18.124001 -1.2565 75.806999
18.202 -1.2562 75.787003
18.277 -1.2556 75.757004
18.348 -1.2549 75.709999
18.478001 -1.2525001 75.565002
18.541 -1.2510999 75.484001
18.608999 -1.2502 75.427002
18.683001 -1.2496001 75.392998
18.759001 -1.2492 75.370003
18.841999 -1.2493 75.374001
18.929001 -1.2496001 75.392998
19.027 -1.2506 75.454002
19.146 -1.253 75.598999
19.271999 -1.2559 75.769997
19.410999 -1.2596 75.992996
19.579 -1.265 76.321999
20.013 -1.2876 77.686996
20.223 -1.2956001 78.169998
20.43 -1.3034 78.638
20.608999 -1.3094 78.997002
20.773001 -1.3142999 79.294998
20.91 -1.3174 79.483002
21.032 -1.3196 79.617996
21.143 -1.3212 79.710999
21.246 -1.3221999 79.771004
21.365 -1.3241 79.889
21.511 -1.3278 80.109001
21.621 -1.3292 80.194
-9.0917997 -0.97276002 62.821999
-9.0332003 -0.97382998 62.890999
-8.9818001 -0.97569001 63.012001
-8.9309998 -0.97766 63.138
-8.8782997 -0.97943002 63.252998
-8.8341999 -0.98220003 63.431999
-8.8559999 -0.99238998 64.089996
-8.8039999 -0.99440998 64.220001
-8.7449999 -0.99567002 64.302002
-8.6763 -0.99583 64.311996
-8.6021004 -0.99535 64.280998
-8.5179005 -0.99370998 64.175003
-8.4274998 -0.99131 64.019997
-8.3386002 -0.98904997 63.874001
-8.2521 -0.98703003 63.743999
-8.1668997 -0.98513001 63.620998
-8.0874996 -0.98391002 63.542
-8.0091 -0.98280001 63.471001
-7.9341998 -0.98207998 63.424
-7.8607001 -0.98154998 63.389999
-7.7904 -0.98140001 63.380001
-7.7193999 -0.98114997 63.363998
-7.6494002 -0.98104 63.356998
-7.5801001 -0.98101002 63.355
-7.5113001 -0.98105001 63.358002
-7.4425998 -0.98109001 63.360001
-7.3741999 -0.98118001 63.366001
-7.3056998 -0.98127002 63.372002
-7.2375002 -0.98140001 63.380001
-7.1683002 -0.98137999 63.379002
-7.1020002 -0.98176003 63.403999
-7.0358 -0.98216999 63.43
-6.9696999 -0.98259997 63.458
-6.9036002 -0.98304999 63.487
-6.8383999 -0.98361999 63.522999
-6.7732 -0.98421001 63.562
-6.7090998 -0.98496997 63.611
-6.6461 -0.98592001 63.672001
-6.5839 -0.98701 63.742001
-6.5222001 -0.98817998 63.818001
-6.4612002 -0.98951 63.903999
-6.4004998 -0.99089003 63.993
-6.3404002 -0.99241 64.091003
-6.2797999 -0.99387002 64.185997
-6.2175002 -0.99510998 64.265999
-6.1560001 -0.99649 64.355003
-6.0962 -0.99818999 64.464996
-6.0395999 -1.0005 64.611
-5.9878998 -1.0036 64.814003
-5.9383998 -1.0072 65.044998
-5.9098001 -1.0269001 66.317001
-5.8628001 -1.0312999 66.603996
-5.8242998 -1.0374 66.997002
-5.7827001 -1.0431 67.362999
-5.7420001 -1.0491 67.749001
-5.7019 -1.0553 68.153
-6.0662999 -1.1375999 73.466003
-6.0145998 -1.143 73.815002
-5.9552999 -1.1471 74.079002
-5.8888998 -1.1497999 74.259003
-5.816 -1.1515 74.362999
-5.7316999 -1.1508 74.320999
-5.6472001 -1.1501 74.275002
-5.5630002 -1.1494 74.232002
-5.4793 -1.1489 74.195
-5.3961 -1.1483999 74.163002
-5.3123002 -1.1477 74.123001
-5.2291999 -1.1472 74.088997
-5.1454 -1.1466 74.045998
-5.0616002 -1.1459 74.001999
-4.9762998 -1.1447999 73.932999
-4.8903999 -1.1436 73.852997
-4.8034 -1.142 73.753998
-4.7164001 -1.1404001 73.651001
-4.6290002 -1.1387 73.539001
-4.5434999 -1.1374 73.453003
-4.4601002 -1.1365 73.398003
-4.3808999 -1.1367 73.412003
-4.3023 -1.1371 73.436996
-4.2259998 -1.1381 73.501999
-4.1500001 -1.1393 73.575996
-4.0798998 -1.1421 73.758003
-4.0057998 -1.1439 73.875
-3.9312 -1.1457 73.987999
-3.8556001 -1.1472 74.084999
-3.7786 -1.1483001 74.158997
-3.6988001 -1.1486 74.18
-3.6184001 -1.1488 74.190002
-3.5374999 -1.1488 74.190002
-3.4568999 -1.1489 74.195
-3.3756001 -1.1487 74.186996
-3.2936001 -1.1483001 74.162003
-3.2112 -1.1478 74.126999
-3.1287 -1.1472 74.086998
-3.0460999 -1.1465 74.042
-2.9635 -1.1458 73.996002
-2.8814001 -1.1452 73.959
-2.7994001 -1.1447001 73.924004
-2.7177999 -1.1443 73.897003
-2.6380999 -1.1446 73.920998
-2.5599999 -1.1457 73.994003
-2.4823999 -1.1471 74.084
-2.405 -1.1488 74.190002
-2.3301001 -1.1517 74.382004
-2.2527001 -1.1536 74.503998
-2.1749001 -1.1555001 74.621002
-2.0967 -1.1572 74.734001
-2.0181 -1.1589 74.843002
-1.9382 -1.1599 74.906998
-1.8573 -1.1603 74.936996
-1.7762001 -1.1608 74.964996
-1.6949 -1.1611 74.985001
-1.6134 -1.1612999 74.996002
-1.5316 -1.1612999 74.996002
-1.4498 -1.1612 74.990997
-1.3674999 -1.1608 74.964996
-1.2854 -1.1604 74.943001
-1.2032 -1.16 74.911003
-1.1212 -1.1596 74.890999
-1.0393 -1.1594 74.875
-0.95771003 -1.1594 74.876999
-0.87616003 -1.1595 74.885002
-0.79469001 -1.1598001 74.902
-0.71320999 -1.1601 74.921997
-0.63177001 -1.1605999 74.952003
-0.55017 -1.1608 74.968002
-0.46854001 -1.1611 74.986
-0.38677999 -1.1611 74.986
-0.30498999 -1.161 74.980003
-0.22318999 -1.1608 74.963997
-0.14142001 -1.1605 74.947998
-0.059689 -1.1602 74.928001
0.022004001 -1.1599 74.911003
0.10367 -1.1597 74.898003
0.18532 -1.1597 74.893997
0.26699999 -1.1597 74.898003
0.34874001 -1.16 74.915001
0.43057001 -1.1604 74.941002
0.51253003 -1.161 74.976997
0.59459001 -1.1616 75.015999
0.67677999 -1.1622 75.059998
0.75906003 -1.1629 75.102997
0.84140998 -1.1636 75.144997
0.92376 -1.1641001 75.178001
1.0061001 -1.1645 75.207001
1.0884 -1.1648 75.226997
1.1707 -1.1651 75.241997
1.2529 -1.1652 75.250999
1.335 -1.1653 75.257004
1.4172 -1.1654 75.265999
1.4996001 -1.1657 75.279999
1.5822001 -1.166 75.304001
1.665 -1.1665 75.334999
1.7479 -1.1670001 75.366997
1.8309 -1.1675 75.401001
1.9139 -1.168 75.432999
1.9967999 -1.1684 75.458
2.0797 -1.1688 75.481003
2.1624 -1.169 75.497002
2.2451 -1.1691999 75.508003
2.3275001 -1.1691999 75.510002
2.4098001 -1.1691999 75.509003
2.4921 -1.1691999 75.510002
2.5747001 -1.1693 75.514999
2.6573 -1.1694 75.523003
2.7402 -1.1697 75.538002
2.8232 -1.1698999 75.556
2.9064 -1.1703 75.578003
2.9897001 -1.1706001 75.598999
3.0731001 -1.171 75.623001
3.1564 -1.1713001 75.644997
3.2397001 -1.1716 75.664001
3.3229001 -1.1718 75.679001
3.4061999 -1.1720999 75.696999
3.4893999 -1.1723 75.711998
3.5725 -1.1725 75.723
3.6556001 -1.1727 75.735001
3.7388999 -1.1729 75.748001
3.8222001 -1.1731 75.763
3.9058001 -1.1734 75.780998
3.9899001 -1.1739 75.809998
4.0746002 -1.1744 75.847
4.1596999 -1.1751 75.891998
4.2452998 -1.1759 75.942001
4.3315001 -1.1768 76.001999
4.4179001 -1.1778001 76.063004
4.5050001 -1.1789 76.134003
4.5921001 -1.1799001 76.200996
4.6795001 -1.181 76.272003
4.7663002 -1.1819 76.330002
4.8527999 -1.1827 76.380997
4.9386001 -1.1833 76.420998
5.0240998 -1.1838 76.454002
5.1089001 -1.1842 76.473999
5.1935 -1.1844 76.492996
5.2779002 -1.1847 76.505997
5.3618999 -1.1848 76.515999
6.0127001 -1.0379 67.028999
6.0857 -1.0379 67.028
6.1587 -1.0379 67.027
6.2316999 -1.0379 67.027
6.3046999 -1.0378 67.026001
6.3779001 -1.0379 67.027
6.4510999 -1.0379 67.028999
6.5244002 -1.0379 67.029999
6.5974002 -1.0379 67.029999
6.6701999 -1.0379 67.026001
6.7426 -1.0378 67.019997
6.8147001 -1.0376 67.010002
6.8866 -1.0374 66.999001
6.9583001 -1.0372 66.986
7.0296001 -1.0369999 66.970001
7.1006999 -1.0367 66.952003
7.1718998 -1.0364 66.933998
7.2431002 -1.0362 66.917999
7.3144002 -1.0359 66.903
7.3857999 -1.0357 66.889
7.4572001 -1.0355 66.875
7.5282001 -1.0353 66.858002
7.5988998 -1.035 66.838997
7.6697001 -1.0347 66.82
7.7405 -1.0344 66.803001
7.8113999 -1.0341001 66.786003
7.8825002 -1.0339 66.771004
7.9538002 -1.0337 66.759003
8.0255003 -1.0336 66.75
8.0977001 -1.0335 66.745003
8.1705999 -1.0335 66.746002
8.2437 -1.0336 66.749001
8.3171997 -1.0336 66.753998
8.3906002 -1.0337 66.760002
8.4640999 -1.0338 66.764999
8.5372 -1.0338 66.766998
8.6100998 -1.0339 66.767998
8.6824999 -1.0338 66.764999
8.7543001 -1.0337 66.758003
8.8253002 -1.0335 66.744003
8.8956003 -1.0332 66.725998
8.9649 -1.0328 66.699997
9.0337 -1.0324 66.670998
9.1020002 -1.0319 66.638
9.1702003 -1.0314 66.606003
9.2386999 -1.0309 66.575996
9.3074999 -1.0305001 66.549004
9.3768997 -1.0301 66.527
9.4469995 -1.0299 66.510002
9.5178003 -1.0297 66.498001
9.5892 -1.0296 66.489998
9.6611004 -1.0295 66.486
9.7334003 -1.0295 66.485001
9.8060999 -1.0295 66.486
9.8792 -1.0296 66.489998
9.9527998 -1.0297 66.497002
10.026 -1.0298001 66.502998
10.099 -1.0298001 66.505997
10.171 -1.0298001 66.502998
10.243 -1.0296 66.495003
10.313 -1.0295 66.485001
10.384 -1.0293 66.474998
10.456 -1.0292 66.468002
10.527 -1.0290999 66.460999
10.598 -1.029 66.453003
10.669 -1.0289 66.445
10.741 -1.0288 66.440002
10.813 -1.0288 66.438004
10.885 -1.0287 66.435997
10.957 -1.0287 66.432999
11.029 -1.0286 66.427002
11.099 -1.0283999 66.416
11.169 -1.0282 66.402
11.239 -1.028 66.389
11.31 -1.0279 66.379997
11.382 -1.0278 66.374001
11.453 -1.0276999 66.370003
11.526 -1.0276999 66.370003
11.598 -1.0276999 66.370003
11.669 -1.0276 66.363998
11.74 -1.0274 66.352997
11.807 -1.0269001 66.321999
11.872 -1.0264 66.283997
11.937 -1.0257 66.239998
12.001 -1.025 66.195
12.064 -1.0242 66.146004
12.128 -1.0236 66.103996
12.194 -1.023 66.07
12.263 -1.0228 66.051003
12.333 -1.0226001 66.040001
12.407 -1.0228 66.054001
12.484 -1.0232 66.080002
12.563 -1.0238 66.114998
12.642 -1.0243 66.153999
12.723 -1.025 66.196999
12.803 -1.0257 66.239998
12.882 -1.0262001 66.274002
12.958 -1.0265 66.291
13.031 -1.0266 66.296997
13.103 -1.0265 66.295998
13.175 -1.0265 66.295998
13.272 -1.0283999 66.415001
13.375 -1.0308 66.569
13.49 -1.0341001 66.780998
15.984 -1.2122 78.282997
16.150999 -1.2183 78.677002
16.302 -1.2230999 78.991997
16.438 -1.2269 79.232002
16.545 -1.2285 79.334999
16.66 -1.2305 79.470001
16.766001 -1.232 79.560997
16.870001 -1.2332 79.643997
16.973 -1.2344 79.717003
17.062 -1.2345001 79.727997
17.216999 -1.174 75.817001
17.295 -1.1737 75.797997
17.374001 -1.1734 75.779999
17.452 -1.1731 75.760002
17.528 -1.1727 75.733002
17.604 -1.1722 75.703003
17.683001 -1.1720001 75.689003
17.766001 -1.1720001 75.689003
17.851999 -1.1723 75.707001
17.938999 -1.1726 75.725998
18.025999 -1.1727999 75.742996
18.113001 -1.1731 75.759003
18.194 -1.173 75.753998
18.273001 -1.1727999 75.739998
18.349001 -1.1723 75.711998
18.421 -1.1717 75.669998
18.416 -1.2538 75.647003
18.49 -1.1708 75.612999
18.555 -1.1697 75.543999
18.622 -1.1688 75.481003
18.694 -1.1681 75.440002
18.768999 -1.1677001 75.408997
18.848 -1.1675 75.397003
18.931 -1.1675 75.401001
19.025 -1.1683 75.447998
19.139999 -1.1703 75.575996
19.267 -1.173 75.751999
19.41 -1.1766 75.987999
19.591 -1.1825 76.370003
20.069 -1.2063 77.903
20.294001 -1.2146 78.443001
20.496 -1.2216001 78.890999
20.669001 -1.2268 79.227997
21.059 -1.2345001 79.723
21.160999 -1.2352999 79.778
21.26 -1.2359999 79.823997
21.362 -1.2369 79.879997
21.500999 -1.2399 80.071999
21.608999 -1.2410001 80.148003
-9.1118002 -0.90625 62.959999
-9.0516005 -0.90710002 63.019001
-8.9975004 -0.90856999 63.120998
-8.9449997 -0.91023999 63.237
-8.8915997 -0.91181999 63.348
-8.9127998 -0.92115998 63.995998
-8.8617001 -0.92309999 64.130997
-8.8045998 -0.92444998 64.224998
-8.7419004 -0.92523003 64.278999
-8.6681004 -0.92483002 64.250999
-8.5914001 -0.92412001 64.202003
-8.5063 -0.92247999 64.087997
-8.4183998 -0.92049998 63.950001
-8.3317003 -0.91864002 63.820999
-8.2459002 -0.91684002 63.695999
-8.1644001 -0.91548002 63.602001
-8.0864 -0.9145 63.534
-8.0095997 -0.91364002 63.473999
-7.9365001 -0.91320002 63.443001
-7.8649998 -0.91292 63.424
-7.7965999 -0.91301 63.43
-7.7276001 -0.91303003 63.431999
-7.658 -0.91298997 63.428001
-7.5890999 -0.91301 63.43
-7.5204 -0.91307002 63.433998
-7.4516001 -0.91311002 63.437
-7.3829999 -0.91319001 63.442001
-7.3129001 -0.91307002 63.433998
-7.2428002 -0.91295999 63.425999
-7.1718998 -0.91272998 63.410999
-7.1041999 -0.91290998 63.423
-7.0381999 -0.91332 63.451
-6.9721999 -0.91373998 63.480999
-6.9064002 -0.91418999 63.512001
-6.8414001 -0.91475999 63.551998
-6.7768002 -0.91540003 63.596001
-6.7126002 -0.91610003 63.645
-6.6490998 -0.91690999 63.701
-6.5872002 -0.91797 63.775002
-6.5254998 -0.91907001 63.851002
-6.4639001 -0.92022002 63.931
-6.4022999 -0.92137998 64.011002
-6.3413 -0.92264998 64.099998
-6.2800999 -0.92394 64.189003
-6.2192001 -0.92528999 64.282997
-6.1592999 -0.92681998 64.389
-6.1018 -0.92875999 64.524002
-6.0482001 -0.93133998 64.703003
-5.9984002 -0.93457001 64.928001
-5.9524002 -0.93847001 65.198997
-5.9744 -0.95332998 66.231003
-5.9267001 -0.95727998 66.505997
-5.8797002 -0.96145999 66.795998
-5.8400002 -0.96693999 67.177002
-5.7975998 -0.97211999 67.537003
-5.7558999 -0.97754002 67.913002
-5.7153001 -0.98330998 68.314003
-6.0732999 -1.0587 73.550003
-6.02 -1.0634 73.880997
-5.9594998 -1.067 74.130997
-5.8906999 -1.0692 74.280998
-5.8158998 -1.0703 74.361
-5.7315001 -1.0697 74.319
-5.6471 -1.0691 74.273003
-5.5630002 -1.0685 74.232002
-5.4793 -1.068 74.195
-5.3961 -1.0675 74.163002
-5.3122001 -1.0669 74.121002
-5.2290001 -1.0664001 74.087997
-5.1454 -1.0658 74.046997
-5.0619998 -1.0653 74.007004
-4.9770999 -1.0644 73.945
-4.8915 -1.0633 73.871002
-4.8056998 -1.0621001 73.789001
-4.7189002 -1.0607001 73.691002
-4.632 -1.0592 73.585999
-4.5454998 -1.0578001 73.486
-4.4614 -1.0568 73.418999
-4.3813 -1.0568 73.417999
-4.3017001 -1.0569 73.426003
-4.2241998 -1.0575 73.471001
-4.1469002 -1.0583 73.521004
-4.0759001 -1.0606 73.685997
-4.0018001 -1.0623 73.802002
-3.9275 -1.064 73.917
-3.8524001 -1.0655 74.024002
-3.776 -1.0667 74.107002
-3.6967001 -1.0671 74.137001
-3.6168001 -1.0674 74.156998
-3.5364001 -1.0675 74.166
-3.4561 -1.0677 74.18
-3.3752999 -1.0678 74.181
-3.2934999 -1.0675 74.160004
-3.2114 -1.067 74.130997
-3.1289999 -1.0664999 74.095001
-3.0465 -1.0659 74.054001
-2.9640999 -1.0653 74.012001
-2.882 -1.0648 73.974998
-2.8001001 -1.0642999 73.943001
-2.7184999 -1.064 73.917
-2.6387999 -1.0642999 73.940002
-2.5604999 -1.0653 74.010002
-2.4827001 -1.0664999 74.094002
-2.4051001 -1.0678999 74.194
-2.3299 -1.0706 74.375999
-2.2525001 -1.0723 74.499001
-2.1745999 -1.074 74.612
-2.0964 -1.0756 74.723
-2.0178001 -1.0771 74.831001
-1.9378999 -1.0779999 74.893997
-1.8569 -1.0785 74.924004
-1.7759 -1.0788 74.949997
-1.6945 -1.0791 74.966003
-1.6129 -1.0792 74.974998
-1.5311 -1.0791 74.972
-1.4492 -1.079 74.963997
-1.367 -1.0786 74.935997
-1.2849 -1.0783 74.914001
-1.2028 -1.0779001 74.884003
-1.1209 -1.0777 74.867996
-1.0391001 -1.0775 74.857002
-0.95753002 -1.0776 74.862999
-0.87603998 -1.0777 74.875
-0.79461998 -1.0779999 74.894997
-0.71311998 -1.0783 74.913002
-0.63165998 -1.0786999 74.938004
-0.55001998 -1.0788 74.947998
-0.46836001 -1.0789 74.958
-0.38657999 -1.0788 74.947998
-0.3048 -1.0786 74.931999
-0.22303 -1.0783 74.911003
-0.14132001 -1.0779999 74.892998
-0.059648 -1.0778 74.876999
0.021991 -1.0776 74.866997
0.10361 -1.0775 74.861
0.18525 -1.0776 74.864998
0.26692 -1.0778 74.875999
0.34867001 -1.0781 74.900002
0.43051001 -1.0786 74.931
0.51248002 -1.0791 74.969002
0.59454 -1.0797 75.010002
0.67672998 -1.0803 75.054001
0.75902998 -1.081 75.100998
0.84140003 -1.0816 75.143997
0.92378002 -1.0821 75.18
1.0061001 -1.0826 75.209
1.0885 -1.0829 75.231003
1.1707 -1.0831 75.246002
1.2529 -1.0832 75.254997
1.3351001 -1.0833 75.261002
1.4173 -1.0835 75.271004
1.4997 -1.0836999 75.287003
1.5822999 -1.084 75.313004
1.6651 -1.0845 75.344002
1.7481 -1.085 75.377998
1.8311 -1.0855 75.413002
1.9141999 -1.086 75.445
1.9971 -1.0863 75.470001
2.0799999 -1.0865999 75.491997
2.1626999 -1.0868 75.505997
2.2453001 -1.087 75.514999
2.3276 -1.087 75.514
2.4099 -1.0869 75.511002
2.4921999 -1.0869 75.511002
2.5747001 -1.087 75.515999
2.6573 -1.0871 75.523003
2.7402 -1.0872999 75.539001
2.8232999 -1.0876 75.557999
2.9065001 -1.0879 75.580002
2.9898 -1.0882 75.601997
3.0732 -1.0885 75.625
3.1566 -1.0889 75.648003
3.2398 -1.0891 75.666
3.323 -1.0894001 75.681999
3.4064 -1.0896 75.699997
3.4895999 -1.0898 75.714996
3.5727 -1.09 75.726997
3.6558001 -1.0901999 75.737999
3.7391 -1.0904 75.751999
3.8224001 -1.0906 75.766998
3.9059999 -1.0908999 75.785004
3.9900999 -1.0913 75.814003
4.0748 -1.0918 75.850998
4.1598001 -1.0924 75.893997
4.2452998 -1.0931 75.942001
4.3315001 -1.094 76.000999
4.4177999 -1.0948 76.060997
4.5047998 -1.0958 76.129997
4.5917001 -1.0967 76.195
4.6792002 -1.0978 76.265999
4.7659998 -1.0986 76.323997
4.8525 -1.0994 76.376999
4.9384999 -1.1 76.417999
5.0240998 -1.1005 76.453003
5.1089001 -1.1008 76.473999
5.1936002 -1.1011 76.494003
5.2779999 -1.1013 76.509003
5.3621998 -1.1014 76.519997
6.013 -0.96486998 67.032997
6.086 -0.96485001 67.031998
6.1589999 -0.96483999 67.030998
6.2319999 -0.96482998 67.029999
6.3049998 -0.96482003 67.028999
6.3782001 -0.96483999 67.030998
6.4513998 -0.96486002 67.031998
6.5246 -0.96486998 67.032997
6.5974998 -0.96483999 67.030998
6.6701002 -0.96476001 67.025002
6.7423 -0.96464002 67.016998
6.8141999 -0.96447003 67.004997
6.8857999 -0.96427 66.990997
6.9573002 -0.96404999 66.975998
7.0283999 -0.96379 66.958
7.0995002 -0.96353 66.940002
7.1705999 -0.96328002 66.921997
7.2419 -0.96305001 66.906998
7.3133998 -0.96285999 66.892998
7.3849001 -0.96267998 66.880997
7.4566002 -0.96252 66.869003
7.5276999 -0.9623 66.853996
7.5987 -0.96205002 66.836998
7.6697001 -0.96180999 66.820999
7.7406001 -0.96157998 66.804001
7.8116999 -0.96135002 66.788002
7.8828001 -0.96113998 66.774002
7.9541001 -0.96096998 66.762001
8.0256996 -0.96082002 66.751999
8.0977001 -0.96073002 66.745003
8.1704998 -0.96073002 66.745003
8.2433996 -0.96074998 66.747002
8.3168001 -0.96082002 66.750999
8.3901997 -0.96089 66.757004
8.4635 -0.96095002 66.760002
8.5365 -0.96098 66.762001
8.6093998 -0.96099001 66.763
8.6820002 -0.96096998 66.762001
8.7539997 -0.96087003 66.754997
8.8250999 -0.96069002 66.741997
8.8954 -0.96042001 66.723999
8.9646997 -0.96006 66.697998
9.0333004 -0.95962 66.667999
9.1016998 -0.95916998 66.637001
9.1700001 -0.95871001 66.605003
9.2384005 -0.95827001 66.573997
9.3072004 -0.95788002 66.546997
9.3767004 -0.95757002 66.526001
9.4468002 -0.95732999 66.509003
9.5177002 -0.95716 66.497002
9.5893002 -0.95706999 66.490997
9.6612997 -0.95701998 66.487999
9.7336998 -0.95700997 66.487
9.8065996 -0.95705003 66.489998
9.8801003 -0.95714003 66.496002
9.9539003 -0.95727003 66.504997
10.028 -0.95738 66.513
10.101 -0.95744002 66.516998
10.172 -0.95734 66.510002
10.243 -0.95718002 66.498001
10.313 -0.95695001 66.483002
10.383 -0.95674002 66.468002
10.454 -0.95660001 66.458
10.525 -0.95648003 66.449997
10.597 -0.95638001 66.443001
10.668 -0.95626998 66.434998
10.74 -0.95621002 66.431
10.812 -0.95624 66.432999
10.885 -0.95622998 66.432999
10.957 -0.9562 66.431
11.028 -0.95612001 66.425003
11.098 -0.95591998 66.411003
11.168 -0.95564997 66.391998
11.237 -0.95539999 66.375
11.307 -0.95521998 66.362999
11.378 -0.95507997 66.352997
11.449 -0.95499998 66.347
11.522 -0.95499998 66.347
11.594 -0.95498002 66.346001
11.666 -0.95491999 66.342003
11.736 -0.95477003 66.331001
11.804 -0.95438999 66.305
11.87 -0.95389998 66.271004
11.935 -0.95333999 66.232002
12 -0.95278001 66.193001
12.064 -0.95214999 66.149002
12.13 -0.95163 66.112999
12.197 -0.95121002 66.084
12.265 -0.95094001 66.065002
12.336 -0.95086002 66.058998
12.411 -0.95109999 66.075996
12.489 -0.95151001 66.105003
12.568 -0.95205998 66.142998
12.648 -0.95266998 66.185997
12.729 -0.95332998 66.231003
12.81 -0.95394999 66.274002
12.888 -0.95441002 66.306
12.963 -0.95460999 66.32
13.036 -0.95463997 66.321999
13.108 -0.95460999 66.32
13.18 -0.95458001 66.318001
13.276 -0.95630002 66.436996
13.379 -0.95850003 66.589996
15.997 -1.1277 78.342003
16.16 -1.1331 78.721001
16.309999 -1.1375999 79.033997
16.443001 -1.1409 79.259003
16.547001 -1.1421 79.345001
16.660999 -1.1440001 79.475998
16.771 -1.1456 79.585999
16.879 -1.147 79.682999
16.976999 -1.1477 79.735001
17.073 -1.1755 75.914001
17.042999 -1.0907 75.778
17.143999 -1.1747 75.862
17.122999 -1.0906 75.764999
17.202 -1.0903 75.749001
17.280001 -1.0901 75.731003
17.358 -1.0898 75.711998
17.436001 -1.0895 75.692001
17.511999 -1.0891 75.661003
17.587999 -1.0887001 75.636002
17.667999 -1.0885 75.623001
17.75 -1.0885 75.623001
17.836 -1.0887001 75.637001
17.924 -1.0891 75.661003
18.011 -1.0893 75.678001
18.098 -1.0896 75.697998
18.183001 -1.0898 75.709
18.266001 -1.0898 75.711998
18.346001 -1.0896 75.700996
18.423 -1.0893 75.679001
18.497999 -1.0888 75.644997
18.569 -1.0882 75.599998
18.638 -1.0874 75.544998
18.711 -1.0869 75.508003
18.785999 -1.0864 75.477997
18.867001 -1.0864 75.474998
18.952 -1.0865 75.485001
19.049 -1.0872999 75.541
19.167999 -1.0894001 75.685997
19.297001 -1.092 75.867996
19.441999 -1.0956 76.113998
19.892 -1.1162 77.544998
20.113001 -1.1238 78.074997
21.063 -1.1477 79.736
21.164 -1.1485 79.787003
21.26 -1.149 79.822998
21.361 -1.1497 79.874001
21.483 -1.1516 80.003998
21.583 -1.1523 80.052002
21.683001 -1.153 80.100998
-9.1327 -0.83952999 63.105
-9.0714998 -0.84022999 63.158001
-9.0176001 -0.84162998 63.263
-8.9633999 -0.84302002 63.367001
-8.9778004 -0.85092998 63.962002
-8.9239998 -0.85245001 64.077003
-8.8670998 -0.85369003 64.169998
-8.8051004 -0.85447001 64.228996
-8.7371998 -0.85468 64.244003
-8.6601 -0.85399002 64.192001
-8.5815001 -0.85312998 64.127998
-8.4941998 -0.85139 63.997002
-8.4088001 -0.84979999 63.877998
-8.3242998 -0.84829003 63.764
-8.2420998 -0.84698999 63.666
-8.1622 -0.84591001 63.584999
-8.085 -0.84508002 63.521999
-8.0108995 -0.84457999 63.485001
-7.9401999 -0.84442002 63.473
-7.8709998 -0.84442002 63.473
-7.8048 -0.84473997 63.497002
-7.7379999 -0.84500003 63.516998
-7.6693001 -0.84507 63.521999
-7.6009998 -0.84517998 63.529999
-7.5327001 -0.84527999 63.537998
-7.4636998 -0.84531999 63.540001
-7.3937001 -0.84522998 63.534
-7.3213 -0.84486997 63.507
-7.2491999 -0.84454 63.481998
-7.1764998 -0.84412998 63.451
-7.1073999 -0.84413999 63.452
-7.0415001 -0.84452999 63.480999
-6.9756999 -0.84495002 63.513
-6.9101 -0.84539002 63.546001
-6.8455 -0.84596997 63.59
-6.7811999 -0.84661001 63.637001
-6.7174001 -0.84731001 63.689999
-6.6542001 -0.84811002 63.75
-6.5917001 -0.84900999 63.818001
-6.5290999 -0.84991997 63.887001
-6.4668999 -0.85089999 63.959999
-6.4047999 -0.85191 64.036003
-6.3424001 -0.85292 64.112
-6.2814002 -0.85413003 64.202003
-6.2214999 -0.85551 64.306
-6.1636 -0.85720998 64.433998
-6.1086998 -0.85936999 64.597
-6.0577002 -0.86214 64.805
-6.0092001 -0.86532998 65.044998
-5.9884 -0.88318002 66.386002
-5.9412999 -0.88695002 66.669998
-5.8944998 -0.89086998 66.963997
-5.8530002 -0.89569002 67.327003
-5.8091998 -0.90026999 67.670998
-5.7666998 -0.90518999 68.041
-6.1271 -0.97429001 73.235001
-6.0802999 -0.97962999 73.636002
-6.0254998 -0.98378998 73.948997
-5.9640002 -0.98694998 74.185997
-5.8923998 -0.98851001 74.304001
-5.8157001 -0.98923999 74.359001
-5.7314 -0.98869002 74.317001
-5.6469998 -0.98808998 74.272003
-5.5630002 -0.98755002 74.232002
-5.4793 -0.98707002 74.195999
-5.3959999 -0.98663002 74.163002
-5.3122001 -0.98607999 74.121002
-5.2290001 -0.98562998 74.086998
-5.1457 -0.98514003 74.051003
-5.0625 -0.98466998 74.014999
-4.9780002 -0.98391002 73.958
-4.8936 -0.98315001 73.901001
-4.8084998 -0.98224998 73.833
-4.7224002 -0.98108 73.745003
-4.6357002 -0.97974998 73.644997
-4.5497999 -0.97854 73.555
-4.4640002 -0.97731 73.461998
-4.3828001 -0.97707999 73.444
-4.3023 -0.97697997 73.436996
-4.2235999 -0.97728997 73.460999
-4.1451001 -0.97766 73.488998
-4.0731001 -0.97962999 73.637001
-3.9986999 -0.98106998 73.745003
-3.9244001 -0.98260999 73.860001
-3.8494999 -0.98404998 73.968002
-3.7736001 -0.98527998 74.060997
-3.6947999 -0.98580003 74.099998
-3.6154001 -0.98618001 74.128998
-3.5353999 -0.98641998 74.147003
-3.4556999 -0.98673999 74.170998
-3.375 -0.98677999 74.174004
-3.2934 -0.98655999 74.156998
-3.2114999 -0.98624003 74.133003
-3.1293001 -0.98583001 74.101997
-3.0469999 -0.98532999 74.064003
-2.9647 -0.98483002 74.027
-2.8827 -0.98436999 73.992996
-2.8008001 -0.98395997 73.961998
-2.7191999 -0.98360002 73.934998
-2.6391001 -0.98378998 73.948997
-2.5606999 -0.98465002 74.014
-2.4826 -0.98569 74.092003
-2.4049001 -0.98694998 74.186996
-2.3273001 -0.98837 74.292999
-2.2520001 -0.99087 74.481003
-2.174 -0.99234998 74.592003
-2.0959001 -0.99383998 74.705002
-2.0172999 -0.99524999 74.809998
-1.9375 -0.99619001 74.880997
-1.8565 -0.99655002 74.907997
-1.7754 -0.99686003 74.931999
-1.694 -0.99703997 74.945
-1.6124001 -0.99711001 74.949997
-1.5306 -0.99704999 74.945
-1.4487 -0.99691999 74.935997
-1.3665 -0.99654001 74.906998
-1.2845 -0.99627 74.887001
-1.2024 -0.99592 74.861
-1.1206 -0.99576002 74.848999
-1.0389 -0.99568999 74.844002
-0.95740998 -0.99581999 74.853996
-0.87595999 -0.99601001 74.867996
-0.79455 -0.99629003 74.889
-0.71303999 -0.99650002 74.903999
-0.63154 -0.99677002 74.925003
-0.54988003 -0.99681997 74.928001
-0.46819001 -0.99682999 74.929001
-0.38639 -0.99658 74.911003
-0.30462 -0.99629998 74.889
-0.22289 -0.99594003 74.862
-0.14123 -0.99572003 74.846001
-0.059613001 -0.99555999 74.834
0.021980001 -0.99549001 74.829002
0.10357 -0.99552 74.831001
0.18519001 -0.99567997 74.843002
0.26686999 -0.99594003 74.862
0.34862 -0.99631 74.889999
0.43048 -0.99677002 74.925003
0.51244998 -0.99730003 74.964996
0.59451997 -0.99787003 75.008003
0.67672002 -0.99848002 75.053001
0.75902998 -0.99910003 75.099998
0.84140998 -0.99969 75.143997
0.92381001 -1.0002 75.181999
1.0062 -1.0006 75.212997
1.0885 -1.0009 75.236
1.1708 -1.0010999 75.251999
1.253 -1.0013 75.262001
1.3352 -1.0013 75.267998
1.4175 -1.0015 75.278999
1.4999 -1.0017 75.294998
1.5825 -1.0021 75.321999
1.6654 -1.0025001 75.353996
1.7484 -1.003 75.390999
1.8314 -1.0034 75.426003
1.9145 -1.0039001 75.459
1.9974 -1.0042 75.482002
2.0803001 -1.0045 75.503998
2.1630001 -1.0046 75.515999
2.2456 -1.0046999 75.523003
2.3278 -1.0046999 75.521004
2.4100001 -1.0046999 75.516998
2.4923999 -1.0046 75.515999
2.5748999 -1.0046999 75.521004
2.6575 -1.0048 75.528
2.7404001 -1.005 75.543999
2.8234999 -1.0053 75.563004
2.9066999 -1.0056 75.585999
2.99 -1.0059 75.608002
3.0734 -1.0062 75.630997
3.1568 -1.0065 75.652
3.24 -1.0067 75.670998
3.3232 -1.0069 75.686996
3.4065001 -1.0071 75.704002
3.4898 -1.0073 75.719002
3.5729001 -1.0075001 75.732002
3.6561 -1.0077 75.744003
3.7393 -1.0078 75.757004
3.8227 -1.0081 75.773003
3.9063001 -1.0082999 75.792
3.9905 -1.0087 75.821999
4.0750999 -1.0092 75.857002
4.1602001 -1.0096999 75.900002
4.2456002 -1.0104001 75.946999
4.3316002 -1.0111001 76.003998
4.4179001 -1.0118999 76.063004
4.5049 -1.0128 76.130997
4.5917001 -1.0137 76.195
4.6791 -1.0146 76.264999
4.7659001 -1.0154001 76.322998
4.8523998 -1.0161 76.375
4.9383998 -1.0166 76.417999
5.0242 -1.0171 76.454002
5.1090002 -1.0174 76.475998
5.1939001 -1.0177 76.498001
5.2782998 -1.0179 76.513
5.3625998 -1.0181 76.525002
6.0132999 -0.89182001 67.036003
6.0862002 -0.89179999 67.033997
6.1592002 -0.89178002 67.032997
6.2322001 -0.89177001 67.031998
6.3052001 -0.89175999 67.031998
6.3783998 -0.89177001 67.031998
6.4514999 -0.89178002 67.032997
6.5246 -0.89177001 67.031998
6.5974002 -0.89173001 67.028999
6.6697998 -0.89164001 67.022003
6.7419 -0.89151001 67.013
6.8136001 -0.89134002 66.999001
6.8850999 -0.89112997 66.984001
6.9563999 -0.89091998 66.968002
7.0275002 -0.89067 66.949997
7.0985999 -0.89042997 66.931
7.1697001 -0.89020002 66.914001
7.2410002 -0.88998997 66.898003
7.3123999 -0.88981003 66.885002
7.3839998 -0.88964999 66.873001
7.4556999 -0.88950002 66.861
7.527 -0.88931 66.847
7.598 -0.88910002 66.831001
7.6690998 -0.88889003 66.815002
7.7400999 -0.88867003 66.799004
7.8112001 -0.88848001 66.785004
7.8825002 -0.8883 66.771004
7.9538002 -0.88814002 66.759003
8.0255003 -0.88801998 66.75
8.0976 -0.88793999 66.744003
8.1702995 -0.88792998 66.744003
8.2431002 -0.88793999 66.744003
8.3163004 -0.88797998 66.747002
8.3896999 -0.88804001 66.751999
8.4628 -0.88808 66.754997
8.5356998 -0.88810003 66.755997
8.6086998 -0.88812 66.758003
8.6814003 -0.88810003 66.755997
8.7532997 -0.88801998 66.75
8.8243999 -0.88784999 66.737
8.8947001 -0.8876 66.719002
8.9639997 -0.88726002 66.693001
9.0327997 -0.88687003 66.664001
9.1012001 -0.88646001 66.633003
9.1696997 -0.88606 66.602997
9.2382002 -0.88565999 66.572998
9.3072004 -0.88532001 66.546997
9.3767004 -0.88502997 66.526001
9.4469995 -0.88481998 66.510002
9.5179996 -0.88467997 66.499001
9.5896997 -0.88459998 66.492996
9.6618996 -0.88458002 66.490997
9.7343998 -0.88458002 66.491997
9.8074999 -0.88463002 66.496002
9.8810997 -0.88472998 66.502998
9.9552002 -0.88486999 66.513
10.029 -0.88498998 66.523003
10.102 -0.88503999 66.526001
10.173 -0.88493001 66.517998
10.244 -0.88472003 66.501999
10.313 -0.88445997 66.483002
10.382 -0.88419998 66.462997
10.453 -0.88406003 66.452003
10.525 -0.88397002 66.445999
10.596 -0.88389999 66.441002
10.668 -0.88384002 66.435997
10.74 -0.88379002 66.432999
10.813 -0.88383001 66.434998
10.885 -0.88383001 66.434998
10.957 -0.88380998 66.432999
11.028 -0.88370001 66.426003
11.097 -0.88341999 66.404999
11.165 -0.88306999 66.377998
11.233 -0.88273001 66.352997
11.303 -0.88248998 66.334999
11.373 -0.88233 66.322998
11.444 -0.88226998 66.318001
11.517 -0.88227999 66.319
11.589 -0.88227999 66.318001
11.661 -0.88222998 66.315002
11.732 -0.88212001 66.306999
11.8 -0.88182998 66.285004
11.867 -0.88143998 66.254997
11.933 -0.88098001 66.221001
11.999 -0.88050997 66.185997
12.064 -0.88001001 66.148003
12.131 -0.87958997 66.115997
12.198 -0.87927997 66.093002
12.268 -0.87913001 66.082001
12.34 -0.87911999 66.081001
12.416 -0.87937999 66.100998
12.494 -0.87980998 66.133003
12.574 -0.88033998 66.172997
12.655 -0.88094002 66.218002
12.736 -0.88156003 66.264999
12.816 -0.88208002 66.304001
12.893 -0.88242 66.329002
12.967 -0.88252997 66.336998
13.039 -0.88248998 66.334999
13.11 -0.88242 66.329002
13.181 -0.88231999 66.321999
13.275 -0.88380998 66.433998
13.378 -0.88581997 66.584999
13.494 -0.88870001 66.801003
16.002001 -1.0426 78.369003
16.163 -1.0475 78.736
16.311001 -1.0515 79.039001
16.441 -1.0543 79.250999
16.545 -1.0554 79.331001
16.656 -1.057 79.449997
16.77 -1.0587 79.579002
16.872 -1.0597 79.652
16.962 -1.0599 79.667999
16.971001 -1.0914 75.823997
16.950001 -1.0075001 75.732002
17.028999 -1.0073 75.718002
17.108999 -1.0071 75.703003
17.187 -1.0069 75.684998
17.264999 -1.0066 75.664001
17.341999 -1.0063 75.640999
17.419001 -1.006 75.617996
17.496 -1.0057 75.593002
17.573 -1.0053 75.569
17.652 -1.0052 75.555
17.733 -1.0051 75.552002
17.818001 -1.0052 75.560997
17.906 -1.0055 75.583
17.993 -1.0058 75.605003
18.082001 -1.0062 75.632004
18.17 -1.0065 75.654999
18.257 -1.0067 75.672997
18.341 -1.0068001 75.681
18.424 -1.0068001 75.68
18.504 -1.0067 75.669998
18.580999 -1.0064 75.650002
18.656 -1.006 75.616997
18.733 -1.0057 75.596001
18.811001 -1.0055 75.579002
18.893999 -1.0055 75.582001
18.982 -1.0058 75.603996
19.082001 -1.0067 75.674004
19.207001 -1.0089999 75.839996
19.336 -1.0114 76.024002
21.045 -1.0599 79.668999
21.146999 -1.0606 79.725998
21.242001 -1.061 79.754997
21.341 -1.0616 79.801003
21.454 -1.0628999 79.897003
21.549999 -1.0634 79.931
-9.1647997 -0.77342999 63.327
-9.1028004 -0.77403003 63.375999
-9.0471001 -0.77517003 63.470001
-8.9905005 -0.77626002 63.557999
