# .PCD v0.7 - Point Cloud Data file format
VERSION 0.7
FIELDS x y z
SIZE 4 4 4
TYPE F F F
COUNT 1 1 1
WIDTH 1751
HEIGHT 1
VIEWPOINT 0 0 0 1 0 0 0
POINTS 1751
DATA ascii
75.889999 -30.143 25.805
75.800003 -30.011 25.743
75.707001 -29.879 25.679001
75.611 -29.745001 25.615
75.522003 -29.615 25.554001
75.455002 -29.493999 25.5
75.390999 -29.375 25.447001
75.325996 -29.254999 25.393
75.268997 -29.139 25.343
75.218002 -29.025999 25.294001
75.167999 -28.913 25.247
75.107002 -28.796 25.195
75.052002 -28.681999 25.145
74.989998 -28.565001 25.094
74.927002 -28.448 25.041
74.844002 -28.323 24.983
74.777 -28.205 24.93
74.714996 -28.089001 24.878
74.667999 -27.979 24.832001
74.630997 -27.872999 24.788
74.621002 -27.778 24.754
74.619003 -27.686001 24.723
74.628998 -27.6 24.695
74.640999 -27.514 24.667999
74.661003 -27.431 24.643999
74.68 -27.347 24.620001
74.703003 -27.266001 24.596001
74.723999 -27.184 24.573
74.745003 -27.101 24.549
74.763 -27.018 24.524
74.778 -26.933001 24.497999
74.791 -26.848 24.472
74.795998 -26.759001 24.443001
74.794998 -26.669001 24.412001
74.792 -26.577 24.379999
74.785004 -26.485001 24.347
74.777 -26.392 24.313999
74.778999 -26.302999 24.285
74.789001 -26.216999 24.257
74.814003 -26.136 24.235001
74.848999 -26.059 24.216
74.905998 -25.990999 24.202999
74.971001 -25.924999 24.194
75.042 -25.861 24.186001
75.114998 -25.798 24.179001
75.190002 -25.735001 24.172001
75.253998 -25.669001 24.162001
75.317001 -25.601999 24.152
75.371002 -25.532 24.138
75.424004 -25.461 24.125
75.473999 -25.389 24.110001
75.528 -25.318001 24.097
75.584 -25.247999 24.084
75.647003 -25.181 24.073
75.721001 -25.117001 24.066
75.796997 -25.054001 24.059
75.872002 -24.99 24.052999
75.946999 -24.927 24.045
76.018997 -24.862 24.038
76.086998 -24.795 24.028
76.164001 -24.732 24.021999
76.244003 -24.67 24.016001
76.334999 -24.611 24.014
76.419998 -24.549999 24.01
76.517998 -24.493 24.01
76.620003 -24.437 24.011
76.737999 -24.386999 24.017
76.874001 -24.343 24.028
77.015999 -24.299999 24.041
77.153 -24.254999 24.052999
77.292 -24.211 24.065001
77.425003 -24.164 24.075001
77.550003 -24.115 24.083
77.731003 -24.083 24.108
77.957001 -24.066999 24.146
78.214996 -24.059 24.194
78.459999 -24.048 24.238001
78.667 -24.023001 24.27
79.123001 -24.077999 24.378
79.285004 -24.038 24.396
79.411003 -23.986 24.403
79.538002 -23.657 24.316
79.448997 -23.537001 24.257999
76.250999 -30.862 26.118999
76.272003 -30.851 26.216
76.235001 -30.74 26.172001
76.179001 -30.621 26.120001
76.126999 -30.504999 26.07
76.072998 -30.386999 26.02
75.984001 -30.256001 25.958
75.879997 -30.118 25.889999
75.787003 -29.985001 25.827
75.696999 -29.854 25.764999
75.602997 -29.721001 25.701
75.514999 -29.591 25.639999
75.447998 -29.469999 25.584999
75.388 -29.353001 25.534
75.322998 -29.233 25.48
75.265999 -29.117001 25.43
75.213997 -29.003 25.381001
75.166 -28.892 25.333
75.107002 -28.775 25.282
75.052002 -28.660999 25.232
74.991997 -28.545 25.181
74.93 -28.427999 25.129999
74.848999 -28.304001 25.070999
74.778999 -28.184999 25.017
74.713997 -28.066999 24.964001
74.665001 -27.957001 24.917
74.625 -27.85 24.872999
74.612 -27.754 24.837999
74.607002 -27.660999 24.805
74.614998 -27.573999 24.777
74.626999 -27.488001 24.75
74.649002 -27.405001 24.726999
74.668999 -27.322001 24.702
74.693001 -27.240999 24.68
74.716003 -27.16 24.656
74.737999 -27.077999 24.632999
74.757004 -26.995001 24.608
74.774002 -26.910999 24.583
74.789001 -26.826 24.556999
74.793999 -26.738001 24.528
74.792999 -26.646999 24.497
74.791 -26.556 24.466
74.783997 -26.462999 24.433001
74.776001 -26.370001 24.4
74.776001 -26.281 24.370001
74.785004 -26.194 24.341999
74.808998 -26.113001 24.319
74.846001 -26.037001 24.299999
74.903 -25.969 24.288
74.970001 -25.903 24.278999
75.043999 -25.841 24.273001
75.120003 -25.778 24.266001
75.194 -25.716 24.26
75.260002 -25.65 24.25
75.324997 -25.583 24.24
75.379997 -25.513 24.226999
75.432999 -25.441999 24.214001
75.482002 -25.370001 24.198
75.532997 -25.298 24.184
75.587997 -25.228001 24.171
75.647003 -25.159 24.16
75.720001 -25.094999 24.152
75.793999 -25.031 24.145
75.866997 -24.966999 24.136999
75.939003 -24.902 24.129
76.011002 -24.837 24.121
76.079002 -24.771 24.112
76.155998 -24.708 24.106001
76.236 -24.645 24.1
76.328003 -24.586 24.099001
76.412003 -24.525 24.094
76.509003 -24.468 24.094
76.609001 -24.412001 24.094
76.723999 -24.360001 24.1
76.857002 -24.315001 24.110001
76.996002 -24.271 24.122999
77.130997 -24.225 24.134001
77.265999 -24.18 24.145
77.398003 -24.132999 24.153999
77.523003 -24.083 24.162001
77.689003 -24.047001 24.183001
77.899002 -24.025 24.216
78.151001 -24.016001 24.263
78.389999 -24.002001 24.305
78.601997 -23.979 24.339001
79.040001 -24.028 24.441
79.214996 -23.993 24.464001
79.359001 -23.945999 24.476
79.477997 -23.892 24.481001
79.566002 -23.642 24.414
79.508003 -23.532 24.365
76.304001 -30.844 26.316999
76.260002 -30.73 26.268999
76.204002 -30.611 26.218
76.136002 -30.488001 26.163
76.070999 -30.365999 26.108
75.972 -30.23 26.042999
75.863998 -30.091 25.974001
75.769997 -29.957001 25.91
75.682999 -29.827 25.848
75.591003 -29.695999 25.785999
75.504997 -29.566999 25.725
75.438004 -29.445999 25.67
75.378998 -29.327999 25.618999
75.315002 -29.209 25.565001
75.259003 -29.094 25.514999
75.207001 -28.98 25.466
75.161003 -28.868999 25.419001
75.101997 -28.753 25.368
75.049004 -28.639 25.319
74.988998 -28.523001 25.268
74.929001 -28.407 25.216
74.848 -28.283001 25.158001
74.778999 -28.164 25.104
74.712997 -28.046 25.051001
74.663002 -27.934999 25.003
74.619003 -27.827 24.958
74.601997 -27.73 24.921
74.594002 -27.635 24.888
74.600998 -27.547001 24.858999
74.610001 -27.459999 24.830999
74.630997 -27.378 24.806999
74.652 -27.295 24.783001
74.676003 -27.214001 24.76
74.698997 -27.132 24.737
74.723 -27.051001 24.714001
74.744003 -26.969 24.690001
74.763 -26.885 24.666
74.779999 -26.802 24.641001
74.788002 -26.714001 24.612
74.789001 -26.625 24.582001
74.787003 -26.534 24.551001
74.779999 -26.441 24.518
74.773003 -26.348 24.485001
74.772003 -26.257999 24.454
74.778999 -26.171 24.426001
74.804001 -26.09 24.403
74.842003 -26.014999 24.385
74.902 -25.947001 24.374001
74.969002 -25.882 24.365
75.044998 -25.82 24.358999
75.122002 -25.757999 24.353001
75.198997 -25.695999 24.347
75.267998 -25.631001 24.339001
75.334999 -25.565001 24.329
75.389999 -25.495001 24.316999
75.442001 -25.424 24.302999
75.488998 -25.351 24.287001
75.539001 -25.278999 24.271999
75.591003 -25.208 24.257999
75.649002 -25.138 24.246
75.719002 -25.073 24.238001
75.790001 -25.007999 24.23
75.860001 -24.943001 24.222
75.931999 -24.878 24.214001
76.001999 -24.812 24.205
76.07 -24.746 24.195999
76.149002 -24.683001 24.190001
76.228996 -24.621 24.184999
76.32 -24.562 24.183001
76.404999 -24.500999 24.179001
76.500999 -24.443001 24.177999
76.600998 -24.386999 24.179001
76.711998 -24.334 24.183001
76.839996 -24.287001 24.191999
76.975998 -24.242001 24.204
77.106003 -24.195 24.212999
77.239998 -24.149 24.224001
77.371002 -24.101 24.233999
77.496002 -24.052 24.242001
77.647003 -24.011 24.257
77.838997 -23.983 24.285999
78.075996 -23.969 24.327999
78.310997 -23.954 24.368999
78.528 -23.933001 24.405001
78.955002 -23.978001 24.504999
79.138 -23.945 24.530001
79.294998 -23.903 24.546
79.421997 -23.851 24.554001
76.330002 -30.834 26.416
76.283997 -30.719 26.368
76.221001 -30.598 26.313999
76.142998 -30.469999 26.254999
76.067001 -30.343 26.195999
75.959999 -30.204 26.127001
75.847 -30.063 26.056999
75.751999 -29.929001 25.993
75.667 -29.799999 25.931999
75.578003 -29.67 25.870001
75.494003 -29.541 25.809
75.427002 -29.421 25.754999
75.371002 -29.304001 25.704
75.307999 -29.186001 25.650999
75.251999 -29.07 25.601
75.198997 -28.955999 25.551001
75.153999 -28.844999 25.504999
75.095001 -28.729 25.452999
75.043999 -28.615999 25.405001
74.986 -28.500999 25.354
74.927002 -28.385 25.302999
74.848 -28.261999 25.245001
74.778 -28.143 25.191
74.710999 -28.025 25.136999
74.658997 -27.913 25.089001
74.613998 -27.804001 25.042999
74.594002 -27.705999 25.004999
74.582001 -27.610001 24.969999
74.586998 -27.521 24.941
74.595001 -27.433001 24.912001
74.614998 -27.351 24.888
74.634003 -27.267 24.864
74.658997 -27.186001 24.841
74.682999 -27.105 24.818001
74.708 -27.024 24.796
74.730003 -26.941999 24.771999
74.750999 -26.860001 24.747999
74.771004 -26.777 24.724001
74.780998 -26.691 24.695999
74.785004 -26.601999 24.667
74.785004 -26.511999 24.636
74.777 -26.419001 24.603001
74.769997 -26.326 24.57
74.768997 -26.236 24.539
74.776001 -26.149 24.511
74.801003 -26.068001 24.488001
74.839996 -25.993 24.469999
74.899002 -25.924999 24.459
74.969002 -25.861 24.451
75.047997 -25.799 24.445999
75.125 -25.738001 24.440001
75.204002 -25.676001 24.434999
75.274002 -25.612 24.427
75.342003 -25.547001 24.417999
75.398003 -25.476999 24.406
75.448997 -25.405001 24.391001
75.495003 -25.332001 24.375
75.542999 -25.259001 24.360001
75.594002 -25.187 24.346001
75.649002 -25.117001 24.333
75.716003 -25.049999 24.323
75.785004 -24.985001 24.315001
75.853996 -24.919001 24.306
75.924004 -24.853001 24.298
75.992996 -24.787001 24.289
76.060997 -24.721001 24.280001
76.139999 -24.658001 24.274
76.219002 -24.594999 24.268
76.311996 -24.537001 24.267
76.397003 -24.476 24.263
76.490997 -24.417999 24.261999
76.587997 -24.361 24.261999
76.697998 -24.306999 24.264999
76.820999 -24.257999 24.273001
76.954002 -24.212 24.284
77.081001 -24.164 24.292999
77.212997 -24.118 24.302999
77.343002 -24.07 24.313
77.469002 -24.021 24.320999
77.605003 -23.975 24.332001
77.782997 -23.941999 24.356001
78.004997 -23.923 24.393999
78.234001 -23.906 24.434
78.457001 -23.886999 24.471001
78.683998 -23.868 24.51
79.056999 -23.896 24.594
79.222 -23.856001 24.613001
79.358002 -23.806999 24.624001
79.488998 -23.756001 24.632
76.348999 -30.820999 26.511999
76.303001 -30.707001 26.464001
76.235001 -30.583 26.408001
76.147003 -30.451 26.344999
76.060997 -30.32 26.284
75.945 -30.177 26.212
75.828003 -30.034 26.139
75.732002 -29.9 26.075001
75.650002 -29.771999 26.014999
75.563004 -29.643 25.952999
75.480003 -29.514999 25.893
75.415001 -29.395 25.839001
75.359001 -29.278999 25.788
75.299004 -29.162001 25.736
75.242996 -29.046 25.684999
75.192001 -28.931999 25.636999
75.146004 -28.822001 25.59
75.087997 -28.705999 25.539
75.038002 -28.593 25.49
74.981003 -28.478001 25.438999
74.922997 -28.363001 25.389
74.846001 -28.240999 25.332001
74.777 -28.122 25.277
74.707001 -28.003 25.222
74.654999 -27.891001 25.174
74.607002 -27.781 25.127001
74.584 -27.681 25.087999
74.569 -27.584 25.052
74.570999 -27.493999 25.021999
74.575996 -27.406 24.993
74.595001 -27.322001 24.968
74.612 -27.238001 24.943001
74.638 -27.158001 24.921
74.662003 -27.076 24.898001
74.689003 -26.996 24.875999
74.712997 -26.915001 24.853001
74.736 -26.833 24.83
74.758003 -26.750999 24.806
74.772003 -26.666 24.780001
74.778999 -26.579 24.750999
74.780998 -26.489 24.721001
74.776001 -26.396999 24.688999
74.768997 -26.305 24.656
74.766998 -26.214001 24.625
74.773003 -26.127001 24.596001
74.799004 -26.046 24.573999
74.838997 -25.971001 24.556
74.899002 -25.903999 24.545
74.970001 -25.84 24.537001
75.050003 -25.778999 24.533001
75.129997 -25.718 24.528
75.208 -25.657 24.523001
75.280998 -25.593 24.514999
75.349998 -25.528 24.507
75.404999 -25.458 24.493999
75.454002 -25.385 24.479
75.499001 -25.312 24.462999
75.545998 -25.238001 24.447001
75.595001 -25.166 24.431999
75.648003 -25.094999 24.419001
75.711998 -25.027 24.409
75.779999 -24.961 24.399
75.847 -24.895 24.389999
75.915001 -24.829 24.381001
75.984001 -24.761999 24.372
76.052002 -24.695999 24.363001
76.130997 -24.632999 24.358
76.209999 -24.57 24.351999
76.303001 -24.511999 24.351
76.387001 -24.451 24.347
76.481003 -24.392 24.346001
76.575996 -24.334 24.344999
76.682999 -24.280001 24.348
76.803001 -24.23 24.355
76.931999 -24.183001 24.364
77.056 -24.134001 24.372
77.185997 -24.086 24.382
77.314003 -24.038 24.391001
77.441002 -23.989 24.4
77.566002 -23.938999 24.408001
77.730003 -23.902 24.427999
77.938004 -23.879 24.462
78.160004 -23.858999 24.499001
78.378998 -23.839001 24.535999
78.597 -23.816999 24.572001
78.968002 -23.844 24.656
79.140999 -23.806999 24.677
79.285004 -23.761 24.691
79.433998 -23.716 24.705
76.362999 -30.806999 26.607
76.314003 -30.691 26.558001
76.241997 -30.565001 26.5
76.143997 -30.429001 26.434
76.046997 -30.294001 26.368
75.928001 -30.149 26.295
75.807999 -30.004999 26.221001
75.710999 -29.871 26.156
75.630997 -29.743999 26.097
75.546997 -29.615 26.035999
75.467003 -29.489 25.976999
75.402 -29.368999 25.923
75.348 -29.254 25.872999
75.289001 -29.136999 25.820999
75.236 -29.021999 25.771
75.183998 -28.909 25.722
75.139999 -28.798 25.674999
75.083 -28.683001 25.624001
75.031998 -28.57 25.576
74.973999 -28.455 25.525
74.917 -28.34 25.474001
74.845001 -28.219999 25.417999
74.774002 -28.1 25.363001
74.699997 -27.979 25.306999
74.648003 -27.868 25.259001
74.598999 -27.757 25.211
74.572998 -27.656 25.171
74.555 -27.558001 25.134001
74.554001 -27.466999 25.103001
74.557999 -27.378 25.073
74.574997 -27.292999 25.048
74.591003 -27.209 25.021999
74.617996 -27.129 25
74.641998 -27.048 24.976999
74.668999 -26.968 24.955999
74.695 -26.886999 24.933001
74.721001 -26.806999 24.910999
74.746002 -26.726 24.888
74.763 -26.642 24.863001
74.772003 -26.555 24.834999
74.777 -26.466999 24.806
74.773003 -26.375 24.774
74.766998 -26.283001 24.740999
74.764 -26.191999 24.709999
74.769997 -26.104 24.681
74.796997 -26.024 24.659
74.837997 -25.950001 24.642
74.897003 -25.882 24.629999
74.969002 -25.818001 24.622999
75.051003 -25.757999 24.618999
75.132004 -25.698 24.615
75.210999 -25.636 24.610001
75.285004 -25.573 24.603001
75.356003 -25.509001 24.594999
75.408997 -25.438 24.582001
75.456001 -25.365 24.566
75.5 -25.290001 24.549999
75.544998 -25.216999 24.534
75.592003 -25.143 24.518
75.642998 -25.070999 24.504
75.706001 -25.003 24.493
75.772003 -24.937 24.483
75.837997 -24.870001 24.474001
75.904999 -24.802999 24.465
75.973 -24.737 24.455
76.041 -24.67 24.447001
76.120003 -24.608 24.441
76.200996 -24.545 24.436001
76.292999 -24.486 24.434
76.375999 -24.424999 24.43
76.470001 -24.365999 24.429001
76.565002 -24.308001 24.427999
76.668999 -24.253 24.43
76.786003 -24.202 24.436001
76.912003 -24.153999 24.445
77.032997 -24.104 24.452999
77.160004 -24.055 24.461
77.287003 -24.007 24.469999
77.417 -23.959 24.48
77.541 -23.909 24.488001
77.695 -23.868 24.504999
77.890999 -23.841 24.535
78.102997 -23.818001 24.57
78.322998 -23.798 24.607
78.533997 -23.774 24.642
78.892998 -23.797001 24.722
79.070999 -23.761999 24.745001
79.222 -23.718 24.761
79.371002 -23.672001 24.775
79.489998 -23.618 24.780001
76.414001 -30.923 26.657
76.425003 -30.907 26.750999
76.374001 -30.791 26.701
76.322998 -30.674 26.65
76.246002 -30.546 26.591
76.137001 -30.405001 26.521
76.033997 -30.267 26.452999
75.911003 -30.121 26.378
75.788002 -29.976 26.304001
75.691002 -29.841999 26.238001
75.612999 -29.715 26.179001
75.531998 -29.589001 26.120001
75.454002 -29.462999 26.061001
75.390999 -29.344 26.007
75.336998 -29.228001 25.957001
75.279999 -29.112 25.906
75.224998 -28.997 25.855
75.174004 -28.884001 25.806
75.128998 -28.773001 25.759001
75.073997 -28.658001 25.709
75.022003 -28.545 25.66
74.963997 -28.43 25.608999
74.907997 -28.316 25.558001
74.835999 -28.195999 25.503
74.767998 -28.077 25.448
74.694 -27.955999 25.392
74.640999 -27.844 25.343
74.588997 -27.732 25.294001
74.560997 -27.629999 25.254
74.541 -27.532 25.216
74.538002 -27.440001 25.184
74.539001 -27.35 25.153
74.554001 -27.264999 25.127001
74.569 -27.18 25.101
74.597 -27.1 25.08
74.620003 -27.018999 25.056999
74.649002 -26.938999 25.035
74.677002 -26.858999 25.013
74.704002 -26.778999 24.992001
74.731003 -26.698999 24.969999
74.751999 -26.617001 24.945999
74.764999 -26.531 24.919001
74.772003 -26.444 24.891001
74.768997 -26.353001 24.858999
74.763 -26.26 24.826
74.762001 -26.17 24.795
74.766998 -26.082001 24.766001
74.794998 -26.003 24.745001
74.836998 -25.927999 24.728001
74.897003 -25.860001 24.716
74.968002 -25.796 24.709
75.051003 -25.737 24.705
75.135002 -25.677 24.702
75.213997 -25.615999 24.697001
75.289001 -25.552999 24.690001
75.359001 -25.488001 24.683001
75.411003 -25.417 24.669001
75.458 -25.344 24.653
75.500999 -25.268999 24.636
75.545998 -25.195 24.620001
75.591003 -25.121 24.604
75.639 -25.048 24.589001
75.700996 -24.98 24.577999
75.764999 -24.913 24.568001
75.829002 -24.844999 24.558001
75.894997 -24.778 24.548
75.960999 -24.711 24.539
76.030998 -24.645 24.530001
76.110001 -24.582001 24.525
76.192001 -24.52 24.52
76.282997 -24.461 24.518
76.365997 -24.399 24.514
76.459 -24.341 24.513
76.553001 -24.282 24.511999
76.654999 -24.226 24.513
76.771004 -24.174999 24.518999
76.892998 -24.125 24.527
77.013 -24.075001 24.533001
77.138 -24.025 24.542
77.260002 -23.975 24.549999
77.392998 -23.927999 24.559999
77.521004 -23.879 24.569
77.663002 -23.834999 24.583
77.847 -23.804001 24.610001
78.049004 -23.778 24.641001
78.260002 -23.754 24.676001
78.472 -23.731001 24.711
78.699997 -23.712999 24.750999
78.998001 -23.716 24.812
79.151001 -23.672001 24.827999
79.293999 -23.625 24.841
79.432999 -23.576 24.851999
79.514999 -23.51 24.846001
76.478996 -31.025999 26.802
76.486 -31.007999 26.895
76.43 -30.889 26.843
76.378998 -30.771999 26.792999
76.324997 -30.653999 26.740999
76.246002 -30.525 26.681
76.130997 -30.382 26.608999
76.017998 -30.24 26.537001
75.891998 -30.093 26.461
75.767998 -29.947001 26.386
75.671997 -29.813 26.320999
75.595001 -29.687 26.261999
75.517998 -29.562 26.202999
75.443001 -29.438 26.146
75.380997 -29.319 26.091999
75.328003 -29.204 26.042
75.271004 -29.087999 25.990999
75.219002 -28.974001 25.941
75.167999 -28.861 25.892
75.122002 -28.75 25.844999
75.068001 -28.635 25.795
75.014999 -28.521999 25.745001
74.956001 -28.406 25.694
74.900002 -28.292 25.643
74.829002 -28.172001 25.587
74.760002 -28.052999 25.533001
74.684998 -27.931999 25.476
74.632004 -27.819 25.427
74.579002 -27.708 25.378
74.549004 -27.605 25.336
74.526001 -27.504999 25.298
74.522003 -27.413 25.264999
74.521004 -27.322001 25.233999
74.535004 -27.236 25.207001
74.546997 -27.150999 25.181
74.575996 -27.070999 25.159
74.598999 -26.99 25.136
74.628998 -26.910999 25.115
74.657997 -26.830999 25.094
74.688004 -26.752001 25.073
74.717003 -26.673 25.052
74.741997 -26.591999 25.028999
74.757004 -26.507 25.003
74.767998 -26.421 24.976
74.765999 -26.33 24.944
74.763 -26.239 24.912001
74.760002 -26.148001 24.881001
74.766998 -26.061001 24.851999
74.795998 -25.982 24.830999
74.837997 -25.907 24.813999
74.897003 -25.839001 24.802999
74.968002 -25.775 24.795
75.052002 -25.716 24.792
75.135002 -25.656 24.788
75.216003 -25.594999 24.784
75.290001 -25.532 24.777
75.361 -25.466999 24.77
75.411003 -25.396 24.754999
75.457001 -25.322001 24.739
75.5 -25.247 24.722
75.542999 -25.172001 24.705999
75.586998 -25.098 24.688999
75.634003 -25.025 24.673
75.694 -24.955999 24.662001
75.755997 -24.888 24.652
75.819 -24.82 24.641001
75.883003 -24.752001 24.631001
75.947998 -24.684999 24.621
76.017998 -24.618999 24.613001
76.097 -24.556 24.607
76.179001 -24.493999 24.603001
76.269997 -24.434999 24.601
76.351997 -24.372999 24.596001
76.445 -24.313999 24.594999
76.538002 -24.254999 24.594
76.639999 -24.198999 24.594999
76.752998 -24.146999 24.6
76.873001 -24.096001 24.607
76.990997 -24.045 24.614
77.113998 -23.995001 24.622
77.237 -23.945 24.629999
77.371002 -23.898001 24.641001
77.499001 -23.85 24.65
77.629997 -23.801001 24.660999
77.801003 -23.766001 24.683001
77.989998 -23.736 24.711
78.192001 -23.709999 24.743
78.400002 -23.684999 24.777
78.614998 -23.662001 24.813
78.908997 -23.664 24.874001
79.066002 -23.622 24.891001
79.209 -23.575001 24.903999
79.360001 -23.530001 24.919001
79.458 -23.468 24.917999
79.517998 -23.395 24.905001
79.556999 -23.43 24.827
76.495003 -30.990999 26.989
76.438004 -30.871 26.936001
76.386002 -30.754 26.885
76.330002 -30.635 26.833
76.242996 -30.503 26.77
76.121002 -30.357 26.695
76 -30.212 26.620001
75.873001 -30.063999 26.544001
75.748001 -29.917999 26.468
75.653 -29.784 26.403
75.577003 -29.659 26.344
75.502998 -29.535 26.287001
75.431 -29.412001 26.23
75.370003 -29.294001 26.177
75.319 -29.18 26.128
75.262001 -29.063999 26.076
75.209999 -28.950001 26.025999
75.160004 -28.837 25.976999
75.115997 -28.726 25.93
75.060997 -28.612 25.879999
75.008003 -28.497999 25.83
74.946999 -28.382 25.778
74.889999 -28.267 25.726999
74.819 -28.146999 25.671
74.75 -28.028 25.615999
74.676003 -27.907 25.559999
74.620003 -27.794001 25.51
74.567001 -27.681999 25.459999
74.535004 -27.579 25.417999
74.509003 -27.478001 25.379
74.503998 -27.385 25.346001
74.500999 -27.292999 25.313999
74.513 -27.207001 25.287001
74.526001 -27.121 25.26
74.554001 -27.042 25.238001
74.579002 -26.961 25.215
74.610001 -26.882 25.195
74.639999 -26.802999 25.174
74.671997 -26.725 25.153999
74.704002 -26.646999 25.134001
74.732002 -26.566999 25.112
74.751999 -26.483999 25.087999
74.764999 -26.399 25.061001
74.764999 -26.309 25.030001
74.762001 -26.218 24.997999
74.761002 -26.127001 24.966999
74.766998 -26.040001 24.938
74.797997 -25.961 24.917999
74.839996 -25.886999 24.900999
74.898003 -25.818001 24.889
74.969002 -25.754 24.882
75.054001 -25.695 24.879
75.137001 -25.635 24.875
75.217003 -25.573999 24.871
75.292999 -25.511999 24.865
75.362999 -25.447001 24.857
75.413002 -25.374001 24.841999
75.457001 -25.299999 24.826
75.499001 -25.225 24.809
75.540001 -25.15 24.791
75.583 -25.075001 24.774
75.627998 -25.000999 24.757999
75.686996 -24.931999 24.747
75.746002 -24.862 24.735001
75.806999 -24.794001 24.724001
75.871002 -24.726 24.712999
75.934998 -24.658001 24.702999
76.003998 -24.591999 24.695
76.084 -24.528999 24.690001
76.165001 -24.466999 24.684999
76.255997 -24.408001 24.683001
76.336998 -24.344999 24.679001
76.431999 -24.287001 24.677999
76.524002 -24.228001 24.677
76.622002 -24.171 24.677
76.734001 -24.118 24.681999
76.851997 -24.066999 24.688
76.969002 -24.014999 24.694
77.091003 -23.965 24.702
77.212997 -23.915001 24.709999
77.347 -23.868 24.721001
77.476997 -23.82 24.731001
77.608002 -23.771999 24.742001
77.767998 -23.733 24.761
77.943001 -23.698 24.785
78.128998 -23.667 24.812
78.339996 -23.643 24.847
78.542999 -23.615999 24.879999
78.802002 -23.607 24.929001
78.996002 -23.576 24.958
79.137001 -23.528999 24.971001
79.280998 -23.482 24.983999
79.390999 -23.424 24.987
79.471001 -23.357 24.98
76.497002 -30.971001 27.08
76.439003 -30.851 27.027
76.388 -30.733999 26.976
76.332001 -30.615 26.924
76.236 -30.48 26.858
76.109001 -30.330999 26.780001
75.981003 -30.183001 26.702999
75.851997 -30.035 26.625999
75.727997 -29.889 26.549999
75.633003 -29.754999 26.485001
75.560997 -29.632 26.427999
75.487999 -29.507999 26.370001
75.419998 -29.386 26.315001
75.360001 -29.268999 26.261999
75.309998 -29.155001 26.212999
75.257004 -29.041 26.163
75.204002 -28.926001 26.112
75.153 -28.813 26.063
75.108002 -28.702 26.016001
75.053001 -28.587999 25.965
75 -28.474001 25.915001
74.938004 -28.357 25.862
74.879997 -28.242001 25.811001
74.807999 -28.122 25.754999
74.739998 -28.003 25.700001
74.664001 -27.882 25.643
74.608002 -27.768999 25.593
74.555 -27.657 25.542999
74.522003 -27.552999 25.500999
74.495003 -27.451 25.459999
74.488998 -27.358 25.427
74.483002 -27.264999 25.393999
74.494003 -27.179001 25.367001
74.504997 -27.093 25.339001
74.533997 -27.013 25.318001
74.557999 -26.931999 25.295
74.591003 -26.854 25.275
74.622002 -26.775999 25.254
74.656998 -26.698 25.235001
74.691002 -26.621 25.215
74.722 -26.542 25.195
74.745003 -26.461 25.172001
74.762001 -26.377001 25.146
74.764 -26.287001 25.115999
74.763 -26.197001 25.084999
74.762001 -26.106001 25.054001
74.767998 -26.018999 25.025
74.800003 -25.941 25.004999
74.843002 -25.867001 24.988001
74.900002 -25.798 24.976
74.971001 -25.733 24.969
75.056999 -25.674999 24.966
75.138 -25.614 24.962
75.219002 -25.554001 24.958
75.293999 -25.490999 24.952
75.363998 -25.424999 24.944
75.412003 -25.353001 24.929001
75.456001 -25.278 24.912001
75.496002 -25.202999 24.893999
75.537003 -25.127001 24.877001
75.578003 -25.052 24.860001
75.622002 -24.976999 24.843
75.678001 -24.907 24.83
75.735001 -24.837 24.818001
75.794998 -24.768 24.806
75.858002 -24.700001 24.796
75.921997 -24.632 24.785999
75.989998 -24.565001 24.777
76.069 -24.502001 24.771999
76.150002 -24.440001 24.767
76.240997 -24.381001 24.764999
76.322998 -24.319 24.761
76.416 -24.26 24.76
76.508003 -24.201 24.759001
76.605003 -24.143 24.759001
76.714996 -24.089001 24.763
76.832001 -24.038 24.768999
76.946999 -23.986 24.775
77.07 -23.936001 24.783001
77.194 -23.886 24.792
77.325996 -23.839001 24.802999
77.454002 -23.790001 24.812
77.584999 -23.742001 24.822001
77.732002 -23.698 24.837999
77.891998 -23.659 24.857
78.065002 -23.624001 24.881001
78.266998 -23.597 24.913
78.467003 -23.569 24.944
78.675003 -23.544001 24.979
78.921997 -23.530001 25.025
79.065002 -23.483 25.038
79.200996 -23.434 25.049
79.327003 -23.381001 25.056999
79.424004 -23.319 25.055
76.495003 -30.950001 27.17
76.439003 -30.83 27.117001
76.384003 -30.712 27.065001
76.323997 -30.591 27.011
76.223999 -30.454 26.943001
76.088997 -30.302 26.863001
75.959 -30.153 26.785
75.831001 -30.004999 26.708
75.710999 -29.861 26.632999
75.616997 -29.728001 26.568001
75.543999 -29.604 26.511
75.474998 -29.482 26.454
75.410004 -29.362 26.4
75.351997 -29.245001 26.348
75.302002 -29.131001 26.298
75.25 -29.017 26.247999
75.198997 -28.903 26.198999
75.146004 -28.790001 26.149
75.099998 -28.679001 26.101
75.044998 -28.563999 26.049999
74.988998 -28.448999 25.999001
74.926003 -28.332001 25.945999
74.867996 -28.216999 25.893999
74.795998 -28.097 25.837999
74.728996 -27.978001 25.784
74.654999 -27.858 25.726999
74.597 -27.743999 25.676001
74.543999 -27.631001 25.625999
74.511002 -27.528 25.584
74.484001 -27.426001 25.542999
74.475998 -27.332001 25.509001
74.469002 -27.239 25.476
74.477997 -27.152 25.448
74.486 -27.065001 25.419001
74.515999 -26.986 25.399
74.541 -26.905001 25.375999
74.574997 -26.827 25.356001
74.607002 -26.749001 25.336
74.644997 -26.673 25.318001
74.68 -26.596001 25.298
74.714996 -26.518999 25.278999
74.741997 -26.438 25.257
74.762001 -26.356001 25.233
74.764999 -26.267 25.202999
74.764999 -26.177 25.172001
74.764999 -26.087 25.141001
74.772003 -25.999001 25.112
74.803001 -25.921 25.091999
74.846001 -25.847 25.075001
74.903 -25.778 25.063
74.974998 -25.714001 25.056
75.057999 -25.653999 25.052999
75.140999 -25.594 25.049
75.221001 -25.533001 25.045
75.294998 -25.469 25.038
75.363998 -25.403999 25.030001
75.411003 -25.330999 25.014999
75.454002 -25.256001 24.997999
75.494003 -25.18 24.98
75.535004 -25.105 24.962999
75.574997 -25.028999 24.945
75.616997 -24.954 24.927999
75.670998 -24.882999 24.915001
75.726997 -24.812 24.902
75.786003 -24.743 24.889999
75.848 -24.674 24.879999
75.911003 -24.606001 24.868999
75.978996 -24.540001 24.860001
76.056999 -24.476 24.855
76.138 -24.414 24.85
76.228996 -24.355 24.849001
76.309998 -24.292 24.844
76.401001 -24.233 24.841999
76.491997 -24.173 24.84
76.586998 -24.115 24.84
76.695 -24.059999 24.844
76.809998 -24.007999 24.85
76.925003 -23.955999 24.855
77.045998 -23.906 24.863001
77.172997 -23.857 24.872999
77.302002 -23.808001 24.882999
77.431 -23.76 24.892
77.560997 -23.711 24.903
77.695999 -23.664 24.914
77.843002 -23.621 24.93
78.000999 -23.58 24.948999
78.181 -23.546 24.974001
78.379997 -23.518999 25.006001
78.577003 -23.489 25.037001
78.820999 -23.475 25.082001
78.991997 -23.437 25.104
79.126999 -23.386999 25.115
79.264999 -23.337999 25.127001
79.376999 -23.281 25.129999
76.495003 -30.929001 27.26
76.436996 -30.809 27.207001
76.380997 -30.690001 27.153999
76.310997 -30.565001 27.097
76.203003 -30.424 27.025999
76.066002 -30.271 26.945
75.935997 -30.122 26.867001
75.808998 -29.975 26.789
75.691002 -29.832001 26.716
75.598999 -29.700001 26.650999
75.527 -29.576 26.594
75.459999 -29.455 26.538
75.399002 -29.337 26.485001
75.342003 -29.219999 26.433001
75.292999 -29.107 26.384001
75.242996 -28.993 26.334
75.193001 -28.879999 26.285
75.139999 -28.766001 26.235001
75.094002 -28.655001 26.187
75.038002 -28.540001 26.135
74.980003 -28.424999 26.084
74.916 -28.306999 26.030001
74.857002 -28.191999 25.978001
74.785004 -28.070999 25.922001
74.719002 -27.954 25.867001
74.644997 -27.833 25.811001
74.588997 -27.719999 25.76
74.535004 -27.607 25.709999
74.502998 -27.504 25.667999
74.475998 -27.403 25.627001
74.467003 -27.308001 25.593
74.458 -27.214001 25.559
74.466003 -27.125999 25.530001
74.473 -27.038 25.500999
74.503998 -26.959999 25.481001
74.528 -26.879 25.458
74.564003 -26.802 25.438999
74.597 -26.724001 25.419001
74.637001 -26.649 25.402
74.674004 -26.572001 25.382999
74.712997 -26.497 25.365
74.741997 -26.417 25.344
74.764999 -26.336 25.32
74.768997 -26.247 25.291
74.769997 -26.157 25.26
74.771004 -26.068001 25.229
74.778 -25.98 25.201
74.809998 -25.902 25.181
74.852997 -25.827999 25.164
74.907997 -25.757999 25.150999
74.977997 -25.694 25.143999
75.061996 -25.634001 25.141001
75.142998 -25.573 25.136999
75.223 -25.511999 25.132
75.296997 -25.448 25.125999
75.363998 -25.382999 25.117001
75.410004 -25.309 25.101
75.452003 -25.233999 25.084
75.491997 -25.158001 25.066
75.530998 -25.082001 25.048
75.57 -25.006001 25.030001
75.611 -24.93 25.013
75.663002 -24.858 24.999001
75.717003 -24.787001 24.986
75.776001 -24.716999 24.974001
75.837997 -24.649 24.962999
75.900002 -24.580999 24.952999
75.968002 -24.514 24.944
76.044998 -24.450001 24.938
76.125 -24.386999 24.933001
76.216003 -24.327999 24.931
76.295998 -24.264999 24.926001
76.386002 -24.205999 24.924999
76.474998 -24.145 24.922001
76.569 -24.087 24.922001
76.675003 -24.031 24.924999
76.788002 -23.979 24.93
76.903 -23.926001 24.936001
77.023003 -23.875999 24.944
77.150002 -23.827 24.952999
77.278999 -23.778 24.962999
77.406998 -23.729 24.973
77.536003 -23.68 24.983
77.665001 -23.631001 24.993
77.802002 -23.584 25.004999
77.944 -23.539 25.018999
78.109001 -23.500999 25.040001
78.306 -23.472 25.070999
78.500999 -23.441999 25.101999
78.703003 -23.415001 25.134001
78.93 -23.393999 25.174
79.068001 -23.344999 25.186001
79.205002 -23.296 25.198
79.334999 -23.245001 25.207001
79.456001 -23.190001 25.212999
76.489998 -30.906 27.349001
76.433998 -30.787001 27.296
76.375 -30.666 27.243
76.294998 -30.537001 27.181
76.178001 -30.393 27.107
76.040001 -30.24 27.025999
75.910004 -30.091 26.947001
75.785004 -29.944 26.870001
75.669998 -29.802 26.798
75.580002 -29.671 26.733999
75.509003 -29.548 26.676001
75.444 -29.427999 26.621
75.387001 -29.311001 26.569
75.330002 -29.194 26.517
75.282997 -29.082001 26.469
75.233002 -28.969 26.419001
75.186996 -28.857 26.371
75.132004 -28.742001 26.32
75.084999 -28.631001 26.271999
75.028999 -28.516001 26.219999
74.970001 -28.4 26.167999
74.905998 -28.282 26.114
74.848 -28.167 26.063
74.778 -28.048 26.007
74.712997 -27.93 25.952999
74.640999 -27.811001 25.896
74.584999 -27.697001 25.844999
74.531998 -27.584999 25.796
74.500999 -27.482 25.754
74.474998 -27.381001 25.714001
74.464996 -27.285999 25.679001
74.455002 -27.191999 25.645
74.460999 -27.104 25.615
74.467003 -27.014999 25.586
74.498001 -26.937 25.565001
74.522003 -26.855 25.542999
74.556999 -26.778 25.523001
74.591003 -26.701 25.504
74.632004 -26.625999 25.487
74.671997 -26.551001 25.469
74.712997 -26.476 25.452
74.745003 -26.396999 25.431
74.769997 -26.316 25.409
74.777 -26.229 25.379999
74.778 -26.139 25.349001
74.778999 -26.049999 25.319
74.788002 -25.962999 25.290001
74.818001 -25.884001 25.27
74.861 -25.809 25.253
74.916 -25.739 25.24
74.984001 -25.674 25.232
75.067001 -25.614 25.229
75.147003 -25.552999 25.225
75.224998 -25.490999 25.219999
75.297997 -25.427 25.212999
75.362999 -25.361 25.204
75.407997 -25.287001 25.187
75.449997 -25.212 25.17
75.488998 -25.135 25.152
75.527 -25.059 25.134001
75.564003 -24.982 25.115
75.603996 -24.906 25.097
75.653999 -24.833 25.083
75.707001 -24.761999 25.069
75.765999 -24.691999 25.056999
75.827003 -24.622999 25.046
75.889 -24.555 25.035999
75.956001 -24.488001 25.027
76.033997 -24.424 25.021
76.115997 -24.362 25.017
76.204002 -24.302 25.014
76.283997 -24.239 25.009001
76.373001 -24.179001 25.007
76.459999 -24.118 25.004999
76.552002 -24.059 25.003
76.655998 -24.003 25.006001
76.766998 -23.950001 25.011
76.880997 -23.896999 25.016001
77.000999 -23.846001 25.024
77.126999 -23.797001 25.033001
77.255997 -23.747999 25.044001
77.382004 -23.698999 25.052999
77.508003 -23.649 25.062
77.636002 -23.599001 25.072001
77.759003 -23.548 25.08
77.889999 -23.499001 25.09
78.042999 -23.457001 25.108
78.232002 -23.426001 25.136999
78.426003 -23.396 25.167
78.622002 -23.365999 25.198
78.879997 -23.355 25.247999
79.017998 -23.306999 25.26
79.156998 -23.257999 25.271999
79.303001 -23.211 25.287001
79.445 -23.163 25.299999
76.553001 -31.028 27.403999
76.560997 -31.011 27.497999
76.494003 -30.886999 27.441
76.436996 -30.767 27.388
76.366997 -30.642 27.33
76.274002 -30.507 27.264
76.152 -30.361 27.188
76.012001 -30.207001 27.106001
75.882004 -30.058001 27.027
75.759003 -29.913 26.951
75.648003 -29.771999 26.879
75.560997 -29.642 26.816
75.489998 -29.518999 26.759001
75.427002 -29.4 26.704
75.373001 -29.284 26.653
75.317001 -29.167999 26.601
75.273003 -29.056999 26.552999
75.222 -28.943001 26.504
75.177002 -28.832001 26.455999
75.124001 -28.718 26.405001
75.075996 -28.607 26.357
75.018997 -28.490999 26.305
74.959 -28.375 26.252001
74.894997 -28.257 26.198
74.839996 -28.143 26.146999
74.772003 -28.025 26.091999
74.709 -27.908001 26.039
74.640999 -27.790001 25.983999
74.587997 -27.677999 25.934
74.539001 -27.566999 25.885
74.511002 -27.465 25.844
74.485001 -27.364 25.804001
74.473999 -27.268999 25.768999
74.461998 -27.174 25.733999
74.467003 -27.084999 25.704
74.470001 -26.996 25.674
74.5 -26.916 25.653
74.524002 -26.834999 25.629999
74.557999 -26.757999 25.610001
74.592003 -26.68 25.591
74.634003 -26.606001 25.573999
74.674004 -26.531 25.556
74.719002 -26.457001 25.540001
74.751999 -26.379 25.521
74.779999 -26.299 25.499001
74.787003 -26.211 25.469999
74.789001 -26.122 25.438999
74.789001 -26.032 25.408001
74.796997 -25.945 25.379999
74.829002 -25.867001 25.360001
74.871002 -25.792 25.343
74.922997 -25.721001 25.329
74.989998 -25.655001 25.320999
75.071999 -25.594999 25.316999
75.151001 -25.533001 25.313
75.228996 -25.471001 25.308001
75.300003 -25.407 25.299999
75.364998 -25.34 25.291
75.408997 -25.264999 25.274
75.449997 -25.190001 25.257
75.487 -25.113001 25.238001
75.523003 -25.035999 25.219
75.557999 -24.958 25.200001
75.596001 -24.881001 25.181
75.643997 -24.808001 25.166
75.695999 -24.736 25.152
75.752998 -24.666 25.139999
75.814003 -24.597 25.129
75.875999 -24.528999 25.118999
75.944 -24.462 25.110001
76.021004 -24.398001 25.104
76.103996 -24.336 25.1
76.191002 -24.275999 25.097
76.271004 -24.212999 25.091999
76.360001 -24.152 25.09
76.445 -24.091 25.087
76.536003 -24.031 25.084999
76.637001 -23.974001 25.087
76.746002 -23.92 25.091
76.858002 -23.867001 25.097
76.977997 -23.816 25.104
77.100998 -23.766001 25.113001
77.230003 -23.716999 25.122999
77.355003 -23.667 25.132
77.478996 -23.617001 25.141001
77.602997 -23.566 25.149
77.716003 -23.511 25.153999
77.835999 -23.459 25.162001
77.975998 -23.412001 25.174999
78.165001 -23.381001 25.204
78.357002 -23.351 25.233999
78.556999 -23.322001 25.266001
78.829002 -23.316 25.320999
78.987 -23.273001 25.339001
79.135002 -23.228001 25.355
79.292 -23.184 25.372999
79.448997 -23.141001 25.391001
76.573997 -30.996 27.594
76.512001 -30.874001 27.538
76.434998 -30.745001 27.478001
76.350998 -30.614 27.415001
76.251999 -30.476999 27.347
76.120003 -30.327 27.267
75.983002 -30.174 27.184999
75.851997 -30.025 27.106001
75.732002 -29.881001 27.031
75.625 -29.742001 26.959999
75.540001 -29.613001 26.896999
75.470001 -29.49 26.841
75.408997 -29.372 26.785999
75.357002 -29.257 26.736
75.303001 -29.142 26.684999
75.259003 -29.031 26.636999
75.209999 -28.917999 26.587999
75.166 -28.806999 26.540001
75.112 -28.693001 26.489
75.064003 -28.580999 26.441
75.007004 -28.466 26.389
74.946999 -28.349001 26.336
74.885002 -28.232 26.282
74.832001 -28.118999 26.232
74.767998 -28.002001 26.177999
74.709999 -27.886999 26.125999
74.649002 -27.771999 26.073999
74.598 -27.660999 26.024
74.555 -27.552999 25.978001
74.530998 -27.452 25.938
74.504997 -27.351 25.898001
74.492996 -27.256001 25.862
74.480003 -27.16 25.827
74.483002 -27.07 25.796
74.483002 -26.98 25.764999
74.510002 -26.899 25.743
74.532997 -26.818001 25.719999
74.566002 -26.74 25.700001
74.598999 -26.662001 25.68
74.643997 -26.587999 25.664
74.685997 -26.514 25.646999
74.732002 -26.441 25.631001
74.767998 -26.364 25.613001
74.796997 -26.284 25.591
74.805 -26.197001 25.563
74.806 -26.107 25.532
74.805 -26.017 25.500999
74.813004 -25.93 25.472
74.843002 -25.85 25.451
74.884003 -25.775 25.434
74.935997 -25.704 25.42
75.001999 -25.638 25.410999
75.082001 -25.577 25.407
75.161003 -25.516001 25.403
75.237 -25.452999 25.396999
75.306999 -25.388 25.389
75.369003 -25.32 25.379
75.413002 -25.245001 25.363001
75.452003 -25.169001 25.344999
75.487999 -25.091999 25.325001
75.521004 -25.013 25.305
75.553001 -24.934999 25.285
75.587997 -24.857 25.264999
75.634003 -24.783001 25.25
75.683998 -24.709999 25.235001
75.739998 -24.639999 25.223
75.801003 -24.570999 25.212
75.863998 -24.503 25.201
75.932999 -24.436001 25.193001
76.011002 -24.372999 25.188
76.092003 -24.309999 25.183001
76.179001 -24.25 25.181
76.259003 -24.186001 25.176001
76.347 -24.125999 25.174
76.431999 -24.063999 25.17
76.519997 -24.003 25.167999
76.616997 -23.945 25.167999
76.722 -23.889999 25.171
76.833 -23.836 25.176001
76.949997 -23.784 25.183001
77.07 -23.733 25.191
77.198997 -23.684 25.201
77.323997 -23.635 25.209999
77.445 -23.583 25.218
77.566002 -23.531 25.226
77.676003 -23.476 25.23
77.787003 -23.42 25.233999
77.915001 -23.370001 25.243999
78.101997 -23.337999 25.271999
78.294998 -23.308001 25.302999
78.490997 -23.278 25.334
78.693001 -23.25 25.367001
78.959 -23.240999 25.42
79.113998 -23.198 25.438
79.271004 -23.153999 25.455999
79.438004 -23.114 25.476999
79.589996 -23.068001 25.493999
76.580002 -30.976999 27.687
76.515999 -30.854 27.631001
76.428001 -30.721001 27.566
76.330002 -30.584999 27.497999
76.220001 -30.443001 27.424999
76.086998 -30.292 27.344999
75.947998 -30.139 27.261999
75.819 -29.99 27.184
75.700996 -29.847 27.108999
75.598 -29.709999 27.040001
75.514999 -29.582001 26.978001
75.446999 -29.459999 26.921
75.387001 -29.341999 26.868
75.336998 -29.228001 26.818001
75.283997 -29.113001 26.767
75.241997 -29.003 26.719999
75.195 -28.891001 26.671
75.152 -28.781 26.624001
75.098999 -28.667 26.573
75.051003 -28.555 26.524
74.996002 -28.440001 26.473
74.936996 -28.323999 26.42
74.875 -28.208 26.367001
74.825996 -28.096001 26.318001
74.766998 -27.981001 26.266001
74.714996 -27.868999 26.216
74.663002 -27.757 26.166
74.616997 -27.648001 26.118
74.581001 -27.542 26.073999
74.560997 -27.443001 26.035999
74.538002 -27.343 25.996
74.526001 -27.247999 25.961
74.511002 -27.150999 25.924
74.511002 -27.059999 25.893
74.505997 -26.968 25.860001
74.529999 -26.886 25.837
74.553001 -26.804001 25.813
74.584 -26.726 25.792999
74.615997 -26.646999 25.771999
74.660004 -26.573 25.756001
74.704002 -26.5 25.74
74.751999 -26.427 25.725
74.789001 -26.351 25.707001
74.819 -26.271 25.684999
74.825996 -26.184 25.657
74.825996 -26.093 25.625999
74.823997 -26.002001 25.594
74.831001 -25.915001 25.565001
74.859001 -25.834999 25.542999
74.898003 -25.759001 25.525
74.949997 -25.688 25.511999
75.015999 -25.622 25.503
75.094002 -25.559999 25.497999
75.171997 -25.497999 25.493
75.247002 -25.434999 25.487
75.316002 -25.368999 25.479
75.376999 -25.301001 25.468
75.417999 -25.226 25.451
75.455002 -25.148001 25.431999
75.487999 -25.07 25.412001
75.517998 -24.99 25.391001
75.546997 -24.910999 25.370001
75.579002 -24.832001 25.349001
75.622002 -24.757 25.333
75.669998 -24.684 25.316999
75.725998 -24.613001 25.305
75.787003 -24.544001 25.294001
75.850998 -24.476 25.284
75.919998 -24.41 25.275999
75.999001 -24.347 25.271
76.080002 -24.284 25.266001
76.167999 -24.224001 25.264
76.248001 -24.160999 25.259001
76.335999 -24.1 25.257
76.418999 -24.038 25.253
76.504997 -23.976 25.25
76.598 -23.917 25.25
76.698997 -23.860001 25.250999
76.808998 -23.806 25.256001
76.924004 -23.753 25.261999
77.041 -23.701 25.268999
77.167 -23.652 25.278999
77.292 -23.601999 25.288
77.412003 -23.549999 25.296
77.528999 -23.497 25.302
77.637001 -23.441 25.306
77.739998 -23.382 25.306999
77.857002 -23.329 25.313999
78.035004 -23.294001 25.34
78.227997 -23.264 25.370001
78.429001 -23.236 25.403
78.630997 -23.208 25.436001
78.925003 -23.208 25.499001
79.084 -23.165001 25.518
79.236 -23.120001 25.535
79.408997 -23.080999 25.558001
76.647003 -31.101999 27.743999
76.657997 -31.086 27.839001
76.588997 -30.959999 27.781
76.508003 -30.83 27.719
76.411003 -30.693001 27.65
76.304001 -30.552999 27.579
76.184998 -30.407 27.503
76.045998 -30.254 27.42
75.911003 -30.101999 27.339001
75.783997 -29.955 27.261
75.670998 -29.813 27.188
75.570999 -29.677999 27.118999
75.488998 -29.549999 27.058001
75.422997 -29.429001 27.002001
75.362999 -29.311001 26.948
75.316002 -29.198999 26.899
75.264999 -29.084 26.849001
75.224998 -28.975 26.802
75.179001 -28.864 26.754
75.136002 -28.753 26.707001
75.084 -28.639999 26.656
75.036003 -28.528 26.607
74.982002 -28.414 26.556
74.924004 -28.298 26.504
74.865997 -28.183001 26.451
74.818001 -28.072001 26.403
74.766998 -27.959999 26.353001
74.723 -27.851 26.306
74.677002 -27.740999 26.257999
74.637001 -27.634001 26.212999
74.609001 -27.532 26.171
74.593002 -27.434999 26.134001
74.573997 -27.336 26.096001
74.560997 -27.24 26.059999
74.546997 -27.143999 26.023001
74.542 -27.051001 25.99
74.532997 -26.957001 25.955999
74.554001 -26.874001 25.931999
74.575996 -26.792 25.908001
74.606003 -26.712999 25.886999
74.637001 -26.634001 25.865999
74.682999 -26.561001 25.851
74.728996 -26.488001 25.834999
74.778 -26.416 25.820999
74.816002 -26.339001 25.802999
74.846001 -26.26 25.781
74.851997 -26.172001 25.752001
74.849998 -26.080999 25.719999
74.844002 -25.989 25.687
74.848 -25.9 25.657
74.875 -25.82 25.635
74.914001 -25.743999 25.617001
74.964996 -25.672001 25.603001
75.030998 -25.606001 25.594999
75.108002 -25.544001 25.59
75.188004 -25.482 25.584999
75.263 -25.419001 25.579
75.331001 -25.353001 25.570999
75.389 -25.283001 25.559
75.428001 -25.207001 25.541
75.461998 -25.129 25.521999
75.489998 -25.049 25.5
75.515999 -24.968 25.478001
75.542 -24.886999 25.455
75.570999 -24.806999 25.433001
75.611 -24.731001 25.416
75.657997 -24.657 25.4
75.713997 -24.587 25.388
75.776001 -24.518 25.377001
75.841003 -24.451 25.368
75.911003 -24.385 25.360001
75.990997 -24.322001 25.355
76.072998 -24.26 25.351
76.160004 -24.198999 25.349001
76.240997 -24.136 25.344
76.328003 -24.075001 25.341999
76.408997 -24.011999 25.337
76.491997 -23.950001 25.333
76.581001 -23.889 25.330999
76.678001 -23.830999 25.332001
76.786003 -23.775999 25.336
76.899002 -23.723 25.341999
77.014 -23.67 25.348
77.138 -23.620001 25.357
77.261002 -23.569 25.365999
77.378998 -23.516001 25.372999
77.494003 -23.462 25.379
77.600998 -23.406 25.382
77.702003 -23.347 25.382999
77.808998 -23.291 25.386999
77.978996 -23.253 25.41
78.171997 -23.223 25.441
78.374001 -23.195 25.474001
78.580002 -23.167999 25.509001
78.890999 -23.174 25.577
79.054001 -23.132 25.598
79.209 -23.087999 25.615999
79.375999 -23.048 25.636999
76.656998 -31.065001 27.93
76.584 -30.937 27.870001
76.492996 -30.802999 27.804001
76.387001 -30.662001 27.732
76.266998 -30.516001 27.656
76.139999 -30.368 27.577
76.002998 -30.215 27.495001
75.870003 -30.065001 27.414
75.747002 -29.919001 27.337
75.637001 -29.778999 27.264999
75.542 -29.645 27.198999
75.461998 -29.518999 27.136999
75.397003 -29.398001 27.082001
75.338997 -29.281 27.028999
75.293999 -29.169001 26.98
75.244003 -29.055 26.93
75.207001 -28.947001 26.885
75.162003 -28.836 26.836
75.120003 -28.726 26.789
75.068001 -28.613001 26.739
75.019997 -28.500999 26.690001
74.968002 -28.386999 26.639
74.911003 -28.271999 26.587
74.855003 -28.158001 26.535
74.810997 -28.049 26.488001
74.764999 -27.938 26.440001
74.726997 -27.832001 26.395
74.692001 -27.726 26.351
74.658997 -27.622 26.308001
74.636002 -27.521999 26.268
74.625999 -27.427 26.233
74.612999 -27.33 26.197001
74.598999 -27.233999 26.16
74.584 -27.136999 26.124001
74.572998 -27.042 26.087999
74.561996 -26.947001 26.052999
74.581001 -26.864 26.028
74.600998 -26.781 26.004
74.630997 -26.701 25.983
74.662003 -26.622 25.962
74.708 -26.549 25.945999
74.757004 -26.476999 25.931999
74.809998 -26.406 25.919001
74.848999 -26.33 25.900999
74.877998 -26.250999 25.879
74.880997 -26.160999 25.849001
74.875999 -26.069 25.816
74.867996 -25.976 25.782
74.870003 -25.886 25.750999
74.893997 -25.805 25.729
74.931999 -25.729 25.709999
74.982002 -25.657 25.695999
75.047997 -25.591 25.687
75.125 -25.528 25.681999
75.205002 -25.466999 25.677999
75.278999 -25.403 25.672001
75.346001 -25.337 25.663
75.401001 -25.266001 25.650999
75.438004 -25.188999 25.632
75.466003 -25.108999 25.610001
75.489998 -25.027 25.587
75.513 -24.945 25.563999
75.536003 -24.863001 25.540001
75.559998 -24.782 25.517
75.598 -24.705 25.497999
75.643997 -24.631001 25.482
75.699997 -24.559999 25.469999
75.763 -24.492001 25.459999
75.829002 -24.424999 25.451
75.901001 -24.358999 25.444
75.982002 -24.297001 25.438999
76.065002 -24.235001 25.436001
76.153 -24.174 25.434
76.234001 -24.112 25.429001
76.319 -24.049999 25.426001
76.400002 -23.987 25.422001
76.478996 -23.923 25.417
76.565002 -23.861 25.414
76.655998 -23.801001 25.413
76.763 -23.746 25.416
76.875 -23.691999 25.422001
76.987999 -23.639 25.427999
77.107002 -23.587 25.434999
77.230003 -23.535999 25.444
77.345001 -23.483 25.450001
77.458 -23.427999 25.455999
77.564003 -23.371 25.458
77.665001 -23.313 25.459999
77.763 -23.253 25.459999
77.924004 -23.212999 25.481001
78.110001 -23.181 25.51
78.313004 -23.153 25.544001
78.521004 -23.127001 25.579
78.844002 -23.136 25.652
79.012001 -23.096001 25.674
79.165001 -23.051001 25.691999
79.327003 -23.009001 25.711
79.498001 -22.969 25.733999
76.726997 -31.191 27.989
76.725998 -31.17 28.08
76.655998 -31.042999 28.021
76.568001 -30.91 27.955
76.469002 -30.771999 27.886
76.353996 -30.627001 27.811001
76.225998 -30.478001 27.732
76.092003 -30.327 27.65
75.959 -30.176001 27.569
75.824997 -30.025 27.488001
75.707001 -29.881001 27.413
75.602997 -29.743999 27.341999
75.511002 -29.612 27.277
75.433998 -29.486 27.216999
75.370003 -29.365999 27.160999
75.314003 -29.249001 27.108
75.269997 -29.138 27.059999
75.223 -29.025999 27.011
75.186996 -28.917999 26.966
75.143997 -28.808001 26.919001
75.102997 -28.698 26.872
75.053001 -28.584999 26.822001
75.004997 -28.474001 26.773001
74.955002 -28.361 26.723
74.899002 -28.247 26.671
74.845001 -28.132999 26.620001
74.805 -28.025 26.573999
74.764999 -27.917 26.528
74.732002 -27.813 26.483999
74.703003 -27.709999 26.441999
74.677002 -27.608 26.402
74.663002 -27.511 26.365
74.656998 -27.417999 26.330999
74.649002 -27.323 26.297001
74.635002 -27.226999 26.26
74.617996 -27.129 26.223
74.607002 -27.034 26.187
74.586998 -26.936001 26.149
74.606003 -26.851999 26.124001
74.626999 -26.768999 26.1
74.655998 -26.690001 26.077999
74.686996 -26.611 26.056999
74.734001 -26.538 26.042
74.788002 -26.466999 26.030001
74.843002 -26.396999 26.017
74.884003 -26.322001 26
74.914001 -26.243 25.979
74.913002 -26.152 25.947001
74.903 -26.058001 25.912001
74.893997 -25.964001 25.878
74.891998 -25.872999 25.846001
74.916 -25.792 25.823
74.953003 -25.715 25.804001
75.000999 -25.642 25.789
75.066002 -25.576 25.780001
75.143997 -25.514 25.775999
75.223999 -25.452 25.771
75.299004 -25.389 25.766001
75.364998 -25.322001 25.757
75.416 -25.25 25.743
75.448997 -25.171 25.723
75.473 -25.09 25.700001
75.492996 -25.007 25.674999
75.512001 -24.923 25.65
75.530998 -24.84 25.625
75.552002 -24.757 25.601
75.587997 -24.68 25.582001
75.632004 -24.605 25.566
75.689003 -24.535 25.554001
75.751999 -24.466 25.542999
75.820999 -24.4 25.535
75.893997 -24.334999 25.528999
75.976997 -24.273001 25.525
76.059998 -24.211 25.521
