# .PCD v0.7 - Point Cloud Data file format
VERSION 0.7
FIELDS x y z
SIZE 4 4 4
TYPE F F F
COUNT 1 1 1
WIDTH 1818
HEIGHT 1
VIEWPOINT 0 0 0 1 0 0 0
POINTS 1818
DATA ascii
11.082 -10.455 63.415001
11.152 -10.456 63.421001
11.226 -10.46 63.446999
11.301 -10.466 63.481998
11.377 -10.472 63.516998
11.451 -10.476 63.546001
11.525 -10.48 63.570999
11.598 -10.484 63.594002
11.671 -10.487 63.613998
11.744 -10.491 63.632
11.815 -10.491 63.638
11.884 -10.491 63.638
11.954 -10.492 63.640999
12.028 -10.496 63.667
12.11 -10.507 63.734001
12.196 -10.521 63.817001
12.286 -10.539 63.924999
12.372 -10.553 64.011002
12.478 -10.584 64.195999
12.62 -10.644 64.566002
12.727 -10.674 64.748001
12.822 -10.696 64.875999
12.906 -10.706 64.939003
12.97 -10.83 65.261002
12.976 -10.705 64.934998
13.045 -10.704 64.929001
13.122 -10.709 64.955002
13.209 -10.722 65.036003
13.305 -10.742 65.157997
13.404 -10.765 65.297997
13.648 -10.846 65.785004
14.071 -11.123 67.470001
14.21 -11.174 67.780998
14.339 -11.218 68.042
14.445 -11.242 68.193001
14.543 -11.261 68.306
14.63 -11.271 68.363998
14.716 -11.279 68.416
14.796 -11.283 68.441002
14.87 -11.283 68.439003
14.943 -11.282 68.431999
15.014 -11.279 68.416
15.078 -11.271 68.369003
15.137 -11.26 68.299004
15.194 -11.247 68.220001
15.251 -11.234 68.141998
15.311 -11.223 68.075996
15.375 -11.216 68.030998
15.442 -11.211 68
15.513 -11.208 67.986
15.587 -11.209 67.987999
15.666 -11.212 68.008003
15.748 -11.217 68.040001
15.831 -11.224 68.078003
15.912 -11.229 68.110001
15.993 -11.233 68.135002
16.070999 -11.236 68.151001
16.149 -11.238 68.168999
16.226 -11.24 68.178001
16.302 -11.241 68.186996
16.365999 -11.234 68.141998
16.214001 -10.835 65.719002
16.273001 -10.827 65.670998
16.344999 -10.826 65.668999
16.417 -10.827 65.670998
16.493999 -10.83 65.692001
16.580999 -10.84 65.753998
16.674 -10.855 65.839996
16.771 -10.871 65.939003
16.872999 -10.89 66.056
16.982 -10.914 66.198997
17.115 -10.953 66.434998
17.218 -10.972 66.553001
17.313999 -10.987 66.642998
17.4 -10.996 66.695
17.476 -10.997 66.706001
17.546 -10.996 66.698997
17.614 -10.993 66.68
17.68 -10.989 66.653
17.743 -10.983 66.620003
17.808001 -10.978 66.587997
17.871 -10.972 66.553001
17.933001 -10.966 66.513
17.996 -10.96 66.477997
18.059999 -10.955 66.448997
18.127001 -10.951 66.428001
18.195999 -10.949 66.415001
18.266001 -10.948 66.406998
18.336 -10.947 66.400002
18.406 -10.945 66.389999
18.475 -10.943 66.377998
18.544001 -10.941 66.364998
18.613001 -10.939 66.352997
18.681999 -10.937 66.343002
18.752001 -10.936 66.334
18.822001 -10.935 66.325996
18.892 -10.933 66.316002
18.961 -10.931 66.305
19.028999 -10.929 66.292
19.094999 -10.925 66.266998
19.157 -10.919 66.232002
19.216999 -10.912 66.190002
19.275999 -10.905 66.146004
19.334999 -10.897 66.098999
19.389 -10.888 66.041
19.441999 -10.877 65.975998
19.495001 -10.866 65.910004
19.548 -10.856 65.847
19.599001 -10.844 65.778999
19.652 -10.834 65.713997
19.702999 -10.822 65.646004
19.753 -10.811 65.574997
19.802 -10.798 65.499001
19.851999 -10.787 65.431
19.912001 -10.781 65.390999
19.972 -10.775 65.356003
20.032 -10.769 65.32
20.094999 -10.764 65.292999
-9.4780998 -10.962 66.492996
-9.4828997 -10.895 66.527
-9.4045 -10.888 66.486
-9.3999996 -10.956 66.454002
-9.3238001 -10.879 66.427002
-9.2435999 -10.87 66.372002
-9.1616001 -10.858 66.302002
-9.0769997 -10.844 66.211998
-8.9912004 -10.827 66.111
-8.9043999 -10.809 66.002998
-8.8151999 -10.788 65.874001
-8.7250996 -10.766 65.736
-8.6321001 -10.739 65.573997
-8.5405998 -10.714 65.420998
-8.4490995 -10.689 65.264999
-8.3565998 -10.661 65.098999
-8.2630997 -10.632 64.921997
-8.1689997 -10.602 64.737
-8.0804996 -10.579 64.594002
-7.9928999 -10.556 64.456001
-7.9081001 -10.537 64.337997
-7.8239999 -10.518 64.223
-7.7413998 -10.501 64.119003
-7.6603999 -10.486 64.026001
-7.5802999 -10.471 63.938999
-7.5005002 -10.457 63.854
-7.4215002 -10.444 63.772999
-7.3428001 -10.431 63.693001
-7.2642002 -10.418 63.612999
-7.1862998 -10.406 63.537998
-7.1087999 -10.394 63.464001
-7.0306001 -10.38 63.382999
-6.9527001 -10.367 63.303001
-6.8754001 -10.355 63.228001
-6.7996001 -10.344 63.164001
-6.7241001 -10.334 63.101002
-6.6508002 -10.327 63.058998
-6.5792999 -10.323 63.032001
-6.5103002 -10.322 63.029999
-6.4429002 -10.325 63.042
-6.3779998 -10.331 63.080002
-6.3144999 -10.339 63.132999
-6.2512999 -10.349 63.189999
-6.1876001 -10.358 63.243
-6.1220002 -10.363 63.278999
-6.0545998 -10.366 63.294998
-5.9854999 -10.366 63.292999
-5.914 -10.361 63.266998
-5.8404002 -10.353 63.217999
-5.7658 -10.343 63.155998
-5.6903 -10.331 63.082001
-5.6152 -10.319 63.011002
-5.5411 -10.309 62.949001
-5.4684 -10.302 62.903
-5.3968 -10.296 62.867001
-5.3260002 -10.292 62.841
-5.2558999 -10.288 62.821999
-5.1863999 -10.286 62.810001
-5.1160002 -10.283 62.785999
-5.0451999 -10.278 62.757999
-4.974 -10.272 62.723
-4.9025002 -10.266 62.681999
-4.8302999 -10.257 62.632
-4.7586999 -10.25 62.589001
-4.6875 -10.244 62.549
-4.6167998 -10.238 62.515999
-4.5471001 -10.235 62.494999
-4.4791002 -10.235 62.497002
-4.4124999 -10.239 62.519001
-4.3477998 -10.247 62.569
-4.2841001 -10.258 62.634998
-4.2213001 -10.271 62.716
-4.1585999 -10.285 62.801998
-4.0967002 -10.302 62.903
-4.0351 -10.32 63.012001
-3.9737999 -10.339 63.129002
-3.9116001 -10.357 63.237
-3.8505001 -10.378 63.366001
-3.7888 -10.398 63.488998
-3.7249999 -10.413 63.583
-3.6605999 -10.427 63.667999
-3.5957 -10.44 63.749001
-3.5295 -10.45 63.807999
-3.4625001 -10.458 63.855999
-3.3951001 -10.465 63.896999
-3.3269999 -10.469 63.926998
-3.2581999 -10.472 63.945
-3.1884 -10.472 63.944
-3.1180999 -10.47 63.931999
-3.0472 -10.466 63.908001
-2.9760001 -10.461 63.874001
-2.9043 -10.453 63.827999
-2.8327999 -10.447 63.787998
-2.7614999 -10.44 63.745998
-2.6919999 -10.44 63.747002
-2.6235001 -10.444 63.771999
-2.5558 -10.451 63.814999
-2.4879999 -10.459 63.862
-2.4203999 -10.468 63.915001
-2.3533001 -10.479 63.986
-2.2867999 -10.494 64.078003
-2.2207999 -10.512 64.189003
-2.155 -10.533 64.316002
-2.0908 -10.563 64.499001
-2.7304001 -14.789 90.301003
-2.6334 -14.797 90.351997
-2.5353 -14.8 90.366997
-2.4363999 -14.798 90.355003
-2.3371999 -14.793 90.328003
-2.2372999 -14.784 90.268997
-2.1371 -14.772 90.195999
-2.0365 -14.755 90.096001
-1.9363 -14.74 90.003998
-1.8361 -14.724 89.905998
-1.7364 -14.71 89.818001
-1.637 -14.696 89.735001
-1.5377001 -14.683 89.653
-1.4388 -14.671 89.580002
-1.3401999 -14.661 89.518997
-1.2419 -14.652 89.466003
-1.1437 -14.644 89.418999
-1.0458 -14.638 89.379997
-0.94797999 -14.633 89.349998
-0.85027999 -14.628 89.320999
-0.75269997 -14.625 89.299004
-0.65521002 -14.622 89.280998
-0.55774999 -14.619 89.264
-0.46035999 -14.617 89.250999
-0.36298999 -14.615 89.237
-0.26565999 -14.613 89.228996
-0.16835999 -14.612 89.223
-0.071075 -14.612 89.222
0.026208 -14.612 89.222
0.1235 -14.613 89.227997
0.2208 -14.614 89.232002
0.31812 -14.615 89.240997
0.41545001 -14.616 89.246002
0.51280999 -14.617 89.253998
0.61013001 -14.617 89.254997
0.70741999 -14.617 89.250999
0.80462003 -14.615 89.237999
0.90179998 -14.613 89.225998
0.99888003 -14.61 89.208
1.096 -14.608 89.196999
1.1931 -14.606 89.186996
1.2904 -14.606 89.184998
1.3875999 -14.606 89.183998
1.485 -14.608 89.195999
1.5825 -14.61 89.209999
1.6802 -14.613 89.228996
1.7779 -14.617 89.25
1.8757 -14.62 89.273003
1.9734 -14.623 89.290001
2.0711999 -14.627 89.310997
2.1689 -14.629 89.322998
2.2667 -14.631 89.337997
2.3643999 -14.633 89.350998
2.4625001 -14.637 89.375999
2.5609 -14.643 89.410004
2.6596 -14.649 89.447998
2.7584 -14.656 89.490997
2.8573 -14.663 89.532997
2.9561 -14.669 89.569
5.3506999 -11.042 66.975998
5.3494 -10.966 66.959999
5.4239998 -10.97 66.980003
5.4250002 -11.045 66.991997
5.4980998 -10.971 66.991997
5.5718002 -10.973 67.000999
5.645 -10.973 67.001999
5.7177 -10.972 66.999001
5.7897 -10.97 66.986
5.8604999 -10.966 66.960999
5.9292998 -10.958 66.913002
5.9967999 -10.949 66.852997
6.0627999 -10.936 66.776001
6.1279998 -10.922 66.693001
6.1911998 -10.906 66.591003
6.2547002 -10.89 66.495003
6.3182998 -10.875 66.400002
6.3827 -10.861 66.317001
6.4477 -10.849 66.241997
6.5145001 -10.84 66.186996
6.5819001 -10.832 66.139
6.6500001 -10.825 66.098999
6.7184 -10.819 66.063004
6.7873001 -10.814 66.032997
6.8562999 -10.81 66.003998
6.9257998 -10.806 65.981003
6.9954 -10.802 65.958
7.0650001 -10.799 65.936996
7.1346998 -10.795 65.917
7.2048001 -10.793 65.900002
7.2750001 -10.79 65.886002
7.3452001 -10.788 65.870003
7.4154 -10.785 65.856003
7.4857998 -10.783 65.844002
7.5563998 -10.782 65.833
7.6271 -10.78 65.824997
7.6984 -10.78 65.82
7.7698002 -10.779 65.817001
7.8418002 -10.779 65.819
7.9138999 -10.78 65.820999
7.9861002 -10.78 65.824997
8.0583 -10.781 65.828003
8.1304998 -10.781 65.832001
8.2025995 -10.782 65.834999
8.2746 -10.782 65.835999
8.3462 -10.782 65.834999
8.4154997 -10.779 65.816002
8.4834995 -10.774 65.786003
8.5487003 -10.766 65.737
8.6126003 -10.756 65.677002
8.6754999 -10.745 65.611
8.7371998 -10.733 65.538002
8.7994003 -10.722 65.469002
8.8622999 -10.712 65.405998
8.9256001 -10.702 65.347
8.9928999 -10.697 65.319
9.0628996 -10.696 65.309998
9.1344995 -10.696 65.313004
9.2068996 -10.698 65.320999
9.2797003 -10.7 65.332001
9.3527002 -10.702 65.344002
9.4249001 -10.703 65.350998
9.4966002 -10.703 65.353996
9.5681 -10.703 65.356003
9.6375999 -10.701 65.343002
9.7048998 -10.697 65.317001
9.7680998 -10.688 65.263
9.8276997 -10.676 65.186996
9.8857002 -10.662 65.100998
10.029 -10.588 64.651001
10.085 -10.573 64.560997
10.147 -10.564 64.503998
10.212 -10.558 64.471001
10.281 -10.557 64.461998
10.353 -10.559 64.475998
10.435 -10.571 64.550003
10.512 -10.577 64.585999
10.582 -10.578 64.587997
10.65 -10.575 64.569
10.703 -10.558 64.464996
10.745 -10.53 64.297997
10.843 -10.422 63.634998
10.892 -10.403 63.52
10.948 -10.39 63.438999
11.012 -10.385 63.410999
11.079 -10.383 63.396999
11.15 -10.385 63.410999
11.226 -10.391 63.445999
11.301 -10.397 63.483002
11.377 -10.402 63.516998
11.451 -10.407 63.542999
11.524 -10.41 63.567001
11.597 -10.413 63.584
11.668 -10.415 63.597
11.739 -10.417 63.605999
11.808 -10.416 63.602001
11.875 -10.415 63.591999
11.944 -10.414 63.588001
12.018 -10.418 63.611
12.096 -10.425 63.659
12.177 -10.436 63.721001
12.262 -10.448 63.798
12.343 -10.458 63.855999
12.428 -10.472 63.939999
12.519 -10.489 64.046997
12.661 -10.549 64.414001
12.756 -10.57 64.539001
12.845 -10.585 64.630997
12.924 -10.592 64.674004
13 -10.597 64.704002
13.074 -10.599 64.718002
13.16 -10.612 64.795998
13.254 -10.63 64.907997
13.348 -10.649 65.024002
13.973 -10.973 66.999001
14.136 -11.043 67.427002
14.285 -11.102 67.787003
14.405 -11.137 68.004997
14.515 -11.165 68.175003
14.612 -11.182 68.277
14.706 -11.197 68.367996
14.792 -11.206 68.422997
14.872 -11.21 68.445999
14.945 -11.209 68.440002
15.017 -11.206 68.427002
15.08 -11.198 68.377998
15.136 -11.184 68.292
15.189 -11.169 68.196999
15.242 -11.153 68.101997
15.3 -11.141 68.026001
15.363 -11.133 67.978996
15.429 -11.127 67.945
15.5 -11.125 67.93
15.575 -11.125 67.932999
15.653 -11.129 67.953003
15.735 -11.134 67.986
15.819 -11.141 68.027
15.901 -11.146 68.060997
15.982 -11.151 68.091003
16.062 -11.155 68.112999
16.141001 -11.159 68.136002
16.219 -11.161 68.151001
16.157 -10.845 65.780998
16.197001 -10.752 65.653
16.26 -10.746 65.615997
16.333 -10.747 65.621002
16.408001 -10.75 65.637001
16.49 -10.756 65.679001
16.582001 -10.77 65.760002
16.681 -10.787 65.864998
16.782 -10.806 65.983002
16.888 -10.827 66.112999
17.037001 -10.877 66.414001
17.145 -10.899 66.552002
17.245001 -10.917 66.660004
17.337999 -10.93 66.737999
17.423 -10.937 66.783997
17.497 -10.938 66.790001
17.566 -10.936 66.775002
17.629999 -10.93 66.741997
17.690001 -10.923 66.694
17.747999 -10.914 66.639
17.808001 -10.905 66.587997
17.865999 -10.897 66.536003
17.927 -10.89 66.494003
17.99 -10.884 66.457001
18.055 -10.879 66.429001
18.122999 -10.877 66.413002
18.194 -10.876 66.406998
18.266001 -10.875 66.405998
18.337999 -10.875 66.403999
18.408001 -10.874 66.398003
18.478001 -10.873 66.389
18.548 -10.871 66.378998
18.617001 -10.869 66.365997
18.686001 -10.867 66.356003
18.756001 -10.866 66.348
18.826 -10.864 66.338997
18.896 -10.863 66.331001
18.965 -10.861 66.32
19.034 -10.859 66.306999
19.097 -10.854 66.275002
19.157 -10.847 66.233002
19.215 -10.839 66.184998
19.273001 -10.831 66.134003
19.327999 -10.821 66.075996
19.381001 -10.811 66.011002
19.434 -10.8 65.945999
19.485001 -10.789 65.875999
19.539 -10.779 65.817001
19.591999 -10.769 65.754997
19.646 -10.759 65.695999
19.700001 -10.749 65.635002
19.750999 -10.738 65.569
19.801001 -10.727 65.498001
19.853001 -10.716 65.431999
19.912001 -10.71 65.392998
19.973 -10.704 65.359001
20.033001 -10.698 65.322998
20.096001 -10.694 65.295998
-9.4881001 -10.829 66.564003
-9.4095001 -10.822 66.521004
-9.3284998 -10.812 66.460999
-9.2479 -10.802 66.402
-9.1647997 -10.79 66.324997
-9.0796003 -10.775 66.231003
-8.9933996 -10.758 66.127998
-8.9048004 -10.738 66.005997
-8.8135004 -10.714 65.861
-8.7213001 -10.689 65.708
-8.6267004 -10.661 65.532997
-8.5319004 -10.632 65.353996
-8.4377003 -10.603 65.177002
-8.3424997 -10.572 64.988998
-8.2454996 -10.539 64.783997
-8.1528997 -10.511 64.610001
-8.0663996 -10.49 64.481003
-7.9811001 -10.47 64.360001
-7.8972998 -10.452 64.249001
-7.8144999 -10.435 64.144997
-7.7337999 -10.421 64.056
-7.6538 -10.407 63.971001
-7.5745001 -10.394 63.889999
-7.4951 -10.38 63.807999
-7.4162998 -10.367 63.729
-7.3376999 -10.355 63.648998
-7.2596002 -10.342 63.573002
-7.1822 -10.331 63.501999
-7.1051998 -10.319 63.432999
-7.0275998 -10.307 63.355999
-6.9500999 -10.294 63.278999
-6.8734999 -10.283 63.209999
-6.7978001 -10.273 63.146999
-6.7224998 -10.263 63.085999
-6.6490002 -10.256 63.041
-6.5770998 -10.251 63.011002
-6.5079999 -10.25 63.007999
-6.4403 -10.252 63.018002
-6.375 -10.257 63.050999
-6.3109999 -10.265 63.098
-6.2476001 -10.274 63.153
-6.1834998 -10.282 63.201
-6.1176 -10.287 63.233002
-6.0500998 -10.289 63.248001
-5.9808998 -10.289 63.245998
-5.9092002 -10.284 63.216
-5.8351998 -10.275 63.161999
-5.7602 -10.264 63.094002
-5.6848998 -10.252 63.021
-5.6100001 -10.241 62.952999
-5.5363002 -10.232 62.895
-5.4640002 -10.225 62.852001
-5.3927002 -10.22 62.82
-5.3223 -10.216 62.797001
-5.2523999 -10.213 62.780998
-5.1833 -10.212 62.771999
-5.1132002 -10.209 62.751999
-5.0427999 -10.205 62.728001
-4.9720998 -10.2 62.698002
-4.9008999 -10.194 62.662998
-4.8292999 -10.187 62.618999
-4.7579999 -10.181 62.580002
-4.6872001 -10.175 62.544998
-4.6169 -10.17 62.516998
-4.5474 -10.167 62.499001
-4.4797001 -10.168 62.505001
-4.4138999 -10.174 62.537998
-4.3497 -10.183 62.596001
-4.2865 -10.195 62.669998
-4.2241001 -10.209 62.757
-4.1617999 -10.225 62.849998
-4.0998001 -10.241 62.951
-4.0379 -10.258 63.056999
-3.9761 -10.276 63.167
-3.9135001 -10.292 63.268002
-3.8508999 -10.31 63.373001
-3.7879 -10.326 63.474998
-3.7235999 -10.34 63.558998
-3.6589 -10.353 63.639
-3.5940001 -10.366 63.717999
-3.5276999 -10.375 63.775002
-3.4612 -10.384 63.832001
-3.3945 -10.393 63.886002
-3.3271 -10.4 63.93
-3.2590001 -10.405 63.960999
-3.1898999 -10.407 63.973999
-3.1199 -10.407 63.970001
-3.0493 -10.404 63.952
-2.9784999 -10.4 63.928001
-2.9072001 -10.394 63.894001
-2.8357999 -10.388 63.854
-2.7646 -10.382 63.818001
-2.694 -10.378 63.792999
-2.6243 -10.377 63.790001
-2.5555 -10.381 63.810001
-2.4870999 -10.386 63.84
-2.4189 -10.392 63.876999
-2.3513 -10.401 63.932999
-2.2841001 -10.412 64.001999
-2.2172 -10.426 64.085999
-2.1507001 -10.442 64.184998
-2.085 -10.464 64.319
-2.0188999 -10.485 64.447998
-2.73 -14.689 90.290001
-2.6343999 -14.705 90.388
-2.5369999 -14.711 90.429001
-2.4386001 -14.712 90.434998
-2.3397 -14.71 90.422997
-2.2400999 -14.704 90.383003
-2.1400001 -14.693 90.318001
-2.0395999 -14.679 90.231003
-1.9391 -14.664 90.136002
-1.8389 -14.648 90.040001
-1.7388999 -14.633 89.947998
-1.6393 -14.619 89.862999
-1.5398999 -14.606 89.782997
-1.4408 -14.594 89.708
-1.3421 -14.583 89.643997
-1.2436 -14.575 89.592003
-1.1453 -14.568 89.545998
-1.0472 -14.561 89.507004
-0.94932997 -14.556 89.476997
-0.85153002 -14.552 89.452003
-0.75379997 -14.548 89.429001
-0.65618002 -14.546 89.413002
-0.55858999 -14.543 89.398003
-0.46101999 -14.54 89.378998
-0.3635 -14.538 89.362999
-0.26603001 -14.536 89.351997
-0.16858 -14.534 89.342003
-0.071167 -14.533 89.336998
0.026240001 -14.533 89.333
0.12365 -14.533 89.334
0.22104999 -14.533 89.333
0.31848001 -14.534 89.341003
0.41589999 -14.534 89.341003
0.51331002 -14.534 89.341003
0.61067998 -14.533 89.334999
0.708 -14.531 89.323997
0.80520999 -14.528 89.303001
0.90235001 -14.524 89.279999
0.99937999 -14.52 89.252998
1.0964 -14.516 89.231003
1.1935 -14.513 89.212997
1.2905999 -14.512 89.204002
1.3878 -14.511 89.197998
1.4852 -14.513 89.209
1.5828 -14.515 89.223
1.6804 -14.518 89.242996
1.7781 -14.521 89.263
1.876 -14.526 89.289001
1.9737 -14.528 89.305
2.0715001 -14.532 89.324997
2.1691999 -14.533 89.334999
2.2669001 -14.535 89.346001
5.2739 -10.961 66.928001
5.2726998 -10.886 66.914001
5.3481002 -10.89 66.944
5.4229999 -10.894 66.967003
5.4970999 -10.896 66.980003
5.5709 -10.898 66.989998
5.6441998 -10.899 66.992996
5.7171998 -10.898 66.991997
5.7891998 -10.897 66.981003
5.8600998 -10.892 66.956001
5.9287 -10.884 66.906998
5.9960999 -10.874 66.844002
6.0619001 -10.862 66.765999
6.1268001 -10.848 66.68
6.1894002 -10.83 66.571999
6.2529998 -10.814 66.475998
6.3165002 -10.799 66.382004
6.3811002 -10.786 66.301003
6.4464002 -10.774 66.228996
6.5134001 -10.766 66.177002
6.5812001 -10.758 66.132004
6.6494999 -10.752 66.095001
6.7182999 -10.747 66.061996
6.7873998 -10.742 66.033997
6.8565001 -10.738 66.005997
6.9261999 -10.734 65.984001
6.9959002 -10.731 65.962997
7.0654998 -10.728 65.942001
7.1355 -10.725 65.924004
7.2056999 -10.722 65.907997
7.2761998 -10.72 65.896004
7.3466001 -10.718 65.884003
7.4172001 -10.716 65.872002
7.4879999 -10.715 65.862999
7.559 -10.714 65.856003
7.6300998 -10.713 65.849998
7.7017002 -10.712 65.848
7.7733002 -10.712 65.847
7.8453002 -10.712 65.848999
7.9173002 -10.713 65.849998
7.9895 -10.713 65.853996
8.0614996 -10.713 65.855003
8.1335001 -10.714 65.857002
8.2054005 -10.714 65.857002
8.2770996 -10.714 65.856003
8.3485003 -10.713 65.853996
8.4195004 -10.712 65.847
8.4895 -10.71 65.833
8.5571003 -10.705 65.801003
8.6238003 -10.698 65.763
8.6898003 -10.691 65.719002
8.7551003 -10.684 65.670998
8.8199997 -10.675 65.622002
8.8845997 -10.667 65.570999
8.9498997 -10.66 65.525002
9.0170002 -10.655 65.492996
9.0857 -10.651 65.473999
9.1562004 -10.65 65.467003
9.2272997 -10.65 65.464996
9.2985001 -10.65 65.463997
9.3699999 -10.65 65.464996
9.4408998 -10.649 65.461998
9.5114002 -10.648 65.456001
9.5818996 -10.647 65.449997
9.6507998 -10.645 65.432999
9.7187996 -10.641 65.411003
9.7826004 -10.633 65.361
9.8435001 -10.622 65.292
9.9042997 -10.611 65.223
9.9622002 -10.597 65.137001
10.081 -10.572 64.984001
10.178 -10.526 64.702003
10.244 -10.521 64.674004
10.331 -10.539 64.779999
10.407 -10.543 64.808998
10.476 -10.542 64.801003
10.545 -10.54 64.792
10.614 -10.539 64.781998
10.677 -10.531 64.736
10.726 -10.51 64.607002
10.761 -10.475 64.390999
10.884 -10.326 63.473999
10.942 -10.315 63.404999
11.008 -10.312 63.388
11.076 -10.311 63.382999
11.149 -10.315 63.405998
11.225 -10.321 63.445
11.302 -10.328 63.484001
11.377 -10.333 63.519001
11.451 -10.338 63.548
11.524 -10.341 63.564999
11.595 -10.343 63.577999
11.735 -10.344 63.584
11.802 -10.342 63.571999
11.868 -10.339 63.554001
11.935 -10.337 63.541
12.006 -10.338 63.549
12.081 -10.343 63.580002
12.159 -10.35 63.624001
12.24 -10.36 63.682999
12.319 -10.369 63.736
12.401 -10.379 63.798
12.487 -10.393 63.882999
12.575 -10.408 63.977001
12.668 -10.427 64.093002
12.766 -10.45 64.234001
12.867 -10.476 64.392998
12.958 -10.492 64.491997
13.032 -10.495 64.512001
13.116 -10.506 64.578003
13.206 -10.521 64.674004
13.293 -10.535 64.755997
13.39 -10.556 64.886002
14.208 -10.968 67.420998
14.347 -11.019 67.731003
14.469 -11.056 67.959999
14.58 -11.083 68.127998
14.686 -11.107 68.277
14.78 -11.122 68.369003
14.867 -11.132 68.426003
14.947 -11.135 68.448997
15.019 -11.133 68.436996
15.083 -11.126 68.390999
15.136 -11.11 68.292999
15.186 -11.092 68.183998
15.234 -11.073 68.066002
15.288 -11.059 67.976997
15.351 -11.05 67.925003
15.416 -11.044 67.887001
15.488 -11.042 67.875999
15.562 -11.043 67.878998
15.642 -11.046 67.902
15.723 -11.052 67.934998
15.806 -11.058 67.970001
15.889 -11.064 68.009003
15.972 -11.07 68.046997
16.052999 -11.075 68.077003
16.135 -11.08 68.109001
16.197001 -10.68 65.652
16.261 -10.675 65.621002
16.336 -10.678 65.636002
16.414 -10.682 65.661003
16.5 -10.691 65.718002
16.596001 -10.707 65.814003
16.698 -10.726 65.932999
16.802 -10.747 66.058998
16.91 -10.77 66.200996
17.066999 -10.824 66.531998
17.171 -10.843 66.652
17.268 -10.858 66.746002
17.358999 -10.87 66.819
17.444 -10.877 66.862999
17.517 -10.878 66.863998
17.582001 -10.873 66.834999
17.643 -10.865 66.789001
17.698999 -10.855 66.726997
17.752001 -10.843 66.652
17.806999 -10.832 66.585999
17.864 -10.823 66.528
17.924 -10.815 66.480003
17.986 -10.809 66.441002
18.049999 -10.804 66.412003
18.118999 -10.802 66.400002
18.191 -10.802 66.398003
18.264 -10.802 66.401001
18.337 -10.803 66.403
18.409 -10.802 66.401001
18.48 -10.801 66.394997
18.549999 -10.8 66.387001
18.620001 -10.798 66.376999
18.690001 -10.797 66.369003
18.76 -10.796 66.361
18.83 -10.795 66.353996
18.900999 -10.793 66.347
18.969999 -10.792 66.336998
19.039 -10.79 66.327003
19.101999 -10.785 66.293999
19.163 -10.778 66.251999
19.218 -10.769 66.195
19.271999 -10.758 66.130997
19.323 -10.747 66.059998
19.375 -10.736 65.992996
19.426001 -10.724 65.919998
19.476 -10.712 65.845001
19.528 -10.701 65.780998
19.583 -10.692 65.722
19.639 -10.684 65.671997
19.695 -10.675 65.619003
19.75 -10.666 65.563004
19.801001 -10.655 65.498001
19.855 -10.646 65.438004
19.915001 -10.64 65.402
19.976999 -10.635 65.371002
20.038 -10.629 65.335999
20.101 -10.625 65.309998
-9.4937 -10.762 66.602997
-9.4146004 -10.755 66.556999
-9.3338003 -10.746 66.498001
-9.2524996 -10.735 66.434998
-9.1691999 -10.723 66.356003
-9.0839996 -10.707 66.263
-8.9949999 -10.688 66.139999
-8.9041996 -10.665 66.000999
-8.8102999 -10.639 65.836998
-8.7158003 -10.611 65.666
-8.6183996 -10.579 65.470001
-8.4215002 -10.512 65.052002
-8.2254 -10.443 64.625999
-8.1377001 -10.421 64.488998
-8.0537004 -10.403 64.379997
-7.9695001 -10.385 64.266998
-7.8874998 -10.369 64.169998
-7.8067002 -10.355 64.081001
-7.7273002 -10.342 64.001999
-7.6483998 -10.33 63.925999
-7.5693002 -10.317 63.847
-7.4903998 -10.304 63.766998
-7.4116998 -10.292 63.688999
-7.3334999 -10.279 63.612999
-7.2556 -10.267 63.537998
-7.1784 -10.256 63.467999
-7.1020999 -10.246 63.404999
-7.0249 -10.234 63.332001
-6.948 -10.222 63.259998
-6.8719001 -10.212 63.195
-6.7968998 -10.203 63.138
-6.7217002 -10.193 63.078999
-6.6479998 -10.185 63.032001
-6.5759001 -10.18 62.999001
-6.5067 -10.179 62.994999
-6.4387999 -10.181 63.002998
-6.3731999 -10.186 63.033001
-6.3088002 -10.193 63.076
-6.2454 -10.201 63.131001
-6.1805 -10.208 63.171001
-6.1142001 -10.212 63.196999
-6.0465002 -10.214 63.209999
-5.9773002 -10.214 63.207001
-5.9052 -10.208 63.173
-5.8309002 -10.199 63.113998
-5.7554998 -10.187 63.042999
-5.6802001 -10.175 62.970001
-5.6057 -10.165 62.903999
-5.5321999 -10.156 62.848
-5.4603 -10.149 62.808998
-5.3892999 -10.145 62.780998
-5.3193002 -10.142 62.762001
-5.2497001 -10.14 62.748001
-5.1809001 -10.139 62.743
-5.1110001 -10.136 62.724998
-5.0409999 -10.133 62.705002
-4.9706001 -10.128 62.68
-4.8999 -10.124 62.650002
-4.8285999 -10.117 62.611
-4.7577 -10.112 62.576
-4.6870999 -10.107 62.543999
-4.6170998 -10.103 62.52
-4.5479002 -10.1 62.505001
-4.4808998 -10.103 62.521999
-4.4157 -10.11 62.563999
-4.3520999 -10.12 62.630001
-4.2893 -10.133 62.709999
-4.2273002 -10.149 62.805
-4.1652002 -10.164 62.901001
-4.1037002 -10.182 63.011002
-4.0418 -10.199 63.117001
-3.9791 -10.215 63.214001
-3.9158001 -10.23 63.305
-3.8505001 -10.239 63.367001
-3.7850001 -10.249 63.425999
-3.7204001 -10.262 63.504002
-3.6564 -10.276 63.595001
-3.5911 -10.288 63.667
-3.5251 -10.298 63.729
-3.4591999 -10.309 63.793999
-3.3931 -10.319 63.859001
-3.3262999 -10.328 63.915001
-3.2588999 -10.335 63.959
-3.1905 -10.339 63.985001
-3.1208 -10.34 63.987999
-3.0506001 -10.338 63.978001
-2.98 -10.335 63.959999
-2.9091001 -10.331 63.935001
-2.8381 -10.327 63.905998
-2.7671001 -10.322 63.875
-2.6963 -10.317 63.848
-2.6257999 -10.314 63.827
-2.556 -10.313 63.823002
-2.4872 -10.316 63.842999
-2.4187 -10.321 63.870998
-2.3506 -10.328 63.914001
-2.2829001 -10.337 63.969002
-2.2155001 -10.348 64.038002
-2.1482999 -10.36 64.114998
-2.0815001 -10.376 64.209
-2.0148001 -10.393 64.317001
-1.9493999 -10.418 64.472
-2.6352 -14.61 90.415001
-2.5386 -14.621 90.484001
-2.4407001 -14.626 90.514
-2.3422 -14.627 90.519997
-2.2428 -14.623 90.491997
-2.1431 -14.616 90.446999
-2.0425999 -14.603 90.367996
-1.9421999 -14.588 90.278999
-1.8418 -14.572 90.181
-1.7417001 -14.558 90.089996
-1.6418 -14.543 90.001999
-1.5423 -14.531 89.921997
-1.4431 -14.519 89.848
-1.3442 -14.508 89.782997
-1.2455 -14.499 89.727997
-1.1471 -14.492 89.681999
-1.0489 -14.486 89.643997
-0.95077002 -14.481 89.612999
-0.85282999 -14.477 89.588997
-0.75498998 -14.474 89.57
-0.65720999 -14.471 89.554001
-0.55948001 -14.469 89.541
-0.46178001 -14.467 89.526001
-0.36409 -14.464 89.508003
-0.26644999 -14.461 89.494003
-0.16884001 -14.459 89.477997
-0.071269996 -14.457 89.466003
0.026276 -14.455 89.455002
0.1238 -14.454 89.445999
0.22130001 -14.452 89.435997
0.3188 -14.451 89.431
0.41628 -14.45 89.422997
0.51374 -14.449 89.416
0.61114001 -14.447 89.402
0.70846999 -14.444 89.384003
0.80566001 -14.439 89.353996
0.90278 -14.434 89.323997
0.99976999 -14.428 89.287003
1.0968 -14.423 89.259003
1.1938 -14.419 89.234001
1.2908 -14.417 89.218002
1.3879 -14.415 89.207001
1.4852999 -14.416 89.213997
1.5828 -14.418 89.223999
5.1204 -10.872 66.830002
5.1198001 -10.798 66.821999
5.1957002 -10.804 66.861
5.1966 -10.879 66.873001
5.2714 -10.81 66.897003
5.3464999 -10.814 66.924004
5.4215999 -10.819 66.949997
5.4959002 -10.821 66.966003
5.5697999 -10.823 66.976997
5.6431999 -10.824 66.981003
5.7161999 -10.823 66.981003
5.7880998 -10.821 66.968002
5.8589001 -10.817 66.942001
5.9274001 -10.809 66.891998
5.9945998 -10.799 66.827003
6.0601001 -10.786 66.747002
6.1245999 -10.771 66.656998
6.1870999 -10.753 66.546997
6.2505999 -10.738 66.450996
6.3144002 -10.723 66.360001
6.3792 -10.71 66.280998
6.4449 -10.7 66.213997
6.5124002 -10.692 66.166
6.5805001 -10.685 66.125
6.6492 -10.68 66.092003
6.7182002 -10.675 66.060997
6.7874999 -10.671 66.035004
6.8569002 -10.667 66.010002
6.9264998 -10.663 65.987
6.9963002 -10.66 65.967003
7.0661001 -10.657 65.946999
7.1362 -10.654 65.93
7.2066002 -10.652 65.917
7.2772999 -10.65 65.905998
7.348 -10.648 65.896004
7.4189 -10.647 65.887001
7.4899998 -10.646 65.879997
7.5612001 -10.645 65.875
7.6325002 -10.644 65.871002
7.7041998 -10.644 65.870003
7.7758999 -10.644 65.869003
7.848 -10.644 65.871002
7.9198999 -10.644 65.872002
7.9920001 -10.645 65.874001
8.0640001 -10.645 65.875
8.1358995 -10.645 65.875999
8.2076998 -10.645 65.875999
8.2792997 -10.645 65.874001
8.3506002 -10.644 65.870003
8.4215002 -10.643 65.862999
8.4914999 -10.641 65.848
8.5609999 -10.638 65.831001
8.6299 -10.634 65.808998
8.6984997 -10.63 65.785004
8.7665005 -10.626 65.757004
8.8344002 -10.621 65.728996
8.9022999 -10.617 65.700996
8.9701004 -10.612 65.672997
9.0383997 -10.608 65.649002
9.1073999 -10.605 65.629997
9.1766005 -10.603 65.612999
9.2461004 -10.6 65.598999
9.3157997 -10.598 65.585999
9.3853998 -10.596 65.572998
9.4546003 -10.593 65.556999
9.5235996 -10.591 65.539001
9.5927 -10.588 65.523003
9.6617002 -10.585 65.507004
9.7307997 -10.583 65.490997
9.7960997 -10.576 65.450996
9.8585997 -10.567 65.391998
9.9221001 -10.558 65.341003
9.9834995 -10.548 65.276001
10.045 -10.538 65.214996
10.02 -10.582 65.049004
10.109 -10.531 65.169998
10.176 -10.527 65.142998
10.244 -10.523 65.121002
10.314 -10.522 65.113998
10.387 -10.524 65.125
10.456 -10.522 65.112999
10.519 -10.514 65.068001
10.582 -10.506 65.017998
10.646 -10.5 64.976997
10.712 -10.495 64.945
10.754 -10.466 64.769997
10.877 -10.25 63.43
10.936 -10.24 63.373001
11.004 -10.24 63.368
11.074 -10.24 63.370998
11.148 -10.244 63.396999
11.224 -10.251 63.439999
11.301 -10.258 63.480999
11.376 -10.264 63.515999
11.451 -10.269 63.546001
11.523 -10.271 63.563
11.595 -10.273 63.573002
11.665 -10.274 63.577999
11.733 -10.272 63.57
11.798 -10.269 63.549999
11.863 -10.265 63.527
11.929 -10.262 63.508999
11.997 -10.262 63.504002
12.07 -10.264 63.519001
12.144 -10.268 63.546001
12.221 -10.275 63.588001
12.3 -10.283 63.637001
12.381 -10.293 63.695
12.464 -10.304 63.764999
12.549 -10.316 63.842999
12.635 -10.33 63.926998
12.724 -10.345 64.023003
12.811 -10.36 64.110001
12.898 -10.374 64.196999
12.98 -10.383 64.252998
13.065 -10.395 64.325996
13.155 -10.411 64.426003
13.247 -10.428 64.531998
13.34 -10.445 64.640999
13.434 -10.464 64.755997
13.483 -10.573 64.989998
13.541 -10.492 64.929001
14.392 -10.923 67.595001
14.515 -10.96 67.825996
14.637 -10.996 68.049004
14.744 -11.021 68.200996
14.84 -11.037 68.300003
14.927 -11.046 68.360001
15.007 -11.05 68.383003
15.279 -10.978 67.935997
15.341 -10.969 67.883003
15.408 -10.964 67.848999
15.479 -10.962 67.835999
15.554 -10.962 67.841003
15.633 -10.966 67.862
15.714 -10.971 67.894997
15.796 -10.977 67.929001
15.88 -10.984 67.972
15.964 -10.99 68.012001
16.046 -10.996 68.044998
16.138 -10.689 65.704002
16.143 -10.62 65.722
16.209999 -10.617 65.702003
16.280001 -10.616 65.695999
16.356001 -10.619 65.712997
16.434999 -10.623 65.741997
16.523001 -10.634 65.808998
16.622 -10.652 65.917
16.726999 -10.673 66.046997
16.836 -10.697 66.195
16.993999 -10.751 66.528999
17.099001 -10.771 66.655998
17.198 -10.787 66.757004
17.291 -10.8 66.837997
17.379 -10.81 66.896004
17.461 -10.815 66.93
17.532 -10.814 66.922997
17.594999 -10.808 66.884003
17.652 -10.798 66.823997
17.705999 -10.787 66.753998
17.757999 -10.774 66.674004
17.809 -10.761 66.593002
17.864 -10.75 66.528
17.923 -10.742 66.475998
17.983 -10.735 66.432999
18.047001 -10.73 66.402
18.117001 -10.728 66.390999
18.188999 -10.728 66.390999
18.263 -10.729 66.396004
18.337 -10.73 66.401001
18.409 -10.73 66.400002
18.481001 -10.729 66.398003
18.551001 -10.728 66.391998
18.622 -10.727 66.384003
18.691999 -10.726 66.378998
18.763 -10.725 66.373001
18.834 -10.725 66.369003
18.906 -10.724 66.363998
18.976 -10.723 66.358002
19.046 -10.721 66.348999
19.108999 -10.716 66.316002
19.169001 -10.709 66.273003
19.221001 -10.698 66.205002
19.27 -10.685 66.125999
19.318001 -10.672 66.042
19.365999 -10.659 65.960999
19.414 -10.646 65.879997
19.461 -10.632 65.795998
19.514999 -10.622 65.735001
19.570999 -10.614 65.684998
19.629 -10.606 65.638
19.688999 -10.6 65.598999
19.747 -10.593 65.555
19.802999 -10.585 65.503998
19.858999 -10.576 65.450996
19.921 -10.572 65.420998
19.983 -10.567 65.392998
20.045 -10.562 65.362
20.108999 -10.558 65.336998
-9.5712996 -10.768 66.638
-9.4991999 -10.696 66.641998
-9.4198999 -10.688 66.594002
-9.3395004 -10.68 66.539001
-9.2587004 -10.67 66.480003
-9.1749001 -10.657 66.398003
-9.0869999 -10.639 66.285004
-8.9948997 -10.615 66.139
-8.9012003 -10.59 65.978996
-8.8042002 -10.56 65.791
-8.7062998 -10.528 65.595001
-8.6047001 -10.491 65.365997
-8.5029001 -10.454 65.132004
-8.2096004 -10.353 64.501999
-8.1239996 -10.333 64.380997
-8.0414 -10.317 64.280998
-7.9591999 -10.302 64.183998
-7.8793001 -10.289 64.102997
-7.8000002 -10.276 64.026001
-7.7214999 -10.265 63.953999
-7.6434002 -10.253 63.883999
-7.5646 -10.241 63.806999
-7.4861002 -10.229 63.730999
-7.4071999 -10.216 63.650002
-7.3291001 -10.204 63.575001
-7.2515001 -10.192 63.502998
-7.1747999 -10.182 63.436001
-7.0988998 -10.172 63.375999
-7.0222001 -10.161 63.307999
-6.9459 -10.15 63.242001
-6.8706002 -10.141 63.182999
-6.796 -10.132 63.130001
-6.7213001 -10.124 63.075001
-6.6475 -10.116 63.027
-6.5750999 -10.11 62.992001
-6.5058999 -10.109 62.987
-6.4379001 -10.11 62.993
-6.3719001 -10.115 63.02
-6.3072 -10.121 63.060001
-6.2435999 -10.13 63.112999
-6.1781998 -10.135 63.146999
-6.1114001 -10.139 63.168999
-6.0433998 -10.14 63.178001
-5.974 -10.139 63.172001
-5.9017 -10.133 63.134998
-5.8264999 -10.122 63.067001
-5.7512002 -10.111 62.994999
-5.6763 -10.1 62.925999
-5.6019001 -10.089 62.862
-5.5286999 -10.081 62.807999
-5.4570999 -10.075 62.771999
-5.3866 -10.071 62.748001
-5.3167 -10.068 62.730999
-5.2474999 -10.067 62.721001
-5.1789999 -10.067 62.720001
-5.1094999 -10.064 62.706001
-5.0398002 -10.062 62.689999
-4.9698 -10.059 62.669998
-4.8994002 -10.054 62.643002
-4.8284998 -10.049 62.609001
-4.7578001 -10.044 62.577
-4.6873999 -10.039 62.549
-4.6176 -10.036 62.527
-4.5489998 -10.035 62.521
-4.4826002 -10.039 62.546001
-4.4179001 -10.046 62.595001
-4.3548002 -10.058 62.668999
-4.2923999 -10.072 62.756001
-4.2305999 -10.088 62.854
-4.1691999 -10.105 62.962002
-4.1076999 -10.123 63.071999
-4.0468998 -10.143 63.195999
-3.9828999 -10.156 63.273998
-3.9166999 -10.163 63.319
-3.8496001 -10.168 63.351002
-3.7821 -10.172 63.377998
-3.7151999 -10.178 63.415001
-3.6492 -10.187 63.471001
-3.5868001 -10.206 63.591
-3.5216999 -10.219 63.666
-3.4563 -10.231 63.742001
-3.3907001 -10.242 63.814999
-3.3246 -10.253 63.882
-3.2579 -10.262 63.938999
-3.1901 -10.268 63.977001
-3.1210999 -10.271 63.993
-3.0511999 -10.27 63.990002
-2.9809 -10.269 63.98
-2.9103 -10.266 63.962002
-2.8397 -10.263 63.941002
-2.7690001 -10.259 63.918999
-2.6982999 -10.255 63.896
-2.6278 -10.252 63.875
-2.5576999 -10.25 63.863998
-2.4881001 -10.25 63.863998
-2.4193001 -10.254 63.886002
-2.3508999 -10.259 63.919998
-2.2828 -10.266 63.965
-2.2149 -10.275 64.019997
-2.1473999 -10.286 64.085999
-2.0799 -10.298 64.162003
-2.0128 -10.312 64.250999
-1.9457999 -10.329 64.355003
-1.8809 -10.358 64.533997
-2.5401001 -14.531 90.538002
-2.4426999 -14.54 90.588997
-2.3445001 -14.543 90.610001
-2.2455001 -14.542 90.600998
-2.1459999 -14.537 90.572998
-2.0459001 -14.527 90.511002
-1.9454 -14.514 90.429001
-1.8447 -14.498 90.327003
-1.7446001 -14.484 90.239998
-1.6445 -14.469 90.149002
-1.5448999 -14.456 90.069
-1.4454 -14.444 89.994003
-1.3464 -14.434 89.93
-1.2476 -14.425 89.877998
-1.149 -14.418 89.834
-1.0506001 -14.412 89.796997
-0.95243001 -14.408 89.769997
-0.85431999 -14.404 89.745003
-0.75629997 -14.401 89.725998
-0.65834999 -14.398 89.709
-0.56042999 -14.396 89.692001
-0.46252999 -14.393 89.672997
-0.36467001 -14.389 89.650002
-0.26686001 -14.386 89.629997
-0.16908 -14.382 89.607002
-0.071364 -14.378 89.584999
0.026308 -14.375 89.563004
0.12394 -14.372 89.544998
0.22153001 -14.369 89.526001
0.31909001 -14.367 89.510002
0.41661 -14.364 89.494003
0.51411003 -14.362 89.480003
0.61150998 -14.358 89.456001
0.70884001 -14.354 89.43
0.80603999 -14.348 89.396004
0.90315002 -14.342 89.360001
1.0001 -14.335 89.317001
1.097 -14.33 89.279999
1.1939 -14.324 89.247002
1.2909 -14.321 89.223999
1.3879 -14.318 89.208
4.9713001 -10.792 66.785004
4.9716001 -10.72 66.789001
5.0443001 -10.719 66.788002
5.0451999 -10.794 66.799004
5.1188002 -10.723 66.808998
5.1943998 -10.729 66.844002
5.2698002 -10.734 66.876999
5.3446999 -10.738 66.901001
5.4201002 -10.743 66.931
5.4945002 -10.745 66.948997
5.5685 -10.747 66.960999
5.6420002 -10.748 66.967003
5.7150002 -10.748 66.966003
5.7866998 -10.746 66.950996
5.8572001 -10.741 66.922997
5.9256001 -10.733 66.872002
5.9926 -10.722 66.806
6.0581002 -10.709 66.723999
6.1217999 -10.694 66.625999
6.1847 -10.677 66.521004
6.2480998 -10.661 66.424004
6.3122001 -10.647 66.336998
6.3776002 -10.636 66.264999
6.4438 -10.626 66.203003
6.5116 -10.618 66.157997
6.5801001 -10.613 66.122002
6.6492 -10.608 66.091003
6.7185001 -10.603 66.064003
6.7879 -10.599 66.038002
6.8572998 -10.595 66.014
6.9271002 -10.592 65.991997
6.9969001 -10.589 65.972
7.0667 -10.586 65.953003
7.1368999 -10.583 65.936996
7.2073998 -10.581 65.925003
7.2782998 -10.579 65.915001
7.3492999 -10.578 65.906998
7.4204001 -10.577 65.901001
7.4916 -10.576 65.894997
7.5630999 -10.576 65.891998
7.6346002 -10.575 65.888
7.7063999 -10.575 65.889
7.7782001 -10.575 65.888
7.8502002 -10.575 65.889
7.9222002 -10.575 65.890999
7.9942999 -10.576 65.892998
8.0662003 -10.576 65.892998
8.1380997 -10.576 65.893997
8.21 -10.576 65.893997
8.2816 -10.576 65.891998
8.3529997 -10.575 65.889
8.4242001 -10.574 65.884003
8.4947004 -10.573 65.873001
8.5648003 -10.571 65.860001
8.6344995 -10.568 65.844002
8.7040005 -10.565 65.825996
8.7732 -10.562 65.807999
8.8425999 -10.559 65.790001
8.9118996 -10.556 65.772003
8.9813004 -10.554 65.754997
9.0503998 -10.551 65.736
9.1201 -10.548 65.721001
9.1894999 -10.546 65.706001
9.2591 -10.543 65.691002
9.3284998 -10.541 65.676003
9.3977003 -10.538 65.658997
9.4664001 -10.535 65.638
9.5348997 -10.532 65.616997
9.6028004 -10.528 65.593002
9.6707001 -10.524 65.568001
9.7391996 -10.52 65.547997
9.8058004 -10.515 65.514999
9.8703003 -10.508 65.469002
9.9363003 -10.502 65.433998
10.001 -10.495 65.389
10.066 -10.489 65.352997
10.135 -10.486 65.332001
10.204 -10.484 65.320999
10.276 -10.484 65.322998
10.348 -10.485 65.328003
10.422 -10.488 65.345001
10.49 -10.485 65.328003
10.559 -10.483 65.314003
10.622 -10.475 65.261002
10.683 -10.465 65.203003
10.741 -10.452 65.122002
10.869 -10.173 63.384998
10.931 -10.167 63.345001
11.002 -10.168 63.352001
11.073 -10.17 63.362999
11.146 -10.174 63.389999
11.223 -10.181 63.431999
11.3 -10.188 63.474998
11.375 -10.193 63.509998
11.451 -10.199 63.542999
11.523 -10.201 63.558998
11.594 -10.203 63.569
11.663 -10.203 63.57
11.731 -10.202 63.561001
11.796 -10.198 63.539001
11.861 -10.194 63.512001
11.926 -10.19 63.490002
11.993 -10.188 63.479
12.062 -10.189 63.48
12.134 -10.19 63.492001
12.208 -10.195 63.519001
12.284 -10.2 63.553001
12.361 -10.207 63.595001
12.441 -10.216 63.650002
12.523 -10.226 63.713001
12.607 -10.237 63.783001
12.692 -10.25 63.862999
12.778 -10.263 63.945999
12.865 -10.277 64.029999
12.947 -10.287 64.092003
13.031 -10.298 64.158997
13.12 -10.313 64.255997
13.21 -10.329 64.352997
13.303 -10.347 64.463997
13.398 -10.365 64.580002
13.5 -10.389 64.730003
13.609 -10.419 64.915001
13.662 -10.531 65.168999
13.718 -10.448 65.098999
14.422 -10.816 67.389999
14.565 -10.868 67.713997
14.694 -10.909 67.970001
14.801 -10.934 68.123001
14.899 -10.951 68.230003
15.33 -10.887 67.831001
15.397 -10.882 67.800003
15.468 -10.88 67.791
15.544 -10.882 67.797997
15.622 -10.885 67.818001
15.705 -10.891 67.853996
15.787 -10.896 67.888
15.869 -10.902 67.926003
15.954 -10.909 67.970001
16.038 -10.916 68.011002
16.167999 -10.565 65.824997
16.243 -10.567 65.836998
16.318001 -10.569 65.851997
16.396999 -10.574 65.879997
16.478001 -10.579 65.915001
16.569 -10.592 65.991997
16.667999 -10.609 66.100998
16.785 -10.638 66.278
16.927999 -10.682 66.554001
17.031 -10.701 66.674004
17.127001 -10.716 66.765999
17.221001 -10.729 66.848
17.311001 -10.739 66.912003
17.395 -10.747 66.958
17.474001 -10.75 66.980003
17.542999 -10.748 66.963997
17.603001 -10.74 66.913002
17.658001 -10.729 66.848
17.712 -10.717 66.775002
17.763 -10.704 66.693001
17.812 -10.69 66.602997
17.865 -10.678 66.531998
17.923 -10.67 66.475998
17.982 -10.662 66.429001
18.046 -10.657 66.396004
18.115 -10.655 66.385002
18.188 -10.655 66.386002
18.261 -10.656 66.389999
18.334999 -10.657 66.396004
18.408001 -10.657 66.397003
18.48 -10.657 66.396004
18.552 -10.656 66.392998
18.622999 -10.655 66.389
18.695 -10.655 66.386002
18.767 -10.655 66.385002
18.839001 -10.655 66.384003
18.910999 -10.655 66.384003
18.983 -10.654 66.382004
19.052999 -10.653 66.374001
19.117001 -10.648 66.344002
19.177 -10.642 66.303001
19.225 -10.628 66.220001
19.312 -10.597 66.022003
19.351 -10.579 65.910004
19.396 -10.564 65.818001
19.444 -10.551 65.737
19.5 -10.543 65.686996
19.558001 -10.535 65.639999
19.620001 -10.53 65.606003
19.684 -10.526 65.581001
19.746 -10.521 65.550003
19.806 -10.515 65.514
19.865 -10.508 65.471001
19.929001 -10.504 65.447998
19.993 -10.501 65.424004
20.056999 -10.497 65.399002
20.121 -10.493 65.376999
-9.5060997 -10.631 66.690002
-9.4260998 -10.623 66.638
-9.3459997 -10.614 66.584999
-9.2653999 -10.605 66.528
-9.1810999 -10.592 66.443001
-9.0907001 -10.571 66.310997
-8.9954004 -10.544 66.142998
-8.8982 -10.514 65.956001
-8.7971001 -10.479 65.737999
-8.6949997 -10.443 65.510002
-8.2986002 -10.376 64.647003
-8.2826004 -10.286 64.522003
-8.1955996 -10.265 64.390999
-8.1118002 -10.248 64.283997
-8.0312996 -10.234 64.200996
-7.9509001 -10.221 64.116997
-7.8724999 -10.21 64.047997
-7.7943001 -10.199 63.98
-7.7165999 -10.188 63.914001
-7.6389999 -10.178 63.847
-7.5604 -10.166 63.771999
-7.4819002 -10.154 63.695
-7.4032998 -10.141 63.617001
-7.3250999 -10.129 63.540001
-7.2476001 -10.117 63.467999
-7.171 -10.107 63.403
-7.0956001 -10.098 63.346001
-7.0194998 -10.088 63.283001
-6.9439001 -10.079 63.223999
-6.869 -10.07 63.168999
-6.7950001 -10.062 63.120998
-6.7206998 -10.054 63.069
-6.6472001 -10.047 63.025002
-6.5746999 -10.041 62.987999
-6.5054002 -10.04 62.981998
-6.4373999 -10.041 62.988998
-6.3712001 -10.045 63.013
-6.3060002 -10.051 63.048
-6.2423 -10.059 63.099998
-6.1764998 -10.064 63.130001
-6.1093001 -10.066 63.146999
-6.0409999 -10.067 63.152
-5.9713001 -10.066 63.144001
-5.8983998 -10.059 63.099998
-5.8234 -10.048 63.033001
-5.7481999 -10.037 62.962002
-5.6732998 -10.026 62.893002
-5.599 -10.016 62.828999
-5.5258999 -10.007 62.777
-5.4547 -10.002 62.744999
-5.3845 -9.9989004 62.723999
-5.3148999 -9.9967003 62.709999
-5.2458 -9.9953003 62.702
-5.1777 -9.9956999 62.703999
-5.1086001 -9.9942999 62.695999
-5.0393 -9.9924002 62.683998
-4.9696002 -9.9898005 62.667
-4.8994002 -9.9860001 62.643002
-4.8287001 -9.9811001 62.612
-4.7582998 -9.9764996 62.584
-4.6880999 -9.9723997 62.557999
-4.6188998 -9.9701996 62.543999
-4.5507998 -9.9703999 62.544998
-4.4847999 -9.9752998 62.576
-4.4204998 -9.9841003 62.632
-4.3578 -9.9970999 62.713001
-4.2958002 -10.012 62.805
-4.2344999 -10.029 62.911999
-4.1743999 -10.049 63.040001
-4.1160002 -10.075 63.199001
-4.0510998 -10.085 63.262001
-3.9851 -10.092 63.308998
-3.9181001 -10.097 63.341999
-3.7788999 -10.095 63.324001
-3.7112 -10.098 63.347
-3.6447001 -10.105 63.391998
-3.5785999 -10.114 63.445999
-3.5177 -10.138 63.595001
-3.4532001 -10.152 63.683998
-3.3880999 -10.165 63.764999
-3.3225 -10.177 63.84
-3.2562001 -10.187 63.905998
-3.1889999 -10.195 63.956001
-3.1206 -10.2 63.983002
-3.0510001 -10.2 63.987
-2.9811001 -10.2 63.985001
-2.9109001 -10.198 63.974998
-2.8406 -10.196 63.962002
-2.7702 -10.194 63.948002
-2.6998 -10.191 63.931
-2.6294 -10.189 63.914001
-2.5592 -10.186 63.900002
-2.4893 -10.186 63.896
-2.4198999 -10.187 63.903999
-2.3513 -10.191 63.931999
-2.2829001 -10.197 63.969002
-2.2147 -10.205 64.014999
-2.1468 -10.214 64.07
-2.079 -10.223 64.133003
-2.0113001 -10.235 64.205002
-1.9439 -10.249 64.291
-1.877 -10.266 64.402
-2.5406001 -14.435 90.555
-2.4440999 -14.449 90.640999
-2.3464 -14.456 90.682999
-2.2478001 -14.457 90.693001
-2.1486001 -14.456 90.682999
-2.0488 -14.449 90.639999
-1.9485 -14.438 90.571999
-1.8479 -14.424 90.481003
-1.7474999 -14.409 90.389999
-1.6473 -14.395 90.300003
-1.5475 -14.382 90.223
-1.4478 -14.37 90.142998
-1.3486 -14.36 90.082001
-1.2496001 -14.351 90.024002
-1.1509 -14.344 89.984001
-1.0524 -14.338 89.945999
-0.95402998 -14.334 89.919998
-0.85575002 -14.33 89.894997
-0.75756001 -14.327 89.875
-0.65942001 -14.324 89.855003
-0.56133002 -14.321 89.835999
-0.46325001 -14.317 89.810997
-0.36521 -14.312 89.783997
-0.26723 -14.308 89.757004
-0.16931 -14.303 89.725998
-0.071451999 -14.298 89.695
0.026337 -14.293 89.662003
0.12406 -14.289 89.633003
0.22172 -14.284 89.606003
0.31933999 -14.28 89.581001
0.41692001 -14.277 89.559998
0.51444 -14.273 89.538002
0.61185002 -14.268 89.505997
0.70920998 -14.264 89.476997
0.80642998 -14.258 89.439003
0.90350002 -14.25 89.394997
1.0003999 -14.242 89.343002
4.8292999 -10.727 66.835999
4.8365998 -10.67 66.936996
4.9049001 -10.66 66.872002
4.9004002 -10.723 66.810997
4.9741001 -10.652 66.822998
5.0451002 -10.648 66.797997
5.1184001 -10.649 66.803001
5.1928 -10.652 66.823997
5.2680998 -10.657 66.855003
5.3428998 -10.661 66.878998
5.4180999 -10.666 66.906998
5.4928002 -10.669 66.928001
5.5669999 -10.671 66.943001
5.6405001 -10.672 66.948997
5.7135 -10.672 66.948997
5.7849998 -10.67 66.931999
5.8552999 -10.665 66.901001
5.9233999 -10.656 66.847
5.9902 -10.645 66.778999
6.0553002 -10.632 66.694
6.1188998 -10.616 66.594002
6.1822 -10.6 66.494003
6.2459998 -10.585 66.402
6.3105998 -10.572 66.32
6.3764 -10.561 66.251999
6.4432001 -10.552 66.195999
6.5114002 -10.546 66.155998
6.5802999 -10.541 66.123001
6.6497002 -10.536 66.096001
6.7191 -10.532 66.07
6.7884998 -10.528 66.044998
6.8580999 -10.524 66.021004
6.9277 -10.521 65.999001
6.9976001 -10.518 65.978996
7.0675001 -10.515 65.959999
7.1377001 -10.512 65.944
7.2083001 -10.51 65.931999
7.2792001 -10.509 65.922997
7.3502998 -10.508 65.917
7.4218001 -10.507 65.913002
7.4931998 -10.507 65.908997
7.5647998 -10.506 65.906998
7.6364999 -10.506 65.905998
7.7083998 -10.506 65.905998
7.7803001 -10.506 65.905998
7.8523998 -10.506 65.907997
7.9243999 -10.507 65.908997
7.9965 -10.507 65.911003
8.0684996 -10.507 65.912003
8.1405001 -10.507 65.914001
8.2124004 -10.507 65.914001
8.2841997 -10.507 65.913002
8.3556995 -10.507 65.910004
8.427 -10.506 65.905998
8.4979 -10.505 65.898003
8.5685997 -10.503 65.889999
8.6393003 -10.502 65.879997
8.7098999 -10.501 65.871002
8.7805004 -10.499 65.862
8.8514004 -10.498 65.855003
8.9225998 -10.497 65.849998
8.9937 -10.496 65.845001
9.0649004 -10.496 65.841003
9.1358004 -10.495 65.834999
9.2056999 -10.493 65.820999
9.2758999 -10.491 65.809998
9.3444996 -10.487 65.788002
9.4129 -10.484 65.764999
9.4804001 -10.479 65.735001
9.5474997 -10.474 65.704002
9.6140003 -10.468 65.668999
9.6798 -10.462 65.628998
9.7459002 -10.456 65.593002
9.8120003 -10.45 65.556999
9.8767004 -10.443 65.512001
9.9453001 -10.44 65.492996
10.013 -10.437 65.471001
10.082 -10.434 65.456001
10.154 -10.435 65.458
10.228 -10.437 65.472
10.303 -10.441 65.498001
10.377 -10.443 65.513
10.451 -10.446 65.528
10.521 -10.445 65.519997
10.587 -10.44 65.489998
10.651 -10.432 65.443001
10.713 -10.423 65.384003
10.867 -10.102 63.368999
10.931 -10.097 63.341
11.001 -10.098 63.346001
11.071 -10.1 63.355999
11.145 -10.104 63.382
11.222 -10.11 63.424
11.298 -10.117 63.466
11.374 -10.123 63.504002
11.449 -10.128 63.534
11.522 -10.132 63.556999
11.663 -10.133 63.566002
11.73 -10.132 63.557999
11.795 -10.128 63.533001
11.859 -10.123 63.505001
11.924 -10.12 63.481998
11.991 -10.117 63.467999
12.059 -10.117 63.462002
12.128 -10.116 63.460999
12.2 -10.119 63.474998
12.273 -10.122 63.493999
12.348 -10.126 63.523998
12.425 -10.133 63.568001
12.505 -10.142 63.618999
12.585 -10.151 63.675999
12.667 -10.161 63.740002
12.752 -10.172 63.813
12.838 -10.185 63.895
12.921 -10.196 63.960999
13.005 -10.207 64.031998
13.093 -10.221 64.120003
13.18 -10.235 64.205002
13.274 -10.253 64.32
13.367 -10.271 64.431999
13.468 -10.294 64.578003
13.574 -10.322 64.75
13.68 -10.348 64.916
13.79 -10.378 65.100998
15.317 -10.804 67.774002
15.385 -10.8 67.748001
15.457 -10.799 67.739998
15.533 -10.8 67.750999
15.612 -10.804 67.773003
15.694 -10.809 67.807999
15.775 -10.814 67.838997
15.858 -10.82 67.877998
16.103001 -10.569 65.849998
16.153 -10.53 66.056
16.221001 -10.528 66.042
16.296 -10.529 66.051003
16.374001 -10.533 66.075996
16.454 -10.539 66.110001
16.540001 -10.547 66.165001
16.631001 -10.559 66.239998
16.753 -10.591 66.438004
16.868999 -10.618 66.610001
16.966 -10.634 66.706001
17.059999 -10.647 66.790001
17.150999 -10.658 66.860001
17.24 -10.668 66.921997
17.326 -10.676 66.971001
17.408001 -10.681 67.003998
17.483999 -10.683 67.016998
17.549999 -10.679 66.990997
17.608999 -10.671 66.936996
17.665001 -10.66 66.871002
17.718 -10.648 66.797997
17.77 -10.635 66.718002
17.816 -10.62 66.620003
17.868999 -10.608 66.543999
17.924999 -10.598 66.483002
17.983 -10.59 66.431999
18.046 -10.584 66.397003
18.115 -10.582 66.385002
18.187 -10.582 66.383003
18.261 -10.583 66.387001
