# .PCD v0.7 - Point Cloud Data file format
VERSION 0.7
FIELDS x y z
SIZE 4 4 4
TYPE F F F
COUNT 1 1 1
WIDTH 1710
HEIGHT 1
VIEWPOINT 0 0 0 1 0 0 0
POINTS 1710
DATA ascii
20.094 -12.238 81.807999
20.187 -12.241 81.824997
20.281 -12.244 81.845001
20.382 -12.251 81.891998
20.488001 -12.261 81.959
20.605 -12.277 82.066002
20.726 -12.296 82.193001
20.858 -12.321 82.360001
20.997999 -12.35 82.557999
21.145 -12.384 82.780998
21.298 -12.42 83.024002
21.457001 -12.46 83.292
21.615 -12.499 83.552002
21.775999 -12.539 83.818001
21.941999 -12.582 84.106003
22.127001 -12.635 84.461998
22.309 -12.687 84.805
22.511999 -12.749 85.223
22.718 -12.813 85.650002
22.882999 -12.853 85.916
23.031 -12.883 86.121002
23.146999 -12.896 86.203003
23.242001 -12.896 86.207001
23.313 -12.883 86.120003
23.378 -12.867 86.013
23.423 -12.841 85.836998
23.452999 -12.806 85.603996
23.486 -12.773 85.384003
-10.048 -9.7944002 65.952003
-9.9775 -9.7955999 65.960999
-9.9096003 -9.7995996 65.987
-9.8416996 -9.8036003 66.014
-9.7733002 -9.8072004 66.039001
-9.7049999 -9.8108997 66.064003
-9.6379004 -9.8158998 66.097
-9.5678997 -9.8181 66.112
-9.4982004 -9.8205996 66.128998
-9.4266005 -9.8211002 66.132004
-9.3542004 -9.8207998 66.129997
-9.2784996 -9.8170004 66.105003
-9.2038002 -9.8142004 66.085999
-9.1293001 -9.8115997 66.068001
-9.0580997 -9.8123999 66.073997
-8.9874001 -9.8140001 66.084
-8.9181004 -9.8170004 66.105003
-8.8476 -9.8186998 66.115997
-8.7775002 -9.8209 66.130997
-8.7058001 -9.8213997 66.134003
-8.6337996 -9.8214998 66.135002
-8.5594997 -9.8190002 66.117996
-8.4842997 -9.8154001 66.094002
-8.4050999 -9.8070002 66.037003
-8.3325996 -9.8064003 66.032997
-8.2639999 -9.8105001 66.060997
-8.1941004 -9.8130999 66.078003
-8.1252003 -9.8168001 66.103996
-8.0600004 -9.8253002 66.160004
-7.9988999 -9.8388004 66.250999
-7.7449002 -9.8834 66.552002
-7.6634998 -9.8719997 66.474998
-7.5854998 -9.8648996 66.427002
-7.5098 -9.8606005 66.398003
-7.434 -9.8559999 66.366997
-7.3569002 -9.8498001 66.324997
-7.2803001 -9.8438997 66.286003
-7.2098999 -9.8465004 66.303001
-7.1546001 -9.8698997 66.460999
-7.1015 -9.8970003 66.642998
-7.0559001 -9.9350004 66.899002
-7.0191002 -9.9864998 67.246002
-7.5267 -10.822 72.870003
-7.4816999 -10.872 73.208
-7.4273 -10.909 73.459
-7.3657999 -10.937 73.643997
-7.2932 -10.948 73.722
-7.2045002 -10.936 73.637001
-7.1146998 -10.921 73.539001
-7.0249 -10.906 73.439003
-6.9349999 -10.891 73.334999
-6.8466001 -10.877 73.244003
-6.7592001 -10.865 73.162003
-6.6733999 -10.855 73.097
-6.5883999 -10.847 73.038002
-6.5051999 -10.841 72.998001
-6.4231 -10.836 72.969002
-6.3421998 -10.834 72.954002
-6.2614999 -10.832 72.940002
-6.1820002 -10.832 72.941002
-6.1026001 -10.832 72.942001
-6.0235 -10.833 72.947998
-5.9443002 -10.834 72.952003
-5.8653002 -10.835 72.959
-5.7862 -10.836 72.963997
-5.7072001 -10.837 72.971001
-5.6282001 -10.838 72.977997
-5.5496001 -10.84 72.991997
-5.4712 -10.842 73.007004
-5.3930001 -10.845 73.026001
-5.3150001 -10.848 73.049004
-5.2378001 -10.853 73.082001
-5.1609998 -10.859 73.124001
-5.0854001 -10.868 73.183998
-5.0100999 -10.878 73.249001
-4.9355001 -10.89 73.328003
-4.8611999 -10.902 73.413002
-4.7870002 -10.916 73.501999
-4.7129998 -10.93 73.598
-4.6392002 -10.945 73.700996
-4.5654001 -10.961 73.806999
-4.4912 -10.976 73.910004
-4.4168 -10.991 74.013
-4.3417001 -11.006 74.110001
-4.2666001 -11.021 74.209
-4.1904998 -11.033 74.293999
-4.1142001 -11.046 74.378998
-4.0370002 -11.056 74.449997
-3.9593999 -11.066 74.517998
-3.8813 -11.075 74.579002
-3.803 -11.084 74.638
-3.7244999 -11.093 74.695999
-3.6459999 -11.102 74.754997
-3.5673001 -11.11 74.814003
-3.4884 -11.119 74.873001
-3.4094 -11.128 74.931
-3.3303001 -11.136 74.988998
-3.2511001 -11.145 75.046997
-3.1723001 -11.156 75.120003
-3.0934999 -11.167 75.195
-3.0146999 -11.179 75.275002
-2.9358001 -11.191 75.358002
-2.8571999 -11.205 75.449997
-2.7783999 -11.219 75.543999
-2.6995001 -11.234 75.642998
-2.6206999 -11.249 75.749001
-2.5418999 -11.266 75.861
-2.4624 -11.281 75.959999
-2.3828001 -11.296 76.063004
-2.3032999 -11.313 76.177002
-2.2237999 -11.331 76.297997
-2.1441 -11.35 76.425003
-2.0643001 -11.369 76.553001
-1.9842 -11.388 76.683998
-1.9040999 -11.409 76.827003
-1.8238 -11.431 76.974998
-1.7438999 -11.457 77.151001
-1.6638 -11.485 77.336998
-1.5836 -11.516 77.542999
-1.5031 -11.546 77.749001
-1.4229 -11.584 78.002998
-1.342 -11.619 78.240997
-1.2614 -11.663 78.533997
-1.1815 -11.72 78.916
-1.1012 -11.782 79.334999
-1.0209 -11.853 79.817001
-0.96024001 -12.188 82.070999
-0.87616003 -12.264 82.580002
-0.79029 -12.329 83.018997
-0.70291001 -12.384 83.390999
-0.61413997 -12.428 83.684998
-0.52379 -12.449 83.829002
-0.43263 -12.456 83.875
-0.34123001 -12.458 83.888
-0.24979 -12.46 83.899002
-0.15832999 -12.461 83.906998
-0.066843003 -12.461 83.908997
0.024644 -12.459 83.898003
2.027 -10.124 68.171997
2.0980999 -10.109 68.068001
2.1696 -10.096 67.983002
2.2407999 -10.083 67.894997
2.3109 -10.066 67.778999
2.3803999 -10.047 67.654999
2.4497001 -10.029 67.531998
2.5190001 -10.012 67.416
2.5889001 -9.9977999 67.321999
2.6591001 -9.9856005 67.239998
2.7288001 -9.9723997 67.151001
2.7974 -9.9561005 67.041
2.8654001 -9.9384003 66.921997
2.9324999 -9.9184999 66.788002
2.9978001 -9.8936005 66.621002
3.2581 -9.8024998 66.007004
3.3262999 -9.7914 65.931999
3.3973 -9.7889004 65.915001
3.4691999 -9.7890997 65.917
3.5431001 -9.7946997 65.954002
3.6170001 -9.7999001 65.989998
3.6910999 -9.8056002 66.028
3.7649 -9.8104 66.059998
3.8383999 -9.8141003 66.084999
3.9107001 -9.8148003 66.089996
3.9821 -9.8132 66.079002
4.0525999 -9.8093996 66.054001
4.1223001 -9.8037996 66.015999
4.1918998 -9.7982998 65.977997
4.2614002 -9.7926998 65.941002
4.3309999 -9.7875996 65.906998
4.4007001 -9.7826004 65.873001
4.4705 -9.7783003 65.844002
4.5401001 -9.7735996 65.811996
4.6099 -9.7693005 65.783997
4.6795001 -9.7650003 65.753998
4.7491999 -9.7608004 65.725998
4.8186998 -9.7564001 65.696999
4.8884001 -9.7525997 65.670998
4.9582 -9.7489996 65.647003
5.0283999 -9.7462997 65.628998
5.0985999 -9.7439003 65.612
5.1697998 -9.7432003 65.607002
5.2410998 -9.7426996 65.605003
5.3127999 -9.7431002 65.607002
5.3843002 -9.7428999 65.606003
5.4559002 -9.743 65.607002
5.527 -9.7423 65.601997
5.598 -9.7412996 65.595001
5.6683998 -9.7396002 65.583
5.7388 -9.7377005 65.57
5.8087001 -9.7349005 65.552002
5.8783998 -9.7319002 65.531998
5.9474001 -9.7280998 65.505997
6.0167999 -9.7247 65.483002
6.0861001 -9.7214003 65.460999
6.1557999 -9.7187004 65.443001
6.2255998 -9.7163 65.426003
6.2958002 -9.7145004 65.415001
6.3662 -9.7131004 65.404999
6.4366002 -9.7117004 65.396004
6.5068002 -9.7101002 65.385002
6.5769 -9.7083998 65.373001
6.6465998 -9.7061005 65.358002
6.7163 -9.7037001 65.342003
6.7856002 -9.7010002 65.323997
6.8548999 -9.6983004 65.305
6.9238 -9.6950998 65.283997
6.9926 -9.6917 65.261002
7.0616999 -9.6889 65.241997
7.1314001 -9.6869001 65.228996
7.2033 -9.6880999 65.236
7.2778001 -9.6925001 65.266998
7.3541002 -9.6992998 65.311996
7.4319 -9.7077999 65.369003
7.5110002 -9.7180004 65.438004
7.5918002 -9.7300997 65.518997
7.6739001 -9.7435999 65.610001
7.757 -9.7580996 65.708
7.8407998 -9.7733002 65.809998
7.9198999 -9.7824001 65.872002
7.9948001 -9.7861004 65.897003
8.0663004 -9.7858 65.894997
8.1349001 -9.7819004 65.867996
8.2007999 -9.7748003 65.82
8.2651997 -9.7660999 65.762001
8.3282003 -9.7558002 65.693001
8.3909998 -9.7455997 65.624001
8.4554996 -9.7375002 65.569
8.5251999 -9.7355003 65.556
8.5991001 -9.7382002 65.573997
8.6758003 -9.7440004 65.612999
8.7557001 -9.7533998 65.676003
8.8430004 -9.7707005 65.792999
8.9322996 -9.79 65.922997
9.0190001 -9.8059998 66.030998
9.1052999 -9.8214998 66.135002
9.1904001 -9.8353996 66.227997
9.2718 -9.8451996 66.293999
9.3500004 -9.8514004 66.335999
9.4275999 -9.8569002 66.373001
9.5042 -9.8613005 66.403
9.5808001 -9.8655996 66.431999
9.6581001 -9.8704996 66.464996
9.7362003 -9.8761997 66.502998
9.8149004 -9.8824997 66.545998
9.8947001 -9.8898001 66.595001
9.9749002 -9.8972998 66.644997
10.055 -9.9047003 66.695
10.135 -9.9119997 66.744003
10.215 -9.9189997 66.791
10.299 -9.9294004 66.861
10.387 -9.9442997 66.961998
10.48 -9.9631004 67.087997
10.579 -9.9874001 67.251999
10.688 -10.021 67.478996
13.149 -12.244 82.447998
13.28 -12.282 82.704002
13.399 -12.309 82.882004
13.509 -12.327 83.002998
13.607 -12.333 83.047997
13.694 -12.33 83.023003
13.773 -12.319 82.955002
13.85 -12.308 82.875999
13.926 -12.295 82.792999
14.003 -12.283 82.711998
14.079 -12.271 82.630997
14.156 -12.26 82.554001
14.234 -12.249 82.482002
14.313 -12.24 82.419998
14.393 -12.232 82.365997
14.475 -12.225 82.318001
14.556 -12.218 82.269997
14.638 -12.211 82.226997
14.721 -12.206 82.189003
14.805 -12.201 82.156998
14.889 -12.196 82.125999
14.974 -12.193 82.102997
15.059 -12.189 82.080002
15.145 -12.186 82.057999
15.229 -12.182 82.029999
15.314 -12.178 82.003998
15.397 -12.173 81.969002
15.48 -12.168 81.936996
15.562 -12.163 81.899002
15.645 -12.157 81.863998
15.727 -12.152 81.829002
15.811 -12.148 81.801003
15.894 -12.144 81.771004
15.979 -12.14 81.749001
16.063999 -12.137 81.725998
16.15 -12.134 81.709
16.235001 -12.131 81.688004
16.32 -12.129 81.669998
16.403999 -12.125 81.644997
16.487 -12.121 81.617996
16.57 -12.116 81.585999
16.653 -12.112 81.556999
16.735001 -12.106 81.521004
16.818001 -12.103 81.496002
16.903 -12.1 81.473999
16.989 -12.098 81.462997
17.075001 -12.096 81.450996
17.164 -12.096 81.449997
17.252001 -12.095 81.444
17.337999 -12.093 81.433998
17.424 -12.091 81.418999
17.509001 -12.089 81.403
17.593 -12.086 81.380997
17.676001 -12.081 81.352997
17.757999 -12.077 81.323997
17.841 -12.073 81.297997
17.924999 -12.07 81.276001
18.009001 -12.067 81.257004
18.097 -12.066 81.250999
18.186001 -12.067 81.252998
18.275999 -12.068 81.260002
18.367001 -12.07 81.272003
18.459999 -12.072 81.290001
18.552999 -12.075 81.308998
18.646 -12.078 81.327003
18.739 -12.081 81.348
18.834 -12.085 81.373001
18.929001 -12.089 81.402
19.025999 -12.094 81.436996
19.125 -12.1 81.480003
19.225 -12.107 81.528
19.326 -12.115 81.580002
19.429001 -12.124 81.639
19.531 -12.132 81.694
19.636 -12.142 81.759003
19.738001 -12.15 81.811996
19.84 -12.157 81.862999
19.937 -12.162 81.896004
20.035 -12.167 81.931
20.128 -12.169 81.945
20.222 -12.173 81.967003
20.318001 -12.177 81.992996
20.422001 -12.185 82.051003
20.532 -12.197 82.130997
20.648001 -12.213 82.237
20.77 -12.232 82.366997
20.908001 -12.26 82.556999
21.052999 -12.292 82.773003
21.215 -12.334 83.054001
21.374001 -12.373 83.319
21.537001 -12.415 83.600998
21.701 -12.457 83.884003
21.882999 -12.509 84.230003
22.063 -12.559 84.57
22.249001 -12.612 84.926003
22.488001 -12.695 85.482002
22.674 -12.747 85.834
22.851999 -12.795 86.154999
22.999001 -12.824 86.350998
23.125 -12.842 86.473
23.228001 -12.846 86.503998
23.316 -12.843 86.482002
23.389999 -12.832 86.406998
23.448999 -12.813 86.276001
23.493 -12.785 86.092003
-10.046 -9.7201004 65.935997
-9.9756002 -9.7217999 65.947998
-9.9088001 -9.7268 65.982002
-9.8416004 -9.7314997 66.014
-9.7740002 -9.7357998 66.042999
-9.7063999 -9.7403002 66.072998
-9.6400003 -9.7460003 66.112
-9.5706997 -9.7488003 66.130997
-9.5010004 -9.7512999 66.148003
-9.4299002 -9.7524004 66.154999
-9.3578997 -9.7524996 66.155998
-9.2821999 -9.7488003 66.130997
-9.2076998 -9.7461996 66.112999
-9.1334 -9.7439003 66.098
-9.0615997 -9.7440996 66.098999
-8.9905005 -9.7452002 66.106003
-8.9202003 -9.7472 66.120003
-8.8487997 -9.7479 66.125
-8.7770996 -9.7482996 66.127998
-8.7037001 -9.7469997 66.119003
-8.6296997 -9.7447996 66.103996
-8.5535002 -9.7400999 66.071999
-8.4744997 -9.7320995 66.016998
-8.3952999 -9.7236996 65.960999
-8.3198996 -9.7196999 65.932999
-8.2496996 -9.7215996 65.946999
-8.1789999 -9.7230997 65.956001
-8.1084995 -9.7247 65.968002
-8.0431995 -9.7327995 66.022003
-7.7487998 -9.8157997 66.584999
-7.6680002 -9.8053999 66.514999
-7.5893998 -9.7974997 66.460999
-7.5137 -9.7932997 66.432999
-7.4379001 -9.7889004 66.403
-7.3590999 -9.7804003 66.345001
-7.2821999 -9.7742004 66.303001
-7.2115998 -9.7765999 66.319
-7.1560998 -9.7995005 66.474998
-7.1030002 -9.8263998 66.656998
-7.0574002 -9.8641996 66.913002
-7.0205002 -9.9151001 67.259003
-7.5296001 -10.746 72.898003
-7.4854999 -10.797 73.244003
-7.4309001 -10.834 73.494003
-7.3692002 -10.861 73.679001
-7.2961998 -10.872 73.752998
-7.2076001 -10.86 73.668999
-7.1176 -10.845 73.569
-7.0279002 -10.831 73.470001
-6.9384999 -10.816 73.372002
-6.8494 -10.802 73.274002
-6.7621999 -10.79 73.195
-6.6767001 -10.781 73.133003
-6.5918999 -10.773 73.077003
-6.5089002 -10.767 73.039001
-6.4267001 -10.763 73.010002
-6.3455 -10.76 72.991997
-6.2642999 -10.757 72.973
-6.1842999 -10.757 72.968002
-6.1041999 -10.756 72.961998
-6.0247002 -10.756 72.962997
-5.9450998 -10.756 72.961998
-5.8656998 -10.756 72.963997
-5.7862 -10.756 72.963997
-5.7070999 -10.757 72.970001
-5.6279998 -10.758 72.976997
-5.5496001 -10.76 72.991997
-5.4712 -10.763 73.008003
-5.3931999 -10.766 73.028
-5.3151002 -10.769 73.050003
-5.2375998 -10.773 73.081001
-5.1606998 -10.779 73.120003
-5.0851002 -10.788 73.178001
-5.0098 -10.797 73.244003
-4.9351001 -10.809 73.320999
-4.8608999 -10.821 73.406998
-4.7867999 -10.835 73.499001
-4.7129998 -10.849 73.597
-4.6392999 -10.865 73.702003
-4.5657001 -10.881 73.811996
-4.4917002 -10.897 73.917999
-4.4173002 -10.912 74.023003
-4.3422999 -10.927 74.120003
-4.2673001 -10.941 74.221001
-4.1912999 -10.954 74.306999
-4.1150999 -10.967 74.394997
-4.0379 -10.978 74.467003
-3.9605 -10.988 74.538002
-3.8824 -10.997 74.598999
-3.8041 -11.006 74.660004
-3.7256999 -11.015 74.720001
-3.6471 -11.024 74.778
-3.5683 -11.032 74.834999
-3.4895 -11.041 74.894997
-3.4103999 -11.049 74.953003
-3.3311999 -11.057 75.008003
-3.2519 -11.066 75.066002
-3.1730001 -11.076 75.137001
-3.0941999 -11.088 75.212997
-3.0153999 -11.099 75.292
-2.9366 -11.112 75.375999
-2.8580999 -11.126 75.473
-2.7793 -11.14 75.569
-2.7005999 -11.155 75.671997
-2.6219001 -11.171 75.781998
-2.543 -11.188 75.894997
-2.4637001 -11.204 76
-2.3843 -11.22 76.112
-2.3048 -11.237 76.225998
-2.2253001 -11.255 76.349998
-2.1454999 -11.274 76.474998
-2.0657001 -11.293 76.607002
-1.9857 -11.313 76.741997
-1.9055001 -11.334 76.883003
-1.8254 -11.357 77.041
-1.7455 -11.384 77.221001
-1.6655 -11.413 77.417
-1.5855 -11.444 77.632004
-1.5053 -11.478 77.862999
-1.425 -11.516 78.117996
-1.3441 -11.552 78.362999
-1.2638 -11.6 78.685997
-1.1842999 -11.662 79.108002
-1.1043 -11.727 79.553001
-1.0245 -11.808 80.096001
-0.96258998 -12.128 82.272003
-0.87813997 -12.201 82.766998
-0.79184002 -12.262 83.181999
-0.70405 -12.313 83.526001
-0.61479998 -12.35 83.774002
-0.52414 -12.366 83.884003
-0.43274 -12.368 83.896004
-0.34127 -12.368 83.900002
-0.24981 -12.369 83.903999
-0.15831999 -12.369 83.903999
-0.066835001 -12.368 83.899002
2.0248001 -10.039 68.098
2.0961001 -10.025 68.001999
2.1673 -10.011 67.908997
2.2388999 -10 67.837997
2.3094001 -9.9851999 67.735001
2.3792 -9.9681997 67.620003
2.4486001 -9.9507999 67.501999
2.5183001 -9.9351997 67.394997
2.5882001 -9.9216003 67.303001
2.6584001 -9.9096003 67.222
2.7286 -9.8985996 67.147003
2.7978001 -9.8844004 67.051003
2.8666 -9.8695002 66.948997
2.9344001 -9.8521004 66.832001
3.0007 -9.8305998 66.685997
3.0658 -9.8060999 66.518997
3.0618 -9.8655996 66.431999
3.1308999 -9.783 66.362999
3.1257999 -9.8393002 66.254997
3.1965001 -9.7622004 66.222
3.263 -9.7452002 66.106003
3.3316 -9.7349997 66.037003
3.4017 -9.7297001 66.000999
3.4728999 -9.7276001 65.987
3.5450001 -9.7279997 65.989998
3.6180999 -9.7311001 66.011002
3.6912999 -9.7342997 66.032997
3.7644 -9.7371998 66.052002
3.8371999 -9.7390003 66.064003
3.9091001 -9.7386999 66.063004
3.9802001 -9.7363997 66.046997
4.0504999 -9.7322998 66.018997
4.1204 -9.7275 65.986
4.1903 -9.7227001 65.954002
4.2600999 -9.7179003 65.920998
4.3301001 -9.7136002 65.891998
4.4000001 -9.7093 65.862999
4.4700999 -9.7055998 65.837997
4.5398998 -9.7013998 65.808998
4.6097002 -9.6973 65.781998
4.6795001 -9.6932001 65.753998
4.7491999 -9.6892004 65.726997
4.8186998 -9.6849003 65.696999
4.8884001 -9.6809998 65.670998
4.9582 -9.6774998 65.647003
5.0283999 -9.6749001 65.628998
5.0987 -9.6724005 65.612999
5.1698999 -9.6718998 65.609001
5.2413001 -9.6715002 65.607002
5.3130999 -9.6719999 65.610001
5.3845 -9.6717997 65.609001
5.4561 -9.6718998 65.609001
5.5272002 -9.6710997 65.603996
5.598 -9.6698999 65.596001
5.6683998 -9.6680002 65.583
5.7386999 -9.6659002 65.569
5.8083 -9.6627998 65.547997
5.8778 -9.6596003 65.526001
5.9467001 -9.6554003 65.498001
6.0159001 -9.6519003 65.473999
6.0851002 -9.6484003 65.449997
6.1546998 -9.6456003 65.431
6.2244 -9.6429996 65.413002
6.2944999 -9.6413002 65.402
6.3649998 -9.6400003 65.392998
6.4355998 -9.6389999 65.386002
6.5061998 -9.6379004 65.378998
6.5767999 -9.6367998 65.371002
6.6471 -9.6355 65.362
6.7174001 -9.6341 65.352997
6.7873998 -9.6323996 65.341003
6.8575001 -9.6307001 65.330002
6.9273 -9.6287003 65.316002
6.9969001 -9.6265001 65.301003
7.0665998 -9.6244001 65.287003
7.1366 -9.6229 65.277
7.2073998 -9.6223001 65.273003
7.2803998 -9.6246996 65.289001
7.3548999 -9.6290998 65.319
7.4309001 -9.6352997 65.361
7.5082998 -9.6430998 65.414001
7.5872002 -9.6527996 65.480003
7.6672001 -9.6636 65.553001
7.7479 -9.6751003 65.630997
7.8285999 -9.6864996 65.708
7.9091001 -9.6974001 65.781998
7.9861999 -9.7039003 65.825996
8.0598001 -9.7061005 65.841003
8.1301003 -9.7042999 65.829002
8.1976004 -9.6992998 65.794998
8.2634001 -9.6922998 65.747002
8.3275003 -9.6835003 65.688004
8.3908997 -9.6738997 65.623001
8.4551001 -9.6654997 65.566002
8.5242996 -9.6630001 65.549004
8.5977001 -9.6651001 65.563004
8.6737003 -9.6702003 65.598
8.7531996 -9.6789999 65.656998
8.8379002 -9.6934004 65.754997
8.9287004 -9.7140999 65.896004
9.0153999 -9.7301998 66.004997
9.1022997 -9.7461996 66.112999
9.1880999 -9.7607002 66.211998
9.2701998 -9.7712002 66.282997
9.3491001 -9.7782001 66.330002
9.4271002 -9.7840004 66.369003
9.5040998 -9.7888002 66.402
9.5804996 -9.7929001 66.43
9.6570997 -9.7971001 66.458
9.7342997 -9.8018999 66.490997
9.8121004 -9.8072004 66.527
9.8910999 -9.8135004 66.57
9.9707003 -9.8205004 66.616997
10.05 -9.8275003 66.665001
10.13 -9.8343 66.710999
10.21 -9.8415003 66.760002
10.293 -9.8511 66.824997
10.381 -9.8652 66.920998
10.474 -9.8837996 67.046997
10.572 -9.9071999 67.205002
10.678 -9.9376001 67.411003
13.144 -12.15 82.417
13.278 -12.19 82.690002
13.399 -12.218 82.878998
13.51 -12.237 83.005997
13.61 -12.245 83.065002
13.698 -12.243 83.053001
13.778 -12.234 82.986
13.855 -12.221 82.903999
13.931 -12.209 82.82
14.007 -12.197 82.737
14.084 -12.185 82.657997
14.161 -12.174 82.582001
14.239 -12.164 82.513
14.319 -12.155 82.456001
14.401 -12.148 82.406998
14.484 -12.142 82.367996
14.567 -12.137 82.330002
14.651 -12.132 82.296997
14.734 -12.127 82.263
14.82 -12.123 82.239998
14.905 -12.12 82.212997
14.991 -12.117 82.195
15.076 -12.114 82.172997
15.162 -12.111 82.153
15.247 -12.107 82.126999
15.332 -12.103 82.101997
15.415 -12.098 82.066002
15.498 -12.093 82.032997
15.58 -12.087 81.992996
15.663 -12.082 81.959999
15.745 -12.077 81.921997
15.829 -12.072 81.892998
15.912 -12.068 81.863998
15.997 -12.065 81.841003
16.082001 -12.062 81.819
16.167999 -12.059 81.803001
16.253 -12.056 81.782997
16.339001 -12.053 81.764999
16.423 -12.05 81.740997
16.507 -12.046 81.714996
16.59 -12.042 81.683998
16.673 -12.037 81.654999
16.754999 -12.032 81.621002
16.837999 -12.028 81.593002
16.922001 -12.025 81.569
17.007999 -12.023 81.555
17.094 -12.02 81.541
17.181 -12.019 81.532997
17.268999 -12.018 81.525002
17.355 -12.017 81.514
17.441 -12.014 81.499001
17.527 -12.012 81.485001
17.612 -12.01 81.466003
17.695999 -12.006 81.445
17.780001 -12.003 81.424004
17.864 -12 81.400002
17.948 -11.997 81.383003
18.034 -11.995 81.369003
18.122 -11.994 81.363998
18.211 -11.995 81.364998
18.301001 -11.996 81.372002
18.392 -11.997 81.383003
18.485001 -12 81.402
18.577999 -12.002 81.417999
18.671 -12.005 81.435997
18.764 -12.008 81.458
18.858999 -12.012 81.484001
18.955 -12.016 81.513
19.052999 -12.022 81.553001
19.152 -12.028 81.594002
19.253 -12.036 81.644997
19.353001 -12.043 81.694
19.457001 -12.052 81.754997
19.559999 -12.061 81.814003
19.665001 -12.07 81.877998
19.768 -12.079 81.934998
19.871 -12.087 81.991997
19.968 -12.092 82.024002
20.066 -12.097 82.057999
20.159 -12.099 82.073997
20.254 -12.103 82.097
20.351999 -12.108 82.130997
20.458 -12.117 82.197998
20.569 -12.13 82.281998
20.686001 -12.146 82.389999
20.812 -12.167 82.533997
20.955 -12.198 82.742996
21.118 -12.24 83.027
21.278999 -12.28 83.303001
21.443001 -12.322 83.588997
21.618 -12.37 83.915001
21.799 -12.422 84.262001
21.990999 -12.478 84.646004
22.195 -12.541 85.072998
22.424999 -12.619 85.599998
22.612 -12.671 85.955002
22.799999 -12.724 86.311996
22.959 -12.76 86.556
23.089001 -12.78 86.691002
23.202999 -12.791 86.764999
23.304001 -12.794 86.785004
23.389999 -12.789 86.753998
23.457001 -12.774 86.653999
23.516001 -12.755 86.521004
-10.042 -9.6449003 65.914001
-9.9729004 -9.6472998 65.93
-9.9073 -9.6534996 65.972
-9.8409996 -9.6589003 66.010002
-9.7739 -9.6638002 66.042999
-9.7068005 -9.6687002 66.075996
-9.6414003 -9.6752996 66.122002
-9.5725002 -9.6786003 66.143997
-9.5031996 -9.6814003 66.163002
-9.4323997 -9.6828003 66.172997
-9.3606005 -9.6831999 66.175003
-9.2852001 -9.6798 66.152
-9.2109003 -9.6774998 66.136002
-9.1368999 -9.6754999 66.123001
-9.0647001 -9.6753998 66.122002
-8.9932003 -9.6760998 66.126999
-8.9223003 -9.6773005 66.135002
-8.8500004 -9.6771002 66.134003
-8.7764997 -9.6756001 66.124001
-8.7017002 -9.6725998 66.102997
-8.6254997 -9.6680002 66.071999
-8.5458002 -9.6594 66.013
-8.4659004 -9.6503 65.950996
-8.3857002 -9.6407003 65.885002
-8.3072996 -9.6330996 65.833
-8.2346001 -9.6321001 65.825996
-8.1636 -9.6330004 65.832001
-8.0906 -9.6315002 65.821999
-7.6739001 -9.7403002 66.566002
-7.5942001 -9.7312002 66.502998
-7.5184002 -9.7269001 66.473999
-7.4422998 -9.7222004 66.442001
-7.3624001 -9.7124004 66.375
-7.2837 -9.7040005 66.317001
-7.2128 -9.7058001 66.330002
-7.1571002 -9.7284002 66.484001
-7.1041002 -9.7551003 66.667
-7.0584002 -9.7926998 66.922997
-7.0215998 -9.8432999 67.269997
-7.5356002 -10.675 72.956001
-7.4919 -10.727 73.306999
-7.4369001 -10.763 73.553001
-7.3744998 -10.789 73.731003
-7.3007998 -10.799 73.799004
-7.2119002 -10.786 73.712997
-7.1220002 -10.772 73.613998
-7.0321999 -10.757 73.514999
-6.9426999 -10.743 73.416
-6.8541002 -10.729 73.324997
-6.7666001 -10.717 73.242996
-6.6812 -10.708 73.181999
-6.5967002 -10.701 73.128998
-6.5138998 -10.696 73.095001
-6.4313002 -10.691 73.063004
-6.3501 -10.688 73.043999
-6.2684999 -10.685 73.022003
-6.1879001 -10.683 73.010002
-6.1072998 -10.682 72.998001
-6.0272002 -10.681 72.992996
-5.9471002 -10.68 72.986
-5.8671999 -10.679 72.982002
-5.7872 -10.678 72.976997
-5.7082 -10.679 72.984001
-5.6287999 -10.68 72.987
-5.5503001 -10.682 73
-5.4719 -10.684 73.015999
-5.3937001 -10.687 73.036003
-5.3155999 -10.69 73.056999
-5.2378998 -10.694 73.084
-5.1608 -10.7 73.121002
-5.085 -10.708 73.178001
-5.0096998 -10.717 73.242996
-4.9351001 -10.729 73.320999
-4.8606 -10.741 73.403
-4.7867999 -10.755 73.499001
-4.7129998 -10.769 73.598
-4.6392999 -10.785 73.703003
-4.566 -10.801 73.816002
-4.4917998 -10.816 73.919998
-4.4173999 -10.832 74.024002
-4.3424001 -10.846 74.121002
-4.2674999 -10.861 74.224998
-4.1915002 -10.874 74.311996
-4.1155 -10.887 74.402
-4.0384002 -10.898 74.476997
-3.9612 -10.909 74.552002
-3.8831 -10.918 74.613998
-3.8050001 -10.927 74.677002
-3.7267001 -10.936 74.738998
-3.648 -10.945 74.796997
-3.5692 -10.953 74.855003
-3.4904001 -10.962 74.916
-3.4112999 -10.97 74.973
-3.332 -10.978 75.026001
-3.2527001 -10.987 75.084999
-3.1738 -10.997 75.154999
-3.095 -11.008 75.231003
-3.0162001 -11.02 75.311996
-2.9374001 -11.033 75.398003
-2.859 -11.047 75.497002
-2.7802999 -11.062 75.596001
-2.7017 -11.077 75.704002
-2.6231 -11.094 75.819
-2.5444 -11.111 75.934998
-2.4651 -11.127 76.042999
-2.3857999 -11.144 76.157997
-2.3064001 -11.162 76.278
-2.2269001 -11.18 76.404999
-2.1471 -11.198 76.530998
-2.0674 -11.219 76.667999
-1.9872 -11.238 76.803001
-1.9072 -11.26 76.953003
-1.8273 -11.285 77.119003
-1.7474 -11.312 77.306
-1.6676 -11.342 77.513
-1.5875 -11.374 77.730003
-1.5077 -11.411 77.986
-1.4270999 -11.447 78.231003
-1.3464 -11.487 78.500999
-1.2665 -11.538 78.852997
-1.187 -11.602 79.286003
-1.1073999 -11.674 79.780998
-1.0273 -11.753 80.321999
-0.96463001 -12.064 82.445999
-0.87972999 -12.133 82.917
-0.79299003 -12.189 83.302002
-0.70499003 -12.238 83.638
-0.61532003 -12.269 83.845001
-0.52434999 -12.279 83.917999
-0.43288001 -12.28 83.924004
-0.34136 -12.28 83.919998
-0.24985 -12.28 83.919998
-0.15832999 -12.278 83.908997
-0.066830002 -12.276 83.891998
2.0237999 -9.9596996 68.065002
2.0952001 -9.9462004 67.973
2.1658001 -9.9301004 67.862999
2.2376001 -9.9203997 67.796997
2.3081 -9.9059 67.696999
2.378 -9.8896999 67.585999
2.4475999 -9.8732004 67.473999
2.5174 -9.8584003 67.373001
2.5873001 -9.8446999 67.278999
2.6575999 -9.8334999 67.202003
2.7279999 -9.8228998 67.129997
2.7976999 -9.8108997 67.047997
2.8671999 -9.7985001 66.962997
2.9358001 -9.7839003 66.862999
3.0030999 -9.7655001 66.737999
3.0692 -9.7444 66.594002
3.1355 -9.7248001 66.459999
3.2017 -9.7058001 66.330002
3.2685001 -9.6893997 66.218002
3.3369 -9.6784 66.142998
3.4063001 -9.6705999 66.088997
3.4765999 -9.6658001 66.056
3.5478001 -9.6634998 66.041
3.6198001 -9.6636 66.041
3.6921 -9.6643 66.045998
3.7643001 -9.6647997 66.050003
3.8362 -9.6645002 66.046997
3.9077001 -9.6632004 66.039001
3.9784999 -9.6602001 66.017998
4.0488 -9.6562996 65.991997
4.119 -9.6520996 65.962997
4.1890998 -9.6479998 65.934998
4.2592001 -9.6438999 65.906998
4.3294001 -9.6402998 65.882004
4.3996 -9.6365995 65.857002
4.4699998 -9.6335001 65.835999
4.5398002 -9.6294003 65.807999
4.6097002 -9.6255999 65.781998
4.6795998 -9.6217003 65.754997
4.7493 -9.6177998 65.727997
4.8188 -9.6134996 65.698997
4.8885002 -9.6097002 65.672997
4.9583001 -9.6062002 65.649002
5.0286002 -9.6035995 65.630997
5.0988002 -9.6011 65.613998
5.1701002 -9.6006002 65.611
5.2413998 -9.6002998 65.609001
5.3132 -9.6006002 65.611
5.3846002 -9.6004 65.609001
5.4561 -9.6002998 65.609001
5.527 -9.5993004 65.601997
5.5977998 -9.5979996 65.593002
5.6680002 -9.5958004 65.578003
5.7381001 -9.5935001 65.561996
5.8076 -9.5901003 65.539001
5.8769999 -9.5867996 65.516998
5.9457998 -9.5825996 65.487999
6.0149999 -9.5790997 65.463997
6.0840998 -9.5754995 65.440002
6.1536999 -9.5726995 65.419998
6.2234001 -9.5702 65.403
6.2936001 -9.5684996 65.390999
6.3639998 -9.5671997 65.383003
6.4347 -9.5663004 65.375999
6.5053 -9.5654001 65.370003
6.5760999 -9.5646 65.364998
6.6469002 -9.5639 65.360001
6.7175999 -9.5630999 65.355003
6.7883 -9.5622997 65.348999
6.8590002 -9.5615997 65.344002
6.9294 -9.5604 65.335999
6.9998999 -9.5593004 65.329002
7.0703001 -9.5581999 65.320999
7.1408 -9.5572996 65.315002
7.2119002 -9.5571003 65.314003
7.2837 -9.5579004 65.319
7.3569002 -9.5604 65.335999
7.4315 -9.5648003 65.365997
7.5074 -9.5706997 65.405998
7.5847998 -9.5783997 65.459
7.6633 -9.5874004 65.519997
7.7424002 -9.5967999 65.584999
7.8221998 -9.6070004 65.653999
7.9015002 -9.6162996 65.718002
7.98 -9.6246004 65.775002
8.0550003 -9.6286001 65.802002
8.1271 -9.6288996 65.804001
8.1956997 -9.6253004 65.779999
8.2622995 -9.6192999 65.738998
8.3274002 -9.6117001 65.686996
8.3913002 -9.6028996 65.626999
8.4560003 -9.5951004 65.572998
8.5248003 -9.592 65.552002
8.5978003 -9.5937004 65.564003
8.6731997 -9.5980997 65.594002
8.7516003 -9.6056995 65.646004
8.8347998 -9.6183004 65.732002
8.9245996 -9.6379004 65.865997
9.0114002 -9.6540003 65.975998
9.0984001 -9.6698999 66.084
9.1838999 -9.6841002 66.181
9.2665005 -9.6950998 66.255997
9.3458004 -9.7024002 66.306
9.4239998 -9.7084999 66.348
9.5012999 -9.7135 66.382004
9.5775995 -9.7174997 66.410004
9.6540003 -9.7215004 66.436996
9.7307997 -9.7257996 66.467003
9.8079004 -9.7305002 66.498001
9.8860998 -9.7360001 66.536003
9.9652004 -9.7424002 66.580002
10.045 -9.7493 66.626999
10.125 -9.7563 66.675003
10.205 -9.7639999 66.726997
10.288 -9.7733002 66.791
10.376 -9.7875004 66.888
10.468 -9.8057003 67.012001
10.566 -9.8283005 67.167
10.671 -9.8575001 67.366997
13.129 -12.045 82.318001
13.268 -12.09 82.625
13.392 -12.121 82.835999
13.505 -12.142 82.980003
13.609 -12.153 83.056999
13.7 -12.154 83.061996
13.782 -12.147 83.012001
13.86 -12.136 82.934998
13.936 -12.123 82.851997
14.013 -12.111 82.768997
14.09 -12.1 82.691002
14.167 -12.089 82.617996
14.246 -12.08 82.552002
14.327 -12.072 82.500999
14.409 -12.066 82.457001
14.494 -12.061 82.427002
14.579 -12.057 82.400002
14.665 -12.054 82.377998
14.751 -12.051 82.358002
14.838 -12.049 82.343002
14.923 -12.045 82.316002
15.01 -12.043 82.302002
15.097 -12.04 82.283997
15.183 -12.038 82.265999
15.267 -12.033 82.236
15.352 -12.03 82.211998
15.435 -12.024 82.174004
15.518 -12.019 82.139999
15.6 -12.013 82.099998
15.683 -12.008 82.064003
15.765 -12.003 82.027
15.849 -11.998 81.997002
15.932 -11.994 81.967003
16.017 -11.99 81.943001
16.101999 -11.987 81.921997
16.188999 -11.985 81.905998
16.274 -11.982 81.887001
16.360001 -11.98 81.869003
16.444 -11.976 81.845001
16.528 -11.972 81.82
16.612 -11.968 81.792999
16.695999 -11.964 81.765999
16.778999 -11.96 81.735001
16.862 -11.956 81.707001
16.945999 -11.952 81.681999
17.031 -11.95 81.664001
17.115999 -11.947 81.643997
17.202 -11.945 81.630997
17.288 -11.943 81.617996
17.374001 -11.941 81.603996
17.459999 -11.938 81.587997
17.546 -11.936 81.573997
17.631001 -11.934 81.556
17.716 -11.931 81.539001
17.801001 -11.928 81.518997
17.886 -11.926 81.502998
17.972 -11.924 81.489998
18.059 -11.923 81.478996
18.146999 -11.922 81.476997
18.236 -11.923 81.478996
18.327 -11.924 81.488998
18.419001 -11.926 81.5
18.511 -11.928 81.514
18.603001 -11.93 81.528999
18.695999 -11.933 81.549004
18.789 -11.935 81.566002
18.885 -11.939 81.594002
18.981001 -11.944 81.625
19.079 -11.95 81.665001
19.177999 -11.956 81.705002
19.278999 -11.963 81.755997
19.379999 -11.97 81.805
19.483999 -11.979 81.867996
19.587 -11.988 81.925003
19.693001 -11.998 81.995003
19.796 -12.006 82.052002
19.898001 -12.014 82.106003
19.997 -12.02 82.142998
20.093 -12.024 82.170998
20.188 -12.027 82.190002
20.284 -12.031 82.218002
20.384001 -12.037 82.260002
20.490999 -12.047 82.325996
20.601999 -12.059 82.412003
20.719999 -12.076 82.527
20.854 -12.101 82.699997
21.014 -12.141 82.974998
21.172001 -12.18 83.239998
21.337999 -12.224 83.537003
21.514999 -12.272 83.871002
21.709999 -12.331 84.271004
21.903999 -12.389 84.667
22.131001 -12.465 85.183998
22.346001 -12.533 85.653999
22.538 -12.588 86.028999
22.747 -12.652 86.467003
22.9 -12.685 86.690002
23.039 -12.71 86.860001
23.162001 -12.725 86.963997
23.27 -12.732 87.012001
23.365 -12.733 87.014999
23.452 -12.728 86.985001
23.518 -12.712 86.876999
-10.038 -9.5686998 65.884003
-9.9692001 -9.5718002 65.904999
-9.9048004 -9.5790997 65.955002
-9.8393002 -9.5853004 65.998001
-9.7728996 -9.5908003 66.036003
-9.7061996 -9.5959997 66.071999
-9.6415005 -9.6033001 66.122002
-9.5732002 -9.6070995 66.148003
-9.5044003 -9.6105003 66.170998
-9.434 -9.6122999 66.183998
-9.3626003 -9.6129999 66.189003
-9.2874002 -9.6099005 66.167999
-9.2133999 -9.6079998 66.153999
-9.1398001 -9.6063995 66.143997
-9.0675001 -9.6063004 66.141998
-8.9958 -9.6066999 66.144997
-8.9239998 -9.6070995 66.148003
-8.8507996 -9.6058998 66.139999
-8.7757998 -9.6028004 66.117996
-8.6993999 -9.5979004 66.084999
-8.6203003 -9.5901003 66.030998
-8.5390997 -9.5797997 65.959999
-8.4575996 -9.5690002 65.886002
-8.3758001 -9.5576 65.807999
-8.2943001 -9.5464001 65.730003
-8.2189999 -9.5422001 65.700996
-8.1450996 -9.5396004 65.682999
-8.0731001 -9.5390997 65.68
-8.0035 -9.5415001 65.696999
-7.6841998 -9.6806002 66.654999
-7.6033001 -9.6702995 66.583
-7.5236001 -9.6611996 66.519997
-7.4461002 -9.6546001 66.474998
-7.3646002 -9.6428003 66.393997
-7.2849998 -9.6332998 66.329002
-7.2138 -9.6348 66.338997
-7.1578999 -9.6569996 66.491997
-7.1051002 -9.6837997 66.676003
-7.0597 -9.7215004 66.935997
-7.0232 -9.7721996 67.285004
-7.5444002 -10.608 73.041
-7.4998002 -10.658 73.384003
-7.4435 -10.692 73.619003
-7.3804002 -10.717 73.790001
-7.3060999 -10.726 73.852997
-7.217 -10.713 73.764999
-7.1273999 -10.7 73.669998
-7.0374999 -10.685 73.57
-6.9484 -10.671 73.475998
-6.8604002 -10.659 73.390999
-6.7729001 -10.647 73.310997
-6.6869001 -10.638 73.244003
-6.6026001 -10.631 73.195
-6.5198998 -10.626 73.163002
-6.4375 -10.622 73.133003
-6.3561001 -10.619 73.112999
-6.2744002 -10.615 73.089996
-6.1932998 -10.613 73.073997
-6.1121998 -10.61 73.056999
-6.0316 -10.609 73.045998
-5.9509001 -10.607 73.032997
-5.8705001 -10.606 73.023003
-5.7898998 -10.604 73.011002
-5.7104001 -10.604 73.012001
-5.6307001 -10.604 73.011002
-5.5517998 -10.605 73.021004
-5.4731998 -10.607 73.033997
-5.3948998 -10.61 73.052002
-5.3165002 -10.612 73.07
-5.2385998 -10.616 73.095001
-5.1615 -10.621 73.130997
-5.0857 -10.629 73.186996
-5.0103002 -10.639 73.251999
-4.9355001 -10.65 73.327003
-4.8610001 -10.662 73.408997
-4.7870998 -10.675 73.503998
-4.7133999 -10.69 73.603996
-4.6395001 -10.705 73.705002
-4.5661001 -10.721 73.817001
-4.4917998 -10.736 73.919998
-4.4173002 -10.751 74.023003
-4.3421998 -10.765 74.117996
-4.2673998 -10.78 74.222
-4.1914001 -10.793 74.309998
-4.1153998 -10.806 74.401001
-4.0387001 -10.817 74.481003
-3.9616001 -10.829 74.559998
-3.8836999 -10.838 74.624001
-3.8058 -10.848 74.693001
-3.7274001 -10.857 74.753998
-3.6489 -10.866 74.815002
-3.5702 -10.875 74.875
-3.4914 -10.883 74.936996
-3.4122 -10.892 74.991997
-3.3327999 -10.899 75.045998
-3.2535999 -10.908 75.105003
-3.1747 -10.918 75.176003
-3.0959001 -10.929 75.252998
-3.0171001 -10.941 75.334
-2.9382999 -10.954 75.421997
-2.8601 -10.969 75.526001
-2.7815001 -10.984 75.628998
-2.7030001 -11 75.738998
-2.6245 -11.017 75.859001
-2.5458 -11.035 75.978996
-2.4665 -11.051 76.087997
-2.3873999 -11.068 76.209999
-2.3080001 -11.086 76.332001
-2.2284999 -11.105 76.459
-2.1487999 -11.124 76.591003
-2.069 -11.144 76.730003
-1.9891 -11.165 76.874001
-1.9091001 -11.187 77.028999
-1.8292 -11.213 77.203003
-1.7496001 -11.242 77.402
-1.6698 -11.273 77.615997
-1.5901 -11.308 77.859001
-1.5104001 -11.347 78.125999
-1.4296 -11.382 78.370003
-1.3492 -11.424 78.661003
-1.2697001 -11.481 79.050003
-1.1905 -11.55 79.523003
-1.1105 -11.62 80.005997
-1.0306 -11.702 80.574997
-0.96688002 -12.002 82.639
-0.88142997 -12.066 83.077003
-0.79430997 -12.119 83.441002
-0.70577002 -12.161 83.731003
-0.61579001 -12.187 83.910004
-0.52458 -12.193 83.954002
-0.43305999 -12.194 83.959
-0.34150001 -12.193 83.954002
-0.24992999 -12.192 83.945999
-0.15836 -12.189 83.925003
-0.066835999 -12.185 83.900002
2.0232 -9.8824997 68.044998
2.0943999 -9.8687 67.948997
2.1647 -9.8512001 67.829002
2.2365 -9.8418999 67.764999
2.3071001 -9.8278999 67.668999
2.3771 -9.8122997 67.560997
2.4468999 -9.7965002 67.452003
2.5167999 -9.7824001 67.355003
2.5868001 -9.7693996 67.265999
2.6571 -9.7581997 67.188004
2.7274001 -9.7477999 67.116997
2.7972 -9.7358999 67.035004
2.8666999 -9.7237997 66.952003
2.9360001 -9.7115002 66.866997
3.0041001 -9.6959 66.760002
3.0713 -9.6782999 66.638
3.1386001 -9.6619997 66.526001
3.2058001 -9.6457996 66.415001
3.2734001 -9.6317997 66.318001
3.3418 -9.6204996 66.239998
3.411 -9.6118002 66.181
3.4807 -9.6051998 66.135002
3.5510001 -9.6002998 66.101997
3.6221001 -9.5977001 66.084
3.6935 -9.5958996 66.070999
3.7649 -9.5942001 66.059998
3.8361001 -9.5923004 66.045998
3.9070001 -9.5895996 66.028
3.9774001 -9.5858002 66.000999
4.0476999 -9.5817003 65.973
4.118 -9.5778999 65.946999
4.1883998 -9.5746002 65.924004
4.2586999 -9.5710001 65.900002
4.3291998 -9.5678997 65.877998
4.3994999 -9.5646 65.856003
4.4699998 -9.5616999 65.835999
4.5398002 -9.5577002 65.807999
4.6097999 -9.5538998 65.781998
4.6795998 -9.5502005 65.755997
4.7494998 -9.5464001 65.730003
4.8189001 -9.5419998 65.699997
4.8887 -9.5383997 65.675003
4.9583998 -9.5347996 65.650002
5.0286999 -9.5321999 65.633003
5.0988002 -9.5296001 65.614998
5.1701002 -9.5291004 65.611
5.2413998 -9.5286999 65.608002
5.3130002 -9.5289001 65.610001
5.3843002 -9.5284996 65.607002
5.4556999 -9.5282001 65.605003
5.5265002 -9.5269003 65.596001
5.5970998 -9.5253 65.584999
5.6672001 -9.5229998 65.569
5.7371998 -9.5204 65.552002
5.8066001 -9.5170002 65.528
5.8758998 -9.5136003 65.503998
5.9447999 -9.5094995 65.475998
6.0139999 -9.5059996 65.452003
6.0830998 -9.5025997 65.428001
6.1526999 -9.4998999 65.410004
6.2224998 -9.4975004 65.393997
6.2926002 -9.4956999 65.380997
6.3629999 -9.4944 65.372002
6.4335999 -9.4933996 65.365997
6.5043001 -9.4926004 65.360001
6.5752001 -9.4919996 65.356003
6.6461 -9.4914999 65.351997
6.7171001 -9.4912004 65.349998
6.7880998 -9.4907999 65.347
6.8590999 -9.4905005 65.345001
6.9301 -9.4900999 65.343002
7.0009999 -9.4897003 65.339996
7.0718999 -9.4891996 65.335999
7.1427999 -9.4888 65.333
7.2142 -9.4889002 65.334
7.2859001 -9.4896002 65.338997
7.3583002 -9.4911003 65.348999
7.4320998 -9.4942999 65.372002
7.5072999 -9.4991999 65.404999
7.5839 -9.5058002 65.450996
7.6616001 -9.5136995 65.504997
7.7399001 -9.5221996 65.564003
7.8188 -9.5312996 65.625999
7.8975 -9.5397997 65.684998
7.9755998 -9.5475998 65.738998
8.0521002 -9.5532999 65.778
8.1252003 -9.5550003 65.790001
8.1947002 -9.5523996 65.772003
8.2621002 -9.5474005 65.737
8.3280001 -9.5408001 65.692001
8.3927002 -9.5328999 65.637001
8.4576998 -9.5255003 65.586998
8.5258999 -9.5218 65.560997
8.5984001 -9.5228996 65.569
8.6731005 -9.5264997 65.593002
8.7508001 -9.5332003 65.639999
8.8330002 -9.5446997 65.719002
8.9207001 -9.5619001 65.836998
9.0072002 -9.5775003 65.944
9.0932999 -9.5924997 66.047997
9.1780996 -9.6058998 66.139999
9.2608004 -9.6169004 66.216003
9.3401003 -9.6241999 66.265999
9.4184999 -9.6304998 66.308998
9.4958 -9.6356001 66.344002
9.5721998 -9.6395998 66.372002
9.6485004 -9.6436005 66.399002
9.7250996 -9.6477003 66.428001
9.8021002 -9.6521997 66.459
9.8801003 -9.6576004 66.496002
9.9589996 -9.6639004 66.539001
10.039 -9.6708002 66.586998
10.119 -9.6785002 66.639999
10.201 -9.6865997 66.695999
10.284 -9.6964998 66.763
10.372 -9.7108002 66.862
10.465 -9.7293997 66.989998
10.562 -9.7517004 67.143997
10.667 -9.7809 67.345001
10.787 -9.8234997 67.638
13.251 -11.986 82.525002
13.38 -12.021 82.765999
13.497 -12.044 82.928001
13.604 -12.059 83.030998
13.699 -12.063 83.057999
13.785 -12.059 83.031998
13.865 -12.05 82.968002
13.943 -12.039 82.893997
14.021 -12.028 82.817001
14.099 -12.018 82.746002
14.178 -12.008 82.679001
14.258 -12 82.622002
14.341 -11.993 82.578003
14.425 -11.988 82.544998
14.511 -11.985 82.524002
14.597 -11.983 82.503998
14.686 -11.981 82.494003
14.773 -11.979 82.482002
14.862 -11.978 82.473999
14.949 -11.976 82.459
15.036 -11.974 82.445
15.123 -11.971 82.426003
15.209 -11.968 82.406998
15.293 -11.964 82.374001
15.378 -11.96 82.346001
15.46 -11.954 82.305
15.543 -11.948 82.267998
15.623 -11.941 82.221001
15.706 -11.936 82.182999
15.787 -11.93 82.141998
15.871 -11.925 82.111
15.954 -11.921 82.078003
16.039 -11.917 82.054001
16.124001 -11.914 82.030998
16.209999 -11.912 82.014999
16.296 -11.909 81.996002
16.382 -11.906 81.978996
16.466999 -11.903 81.958
16.551001 -11.9 81.932999
16.635 -11.896 81.905998
16.719 -11.892 81.880997
16.802999 -11.888 81.851997
16.886 -11.884 81.823997
16.969999 -11.88 81.797997
17.054001 -11.877 81.776001
17.139 -11.874 81.754997
17.224001 -11.871 81.736
17.309 -11.868 81.717003
17.395 -11.866 81.698997
17.48 -11.863 81.68
17.565001 -11.86 81.662003
17.65 -11.858 81.644997
17.736 -11.856 81.628998
17.822001 -11.853 81.614998
17.908001 -11.852 81.601997
17.995001 -11.85 81.592003
18.082001 -11.849 81.584999
18.171 -11.849 81.584
18.26 -11.849 81.585999
18.351 -11.85 81.594002
18.441999 -11.852 81.603996
18.535 -11.854 81.619003
18.627001 -11.856 81.632004
18.719999 -11.859 81.650002
18.813 -11.861 81.667
18.908001 -11.865 81.694
19.004 -11.869 81.724998
19.101999 -11.875 81.764
19.201 -11.881 81.803001
19.302 -11.888 81.853996
19.403 -11.895 81.903
19.507999 -11.905 81.969002
19.612 -11.914 82.029999
19.718 -11.924 82.098999
19.820999 -11.932 82.155998
19.923 -11.939 82.206001
20.021 -11.944 82.239998
20.118 -11.948 82.268997
20.212 -11.951 82.290001
20.309999 -11.956 82.320999
20.409 -11.962 82.361
20.516001 -11.972 82.429001
20.628 -11.985 82.517998
20.747999 -12.002 82.639
20.896 -12.035 82.866997
21.049999 -12.071 83.115997
21.212999 -12.113 83.403
21.389999 -12.162 83.740997
21.59 -12.223 84.161003
21.792 -12.286 84.592003
22.024 -12.364 85.133003
22.243999 -12.435 85.620003
22.438999 -12.492 86.010002
22.658001 -12.561 86.487
22.822001 -12.6 86.751999
22.968 -12.628 86.948997
23.1 -12.648 87.087997
23.219 -12.661 87.178001
23.325001 -12.667 87.220001
23.419001 -12.667 87.213997
-9.9643002 -9.4953003 65.873001
-9.9013996 -9.5038996 65.931999
-9.8365002 -9.5106001 65.978996
-9.7705002 -9.5164003 66.018997
-9.7040005 -9.5218 66.056999
-9.6403999 -9.5302 66.114998
-9.5726004 -9.5344 66.143997
-9.5043001 -9.5382004 66.170998
-9.4345999 -9.5407 66.188004
-9.3638 -9.5421 66.197998
-9.2889004 -9.5393 66.178001
-9.2151003 -9.5376997 66.167
-9.1421003 -9.5367002 66.160004
-9.0700998 -9.5368996 66.161003
-8.9983997 -9.5373001 66.165001
-8.9264002 -9.5375004 66.166
-8.8516998 -9.5347004 66.146004
-8.7753 -9.5302 66.114998
-8.6969004 -9.5232 66.067001
-8.6156998 -9.5130997 65.996002
-8.5333004 -9.5015001 65.916
-8.4499998 -9.4885998 65.827003
-8.3663998 -9.4751997 65.734001
-8.2834997 -9.4624004 65.644997
-8.2060003 -9.4554996 65.597
-8.1292 -9.4495001 65.555
-8.0586996 -9.4505997 65.563004
-7.6159 -9.6134996 66.693001
-7.5307999 -9.5978003 66.584
-7.4509001 -9.5882998 66.517998
-7.3676 -9.5742998 66.420998
-7.2869 -9.5635004 66.346001
-7.2168999 -9.5665998 66.367996
-7.1615 -9.5894003 66.526001
-7.1090999 -9.6164999 66.713997
-7.0647998 -9.6554003 66.983002
-7.0297999 -9.7080002 67.348
-7.5583 -10.548 73.175003
-7.5107002 -10.593 73.490997
-7.4538002 -10.626 73.720001
-7.3899999 -10.65 73.886002
-7.3123002 -10.655 73.915001
-7.2231998 -10.642 73.828003
-7.1334 -10.628 73.732002
-7.0440001 -10.615 73.638
-6.9545999 -10.601 73.542
-6.8670998 -10.589 73.463997
-6.7803001 -10.579 73.390999
-6.6950998 -10.571 73.334999
-6.6099 -10.562 73.276001
-6.5271001 -10.558 73.244003
-6.4443998 -10.553 73.210999
-6.3631001 -10.551 73.194
-6.2810001 -10.547 73.167999
-6.1996002 -10.544 73.149002
-6.118 -10.541 73.125999
-6.0367999 -10.538 73.109001
-5.9555001 -10.535 73.088997
-5.8744001 -10.533 73.071999
-5.7933998 -10.531 73.055
-5.7133002 -10.53 73.050003
-5.6332002 -10.529 73.042999
-5.5538998 -10.53 73.049004
-5.4751 -10.531 73.058998
-5.3965001 -10.533 73.073997
-5.3179002 -10.535 73.087997
-5.2398 -10.539 73.111
-5.1626 -10.544 73.146004
-5.0867 -10.552 73.200996
-5.0112 -10.561 73.264
-4.9362998 -10.571 73.338997
-4.8615999 -10.583 73.418999
-4.7877998 -10.597 73.514
-4.7138 -10.611 73.611
-4.6396999 -10.625 73.708
-4.5661001 -10.64 73.817001
-4.4916 -10.655 73.916
-4.4169998 -10.669 74.016998
-4.3418002 -10.683 74.110001
-4.2669001 -10.698 74.213997
-4.1908998 -10.71 74.301003
-4.1150999 -10.724 74.396004
-4.0386 -10.736 74.481003
-3.9618001 -10.748 74.563004
-3.8838999 -10.758 74.628998
-3.8062 -10.768 74.700996
-3.7279999 -10.777 74.765999
-3.6496 -10.786 74.829002
-3.5709 -10.795 74.890999
-3.4921999 -10.804 74.954002
-3.4131 -10.813 75.011002
-3.3336999 -10.82 75.064003
-3.2544999 -10.829 75.125999
-3.1756001 -10.839 75.197998
-3.0968001 -10.851 75.276001
-3.0179999 -10.863 75.358002
-2.9395001 -10.876 75.453003
-2.8612001 -10.891 75.556999
-2.7828 -10.907 75.665001
-2.7044001 -10.923 75.778999
-2.6259999 -10.941 75.902
-2.5473001 -10.958 76.023003
-2.4682 -10.975 76.139999
-2.3889999 -10.993 76.261002
-2.3096001 -11.011 76.387001
-2.2300999 -11.029 76.515999
-2.1505001 -11.049 76.651001
-2.0706999 -11.07 76.793999
-1.9910001 -11.091 76.945999
-1.9111 -11.115 77.110001
-1.8314 -11.141 77.292999
-1.7517999 -11.172 77.502998
-1.6720999 -11.203 77.723
-1.5927 -11.241 77.986
-1.5127 -11.279 78.247002
-1.4322 -11.317 78.509003
-1.352 -11.363 78.828003
-1.2733001 -11.427 79.276001
-1.1938 -11.494 79.737
-1.114 -11.568 80.251999
-1.0524 -11.86 82.279999
-0.96845001 -11.931 82.772003
-0.88252002 -11.99 83.18
-0.79518998 -12.041 83.533997
-0.70637 -12.08 83.802002
-0.61616999 -12.103 83.960999
-0.52477002 -12.106 83.985001
-0.43324 -12.107 83.992996
-0.34165999 -12.107 83.994003
-0.25005001 -12.106 83.985001
2.023 -9.8073997 68.038002
2.0941999 -9.7937002 67.943001
2.1640999 -9.7747002 67.810997
2.2358999 -9.7650995 67.745003
2.3062999 -9.7505999 67.643997
2.3762 -9.7349997 67.536003
2.4461 -9.7199001 67.431
2.5158999 -9.7056999 67.332001
2.5862 -9.6938 67.25
2.6566 -9.6831999 67.177002
2.727 -9.6731005 67.107002
2.7967 -9.6612997 67.024002
2.8663001 -9.6494999 66.943001
2.9356999 -9.6375999 66.860001
3.0044999 -9.6246004 66.769997
3.0725 -9.6094999 66.665001
3.1407001 -9.5957003 66.57
3.2086999 -9.5822001 66.475998
3.2771001 -9.5703001 66.392998
3.3457 -9.5593004 66.317001
3.4151001 -9.5511999 66.261002
3.4847 -9.5440998 66.210999
3.5546 -9.5376997 66.167
3.6249001 -9.5331001 66.135002
3.6956999 -9.5296001 66.111
3.7665 -9.5263004 66.087997
3.8371 -9.5228004 66.064003
3.9075999 -9.5188999 66.037003
3.9777 -9.5143995 66.004997
4.0478001 -9.5099001 65.973999
4.118 -9.5060997 65.947998
4.1883001 -9.5024004 65.922997
4.2586999 -9.4990997 65.900002
4.3291001 -9.4960003 65.877998
4.3994999 -9.4927998 65.855003
4.4699998 -9.4899998 65.835999
4.5398002 -9.4858999 65.807999
4.6097999 -9.4821997 65.781998
4.6795998 -9.4785004 65.755997
4.7494998 -9.4747 65.730003
4.8189001 -9.4703999 65.699997
4.8887 -9.4667997 65.675003
4.9583998 -9.4631996 65.650002
5.0286002 -9.4605999 65.632004
5.0987 -9.4579 65.612999
5.1698999 -9.4573002 65.609001
5.2410998 -9.4566002 65.603996
5.3126001 -9.4566002 65.603996
5.3836999 -9.4558001 65.598999
5.4548998 -9.4553003 65.595001
5.5254998 -9.4537001 65.584999
5.5960002 -9.4518995 65.571999
5.6659002 -9.4493999 65.554001
5.7357998 -9.4467001 65.536003
5.8052001 -9.4434004 65.513
5.8744998 -9.4399004 65.488998
5.9433999 -9.4359999 65.461998
6.0127001 -9.4327002 65.439003
6.0819998 -9.4294996 65.417
6.1515999 -9.4268999 65.398003
6.2213998 -9.4245996 65.383003
6.2915001 -9.4228001 65.370003
6.3618999 -9.4214001 65.360001
6.4324002 -9.4203997 65.353996
6.5030999 -9.4195995 65.348
6.5739999 -9.4190998 65.344002
6.645 -9.4188004 65.342003
6.7161999 -9.4186001 65.341003
6.7873001 -9.4184999 65.339996
6.8586001 -9.4184999 65.339996
6.9296999 -9.4183998 65.338997
7.0008001 -9.4181995 65.337997
7.0717001 -9.4176998 65.334999
7.1427002 -9.4174004 65.333
7.2140999 -9.4174995 65.334
7.2859001 -9.4182997 65.338997
7.3585 -9.4201002 65.350998
7.4322 -9.4231997 65.372002
7.5071998 -9.4278002 65.404999
7.5834999 -9.4341002 65.447998
7.6610999 -9.4417 65.500999
7.7396002 -9.4504004 65.560997
7.8186002 -9.4594002 65.624001
7.8972998 -9.4680996 65.683998
7.9752998 -9.4756002 65.736
8.0514002 -9.4808998 65.773003
8.1247997 -9.4827995 65.786003
8.1948004 -9.4807997 65.772003
8.2628002 -9.4764996 65.742996
8.3291998 -9.4706001 65.700996
8.3947001 -9.4636002 65.653
8.46 -9.4566002 65.603996
8.5278997 -9.4525003 65.575996
8.5998001 -9.4530001 65.580002
8.6739998 -9.4559002 65.598999
8.7510004 -9.4618998 65.640999
8.8329 -9.4729004 65.718002
8.9174995 -9.4867001 65.813004
9.0019999 -9.5001001 65.905998
9.0876999 -9.5146999 66.007004
9.1724005 -9.5278997 66.098999
9.2547998 -9.5383997 66.171997
9.3339996 -9.5457001 66.223
9.4123001 -9.5518999 66.264999
9.4896002 -9.5570002 66.301003
9.5658998 -9.5609999 66.329002
9.6422997 -9.5649996 66.357002
9.7187004 -9.5690002 66.385002
9.7955999 -9.5733995 66.415001
9.8736 -9.5788002 66.452003
9.9525995 -9.5852003 66.496002
10.033 -9.5923996 66.546997
10.114 -9.6007004 66.603996
10.196 -9.6098003 66.667999
10.281 -9.6206999 66.742996
10.369 -9.6355 66.846001
10.463 -9.6542997 66.975998
10.56 -9.6767998 67.132004
10.665 -9.7054005 67.331001
10.785 -9.7473001 67.621002
13.221 -11.869 82.337997
