# .PCD v0.7 - Point Cloud Data file format
VERSION 0.7
FIELDS x y z
SIZE 4 4 4
TYPE F F F
COUNT 1 1 1
WIDTH 1700
HEIGHT 1
VIEWPOINT 0 0 0 1 0 0 0
POINTS 1700
DATA ascii
68.572998 -9.5247002 6.1908002
68.592003 -9.4607 6.1735001
68.607002 -9.3961 6.1559
68.614998 -9.3304996 6.1378002
68.623001 -9.2649002 6.1197
68.629997 -9.1991997 6.1015
68.639 -9.1337996 6.0834999
68.651001 -9.0688 6.0657001
68.670998 -9.0050001 6.0485001
68.695 -8.9419003 6.0316
68.730003 -8.8802004 6.0155001
68.771004 -8.8193998 5.9998002
68.816002 -8.7591 5.9843998
68.862999 -8.6990995 5.9692001
68.908997 -8.6388998 5.9538999
68.950996 -8.5780001 5.9382
68.987 -8.5163002 5.9221001
69.011002 -8.4530001 5.9052
69.023003 -8.3881998 5.8874998
69.019997 -8.3212004 5.8685999
69.001999 -8.2524004 5.8487
68.973999 -8.1823997 5.8281002
68.941002 -8.1118002 5.8072
68.898003 -8.04 5.7856002
68.850998 -7.9678998 5.7638998
68.791 -7.8941998 5.7410998
68.734001 -7.8211002 5.7186999
68.716003 -7.7740002 5.6350002
68.692001 -7.7501001 5.6974001
68.670998 -7.7027001 5.6135998
68.655998 -7.6799002 5.6764998
68.635002 -7.6115999 5.6567001
68.622002 -7.5444999 5.6374998
68.619003 -7.4784999 5.6188002
68.621002 -7.4133 5.6006999
68.636002 -7.3495998 5.5833001
68.661003 -7.3081002 5.5028
68.656998 -7.2866998 5.5662999
68.667999 -7.2226 5.5488
68.892998 -13.345 7.2722998
68.883003 -13.322 7.3379998
68.865997 -13.249 7.3168001
68.858002 -13.178 7.2964001
68.860001 -13.108 7.277
68.862999 -13.039 7.2578001
68.864998 -12.97 7.2384
68.869003 -12.901 7.2192001
68.870003 -12.831 7.1996999
68.867996 -12.762 7.1801
68.862 -12.691 7.1601
68.858002 -12.621 7.1401
68.858002 -12.551 7.1206999
68.862999 -12.483 7.1016998
68.867996 -12.415 7.0826998
68.871002 -12.346 7.0634999
68.866997 -12.276 7.0437002
68.853996 -12.204 7.0232
68.835999 -12.132 7.0022001
68.813004 -12.059 6.9808002
68.783997 -11.984 6.9589
68.75 -11.909 6.9366002
68.712997 -11.833 6.9141002
68.674004 -11.757 6.8915
68.638 -11.682 6.8691001
68.617996 -11.61 6.8481002
68.608002 -11.54 6.8280001
68.606003 -11.471 6.8087001
68.613998 -11.404 6.7902002
68.628998 -11.338 6.7722998
68.655998 -11.275 6.7554002
68.689003 -11.213 6.7391
68.728996 -11.152 6.7233
68.773003 -11.091 6.7079
68.819 -11.031 6.6925001
68.855003 -10.969 6.6764002
68.874001 -10.904 6.6588001
68.871002 -10.835 6.6395001
68.855003 -10.764 6.619
68.794998 -10.686 6.5949998
68.267998 -10.348 6.4113998
68.258003 -10.326 6.4752998
68.168999 -10.244 6.4492998
68.137001 -10.172 6.4278998
68.140999 -10.106 6.4094
68.157997 -10.042 6.3920002
68.184998 -9.9790001 6.3752999
68.231003 -9.9194002 6.3601999
68.281998 -9.8606005 6.3455
68.336998 -9.8023996 6.3311
68.391998 -9.7440004 6.3165998
68.445 -9.6852999 6.3018999
68.492996 -9.6258001 6.2869
68.529999 -9.5644999 6.2709999
68.556999 -9.5017004 6.2543001
68.570999 -9.4368 6.2365999
68.580002 -9.3713999 6.2185001
68.582001 -9.3049002 6.1999002
68.583 -9.2382002 6.1812
68.583 -9.1716003 6.1626
68.584 -9.1050997 6.1438999
68.588997 -9.0391998 6.1255999
68.608002 -8.9752998 6.1083002
68.634003 -8.9125004 6.0915999
68.675003 -8.8516998 6.0760002
68.721001 -8.7916002 6.0606999
68.772003 -8.7321997 6.0458002
68.822998 -8.6726999 6.0309
68.873001 -8.6129999 6.0158
68.918999 -8.5527 6.0005002
68.957001 -8.4913998 5.9846001
68.983002 -8.4282999 5.9678001
68.994003 -8.3633003 5.9499998
68.986 -8.2958002 5.9308
68.961998 -8.2262001 5.9103999
68.93 -8.1556997 5.8895001
68.892998 -8.0846004 5.8681998
68.844002 -8.0121002 5.8462
68.795998 -7.9398999 5.8242002
68.741997 -7.8670998 5.802
68.691002 -7.7947998 5.7799001
68.653999 -7.7244 5.7589002
68.625 -7.6550999 5.7384
68.612999 -7.5879998 5.7191
68.607002 -7.5218 5.7003999
68.612 -7.4568 5.6823001
68.616997 -7.3917999 5.6641998
68.634003 -7.3284998 5.6469998
68.650002 -7.2649002 5.6297998
68.658997 -7.2005 5.612
68.873001 -13.3 7.4036999
68.847 -13.225 7.3815999
68.833 -13.152 7.3606
68.828003 -13.081 7.3406
68.825996 -13.011 7.3207998
68.825996 -12.942 7.3011999
68.827003 -12.872 7.2817001
68.825996 -12.802 7.2621002
68.824997 -12.733 7.2424998
68.823997 -12.663 7.2227998
68.829002 -12.595 7.2038002
68.836998 -12.527 7.1851001
68.848999 -12.46 7.1666999
68.861 -12.393 7.1483002
68.873001 -12.326 7.1297998
68.874001 -12.257 7.1104999
68.865997 -12.186 7.0903001
68.841003 -12.113 7.0688
68.807999 -12.037 7.0464001
68.766998 -11.961 7.0233998
68.722 -11.883 7.0001001
68.669998 -11.805 6.9761
68.616997 -11.726 6.9521999
68.575996 -11.65 6.9292998
68.556999 -11.578 6.9085002
68.549004 -11.509 6.8885002
68.552002 -11.441 6.8695998
68.560997 -11.374 6.8512001
68.575996 -11.309 6.8333001
68.598999 -11.245 6.8161001
68.626999 -11.181 6.7993002
68.660004 -11.119 6.783
68.693001 -11.057 6.7666001
68.726997 -10.994 6.7504001
68.751999 -10.93 6.7333002
68.764999 -10.865 6.7153001
68.752998 -10.794 6.6950998
68.725998 -10.722 6.6738
68.650002 -10.641 6.6483998
68.532997 -10.554 6.6195998
68.487 -10.499 6.5317998
68.431 -10.469 6.5921998
68.365997 -10.411 6.5029998
68.338997 -10.386 6.5657001
68.252998 -10.305 6.5395999
68.183998 -10.226 6.5151
68.167 -10.157 6.4949002
68.170998 -10.09 6.4763999
68.183998 -10.025 6.4587002
68.204002 -9.9616003 6.4415002
68.239998 -9.9005003 6.4256001
68.286003 -9.8407001 6.4103999
68.334999 -9.7814999 6.3955002
68.388 -9.7228003 6.3808999
68.439003 -9.6637001 6.3660998
68.487 -9.6042004 6.3511
68.523003 -9.5427999 6.3351002
68.547997 -9.4798002 6.3182998
68.556 -9.4139996 6.3000998
68.557999 -9.3473997 6.2814999
68.552002 -9.2798004 6.2623
68.543999 -9.2118998 6.2428999
68.532997 -9.1435003 6.2233
68.526001 -9.0760002 6.2041001
68.516998 -9.0080996 6.1847
68.535004 -8.9441004 6.1673002
68.560997 -8.8814001 6.1506
68.610001 -8.8218002 6.1357002
68.665001 -8.7629995 6.1210999
68.723 -8.7045002 6.1066999
68.779999 -8.6459999 6.0922999
68.834999 -8.5869999 6.0777001
68.887001 -8.5275002 6.0627999
68.93 -8.4667997 6.0472999
68.959 -8.4041996 6.0307002
68.973999 -8.3396997 6.0131001
68.960999 -8.2714996 5.9935002
68.931 -8.2011003 5.9727001
68.889 -8.1294003 5.9510002
68.842003 -8.0571003 5.9289999
68.785004 -7.9836001 5.9063001
68.730003 -7.9106002 5.8839002
68.674004 -7.8376002 5.8613
68.627998 -7.7659998 5.8396001
68.598999 -7.6966 5.8189998
68.584 -7.6290998 5.7995
68.583 -7.5634999 5.7810001
68.584999 -7.4980998 5.7627001
68.595001 -7.4338002 5.7449999
68.607002 -7.3697 5.7273998
68.625999 -7.3065 5.7103
68.640999 -7.2428999 5.6929998
68.643997 -7.1778002 5.6747999
68.641998 -7.1121998 5.6563001
68.908997 -13.378 7.4267001
68.905998 -13.357 7.4931002
68.863998 -13.278 7.4695001
68.830002 -13.201 7.4464998
68.807999 -13.127 7.4247999
68.795998 -13.055 7.4039998
68.789001 -12.984 7.3836999
68.781998 -12.913 7.3635001
68.779999 -12.842 7.3436999
68.778999 -12.773 7.3241
68.779999 -12.704 7.3045998
68.785004 -12.635 7.2856002
68.796997 -12.568 7.2672
68.815002 -12.502 7.2493
68.835999 -12.437 7.2316999
68.857002 -12.372 7.2142
68.877998 -12.307 7.1966
68.887001 -12.239 7.1778998
68.884003 -12.169 7.1581001
68.851997 -12.094 7.1357999
68.808998 -12.017 7.1125002
68.751999 -11.937 7.0879998
68.691002 -11.857 7.0630999
68.619003 -11.775 7.0373998
68.557999 -11.695 7.0127001
68.512001 -11.618 6.9893999
68.498001 -11.547 6.9688001
68.490997 -11.478 6.9489999
68.496002 -11.41 6.9302001
68.505997 -11.344 6.9119
68.517998 -11.278 6.8937998
68.536003 -11.213 6.8762002
68.556 -11.148 6.8586998
68.580002 -11.084 6.8417001
68.603996 -11.02 6.8245001
68.624001 -10.956 6.8070998
68.639 -10.891 6.7893
68.634003 -10.822 6.7695999
68.612 -10.75 6.7487001
68.571999 -10.675 6.7262001
68.511002 -10.597 6.7020001
68.445 -10.518 6.6774001
68.376999 -10.44 6.6526999
68.310997 -10.361 6.6282001
68.25 -10.284 6.6041999
68.202003 -10.209 6.5813999
68.189003 -10.14 6.5613999
68.192001 -10.073 6.5427999
68.203003 -10.008 6.5249
68.221001 -9.9439001 6.5075002
68.250999 -9.8817997 6.4910998
68.291 -9.8210001 6.4754
68.335999 -9.7612 6.4603
68.386002 -9.7018995 6.4454002
68.433998 -9.6424999 6.4305
68.481003 -9.5827999 6.4154
68.516998 -9.5213003 6.3994002
68.542999 -9.4582996 6.3825998
68.542 -9.3913002 6.3638
68.536003 -9.3235998 6.3445001
68.521004 -9.2545996 6.3245001
68.5 -9.1847 6.3041
68.472 -9.1141005 6.2831998
68.455002 -9.0450001 6.2631001
68.440002 -8.9763002 6.2431998
68.458 -8.9125004 6.2259002
68.487 -8.8500996 6.2094002
68.541 -8.7912998 6.1949
68.606003 -8.7339001 6.1810999
68.669998 -8.6765003 6.1673002
68.737 -8.6190996 6.1536002
68.799004 -8.5612001 6.1395998
68.857002 -8.5025997 6.1252999
68.904999 -8.4425001 6.1100998
68.939003 -8.3804998 6.0939002
68.949997 -8.3155003 6.0760002
68.931 -8.2466002 6.0559001
68.891998 -8.1751003 6.0344
68.841003 -8.1021996 6.0120001
68.781998 -8.0284004 5.9891
68.712997 -7.9534998 5.9654999
68.646004 -7.8790998 5.9419999
68.596001 -7.8069 5.9198999
68.557999 -7.7364001 5.8987002
68.540001 -7.6684999 5.8789001
68.538002 -7.6026001 5.8601999
68.544998 -7.5379 5.8422999
68.556 -7.4737 5.8246002
68.57 -7.4098001 5.8072
68.584999 -7.3462 5.7898002
68.607002 -7.2832999 5.7729998
68.624001 -7.2199001 5.7557001
68.625999 -7.1546998 5.7374001
68.619003 -7.0885 5.7185998
68.611 -7.0223999 5.6996999
69.117996 -13.683 7.5925999
69.102997 -13.659 7.6581998
69.07 -13.602 7.5681
69.061996 -13.58 7.6343002
69.015999 -13.52 7.5430999
69.014 -13.5 7.6097999
68.954002 -13.437 7.5174999
68.955002 -13.417 7.5844002
68.905998 -13.337 7.5598001
68.857002 -13.257 7.5353999
68.814003 -13.178 7.5116
68.786003 -13.102 7.4892001
68.764999 -13.028 7.4675999
68.750999 -12.956 7.4466
68.738998 -12.884 7.4257998
68.734001 -12.813 7.4057999
68.733002 -12.743 7.3860998
68.738998 -12.675 7.3670998
68.75 -12.608 7.3485999
68.769997 -12.543 7.3309002
68.795998 -12.478 7.3137999
68.825996 -12.415 7.2971001
68.858002 -12.352 7.2804999
68.888 -12.288 7.2638001
68.906998 -12.223 7.2459002
68.910004 -12.154 7.2268
68.872002 -12.078 7.2038002
68.815002 -11.998 7.1792002
68.739998 -11.915 7.1529999
68.646004 -11.828 7.125
68.568001 -11.745 7.0985999
68.500999 -11.664 7.0732999
68.446999 -11.586 7.0492001
68.436996 -11.516 7.0290999
68.433998 -11.447 7.0095
68.442001 -11.38 6.9910002
68.450996 -11.314 6.9726
68.459999 -11.247 6.9541998
68.473 -11.181 6.9361
68.486 -11.115 6.9180002
68.500999 -11.05 6.9001999
68.512001 -10.984 6.882
68.521004 -10.918 6.8635998
68.522003 -10.85 6.8446002
68.512001 -10.78 6.8245001
68.484001 -10.708 6.8031001
68.447998 -10.634 6.7809
68.411003 -10.56 6.7586999
68.366997 -10.485 6.7358999
68.323997 -10.41 6.7133002
68.278999 -10.336 6.6904998
68.239998 -10.262 6.6682
68.209999 -10.19 6.6468
68.200996 -10.121 6.6271
68.206001 -10.055 6.6086998
68.217003 -9.9897003 6.5907001
68.235001 -9.9256001 6.5732999
68.260002 -9.8626003 6.5565
68.294998 -9.8011999 6.5405002
68.336998 -9.7407999 6.5251002
68.384003 -9.6812 6.5100002
68.431999 -9.6215 6.4949999
68.477997 -9.5616999 6.4798999
68.514 -9.5002003 6.4639001
68.539001 -9.4370003 6.4471002
68.530998 -9.3690004 6.4275999
68.515999 -9.2999001 6.4075999
68.455002 -9.1575003 6.3652
68.407997 -9.0839996 6.3427
68.378998 -9.0132999 6.3217001
68.361 -8.9442997 6.3014998
68.380997 -8.8807001 6.2844
68.413002 -8.8189001 6.2681999
68.471001 -8.7607002 6.2540002
68.540001 -8.7040005 6.2406001
68.617996 -8.6485004 6.2279
68.692001 -8.5922003 6.2147999
68.762001 -8.5353003 6.2013998
68.829002 -8.4778996 6.1877999
68.882004 -8.4184999 6.1731
68.921997 -8.3572998 6.1573
68.928001 -8.2916002 6.1389999
68.901001 -8.2216997 6.1183
68.852997 -8.1491003 6.0960999
68.790001 -8.0747004 6.0727
68.717003 -7.9991002 6.0486999
68.634003 -7.9225001 6.0239
68.557999 -7.8470001 5.9997001
68.510002 -7.7751999 5.9777002
68.471001 -7.7047 5.9563999
68.464996 -7.6384001 5.9375
68.473 -7.5737 5.9194999
68.496002 -7.5110002 5.9026999
68.515999 -7.4478998 5.8857002
68.537003 -7.3850002 5.8688002
68.557999 -7.322 5.8518
68.573997 -7.2584 5.8344998
68.592003 -7.1952 5.8174
68.595001 -7.1301999 5.7992001
68.587997 -7.0640001 5.7803001
68.577003 -6.9974999 5.7610998
68.561996 -6.9306002 5.7417002
69.130997 -13.736 7.6808
69.107002 -13.711 7.7456002
69.083 -13.635 7.7233
69.051003 -13.558 7.7003002
69.010002 -13.479 7.6764998
68.956001 -13.397 7.6513
68.904999 -13.316 7.6265001
68.850998 -13.235 7.6015
68.801003 -13.155 7.5769
68.764999 -13.078 7.5538001
68.736 -13.002 7.5313001
68.713997 -12.928 7.5095
68.699997 -12.855 7.4885001
68.692001 -12.784 7.4681001
68.692001 -12.715 7.4485998
68.702003 -12.648 7.4299002
68.718002 -12.581 7.4119
68.746002 -12.517 7.3948998
68.779999 -12.455 7.3786001
68.82 -12.393 7.3628001
68.861 -12.332 7.3470998
68.902 -12.271 7.3313999
68.927002 -12.206 7.3141999
68.935997 -12.139 7.2954998
68.890999 -12.061 7.2718
68.831001 -11.98 7.2466998
68.606003 -11.801 7.1872001
68.519997 -11.716 7.1601
68.447998 -11.634 7.1342001
68.387001 -11.555 7.1093001
68.382004 -11.485 7.0896001
68.380997 -11.417 7.0703001
68.390999 -11.351 7.052
68.400002 -11.284 7.0335002
68.405998 -11.217 7.0149002
68.413002 -11.15 6.9962001
68.416 -11.083 6.9773998
68.420998 -11.016 6.9586
68.421997 -10.948 6.9394999
68.417 -10.879 6.9200001
68.404999 -10.809 6.8997002
68.382004 -10.738 6.8786001
68.356003 -10.666 6.8572998
68.334999 -10.594 6.8364
68.310997 -10.523 6.8151999
68.289001 -10.452 6.7943001
68.262001 -10.38 6.7729001
68.235001 -10.308 6.7516999
68.211998 -10.237 6.7307
68.197998 -10.168 6.7105999
68.200996 -10.101 6.6918998
68.208 -10.035 6.6735001
68.219002 -9.9695997 6.6556001
68.237 -9.9054003 6.6381998
68.260002 -9.8422003 6.6212001
68.292999 -9.7802 6.605
68.333 -9.7194996 6.5893998
68.378998 -9.6597004 6.5742998
68.425003 -9.5999002 6.5592999
68.472 -9.5402002 6.5443001
68.508003 -9.4786997 6.5282998
68.535004 -9.4157 6.5114999
68.517998 -9.3464003 6.4913998
68.496002 -9.2763004 6.4706998
68.394997 -9.1280003 6.4249001
68.344002 -9.0539999 6.4021001
68.308998 -8.9826002 6.3806
68.282997 -8.9124002 6.3597999
68.306999 -8.8494997 6.3429999
68.339996 -8.7880001 6.3269
68.402 -8.7302999 6.3130002
68.477997 -8.6745996 6.3002
68.559998 -8.6196003 6.2879
68.644997 -8.5649004 6.2758002
68.724998 -8.5094004 6.2631998
68.799004 -8.4530001 6.2501998
68.857002 -8.3942003 6.2357998
68.903999 -8.3339996 6.2206001
68.914001 -8.2688999 6.2027001
68.878998 -8.1978998 6.1813002
68.820999 -8.1239004 6.1581998
68.744003 -8.0478001 6.1336999
68.641998 -7.9685998 6.1073999
68.543999 -7.8902001 6.0815001
68.442001 -7.8113999 6.0553002
68.403 -7.7410002 6.0338998
68.376999 -7.6721001 6.0134001
68.378998 -7.6069002 5.9951
68.396004 -7.5433998 5.9779
68.428001 -7.4819002 5.9618001
68.461998 -7.4205999 5.9457998
68.496002 -7.3590999 5.9298
68.522003 -7.2968001 5.9131999
68.542999 -7.2339001 5.8962998
68.555 -7.1698999 5.8786998
68.559998 -7.105 5.8604999
68.553001 -7.039 5.8417001
68.542999 -6.9726 5.8225002
68.528 -6.9057999 5.8031001
68.552002 -6.8642998 5.7226
68.516998 -6.8393998 5.7838998
68.546997 -6.7986002 5.7038999
68.510002 -6.7736001 5.7651
68.543999 -6.7333002 5.6854
68.508003 -6.7083998 5.7466002
68.511002 -6.6437001 5.7284999
69.121002 -13.784 7.7669001
69.094002 -13.758 7.8313999
69.084999 -13.686 7.8105001
69.061996 -13.61 7.7883
69.038002 -13.535 7.7659998
69.001999 -13.457 7.7426
68.955002 -13.377 7.7181001
68.901001 -13.295 7.6929002
68.843002 -13.213 7.6673999
68.788002 -13.132 7.6423001
68.744003 -13.053 7.6181998
68.708 -12.976 7.5949998
68.68 -12.901 7.5727
68.661003 -12.827 7.5511999
68.653999 -12.757 7.5309
68.655998 -12.688 7.5114002
68.668999 -12.621 7.4931002
68.691002 -12.556 7.4755998
68.724998 -12.493 7.4593
68.767998 -12.432 7.4438
68.817001 -12.373 7.4288998
68.865997 -12.313 7.4138999
68.913002 -12.253 7.3987999
68.933998 -12.187 7.3811998
68.936996 -12.119 7.3618999
68.882004 -12.039 7.3372002
68.808998 -11.956 7.3109002
68.449997 -11.683 7.2192998
68.380997 -11.602 7.1936998
68.324997 -11.523 7.1693001
68.327003 -11.455 7.1501999
68.333 -11.388 7.1314001
68.343002 -11.322 7.1131001
68.350998 -11.255 7.0946002
68.352997 -11.187 7.0756001
68.352997 -11.119 7.0563002
68.348999 -11.051 7.0366998
68.342003 -10.982 7.0170002
68.332001 -10.912 6.9969001
68.316002 -10.841 6.9762998
68.296997 -10.77 6.9555001
68.277 -10.699 6.9345999
68.259003 -10.629 6.9138999
68.245003 -10.559 6.8936
68.231003 -10.489 6.8734002
68.219002 -10.419 6.8532
68.204002 -10.35 6.8329
68.189003 -10.28 6.8126998
68.179001 -10.211 6.7927999
68.176003 -10.144 6.7736001
68.18 -10.077 6.7550001
68.190002 -10.012 6.7368002
68.203003 -9.9466 6.7189999
68.223 -9.8828001 6.7017999
68.248001 -9.8198004 6.6849999
68.280998 -9.7580004 6.6687999
68.320999 -9.6971998 6.6532001
68.366997 -9.6372995 6.6381001
68.414001 -9.5775995 6.6230998
68.460999 -9.5179005 6.6082001
68.5 -9.4567003 6.5924001
68.528 -9.3940001 6.5757999
68.502998 -9.3233995 6.5549002
68.471001 -9.2517996 6.5334001
68.278 -9.0237999 6.4612999
68.236 -8.9512997 6.4390998
68.209999 -8.8814001 6.4183002
68.238998 -8.8191004 6.4018998
68.274002 -8.7579002 6.3860002
68.342003 -8.7011995 6.3727002
68.418999 -8.6456003 6.3600001
68.505997 -8.5914001 6.3481998
68.595001 -8.5372 6.3364
68.685997 -8.4832001 6.3248
68.766998 -8.4278002 6.3123999
68.830002 -8.3697004 6.2983999
68.882004 -8.3101997 6.2837
68.898003 -8.2458 6.2660999
68.853996 -8.1736002 6.244
68.782997 -8.0980997 6.2198
68.692001 -8.0200996 6.1942
68.428001 -7.8546 6.1368999
68.335999 -7.7772999 6.1114001
68.301003 -7.7073998 6.0903001
68.282997 -7.6395998 6.0704002
68.289001 -7.5749998 6.0524001
68.315002 -7.5127001 6.0358
68.355003 -7.4520998 6.0202999
68.394997 -7.3916001 6.0047998
68.439003 -7.3313999 5.9895
68.471001 -7.2698002 5.9734001
68.499001 -7.2076998 5.9569998
68.514 -7.1441002 5.9396
68.522003 -7.0797 5.9217
68.518997 -7.0141001 5.9029999
68.512001 -6.9481001 5.8841
68.500999 -6.8818002 5.8649998
68.492996 -6.8157001 5.8460002
68.488998 -6.7502999 5.8273001
68.489998 -6.6852999 5.809
68.495003 -6.6209002 5.7909999
68.508003 -6.5574002 5.7736001
69.066002 -13.732 7.8957
69.058998 -13.66 7.875
69.042999 -13.586 7.8534999
69.022003 -13.511 7.8315001
68.990997 -13.434 7.8084998
68.947998 -13.355 7.7842999
68.893997 -13.274 7.7591
68.834999 -13.192 7.7333999
68.774002 -13.109 7.7076001
68.721001 -13.028 7.6826
68.679001 -12.95 7.6588001
68.648003 -12.874 7.6360002
68.625999 -12.8 7.6142001
68.619003 -12.729 7.5938001
68.622002 -12.661 7.5745001
68.639 -12.595 7.5565
68.666 -12.531 7.5395002
68.707001 -12.469 7.5239
68.757004 -12.41 7.5091
68.816002 -12.352 7.4951
68.872002 -12.294 7.4808998
68.924004 -12.234 7.4661999
68.952003 -12.17 7.4492998
68.948997 -12.1 7.4294
68.884003 -12.019 7.4036999
68.802002 -11.934 7.3764
68.394997 -11.652 7.2800002
68.321999 -11.57 7.2537999
68.269997 -11.493 7.2297001
68.278 -11.426 7.2112002
68.288002 -11.36 7.1928
68.299004 -11.293 7.1745
68.304001 -11.226 7.1557999
68.301003 -11.158 7.1363001
68.294998 -11.089 7.1163998
68.282997 -11.019 7.0960999
68.267998 -10.948 7.0756001
68.246002 -10.877 7.0545001
68.225998 -10.806 7.0335002
68.206001 -10.734 7.0125999
68.189003 -10.664 6.9919
68.175003 -10.594 6.9716001
68.165001 -10.525 6.9516001
68.155998 -10.456 6.9317999
68.150002 -10.388 6.9122
68.142998 -10.319 6.8924999
68.137001 -10.251 6.8730001
68.135002 -10.184 6.8537998
68.138 -10.117 6.8351002
68.146004 -10.051 6.8168001
68.157997 -9.9858999 6.7989001
68.174004 -9.9215002 6.7813001
68.196999 -9.8580999 6.7642999
68.223999 -9.7954998 6.7477002
68.259003 -9.7339001 6.7316999
68.301003 -9.6735001 6.7163
68.348999 -9.6140003 6.7014999
68.399002 -9.5546999 6.6866999
68.447998 -9.4952002 6.6718998
68.487999 -9.4343004 6.6563001
68.510002 -9.3708 6.6392002
68.477997 -9.2990999 6.6176
68.436996 -9.2262001 6.5953999
68.216003 -8.9941998 6.5205998
68.167999 -8.9209003 6.4980001
68.144997 -8.8514004 6.4773998
68.178001 -8.7898998 6.4612999
68.219002 -8.7294998 6.4459
68.288002 -8.6729002 6.4327002
68.367996 -8.6178999 6.4204001
68.457001 -8.5637999 6.4087
68.552002 -8.5105 6.3975
68.647003 -8.4569998 6.3863001
68.732002 -8.4021997 6.3743
68.799004 -8.3446999 6.3607998
68.857002 -8.2858 6.3464999
68.877998 -8.2222004 6.3292999
68.827003 -8.1491003 6.3065
68.331001 -7.8214998 6.1936002
68.237999 -7.7442002 6.1679001
68.202003 -7.6742001 6.1466999
68.192001 -7.6075001 6.1273999
68.205002 -7.5437999 6.1099
68.234001 -7.4819999 6.0935998
68.277 -7.4218001 6.0783
68.320999 -7.3618002 6.0632
68.367996 -7.302 6.0482001
68.408997 -7.2414999 6.0327001
68.442001 -7.1801 6.0166998
68.462997 -7.1173 5.9998002
68.473999 -7.0531998 5.9821
68.476997 -6.9882998 5.9638
68.474998 -6.9229002 5.9453001
68.469002 -6.8572001 5.9264002
68.466003 -6.7916999 5.9078002
68.466003 -6.7266002 5.8894
68.470001 -6.6620998 5.8713002
68.475998 -6.5977998 5.8533001
68.489998 -6.5344 5.836
68.511002 -6.4717002 5.8190999
69.064003 -13.802 7.9155002
69.031998 -13.775 7.9794002
69.037003 -13.705 7.9598999
69.033997 -13.634 7.9396
69.021004 -13.561 7.9183998
69.001999 -13.487 7.8965998
68.973 -13.41 7.8737001
68.93 -13.331 7.8494
68.874001 -13.249 7.8239002
68.815002 -13.167 7.7982001
68.754997 -13.085 7.7723999
68.698997 -13.004 7.7470002
68.652 -12.924 7.7226
68.619003 -12.848 7.6995001
68.595001 -12.774 7.6775999
68.586998 -12.703 7.6571002
68.592003 -12.634 7.6378999
68.612 -12.569 7.6202002
68.643997 -12.506 7.6037998
68.692001 -12.446 7.5888
68.749001 -12.388 7.5746999
68.814003 -12.331 7.5613999
68.876999 -12.274 7.5478001
68.932999 -12.216 7.5335999
68.967003 -12.153 7.5172
68.958 -12.082 7.4966998
68.886002 -11.999 7.4702001
68.794998 -11.913 7.4418998
68.346001 -11.623 7.3411002
68.266998 -11.54 7.3143001
68.222 -11.464 7.2908001
68.237 -11.398 7.2728
68.249001 -11.332 7.2547002
68.258003 -11.266 7.2361999
68.260002 -11.198 7.2171001
68.252998 -11.129 7.1971998
68.240997 -11.059 7.1768999
68.223 -10.988 7.1560001
68.197998 -10.916 7.1345
68.175003 -10.844 7.1132002
68.152 -10.772 7.092
68.133003 -10.702 7.0711002
68.117996 -10.631 7.0506001
68.105003 -10.562 7.0303998
68.098 -10.493 7.0107002
68.092003 -10.425 6.9910998
68.088997 -10.357 6.9717002
68.084 -10.289 6.9523001
68.083 -10.222 6.9331002
68.084 -10.155 6.9141998
68.088997 -10.089 6.8957
68.098999 -10.023 6.8775001
68.113998 -9.9584999 6.8599
68.134003 -9.8945999 6.8425999
68.158997 -9.8317003 6.8257999
68.190002 -9.7695999 6.8095002
68.228996 -9.7088003 6.7939
68.274002 -9.6487999 6.7788
68.325996 -9.5897999 6.7642999
68.377998 -9.5310001 6.7498002
68.429001 -9.4716997 6.7350998
68.471001 -9.4111004 6.7198
68.488998 -9.3469 6.7023001
68.452003 -9.2746 6.6803002
68.405998 -9.2009001 6.6574998
68.163002 -8.9659996 6.5806999
68.112 -8.8922997 6.5577002
68.093002 -8.8233004 6.5373998
68.132004 -8.7627001 6.5218
68.176003 -8.7027998 6.5067
68.244003 -8.6461 6.4935002
68.323997 -8.5909996 6.4812999
68.411003 -8.5368004 6.4696002
68.509003 -8.4837999 6.4586
68.606003 -8.4306002 6.4475999
68.694 -8.3760996 6.4359002
68.763 -8.3190002 6.4225998
68.824997 -8.2607002 6.4087
68.839996 -8.1962004 6.3909998
68.779999 -8.1219997 6.3674998
68.443001 -7.9014001 6.2207999
68.334999 -7.8667998 6.2765999
68.225998 -7.7873998 6.2494998
68.125999 -7.7094002 6.2231998
68.103996 -7.6412001 6.2030001
68.102997 -7.5757999 6.1844001
68.125 -7.5131998 6.1676002
68.157997 -7.4520001 6.1517
68.203003 -7.3920002 6.1364999
68.246002 -7.3319998 6.1213002
68.294998 -7.2725 6.1065001
68.338997 -7.2124 6.0913
68.377998 -7.1515999 6.0757999
68.402 -7.0892 6.0591002
68.418999 -7.026 6.0419002
68.426003 -6.9615002 6.0239
68.43 -6.8968 6.0057998
68.431 -6.8319001 5.9874001
68.432999 -6.7670002 5.9691
68.436996 -6.7024999 5.9510002
68.445 -6.6384001 5.9331999
68.454002 -6.5743999 5.9155002
68.468002 -6.5110002 5.8980999
68.488998 -6.4482999 5.8811998
68.514999 -6.3860998 5.8646998
69.000999 -13.678 8.0235004
69.001999 -13.607 8.0035
68.989998 -13.534 7.9823999
68.973999 -13.461 7.9608002
68.945999 -13.384 7.9379001
68.903 -13.305 7.9136
68.848999 -13.224 7.8881998
68.790001 -13.142 7.8625002
68.731003 -13.06 7.8365998
68.674004 -12.978 7.8111
68.625 -12.899 7.7863998
68.591003 -12.822 7.7631998
68.565002 -12.748 7.7410002
68.557999 -12.677 7.7205
68.564003 -12.609 7.7014999
68.586998 -12.544 7.6841002
68.625 -12.482 7.6682
68.679001 -12.423 7.6539001
68.739998 -12.366 7.6402001
68.809998 -12.31 7.6273999
68.874001 -12.253 7.6139998
68.926003 -12.194 7.5992999
68.953003 -12.13 7.5823002
68.938004 -12.057 7.5612001
68.858002 -11.973 7.5338998
68.758003 -11.885 7.5047002
68.287003 -11.592 7.4011998
68.219002 -11.511 7.3754001
68.181999 -11.436 7.3525
68.200996 -11.372 7.335
68.212997 -11.306 7.3168001
68.219002 -11.239 7.2981
68.216003 -11.17 7.2785001
68.204002 -11.1 7.2581
68.185997 -11.029 7.2371001
68.162003 -10.957 7.2157001
68.133003 -10.884 7.1938
68.107002 -10.812 7.1722002
68.083 -10.74 7.1508999
68.065002 -10.67 7.1300998
68.052002 -10.6 7.1097002
68.041 -10.531 7.0896001
68.035004 -10.462 7.0699
68.028999 -10.394 7.0503998
68.026001 -10.326 7.0310001
68.023003 -10.259 7.0117002
68.024002 -10.192 6.9928002
68.027 -10.125 6.9738998
68.032997 -10.059 6.9555001
68.044998 -9.9940004 6.9376001
68.064003 -9.9300003 6.9201999
68.086998 -9.8667002 6.9032001
68.115997 -9.8044004 6.8867998
68.150002 -9.7428999 6.8708
68.193001 -9.6827002 6.8555999
68.241997 -9.6232996 6.8408999
68.296997 -9.5648003 6.8266001
68.351997 -9.5064001 6.8123999
68.404999 -9.4474001 6.7979999
68.448997 -9.3872004 6.7828002
68.462997 -9.3223 6.7649002
68.424004 -9.2496996 6.7427001
68.375999 -9.1758003 6.7196999
68.124001 -8.9397001 6.6419001
68.071999 -8.8659 6.6187
68.058998 -8.7980003 6.5988998
68.097 -8.7370996 6.5833001
68.142998 -8.6774998 6.5683999
68.209999 -8.6206999 6.5551
68.286003 -8.5650997 6.5426002
68.371002 -8.5103998 6.5307002
68.463997 -8.4569998 6.5195999
68.560997 -8.4036999 6.5086002
68.649002 -8.3491001 6.4969001
68.719002 -8.2921 6.4836998
68.783997 -8.2343998 6.4702001
68.791 -8.1688995 6.4519
68.723999 -8.0937996 6.4277
68.125 -7.7539001 6.3056002
68.028 -7.6763 6.2793999
68.016998 -7.6097002 6.2600002
68.027 -7.5455999 6.2423
68.056 -7.4839001 6.2259998
68.091003 -7.4229999 6.2101998
68.136002 -7.3631001 6.1952
68.18 -7.3031998 6.1801
68.224998 -7.2434001 6.1651001
68.266998 -7.1830001 6.1497002
68.305 -7.1223001 6.1342001
68.334 -7.0605001 6.1178999
68.358002 -6.9979 6.1011
68.370003 -6.9341998 6.0836
68.379997 -6.8702998 6.0658998
68.387001 -6.8059001 6.0479002
68.393997 -6.7417002 6.0300002
68.403 -6.6775999 6.0121999
68.414001 -6.6139998 5.9945998
68.428001 -6.5504999 5.9772
68.444 -6.4872999 5.96
68.463997 -6.4245 5.9429998
68.487999 -6.3621998 5.9264002
68.513 -6.3000002 5.9098001
68.967003 -13.65 8.0871
68.967003 -13.58 8.0670996
68.957001 -13.507 8.0459995
68.941002 -13.433 8.0243998
68.914001 -13.357 8.0017004
68.872002 -13.279 7.9775
68.817001 -13.197 7.9519
68.763 -13.116 7.9264002
68.703003 -13.034 7.9004002
68.646004 -12.953 7.8748999
68.597 -12.873 7.8501
68.563004 -12.796 7.8267999
68.536003 -12.722 7.8045001
68.528 -12.651 7.7839999
68.537003 -12.583 7.7651
68.564003 -12.519 7.7481999
68.606003 -12.458 7.7326999
68.666 -12.4 7.7189002
68.732002 -12.344 7.7059002
68.802002 -12.288 7.6931
68.866997 -12.232 7.6798
68.908997 -12.17 7.6643
68.925003 -12.104 7.6461
68.903 -12.031 7.6243
68.237 -11.562 7.4621
68.181999 -11.484 7.4373999
68.153999 -11.411 7.4154
68.169998 -11.346 7.3975
68.179001 -11.279 7.3790002
68.179001 -11.211 7.3597999
68.170998 -11.142 7.3397002
68.154999 -11.071 7.3188
68.130997 -10.999 7.2972999
68.099998 -10.926 7.2751999
68.070999 -10.853 7.2533002
68.043999 -10.781 7.2315001
68.022003 -10.709 7.2103
68.005997 -10.639 7.1897001
67.992996 -10.57 7.1693001
67.983002 -10.501 7.1493001
67.976997 -10.432 7.1296
67.970001 -10.364 7.1099
67.966003 -10.296 7.0904999
67.961998 -10.228 7.0710001
67.962997 -10.161 7.0521002
67.966003 -10.095 7.0332999
67.974998 -10.029 7.0151
67.988998 -9.9645996 6.9973001
68.009003 -9.9008999 6.9801002
68.035004 -9.8381004 6.9633999
68.067001 -9.7762003 6.9473
68.105003 -9.7152996 6.9317002
68.151001 -9.6555996 6.9166999
68.204002 -9.5969 6.9022999
68.262001 -9.5389004 6.8884001
68.32 -9.4808998 6.8744998
68.373001 -9.4219999 6.8600998
68.412003 -9.3608999 6.8445001
68.424004 -9.2958002 6.8264999
68.386002 -9.2233 6.8042002
68.087997 -8.9139004 6.7033
68.038002 -8.8404999 6.6802001
68.033997 -8.7737999 6.6610999
68.07 -8.7128 6.6454
68.116997 -8.6531 6.6304998
68.18 -8.5958004 6.6170001
68.252998 -8.5396996 6.6041999
68.333 -8.4844999 6.592
68.418999 -8.4300003 6.5804
68.512001 -8.3761997 6.5690999
68.598 -8.3214998 6.5574002
68.660004 -8.2632999 6.5436001
68.711998 -8.2039003 6.5289998
68.710999 -8.1373997 6.5100999
68.638 -8.0618 6.4854002
68.045998 -7.7231002 6.3632002
67.953003 -7.6462002 6.3372998
67.953003 -7.5809999 6.3186998
67.973 -7.5181999 6.3017998
68.005997 -7.4569998 6.2858
68.041 -7.3961 6.2701001
68.083 -7.336 6.2549
68.123001 -7.2756 6.2395
68.165001 -7.2154002 6.2241998
68.202003 -7.1545 6.2086
68.236 -7.0932999 6.1925998
68.263 -7.0313001 6.1761999
68.287003 -6.9689002 6.1595998
68.304001 -6.9057999 6.1423998
68.319 -6.8425002 6.1251001
68.330002 -6.7786002 6.1073999
68.339996 -6.7147999 6.0897002
68.353996 -6.6513 6.0723
68.371002 -6.5883002 6.0552001
68.389999 -6.5254002 6.0380998
68.408997 -6.4625001 6.0211
68.431 -6.4000001 6.0043001
68.456001 -6.3376999 5.9877
68.480003 -6.2754998 5.9710999
68.922997 -13.852 8.1426001
68.889999 -13.825 8.2062998
68.910004 -13.759 8.1884003
68.959 -13.719 8.1063004
68.926003 -13.692 8.1700001
68.932999 -13.623 8.1507998
68.933998 -13.552 8.1308002
68.921997 -13.48 8.1096001
68.905998 -13.406 8.0879002
68.877998 -13.33 8.0649996
68.835999 -13.251 8.0407
68.783997 -13.17 8.0152998
68.727997 -13.089 7.9896998
68.670998 -13.007 7.9639001
68.616997 -12.926 7.9383998
68.569 -12.847 7.9137001
68.531998 -12.77 7.8902001
68.507004 -12.696 7.8678999
68.5 -12.625 7.8474002
68.510002 -12.557 7.8287001
68.541 -12.494 7.8122001
68.584999 -12.434 7.7969999
68.648003 -12.377 7.7835999
68.716003 -12.321 7.7707
68.786003 -12.265 7.7579999
68.844002 -12.207 7.7441001
68.885002 -12.145 7.7284002
68.889 -12.077 7.7090998
68.851997 -12 7.6858001
68.764 -11.915 7.6574001
68.453003 -11.739 7.5218
68.289001 -11.62 7.5523
68.337997 -11.649 7.4912
68.194 -11.534 7.5235
68.148003 -11.458 7.4997001
68.127998 -11.386 7.4784002
68.139 -11.32 7.4601002
68.142998 -11.252 7.4411001
68.139 -11.184 7.4212999
68.125 -11.113 7.4007001
68.102997 -11.042 7.3793998
68.071999 -10.968 7.3571
68.042 -10.895 7.335
68.013 -10.823 7.3130002
67.986 -10.75 7.2912998
67.964996 -10.679 7.2701001
67.949997 -10.609 7.2494998
67.938004 -10.54 7.2293
67.927002 -10.471 7.2090998
67.917999 -10.402 7.1891999
67.910004 -10.334 7.1693001
67.903999 -10.265 7.1496
67.898003 -10.197 7.1300998
67.899002 -10.131 7.1111002
67.903999 -10.064 7.0924001
67.914001 -9.9989996 7.0742998
67.93 -9.9347 7.0567999
67.953003 -9.8713999 7.0398002
67.980003 -9.809 7.0233002
68.014999 -9.7475004 7.0072999
68.055 -9.6870003 6.9919
68.103996 -9.6278 6.9773002
68.160004 -9.5695 6.9632001
68.219002 -9.5117998 6.9495001
68.279999 -9.4540997 6.9358001
68.332001 -9.3951998 6.9214001
68.366997 -9.3336 6.9054999
68.373001 -9.2674999 6.8868999
68.336998 -9.1955004 6.8648
68.057999 -8.8888998 6.7651
68.016998 -8.8169003 6.7428002
68.016998 -8.7508001 6.724
68.050003 -8.6892996 6.7080002
68.095001 -8.6294003 6.6929998
68.154999 -8.5716 6.6792002
68.222 -8.5148001 6.6661
68.296997 -8.4588003 6.6535001
68.376999 -8.4034004 6.6413002
68.458 -8.3481998 6.6293001
68.545998 -8.2936001 6.6177001
68.594002 -8.2337999 6.6029
68.635002 -8.1729002 6.5874
68.620003 -8.1047001 6.5672998
68.545998 -8.0289001 6.5423999
68.446999 -7.9502001 6.5156002
67.982002 -7.6943002 6.4218998
67.903999 -7.6192999 6.3971
67.914001 -7.5553999 6.3793001
67.942001 -7.4935999 6.3629999
67.972 -7.4320998 6.3469
68.004997 -7.3709998 6.3309999
68.042999 -7.3104 6.3154998
68.080002 -7.2495999 6.2999001
68.114998 -7.1886001 6.2841001
68.144997 -7.1269999 6.2679
68.171997 -7.0651002 6.2515001
68.194 -7.0025001 6.2347002
68.214996 -6.9397998 6.2178001
68.232002 -6.8768001 6.2006998
68.249001 -6.8137002 6.1834998
68.262001 -6.7501001 6.1659999
68.277 -6.6868 6.1487002
68.295998 -6.6240001 6.1315999
68.318001 -6.5613999 6.1148
68.342003 -6.4991999 6.0981998
68.366997 -6.4369998 6.0816002
68.391998 -6.3748002 6.0651002
68.419998 -6.3129001 6.0486999
68.447998 -6.2509999 6.0324001
68.866997 -13.89 8.2238998
68.833 -13.863 8.2875996
68.856003 -13.798 8.2700005
68.876999 -13.732 8.2522001
68.893997 -13.665 8.2339001
68.900002 -13.595 8.2144003
68.898003 -13.525 8.1941996
68.886002 -13.452 8.1729002
68.869003 -13.378 8.151
68.841003 -13.302 8.1281004
68.800003 -13.223 8.1037998
68.748001 -13.142 8.0783997
68.693001 -13.061 8.0528002
68.635002 -12.98 8.0269003
68.583 -12.899 8.0016003
68.537003 -12.82 7.9770002
68.5 -12.743 7.9533
68.474998 -12.669 7.9310002
68.469002 -12.598 7.9106998
68.480003 -12.531 7.8920999
68.513 -12.469 7.8757
68.559998 -12.409 7.8607998
68.625999 -12.352 7.8477001
68.695 -12.296 7.835
68.763 -12.24 7.8221998
68.813004 -12.18 7.8074999
68.843002 -12.117 7.7907
68.834 -12.046 7.7701001
68.785004 -11.967 7.7455001
68.695999 -11.882 7.717
68.241997 -11.591 7.6132998
68.153 -11.506 7.5851002
68.115997 -11.431 7.5620999
68.103996 -11.361 7.5415001
68.109001 -11.294 7.5226998
68.108002 -11.226 7.5032001
68.098 -11.156 7.4829001
68.079002 -11.085 7.4617
68.052002 -11.012 7.4397001
68.017998 -10.938 7.4172001
67.984001 -10.865 7.3947001
67.954002 -10.792 7.3726001
67.929001 -10.72 7.3509998
67.908997 -10.649 7.3298998
67.894997 -10.58 7.3094001
67.882004 -10.51 7.289
67.869003 -10.441 7.2686
67.859001 -10.372 7.2484999
67.848 -10.303 7.2284002
67.839996 -10.234 7.2084999
67.833 -10.166 7.1889
67.834 -10.1 7.1697998
67.838997 -10.033 7.1513
67.849998 -9.9684 7.1332998
67.869003 -9.9045 7.1159
67.892998 -9.8416004 7.0991001
67.924004 -9.7796001 7.0829
67.959999 -9.7185001 7.0671
68.002998 -9.6583996 7.052
68.054001 -9.5994997 7.0374999
68.110001 -9.5414 7.0236001
68.170998 -9.4839001 7.0100002
68.233002 -9.4264002 6.9965
68.283997 -9.3673 6.9819999
68.315002 -9.3051996 6.9657998
68.314003 -9.2381001 6.9466
68.282997 -9.1668997 6.9249001
68.113998 -8.9632998 6.7887001
68.082001 -8.9379997 6.8504
68.031998 -8.8646002 6.8273001
67.996002 -8.7932997 6.8053002
68 -8.7277002 6.7867999
68.030998 -8.6659002 6.7705998
68.074997 -8.6058998 6.7556
68.129997 -8.5474005 6.7413998
68.191002 -8.4898005 6.7277999
68.260002 -8.4329996 6.7149
68.333 -8.3767004 6.7020998
68.405998 -8.3204002 6.6894999
68.483002 -8.2644997 6.6771002
68.526001 -8.2038002 6.6617999
68.553001 -8.1412001 6.6451998
68.536003 -8.0727997 6.625
68.467003 -7.9977999 6.6004
67.945 -7.6690001 6.4828
67.882004 -7.5959001 6.4590998
67.890999 -7.5317998 6.4411998
67.917 -7.4698 6.4247999
67.946999 -7.4082999 6.4087
67.980003 -7.3470998 6.3927002
68.014999 -7.2862 6.3769999
68.046997 -7.2248998 6.3610001
68.078003 -7.1634002 6.3449001
68.099998 -7.1009002 6.3281002
68.119003 -7.0380001 6.3111
68.133003 -6.9745002 6.2936001
68.148003 -6.9113002 6.2764001
68.161003 -6.8477998 6.2588
68.177002 -6.7846999 6.2416
68.191002 -6.7213001 6.2241998
68.207001 -6.6581998 6.2069998
68.227997 -6.5956001 6.1901002
68.255997 -6.5338001 6.1738
68.285004 -6.4720998 6.1575999
68.313004 -6.4102001 6.1412001
68.338997 -6.3481998 6.1248002
68.369003 -6.2866001 6.1086001
68.398003 -6.2248001 6.0924001
68.427002 -6.1630001 6.0760999
68.807999 -13.928 8.3050003
68.778 -13.901 8.3689003
68.802002 -13.836 8.3514996
68.825996 -13.771 8.3339996
68.848 -13.705 8.3162003
68.864998 -13.638 8.2980003
68.870003 -13.569 8.2784004
68.865997 -13.498 8.2580004
68.850998 -13.424 8.2363005
68.832001 -13.35 8.2142
68.802002 -13.274 8.191
68.760002 -13.195 8.1666002
68.708 -13.114 8.1410999
68.653999 -13.033 8.1155005
68.596001 -12.951 8.0894003
68.545998 -12.872 8.0642996
68.497002 -12.792 8.0394001
68.462997 -12.716 8.0160999
68.440002 -12.642 7.9938002
68.433998 -12.571 7.9734998
68.446999 -12.505 7.9551001
68.482002 -12.442 7.9389
68.530998 -12.383 7.9242001
68.597 -12.326 7.9112
68.665001 -12.27 7.8983998
68.731003 -12.214 7.8853998
68.772003 -12.152 7.8698001
68.789001 -12.086 7.8518
68.767998 -12.013 7.8299999
68.707001 -11.932 7.8039999
68.195 -11.562 7.6743999
68.113998 -11.479 7.6469002
68.085999 -11.406 7.6247001
68.079002 -11.336 7.6046
68.079002 -11.268 7.5853
68.071999 -11.199 7.5651999
68.056999 -11.128 7.5443001
68.031998 -11.056 7.5225
67.998001 -10.982 7.4998002
67.961998 -10.908 7.4770999
67.926003 -10.835 7.4544001
67.896004 -10.762 7.4320998
67.872002 -10.69 7.4106998
67.851997 -10.619 7.3895001
67.836998 -10.55 7.3688998
67.822998 -10.48 7.3484001
67.807999 -10.41 7.3277998
67.794998 -10.341 7.3074002
67.782997 -10.272 7.2870998
67.773003 -10.203 7.2670999
67.767998 -10.135 7.2474999
67.768997 -10.069 7.2284999
67.775002 -10.003 7.2101002
67.788002 -9.9380999 7.1922002
67.807999 -9.8745003 7.1750002
67.834999 -9.8120003 7.1585002
67.865997 -9.7501001 7.1423001
67.903999 -9.6892996 7.1266999
67.947998 -9.6294003 7.1117001
67.999001 -9.5705004 7.0973001
68.056999 -9.5127001 7.0836
68.119003 -9.4554005 7.0700998
68.179001 -9.3977003 7.0565
68.225998 -9.3380003 7.0416999
68.253998 -9.2754002 7.0251999
68.249001 -9.2079 7.0057001
68.222 -9.1372995 6.9843001
68.045998 -8.9123001 6.9117999
68.002998 -8.8397999 6.8891001
67.973 -8.7693005 6.8676
67.982002 -8.7045002 6.8495998
68.011002 -8.6423998 6.8332
68.054001 -8.5823002 6.8181
68.103996 -8.5232 6.8035998
68.160004 -8.4647999 6.7895999
68.222 -8.4070997 6.7761002
68.288002 -8.3499002 6.7628999
68.355003 -8.2926998 6.7497001
68.418999 -8.2350998 6.7363
68.445 -8.1724005 6.7196002
68.462997 -8.1084995 6.7021999
68.444 -8.04 6.6817999
68.379997 -7.9657001 6.6575999
68.036003 -7.7456999 6.5088
68.002998 -7.7207999 6.5700002
67.922997 -7.6454 6.5447998
67.870003 -7.5735998 6.5219002
67.877998 -7.5093999 6.5039001
67.903 -7.4471998 6.4872999
67.931999 -7.3856001 6.4710999
67.961998 -7.3242002 6.4549999
67.995003 -7.263 6.4390998
68.025002 -7.2013998 6.4229999
68.051003 -7.1394 6.4064999
68.07 -7.0764999 6.3895001
68.080002 -7.0125999 6.3716998
68.084999 -6.9482002 6.3536
68.091003 -6.8839002 6.3355999
68.094002 -6.8193998 6.3172998
68.098 -6.7550001 6.2990999
68.111 -6.6915998 6.2816
68.132004 -6.6290998 6.2648001
68.152 -6.5664001 6.2479
68.181 -6.5047998 6.2316999
68.218002 -6.4439998 6.2161002
68.250999 -6.3827 6.2002001
68.280998 -6.3211002 6.184
68.311996 -6.2596002 6.1679001
68.345001 -6.1982999 6.152
68.374001 -6.1366 6.1357999
68.750999 -13.876 8.4333
68.776001 -13.81 8.4159002
68.801003 -13.745 8.3984003
68.822998 -13.679 8.3807001
68.838997 -13.613 8.3625002
68.844002 -13.543 8.3428001
68.837997 -13.472 8.3220997
68.821999 -13.398 8.3002996
68.799004 -13.323 8.2777996
68.764 -13.245 8.2539997
68.722 -13.167 8.2294998
68.668999 -13.086 8.2038002
68.612999 -13.004 8.1779003
68.556999 -12.923 8.1520004
68.507004 -12.843 8.1267996
68.459 -12.764 8.1019001
68.427002 -12.688 8.0788002
68.403999 -12.614 8.0565004
68.399002 -12.544 8.0361996
68.414001 -12.478 8.0179996
68.448997 -12.416 8.0018997
68.498001 -12.356 7.9871998
68.563004 -12.299 7.9741001
68.627998 -12.243 7.9611001
68.686996 -12.185 7.9474001
68.714996 -12.121 7.9305
68.719002 -12.052 7.9112
68.686996 -11.977 7.8881001
68.615997 -11.895 7.8611999
68.403 -11.738 7.7343001
68.322998 -11.702 7.7922001
68.288002 -11.648 7.7031999
68.227997 -11.616 7.7631001
68.143997 -11.532 7.7350001
68.073997 -11.451 7.7086
68.055 -11.38 7.6872001
68.054001 -11.312 7.6676998
68.049004 -11.243 7.6476998
68.036003 -11.172 7.6269999
68.013 -11.1 7.6054001
67.982002 -11.027 7.5830002
67.943001 -10.952 7.5598001
67.903999 -10.878 7.5366998
67.866997 -10.804 7.5138001
67.836998 -10.731 7.4916
67.813004 -10.66 7.4699998
67.792999 -10.589 7.4488001
67.777 -10.519 7.4281001
67.762001 -10.449 7.4074998
67.745003 -10.379 7.3867002
67.731003 -10.31 7.3660998
67.717003 -10.241 7.3456998
67.709999 -10.172 7.3259001
67.706001 -10.105 7.3063998
67.708 -10.038 7.2874999
67.716003 -9.9729004 7.2691998
67.731003 -9.9084997 7.2515998
67.752998 -9.8452997 7.2344999
67.780998 -9.7828999 7.2181001
67.813004 -9.7212 7.2020001
67.849998 -9.6603003 7.1863999
67.892998 -9.6004 7.1714001
67.944 -9.5415001 7.1570001
68.000999 -9.4835997 7.1431999
68.061996 -9.4261999 7.1297998
68.122002 -9.3684998 7.1160998
68.164001 -9.3080997 7.1009002
68.191002 -9.2454004 7.0843
68.181999 -9.1773996 7.0644999
68.160004 -9.1075001 7.0433998
68.010002 -8.8864002 6.9731002
67.972 -8.8148003 6.9509001
67.947998 -8.7452002 6.9298
67.961998 -8.6810999 6.9122
67.988998 -8.6187 6.8955998
68.029999 -8.5584002 6.8804002
68.077003 -8.4987001 6.8656001
68.127998 -8.4397001 6.8512001
68.184998 -8.3813 6.8372998
68.244003 -8.3232002 6.8235002
68.303001 -8.2650003 6.8098001
68.355003 -8.2056999 6.7953
68.370003 -8.1415997 6.7776999
68.372002 -8.0756998 6.7589998
68.342003 -8.0059004 6.7377
68.281998 -7.9323001 6.7136998
68.154999 -7.8502998 6.6841998
67.970001 -7.6957998 6.6311998
67.902 -7.6220002 6.6069002
67.862 -7.5517998 6.5848999
67.869003 -7.4875002 6.5668998
67.892998 -7.4253001 6.5503001
67.921997 -7.3635998 6.5341001
67.950996 -7.3018999 6.5179
67.981003 -7.2403998 6.5016999
68.008003 -7.1785002 6.4854002
68.030998 -7.1160998 6.4686999
68.045998 -7.0528002 6.4513001
68.046997 -6.9878998 6.4327998
68.042 -6.9224 6.4138999
68.037003 -6.8569002 6.3948998
68.028999 -6.7912002 6.3758001
68.027 -6.7262001 6.3571
68.028999 -6.6616001 6.3388
68.042 -6.5983 6.3213
68.065002 -6.5360999 6.3045998
68.097 -6.4748001 6.2887001
68.140999 -6.4148002 6.2737002
68.181999 -6.3544002 6.2584
68.217003 -6.2933998 6.2426
68.252998 -6.2323999 6.2270002
68.287003 -6.1712999 6.2112002
68.32 -6.1099 6.1952
68.723 -13.94 8.4503002
68.724998 -13.85 8.4976997
68.750999 -13.785 8.4804001
68.776001 -13.72 8.4630003
68.797997 -13.654 8.4453001
68.814003 -13.587 8.4268999
68.816002 -13.517 8.4069996
68.808998 -13.445 8.3860998
68.792999 -13.372 8.3642998
68.768997 -13.296 8.3416004
68.731003 -13.218 8.3175001
68.688004 -13.139 8.2926998
68.634003 -13.058 8.2669001
68.574997 -12.977 8.2406998
68.517998 -12.895 8.2145004
68.468002 -12.815 8.1893997
68.421997 -12.737 8.1645002
68.390999 -12.661 8.1414003
68.367996 -12.587 8.1190996
68.363998 -12.517 8.0988998
68.377998 -12.451 8.0805998
68.414001 -12.388 8.0646
68.461998 -12.329 8.0499001
68.523003 -12.271 8.0363998
68.585999 -12.214 8.0232
68.636002 -12.155 8.0087004
68.655998 -12.089 7.9909
68.650002 -12.019 7.9705
68.615997 -11.943 7.9473
68.541 -11.86 7.9198999
68.388 -11.763 7.8845
68.186996 -11.588 7.8246999
68.115997 -11.507 7.7979002
68.056 -11.428 7.7723999
68.032997 -11.356 7.7505999
68.027 -11.286 7.7305999
68.016998 -11.217 7.71
67.998001 -11.145 7.6887999
67.969002 -11.072 7.6665001
67.928001 -10.997 7.6430001
67.888 -10.923 7.6197
67.846001 -10.848 7.5962
67.807999 -10.773 7.5731001
67.777 -10.701 7.5507998
67.752998 -10.629 7.5292001
67.732002 -10.558 7.5079002
67.716003 -10.488 7.4871001
67.699997 -10.419 7.4663
67.681 -10.348 7.4454002
67.665001 -10.279 7.4246001
67.653999 -10.21 7.4045
67.648003 -10.142 7.3846998
67.646004 -10.075 7.3653998
67.650002 -10.009 7.3467999
67.661003 -9.9436998 7.3287001
67.678001 -9.8795996 7.3112001
67.700996 -9.8165998 7.2943001
67.728996 -9.7543001 7.2779002
67.761002 -9.6927996 7.2617998
67.799004 -9.632 7.2463002
67.841003 -9.5719004 7.2312002
67.891998 -9.5129995 7.2168002
67.946999 -9.4547997 7.2028999
68.004997 -9.3970003 7.1893001
68.064003 -9.3390999 7.1756001
68.106003 -9.2788 7.1603999
68.130997 -9.2158003 7.1436
68.121002 -9.1478004 7.1237001
68.053001 -8.9589996 6.9959002
68.023003 -8.934 7.0577998
67.978996 -8.8613997 7.0349002
67.947998 -8.7908001 7.0131998
67.93 -8.7220001 6.9924998
67.940002 -8.6573 6.9745998
67.964996 -8.5946999 6.9579
68.004997 -8.5341997 6.9425998
68.047997 -8.4741001 6.9274998
68.096001 -8.4146004 6.9129
68.148003 -8.3555002 6.8985
68.200996 -8.2966995 6.8843002
68.252998 -8.2375002 6.8699002
68.292 -8.1766005 6.8544002
68.296997 -8.1112003 6.836
68.289001 -8.0440998 6.8164001
68.252998 -7.9735999 6.7944999
68.082001 -7.8202 6.7421999
68.050003 -7.7714 6.6567001
68.005997 -7.7451 6.717
67.938004 -7.6711001 6.6925001
67.882004 -7.5988002 6.6690998
67.855003 -7.5302 6.6480999
67.862 -7.4658999 6.6300998
67.886002 -7.4036002 6.6135001
67.914001 -7.3418002 6.5971999
67.941002 -7.2799001 6.5808001
67.970001 -7.2182002 6.5646
67.995003 -7.1560998 6.5481
68.015999 -7.0935001 6.5311999
68.024002 -7.0293002 6.5131998
68.015999 -6.9633999 6.494
68.000999 -6.8968 6.4741998
67.982002 -6.8298001 6.4541001
67.966003 -6.7632999 6.4344001
67.955002 -6.6973 6.4148998
67.949997 -6.6321001 6.3959999
67.956001 -6.5679998 6.3779998
67.970001 -6.5050001 6.3607001
68.009003 -6.4445 6.3453002
68.063004 -6.3856001 6.3311
68.112999 -6.3262 6.3165998
68.153999 -6.2658 6.3013
68.192001 -6.2051001 6.2858
68.698997 -13.824 8.5621004
68.724998 -13.759 8.5447998
68.750999 -13.694 8.5275002
68.773003 -13.629 8.5098
68.788002 -13.561 8.4912996
68.789001 -13.491 8.4713001
68.781998 -13.419 8.4503002
68.766998 -13.346 8.4286003
68.740997 -13.27 8.4056997
68.704002 -13.192 8.3815002
68.658997 -13.113 8.3565998
68.601997 -13.032 8.3304005
68.541 -12.949 8.3037004
68.483002 -12.868 8.2775002
68.434998 -12.788 8.2523003
68.389999 -12.71 8.2276001
68.357002 -12.634 8.2041998
68.334 -12.56 8.1819
68.329002 -12.49 8.1616001
68.344002 -12.424 8.1434002
68.378998 -12.361 8.1273003
68.425003 -12.301 8.1124001
68.481003 -12.243 8.0985003
68.538002 -12.185 8.0846004
68.579002 -12.123 8.0691996
68.585999 -12.056 8.0501003
68.57 -11.983 8.0285997
68.525002 -11.906 8.0042
68.452003 -11.823 7.9769001
68.314003 -11.729 7.9429002
68.210999 -11.641 7.9126
68.133003 -11.558 7.8850002
68.071999 -11.479 7.8592
68.022003 -11.401 7.8346
68.005997 -11.33 7.8134999
67.996002 -11.261 7.7930002
67.980003 -11.19 7.7718
67.957001 -11.118 7.7501001
67.920998 -11.043 7.7270002
67.875999 -10.968 7.7031002
67.831001 -10.892 7.6792002
67.789001 -10.817 7.6557002
67.747002 -10.743 7.6321998
67.714996 -10.67 7.6097999
67.691002 -10.598 7.5881
67.670998 -10.528 7.5668998
67.652 -10.457 7.5458002
67.635002 -10.387 7.5249
67.616997 -10.317 7.5040002
67.603996 -10.248 7.4835
67.594002 -10.18 7.4633999
67.589996 -10.112 7.4438
67.589996 -10.045 7.4246998
67.597 -9.9797001 7.4063001
67.609001 -9.915 7.3884001
67.626999 -9.8512001 7.3709998
67.651001 -9.7883997 7.3541999
67.68 -9.7262001 7.3378
67.712997 -9.6647997 7.3218999
67.75 -9.6040001 7.3063998
67.792 -9.5438995 7.2912998
67.842003 -9.4848003 7.2768002
67.896004 -9.4265003 7.2628999
67.953003 -9.3685999 7.2491999
68.007004 -9.3100996 7.2350998
68.050003 -9.2498999 7.2199998
68.072998 -9.1865997 7.2030001
68.068001 -9.1192999 7.1835999
68.056 -9.0509996 7.1634002
68.075996 -9.0080996 7.0816002
68.030998 -8.9808998 7.1420002
67.989998 -8.9085999 7.1192999
67.950996 -8.8367996 7.0967999
67.926003 -8.7669001 7.0755
67.910004 -8.6985998 7.0552001
67.917 -8.6335001 7.0369
67.940002 -8.5705996 7.02
67.978996 -8.5099001 7.0046
68.019997 -8.4496002 6.9893999
68.065002 -8.3895998 6.9745002
68.112 -8.3298998 6.9597998
68.161003 -8.2705002 6.9452
68.203003 -8.2101002 6.9299998
68.231003 -8.1478004 6.9136
68.223 -8.0806999 6.8940001
68.205002 -8.0123997 6.8736
68.164001 -7.9412999 6.8511
68.014 -7.7907 6.8004999
67.953003 -7.7175002 6.7764001
67.897003 -7.6451001 6.7529001
67.851997 -7.5742998 6.7304001
67.836998 -7.5071998 6.7104998
67.853996 -7.4440999 6.6932998
67.876999 -7.3817 6.6766
67.905998 -7.3200002 6.6602998
67.932999 -7.2581 6.6438999
67.959999 -7.1961999 6.6276002
67.984001 -7.1339998 6.6110001
68.002998 -7.0711002 6.5939002
68.005997 -7.0063 6.5755
67.988998 -6.9394002 6.5555
67.967003 -6.8720002 6.5351
67.942001 -6.8045001 6.5145001
67.906998 -6.7357998 6.4931002
67.888 -6.6690001 6.473
67.878998 -6.6034002 6.4538002
67.877998 -6.5387001 6.4352002
67.886002 -6.4751 6.4173999
67.925003 -6.4147 6.4021001
67.980003 -6.3558998 6.388
68.040001 -6.2975998 6.3743
68.087997 -6.2379999 6.3597002
68.132004 -6.1778998 6.3446999
