# .PCD v0.7 - Point Cloud Data file format
VERSION 0.7
FIELDS x y z
SIZE 4 4 4
TYPE F F F
COUNT 1 1 1
WIDTH 1671
HEIGHT 1
VIEWPOINT 0 0 0 1 0 0 0
POINTS 1671
DATA ascii
9.0572996 -6.2827001 66.845001
9.1191998 -6.2751999 66.764999
9.1823997 -6.2686 66.695
9.2460003 -6.2624002 66.628998
9.3114004 -6.2575002 66.577003
9.3781004 -6.2536998 66.536003
9.4468002 -6.2511001 66.508003
9.5156002 -6.2487001 66.482002
9.5839996 -6.2459998 66.454002
9.6519003 -6.2431002 66.422997
9.7195997 -6.2399998 66.389999
9.7866001 -6.2365999 66.353996
9.8542995 -6.2336001 66.321999
9.9224005 -6.2309999 66.294998
9.9924002 -6.2296 66.278999
10.065 -6.2297001 66.280998
10.142 -6.2329001 66.314003
10.223 -6.2378001 66.366997
10.306 -6.2442002 66.434998
10.389 -6.2507 66.503998
10.471 -6.2564998 66.566002
10.552 -6.2612 66.615997
10.631 -6.2653999 66.661003
10.712 -6.27 66.709
10.792 -6.2742 66.754997
10.871 -6.2775998 66.790001
10.95 -6.2816 66.833
11.032 -6.2866001 66.886002
11.118 -6.2940998 66.966003
11.207 -6.3028002 67.057999
11.298 -6.3126998 67.164001
11.389 -6.3227 67.269997
11.483 -6.3340998 67.390999
11.573 -6.3435001 67.491997
11.662 -6.3520002 67.582001
11.749 -6.3586998 67.653999
11.834 -6.3649998 67.720001
11.912 -6.3674002 67.746002
11.987 -6.368 67.751999
12.059 -6.3669 67.739998
12.126 -6.3634 67.704002
12.188 -6.3571 67.636002
12.25 -6.3508 67.569
12.304 -6.3407001 67.461998
12.351 -6.3274002 67.32
12.388 -6.3084002 67.119003
12.511 -6.224 66.220001
12.568 -6.2168999 66.143997
12.644 -6.2186999 66.164001
12.724 -6.2223001 66.202003
12.803 -6.2259002 66.240997
12.886 -6.2312002 66.295998
12.972 -6.2372999 66.362
13.059 -6.2445002 66.438004
13.147 -6.2522001 66.519997
13.236 -6.2600002 66.602997
13.325 -6.2673998 66.681999
13.409 -6.2729998 66.740997
13.493 -6.2779999 66.794998
13.577 -6.2832999 66.850998
13.665 -6.2902999 66.925003
13.756 -6.2982998 67.011002
13.85 -6.3077998 67.111
13.947 -6.3189001 67.230003
14.05 -6.3319998 67.369003
14.152 -6.3450999 67.508003
14.261 -6.3606 67.674004
14.369 -6.3758001 67.835999
14.479 -6.3916998 68.003998
14.585 -6.4056001 68.152
14.686 -6.4175 68.278999
14.786 -6.4287 68.398003
14.874 -6.4345002 68.459
14.998 -6.4555998 68.683998
15.136 -6.4823999 68.969002
15.315 -6.5268998 69.443001
17.443001 -7.3608999 78.316002
17.610001 -7.3951998 78.681999
17.756001 -7.4203 78.947998
17.879999 -7.4359002 79.114998
17.962 -7.4345002 79.098999
18.042999 -7.4320002 79.072998
18.122 -7.4292002 79.042999
18.201 -7.4264998 79.014
18.281 -7.4236999 78.984001
18.361 -7.4211001 78.957001
18.440001 -7.4183998 78.928001
18.52 -7.4161 78.903999
18.6 -7.4137001 78.877998
18.681 -7.4117999 78.857002
18.761999 -7.4095998 78.834
18.844 -7.408 78.817001
18.926001 -7.4064002 78.801003
19.009001 -7.4054999 78.791
19.093 -7.4049001 78.783997
19.177999 -7.4043999 78.778999
19.263 -7.4039001 78.773003
19.347 -7.4033999 78.768997
19.431 -7.4026999 78.761002
19.516001 -7.4021001 78.753998
19.599001 -7.4011002 78.744003
19.681999 -7.4001999 78.734001
19.764999 -7.3990998 78.722
19.848 -7.3979001 78.709999
19.93 -7.3966999 78.696999
20.013 -7.3954 78.683998
20.094999 -7.3941998 78.670998
20.177999 -7.3930001 78.656998
20.26 -7.3917999 78.644997
20.343 -7.3906999 78.633003
20.424999 -7.3895001 78.620003
20.507999 -7.3885002 78.610001
20.591 -7.3874002 78.598999
20.673 -7.3860998 78.584
20.754999 -7.3848 78.57
20.836 -7.3831 78.553001
20.917 -7.3814001 78.535004
20.997 -7.3793998 78.512001
21.076 -7.3772001 78.488998
21.155001 -7.3748002 78.463997
21.232 -7.3720999 78.434998
21.309999 -7.3692002 78.404999
21.386999 -7.3663998 78.375
21.462999 -7.3631001 78.339996
21.539 -7.3600998 78.306999
21.615 -7.3569002 78.274002
21.691 -7.3537002 78.239998
21.768 -7.3506999 78.208
21.844999 -7.3478999 78.178001
21.922001 -7.3453002 78.151001
22.000999 -7.3431001 78.126999
22.082001 -7.3418002 78.112999
22.164 -7.3406 78.100998
22.245001 -7.3395 78.087997
22.327 -7.3383999 78.077003
-10.375 -7.5728998 81.516998
-10.282 -7.5699 81.485001
-10.186 -7.5640998 81.422997
-10.09 -7.5587001 81.364998
-9.9931002 -7.5527 81.300003
-9.8947001 -7.5453 81.220001
-9.7939997 -7.5359998 81.120003
-9.6941996 -7.5271001 81.025002
-9.5929003 -7.5170002 80.915001
-9.4927998 -7.5075998 80.814003
-9.3933001 -7.4984999 80.717003
-9.2960997 -7.4910998 80.637001
-9.1982002 -7.4829998 80.550003
-9.1023998 -7.4763999 80.478996
-9.0082998 -7.4712 80.421997
-8.9164 -7.4675999 80.384003
-8.8261995 -7.4654999 80.361
-8.7389002 -7.4657001 80.363998
-8.6542997 -7.4684 80.391998
-8.5719004 -7.473 80.442001
-4.7101998 -6.0846 64.737
-4.7048998 -6.0071998 64.663002
-4.6385999 -6.0125999 64.722
-4.6444001 -6.0907998 64.803001
-4.5725002 -6.0186 64.786003
-4.506 -6.0240002 64.845001
-4.4380999 -6.0279002 64.887001
-4.3692002 -6.0303998 64.914001
-4.2995 -6.0318999 64.93
-4.2280002 -6.0310001 64.919998
-4.1574998 -6.0314002 64.924004
-4.0847998 -6.0285001 64.892998
-4.0137 -6.0279999 64.887001
-3.9417 -6.0261002 64.867996
-3.8717 -6.0272999 64.879997
-3.8018 -6.0286002 64.893997
-3.7328999 -6.0314999 64.925003
-3.664 -6.0346999 64.959
-3.5957999 -6.039 65.005997
-3.5269001 -6.0423999 65.042999
-3.4575 -6.0451002 65.071999
-3.3879001 -6.0475001 65.098
-3.3185999 -6.0506001 65.130997
-3.2497001 -6.0545001 65.172997
-3.1808 -6.0587001 65.218002
-3.1117001 -6.0626998 65.261002
-3.0423999 -6.0664001 65.300003
-2.9737 -6.0714002 65.355003
-2.9057 -6.0783 65.429001
-2.8385999 -6.0872002 65.525002
-2.7718999 -6.0976 65.637001
-2.7052 -6.1086998 65.757004
-2.6385 -6.1204 65.883003
-2.5739 -6.1375999 66.067001
-2.5058999 -6.1473999 66.172997
-2.4368999 -6.1553998 66.259003
-2.3668001 -6.1609998 66.319
-2.2950001 -6.1623998 66.334
-2.2221 -6.1609001 66.318001
-2.1482999 -6.1564999 66.269997
-2.0738001 -6.1499 66.199997
-1.9988 -6.1413002 66.107002
-1.924 -6.1327 66.014
-1.8494 -6.1237998 65.918999
-1.7749 -6.1149001 65.822998
-1.7007 -6.1059999 65.726997
-1.6267999 -6.0976 65.637001
-1.5532 -6.0897002 65.551003
-1.4798 -6.0818 65.467003
-1.4066 -6.0739999 65.382004
-1.3335 -6.0658998 65.294998
-1.2607 -6.0577998 65.209
-1.188 -6.0500002 65.124001
-1.1157 -6.0429001 65.047997
-1.0437 -6.0369 64.983002
-0.97210002 -6.0321002 64.931999
-0.90069002 -6.0279999 64.887001
-0.82950997 -6.0249 64.853996
-0.75850999 -6.0226002 64.829002
-0.68763 -6.0208998 64.810997
-0.61684 -6.0197001 64.797997
-0.54610002 -6.0187998 64.788002
-0.47536999 -6.0176001 64.775002
-0.40463001 -6.0159001 64.757004
-0.33386001 -6.013 64.725998
-0.26309001 -6.0086002 64.679001
-0.19233 -6.0011001 64.598
-0.12171 -5.9920998 64.500999
-0.051291 -5.9814 64.386002
0.018874999 -5.9693999 64.257004
0.088770002 -5.9582 64.136002
0.15845001 -5.9487 64.033997
0.22789 -5.9390001 63.929001
0.29712 -5.9294 63.827
0.36636001 -5.9236999 63.764999
0.43537 -5.9166999 63.689999
0.50410998 -5.9085002 63.601002
0.57258999 -5.8996 63.505001
0.6408 -5.8899999 63.402
0.70872003 -5.8799 63.293999
0.77652001 -5.8708 63.195
0.84415001 -5.862 63.099998
0.91167998 -5.8537998 63.012001
0.97902 -5.8456001 62.924
1.0463001 -5.8381 62.842999
1.1133 -5.8304 62.761002
1.1802 -5.8228002 62.678001
1.2469 -5.8148999 62.594002
1.3135 -5.8077002 62.515999
1.3799 -5.8003998 62.437
1.4462 -5.7933998 62.362
1.5125999 -5.7872 62.294998
1.579 -5.7814002 62.233002
1.6453 -5.776 62.174999
1.7118 -5.7715998 62.127998
1.7783999 -5.7680998 62.09
1.8456 -5.7663002 62.070999
1.9165 -5.7761998 62.176998
1.9884 -5.7880998 62.306
2.0613999 -5.8024998 62.459999
2.1359999 -5.8199 62.647999
2.2256999 -5.8765998 63.257999
2.3018999 -5.8948998 63.455002
2.3776 -5.9112 63.631001
2.4533 -5.9264002 63.793999
2.5288999 -5.9405999 63.946999
2.6001 -5.9440999 63.985001
2.6715 -5.9475999 64.022003
2.743 -5.9513001 64.061996
2.8144 -5.9545999 64.098
2.8856001 -5.9573002 64.126999
2.9561999 -5.9587002 64.141998
3.0265 -5.9594002 64.149002
3.0964 -5.9593 64.148003
3.1658001 -5.9583998 64.138
3.2353001 -5.9575 64.127998
3.3044 -5.9561 64.113998
3.3742001 -5.9559002 64.112
3.4449999 -5.9573998 64.127998
3.5195 -5.9650998 64.210999
3.5957999 -5.9755998 64.322998
3.6738999 -5.9886999 64.463997
3.7539001 -6.0040998 64.629997
3.8374 -6.0247002 64.851997
3.9189 -6.0412998 65.029999
3.9993999 -6.0558 65.186996
4.0797 -6.0695 65.334
4.1594 -6.0819001 65.468002
4.2357998 -6.0890002 65.544998
4.3116002 -6.0952001 65.611
4.3871002 -6.1006999 65.669998
4.4621 -6.1052999 65.720001
4.5370002 -6.1097999 65.767998
4.6118999 -6.1139002 65.813004
4.6866999 -6.118 65.856003
4.7614999 -6.1217999 65.898003
4.8362999 -6.1255002 65.936996
4.9113998 -6.1294999 65.980003
4.9872999 -6.1343999 66.032997
5.0641999 -6.1403999 66.097
5.1420999 -6.1472998 66.171997
5.2210999 -6.1553001 66.258003
5.3009 -6.1641998 66.353996
5.3829999 -6.1753001 66.473
5.4660001 -6.1872001 66.600998
5.5489998 -6.1989002 66.726997
5.6329999 -6.2112999 66.860001
5.7165999 -6.2227998 66.985001
5.8058 -6.2403002 67.172997
6.6785002 -6.4464002 69.390999
6.7498999 -6.4422998 69.347
6.8204002 -6.4373999 69.294998
6.8892999 -6.4312 69.227997
6.9573998 -6.4245 69.154999
7.0233002 -6.4157 69.060997
7.0865998 -6.4050002 68.945
7.1483998 -6.3929 68.816002
7.2103 -6.3813 68.691002
7.2715001 -6.3692999 68.561996
7.3336 -6.3583002 68.443001
7.3965001 -6.3483 68.334999
7.4611001 -6.3399 68.245003
7.5261998 -6.3319998 68.160004
7.592 -6.3249002 68.084
7.6578999 -6.3181 68.010002
7.7237 -6.3112001 67.935997
7.7883 -6.3035998 67.853996
7.8515 -6.2948999 67.760002
7.9138999 -6.2858 67.663002
7.9752998 -6.2761002 67.557999
8.0362997 -6.2662001 67.450996
8.0981998 -6.2571998 67.355003
8.1612997 -6.2493 67.268997
8.2261 -6.2428002 67.199997
8.2929001 -6.2378998 67.147003
8.3617001 -6.2346001 67.112
8.4328003 -6.2330999 67.096001
8.5049 -6.2322998 67.086998
8.5773001 -6.2316999 67.081001
8.6496 -6.2312002 67.073997
8.7212 -6.2301002 67.063004
8.7915001 -6.2280998 67.041
8.8599005 -6.2248001 67.005997
8.9266996 -6.2203999 66.959
8.9918003 -6.2149 66.900002
9.0551996 -6.2083998 66.830002
9.1177998 -6.2013998 66.753998
9.1815004 -6.1953001 66.689003
9.2454996 -6.1894999 66.625999
9.3107996 -6.1845999 66.572998
9.3773003 -6.1806002 66.529999
9.4452 -6.1775999 66.497002
9.5130997 -6.1745 66.464996
9.5806999 -6.1714001 66.431
9.6479998 -6.1680999 66.396004
9.7147999 -6.1645999 66.358002
9.7812004 -6.1608 66.317001
9.8480997 -6.1574001 66.280998
9.9152002 -6.1542001 66.247002
9.9848003 -6.1525998 66.228996
10.057 -6.1528001 66.231003
10.135 -6.1559 66.264
10.215 -6.1609001 66.318001
10.298 -6.1673999 66.389
10.382 -6.1739998 66.459999
10.465 -6.1799998 66.524002
10.545 -6.1845999 66.573997
10.625 -6.1889 66.620003
10.705 -6.1932001 66.666
10.785 -6.1974001 66.710999
10.863 -6.2006001 66.745003
10.942 -6.2041998 66.783997
11.026 -6.2101998 66.848999
11.114 -6.2185998 66.939003
11.204 -6.2284999 67.044998
11.298 -6.2399998 67.169998
11.394 -6.2521 67.300003
11.493 -6.2662001 67.450996
11.587 -6.2772999 67.570999
11.679 -6.2870998 67.676003
11.769 -6.2957001 67.768997
11.854 -6.302 67.836998
11.933 -6.3045001 67.863998
12.006 -6.3041 67.860001
12.075 -6.3013 67.830002
12.139 -6.2961001 67.773003
12.197 -6.2881999 67.688004
12.254 -6.2790999 67.591003
12.303 -6.2669001 67.459999
12.346 -6.2509999 67.288002
12.376 -6.2296 67.057999
12.497 -6.145 66.147003
12.555 -6.138 66.070999
12.631 -6.1399002 66.092003
12.709 -6.1431999 66.126999
12.79 -6.1471 66.169998
12.875 -6.1532998 66.237
12.961 -6.1602001 66.309998
13.051 -6.1682 66.396004
13.141 -6.1767001 66.488998
13.231 -6.1847 66.573997
13.322 -6.1932998 66.666
13.404 -6.1975999 66.712997
13.485 -6.2014999 66.754997
13.566 -6.2054 66.796997
13.654 -6.2122002 66.871002
13.745 -6.2200999 66.955002
13.838 -6.2293 67.054001
13.939 -6.2417002 67.188004
14.044 -6.2558999 67.341003
14.15 -6.2705998 67.499001
14.263 -6.2876 67.681
14.376 -6.3049998 67.870003
14.488 -6.3214998 68.045998
14.593 -6.3347998 68.190002
14.692 -6.3456998 68.306999
14.792 -6.3565001 68.424004
14.879 -6.3615999 68.478996
15.001 -6.3817 68.695
15.14 -6.4088998 68.987999
17.431999 -7.2707 78.264999
17.6 -7.3053002 78.637001
17.746 -7.3299999 78.903
17.870001 -7.3456001 79.070999
17.952 -7.3439999 79.054001
18.033001 -7.3418002 79.028999
18.112 -7.3388 78.997002
18.191 -7.3362002 78.970001
18.271 -7.3336 78.942001
18.351 -7.3312998 78.917
18.431 -7.3288999 78.890999
18.511999 -7.3270001 78.871002
18.593 -7.3249002 78.848
18.674999 -7.3232999 78.830002
18.756001 -7.3214002 78.809998
18.839001 -7.3200998 78.795998
18.922001 -7.3189001 78.783997
19.006001 -7.3182998 78.777
19.091 -7.3179002 78.773003
19.176001 -7.3175998 78.769997
19.261 -7.3174 78.766998
19.346001 -7.3171 78.764
19.431 -7.3165998 78.758003
19.514999 -7.3161001 78.752998
19.599001 -7.3151999 78.744003
19.681999 -7.3141999 78.733002
19.764999 -7.3130999 78.720001
19.847 -7.3118 78.707001
19.93 -7.3105998 78.694
20.011999 -7.3092999 78.68
20.094 -7.3081002 78.667
20.177 -7.3067999 78.653
20.259001 -7.3056002 78.639999
20.341999 -7.3045001 78.627998
20.424 -7.3034 78.615997
20.507999 -7.3024998 78.607002
20.59 -7.3014998 78.596001
20.673 -7.3003001 78.583
20.754999 -7.2989998 78.569
20.836 -7.2974 78.551003
20.916 -7.2957001 78.532997
20.996 -7.2934999 78.510002
21.073999 -7.2909999 78.483002
21.152 -7.2884002 78.455002
21.229 -7.2852998 78.421997
21.305 -7.2821999 78.388
21.382 -7.2790999 78.355003
21.458 -7.276 78.320999
21.535 -7.2732 78.291
21.612 -7.2704 78.261002
21.690001 -7.2680998 78.236
21.768999 -7.2659998 78.212997
21.85 -7.2642999 78.195
21.93 -7.2625999 78.177002
22.011 -7.2613001 78.164001
22.094 -7.2606001 78.155998
22.177 -7.2599001 78.148003
22.26 -7.2591 78.139
22.343 -7.2582998 78.130997
-10.373 -7.4821 81.496002
-10.281 -7.4801998 81.475998
-10.188 -7.4772 81.443001
-10.092 -7.4719 81.385002
-9.9960003 -7.4663 81.323997
-9.8977003 -7.4590001 81.245003
-9.7964001 -7.4492998 81.139999
-9.6961002 -7.4403 81.041
-9.5943003 -7.4298 80.927002
-9.493 -7.4196 80.816002
-9.3926001 -7.4099998 80.710999
-9.2943001 -7.4018002 80.621002
-9.1950998 -7.3927002 80.523003
-9.0979996 -7.3850999 80.440002
-9.0029001 -7.3790998 80.374001
-8.9095001 -7.3743 80.321999
-8.8170996 -7.3702998 80.278999
-8.7273998 -7.3684001 80.258003
-8.6400995 -7.3685999 80.261002
-4.8992 -5.9861999 64.438004
-4.8958001 -5.9116998 64.391998
-4.8287001 -5.9155998 64.433998
-4.7693 -5.9994998 64.580002
-4.7624002 -5.9205999 64.487999
-4.6964998 -5.9260998 64.547997
-4.6290998 -5.9299002 64.589996
-4.5619998 -5.9342999 64.637001
-4.494 -5.9375 64.671997
-4.4245 -5.9389 64.686996
-4.3544002 -5.9394002 64.693001
-4.2828999 -5.9380999 64.679001
-4.2096 -5.9341998 64.637001
-4.1385999 -5.9334002 64.627998
-4.0683999 -5.9338002 64.632004
-3.9988999 -5.9352999 64.648003
-3.9291999 -5.9365001 64.661003
-3.8601 -5.9386001 64.683998
-3.7909999 -5.9408002 64.709
-3.7221999 -5.9436998 64.739998
-3.6547 -5.9488001 64.794998
-3.5871 -5.9538002 64.849998
-3.5204999 -5.9607 64.925003
-3.4526 -5.9657998 64.980003
-3.3843 -5.9700999 65.028
-3.3159001 -5.9748001 65.079002
-3.2479 -5.9802999 65.138
-3.1798 -5.9857001 65.197998
-3.1115 -5.9910998 65.257004
-3.0425999 -5.9955001 65.304001
-2.974 -6.0007 65.361
-2.9063001 -6.0082002 65.442001
-2.8394001 -6.0176001 65.544998
-2.7730999 -6.0288 65.667
-2.7067001 -6.0404 65.792999
-2.6429 -6.0585999 65.991997
-2.5755999 -6.0696001 66.111
-2.5071001 -6.0781999 66.205002
-2.4377 -6.0851002 66.279999
-2.3668001 -6.0888 66.32
-2.2944 -6.0883999 66.316002
-2.2207999 -6.085 66.278999
-2.1463001 -6.0788002 66.210999
-2.0713999 -6.0707998 66.125
-1.9960999 -6.0611 66.017998
-1.9213001 -6.0521998 65.921997
-1.8466001 -6.0429001 65.820999
-1.7723 -6.0341001 65.723999
-1.6981 -6.0254002 65.629997
-1.6245 -6.0174999 65.543999
-1.551 -6.0096998 65.459
-1.4778 -6.0023999 65.378998
-1.4047 -5.9944 65.292
-1.3317 -5.9867001 65.208
-1.2591 -5.9791999 65.125999
-1.1867 -5.9723001 65.051003
-1.1145999 -5.9661999 64.985001
-1.0429 -5.9612999 64.931
-0.97143 -5.9572001 64.887001
-0.90017998 -5.9538999 64.850998
-0.82914001 -5.9514999 64.824997
-0.75823998 -5.9498 64.806
-0.68744999 -5.9485998 64.793999
-0.61671001 -5.9477 64.783997
-0.54597998 -5.9468002 64.774002
-0.47523999 -5.9453001 64.758003
-0.40448999 -5.9432001 64.735001
-0.3337 -5.9396 64.695
-0.26293001 -5.9342999 64.638
-0.19217999 -5.9261999 64.549004
-0.12161 -5.9169002 64.447998
-0.051247999 -5.9061999 64.332001
0.018859999 -5.8948998 64.208
0.088719003 -5.8849001 64.098999
0.15838 -5.8762002 64.004997
0.22781 -5.8670998 63.904999
0.29703999 -5.8583002 63.810001
0.36625001 -5.8523998 63.744999
0.43520001 -5.8449998 63.665001
0.50389999 -5.8367 63.574001
0.57233 -5.8277001 63.476002
0.64047003 -5.8179002 63.368999
0.70836002 -5.8080001 63.262001
0.77612001 -5.7989001 63.162998
0.84372002 -5.7902002 63.068001
0.91121 -5.7821002 62.98
0.97851002 -5.7740002 62.891998
1.0457 -5.7665 62.808998
1.1127 -5.7588 62.726002
1.1795 -5.7507 62.638
1.2460999 -5.7431002 62.555
1.3126 -5.7357998 62.474998
1.3789999 -5.7283001 62.394001
1.4452 -5.7212 62.317001
1.5114 -5.7146001 62.243999
1.5776 -5.7084999 62.178001
1.6438 -5.7031002 62.118999
1.7101001 -5.6984 62.068001
1.7767 -5.6947999 62.028999
1.8437001 -5.6929998 62.008999
1.9147 -5.7031002 62.118999
1.9867001 -5.7151999 62.251999
2.0597999 -5.7297001 62.409
2.1345 -5.7476001 62.605
2.2256 -5.8074002 63.255001
2.302 -5.8260999 63.459
2.3778999 -5.8427 63.639999
2.4538 -5.8580999 63.806999
2.5288999 -5.8710999 63.949001
2.6001999 -5.8744998 63.986
2.6715 -5.8779001 64.024002
2.743 -5.8815999 64.063004
2.8144 -5.8849001 64.098999
2.8856001 -5.8874998 64.127998
2.9561999 -5.8888998 64.142998
3.0264001 -5.8892999 64.148003
3.096 -5.8887 64.140999
3.1651001 -5.8870001 64.123001
3.234 -5.8852 64.102997
3.3027 -5.8831 64.080002
3.372 -5.8821998 64.07
3.4419999 -5.8825002 64.072998
3.5155001 -5.8885002 64.139
3.5913 -5.8980999 64.242996
3.671 -5.9137001 64.413002
3.7523999 -5.9313002 64.605003
3.8401999 -5.9582 64.898003
3.9219999 -5.9749999 65.081001
4.0028 -5.9896998 65.240997
4.0829 -6.0029998 65.386002
4.1623001 -6.0146999 65.513
4.2381001 -6.0208998 65.581001
4.3133001 -6.026 65.636002
4.388 -6.0303998 65.683998
4.4626002 -6.0344 65.726997
4.5370998 -6.0380998 65.767998
4.6114998 -6.0416999 65.806999
4.6861 -6.0453 65.846001
4.7606001 -6.0486999 65.884003
4.8351998 -6.0521998 65.921997
4.9102001 -6.0560999 65.963997
4.9863 -6.0611 66.018997
5.0633001 -6.0672002 66.084999
5.1413999 -6.0742998 66.162003
5.2203999 -6.0823002 66.249001
5.3009 -6.0918999 66.353996
5.3835001 -6.1034999 66.480003
5.4671998 -6.1160002 66.615997
5.5507998 -6.1280999 66.748001
5.6342001 -6.1395998 66.874001
5.7181001 -6.1515002 67.002998
6.7473001 -6.3642001 69.32
6.8182001 -6.3599 69.273003
6.8881998 -6.3548002 69.218002
6.9572001 -6.3488998 69.153
7.0240002 -6.3411002 69.069
7.0886998 -6.3316002 68.964996
7.1508999 -6.3200998 68.839996
7.2132001 -6.3088999 68.718002
7.2747002 -6.2972999 68.592003
7.3369002 -6.2865 68.473999
7.4000001 -6.2768002 68.367996
7.4643998 -6.2683001 68.275002
7.5296998 -6.2606001 68.192001
7.5956998 -6.2536998 68.116997
7.6616998 -6.2470002 68.042999
7.7270999 -6.2399001 67.966003
7.7916002 -6.2322998 67.883003
7.8551998 -6.224 67.792999
7.9175 -6.2147999 67.693001
7.9790001 -6.2052999 67.588997
8.0403004 -6.1957998 67.485001
8.1018 -6.1865001 67.385002
8.1647997 -6.1785998 67.297997
8.2289 -6.1715999 67.223
8.2952995 -6.1665001 67.167
8.3634996 -6.1627998 67.126999
8.4336996 -6.1606002 67.102997
8.5047998 -6.1591001 67.085999
8.5762997 -6.1578999 67.072998
8.6479998 -6.1568999 67.061996
8.7191 -6.1554999 67.046997
8.7891998 -6.1533999 67.024002
8.8578997 -6.1503 66.989998
8.9251003 -6.1462998 66.946999
8.9910002 -6.1415 66.893997
9.0551996 -6.1355 66.829002
9.1187 -6.1292 66.761002
9.1827002 -6.1234002 66.696999
9.2470999 -6.1178999 66.637001
9.3122997 -6.1129999 66.584
9.3786001 -6.1089001 66.539001
9.4455996 -6.1052999 66.5
9.5122995 -6.1015 66.459
9.5787001 -6.0977001 66.417
9.6450996 -6.0939002 66.375999
9.7111998 -6.0899 66.333
9.7764997 -6.0855999 66.285004
9.8423996 -6.0816998 66.242996
9.9089003 -6.0781002 66.204002
9.9773998 -6.0759001 66.179001
10.049 -6.0759001 66.179001
10.127 -6.0788002 66.210999
10.207 -6.0839 66.266998
10.289 -6.0897002 66.330002
10.374 -6.0967002 66.406998
10.456 -6.1026001 66.471001
10.537 -6.1075001 66.524002
10.617 -6.1117001 66.57
10.697 -6.1159 66.615997
10.776 -6.1199002 66.658997
10.855 -6.1234002 66.696999
10.935 -6.1275001 66.741997
11.02 -6.1341 66.814003
11.109 -6.1429 66.910004
11.202 -6.1542001 67.031998
11.299 -6.1671 67.172997
11.398 -6.1810002 67.324997
11.501 -6.1971998 67.500999
11.598 -6.2094002 67.634003
11.692 -6.2202001 67.750999
11.782 -6.2286 67.843002
11.867 -6.2347002 67.910004
11.945 -6.2365999 67.931
12.015 -6.2347999 67.911003
12.081 -6.2302999 67.862
12.141 -6.223 67.781998
12.195 -6.2132001 67.676003
12.244 -6.2006998 67.539001
12.288 -6.1856999 67.375999
12.327 -6.1683998 67.186996
12.487 -6.0682998 66.097
12.546 -6.0616999 66.025002
12.62 -6.0627999 66.037003
12.697 -6.0651002 66.061996
12.776 -6.0686002 66.100998
12.86 -6.0739999 66.158997
12.947 -6.0811 66.237
13.039 -6.0901999 66.335999
13.132 -6.0998001 66.441002
13.224 -6.1090002 66.541
13.316 -6.1177001 66.636002
13.394 -6.1205001 66.666
13.472 -6.1230001 66.693001
13.553 -6.1264 66.730003
13.64 -6.1329002 66.801003
13.73 -6.1405001 66.883003
13.823 -6.1496 66.983002
13.93 -6.1645002 67.144997
14.037 -6.1795001 67.307999
14.153 -6.1978998 67.509003
14.273 -6.2184 67.732002
14.395 -6.2389998 67.957001
14.507 -6.2554002 68.135002
14.608 -6.2667999 68.259003
14.707 -6.2772999 68.373001
14.805 -6.2874999 68.484001
14.892 -6.2926002 68.540001
15.015 -6.3130999 68.763
15.149 -6.3374 69.028
17.421 -7.1809001 78.216003
17.589001 -7.2149 78.585999
17.735001 -7.2396998 78.856003
17.858999 -7.2550001 79.023003
17.941 -7.2533998 79.004997
18.021999 -7.2512999 78.982002
18.101999 -7.2487001 78.954002
18.181999 -7.2463002 78.928001
18.261999 -7.2438002 78.901001
18.341999 -7.2417998 78.878998
18.423 -7.2396998 78.856003
18.504999 -7.2381001 78.837997
18.586 -7.2361999 78.819
18.667999 -7.2347999 78.803001
18.75 -7.2332001 78.786003
18.833 -7.2321 78.774002
18.917 -7.2312999 78.764999
19.002001 -7.2309999 78.761002
19.087999 -7.2308998 78.760002
19.173 -7.2308002 78.760002
19.259001 -7.2308002 78.759003
19.344999 -7.2307 78.759003
19.43 -7.2305002 78.755997
19.514999 -7.2301002 78.751999
19.599001 -7.2294002 78.744003
19.681999 -7.2284002 78.733002
19.764999 -7.2272 78.720001
19.847 -7.2258 78.705002
19.929001 -7.2245998 78.692001
20.011 -7.2233 78.677002
20.093 -7.2219 78.663002
20.174999 -7.2205 78.648003
20.257 -7.2192998 78.634003
20.34 -7.2181001 78.621002
20.422001 -7.217 78.609001
20.506001 -7.2161002 78.598999
20.589001 -7.2151999 78.588997
20.671 -7.2140002 78.575996
20.753 -7.2126999 78.561996
20.834 -7.2112002 78.545998
20.915001 -7.2094998 78.527
20.993999 -7.2073002 78.503998
21.072001 -7.2047 78.474998
21.149 -7.2017999 78.443001
21.225 -7.1985002 78.407997
21.299999 -7.1950998 78.370003
21.375999 -7.1918998 78.334999
21.452999 -7.1890001 78.304001
21.531 -7.1865001 78.276001
21.610001 -7.1844001 78.253998
21.690001 -7.1827998 78.236
21.773001 -7.1817999 78.224998
21.856001 -7.1812 78.219002
21.940001 -7.1806002 78.212997
22.024 -7.1803999 78.209999
22.110001 -7.1803999 78.209999
22.194 -7.1802001 78.208
22.278999 -7.1799998 78.206001
22.363001 -7.1795998 78.200996
-10.28 -7.3906999 81.469002
-10.192 -7.3909998 81.471001
-10.096 -7.3856001 81.412003
-9.9995003 -7.3801999 81.351997
-9.9014997 -7.3731999 81.276001
-9.7999001 -7.3635001 81.168999
-9.6990004 -7.3541002 81.065002
-9.5969 -7.3435998 80.948997
-9.4948997 -7.3330002 80.832001
-9.3936996 -7.3228002 80.720001
-9.2946997 -7.3140998 80.625
-9.1949997 -7.3048 80.522003
-9.0970001 -7.2965999 80.431999
-9.0016003 -7.2904 80.362
-8.9076996 -7.2852001 80.306
-8.8146 -7.2807002 80.255997
-8.7238998 -7.2779999 80.226997
-8.6342001 -7.2761002 80.205002
-4.9619999 -5.9070001 64.339996
-4.9597998 -5.8341999 64.310997
-4.8920002 -5.8369999 64.342003
-4.8235998 -5.8392 64.365997
-4.7561998 -5.8425002 64.403
-4.6886001 -5.8457999 64.439003
-4.6206999 -5.8488002 64.473
-4.2667999 -5.8456001 64.435997
-4.1964002 -5.8453002 64.432999
-4.1265001 -5.8457999 64.439003
-4.0569 -5.8467999 64.449997
-3.9877999 -5.8484998 64.469002
-3.9189999 -5.8506999 64.492996
-3.8505001 -5.8534999 64.523003
-3.7820001 -5.8564 64.556
-3.7142999 -5.8606 64.601997
-3.6479001 -5.8670998 64.672997
-3.5813999 -5.8737001 64.746002
-3.5150001 -5.8807001 64.823997
-3.4493999 -5.8895001 64.919998
-3.3824999 -5.8962998 64.995003
-3.3153 -5.9026999 65.066002
-3.2485001 -5.9102998 65.150002
-3.1810999 -5.9169998 65.223
-3.1127999 -5.9224 65.282997
-3.0439 -5.9267998 65.332001
-2.9756 -5.9326 65.396004
-2.9082 -5.9405999 65.483002
-2.8415 -5.9503999 65.592003
-2.7750001 -5.9612999 65.711998
-2.7086 -5.9727998 65.838997
-2.6449001 -5.9912 66.041
-2.5769 -6.0005999 66.144997
-2.5079999 -6.0081 66.227997
-2.4377999 -6.0131998 66.283997
-2.3663001 -6.0151 66.305
-2.2931001 -6.0128002 66.278999
-2.2189 -6.0075002 66.222
-2.1440001 -5.9998999 66.138
-2.0685 -5.9900999 66.028999
-1.9933 -5.9805999 65.925003
-1.9183 -5.9710002 65.819
-1.8436 -5.9615002 65.713997
-1.7695 -5.9530001 65.621002
-1.6956 -5.9447999 65.529999
-1.6221 -5.9372001 65.446999
-1.5488 -5.9299998 65.366997
-1.4757 -5.9225998 65.285004
-1.4028 -5.9152999 65.205002
-1.33 -5.9078999 65.124001
-1.2575999 -5.9013 65.050003
-1.1855 -5.8952999 64.985001
-1.1136 -5.8902001 64.928001
-1.0421 -5.8860998 64.883003
-0.97083002 -5.8828001 64.847
-0.89973003 -5.8801999 64.819
-0.82880998 -5.8783998 64.799004
-0.75800002 -5.8772001 64.785004
-0.68726999 -5.8764 64.777
-0.61655998 -5.8757 64.767998
-0.54584002 -5.8745999 64.757004
-0.47509 -5.8729 64.737999
-0.40432 -5.8702998 64.709
-0.33352 -5.8659 64.661003
-0.26275 -5.8599 64.595001
-0.19204 -5.8515 64.501999
-0.12152 -5.842 64.398003
-0.051212002 -5.8320999 64.287003
0.018847 -5.8207998 64.163002
0.088666998 -5.8116002 64.061996
0.15828 -5.8028998 63.966
0.22768 -5.7940998 63.868999
0.2969 -5.7859001 63.778999
0.36603999 -5.7796001 63.709
0.43494001 -5.7721 63.626999
0.50357997 -5.7637 63.534
0.57191998 -5.7543001 63.43
0.63999999 -5.7445002 63.323002
0.70788002 -5.7350998 63.219002
0.77559 -5.7262001 63.119999
0.84319001 -5.7178998 63.028999
0.91065001 -5.7098999 62.941002
0.97794002 -5.7020998 62.855
1.0451 -5.6946998 62.772999
1.112 -5.6869001 62.688
1.1787 -5.6789999 62.599998
1.2453001 -5.6714001 62.515999
1.3118 -5.664 62.435001
1.378 -5.6564999 62.352001
1.4442 -5.6493001 62.272999
1.5102 -5.6422 62.195
1.5763 -5.6360998 62.127998
1.6424 -5.6304002 62.063999
1.7086 -5.6255999 62.012001
1.775 -5.6217999 61.969002
1.8423001 -5.6212001 61.963001
1.9133 -5.6311998 62.073002
1.9852999 -5.6433001 62.207001
2.0585999 -5.6582999 62.372002
2.1335001 -5.6767998 62.576
2.2260001 -5.7395 63.266998
2.3025 -5.7582998 63.473999
2.3785999 -5.7747998 63.657001
2.4545 -5.7902002 63.826
2.5292001 -5.8017998 63.953999
2.6003001 -5.8051 63.990002
2.6717 -5.8084002 64.027
2.7430999 -5.8119001 64.065002
2.8146 -5.8154001 64.102997
2.8857 -5.8176999 64.129997
2.9563 -5.8190999 64.144997
3.0264001 -5.8193998 64.148003
3.096 -5.8186998 64.140999
3.1649001 -5.8168001 64.119003
3.2335 -5.8144002 64.093002
3.3018999 -5.8118 64.064003
3.3706999 -5.8101001 64.044998
3.4403 -5.8095999 64.040001
3.5135 -5.8153 64.101997
3.5890999 -5.8245001 64.204002
3.6679001 -5.8385 64.359001
3.7486 -5.855 64.540001
3.8415999 -5.8896999 64.921997
3.9235001 -5.9064002 65.107002
4.0047998 -5.9215999 65.274002
4.0844998 -5.934 65.412003
4.1637001 -5.9452 65.533997
4.2389998 -5.9506001 65.594002
4.3137002 -5.9549999 65.641998
4.3884001 -5.9591999 65.689003
4.4628 -5.9629998 65.730003
4.5372 -5.9664998 65.769997
4.6114001 -5.9698 65.806
4.6858001 -5.9731998 65.843002
4.7602 -5.9763999 65.877998
4.8347001 -5.9797001 65.915001
4.9096999 -5.9836001 65.958
4.9860001 -5.9888 66.015999
5.0633001 -5.9951 66.084
5.1415 -6.0022998 66.164001
5.2212 -6.0109 66.259003
5.3024998 -6.0212998 66.373001
5.3864002 -6.0342002 66.515999
5.4707999 -6.0472999 66.660004
5.5548 -6.0595999 66.795998
5.6378999 -6.0707002 66.917999
5.7209001 -6.0813999 67.036003
6.7455001 -6.2870002 69.302002
6.8167 -6.283 69.258003
6.8873 -6.2785001 69.209
6.9573998 -6.2737002 69.154999
7.0253 -6.2670002 69.081001
7.0911999 -6.2586002 68.989998
7.1543002 -6.2480001 68.872002
7.2171001 -6.2374001 68.754997
7.2790999 -6.2262998 68.634003
7.3410001 -6.2154002 68.513
7.4040999 -6.2056999 68.405998
7.4685001 -6.1971998 68.311996
7.5335999 -6.1894999 68.226997
7.5994 -6.1824999 68.150002
7.6651001 -6.1754999 68.073997
7.7301002 -6.1682 67.992996
7.7947001 -6.1606002 67.910004
7.8582001 -6.1524 67.819
7.9205999 -6.1434002 67.720001
7.9822998 -6.1341 67.616997
8.0440998 -6.125 67.516998
8.1061001 -6.1163001 67.419998
8.1688004 -6.1082001 67.331001
8.2327003 -6.1012001 67.253998
8.2988005 -6.0957999 67.195
8.3666 -6.0918999 67.151001
8.4363003 -6.0893002 67.123001
8.5066996 -6.0872998 67.100998
8.5775995 -6.0857 67.083
8.6487999 -6.0844002 67.069
8.7198 -6.0829 67.052002
8.7901001 -6.0809002 67.029999
8.8591003 -6.0781002 67
8.927 -6.0746002 66.960999
8.9933996 -6.0702 66.912003
9.0584002 -6.0647998 66.852997
9.1225004 -6.0588999 66.788002
9.1866999 -6.0532999 66.725998
9.2512999 -6.0479002 66.667
9.3161001 -6.0429001 66.611
9.3817997 -6.0383 66.560997
9.4471998 -6.0338001 66.511002
9.5120001 -6.0289001 66.457001
9.5766001 -6.0239 66.402
9.6410999 -6.0190001 66.348999
9.7058001 -6.0142999 66.295998
9.7700996 -6.0093999 66.241997
9.8347998 -6.0047998 66.191002
9.9007998 -6.0009999 66.150002
9.9688997 -5.9986 66.123001
10.041 -5.9984002 66.121002
10.117 -6.0011001 66.151001
10.198 -6.0058999 66.204002
10.28 -6.0117002 66.267998
10.364 -6.0184002 66.342003
10.447 -6.0247002 66.411003
10.528 -6.0296998 66.466003
10.608 -6.0338001 66.512001
10.687 -6.0380001 66.557999
10.767 -6.0419998 66.600998
10.848 -6.0464001 66.650002
10.929 -6.0513 66.704002
11.014 -6.0580001 66.777
11.106 -6.0683999 66.892998
11.201 -6.0804 67.025002
11.3 -6.0942998 67.178001
11.401 -6.1094999 67.346001
11.506 -6.1262002 67.529999
11.604 -6.1391001 67.671997
11.7 -6.1504002 67.796997
11.789 -6.1581998 67.883003
11.873 -6.1634998 67.941002
11.948 -6.164 67.946999
12.015 -6.1606002 67.908997
12.076 -6.1540999 67.836998
12.131 -6.1441998 67.728996
12.178 -6.1306 67.578003
12.221 -6.1153998 67.410004
12.258 -6.0970998 67.209
12.39 -6.0914998 66.349998
12.38 -6.0139999 66.292999
12.435 -6.0778999 66.200996
12.427 -6.0019999 66.161003
12.481 -5.9933 66.065002
12.541 -5.9875002 66.000999
12.613 -5.9877 66.002998
12.688 -5.9891 66.017998
12.766 -5.9919 66.049004
12.85 -5.9970999 66.106003
12.938 -6.0044999 66.188004
13.031 -6.0145001 66.299004
13.128 -6.0256 66.420998
13.221 -6.0351 66.526001
13.315 -6.0450001 66.635002
13.39 -6.046 66.644997
13.466 -6.0474 66.662003
13.546 -6.0506001 66.696999
13.63 -6.0558 66.753998
13.717 -6.0616999 66.819
13.811 -6.0711002 66.922997
13.924 -6.0888 67.117996
14.04 -6.1072998 67.321999
14.162 -6.1283998 67.554001
14.3 -6.1560001 67.858002
14.422 -6.1767998 68.086998
14.533 -6.1922998 68.258003
14.635 -6.2041001 68.388
14.733 -6.2136002 68.494003
14.829 -6.2227001 68.594002
14.911 -6.2255998 68.625999
15.036 -6.2466002 68.857002
15.169 -6.2705002 69.120003
15.333 -6.3072 69.525002
17.41 -7.0911999 78.167
17.577999 -7.125 78.540001
17.725 -7.1496 78.810997
17.849001 -7.1647 78.976997
17.931999 -7.1634002 78.962997
18.011999 -7.1613002 78.940002
18.091999 -7.1588998 78.913002
18.172001 -7.1564999 78.887001
18.253 -7.1543999 78.863998
18.334 -7.1525998 78.844002
18.415001 -7.1507001 78.822998
18.497999 -7.1493001 78.807999
18.579 -7.1476998 78.790001
18.662001 -7.1464 78.776001
18.743999 -7.1451001 78.761002
18.827999 -7.1443 78.752998
18.913 -7.1437998 78.747002
18.997999 -7.1437998 78.746002
19.084999 -7.1438999 78.748001
19.171 -7.1441998 78.750999
19.257999 -7.1444001 78.752998
19.344 -7.1445999 78.754997
19.43 -7.1444998 78.754997
19.514999 -7.1444001 78.753998
19.599001 -7.1437998 78.746002
19.683001 -7.1427999 78.736
19.764999 -7.1415 78.722
19.847 -7.1401 78.706001
19.929001 -7.1387 78.691002
20.011 -7.1373 78.676003
20.091999 -7.1359 78.660004
20.174 -7.1343002 78.641998
20.254999 -7.1329002 78.625999
20.337 -7.1314998 78.612
20.42 -7.1304002 78.598999
20.503 -7.1294999 78.588997
20.586 -7.1285 78.579002
20.667999 -7.1273999 78.567001
20.750999 -7.1262002 78.553001
20.832001 -7.1248002 78.537003
20.913 -7.1231999 78.519997
20.992001 -7.1210999 78.496002
21.07 -7.1184001 78.467003
21.146 -7.1152 78.431
21.221001 -7.1115999 78.391998
21.295 -7.1079998 78.351997
21.371 -7.1048002 78.317001
21.448 -7.1020002 78.286003
21.528 -7.1001 78.264999
21.608999 -7.0987 78.25
21.691999 -7.098 78.241997
21.778 -7.0981002 78.242996
21.865 -7.0985999 78.249001
21.952 -7.0992999 78.257004
22.041 -7.1004 78.268997
22.128 -7.1011 78.277
22.216 -7.1020002 78.286003
22.302 -7.1020002 78.286003
22.388 -7.1023998 78.291
-10.28 -7.3018999 81.469002
-10.196 -7.3053002 81.507004
-10.1 -7.3000002 81.446999
-10.004 -7.2944999 81.386002
-9.9063997 -7.2883 81.317001
-9.8041 -7.2781 81.204002
-9.7030001 -7.2687001 81.098
-9.6001997 -7.2579002 80.977997
-9.4976997 -7.2470002 80.856003
-9.3961 -7.2365999 80.740997
-9.2964001 -7.2276001 80.639
-9.1959 -7.2177 80.528999
-9.0974998 -7.2093 80.435997
-9.0018997 -7.2030001 80.364998
-8.9077997 -7.1977 80.306999
-8.8139 -7.1925998 80.249001
-8.7223997 -7.1893001 80.211998
-5.027 -5.8309002 64.274002
-5.0240002 -5.7574 64.236
-4.9563999 -5.7602 64.267998
-4.8884001 -5.7625999 64.294998
-4.8189001 -5.7632999 64.303001
-4.7502999 -5.7652001 64.323997
-4.2528 -5.7563 64.224998
-4.1831999 -5.7568998 64.231003
-4.1146002 -5.7589002 64.252998
-4.0467 -5.7620001 64.288002
-3.9782 -5.7644 64.314003
-3.9103 -5.7676001 64.350998
-3.8425 -5.7711 64.389999
-3.7746999 -5.7747998 64.431
-3.7081001 -5.7804999 64.495003
-3.6426001 -5.7880998 64.580002
-3.5771999 -5.7962999 64.670998
-3.5118999 -5.8049002 64.765999
-3.4465001 -5.8137999 64.865997
-3.3821001 -5.8246002 64.987
-3.3166001 -5.8340998 65.092003
-3.2502999 -5.8424001 65.184998
-3.1833999 -5.8501 65.271004
-3.1152999 -5.8559999 65.335999
-3.0465 -5.8606 65.388
-2.9783001 -5.8667002 65.456001
-2.9109001 -5.8748002 65.545998
-2.8443 -5.8848 65.657997
-2.7776999 -5.8954 65.776001
-2.7112 -5.9067001 65.902
-2.6468 -5.9235001 66.089996
-2.5783 -5.9315 66.179001
-2.5085001 -5.9372001 66.241997
-2.4375999 -5.9404001 66.278
-2.3652999 -5.9404001 66.278
-2.2915001 -5.9362998 66.232002
-2.2165 -5.9288998 66.151001
-2.1410999 -5.9197998 66.047997
-2.0655 -5.9095998 65.934998
-1.9901 -5.8992 65.819
-1.9153 -5.8898001 65.713997
-1.8407 -5.8806 65.611
-1.7667 -5.8723998 65.518997
-1.693 -5.8645 65.431
-1.6197 -5.8573999 65.352997
-1.5465 -5.8501 65.271004
-1.4737 -5.8432999 65.195
-1.4009 -5.8365002 65.119003
-1.3285 -5.8302002 65.049004
-1.2563 -5.8242998 64.983002
-1.1844 -5.8193002 64.927002
-1.1128 -5.8148999 64.877998
-1.0414 -5.8115001 64.839996
-0.97030002 -5.8088999 64.810997
-0.89933997 -5.8070002 64.790001
-0.82849997 -5.8056998 64.775002
-0.75777 -5.8048 64.765999
-0.68708003 -5.8042998 64.759003
-0.6164 -5.8035998 64.751999
-0.54569 -5.8024001 64.738998
-0.47494999 -5.8004999 64.718002
-0.40419999 -5.7979999 64.689003
-0.33337 -5.7929001 64.632004
-0.26258999 -5.7860999 64.556999
-0.1919 -5.777 64.455002
-0.12143 -5.7674999 64.349998
-0.051167998 -5.757 64.232002
0.018832 -5.7463002 64.112999
0.088597 -5.7371998 64.011002
0.15815 -5.7283001 63.911999
0.22748999 -5.7196999 63.816002
0.29666999 -5.7119002 63.729
0.36570999 -5.7049999 63.652
0.43450999 -5.6971002 63.563999
0.50303 -5.6882 63.464001
0.57129002 -5.6788998 63.361
0.63932002 -5.6694999 63.256001
0.70718002 -5.6606002 63.157001
0.77487999 -5.6521001 63.062
0.84249002 -5.6444001 62.976002
0.90989 -5.6366 62.889
0.97716999 -5.6292 62.806
1.0443 -5.6219001 62.724998
1.1112 -5.6142998 62.639999
1.1779 -5.6065998 62.554001
1.2444 -5.599 62.469002
1.3108 -5.5917001 62.388
1.377 -5.5841999 62.304001
1.4431 -5.5770998 62.223999
1.5089999 -5.5700002 62.145
1.575 -5.5639 62.077999
1.641 -5.5581002 62.012001
1.707 -5.553 61.956001
1.7733001 -5.5489998 61.910999
1.841 -5.5495 61.917
1.9119 -5.5594001 62.028
1.9839 -5.5718002 62.165001
2.0574999 -5.5875001 62.341
2.1327 -5.6064 62.551998
2.2269001 -5.6725998 63.290001
2.3032999 -5.6908998 63.494999
2.3794 -5.7075 63.679001
2.4554 -5.7227001 63.849998
2.5295999 -5.7329998 63.965
2.6006999 -5.7360001 63.998001
2.6719 -5.7391 64.031998
2.7433 -5.7424002 64.07
2.8148 -5.7458 64.107002
2.8857999 -5.7480998 64.132004
2.9565001 -5.7494001 64.147003
3.0265999 -5.7498002 64.152
3.0962 -5.7491002 64.143997
3.1651001 -5.7472 64.123001
3.2335 -5.7447 64.094002
3.3018 -5.7417998 64.061996
3.3706 -5.7399998 64.042999
3.4402001 -5.7396002 64.038002
3.5134001 -5.7451 64.098999
3.5888 -5.7540998 64.198997
3.6670001 -5.7669001 64.343002
3.7481 -5.7838001 64.530998
3.8420999 -5.8196001 64.931
3.9238 -5.8358998 65.112
4.0051999 -5.8511 65.280998
4.0851002 -5.8635001 65.419998
4.1636 -5.8736 65.532997
4.2386999 -5.8786998 65.589996
4.3133001 -5.8829002 65.637001
4.3881001 -5.8873 65.684998
4.4626999 -5.8910999 65.728996
4.5370002 -5.8945999 65.766998
4.6111999 -5.8978 65.803001
4.6855998 -5.9011998 65.841003
4.7600002 -5.9043002 65.875999
4.8346 -5.9077001 65.913002
4.9098001 -5.9116998 65.958
4.9863 -5.9172001 66.018997
5.0639 -5.9236999 66.093002
5.1429 -5.9317999 66.181999
5.2235999 -5.9415002 66.291
5.3063998 -5.9533 66.421997
5.3915 -5.9674001 66.579002
5.4768 -5.9812002 66.734001
5.5611 -5.9935999 66.872002
5.6455002 -6.0057998 67.008003
5.7277999 -6.0155001 67.116997
5.8105998 -6.0254998 67.227997
6.7447 -6.2105999 69.292999
6.8162999 -6.2070999 69.252998
6.8873 -6.2030001 69.208
6.9576998 -6.1985002 69.157997
7.0265002 -6.1926999 69.093002
7.0932999 -6.1852002 69.010002
7.1582999 -6.1764002 68.911003
7.2213001 -6.1659999 68.794998
7.2838998 -6.1554999 68.678001
7.3466001 -6.1454 68.565002
7.4092002 -6.1353002 68.453003
7.4731998 -6.1265998 68.355003
7.5380998 -6.1188002 68.267998
7.6037002 -6.1115999 68.188004
7.6690001 -6.1044002 68.108002
7.7336001 -6.0967999 68.024002
7.7978001 -6.0890002 67.935997
7.8613 -6.0808001 67.845001
7.9240999 -6.0723 67.75
7.9861002 -6.0633001 67.649002
8.0481997 -6.0545001 67.551003
8.1104002 -6.046 67.457001
8.1733999 -6.0381999 67.369003
8.2377005 -6.0314999 67.293999
8.3041 -6.0264001 67.237999
8.3718996 -6.0223999 67.194
8.4414997 -6.0198002 67.164001
8.5120001 -6.0179 67.142998
8.5830002 -6.0163999 67.125999
8.6546001 -6.0152001 67.112999
8.7256002 -6.0137 67.097
8.7960997 -6.0118999 67.075996
8.8655005 -6.0093999 67.047997
8.9335003 -6.006 67.010002
9.0002003 -6.0016999 66.961998
9.0651999 -5.9963999 66.903
9.1290998 -5.9905 66.836998
9.1924 -5.9843001 66.767998
9.2556 -5.9780002 66.697998
9.3186998 -5.9719 66.628998
9.3821001 -5.9660001 66.564003
9.4448004 -5.9597998 66.495003
9.5080996 -5.954 66.43
9.5713997 -5.9482999 66.366997
9.6349001 -5.9428 66.305
9.6983995 -5.9375 66.246002
9.7614002 -5.9319 66.182999
9.8254004 -5.9268999 66.127998
9.8910999 -5.9231 66.085999
9.9589005 -5.9204998 66.056999
10.03 -5.9201002 66.052002
10.106 -5.9225001 66.078003
10.186 -5.9267998 66.126999
10.268 -5.9324999 66.190002
10.351 -5.9387002 66.259003
10.435 -5.9459 66.339996
10.517 -5.9510999 66.398003
10.597 -5.9552999 66.445
10.678 -5.9598999 66.495003
10.759 -5.9646001 66.549004
10.842 -5.9703002 66.612
10.925 -5.9762998 66.678001
11.011 -5.9836001 66.760002
11.104 -5.9944 66.880997
11.202 -6.0079002 67.030998
11.303 -6.0229001 67.198997
11.407 -6.0391002 67.378998
11.511 -6.0553002 67.559998
11.609 -6.0679002 67.700996
11.703 -6.0784998 67.819
11.791 -6.0853 67.894997
11.872 -6.0890002 67.936996
11.943 -6.0876999 67.921997
12.007 -6.0823002 67.861
12.063 -6.0734 67.763
12.336 -6.0278001 66.445999
12.323 -5.9492998 66.377998
12.373 -5.9383998 66.255997
12.424 -5.9285002 66.146004
12.481 -5.9211998 66.064003
12.542 -5.9162002 66.008003
12.613 -5.9155998 66.000999
12.687 -5.9164 66.010002
12.764 -5.9189 66.038002
12.847 -5.9238 66.093002
13.704 -5.9835 66.759003
13.793 -5.9903998 66.835999
13.909 -6.0091 67.044998
14.044 -6.0355 67.338997
14.184 -6.0640001 67.656998
14.33 -6.0948 68.000999
14.456 -6.1167998 68.247002
14.574 -6.1350002 68.448997
14.672 -6.145 68.560997
14.764 -6.152 68.639
14.856 -6.1591001 68.719002
14.936 -6.1612 68.741997
15.057 -6.1803002 68.955002
15.189 -6.2034998 69.213997
15.354 -6.2396998 69.616997
17.392 -6.9990001 78.088997
17.562 -7.0328002 78.467003
17.709 -7.0572 78.738998
17.834 -7.0727 78.911003
17.922001 -7.0735002 78.919998
18.003 -7.0716 78.899002
18.083 -7.0692 78.873001
18.164 -7.0671 78.849998
18.243999 -7.0651999 78.828003
18.327 -7.0637002 78.810997
18.408001 -7.0619998 78.792999
18.490999 -7.0608001 78.778999
18.573 -7.0595002 78.764999
18.656 -7.0584002 78.751999
18.739 -7.0573001 78.739998
18.823999 -7.0569 78.735001
18.909 -7.0567002 78.733002
18.996 -7.0569 78.735001
19.083 -7.0572 78.738998
19.17 -7.0577998 78.745003
19.257 -7.0583 78.750999
19.344 -7.0587001 78.754997
19.431 -7.0588999 78.758003
19.517 -7.059 78.758003
19.601 -7.0584002 78.751999
19.684 -7.0574002 78.740997
19.766001 -7.0560002 78.724998
19.847 -7.0545001 78.708
19.929001 -7.0531001 78.693001
20.011 -7.0516 78.676003
20.091999 -7.0500002 78.657997
20.173 -7.0482001 78.638
20.254 -7.0465002 78.619003
20.334999 -7.0448999 78.601997
20.417 -7.0437002 78.587997
20.5 -7.0427999 78.578003
20.583 -7.0418 78.567001
20.665001 -7.0407 78.555
20.747 -7.0395999 78.542
20.829 -7.0381999 78.526001
20.91 -7.0367999 78.511002
20.99 -7.0349002 78.488998
21.068001 -7.0321999 78.459999
21.143 -7.0288 78.421997
21.218 -7.0251999 78.380997
21.292 -7.0214 78.339996
21.368 -7.0181999 78.304001
21.445999 -7.0159001 78.278
21.527 -7.0145001 78.262001
21.610001 -7.0138001 78.253998
21.695 -7.0138001 78.253998
21.784 -7.0148001 78.264999
21.875 -7.0166998 78.287003
21.966999 -7.0187001 78.309998
22.059999 -7.0212998 78.338997
22.15 -7.0226998 78.352997
22.24 -7.0240002 78.367996
22.327999 -7.0249 78.377998
22.415001 -7.0254002 78.384003
-10.28 -7.2132001 81.470001
-10.201 -7.2199998 81.546997
-10.105 -7.2146001 81.486
-10.008 -7.2090001 81.422997
-9.9111996 -7.2031002 81.356003
-9.8087997 -7.1929998 81.242996
-9.7074003 -7.1834998 81.135002
-9.6042995 -7.1725998 81.011002
-9.5015001 -7.1616998 80.889
-9.3993998 -7.1511002 80.768997
-9.2988005 -7.1415 80.660004
-9.1977997 -7.1314001 80.545998
-9.0986996 -7.1224999 80.445999
-9.0032997 -7.1163998 80.377998
-8.9089003 -7.1111002 80.317001
-8.8147001 -7.1057 80.255997
-8.7223997 -7.1018 80.211998
-5.0225 -5.6856999 64.217003
-4.9538999 -5.6872001 64.235001
-4.8849001 -5.6883998 64.248001
-4.8150001 -5.6887002 64.250999
-4.7454 -5.6891999 64.257004
-4.6750998 -5.6889 64.253998
-4.4691 -5.7642999 64.314003
-4.4584999 -5.6806998 64.161003
-4.3962998 -5.7607999 64.275002
-4.3857002 -5.677 64.119003
-4.3238001 -5.7575998 64.238998
-4.3140001 -5.6746998 64.093002
-4.2435002 -5.6739001 64.084
-4.1742001 -5.6746998 64.093002
-4.1057 -5.6766 64.114998
-4.0383 -5.6802001 64.154999
-3.9709001 -5.6838002 64.195999
-3.9038999 -5.6882 64.245003
-3.8369 -5.6925998 64.294998
-3.7702 -5.6978002 64.353996
-3.7047 -5.7048998 64.434998
-3.6401 -5.7138 64.535004
-3.5755 -5.723 64.639
-3.5109 -5.7326002 64.748001
-3.4466 -5.7431002 64.865997
-3.3847001 -5.7582002 65.037003
-3.3196001 -5.7683001 65.151001
-3.2537999 -5.7775002 65.254997
-3.187 -5.7855 65.345001
-3.119 -5.7915001 65.413002
-3.0502999 -5.7964001 65.469002
-2.9821999 -5.8028002 65.540001
-2.9149001 -5.8112001 65.635002
-2.848 -5.8207998 65.744003
-2.7809999 -5.8305998 65.855003
-2.7168 -5.8467999 66.038002
-2.6485 -5.8551002 66.130997
-2.579 -5.8610001 66.197998
-2.5084 -5.8646998 66.238998
-2.4367001 -5.8660002 66.253998
-2.3636999 -5.8641 66.232002
-2.2890999 -5.8579001 66.163002
-2.2135999 -5.849 66.061996
-2.1377001 -5.8385 65.944
-2.062 -5.8278999 65.823997
-1.9868 -5.8179002 65.710999
-1.9122 -5.8088002 65.608002
-1.8378 -5.7997999 65.505997
-1.7640001 -5.7918 65.417
-1.6904 -5.7842999 65.331001
-1.6172 -5.7772999 65.252998
-1.5441999 -5.7704 65.174004
-1.4716001 -5.7644 65.106003
-1.3992 -5.7586002 65.041
-1.327 -5.7529001 64.976997
-1.2551 -5.7480001 64.920998
-1.1834 -5.7435002 64.871002
-1.112 -5.7399001 64.830002
-1.0408 -5.7371998 64.800003
-0.9698 -5.7353001 64.778
-0.89894998 -5.7339001 64.762001
-0.82819003 -5.7329001 64.750999
-0.75751001 -5.7322998 64.744003
-0.68686002 -5.7318001 64.738998
-0.61620998 -5.7312002 64.731003
-0.54550999 -5.73 64.718002
-0.47479001 -5.7282 64.696999
-0.40406999 -5.7255998 64.667999
-0.33326 -5.7203999 64.610001
-0.26247999 -5.7133002 64.528999
-0.1918 -5.7037001 64.420998
-0.12135 -5.6938 64.308998
-0.051120002 -5.6816001 64.170998
0.018813999 -5.6708999 64.051003
0.088497996 -5.6610999 63.939999
0.15797 -5.6522002 63.839001
0.22723 -5.6437001 63.743999
0.29633 -5.6359 63.655998
0.36522999 -5.6282001 63.569
0.43388 -5.6195998 63.471001
0.50230002 -5.6107998 63.372002
0.57050002 -5.6020002 63.271999
0.63848001 -5.5932002 63.173
0.70627999 -5.5846 63.076
0.77397001 -5.5767999 62.987999
0.84156001 -5.5696001 62.907001
0.90894997 -5.5623002 62.824001
0.97614998 -5.5549002 62.740002
1.0433 -5.5479002 62.661999
1.1102 -5.5409002 62.583
1.1768 -5.5335002 62.499001
1.2433 -5.5261002 62.415001
1.3096 -5.5188999 62.333
1.3758 -5.5114999 62.25
1.4418 -5.5043001 62.169998
1.5077 -5.4974999 62.092999
1.5737 -5.4914999 62.025002
1.6395 -5.4856 61.958
1.7055 -5.4805002 61.900002
1.7716 -5.4762001 61.852001
1.8396 -5.4780002 61.872002
1.9105 -5.4878001 61.983002
1.9826 -5.5004001 62.124001
2.0565 -5.5167999 62.311001
2.1322999 -5.5373001 62.541
2.2277999 -5.6058998 63.317001
2.3043001 -5.6241999 63.523998
2.3806 -5.6406999 63.709999
2.4567001 -5.6560998 63.882999
2.5302 -5.6648002 63.981998
2.6012001 -5.6675 64.012001
2.6724 -5.6703 64.043999
2.7437 -5.6733999 64.079002
2.8151 -5.6764998 64.113998
2.8861001 -5.6787 64.139
2.9568 -5.6801 64.153999
3.027 -5.6806002 64.160004
3.0966001 -5.6799002 64.153
3.1656001 -5.6781998 64.133003
3.2342 -5.6760001 64.108002
3.3025 -5.6731 64.075996
3.3713 -5.6712999 64.055
3.4409001 -5.6708999 64.051003
3.5896001 -5.6852002 64.211998
3.6673999 -5.6973 64.348999
3.7474 -5.7122998 64.518997
3.9233999 -5.7642002 65.105003
4.0047002 -5.7789998 65.272003
4.0843 -5.7909999 65.406998
4.1624999 -5.8006001 65.515999
4.2375998 -5.8056002 65.571999
4.3123002 -5.8098998 65.621002
4.3871999 -5.8144002 65.670998
4.4619002 -5.8183999 65.717003
4.5363998 -5.8221002 65.758003
4.6106 -5.8253002 65.793999
4.6852002 -5.8288002 65.834
4.7596998 -5.8322001 65.872002
4.8344998 -5.8358002 65.913002
4.9099998 -5.8400998 65.961998
4.9868002 -5.8457999 66.026001
5.0650001 -5.8529 66.106003
5.1451001 -5.8621001 66.209999
5.2269001 -5.8727999 66.331001
5.3116002 -5.8866 66.487
5.3972001 -5.901 66.649002
5.4836001 -5.9157 66.816002
5.5700998 -5.9302001 66.980003
5.6539998 -5.9417 67.109001
5.7375998 -5.9524999 67.231003
5.8204999 -5.9624 67.343002
5.8997002 -5.9682002 67.408997
6.8161001 -6.1314001 69.250999
6.8875999 -6.1278 69.210999
6.9584999 -6.1237998 69.165001
7.0281 -6.1188002 69.109001
7.0962 -6.1125002 69.038002
7.1626 -6.1048999 68.952003
7.2262998 -6.0952001 68.843002
7.2891998 -6.0851002 68.728996
7.3523998 -6.0753999 68.619003
7.4151001 -6.0654998 68.507004
7.4783001 -6.0562 68.402
7.5427999 -6.0481 68.310997
7.6076002 -6.0404 68.223999
7.6722999 -6.0328002 68.138
7.7364001 -6.0247998 68.047997
7.8000998 -6.0167999 67.957001
7.8638 -6.0088 67.866997
7.9264002 -6.0001998 67.769997
7.9886999 -5.9914999 67.670998
8.0515003 -5.9833002 67.579002
8.1145 -5.9754 67.489998
8.1784 -5.9684 67.410004
8.2433996 -5.9622002 67.341003
8.3108997 -5.9580002 67.292999
8.3795004 -5.9545999 67.254997
8.4496002 -5.9523001 67.228996
8.5207996 -5.9507999 67.211998
8.5927 -5.9499002 67.202003
8.6648998 -5.9491 67.193001
8.7367001 -5.9481001 67.181999
