# .PCD v0.7 - Point Cloud Data file format
VERSION 0.7
FIELDS x y z
SIZE 4 4 4
TYPE F F F
COUNT 1 1 1
WIDTH 1746
HEIGHT 1
VIEWPOINT 0 0 0 1 0 0 0
POINTS 1746
DATA ascii
79.066002 -18.657 17.790001
79.253998 -18.618 17.804001
79.449997 -18.58 17.819
79.646004 -18.542999 17.834
79.814003 -18.497 17.843
79.966003 -18.448 17.848
80.113998 -18.396999 17.853001
80.241997 -18.341 17.851999
80.347 -18.280001 17.847
80.441002 -18.215 17.84
80.524002 -18.148001 17.83
80.608002 -18.080999 17.82
80.686996 -18.013 17.809
80.764 -17.943001 17.798
80.835999 -17.872999 17.785999
80.904999 -17.802 17.771999
80.967003 -17.729 17.757999
81.029999 -17.657 17.743
81.086998 -17.583 17.728001
81.142998 -17.507999 17.712
81.196999 -17.433001 17.695
81.25 -17.358 17.679001
81.301003 -17.283001 17.662001
81.348999 -17.205999 17.643999
81.393997 -17.129 17.625999
70.941002 -28.239 19.805
70.849998 -28.114 19.753
70.760002 -27.990999 19.701
70.620003 -27.847 19.636
70.472 -27.700001 19.568001
70.310997 -27.547001 19.497
70.160004 -27.4 19.429001
70.028999 -27.261 19.365999
69.907997 -27.127001 19.306999
69.800003 -26.997999 19.250999
69.698997 -26.872999 19.197001
69.607002 -26.750999 19.145
69.523003 -26.634001 19.096001
69.445999 -26.518999 19.048
69.374001 -26.407 19.003
69.309998 -26.298 18.959
69.255997 -26.193001 18.917999
69.212997 -26.093 18.879999
69.183998 -25.999001 18.846001
69.166 -25.909 18.815001
69.153 -25.820999 18.785
69.146004 -25.736 18.757
69.143997 -25.653 18.73
69.144997 -25.570999 18.704
69.144997 -25.489 18.677999
69.146004 -25.407 18.652
69.148003 -25.326 18.625999
69.146004 -25.243 18.6
69.142998 -25.16 18.573
69.140999 -25.077 18.546
69.140999 -24.995001 18.52
69.148003 -24.916 18.496
69.160004 -24.839001 18.473
69.182999 -24.766001 18.452999
69.217003 -24.697001 18.436001
69.264 -24.632999 18.422001
69.319 -24.573 18.41
69.384003 -24.514999 18.400999
69.455002 -24.459999 18.393
69.528 -24.406 18.386
69.606003 -24.353001 18.379999
69.683998 -24.299999 18.374001
69.761002 -24.247 18.368
69.860001 -24.202 18.367001
69.995003 -24.169001 18.375999
70.195999 -24.160999 18.400999
70.440002 -24.167999 18.437
70.757004 -24.201 18.492001
72.213997 -24.562 18.809999
72.556 -24.6 18.870001
72.833 -24.615 18.913
73.030998 -24.601 18.936001
73.167999 -24.563999 18.944
73.242996 -24.506001 18.936001
73.271004 -24.431 18.915001
73.268997 -24.344999 18.888
73.261002 -24.257 18.858999
73.250999 -24.167999 18.829
73.237 -24.077999 18.798
73.220001 -23.988001 18.767
73.197998 -23.895 18.735001
73.176003 -23.802999 18.702
73.143997 -23.707001 18.667
73.111 -23.611 18.632
73.064003 -23.511 18.593
73.016998 -23.410999 18.555
72.956001 -23.306 18.513
72.891998 -23.200001 18.469999
72.807999 -23.087999 18.423
72.724998 -22.976 18.375999
72.643997 -22.865999 18.329
72.585999 -22.763 18.288
72.554001 -22.669001 18.254
72.584 -22.596001 18.235001
72.695999 -22.549999 18.235001
72.849998 -22.517 18.246
73.125 -22.524 18.287001
73.442001 -22.544001 18.337
73.665001 -22.532 18.365
73.835999 -22.504 18.379999
73.987999 -22.468 18.389
74.120003 -22.427 18.395
74.226997 -22.375999 18.393
74.267998 -22.305 18.375999
74.306999 -22.233 18.358999
74.344002 -22.16 18.341
74.386002 -22.089001 18.323999
74.428001 -22.018 18.306999
74.474998 -21.948 18.291
74.524002 -21.879 18.275999
74.573997 -21.809999 18.261
74.621002 -21.74 18.246
74.663002 -21.669001 18.229
74.699997 -21.596001 18.209999
74.733002 -21.521999 18.191
74.761002 -21.445999 18.171
74.787003 -21.370001 18.15
74.807999 -21.292 18.128
74.828003 -21.212999 18.106001
74.846001 -21.135 18.084
74.865997 -21.056999 18.062
74.893997 -20.981001 18.041
74.931999 -20.908001 18.023001
74.998001 -20.844 18.011999
75.075996 -20.783001 18.003
75.165001 -20.725 17.997
75.264 -20.669001 17.993
75.379997 -20.618999 17.993999
75.490997 -20.566999 17.992001
75.599998 -20.514 17.990999
75.708 -20.461 17.989
75.811996 -20.406 17.986
75.893997 -20.344999 17.978001
75.970001 -20.282 17.969
76.050003 -20.219999 17.959999
76.137001 -20.16 17.952999
76.227997 -20.101 17.947001
76.323997 -20.042999 17.941
76.417999 -19.985001 17.936001
76.514999 -19.927 17.931
76.607002 -19.868 17.924999
76.698997 -19.808001 17.919001
76.786003 -19.747 17.912001
76.873001 -19.686001 17.903999
76.950996 -19.622 17.895
77.027 -19.558001 17.885
77.100998 -19.493 17.874001
77.179001 -19.429001 17.865
77.263 -19.365999 17.856001
77.349998 -19.304001 17.849001
77.443001 -19.243999 17.841999
77.538002 -19.183001 17.836
77.636002 -19.124001 17.830999
77.735001 -19.065001 17.826
77.844002 -19.007999 17.823
77.959999 -18.952 17.822001
78.094002 -18.902 17.823999
78.223 -18.849001 17.825001
78.364998 -18.799999 17.83
78.513 -18.752001 17.834999
78.689003 -18.711 17.846001
78.874001 -18.671 17.858999
79.073997 -18.635 17.875999
79.265999 -18.597 17.889999
79.474998 -18.563 17.908001
79.653999 -18.521 17.92
79.807999 -18.472 17.926001
79.953003 -18.421 17.93
80.092003 -18.368 17.931999
80.210999 -18.309999 17.93
80.307999 -18.246 17.924
80.398003 -18.181 17.915001
80.483002 -18.114 17.906
80.569 -18.047001 17.896999
80.649002 -17.979 17.886
80.727997 -17.910999 17.875
80.800003 -17.84 17.863001
80.867996 -17.768999 17.85
80.928001 -17.695999 17.834
80.990997 -17.622999 17.82
81.049004 -17.549 17.805
81.106003 -17.475 17.789
81.161003 -17.400999 17.773001
81.214996 -17.326 17.756001
81.266998 -17.25 17.74
81.317001 -17.174 17.722
81.363998 -17.098 17.704
81.408997 -17.021 17.686001
71.102997 -28.48 19.905001
71.042999 -28.436001 19.969
71.019997 -28.358 19.855
70.959999 -28.313999 19.917999
70.880997 -28.195 19.868999
70.789001 -28.07 19.816
70.703003 -27.948 19.764999
70.563004 -27.804001 19.700001
70.416 -27.657 19.632
70.252998 -27.504999 19.559999
70.101997 -27.357 19.492001
69.967003 -27.216999 19.427999
69.848 -27.084 19.368999
69.736 -26.952999 19.312
69.632004 -26.827 19.257
69.537003 -26.704 19.204
69.450996 -26.586 19.153999
69.378998 -26.473 19.108
69.308998 -26.362 19.063
69.244003 -26.253 19.018999
69.193001 -26.149 18.979
69.151001 -26.049999 18.941
69.124001 -25.955999 18.907
69.107002 -25.867001 18.875999
69.097 -25.780001 18.847
69.092003 -25.695999 18.82
69.092003 -25.614 18.792999
69.095001 -25.533001 18.768
69.096001 -25.451 18.742001
69.098 -25.368999 18.716
69.098 -25.287001 18.690001
69.096001 -25.205 18.663
69.092003 -25.121 18.636
69.087997 -25.038 18.608999
69.085999 -24.955 18.582001
69.091003 -24.875 18.556999
69.102997 -24.798 18.535
69.130997 -24.726999 18.516001
69.172997 -24.662001 18.500999
69.227997 -24.601 18.489
69.292 -24.542999 18.48
69.364998 -24.489 18.473
69.441002 -24.436001 18.466
69.518997 -24.382999 18.461
69.600998 -24.332001 18.455999
69.678001 -24.278999 18.448999
69.741997 -24.221001 18.440001
69.815002 -24.166 18.431999
69.919998 -24.122 18.433001
70.092003 -24.104 18.452
70.307999 -24.101 18.481001
70.586998 -24.118999 18.525999
70.964996 -24.174 18.597
72.051003 -24.483 18.848
72.421997 -24.532 18.916
72.714996 -24.552999 18.962999
72.941002 -24.548 18.993999
73.100998 -24.52 19.007
73.195 -24.469 19.004
73.237 -24.398001 18.987
73.230003 -24.309999 18.958
73.211998 -24.219 18.927
73.190002 -24.127001 18.893999
73.164001 -24.033001 18.860001
73.134003 -23.937 18.826
73.097 -23.84 18.789
73.058998 -23.742001 18.753
73.008003 -23.639999 18.712999
72.957001 -23.538 18.673
72.892998 -23.431999 18.631001
72.824997 -23.325001 18.587
72.731003 -23.209 18.537001
72.635002 -23.093 18.486
72.523003 -22.971001 18.431
72.447998 -22.863001 18.386
72.373001 -22.754999 18.341
72.325996 -22.656 18.302999
72.297997 -22.563999 18.27
72.318001 -22.488001 18.247999
72.444 -22.445999 18.253
72.598999 -22.414 18.264
72.833 -22.408001 18.295
73.282997 -22.471001 18.378
73.571999 -22.481001 18.422001
73.764999 -22.459999 18.441999
73.933998 -22.43 18.457001
74.082001 -22.393 18.466
74.200996 -22.347 18.468
74.237 -22.274 18.448999
74.271004 -22.200001 18.431
74.306999 -22.127001 18.412001
74.346001 -22.055 18.395
74.385002 -21.983 18.377001
74.432999 -21.914 18.362
74.482002 -21.844 18.347
74.533997 -21.775999 18.332001
74.584 -21.707001 18.316999
74.629997 -21.636999 18.301001
74.669998 -21.565001 18.284
74.707001 -21.492001 18.266001
74.739998 -21.417999 18.247
74.768997 -21.343 18.226999
74.792999 -21.264999 18.205999
74.813004 -21.187 18.183001
74.831001 -21.108999 18.160999
74.849998 -21.030001 18.138
74.873001 -20.952999 18.117001
74.906998 -20.879 18.098
74.967003 -20.813 18.084999
75.040001 -20.75 18.076
75.122002 -20.690001 18.068001
75.217003 -20.634001 18.063
75.329002 -20.582001 18.063
75.434998 -20.528999 18.059999
75.541 -20.475 18.058001
75.648003 -20.421 18.056
75.75 -20.365999 18.052999
75.833 -20.306 18.045
75.910004 -20.243 18.035999
75.987999 -20.181 18.027
76.074997 -20.120001 18.02
76.165001 -20.061001 18.014
76.261002 -20.003 18.009001
76.359001 -19.945999 18.004
76.459 -19.889 18
76.554001 -19.830999 17.995001
76.650002 -19.771999 17.989
76.740997 -19.712 17.983
76.831001 -19.652 17.976
76.914001 -19.59 17.968
76.992996 -19.525999 17.959
77.070999 -19.462 17.948999
77.148003 -19.398001 17.940001
77.230003 -19.334 17.931
77.315002 -19.271999 17.923
77.407997 -19.211 17.917
77.500999 -19.150999 17.910999
77.598999 -19.091 17.905001
77.694 -19.031 17.899
77.804001 -18.974001 17.896999
77.920998 -18.919001 17.896
78.056999 -18.868999 17.899
78.191002 -18.818001 17.900999
78.343002 -18.771 17.907
78.5 -18.725 17.915001
78.690002 -18.687 17.93
78.884003 -18.65 17.945
79.089996 -18.615999 17.962999
79.288002 -18.579 17.979
79.495003 -18.544001 17.997
79.663002 -18.499001 18.006001
79.807999 -18.448 18.01
79.944 -18.395 18.011999
80.071999 -18.339001 18.011999
80.181999 -18.278999 18.009001
80.271004 -18.212999 18
80.357002 -18.146999 17.990999
80.445 -18.080999 17.982
80.531998 -18.014 17.973
80.612999 -17.945999 17.962999
80.693001 -17.878 17.952
80.764 -17.808001 17.940001
80.830002 -17.736 17.926001
80.888 -17.662001 17.910999
80.948997 -17.589001 17.896
81.007004 -17.514999 17.881001
81.065002 -17.441 17.865
81.121002 -17.367001 17.849001
81.176003 -17.292 17.833
81.228996 -17.216999 17.816999
81.280998 -17.142 17.799999
81.330002 -17.065001 17.782
81.377998 -16.989 17.764999
81.421997 -16.912001 17.746
70.987 -28.393 20.033001
70.906998 -28.273001 19.983999
70.831001 -28.155001 19.934999
70.741997 -28.031 19.882999
70.653 -27.908001 19.830999
70.516998 -27.766001 19.766001
70.371002 -27.620001 19.698999
70.205002 -27.466 19.625999
70.047997 -27.316 19.556
69.903999 -27.172001 19.49
69.782997 -27.038 19.43
69.666 -26.906 19.371
69.563004 -26.780001 19.316
69.463997 -26.656 19.263
69.379997 -26.538 19.212999
69.306999 -26.424999 19.166
69.238998 -26.315001 19.121
69.179001 -26.208 19.079
69.128998 -26.105 19.039
69.091003 -26.007 19.002001
69.067001 -25.915001 18.969
69.054001 -25.827 18.938999
69.046997 -25.742001 18.910999
69.044998 -25.659 18.884001
69.047997 -25.577999 18.858999
69.053001 -25.497 18.834
69.056 -25.417 18.808001
69.057999 -25.334999 18.783001
69.056 -25.252001 18.756001
69.052002 -25.169001 18.729
69.045998 -25.084 18.701
69.040001 -25 18.673
69.036003 -24.917 18.646
69.040001 -24.837 18.621
69.055 -24.761 18.599001
69.091003 -24.693001 18.582001
69.139999 -24.629999 18.569
69.204002 -24.573 18.559
69.277 -24.518999 18.552999
69.359001 -24.468 18.548
69.442001 -24.417 18.542999
69.529999 -24.368 18.540001
69.612999 -24.316999 18.535999
69.678001 -24.26 18.525999
69.730003 -24.197001 18.514
69.777 -24.132999 18.5
69.855003 -24.079 18.493999
70 -24.051001 18.504999
70.188004 -24.037001 18.527
70.445999 -24.049 18.568001
70.777 -24.086 18.625999
72.264 -24.455 18.955
72.572998 -24.481001 19.007
72.825996 -24.487 19.045
73.009003 -24.466999 19.063999
73.117996 -24.421 19.065001
73.171997 -24.355 19.052
73.161003 -24.266001 19.021999
73.135002 -24.172001 18.988001
73.099998 -24.075001 18.952
73.059998 -23.976 18.914
73.014 -23.875 18.875999
72.960999 -23.771999 18.834999
72.903999 -23.667999 18.794001
72.839996 -23.562 18.750999
72.764 -23.452 18.705
72.672997 -23.336 18.655001
72.567001 -23.216 18.601999
72.446999 -23.091999 18.545
72.360001 -22.98 18.497
72.273003 -22.867001 18.448
72.203003 -22.761 18.405001
72.135002 -22.655001 18.361
72.088997 -22.556999 18.323
72.058998 -22.464001 18.289
72.077003 -22.386999 18.267
72.222 -22.353001 18.277
72.393997 -22.326 18.292999
72.612 -22.315001 18.32
72.891998 -22.323 18.362
73.474998 -22.429001 18.478001
73.689003 -22.414 18.504
73.874001 -22.389 18.521999
74.036003 -22.357 18.535
74.167 -22.315001 18.540001
74.196999 -22.24 18.52
74.226997 -22.165001 18.500999
74.259003 -22.091 18.481001
74.294998 -22.018 18.462999
74.334 -21.945 18.445999
74.380997 -21.875999 18.43
74.431 -21.806999 18.415001
74.486 -21.74 18.400999
74.538002 -21.672001 18.386999
74.587997 -21.603001 18.372
74.633003 -21.532 18.356001
74.675003 -21.461 18.339001
74.710999 -21.388 18.320999
74.744003 -21.313 18.301001
74.769997 -21.237 18.281
74.792999 -21.16 18.259001
74.810997 -21.080999 18.237
74.830002 -21.002001 18.214001
74.851997 -20.924999 18.191999
74.883003 -20.85 18.173
74.939003 -20.783001 18.159
75.008003 -20.719 18.149
75.085999 -20.658001 18.139999
75.175003 -20.6 18.134001
75.282997 -20.547001 18.132999
75.386002 -20.492001 18.129999
75.487999 -20.438 18.127001
75.592003 -20.382999 18.124001
75.692001 -20.327999 18.121
75.772003 -20.266001 18.112
75.848999 -20.204 18.103001
75.927002 -20.141001 18.094
76.012001 -20.08 18.087
76.101997 -20.021 18.080999
76.195999 -19.962999 18.075001
76.292999 -19.905001 18.070999
76.390999 -19.848 18.066
76.492996 -19.791 18.062
76.593002 -19.733999 18.058001
76.689003 -19.674999 18.052999
76.783997 -19.617001 18.048
76.872002 -19.556 18.041
76.956001 -19.493 18.033001
77.037003 -19.43 18.024
77.115997 -19.365999 18.014999
77.198997 -19.302999 18.006001
77.282997 -19.240999 17.997999
77.374001 -19.18 17.990999
77.464996 -19.118 17.985001
77.560997 -19.058001 17.979
77.655998 -18.997999 17.973
77.762001 -18.940001 17.969999
77.879997 -18.885 17.969
78.021004 -18.836 17.973
78.161003 -18.787001 17.976999
78.322998 -18.743 17.986
78.496002 -18.701 17.997
78.693001 -18.665001 18.014
78.899002 -18.631001 18.032
79.110001 -18.597 18.051001
79.315002 -18.562 18.069
79.518997 -18.525999 18.086
79.674004 -18.478001 18.093
79.810997 -18.424999 18.094999
79.939003 -18.368999 18.094999
80.056 -18.311001 18.093
80.155998 -18.247999 18.087999
80.237999 -18.181 18.077999
80.321999 -18.114 18.068001
80.410004 -18.048 18.059
80.497002 -17.982 18.051001
80.579002 -17.914 18.041
80.658997 -17.846001 18.030001
80.727997 -17.775 18.017
80.792999 -17.702999 18.003
80.848999 -17.629 17.988001
80.907997 -17.555 17.972
80.963997 -17.481001 17.957001
81.023003 -17.407 17.941
81.080002 -17.333 17.926001
81.136002 -17.259001 17.91
81.191002 -17.184 17.893999
81.244003 -17.108999 17.877001
81.294998 -17.033001 17.860001
81.345001 -16.957001 17.843
81.391998 -16.879999 17.825001
81.441002 -16.804001 17.808001
70.944 -28.356001 20.101999
70.876999 -28.240999 20.055
70.795998 -28.121 20.004999
70.706001 -27.997 19.952999
70.613998 -27.872999 19.9
70.471001 -27.728001 19.833
70.315002 -27.577999 19.763
70.139 -27.42 19.687
69.975998 -27.268 19.615
69.825996 -27.121 19.547001
69.706001 -26.988001 19.487
69.588997 -26.856001 19.427999
69.484001 -26.729 19.372999
69.386002 -26.606001 19.319
69.309998 -26.490999 19.271999
69.235001 -26.378 19.225
69.170998 -26.268999 19.18
69.112999 -26.163 19.138
69.068001 -26.062 19.1
69.036003 -25.966 19.063999
69.015999 -25.875999 19.033001
69.003998 -25.789 19.003
69.000999 -25.705 18.976
69.003998 -25.624001 18.950001
69.010002 -25.544001 18.926001
69.016998 -25.465 18.900999
69.022003 -25.384001 18.875999
69.023003 -25.302 18.85
69.021004 -25.219999 18.823
69.014999 -25.136 18.796
69.005997 -25.049999 18.767
68.998001 -24.965 18.739
68.994003 -24.882 18.711
68.998001 -24.802 18.686001
69.018997 -24.728001 18.666
69.060997 -24.663 18.650999
69.117996 -24.603001 18.639999
69.190002 -24.549 18.632999
69.274002 -24.497999 18.629
69.363998 -24.451 18.625999
69.459999 -24.405001 18.625
69.559998 -24.360001 18.625
69.632004 -24.305 18.618
69.685997 -24.243 18.606001
69.726997 -24.177 18.59
69.762001 -24.108 18.573
69.814003 -24.045 18.559999
69.932999 -24.007 18.565001
70.095001 -23.983999 18.580999
70.32 -23.983 18.613001
70.601997 -24.003 18.659
72.086998 -24.371 18.989
72.404999 -24.400999 19.044001
72.666 -24.41 19.084
72.871002 -24.398001 19.108999
72.994003 -24.356001 19.114
73.056999 -24.294001 19.103001
73.051003 -24.207001 19.073999
73.018997 -24.110001 19.038
72.972 -24.009001 18.999001
72.917 -23.905001 18.958
72.855003 -23.799 18.916
72.787003 -23.691 18.871
72.712997 -23.582001 18.825001
72.626999 -23.468 18.777
72.503998 -23.341999 18.719
72.380997 -23.216999 18.660999
72.290001 -23.101999 18.612
72.196999 -22.987 18.562
72.123001 -22.879 18.517
72.045998 -22.77 18.471001
71.977997 -22.665001 18.427
71.912003 -22.559999 18.384001
71.870003 -22.462999 18.347
71.852997 -22.375 18.316999
71.893997 -22.306 18.299999
72.054001 -22.277 18.313999
72.236 -22.254 18.333
72.455002 -22.243 18.360001
72.719002 -22.246 18.399
73.399002 -22.382999 18.540001
73.628998 -22.372999 18.569
73.828003 -22.353001 18.591
74.000999 -22.325001 18.607
74.125999 -22.280001 18.611
74.150002 -22.204 18.589001
74.174004 -22.127001 18.568001
74.203003 -22.052 18.548
74.237999 -21.978001 18.530001
74.277 -21.906 18.511999
74.323997 -21.837 18.497
74.375 -21.768 18.482
74.431 -21.702 18.469
74.486 -21.634001 18.455
74.538002 -21.566 18.441
74.585999 -21.496 18.424999
74.632004 -21.426001 18.409
74.671997 -21.354 18.392
74.707001 -21.280001 18.372999
74.737 -21.205 18.353001
74.761002 -21.128 18.332001
74.781998 -21.049999 18.309999
74.802002 -20.972 18.288
74.823997 -20.895 18.267
74.855003 -20.82 18.247
74.908997 -20.752001 18.233
74.973999 -20.687 18.221001
75.047997 -20.625 18.212
75.134003 -20.566 18.205
75.235001 -20.511 18.202
75.333 -20.455 18.198
75.435997 -20.400999 18.195999
75.536003 -20.344999 18.191999
75.633003 -20.289 18.188
75.711998 -20.226999 18.179001
75.787003 -20.164 18.17
75.865997 -20.101999 18.160999
75.948997 -20.041 18.153999
76.038002 -19.981001 18.146999
76.129997 -19.922001 18.141001
76.223999 -19.864 18.136
76.321999 -19.806 18.132
76.427002 -19.75 18.129
76.528 -19.694 18.125
76.628998 -19.636999 18.121
76.728996 -19.579 18.117001
76.821999 -19.518999 18.111
76.910004 -19.458 18.104
76.997002 -19.396999 18.097
77.081001 -19.334 18.089001
77.166 -19.271999 18.080999
77.25 -19.209 18.073
77.339996 -19.148001 18.066
77.431 -19.086 18.059
77.524002 -19.025999 18.052999
77.621002 -18.966 18.048
77.724998 -18.908001 18.044001
77.843002 -18.853001 18.044001
77.987999 -18.805 18.049
78.136002 -18.757 18.055
78.306 -18.715 18.065001
78.495003 -18.677 18.08
78.706001 -18.643999 18.1
78.917999 -18.612 18.120001
79.134003 -18.58 18.139999
79.355003 -18.548 18.162001
79.542 -18.507999 18.176001
79.688004 -18.458 18.18
79.816002 -18.402 18.181
79.933998 -18.344 18.179001
80.042 -18.283001 18.174999
80.133003 -18.218 18.167
80.209999 -18.15 18.156
80.292999 -18.083 18.146999
80.378998 -18.017 18.136999
80.464996 -17.950001 18.129
80.546997 -17.882 18.118
80.625 -17.813999 18.108
80.692001 -17.742001 18.094
80.753998 -17.669001 18.08
80.808998 -17.594999 18.063999
80.864998 -17.521 18.048
80.919998 -17.445999 18.032
80.976997 -17.372 18.016001
81.035004 -17.298 18.000999
81.093002 -17.224001 17.986
81.148003 -17.15 17.969999
81.204002 -17.075001 17.954
81.258003 -17 17.937
81.309998 -16.924 17.921
81.360001 -16.848 17.903
81.412003 -16.773001 17.886999
81.460999 -16.695999 17.868999
70.845001 -28.209 20.127001
70.753998 -28.084 20.073999
70.666 -27.962 20.021999
70.57 -27.836 19.968
70.420998 -27.688 19.899
70.250999 -27.532 19.823999
70.066002 -27.370001 19.746
69.899002 -27.216999 19.673
69.741997 -27.068001 19.601999
69.622002 -26.934 19.542
69.501999 -26.802 19.483
69.401001 -26.677 19.427999
69.309998 -26.556 19.375999
69.235001 -26.441999 19.329
69.165001 -26.330999 19.283001
69.101997 -26.222 19.239
69.051003 -26.118999 19.198999
69.013 -26.021 19.162001
68.984001 -25.927 19.128
68.968002 -25.837999 19.097
68.961998 -25.753 19.069
68.962997 -25.671 19.042999
68.969002 -25.591 19.018
68.978996 -25.513 18.993999
68.987999 -25.434 18.969999
68.994003 -25.355 18.945999
68.996002 -25.273001 18.92
68.992996 -25.190001 18.893
68.987 -25.106001 18.865
68.975998 -25.02 18.836
68.968002 -24.934999 18.806999
68.962997 -24.851 18.780001
68.970001 -24.771999 18.754999
68.997002 -24.701 18.737
69.045998 -24.638 18.723
69.110001 -24.580999 18.714001
69.191002 -24.530001 18.709999
69.282997 -24.483 18.708
69.387001 -24.440001 18.709
69.505997 -24.403 18.714001
69.587997 -24.351999 18.709999
69.654999 -24.294001 18.701
69.700996 -24.23 18.687
69.728996 -24.158001 18.667999
69.753998 -24.086 18.648001
69.780998 -24.014 18.629
69.875999 -23.966999 18.628
70.012001 -23.934 18.636999
70.209999 -23.924 18.662001
70.460999 -23.933001 18.701
72.206001 -24.309999 19.073
72.471001 -24.32 19.114
72.696999 -24.315001 19.145
72.833 -24.278999 19.153
72.903999 -24.219 19.143999
72.903 -24.134001 19.115999
72.865997 -24.037001 19.08
72.806999 -23.931 19.038
72.739998 -23.823 18.993
72.664001 -23.712999 18.947001
72.570999 -23.596001 18.896
72.454002 -23.472 18.84
72.318001 -23.341999 18.778
72.223999 -23.226 18.728001
72.127998 -23.110001 18.677
72.051003 -23 18.629999
71.970001 -22.889999 18.583
71.904999 -22.785 18.541
71.843002 -22.681999 18.497999
71.779999 -22.577999 18.455999
71.733002 -22.48 18.417999
71.697998 -22.386 18.382999
71.683998 -22.299 18.353001
71.742996 -22.236 18.341
71.913002 -22.209999 18.357
72.109001 -22.191999 18.379999
72.333 -22.181999 18.409
72.592003 -22.184 18.447001
73.327003 -22.339001 18.601999
73.566002 -22.332001 18.634001
73.776001 -22.316 18.659
73.960999 -22.291 18.677
74.078003 -22.243999 18.679001
74.095001 -22.165001 18.657
74.114998 -22.087 18.634001
74.139 -22.01 18.613001
74.171997 -21.936001 18.594
74.211998 -21.864 18.577
74.259003 -21.795 18.561001
74.308998 -21.726 18.547001
74.364998 -21.659 18.533001
74.419998 -21.591999 18.52
74.472 -21.524 18.504999
74.523003 -21.455 18.490999
74.570999 -21.386 18.475
74.614998 -21.315001 18.459
74.654999 -21.243 18.441
74.686996 -21.169001 18.422001
74.713997 -21.093 18.402
74.737999 -21.016001 18.381001
74.760002 -20.938 18.358999
74.786003 -20.862 18.337999
74.819 -20.788 18.319
74.873001 -20.719999 18.305
74.935997 -20.653999 18.292999
75.008003 -20.591 18.283001
75.091003 -20.532 18.275999
75.190002 -20.476 18.273001
75.283997 -20.419001 18.268
75.383003 -20.363001 18.264
75.483002 -20.308001 18.261
75.575996 -20.25 18.256001
75.652 -20.188 18.247
75.726997 -20.125 18.237
75.805 -20.062 18.228001
75.887001 -20.000999 18.219999
75.973 -19.941 18.212999
76.061996 -19.881001 18.207001
76.152 -19.820999 18.201
76.246002 -19.763 18.195999
76.346001 -19.705999 18.191999
76.453003 -19.65 18.188999
76.557999 -19.594999 18.187
76.661003 -19.538 18.183001
76.761002 -19.48 18.179001
76.855003 -19.421 18.174
76.946999 -19.361 18.167999
77.036003 -19.299 18.160999
77.124001 -19.238001 18.153999
77.210999 -19.176001 18.146
77.304001 -19.115 18.139999
77.394997 -19.054001 18.134001
77.488998 -18.993999 18.128
77.584999 -18.933001 18.122
77.689003 -18.875 18.118999
77.807999 -18.820999 18.118
77.956001 -18.773001 18.124001
78.114998 -18.729 18.132999
78.295998 -18.688999 18.146
78.497002 -18.653999 18.164
78.723999 -18.625999 18.187
78.938004 -18.593 18.208
79.168999 -18.565001 18.232
79.391998 -18.534 18.254
79.57 -18.490999 18.266001
79.707001 -18.438 18.268999
79.825996 -18.381001 18.267
79.934998 -18.32 18.264
80.031998 -18.257 18.257
80.114998 -18.190001 18.247999
80.189003 -18.121 18.236
80.272003 -18.054001 18.226999
80.353996 -17.986 18.216999
80.435997 -17.919001 18.207001
80.515999 -17.851 18.197001
80.592003 -17.781 18.184999
80.655998 -17.709 18.171
80.716003 -17.636 18.157
80.768997 -17.561001 18.139999
80.824997 -17.487 18.124001
80.878998 -17.412001 18.108
80.934998 -17.337999 18.091999
80.990997 -17.264 18.077
81.050003 -17.190001 18.061001
81.108002 -17.115999 18.046
81.165001 -17.042 18.030001
81.220001 -16.966999 18.014999
81.275002 -16.892 17.997999
81.327003 -16.816 17.982
81.380997 -16.740999 17.965
81.432999 -16.665001 17.948
81.486 -16.59 17.931999
70.794998 -28.169001 20.193001
70.697998 -28.042 20.138
70.607002 -27.917999 20.084999
70.501999 -27.789 20.028
70.359001 -27.643999 19.961
70.167999 -27.479 19.881001
69.974998 -27.313999 19.799999
69.801003 -27.158001 19.724001
69.651001 -27.011999 19.656
69.532997 -26.879 19.596001
69.417999 -26.749001 19.538
69.321999 -26.625999 19.483999
69.237 -26.507 19.434
69.163002 -26.393999 19.386999
69.099998 -26.285999 19.343
69.042 -26.179001 19.299999
68.996002 -26.077999 19.261
68.961998 -25.982 19.225
68.939003 -25.889999 19.193001
68.928001 -25.802999 19.163
68.926003 -25.719999 19.136
68.931 -25.639999 19.111
68.940002 -25.561001 19.087
68.953003 -25.483999 19.063999
68.963997 -25.406 19.041
68.971001 -25.327 19.017
68.973999 -25.246 18.990999
68.972 -25.163 18.964001
68.964996 -25.079 18.936001
68.954002 -24.993 18.907
68.945999 -24.908001 18.878
68.942001 -24.825001 18.851
68.955002 -24.747999 18.827999
68.989998 -24.679001 18.811001
69.044998 -24.618999 18.799999
69.116997 -24.563999 18.792999
69.204002 -24.516001 18.790001
69.302002 -24.471001 18.790001
69.446999 -24.443001 18.802
69.540001 -24.396 18.799999
69.619003 -24.344 18.795
69.679001 -24.284 18.784
69.718002 -24.216999 18.768
69.736 -24.142 18.747
69.750999 -24.065001 18.724001
69.764999 -23.989 18.702
69.836998 -23.933001 18.694
69.949997 -23.892 18.698
70.130997 -23.875999 18.719
70.362 -23.878 18.753
70.720001 -23.924 18.82
71.986 -24.211 19.094999
72.263 -24.226 19.139999
72.487 -24.221001 19.171
72.639999 -24.190001 19.183001
72.720001 -24.134001 19.177
72.716003 -24.048 19.149
72.676003 -23.948999 19.111
72.608002 -23.841 19.066999
72.521004 -23.726999 19.017
72.408997 -23.604 18.961
72.283997 -23.476999 18.903
72.166 -23.353001 18.846001
72.060997 -23.233 18.792
71.975998 -23.121 18.743999
71.897003 -23.011 18.697001
71.830002 -22.905001 18.653
71.766998 -22.801001 18.611
71.711998 -22.700001 18.57
71.666 -22.601999 18.532
71.628998 -22.507 18.496
71.596001 -22.414 18.462
71.575996 -22.325001 18.43
71.585999 -22.246 18.407
71.661003 -22.188999 18.399
71.841003 -22.166 18.417999
72.045998 -22.150999 18.443001
72.282997 -22.145 18.475
72.544998 -22.148001 18.514
73.307999 -22.312 18.677
73.539001 -22.302 18.707001
73.746002 -22.285 18.732
73.914001 -22.254999 18.747
74.024002 -22.205 18.747
74.032997 -22.124001 18.722
74.049004 -22.045 18.698999
74.070999 -21.968 18.677
74.100998 -21.893 18.657
74.138 -21.82 18.639
74.186996 -21.750999 18.624001
74.237999 -21.683001 18.610001
74.291 -21.615 18.596001
74.347 -21.548 18.582001
74.399002 -21.48 18.568001
74.448997 -21.410999 18.552999
74.498001 -21.341999 18.538
74.543999 -21.271999 18.521999
74.585999 -21.201 18.504999
74.621002 -21.127001 18.487
74.652 -21.052 18.466999
74.679001 -20.976 18.447001
74.705002 -20.9 18.426001
74.736 -20.825001 18.407
74.773003 -20.752001 18.389
74.829002 -20.684999 18.375
74.891998 -20.620001 18.363001
74.963997 -20.556999 18.354
75.046997 -20.497 18.346001
75.141998 -20.440001 18.341999
75.235001 -20.382999 18.337
75.331001 -20.327 18.333
75.428001 -20.27 18.329
75.516998 -20.211 18.323
75.594002 -20.149 18.313999
75.667999 -20.086 18.304001
75.745003 -20.023001 18.295
75.823997 -19.961 18.287001
75.908997 -19.9 18.280001
75.994003 -19.84 18.273001
76.081001 -19.778999 18.266001
76.167999 -19.719 18.259001
76.264 -19.660999 18.254
76.365997 -19.604 18.250999
76.475998 -19.549999 18.249001
76.583 -19.493999 18.247
76.689003 -19.438 18.243999
76.788002 -19.379999 18.24
76.886002 -19.320999 18.235001
76.978996 -19.261 18.23
77.073997 -19.202 18.224001
77.163002 -19.139999 18.218
77.262001 -19.080999 18.212999
77.356003 -19.021 18.207001
77.450996 -18.961 18.202
77.547997 -18.900999 18.195999
77.653 -18.843 18.193001
77.769997 -18.788 18.191999
77.927002 -18.743 18.201
78.094002 -18.700001 18.211
78.286003 -18.663 18.226999
78.503998 -18.632999 18.249001
78.745003 -18.607 18.275999
78.968002 -18.577 18.298
79.214996 -18.552 18.326
79.425003 -18.518 18.346001
79.598999 -18.474001 18.357
79.724998 -18.419001 18.357
79.834999 -18.358999 18.354
79.932999 -18.296 18.348
80.022003 -18.231001 18.34
80.098999 -18.162001 18.329
80.170998 -18.093 18.316999
80.250999 -18.025 18.306999
80.330002 -17.955999 18.296
80.408997 -17.888 18.285999
80.485001 -17.819 18.275
80.557999 -17.749001 18.263
80.620003 -17.676001 18.247999
80.676003 -17.603001 18.233
80.727997 -17.527 18.216
80.781998 -17.452999 18.200001
80.834999 -17.378 18.184
80.890999 -17.304001 18.167999
80.945 -17.229 18.152
81.003998 -17.155001 18.136999
81.061996 -17.080999 18.121
81.122002 -17.007 18.106001
81.181 -16.933001 18.091
81.237 -16.858999 18.075001
81.292 -16.784 18.059
81.348999 -16.709 18.044001
81.403 -16.634001 18.027
81.459 -16.559 18.011
81.514999 -16.483999 17.995001
70.727997 -28.122 20.254
70.623001 -27.992001 20.197001
70.526001 -27.865 20.142
70.418999 -27.735001 20.084999
70.280998 -27.591999 20.018999
70.082001 -27.424 19.936001
69.888 -27.259001 19.854
69.707001 -27.1 19.777
69.564003 -26.957001 19.709999
69.454002 -26.827999 19.653
69.346001 -26.700001 19.596001
69.251999 -26.579 19.542999
69.170998 -26.462 19.493999
69.099998 -26.35 19.447001
69.041 -26.243 19.403999
68.990997 -26.139999 19.364
68.949997 -26.041 19.326
68.919998 -25.947001 19.291
68.901001 -25.856001 19.26
68.894997 -25.771999 19.231001
68.898003 -25.690001 19.205999
68.905998 -25.611 19.181
68.918999 -25.534 19.158001
68.932999 -25.458 19.136
68.946999 -25.381001 19.113001
68.956001 -25.302 19.089001
68.960999 -25.222 19.063999
68.959999 -25.139999 19.038
68.952003 -25.055 19.009001
68.942001 -24.969 18.98
68.933998 -24.884001 18.952
68.932999 -24.802 18.924999
68.952003 -24.728001 18.903999
68.991997 -24.660999 18.889
69.054001 -24.603001 18.879
69.133003 -24.551001 18.874001
69.227997 -24.506001 18.872999
69.365997 -24.476 18.884001
69.481003 -24.437 18.888
69.573997 -24.389999 18.886
69.651001 -24.337 18.881001
69.704002 -24.274 18.868
69.736 -24.204 18.85
69.748001 -24.127001 18.827
69.753998 -24.047001 18.802999
69.758003 -23.966999 18.777
69.806 -23.902 18.764
69.898003 -23.854 18.761
70.064003 -23.832001 18.778999
70.278 -23.827 18.808001
70.596001 -23.860001 18.865
70.968002 -23.910999 18.936001
72.009003 -24.115 19.153
72.25 -24.117001 19.188999
72.415001 -24.091 19.205
72.511002 -24.040001 19.202999
72.501999 -23.952 19.173
72.452003 -23.851 19.132999
72.351997 -23.732 19.08
72.238998 -23.608999 19.024
72.112999 -23.481001 18.965
72.001999 -23.358999 18.91
71.908997 -23.243999 18.858999
71.824997 -23.132 18.811001
71.747002 -23.021999 18.764
71.682999 -22.917999 18.721001
71.630997 -22.818001 18.681
71.588997 -22.721001 18.643999
71.555 -22.627001 18.608999
71.528 -22.535 18.576
71.509003 -22.447001 18.544001
71.495003 -22.360001 18.514
71.487 -22.275 18.486
71.522003 -22.205 18.469
71.609001 -22.150999 18.464001
71.796997 -22.131001 18.485001
72.009003 -22.118 18.511999
72.251999 -22.115 18.546
72.525002 -22.121 18.587999
73.286003 -22.284 18.752001
73.512001 -22.273001 18.781
73.713997 -22.254 18.804001
73.862999 -22.216999 18.813999
73.960999 -22.164 18.812
73.966003 -22.082001 18.785999
73.978996 -22.000999 18.761999
73.999001 -21.923 18.74
74.027 -21.848 18.719999
74.065002 -21.775999 18.702
74.111 -21.705999 18.686001
74.162003 -21.638 18.672001
74.216003 -21.570999 18.658001
74.269997 -21.503 18.643999
74.32 -21.434999 18.629999
74.370003 -21.365999 18.615
74.419998 -21.297001 18.6
74.463997 -21.226 18.584
74.507004 -21.155001 18.566999
74.545998 -21.083 18.549
74.579002 -21.009001 18.530001
74.608002 -20.934 18.511
74.638 -20.858999 18.490999
74.675003 -20.785999 18.473
74.718002 -20.714001 18.455999
74.777 -20.648001 18.443001
74.844002 -20.584 18.431999
74.917 -20.521 18.423
75 -20.461 18.416
75.094002 -20.403999 18.410999
75.185997 -20.347 18.406
75.281998 -20.291 18.402
75.375 -20.233 18.396999
75.461998 -20.174 18.391001
75.537003 -20.111 18.382
75.612 -20.048 18.372
75.686996 -19.985001 18.363001
75.763 -19.922001 18.354
75.845001 -19.860001 18.346001
75.928001 -19.799 18.337999
76.010002 -19.737 18.330999
76.093002 -19.676001 18.323
76.181999 -19.615999 18.316999
76.277 -19.556999 18.312
76.380997 -19.500999 18.309
76.491997 -19.447001 18.308001
76.603996 -19.392 18.306
76.710999 -19.337 18.304001
76.814003 -19.278999 18.301001
76.913002 -19.221001 18.297001
77.011002 -19.162001 18.292
77.108002 -19.103001 18.287001
77.209999 -19.045 18.283001
77.308998 -18.986 18.278999
77.411003 -18.927 18.275
77.508003 -18.867001 18.27
77.613998 -18.809999 18.267
77.735001 -18.754999 18.267
77.899002 -18.712 18.277
78.077003 -18.672001 18.290001
78.277 -18.636999 18.308001
78.503998 -18.608999 18.332001
78.762001 -18.587999 18.363001
79.008003 -18.563999 18.391001
79.251999 -18.538 18.417999
79.458 -18.503 18.437
79.627998 -18.458 18.448
79.746002 -18.4 18.445999
79.847 -18.337999 18.441
79.936996 -18.273001 18.433001
80.016998 -18.205 18.423
80.088997 -18.136 18.410999
80.160004 -18.066 18.399
80.236 -17.997 18.388
80.309998 -17.927999 18.377001
80.384003 -17.858 18.365
80.457001 -17.788 18.353001
80.526001 -17.716999 18.341
80.584 -17.643999 18.326
80.638 -17.569 18.309
80.689003 -17.493999 18.292999
80.741997 -17.419001 18.275999
80.793999 -17.344 18.26
80.849998 -17.27 18.243999
80.903 -17.195 18.228001
80.959999 -17.120001 18.212
81.017998 -17.046 18.197001
81.079002 -16.973 18.181999
81.140999 -16.9 18.167999
81.199997 -16.826 18.153
81.257004 -16.750999 18.136999
81.315002 -16.677 18.122
81.371002 -16.601999 18.106001
81.428001 -16.528 18.09
81.484001 -16.452999 18.073999
81.539001 -16.377001 18.058001
81.567001 -16.408001 17.979
81.584999 -16.299999 18.040001
70.653999 -28.072001 20.313999
70.540001 -27.938 20.254
70.438004 -27.809999 20.197001
70.330002 -27.679001 20.139
69.986 -27.365999 19.988001
69.790001 -27.200001 19.906
69.614998 -27.044001 19.83
69.480003 -26.903999 19.764999
69.383003 -26.781 19.711
69.282997 -26.656 19.656
69.193001 -26.535999 19.604
69.113998 -26.421 19.556
69.052002 -26.312 19.511999
68.997002 -26.207001 19.469999
68.953003 -26.106001 19.431
68.916 -26.009001 19.393999
68.890999 -25.916 19.361
68.875999 -25.827999 19.33
68.874001 -25.745001 19.302999
68.879997 -25.665001 19.278
68.890999 -25.587 19.254999
68.905998 -25.51 19.232
68.921997 -25.434999 19.209999
68.938004 -25.358 19.188
68.947998 -25.280001 19.164
68.953003 -25.200001 19.139
68.953003 -25.118 19.113001
68.945999 -25.034 19.084999
68.938004 -24.948999 19.056
68.931999 -24.865 19.028
68.934998 -24.784 19.003
68.957001 -24.711 18.982
69.002998 -24.646999 18.969
69.070999 -24.591 18.961
69.156998 -24.541 18.957001
69.269997 -24.503 18.961
69.404999 -24.471001 18.971001
69.512001 -24.429001 18.973
69.601997 -24.381001 18.971001
69.678001 -24.327 18.965
69.726997 -24.263 18.952
69.752998 -24.191 18.931999
69.761002 -24.112 18.908001
69.758003 -24.028999 18.881001
69.753998 -23.945999 18.854
69.792 -23.878 18.837
69.871002 -23.825001 18.832001
70.024002 -23.799 18.846001
70.221001 -23.787001 18.871
70.488998 -23.802 18.915001
70.782997 -23.823999 18.966
71.163002 -23.877001 19.039
71.704002 -23.987 19.153
71.988998 -24.004 19.201
72.162003 -23.981001 19.219
72.239998 -23.924999 19.212
72.231003 -23.837 19.183001
72.167 -23.731001 19.139
72.060997 -23.610001 19.084999
71.955002 -23.49 19.031
71.850998 -23.371 18.976999
71.755997 -23.254999 18.924999
71.674004 -23.143 18.877001
71.599998 -23.035 18.832001
71.540001 -22.931999 18.790001
71.499001 -22.834999 18.753
71.467003 -22.742001 18.718
71.444 -22.652 18.686001
71.43 -22.565001 18.655001
71.421997 -22.48 18.627001
71.417999 -22.396 18.6
71.417 -22.313999 18.573
71.434998 -22.238001 18.551001
71.496002 -22.176001 18.540001
71.603996 -22.129 18.541
71.801003 -22.112 18.563999
72.025002 -22.103001 18.594
72.273003 -22.101 18.629999
73.047997 -22.27 18.799
73.296997 -22.266001 18.834
73.513 -22.252001 18.861
73.690002 -22.225 18.879
73.815002 -22.181 18.882999
73.891998 -22.121 18.875
73.896004 -22.038 18.849001
73.906998 -21.957001 18.823999
73.927002 -21.879999 18.802
73.956001 -21.805 18.782
73.992996 -21.732 18.764999
74.038002 -21.662001 18.749001
74.088997 -21.594 18.733999
74.141998 -21.527 18.719999
74.195 -21.459 18.705999
74.244003 -21.389999 18.691
74.292 -21.320999 18.676001
74.338997 -21.250999 18.66
74.383003 -21.18 18.643999
74.425003 -21.108999 18.627001
74.466003 -21.037001 18.611
74.500999 -20.964001 18.591999
74.532997 -20.889999 18.573
74.565002 -20.815001 18.554001
74.608002 -20.743999 18.537001
74.655998 -20.674 18.521999
74.720001 -20.608999 18.51
74.790001 -20.546 18.5
74.864998 -20.483999 18.490999
74.950996 -20.424999 18.485001
75.042 -20.367001 18.48
75.136002 -20.311001 18.475
75.231003 -20.254 18.471001
75.322998 -20.195999 18.466
75.406998 -20.136 18.459
75.481003 -20.073 18.450001
75.557999 -20.01 18.441
75.632004 -19.947001 18.431
75.708 -19.884001 18.422001
75.787003 -19.822001 18.414
75.865997 -19.76 18.405001
75.945 -19.697001 18.396999
76.023003 -19.634001 18.388
76.107002 -19.573 18.381001
76.195 -19.513 18.374001
76.292 -19.455 18.370001
76.396004 -19.398001 18.367001
76.510002 -19.344999 18.367001
76.621002 -19.290001 18.365
76.732002 -19.235001 18.364
76.835999 -19.177999 18.361
76.939003 -19.120001 18.357
77.041 -19.062 18.354
77.148003 -19.006001 18.351
77.252998 -18.948 18.348
77.360001 -18.891001 18.344999
77.463997 -18.833 18.341999
77.572998 -18.775999 18.34
77.694 -18.722 18.34
77.866997 -18.681 18.351999
78.056999 -18.643999 18.368999
78.265999 -18.611 18.389
78.504997 -18.586 18.416
78.788002 -18.570999 18.452999
79.053001 -18.551001 18.485001
79.285004 -18.521999 18.51
79.488998 -18.486 18.528
79.657997 -18.441 18.539
79.771004 -18.382 18.535999
79.863998 -18.318001 18.528999
79.945 -18.250999 18.52
80.016998 -18.181 18.507999
80.084999 -18.111 18.495001
80.153 -18.040001 18.482
80.223999 -17.969999 18.469999
80.292 -17.899 18.458
80.362 -17.829 18.445
80.429001 -17.757 18.431999
80.491997 -17.684999 18.417999
80.546997 -17.611 18.402
80.598999 -17.535999 18.386
80.649002 -17.459999 18.368999
80.700996 -17.385 18.351999
80.751999 -17.309999 18.336
80.806999 -17.235001 18.32
80.861 -17.160999 18.304001
80.917 -17.086 18.288
80.974998 -17.011999 18.273001
81.035004 -16.938999 18.257999
81.098999 -16.865999 18.243999
81.160004 -16.792 18.229
81.219002 -16.718 18.214001
81.278 -16.643999 18.198999
81.334999 -16.57 18.183001
81.391998 -16.495001 18.167999
81.449997 -16.42 18.152
81.505997 -16.344999 18.136
81.554001 -16.268999 18.118999
81.597 -16.191 18.1
70.572998 -28.018999 20.371
70.448997 -27.881001 20.308001
70.345001 -27.752001 20.250999
70.235001 -27.621 20.191999
69.900002 -27.311001 20.042999
69.709 -27.148001 19.962
69.528 -26.989 19.884001
69.412003 -26.858 19.823999
69.325996 -26.738001 19.773001
69.232002 -26.615999 19.719999
69.147003 -26.499001 19.67
69.073997 -26.385 19.622
69.015999 -26.278999 19.579
68.966003 -26.176001 19.539
68.928001 -26.077999 19.500999
68.894997 -25.982 19.466
68.875 -25.891001 19.434
68.863998 -25.804001 19.403999
68.864998 -25.722 19.378
68.874001 -25.643 19.353001
68.886002 -25.566 19.33
68.903 -25.49 19.308001
68.919998 -25.415001 19.287001
68.935997 -25.339001 19.264999
68.945999 -25.261 19.240999
68.952003 -25.181 19.216
68.953003 -25.099001 19.190001
68.947998 -25.014999 19.162001
68.942001 -24.931 19.134001
68.939003 -24.848 19.107
68.945 -24.768999 19.082001
68.974998 -24.698999 19.063999
69.025002 -24.636 19.051001
69.099998 -24.583 19.045
69.195999 -24.537001 19.045
69.320999 -24.503 19.052
69.436996 -24.464001 19.056999
69.540001 -24.421 19.058001
69.628998 -24.372 19.056
69.703003 -24.316999 19.049
69.747002 -24.252001 19.035
69.769997 -24.177999 19.014
69.774002 -24.097 18.989
69.767998 -24.013 18.961
69.761002 -23.929001 18.933001
69.795998 -23.860001 18.915001
69.862 -23.802 18.907
70.000999 -23.77 18.917
70.181 -23.753 18.938
70.425003 -23.759001 18.976
70.693001 -23.771999 19.02
71.014 -23.804001 19.077999
71.416 -23.864 19.157
71.682999 -23.875 19.200001
71.865997 -23.857 19.221001
71.962997 -23.806999 19.219999
71.946999 -23.716999 19.188
71.883003 -23.611 19.145
71.797997 -23.499001 19.096001
71.706001 -23.382999 19.045
71.614998 -23.268999 18.995001
71.528999 -23.156 18.945
71.459 -23.049 18.900999
71.405998 -22.948999 18.861
71.369003 -22.853001 18.823999
71.345001 -22.763 18.791
71.330002 -22.674999 18.761
71.328003 -22.591999 18.733999
71.333 -22.511999 18.709
71.339996 -22.431999 18.684
71.348 -22.353001 18.66
71.355003 -22.273001 18.635
71.399002 -22.205999 18.620001
71.482002 -22.150999 18.615
71.613998 -22.113001 18.622
71.82 -22.098 18.648001
72.049004 -22.09 18.679001
72.306999 -22.091999 18.718
73.061996 -22.253 18.882
73.302002 -22.247 18.915001
73.507004 -22.229 18.940001
73.657997 -22.194 18.951
73.761002 -22.142 18.950001
73.819 -22.077 18.937
73.821999 -21.993999 18.910999
73.834999 -21.913 18.886999
73.856003 -21.836 18.865
73.885002 -21.761 18.844999
73.924004 -21.688999 18.827999
73.968002 -21.618999 18.812
74.016998 -21.549999 18.797001
74.067001 -21.482 18.782
74.117996 -21.414 18.768
74.165001 -21.344 18.752001
74.210999 -21.274 18.737
74.255997 -21.204 18.721001
74.299004 -21.132999 18.704
74.341003 -21.062 18.688
74.384003 -20.990999 18.671
74.417999 -20.917999 18.652
74.453003 -20.844 18.634001
74.488998 -20.771 18.615999
74.536003 -20.701 18.6
74.589996 -20.632999 18.586
74.658997 -20.57 18.576
74.732002 -20.507 18.566999
74.813004 -20.447001 18.559
74.901001 -20.389 18.554001
74.992996 -20.330999 18.549
75.085999 -20.274 18.544001
75.181 -20.218 18.540001
75.271004 -20.159 18.534
75.353996 -20.099001 18.527
75.428001 -20.035999 18.518
75.504997 -19.973 18.509001
75.580002 -19.91 18.5
75.653999 -19.847 18.490999
75.732002 -19.784 18.482
75.807999 -19.721001 18.473
75.883003 -19.658001 18.462999
75.957001 -19.594 18.454
76.035004 -19.531 18.445
76.119003 -19.469 18.438
76.207001 -19.409 18.431999
76.305 -19.351 18.427
76.408997 -19.295 18.424999
76.518997 -19.24 18.423
76.639 -19.187 18.424
76.748001 -19.132 18.422001
76.856003 -19.075001 18.42
76.962997 -19.018999 18.417999
77.073997 -18.962999 18.416
77.185997 -18.908001 18.415001
77.299004 -18.851999 18.414
77.411003 -18.796 18.412001
77.525002 -18.740999 18.410999
77.650002 -18.687 18.413
77.832001 -18.649 18.427
78.033997 -18.615 18.445999
78.254997 -18.584999 18.469999
78.501999 -18.562 18.497999
78.818001 -18.555 18.542999
79.088997 -18.535999 18.577
79.320999 -18.507999 18.601999
79.521004 -18.469999 18.620001
79.690002 -18.424999 18.631001
79.799004 -18.365 18.627001
79.884003 -18.299 18.618999
79.957001 -18.23 18.607
80.022003 -18.158001 18.594
80.084999 -18.086 18.58
80.149002 -18.014999 18.566
80.213997 -17.943001 18.552999
80.275002 -17.871 18.539
80.338997 -17.799 18.525
80.400002 -17.726 18.51
80.458 -17.653 18.496
80.509003 -17.577999 18.479
80.558998 -17.502001 18.462
80.609001 -17.427 18.445
80.661003 -17.351999 18.427999
80.710999 -17.275999 18.412001
80.765999 -17.202 18.396
80.819 -17.127001 18.379
80.875 -17.052 18.364
80.931999 -16.978001 18.348
80.991997 -16.905001 18.334
81.055 -16.830999 18.319
81.117996 -16.757999 18.305
81.178001 -16.684999 18.290001
81.237999 -16.611 18.275
81.295998 -16.535999 18.26
81.352997 -16.462 18.243999
81.411003 -16.386999 18.229
81.467003 -16.312 18.212999
81.517998 -16.236 18.195999
81.565002 -16.159 18.177999
81.611 -16.082001 18.16
70.504997 -27.972 20.431
70.373001 -27.83 20.365999
70.263 -27.698999 20.306999
69.821999 -27.261 20.1
69.637001 -27.1 20.02
69.457001 -26.941 19.943001
69.362 -26.818001 19.889
69.281998 -26.702 19.839001
69.195999 -26.583 19.788
69.117996 -26.468 19.739
69.049004 -26.357 19.693001
68.998001 -26.253 19.652
68.955002 -26.153 19.613001
68.921997 -26.056999 19.577
68.896004 -25.964001 19.542999
68.878998 -25.874001 19.511999
68.871002 -25.789 19.483
68.874001 -25.707001 19.457001
68.884003 -25.629 19.434
68.897003 -25.552 19.410999
68.913002 -25.476 19.389
68.93 -25.4 19.367001
68.944 -25.323 19.344
68.953003 -25.245001 19.32
68.958 -25.164 19.295
68.958 -25.083 19.268999
68.955002 -24.999001 19.240999
68.950996 -24.916 19.212999
68.952003 -24.834 19.187
68.961998 -24.757 19.164
68.997002 -24.688 19.146999
69.055 -24.629 19.136
69.138 -24.577999 19.132
69.235001 -24.533001 19.132999
69.356003 -24.497 19.139
69.459 -24.452999 19.139999
69.558998 -24.409 19.141001
69.648003 -24.360001 19.138
69.720001 -24.304001 19.131001
69.764 -24.238001 19.115999
69.785004 -24.164 19.096001
69.787003 -24.083 19.07
69.788002 -24.000999 19.044001
69.790001 -23.92 19.018
69.823997 -23.851 19
69.887001 -23.792 18.990999
70.012001 -23.754999 18.997
70.176003 -23.732 19.014999
70.373001 -23.721001 19.040001
70.634003 -23.732 19.083
71.015999 -23.785 19.157
71.234001 -23.780001 19.188
71.427002 -23.764999 19.212
71.584 -23.737 19.226
71.68 -23.687 19.225
71.682999 -23.605 19.198999
71.634003 -23.504999 19.159
71.566002 -23.398001 19.114
71.482002 -23.285999 19.066
71.402 -23.174999 19.018
71.332001 -23.068001 18.973
71.282997 -22.969 18.934
71.247002 -22.874001 18.898001
71.227997 -22.785 18.865999
71.220001 -22.700001 18.837
71.223999 -22.618999 18.812
71.237 -22.542 18.789
71.254997 -22.466 18.767
71.274002 -22.389999 18.745001
71.292 -22.313999 18.724001
71.321999 -22.242001 18.705
71.388 -22.181 18.695
71.495003 -22.135 18.695999
71.653 -22.105 18.709999
71.867996 -22.093 18.738001
72.105003 -22.087999 18.771999
72.836998 -22.243 18.931
73.098 -22.243999 18.971001
73.320999 -22.232 19
73.499001 -22.205 19.018
73.625 -22.162001 19.023001
73.708 -22.104 19.017
73.748001 -22.033001 19
73.751999 -21.950001 18.974001
73.765999 -21.871 18.950001
73.790001 -21.794001 18.929001
73.820999 -21.719999 18.91
73.861 -21.648001 18.892
73.903999 -21.577999 18.875999
73.952003 -21.509001 18.861
74 -21.440001 18.846001
74.047997 -21.371 18.830999
74.094002 -21.301001 18.815001
74.139 -21.231001 18.799
74.181999 -21.16 18.783001
74.223999 -21.089001 18.766001
74.264 -21.017 18.749001
74.304001 -20.945 18.732
74.337997 -20.872 18.712999
74.373001 -20.799 18.695
74.411003 -20.726 18.677
74.464996 -20.658001 18.663
74.526001 -20.593 18.650999
74.597 -20.530001 18.642
74.676003 -20.469 18.634001
74.762001 -20.410999 18.628
74.849998 -20.351999 18.622
74.943001 -20.295 18.617001
75.037003 -20.238001 18.613001
75.133003 -20.181999 18.608999
75.219002 -20.122 18.603001
75.300003 -20.061001 18.594999
75.375 -19.997999 18.586
75.450996 -19.936001 18.577999
75.527 -19.872999 18.569
75.602997 -19.809999 18.559
75.68 -19.747999 18.551001
75.753998 -19.684 18.541
75.825996 -19.620001 18.531
75.896004 -19.555 18.521
75.971001 -19.490999 18.511999
76.047997 -19.427999 18.503
76.132004 -19.365999 18.495001
76.221001 -19.306 18.489
76.318001 -19.247999 18.485001
76.420998 -19.191 18.482
76.531998 -19.136 18.481001
76.650002 -19.083 18.481001
76.764999 -19.028999 18.481001
76.874001 -18.973 18.479
76.990997 -18.919001 18.479
77.107002 -18.864 18.479
77.228996 -18.811001 18.48
77.346001 -18.756001 18.48
77.467003 -18.702999 18.481001
77.598999 -18.650999 18.483999
77.789001 -18.615 18.5
78.004997 -18.584 18.521999
78.237999 -18.556999 18.549
78.491997 -18.535999 18.58
78.860001 -18.542 18.636999
79.114998 -18.518999 18.667
79.346001 -18.49 18.691999
79.545998 -18.452999 18.709999
79.719002 -18.408001 18.722
79.828003 -18.348 18.719
79.905998 -18.280001 18.708
79.971001 -18.209 18.695
80.029999 -18.136 18.68
80.086998 -18.063 18.665001
80.146004 -17.99 18.65
80.203003 -17.917 18.635
80.259003 -17.843 18.620001
80.317001 -17.768999 18.605
80.371002 -17.695 18.589001
80.424004 -17.621 18.573
