# .PCD v0.7 - Point Cloud Data file format
VERSION 0.7
FIELDS x y z
SIZE 4 4 4
TYPE F F F
COUNT 1 1 1
WIDTH 1803
HEIGHT 1
VIEWPOINT 0 0 0 1 0 0 0
POINTS 1803
DATA ascii
-16.683001 -26.41 109.5
-16.565001 -26.413 109.51
-16.448999 -26.417999 109.53
-16.334 -26.424999 109.56
-16.219 -26.431999 109.59
-16.103001 -26.438 109.62
-15.986 -26.441999 109.63
-15.869 -26.447001 109.65
-15.752 -26.451 109.67
-15.635 -26.455 109.69
-15.514 -26.452999 109.68
-15.392 -26.448999 109.66
-15.271 -26.445999 109.65
-15.15 -26.443001 109.64
-15.03 -26.441999 109.63
-14.911 -26.444 109.64
-14.793 -26.445999 109.65
-14.674 -26.447001 109.65
-14.555 -26.448 109.66
-14.437 -26.451 109.67
-14.321 -26.457001 109.7
-14.205 -26.464001 109.73
-14.09 -26.473 109.76
-13.975 -26.482 109.8
-13.86 -26.490999 109.84
-13.745 -26.5 109.87
-13.629 -26.507 109.9
-13.513 -26.514999 109.94
-13.397 -26.523001 109.97
-13.28 -26.528999 109.99
-13.162 -26.534 110.01
-13.045 -26.539 110.04
-12.928 -26.546 110.06
-12.813 -26.555 110.1
-12.698 -26.566 110.15
-12.583 -26.576 110.19
-12.467 -26.586 110.23
-12.35 -26.593 110.26
-12.233 -26.599001 110.28
-12.114 -26.601999 110.29
-11.993 -26.601 110.29
-11.87 -26.594999 110.27
-11.745 -26.583 110.22
-11.617 -26.566 110.15
-11.488 -26.545 110.06
-11.36 -26.525999 109.98
-11.233 -26.509001 109.91
-11.102 -26.483999 109.81
-5.6107998 -19.174 79.497002
-5.5170002 -19.149 79.394997
-5.4239998 -19.125999 79.301003
-5.3312998 -19.104 79.207001
-5.2378998 -19.077999 79.101997
-5.1433001 -19.047001 78.973999
-5.0490999 -19.017 78.846001
-4.9568 -18.992001 78.745003
-4.8649001 -18.969 78.649002
-4.7749 -18.952 78.579002
-4.6833 -18.927999 78.478996
-4.5903001 -18.898001 78.352997
-4.4973998 -18.865999 78.222
-4.4035001 -18.829 78.07
-4.3091998 -18.789 77.903999
-4.2129998 -18.74 77.696999
-4.1202002 -18.702999 77.544998
-4.0282001 -18.667999 77.402
-3.9368 -18.635 77.264999
-3.8469 -18.608 77.151001
-3.7586 -18.587 77.065002
-3.6703999 -18.566 76.977997
-3.5827 -18.546 76.896004
-3.4949999 -18.525999 76.811996
-3.4078 -18.507 76.734001
-3.3210001 -18.49 76.662003
-3.2349 -18.475 76.601997
-3.1494 -18.464001 76.555
-3.0646 -18.455999 76.519997
-2.9802001 -18.450001 76.495003
-2.8961 -18.445 76.476997
-2.8120999 -18.441999 76.461998
-2.7283001 -18.438 76.447998
-2.6443999 -18.434999 76.433998
-2.5604 -18.43 76.415001
-2.4763999 -18.424999 76.392998
-2.3922999 -18.419001 76.367996
-2.3083 -18.413 76.344002
-2.2244 -18.407 76.319
-2.1406 -18.402 76.299004
-2.0569999 -18.398001 76.281998
-1.9735 -18.396 76.271004
-1.8902 -18.393999 76.264999
-1.8071001 -18.395 76.268997
-1.7242 -18.398001 76.279999
-1.6414 -18.402 76.297997
-1.5585999 -18.407 76.319
-1.4759001 -18.413 76.343002
-1.3931 -18.419001 76.366997
-1.3103 -18.424999 76.391998
-1.2273999 -18.431 76.417
-1.1444 -18.437 76.442001
-1.0614001 -18.443001 76.468002
-0.97842002 -18.450001 76.496002
-0.89542001 -18.458 76.530998
-0.81238002 -18.466999 76.569
-0.72926003 -18.476999 76.607002
-0.64607 -18.486 76.648003
-0.56282997 -18.497 76.693001
-0.47949001 -18.507999 76.738998
-0.39610001 -18.521999 76.793999
-0.31265 -18.538 76.862999
-0.22912 -18.559999 76.955002
-0.14539 -18.583 77.050003
-0.061459001 -18.608 77.150002
0.022693001 -18.632999 77.255997
0.10709 -18.660999 77.372002
0.19168 -18.683001 77.461998
0.27645001 -18.704 77.550003
0.36138999 -18.724001 77.632004
0.44643 -18.74 77.700996
0.53153998 -18.754 77.758003
0.61701 -18.775 77.845001
0.70297003 -18.804001 77.964996
0.78972 -18.846001 78.137001
0.87747997 -18.900999 78.365997
0.96608001 -18.962999 78.622002
1.0607001 -19.124001 79.289001
1.1512001 -19.190001 79.567001
1.2452 -19.302999 80.032997
1.3415999 -19.434999 80.579002
1.4401 -19.58 81.18
1.5420001 -19.752001 81.894997
1.6288 -20.957001 86.500999
1.7319 -20.969 86.942001
1.8372 -21.09 87.442001
1.941 -21.181999 87.824997
2.0418999 -21.236 88.046997
2.1403 -21.259001 88.143997
2.2341001 -21.238001 88.055
2.3257 -21.198 87.888
2.4165001 -21.153 87.705002
2.5071001 -21.111 87.528999
2.5971 -21.066999 87.348
2.6870999 -21.025999 87.178001
2.7767999 -20.986 87.010002
2.8666 -20.948 86.856003
2.9559 -20.91 86.697998
3.0455 -20.875999 86.556
3.1354001 -20.846001 86.432999
3.2254 -20.819 86.32
3.3153 -20.792999 86.210999
3.4056001 -20.77 86.116997
3.4958 -20.747999 86.026001
3.586 -20.726999 85.939003
3.6758001 -20.705 85.848
3.766 -20.687 85.769997
3.8557 -20.666 85.686996
3.9453001 -20.646 85.601997
4.0349002 -20.627001 85.524002
4.1244998 -20.608999 85.447998
4.2142 -20.591999 85.376999
4.3044 -20.577999 85.32
4.3948002 -20.566 85.269997
4.4857998 -20.556999 85.231003
4.5769 -20.549 85.197998
4.6680999 -20.541 85.167
4.7596002 -20.535 85.142998
4.8512001 -20.530001 85.120003
4.9428 -20.525 85.099998
5.0342999 -20.52 85.078003
5.1255999 -20.514 85.054001
5.217 -20.507999 85.030998
5.3084002 -20.504 85.012001
5.3999 -20.499001 84.991997
5.4916 -20.495001 84.976997
5.5834999 -20.493 84.966003
5.6754999 -20.49 84.957001
5.7674999 -20.488001 84.946999
5.8597999 -20.487 84.942001
5.9520001 -20.485001 84.935997
6.0444002 -20.485001 84.933998
6.1366 -20.483 84.927002
6.2289 -20.483 84.924004
6.3210001 -20.481001 84.917
6.4127002 -20.478001 84.904999
6.5040998 -20.474001 84.889999
6.5953002 -20.469999 84.872002
6.6861 -20.465 84.849998
6.7768998 -20.459 84.828003
6.8674998 -20.454 84.805
6.9580998 -20.448 84.781998
7.0489001 -20.444 84.763
7.1396999 -20.438999 84.742996
7.2305999 -20.434999 84.725998
7.3216 -20.431 84.710999
7.4130001 -20.427999 84.698997
7.5044999 -20.426001 84.689003
7.5960999 -20.424 84.681
7.6882 -20.423 84.678001
7.7807999 -20.424 84.681
7.8741002 -20.427 84.692001
7.9682999 -20.431 84.710999
8.0627003 -20.436001 84.733002
8.1577997 -20.443001 84.761002
8.2532997 -20.451 84.792
8.3492002 -20.459 84.828003
8.4450998 -20.468 84.862
8.5405998 -20.475 84.891998
8.6360998 -20.482 84.920998
8.7312002 -20.488001 84.945
8.8262997 -20.493 84.968002
8.9218998 -20.5 84.996002
9.0173998 -20.507 85.023003
9.1129999 -20.513 85.051003
9.2086 -20.52 85.077003
9.3044996 -20.525999 85.106003
9.4005003 -20.533001 85.134003
9.4968004 -20.541 85.166
9.5931997 -20.548 85.196999
9.6896 -20.556 85.228996
9.7861996 -20.563999 85.260002
9.8830996 -20.572001 85.293999
9.9805002 -20.580999 85.332001
10.078 -20.59 85.370003
10.176 -20.6 85.412003
10.275 -20.611 85.457001
10.374 -20.622999 85.505997
10.473 -20.635 85.557999
10.573 -20.648001 85.609001
10.673 -20.660999 85.662003
10.773 -20.673 85.713997
10.873 -20.684999 85.763
10.972 -20.695999 85.809998
11.071 -20.707001 85.853996
11.17 -20.716999 85.894997
11.269 -20.725 85.93
11.366 -20.733 85.959999
11.463 -20.739 85.987
11.561 -20.746 86.016998
11.659 -20.753 86.043999
11.758 -20.761999 86.084999
11.858 -20.773001 86.126999
11.96 -20.788 86.190002
12.065 -20.806 86.266998
12.173 -20.830999 86.366997
12.284 -20.858 86.481003
12.399 -20.893 86.625
12.517 -20.931999 86.788002
12.642 -20.982 86.997002
12.781 -21.056 87.301003
12.931 -21.146 87.672997
13.085 -21.24 88.064003
13.255 -21.360001 88.560997
13.487 -21.577 89.459999
13.714 -21.782 90.313004
13.963 -22.02 91.297997
16.754999 -26.235001 108.78
17.016001 -26.457001 109.69
17.237 -26.613001 110.34
17.438999 -26.738001 110.86
17.604 -26.805 111.14
17.75 -26.843 111.3
17.882 -26.858999 111.36
18.016001 -26.878 111.44
18.156 -26.905001 111.55
18.288 -26.92 111.61
18.417 -26.931999 111.66
18.549999 -26.948 111.73
18.684 -26.966 111.8
18.82 -26.985001 111.88
18.951 -26.999001 111.94
19.077999 -27.004999 111.97
19.197001 -27.000999 111.95
19.309 -26.986 111.89
19.417 -26.968 111.81
19.523001 -26.945999 111.72
19.629 -26.924 111.63
19.731001 -26.896999 111.52
19.839001 -26.878 111.44
19.948 -26.862 111.37
20.059999 -26.849001 111.32
20.174 -26.839001 111.28
20.294001 -26.837 111.27
20.419001 -26.841999 111.29
20.542999 -26.844999 111.3
20.669001 -26.851 111.33
20.796 -26.858 111.36
20.923 -26.865999 111.39
21.048 -26.871 111.41
21.169001 -26.871 111.41
21.290001 -26.870001 111.41
21.412001 -26.870001 111.41
21.531 -26.867001 111.4
21.658001 -26.874001 111.43
21.788 -26.885 111.47
21.922001 -26.9 111.53
22.058001 -26.917 111.6
22.222 -26.969 111.82
22.384001 -27.017 112.02
22.546 -27.065001 112.22
22.702999 -27.106001 112.39
22.861 -27.149 112.56
23.01 -27.179001 112.69
23.150999 -27.200001 112.78
23.285 -27.214001 112.83
23.414 -27.219999 112.86
23.514 -27.194 112.75
23.612 -27.166 112.63
23.708 -27.135 112.5
23.805 -27.105 112.38
23.902 -27.077 112.26
24.003 -27.052 112.16
24.103001 -27.027 112.06
24.202999 -27.003 111.96
24.304001 -26.979 111.86
24.417999 -26.969999 111.82
24.527 -26.955999 111.76
24.645 -26.951 111.75
24.767 -26.952 111.75
24.892 -26.955 111.76
25.021 -26.962999 111.79
25.158001 -26.98 111.86
25.302 -27.003 111.96
25.444 -27.024 112.05
25.58 -27.039 112.11
25.708 -27.045 112.13
25.84 -27.055 112.18
25.971001 -27.063999 112.21
26.101999 -27.073 112.25
26.245001 -27.094 112.34
26.388 -27.115 112.42
26.538 -27.143 112.54
26.684 -27.167 112.64
26.829 -27.188999 112.73
26.972 -27.209999 112.82
27.111 -27.226 112.88
27.249001 -27.240999 112.94
27.384001 -27.253 112.99
27.492001 -27.237 112.93
27.593 -27.215 112.84
27.691 -27.191 112.74
27.781 -27.159 112.61
27.858 -27.115 112.42
27.931999 -27.066999 112.22
27.992001 -27.007 111.98
28.02 -26.917 111.6
28.041 -26.82 111.2
-22.497 -26.247999 109.32
-22.385 -26.257 109.36
-22.271999 -26.264 109.39
-22.158001 -26.27 109.41
-22.042 -26.274 109.43
-21.927999 -26.280001 109.46
-21.809999 -26.282 109.47
-21.691 -26.282 109.47
-21.569 -26.280001 109.46
-21.447001 -26.275999 109.44
-21.323 -26.27 109.42
-21.202999 -26.27 109.41
-21.084 -26.27 109.42
-20.969 -26.275999 109.44
-20.857 -26.284 109.47
-20.747 -26.296 109.52
-20.634001 -26.304001 109.56
-20.517 -26.308001 109.57
-20.393999 -26.304001 109.56
-20.27 -26.297001 109.53
-20.139999 -26.284 109.47
-20.009001 -26.268 109.41
-19.877001 -26.252001 109.34
-19.747999 -26.239 109.28
-19.622 -26.229 109.24
-19.5 -26.226 109.23
-19.382 -26.228001 109.24
-19.268999 -26.235001 109.27
-19.156 -26.243 109.3
-19.042 -26.25 109.33
-18.927 -26.256001 109.36
-18.808001 -26.257 109.36
-18.688 -26.256001 109.36
-18.566999 -26.253 109.34
-18.445 -26.25 109.33
-18.323999 -26.247 109.32
-18.205 -26.247999 109.32
-18.087999 -26.25 109.33
-17.972 -26.254999 109.35
-17.857 -26.261 109.38
-17.743 -26.268999 109.41
-17.629 -26.277 109.44
-17.514999 -26.285 109.48
-17.4 -26.291 109.5
-17.284 -26.297001 109.53
-17.166 -26.298 109.53
-17.046 -26.298 109.53
-16.924999 -26.295 109.52
-16.804001 -26.292999 109.51
-16.681999 -26.289 109.5
-16.565001 -26.292999 109.51
-16.450001 -26.299 109.54
-16.334999 -26.306999 109.57
-16.219999 -26.315001 109.6
-16.105 -26.322001 109.63
-15.988 -26.326 109.65
-15.871 -26.33 109.66
-15.753 -26.334 109.68
-15.636 -26.337 109.69
-15.515 -26.334999 109.68
-15.393 -26.33 109.67
-15.271 -26.327 109.65
-15.149 -26.322001 109.63
-15.028 -26.32 109.62
-14.909 -26.320999 109.63
-14.79 -26.322001 109.63
-14.671 -26.322001 109.63
-14.552 -26.323 109.64
-14.434 -26.325001 109.65
-14.318 -26.332001 109.67
-14.202 -26.34 109.7
-14.087 -26.349001 109.74
-13.974 -26.360001 109.79
-13.859 -26.371 109.83
-13.745 -26.381001 109.88
-13.63 -26.391001 109.92
-13.515 -26.4 109.95
-13.4 -26.409 109.99
-13.283 -26.415001 110.02
-13.166 -26.42 110.04
-13.048 -26.426001 110.06
-12.931 -26.431999 110.09
-12.815 -26.440001 110.12
-12.7 -26.450001 110.16
-12.584 -26.459 110.2
-12.469 -26.468 110.24
-12.352 -26.476 110.27
-12.234 -26.481001 110.3
-12.115 -26.483999 110.31
-11.995 -26.483999 110.3
-11.872 -26.479 110.28
-11.747 -26.468 110.24
-11.62 -26.452999 110.18
-11.493 -26.436001 110.1
-11.367 -26.422001 110.05
-11.239 -26.405001 109.98
-5.7028999 -19.191999 79.572998
-5.6069002 -19.073999 79.442001
-5.5141001 -19.052 79.351997
-5.4218001 -19.032 79.267998
-5.3292999 -19.01 79.178001
-5.2363 -18.986 79.077003
-5.1420999 -18.957001 78.955002
-5.0489001 -18.93 78.844002
-4.9566998 -18.906 78.745003
-4.8657999 -18.886999 78.663002
-4.7758999 -18.870001 78.595001
-4.6844001 -18.847 78.497002
-4.5913 -18.816 78.369003
-4.4980998 -18.784 78.234001
-4.4042001 -18.747 78.082001
-4.3091002 -18.704 77.902
-4.2122998 -18.650999 77.682999
-4.1194 -18.614 77.528999
-4.0268998 -18.577999 77.375999
-3.9352 -18.542999 77.233002
-3.8453 -18.516001 77.117996
-3.7571001 -18.495001 77.032997
-3.6688001 -18.474001 76.943001
-3.5810001 -18.454 76.860001
-3.4933 -18.433001 76.775002
-3.4061 -18.415001 76.695999
-3.3194001 -18.396999 76.624001
-3.2334001 -18.384001 76.568001
-3.1482 -18.372999 76.524002
-3.0634999 -18.365999 76.492996
-2.9793 -18.361 76.472
-2.8952999 -18.357 76.456001
-2.8115001 -18.354 76.445
-2.7277 -18.351 76.432999
-2.6438999 -18.348 76.419998
-2.5599999 -18.344 76.401001
-2.4760001 -18.339001 76.379997
-2.3919001 -18.332001 76.353996
-2.3079 -18.327 76.330002
-2.2239001 -18.32 76.304001
-2.1401 -18.315001 76.282997
-2.0565 -18.311001 76.264999
-1.973 -18.308001 76.251999
-1.8897001 -18.306 76.245003
-1.8067 -18.306999 76.25
-1.7237999 -18.309999 76.261002
-1.641 -18.315001 76.279999
-1.5583 -18.32 76.302002
-1.4756 -18.326 76.328003
-1.3928 -18.332001 76.352997
-1.3099999 -18.337999 76.377998
-1.2271 -18.344 76.403
-1.1442 -18.35 76.428001
-1.0612 -18.356001 76.453003
-0.97819 -18.362 76.477997
-0.89515001 -18.368999 76.508003
-0.81208003 -18.377001 76.541
-0.72895002 -18.385 76.574997
-0.64574999 -18.393999 76.610001
-0.56251001 -18.403 76.650002
-0.47920001 -18.413 76.692001
-0.39583001 -18.424999 76.739998
-0.31242001 -18.441 76.806
-0.22894999 -18.462999 76.899002
-0.14528 -18.486 76.992996
-0.061414 -18.51 77.093002
0.022677001 -18.535999 77.200996
0.10702 -18.563999 77.319
0.19154 -18.586 77.408997
0.27625 -18.606001 77.495003
0.36111 -18.625 77.572998
0.44606999 -18.641001 77.638
0.53100002 -18.65 77.679001
0.61623001 -18.666 77.746002
0.70190001 -18.690001 77.846001
0.78827 -18.726 77.994003
0.87584001 -18.780001 78.220001
0.96427 -18.841999 78.474998
1.0535001 -18.908001 78.751999
1.15 -19.083 79.482002
1.2436 -19.191 79.928001
1.3401999 -19.327 80.495003
1.4391 -19.478001 81.124001
1.5409 -19.648001 81.832001
1.727 -20.816 86.696999
1.8326 -20.941999 87.223999
1.9366 -21.039 87.627998
2.0386 -21.105 87.903999
2.1377001 -21.138 88.039001
2.2327001 -21.128 88
2.3245001 -21.091 87.842003
2.4154 -21.049 87.667
2.506 -21.007 87.491997
2.5962 -20.965 87.318001
2.6861 -20.923 87.144997
2.7758 -20.882999 86.975998
2.8656001 -20.846001 86.824997
2.9549999 -20.809999 86.671997
3.0448 -20.777 86.536003
3.1347001 -20.747999 86.415001
3.2247 -20.719999 86.300003
3.3146 -20.694 86.191002
3.4049001 -20.672001 86.098999
3.4949999 -20.65 86.005997
3.5853 -20.629999 85.921997
3.675 -20.607 85.829002
3.7651 -20.587999 85.75
3.8548999 -20.569 85.667999
3.9445 -20.549 85.584999
4.0342002 -20.530001 85.509003
4.1237998 -20.511999 85.433998
4.2135 -20.496 85.363998
4.3038998 -20.483 85.309998
4.3944998 -20.471001 85.263
4.4854002 -20.462 85.224998
4.5766001 -20.455 85.193001
4.6679001 -20.447001 85.162003
4.7593999 -20.441 85.138
4.8509002 -20.436001 85.114998
4.9425001 -20.431 85.095001
5.0341001 -20.426001 85.073997
5.1255002 -20.421 85.052002
5.2168999 -20.415001 85.029999
5.3084998 -20.410999 85.013
5.4001999 -20.408001 84.997002
5.4920998 -20.405001 84.986
5.5843 -20.403 84.978996
5.6766 -20.402 84.973
5.7688999 -20.400999 84.968002
5.8614998 -20.4 84.966003
5.9538999 -20.399 84.963997
6.0465999 -20.4 84.963997
6.1391001 -20.399 84.961998
6.2315998 -20.399 84.959999
6.3238001 -20.396999 84.955002
6.4157 -20.395 84.945
6.5071998 -20.392 84.931
6.5984001 -20.386999 84.913002
6.6891999 -20.382 84.889999
6.7800002 -20.375999 84.866997
6.8705001 -20.370001 84.843002
6.961 -20.364 84.817001
7.0514002 -20.358999 84.792999
7.1419001 -20.353001 84.769997
7.2325001 -20.348 84.748001
7.3232002 -20.343 84.727997
7.4141998 -20.339001 84.712997
7.5053 -20.336 84.698997
7.5967002 -20.333 84.688004
7.6883998 -20.332001 84.681
7.7807002 -20.330999 84.68
7.8737001 -20.333 84.688004
7.9677 -20.337 84.705002
8.0620003 -20.341999 84.725998
8.1569996 -20.349001 84.752998
8.2524996 -20.357 84.785004
8.3485003 -20.365 84.820999
8.4445 -20.374001 84.856003
8.5403004 -20.381001 84.889
8.6360998 -20.389 84.920998
8.7314997 -20.396 84.947998
8.8268003 -20.402 84.973
8.9225998 -20.409 85.002998
9.0183001 -20.416 85.031998
9.1141996 -20.423 85.061996
9.21 -20.43 85.089996
9.3060999 -20.437 85.120003
9.4021997 -20.444 85.150002
9.4987001 -20.452 85.182999
9.5953999 -20.459999 85.217003
9.6921997 -20.468 85.250999
9.7890997 -20.476999 85.285004
9.8864002 -20.486 85.321999
9.9841003 -20.495001 85.362999
10.082 -20.504999 85.404999
10.181 -20.516001 85.449997
10.28 -20.528 85.497002
10.379 -20.540001 85.547997
10.478 -20.552 85.598999
10.578 -20.565001 85.651001
10.678 -20.576 85.699997
10.777 -20.587999 85.748001
10.876 -20.599001 85.793999
10.975 -20.608999 85.835999
11.074 -20.618999 85.875999
11.173 -20.627001 85.913002
11.27 -20.635 85.944
11.368 -20.641001 85.971001
11.465 -20.646999 85.996002
11.562 -20.653999 86.023003
11.659 -20.66 86.047997
11.758 -20.669001 86.084999
11.857 -20.677999 86.124001
11.959 -20.691999 86.182999
12.064 -20.709999 86.257004
12.172 -20.733999 86.356003
12.282 -20.76 86.467003
12.396 -20.794001 86.609001
12.515 -20.834 86.775002
12.64 -20.885 86.987
12.778 -20.955999 87.281998
12.927 -21.044001 87.649002
13.081 -21.138 88.039001
13.25 -21.254999 88.525002
13.474 -21.457001 89.369003
13.693 -21.65 90.174004
13.94 -21.884001 91.148003
14.232 -22.183001 92.392998
16.844999 -26.072001 108.59
17.1 -26.282 109.46
17.309999 -26.42 110.04
17.48 -26.496 110.36
17.625 -26.533001 110.51
17.753 -26.545 110.56
17.875 -26.547001 110.57
18.032 -26.601 110.79
18.165001 -26.618 110.86
18.304001 -26.645 110.98
18.434999 -26.66 111.04
18.57 -26.679001 111.12
18.702 -26.695 111.19
18.829 -26.702999 111.22
18.958 -26.714001 111.26
19.083 -26.718 111.28
19.195 -26.705 111.23
19.301001 -26.684999 111.14
19.408001 -26.666 111.06
19.514 -26.645 110.98
19.614 -26.617001 110.86
19.714001 -26.589001 110.74
19.823999 -26.573999 110.68
19.933001 -26.558001 110.61
20.042999 -26.544001 110.56
20.16 -26.540001 110.54
20.275999 -26.533001 110.51
20.393 -26.528999 110.49
20.513 -26.528999 110.49
20.636999 -26.533001 110.51
20.764999 -26.542 110.55
20.889 -26.548 110.57
21.011999 -26.551001 110.58
21.131001 -26.549 110.58
21.252001 -26.548 110.57
21.370001 -26.545 110.56
21.493999 -26.549999 110.58
21.624001 -26.561001 110.63
21.76 -26.580999 110.71
21.898001 -26.601 110.79
22.049999 -26.639 110.95
22.221001 -26.698999 111.2
22.388 -26.754 111.43
22.552999 -26.805 111.64
22.715 -26.851999 111.84
22.865 -26.886 111.98
23.009001 -26.910999 112.08
23.145 -26.927 112.15
23.274 -26.936001 112.19
23.375 -26.910999 112.09
23.472 -26.881001 111.96
23.563999 -26.848 111.82
23.658001 -26.816 111.69
23.757 -26.791 111.58
23.857 -26.766001 111.48
23.958 -26.743 111.39
24.058001 -26.719 111.28
24.159 -26.695999 111.19
24.267 -26.681999 111.13
24.375999 -26.667999 111.07
24.486 -26.657 111.03
24.601999 -26.650999 111
24.726 -26.655001 111.02
24.853001 -26.66 111.04
24.985001 -26.673 111.09
25.122 -26.690001 111.16
25.268 -26.716 111.27
25.402 -26.729 111.33
25.531 -26.737 111.36
25.659 -26.743 111.39
25.794001 -26.757999 111.45
25.926001 -26.768999 111.49
26.070999 -26.792999 111.59
26.222 -26.823 111.72
26.372999 -26.851999 111.84
26.524 -26.882 111.96
26.67 -26.906 112.06
26.813999 -26.927999 112.16
26.955 -26.947001 112.23
27.094 -26.962999 112.3
27.229 -26.976 112.35
27.337 -26.961 112.29
27.438 -26.940001 112.21
27.534 -26.915001 112.1
27.622 -26.881001 111.96
27.695 -26.833 111.76
27.749001 -26.768 111.49
27.768 -26.669001 111.08
27.790001 -26.575001 110.68
27.796 -26.466 110.23
-22.499001 -26.131001 109.33
-22.388 -26.141001 109.37
-22.275 -26.148001 109.4
-22.16 -26.153999 109.43
-22.044001 -26.158001 109.44
-21.929001 -26.163 109.47
-21.812 -26.165001 109.48
-21.691999 -26.165001 109.47
-21.570999 -26.162001 109.46
-21.447001 -26.157 109.44
-21.322001 -26.15 109.41
-21.202 -26.149 109.41
-21.082001 -26.149 109.41
-20.966999 -26.153999 109.43
-20.854 -26.160999 109.46
-20.743 -26.173 109.51
-20.629999 -26.18 109.54
-20.513 -26.183001 109.55
-20.389999 -26.179001 109.53
-20.266001 -26.173 109.51
-20.136 -26.159 109.45
-20.006001 -26.145 109.39
-19.875 -26.129 109.32
-19.746 -26.117001 109.27
-19.620001 -26.108 109.23
-19.499001 -26.105 109.22
-19.382 -26.107 109.23
-19.268 -26.115 109.27
-19.156 -26.124001 109.3
-19.042 -26.131001 109.33
-18.927 -26.138 109.36
-18.809 -26.139 109.36
-18.688999 -26.138 109.36
-18.568001 -26.135 109.35
-18.445999 -26.132 109.33
-18.323999 -26.128 109.32
-18.205999 -26.129 109.32
-18.087999 -26.131001 109.33
-17.971001 -26.135 109.35
-17.856001 -26.139999 109.37
-17.742001 -26.149 109.41
-17.628 -26.157 109.44
-17.514 -26.164 109.47
-17.399 -26.17 109.5
-17.283001 -26.176001 109.52
-17.165001 -26.177 109.53
-17.045 -26.177 109.52
-16.924 -26.174999 109.52
-16.804001 -26.173 109.51
-16.681999 -26.17 109.5
-16.566 -26.174999 109.52
-16.451 -26.181999 109.55
-16.337 -26.191 109.58
-16.222 -26.198999 109.62
-16.108 -26.207001 109.65
-15.991 -26.209999 109.66
-15.873 -26.214001 109.68
-15.755 -26.216999 109.69
-15.637 -26.219999 109.7
-15.516 -26.216999 109.69
-15.393 -26.211 109.67
-15.271 -26.207001 109.65
-15.148 -26.201 109.63
-15.027 -26.198 109.61
-14.907 -26.198 109.61
-14.788 -26.198 109.61
-14.669 -26.198999 109.62
-14.549 -26.198999 109.62
-14.431 -26.202 109.63
-14.316 -26.209 109.66
-14.201 -26.216999 109.69
-14.086 -26.226999 109.74
-13.973 -26.239 109.79
-13.86 -26.250999 109.83
-13.746 -26.261999 109.88
-13.631 -26.271999 109.92
-13.517 -26.283001 109.97
-13.402 -26.292999 110.01
-13.285 -26.299999 110.04
-13.168 -26.305 110.06
-13.051 -26.309999 110.08
-12.933 -26.316 110.11
-12.817 -26.323999 110.14
-12.701 -26.333 110.18
-12.585 -26.341 110.21
-12.469 -26.35 110.25
-12.352 -26.357 110.28
-12.235 -26.362 110.3
-12.116 -26.365 110.31
-11.996 -26.365 110.31
-11.874 -26.362 110.3
-11.75 -26.353001 110.26
-11.624 -26.341999 110.21
-11.498 -26.329 110.16
-11.374 -26.318001 110.12
-5.6034002 -18.975 79.390999
-5.5110998 -18.955999 79.309998
-5.4194999 -18.938 79.235001
-5.3271999 -18.916 79.146004
-5.2343001 -18.893 79.046997
-5.1405001 -18.865 78.93
-5.0482001 -18.841 78.833
-4.9568 -18.820999 78.746002
-4.8664999 -18.804001 78.675003
-4.7767 -18.788 78.608002
-4.6851001 -18.764 78.510002
-4.592 -18.733999 78.380997
-4.4986 -18.701 78.244003
-4.4046001 -18.664 78.088997
-4.309 -18.618999 77.900002
-4.2115002 -18.563 77.668999
-4.1185999 -18.525999 77.514
-4.0257001 -18.488001 77.351997
-3.9337001 -18.452 77.202003
-3.8438001 -18.424999 77.088997
-3.7556 -18.403999 77.003998
-3.6673 -18.382999 76.913002
-3.5795 -18.362 76.827003
-3.4916999 -18.341 76.739998
-3.4047 -18.323 76.663002
-3.3178999 -18.306 76.591003
-3.2321999 -18.292999 76.538002
-3.1471 -18.284 76.498001
-3.0625999 -18.277 76.470001
-2.9784999 -18.273001 76.453003
-2.8945999 -18.27 76.440002
-2.8109 -18.267 76.429001
-2.7272 -18.264 76.417999
-2.6434 -18.261 76.404999
-2.5595 -18.257 76.387001
-2.4755001 -18.252001 76.364998
-2.3915 -18.246 76.339996
-2.3074999 -18.24 76.315002
-2.2235 -18.233 76.289001
-2.1396999 -18.228001 76.266998
-2.056 -18.224001 76.248001
-1.9725 -18.221001 76.235001
-1.8892 -18.219 76.227997
-1.8062 -18.219999 76.231003
-1.7234 -18.222 76.242996
-1.6406 -18.226999 76.262001
-1.558 -18.233 76.285004
-1.4753 -18.239 76.309998
-1.3925 -18.245001 76.335999
-1.3098 -18.250999 76.362
-1.2269 -18.257 76.388
-1.1440001 -18.263 76.413002
-1.061 -18.268999 76.438004
-0.97798002 -18.275 76.461998
-0.89491999 -18.281 76.487999
-0.81181997 -18.288 76.515999
-0.72867 -18.295 76.545998
-0.64547002 -18.302 76.577003
-0.56222999 -18.311001 76.611
-0.47892001 -18.319 76.648003
-0.39557999 -18.33 76.693001
-0.31220999 -18.344999 76.754997
-0.22879 -18.365999 76.844002
-0.14517 -18.388 76.934998
-0.061368 -18.412001 77.036003
0.022661 -18.438 77.146004
0.10693 -18.465 77.258003
0.19140001 -18.487 77.350998
0.27605 -18.507999 77.438004
0.36083001 -18.525999 77.512001
0.44571 -18.541 77.575996
0.53052998 -18.549 77.611
0.61556 -18.562 77.662003
0.70096999 -18.580999 77.742996
0.78704 -18.612 77.872002
0.87419999 -18.66 78.072998
0.96245003 -18.721001 78.327003
1.0516 -18.788 78.607002
1.1487 -18.975 79.390999
1.242 -19.079 79.825996
1.3385 -19.215 80.396004
1.4375 -19.367001 81.032997
1.539 -19.535 81.733002
1.7212 -20.650999 86.403999
1.8276 -20.790001 86.986
1.9322 -20.895 87.426003
2.0351 -20.973 87.751999
2.1352 -21.017 87.933998
2.2313001 -21.018999 87.943001
2.3232999 -20.983999 87.796997
2.4143 -20.943001 87.626999
2.5051 -20.903999 87.459999
2.5953 -20.862 87.287003
2.6853001 -20.822001 87.117996
2.7749 -20.782 86.949997
2.8648 -20.746 86.802002
2.9544001 -20.711 86.653
3.0441999 -20.679001 86.521004
3.1342001 -20.65 86.400002
3.2242 -20.622999 86.287003
3.3141 -20.597 86.178001
3.4043 -20.575001 86.084999
3.4944 -20.552999 85.991997
3.5846 -20.532 85.906998
3.6743 -20.51 85.814003
3.7644 -20.490999 85.734001
3.8540001 -20.471001 85.649002
3.9438 -20.452 85.569
4.0335999 -20.434 85.496002
4.1231999 -20.416 85.421997
4.2131 -20.4 85.355003
4.3035998 -20.388 85.304001
4.3943 -20.377001 85.259003
4.4853001 -20.368999 85.222
4.5764999 -20.361 85.191002
4.6676998 -20.354 85.160004
4.7593002 -20.348 85.137001
4.8508 -20.343 85.113998
4.9425001 -20.337999 85.095001
5.0341001 -20.334 85.074997
5.1255999 -20.327999 85.054001
5.2171998 -20.323999 85.035004
5.3088999 -20.32 85.019997
5.4008002 -20.316999 85.007004
5.493 -20.315001 84.999001
5.5854998 -20.313999 84.996002
5.678 -20.313999 84.994003
5.7705002 -20.313 84.990997
5.8632002 -20.313999 84.991997
5.9559002 -20.313999 84.991997
6.0488 -20.313999 84.995003
6.1413999 -20.313999 84.994003
6.2340999 -20.313999 84.994003
6.3264999 -20.313 84.990997
6.4184999 -20.311001 84.982002
6.5102 -20.308001 84.969002
6.6015 -20.304001 84.952003
6.6925001 -20.299 84.931
6.7831001 -20.292999 84.906998
6.8736 -20.287001 84.880997
6.9639001 -20.281 84.853996
7.0542998 -20.274 84.828003
7.1444998 -20.268 84.801003
7.2347999 -20.261999 84.775002
7.3249998 -20.256001 84.749001
7.4158001 -20.250999 84.731003
7.5064001 -20.246 84.710999
7.5974998 -20.243 84.695999
7.6887999 -20.24 84.684998
7.7807002 -20.239 84.681
7.8734999 -20.24 84.685997
7.9672999 -20.243999 84.700996
8.0614004 -20.249001 84.720001
8.1563997 -20.254999 84.747002
8.2519999 -20.263 84.778999
8.3480997 -20.271999 84.817001
8.4441996 -20.280001 84.852997
8.5403996 -20.289 84.889
8.6365995 -20.298 84.925003
8.7321997 -20.305 84.954002
8.8276997 -20.311001 84.983002
8.9238997 -20.319 85.015999
9.0198002 -20.327 85.045998
9.1159 -20.334 85.078003
9.2119999 -20.341 85.108002
9.3081999 -20.349001 85.139999
9.4045 -20.356001 85.170998
9.5012999 -20.365 85.206001
9.5981998 -20.372999 85.241997
9.6953001 -20.382 85.278
9.7925997 -20.391001 85.316002
9.8902998 -20.400999 85.356003
9.9884005 -20.410999 85.399002
10.087 -20.421 85.443001
10.186 -20.433001 85.490997
10.285 -20.445 85.540001
10.384 -20.457001 85.591003
10.484 -20.469 85.641998
10.583 -20.48 85.689003
10.682 -20.490999 85.735001
10.781 -20.502001 85.779999
10.88 -20.511999 85.821999
10.979 -20.521 85.862
11.077 -20.530001 85.897003
11.175 -20.538 85.93
11.272 -20.544001 85.958
11.369 -20.551001 85.983002
11.466 -20.556 86.005997
11.563 -20.562 86.030998
11.66 -20.566999 86.053001
11.758 -20.575001 86.086998
11.857 -20.584 86.123001
11.959 -20.597 86.178001
12.063 -20.615 86.250999
12.171 -20.638 86.348
12.281 -20.664 86.459999
12.395 -20.698 86.601997
12.514 -20.738001 86.768997
12.639 -20.789 86.981003
12.776 -20.858 87.269997
12.925 -20.945 87.633003
13.079 -21.038 88.023003
13.244 -21.15 88.489998
13.461 -21.339001 89.282997
13.678 -21.528999 90.075996
13.913 -21.742001 90.968002
14.195 -22.025999 92.156998
17.106001 -25.990999 108.75
17.295 -26.096001 109.19
17.448 -26.146999 109.4
17.843 -26.202 109.63
17.968 -26.211 109.67
18.098 -26.225 109.72
18.24 -26.257999 109.86
18.405001 -26.323 110.13
18.507 -26.297001 110.03
18.624001 -26.292 110
18.747 -26.297001 110.02
18.877001 -26.309999 110.08
19.01 -26.329 110.16
19.125 -26.322001 110.13
19.247999 -26.326 110.15
19.360001 -26.313999 110.1
19.469999 -26.302 110.05
19.568001 -26.271999 109.92
19.674 -26.253 109.84
19.757999 -26.205 109.64
19.870001 -26.195999 109.6
20.083 -26.162001 109.46
20.205999 -26.166 109.48
20.319 -26.158001 109.44
20.437 -26.156 109.44
20.554001 -26.153999 109.43
20.681 -26.163 109.47
20.954 -26.205999 109.64
21.070999 -26.202999 109.63
21.190001 -26.202 109.63
21.311001 -26.204 109.64
21.440001 -26.216 109.69
21.570999 -26.23 109.75
21.701 -26.242001 109.8
21.862 -26.292 110
22.016001 -26.332001 110.17
22.177999 -26.382999 110.38
22.360001 -26.455999 110.69
22.532 -26.516001 110.94
22.693001 -26.562 111.14
22.837999 -26.591 111.25
22.976 -26.610001 111.33
23.107 -26.621 111.38
23.204 -26.593 111.26
23.296 -26.559 111.12
23.381001 -26.518 110.95
23.476999 -26.49 110.83
23.577 -26.466 110.73
23.677 -26.443001 110.64
23.775 -26.419001 110.54
23.892 -26.414 110.52
23.981001 -26.379999 110.37
24.091999 -26.368999 110.33
24.190001 -26.344999 110.23
24.299999 -26.334 110.18
24.417 -26.330999 110.17
24.539 -26.333 110.18
24.662001 -26.336 110.19
24.785999 -26.34 110.21
24.909 -26.343 110.22
25.056999 -26.372 110.34
25.186001 -26.382 110.38
25.316999 -26.393 110.43
25.441999 -26.396999 110.44
25.570999 -26.406 110.48
25.698 -26.413 110.51
25.837999 -26.433001 110.59
26.011999 -26.487 110.82
26.176001 -26.531 111.01
26.33 -26.563999 111.14
26.476999 -26.59 111.25
26.627001 -26.618999 111.37
26.768999 -26.639 111.46
26.908001 -26.657 111.53
27.044001 -26.671 111.59
27.152 -26.657 111.53
27.250999 -26.635 111.44
27.344 -26.608 111.33
27.434 -26.577 111.2
27.497999 -26.521999 110.97
27.500999 -26.408001 110.49
27.527 -26.319 110.12
27.528 -26.205 109.64
-22.391001 -26.025 109.39
-22.277 -26.032 109.42
-22.163 -26.037001 109.44
-22.046 -26.041 109.45
-21.93 -26.045 109.47
-21.813 -26.047001 109.48
-21.693001 -26.047001 109.48
-21.570999 -26.042999 109.46
-21.447001 -26.037001 109.44
-21.320999 -26.028999 109.41
-21.200001 -26.027 109.4
-21.08 -26.025999 109.39
-20.964001 -26.031 109.41
-20.85 -26.037001 109.44
-20.739 -26.048 109.48
-20.625 -26.055 109.51
-20.507 -26.056 109.52
-20.385 -26.052999 109.5
-20.261 -26.047001 109.48
-20.132 -26.035 109.43
-20.003 -26.021999 109.37
-19.872999 -26.007999 109.31
-19.745001 -25.997 109.27
-19.620001 -25.988001 109.23
-19.499001 -25.985001 109.22
-19.382999 -25.99 109.24
-19.27 -25.997999 109.27
-19.157 -26.007 109.31
-19.044001 -26.014999 109.35
-18.929001 -26.021 109.37
-18.811001 -26.023001 109.38
-18.691 -26.021999 109.37
-18.57 -26.018999 109.36
-18.448 -26.014999 109.35
-18.326 -26.011 109.33
-18.205999 -26.011 109.33
-18.087999 -26.011999 109.33
-17.971001 -26.014999 109.35
-17.855 -26.02 109.37
-17.740999 -26.028 109.4
-17.627001 -26.035999 109.43
-17.513 -26.042999 109.46
-17.398001 -26.049 109.49
-17.282 -26.055 109.52
-17.164 -26.056 109.52
-17.044001 -26.056999 109.52
-16.924 -26.055 109.51
-16.804001 -26.054001 109.51
-16.683001 -26.052 109.5
-16.566999 -26.056999 109.52
-16.452999 -26.066 109.56
-16.339001 -26.075001 109.6
-16.226 -26.084 109.64
-16.111 -26.091999 109.67
-15.994 -26.097 109.69
-15.876 -26.1 109.7
-15.758 -26.101999 109.71
-15.64 -26.104 109.72
-15.517 -26.099001 109.7
-15.394 -26.093 109.67
-15.27 -26.086 109.65
-15.147 -26.079 109.62
-15.025 -26.075001 109.6
-14.905 -26.075001 109.6
-14.786 -26.075001 109.6
-14.667 -26.076 109.6
-14.548 -26.077 109.61
-14.43 -26.08 109.62
-14.314 -26.087 109.65
-14.2 -26.096001 109.69
-14.086 -26.108 109.73
-13.973 -26.120001 109.79
-13.86 -26.132 109.84
-13.747 -26.143999 109.89
-13.632 -26.155001 109.93
-13.518 -26.166 109.98
-13.404 -26.176001 110.02
-13.287 -26.183001 110.05
-13.17 -26.188999 110.08
-13.053 -26.194 110.1
-12.935 -26.198999 110.12
-12.819 -26.207001 110.15
-12.703 -26.215 110.19
-12.586 -26.223 110.22
-12.47 -26.231001 110.26
-12.353 -26.238001 110.28
-12.235 -26.243 110.3
-12.116 -26.246 110.32
-11.996 -26.247 110.32
-11.875 -26.245001 110.31
-11.752 -26.239 110.29
-11.628 -26.231001 110.25
-11.505 -26.223 110.22
-11.381 -26.215 110.18
-5.6950002 -18.992001 79.462997
-5.6911998 -18.893 79.408997
-5.5998998 -18.877001 79.343002
-5.5082002 -18.858999 79.267998
-5.4169998 -18.843 79.197998
-5.3248 -18.822001 79.111
-5.2322001 -18.799 79.014999
-5.1389999 -18.773001 78.906998
-5.0472999 -18.752001 78.819
-4.9565001 -18.733999 78.740997
-4.8664999 -18.718 78.675003
-4.7767 -18.702 78.608002
-4.6849999 -18.677999 78.508003
-4.5917001 -18.646999 78.376999
-4.4983001 -18.614 78.238998
-4.4039001 -18.576 78.078003
-4.3063002 -18.521999 77.851997
-4.2104001 -18.474001 77.648003
-4.1173 -18.436001 77.489998
-4.0242 -18.396999 77.324997
-3.9322 -18.361 77.174004
-3.8424001 -18.334 77.060997
-3.7542 -18.313999 76.974998
-3.6659 -18.291 76.882004
-3.5778999 -18.27 76.792999
-3.4902999 -18.25 76.708
-3.4033 -18.232 76.632004
-3.3167 -18.215 76.561996
-3.2311001 -18.204 76.512001
-3.1461999 -18.195 76.474998
-3.0618 -18.188999 76.450996
-2.9777999 -18.184999 76.434998
-2.8940001 -18.181999 76.422997
-2.8103001 -18.18 76.413002
-2.7265999 -18.177 76.402
-2.6429 -18.174 76.389
-2.5589001 -18.17 76.370003
-2.4749999 -18.165001 76.348999
-2.391 -18.159 76.323997
-2.3069999 -18.153 76.299004
-2.223 -18.146 76.272003
-2.1392 -18.141001 76.25
-2.0555999 -18.136999 76.232002
-1.9721 -18.134001 76.219002
-1.8888 -18.132 76.210999
-1.8058 -18.132999 76.214996
-1.723 -18.135 76.225998
-1.6403 -18.139999 76.245003
-1.5576 -18.145 76.267998
-1.475 -18.152 76.293999
-1.3923 -18.158001 76.320999
-1.3095 -18.164 76.348
-1.2266999 -18.171 76.374001
-1.1438 -18.177 76.400002
-1.0608 -18.183001 76.425003
-0.97780001 -18.188 76.446999
-0.89471 -18.193001 76.470001
-0.81158 -18.198999 76.494003
-0.72842002 -18.205 76.519997
-0.64521003 -18.211 76.545998
-0.56195998 -18.218 76.574997
-0.47867 -18.226 76.607002
-0.39535001 -18.236 76.647003
-0.31202 -18.25 76.708
-0.22864 -18.27 76.792999
-0.14508 -18.292 76.883003
-0.061324999 -18.315001 76.983002
0.022644 -18.341 77.089996
0.10685 -18.365999 77.195
0.19124 -18.388 77.287003
0.27583 -18.409 77.375
0.36052999 -18.426001 77.446999
0.44532999 -18.441 77.510002
0.53008002 -18.448999 77.544998
0.61492002 -18.458 77.580002
0.70006001 -18.472 77.641998
0.78582001 -18.497999 77.750999
0.87257999 -18.540001 77.928001
0.96054 -18.598 78.171997
1.0495 -18.665001 78.453003
1.1402 -18.749001 78.804001
1.2404 -18.966999 79.723
1.3367 -19.101 80.287003
1.4362 -19.261999 80.962997
1.5375 -19.427 81.654999
1.6418999 -19.610001 82.422997
1.823 -20.643999 86.768997
1.928 -20.754999 87.236
2.0313001 -20.839001 87.591003
2.1324 -20.893999 87.82
2.2296 -20.907 87.876999
2.322 -20.877001 87.75
2.4133999 -20.839001 87.591003
2.5041001 -20.799999 87.424004
2.5946 -20.761 87.262001
2.6845 -20.719999 87.091003
2.7742 -20.681999 86.928001
2.8642001 -20.646999 86.781998
2.9539001 -20.612 86.637001
3.0437 -20.580999 86.505997
3.1336999 -20.552999 86.386002
3.2237 -20.525999 86.274002
3.3136001 -20.5 86.166
3.4038999 -20.478001 86.073997
3.494 -20.455999 85.980003
3.5841 -20.434999 85.892998
3.6738 -20.413 85.801003
3.7639 -20.395 85.722
3.8534999 -20.374001 85.637001
3.9432001 -20.356001 85.557999
4.0331001 -20.337999 85.486
4.1227999 -20.320999 85.413002
4.2126999 -20.305 85.347
4.3032999 -20.294001 85.297997
4.3941002 -20.284 85.254997
4.4850998 -20.275 85.219002
4.5764999 -20.268 85.190002
4.6676998 -20.261 85.160004
4.7593999 -20.256001 85.138
4.8509002 -20.25 85.114998
4.9426999 -20.246 85.098
5.0344 -20.242001 85.079002
5.1258998 -20.237 85.058998
5.2175999 -20.233 85.042
5.3095002 -20.23 85.028999
5.4015999 -20.226999 85.018997
5.494 -20.226 85.014
5.5865998 -20.226 85.013
5.6794 -20.226 85.014
5.7722001 -20.226 85.014999
5.8650999 -20.226999 85.017998
5.9580002 -20.228001 85.022003
6.0510001 -20.229 85.027
6.1438999 -20.229 85.028
6.2367001 -20.23 85.028999
6.3291998 -20.229 85.027
6.4214001 -20.228001 85.021004
6.5132999 -20.225 85.009003
6.6047001 -20.221001 84.992996
6.6957002 -20.216 84.972
6.7863998 -20.211 84.947998
6.8769999 -20.204 84.921997
6.9671001 -20.197001 84.891998
7.0574002 -20.191 84.864998
7.1473999 -20.183001 84.834
7.2372999 -20.176001 84.805
7.3271999 -20.169001 84.775002
7.4175 -20.163 84.75
7.5078001 -20.158001 84.725998
7.5984998 -20.153 84.708
7.6894999 -20.15 84.693001
7.7811999 -20.148001 84.685997
7.8737001 -20.149 84.688004
7.9671998 -20.152 84.699997
8.0612001 -20.156 84.717003
8.1562004 -20.162001 84.745003
8.2518997 -20.17 84.778
8.3479996 -20.179001 84.816002
8.4442997 -20.188 84.853996
8.5405998 -20.197001 84.891998
8.6371002 -20.205999 84.93
8.7329998 -20.214001 84.962997
8.8288002 -20.221001 84.992996
8.9252996 -20.23 85.028999
9.0214005 -20.237 85.060997
9.1176004 -20.245001 85.094002
9.2139997 -20.253 85.126999
9.3102999 -20.261 85.158997
9.4068003 -20.268999 85.192001
9.5038996 -20.277 85.230003
9.6011 -20.285999 85.267998
9.6987 -20.296 85.307999
9.7962999 -20.306 85.348
9.8944998 -20.316 85.392998
9.9928999 -20.327 85.438004
10.092 -20.337999 85.485001
10.191 -20.35 85.535004
10.29 -20.362 85.586998
10.39 -20.375 85.638
10.489 -20.386 85.683998
10.588 -20.396 85.728996
10.687 -20.406 85.771004
10.785 -20.416 85.813004
10.884 -20.424999 85.849998
10.982 -20.434 85.886002
11.079 -20.441 85.917
11.177 -20.448 85.946999
11.274 -20.454 85.972
11.371 -20.459999 85.996002
11.467 -20.464001 86.015999
11.564 -20.469999 86.038002
11.661 -20.475 86.058998
11.759 -20.482 86.089996
11.857 -20.49 86.123001
11.958 -20.502001 86.175003
12.062 -20.518999 86.246002
12.17 -20.542 86.339996
12.28 -20.569 86.455002
12.395 -20.603001 86.597
12.513 -20.643 86.764
12.638 -20.693001 86.974998
12.774 -20.759001 87.253998
12.922 -20.844 87.611
13.075 -20.936001 87.998001
13.239 -21.044001 88.453003
13.446 -21.219 89.188004
13.662 -21.405001 89.969002
13.885 -21.6 90.788002
14.168 -21.882999 91.978996
16.497999 -25.242001 105.61
16.301001 -24.826 104.35
16.563999 -25.052 105.3
26.709999 -25.311001 106.38
26.749001 -25.237 106.08
26.919001 -25.514 106.75
26.788 -25.165001 105.77
-22.392 -25.907 109.39
-22.278 -25.914 109.42
-22.164 -25.92 109.45
-22.047001 -25.923 109.46
-21.931 -25.926001 109.47
-21.813999 -25.929001 109.48
-21.694 -25.929001 109.48
-21.572001 -25.924999 109.47
-21.447001 -25.917999 109.44
-21.320999 -25.91 109.41
-21.198999 -25.907 109.39
-21.079 -25.906 109.39
-20.962 -25.909 109.4
-20.847 -25.915001 109.43
-20.735001 -25.923 109.46
-20.621 -25.929001 109.49
-20.502001 -25.931 109.49
-20.379999 -25.927 109.48
-20.257 -25.922001 109.46
-20.129999 -25.912001 109.41
-20.000999 -25.9 109.36
-19.872 -25.888 109.31
-19.746 -25.878 109.27
-19.621 -25.871 109.24
-19.5 -25.868999 109.23
-19.385 -25.874001 109.25
-19.273001 -25.882999 109.29
-19.16 -25.892 109.33
-19.047001 -25.9 109.36
-18.931999 -25.906 109.39
-18.813999 -25.908001 109.4
-18.694 -25.906 109.39
-18.572001 -25.903 109.38
-18.450001 -25.899 109.36
-18.327 -25.893999 109.34
-18.207001 -25.893 109.33
-18.087999 -25.893 109.33
-17.969999 -25.895 109.34
-17.854 -25.899 109.36
-17.74 -25.907 109.39
-17.625 -25.914 109.42
-17.511 -25.921 109.45
-17.396 -25.927 109.48
-17.281 -25.933001 109.5
-17.162001 -25.934999 109.51
-17.042999 -25.936001 109.51
-16.924 -25.934999 109.51
-16.804001 -25.934999 109.51
-16.684 -25.934 109.51
-16.569 -25.940001 109.53
-16.455 -25.948999 109.57
-16.341999 -25.959999 109.62
-16.229 -25.969999 109.66
-16.115 -25.979 109.7
-15.997 -25.982 109.71
-15.879 -25.985001 109.72
-15.76 -25.986 109.73
-15.642 -25.988001 109.73
-15.518 -25.981001 109.71
-15.394 -25.974001 109.68
-15.27 -25.966 109.64
-15.146 -25.958 109.61
-15.023 -25.952999 109.59
-14.903 -25.952 109.58
-14.784 -25.952999 109.59
-14.666 -25.954 109.59
-14.547 -25.955999 109.6
-14.429 -25.959 109.61
-14.314 -25.966999 109.64
-14.2 -25.976999 109.69
-14.086 -25.988001 109.74
-13.974 -26.000999 109.79
-13.861 -26.014 109.84
-13.747 -26.025 109.89
-13.633 -26.035 109.93
-13.519 -26.047001 109.98
-13.404 -26.056999 110.03
-13.288 -26.065001 110.06
-13.171 -26.07 110.08
-13.053 -26.075001 110.1
-12.936 -26.080999 110.13
-12.819 -26.087999 110.16
-12.703 -26.096001 110.19
-12.587 -26.104 110.22
-12.47 -26.112 110.26
-12.353 -26.118 110.28
-12.235 -26.122999 110.31
-12.117 -26.125999 110.32
-11.997 -26.127001 110.32
-11.876 -26.125999 110.32
-11.754 -26.122999 110.31
-11.632 -26.118999 110.29
-11.511 -26.117001 110.28
-5.6884999 -18.797001 79.371002
-5.5977001 -18.783001 79.310997
-5.5061998 -18.766001 79.238998
-5.4151001 -18.75 79.169998
-5.3228998 -18.729 79.083
-5.2301998 -18.705999 78.985001
-5.1377001 -18.681999 78.887001
-5.0464001 -18.663 78.805
-4.9559002 -18.646 78.732002
-4.8663001 -18.631001 78.670998
-4.7761002 -18.614 78.598999
-4.6841998 -18.589001 78.494003
-4.5907998 -18.558001 78.361
-4.4973001 -18.525 78.221001
-4.4028001 -18.486 78.056999
-4.3031998 -18.424 77.795998
-4.2090001 -18.382999 77.623001
-4.1159 -18.344999 77.462997
-4.0226998 -18.305 77.294998
-3.9309001 -18.27 77.147003
-3.8412001 -18.243999 77.036003
-3.753 -18.224001 76.949997
-3.6645 -18.201 76.852997
-3.5764999 -18.18 76.764
-3.4890001 -18.16 76.679001
-3.402 -18.141001 76.602997
-3.3155 -18.125 76.535004
-3.2300999 -18.114 76.488998
-3.1454 -18.107 76.456001
-3.0611 -18.101 76.432999
-2.9770999 -18.098 76.417999
-2.8934 -18.094999 76.405998
-2.8097 -18.093 76.396004
-2.7260001 -18.09 76.384003
-2.6422 -18.086 76.371002
-2.5583 -18.082001 76.351997
-2.4744 -18.077 76.331001
-2.3903999 -18.070999 76.306
-2.3065 -18.065001 76.281998
-2.2226 -18.059999 76.257004
-2.1387999 -18.054001 76.235001
-2.0552001 -18.049999 76.217003
-1.9718 -18.047001 76.205002
-1.8885 -18.046 76.197998
-1.8055 -18.046 76.200996
-1.7226 -18.049 76.210999
-1.6399 -18.052999 76.228996
-1.5573 -18.059 76.252998
-1.4747 -18.065001 76.278
-1.392 -18.070999 76.306
-1.3092999 -18.077999 76.334
-1.2265 -18.084 76.361
-1.1436 -18.091 76.388
-1.0607001 -18.096001 76.413002
-0.97763002 -18.101999 76.433998
-0.89453 -18.106001 76.455002
-0.81138003 -18.111 76.474998
-0.72820997 -18.115999 76.497002
-0.64498001 -18.122 76.518997
-0.56173998 -18.128 76.543999
-0.47845 -18.134001 76.571999
-0.39513999 -18.143 76.608002
-0.31185001 -18.157 76.667
-0.22849999 -18.176001 76.747002
-0.14499 -18.197001 76.835999
-0.061283 -18.219 76.929001
0.022628 -18.243 77.032997
0.10676 -18.268 77.137001
0.19109 -18.289 77.226997
0.27561 -18.309999 77.313004
0.36024001 -18.327 77.385002
0.44495001 -18.341 77.444
0.52964997 -18.35 77.482002
0.61440998 -18.358 77.516998
0.69936001 -18.368999 77.564003
0.78485 -18.391001 77.654999
0.87124997 -18.427 77.808998
0.95881999 -18.48 78.030998
1.0475 -18.542999 78.299004
1.1374 -18.617001 78.612
1.238 -18.844 79.570999
1.3348 -18.987 80.174004
1.4332 -19.132999 80.791
1.5347 -19.302 81.502998
1.6388 -19.483 82.267998
1.8175 -20.486 86.504997
1.9233 -20.608999 87.023003
2.0269001 -20.698999 87.402
2.1293001 -20.768 87.692001
2.2277 -20.794001 87.803001
2.3206 -20.768 87.695
2.4122 -20.733999 87.549004
2.5030999 -20.695999 87.390999
2.5938001 -20.659 87.234001
2.6838 -20.620001 87.069
2.7736001 -20.582001 86.910004
2.8636999 -20.549 86.766998
2.9533999 -20.514999 86.624001
3.0432999 -20.483999 86.495003
3.1333001 -20.455999 86.375
3.2233 -20.429001 86.263
3.3132 -20.403999 86.154999
3.4035001 -20.382 86.063004
3.4935 -20.358999 85.968002
3.5836 -20.339001 85.880997
3.6733 -20.316999 85.790001
3.7634001 -20.299 85.711998
3.8531001 -20.278999 85.626999
3.9428 -20.26 85.549004
4.0328002 -20.243 85.478996
4.1224999 -20.226 85.406998
4.2125001 -20.211 85.343002
4.3031001 -20.200001 85.295998
4.3940001 -20.190001 85.254997
4.4850998 -20.181999 85.219002
4.5764999 -20.174999 85.190002
4.6677999 -20.167999 85.162003
4.7595 -20.164 85.140999
4.8511 -20.158001 85.119003
4.9429998 -20.155001 85.102997
5.0348001 -20.150999 85.086998
5.1265001 -20.146 85.069
5.2182999 -20.143 85.054001
5.3104 -20.139999 85.042999
5.4025998 -20.138 85.035004
5.4951 -20.138 85.031998
5.5879998 -20.138 85.033997
5.6809001 -20.139 85.037003
5.7737999 -20.139999 85.040001
5.8669 -20.141001 85.044998
5.96 -20.142 85.050003
6.0531001 -20.143 85.056
6.1461 -20.143999 85.057999
6.2389998 -20.145 85.060997
6.3316998 -20.145 85.060997
6.4240999 -20.143 85.056
6.5160999 -20.141001 85.045998
6.6076999 -20.138 85.031998
6.6989002 -20.132999 85.012001
6.7895999 -20.127001 84.987999
6.8801999 -20.121 84.962997
6.9703999 -20.114 84.931999
7.0605998 -20.107 84.903999
7.1504002 -20.099001 84.870003
7.2400999 -20.091999 84.837997
7.3295999 -20.083 84.803001
7.4194999 -20.076 84.773003
7.5095 -20.07 84.746002
7.5998001 -20.063999 84.723
7.6904001 -20.059999 84.703003
7.7818999 -20.058001 84.693001
7.8741002 -20.056999 84.692001
7.9672999 -20.059 84.700996
8.0611 -20.063 84.716003
8.1561003 -20.069 84.742996
8.2517996 -20.077 84.777
8.3479996 -20.087 84.816002
8.4443998 -20.096001 84.855003
8.5410995 -20.106001 84.897003
8.6378002 -20.115 84.936996
8.7340002 -20.124001 84.972
8.8302002 -20.132 85.005997
8.9268999 -20.141001 85.044998
9.0233002 -20.149 85.079002
9.1197004 -20.157 85.113998
9.2161999 -20.165001 85.147003
9.3128004 -20.173 85.181
9.4095001 -20.181 85.216003
9.5068998 -20.191 85.255997
9.6046 -20.201 85.299004
9.7025003 -20.211 85.341003
9.8007002 -20.222 85.387001
9.8992004 -20.233 85.432999
9.9980001 -20.243999 85.482002
10.097 -20.256001 85.531998
10.197 -20.268 85.584
10.296 -20.281 85.637001
10.395 -20.292 85.682999
10.494 -20.302 85.726997
10.593 -20.312 85.767998
10.691 -20.320999 85.806
10.789 -20.33 85.844002
10.887 -20.337999 85.877998
10.985 -20.346001 85.910004
11.082 -20.351999 85.938004
11.179 -20.358 85.963997
11.276 -20.364 85.987999
11.373 -20.368999 86.009003
11.469 -20.372999 86.027
11.565 -20.378 86.047997
11.662 -20.382999 86.066002
11.759 -20.389 86.095001
11.858 -20.396999 86.126999
11.958 -20.409 86.176003
12.062 -20.424999 86.247002
12.17 -20.448 86.339996
12.28 -20.475 86.455002
12.395 -20.507999 86.597
12.513 -20.548 86.764
12.638 -20.597 86.973
12.772 -20.660999 87.239998
12.919 -20.743 87.589996
13.071 -20.833 87.970001
13.233 -20.938999 88.417
13.406 -21.059 88.921997
13.65 -21.288 89.889
13.874 -21.483 90.712997
14.145 -21.747 91.829002
15.991 -24.525999 103.09
15.896 -24.268 102.47
16.18 -24.528999 103.57
16.431 -24.737 104.45
16.658001 -24.907 105.17
16.799999 -25.233999 106.06
16.854 -25.027 105.68
16.983 -25.334999 106.49
16.986 -25.052 105.78
17.108 -25.348 106.54
17.115 -25.072001 105.87
17.240999 -25.372999 106.64
17.233999 -25.077 105.89
17.358999 -25.375 106.65
17.356001 -25.087 105.93
17.479 -25.379999 106.68
17.474001 -25.09 105.94
17.596001 -25.382 106.69
17.6 -25.105 106
17.721001 -25.395 106.74
17.723 -25.115999 106.05
17.846001 -25.406 106.79
17.84 -25.118 106.06
17.964001 -25.409 106.8
17.955999 -25.117001 106.06
18.080999 -25.41 106.8
18.070999 -25.117001 106.06
18.198 -25.41 106.8
18.309 -25.402 106.77
18.181999 -25.111 106.03
18.295 -25.107 106.01
18.423 -25.399 106.75
18.408001 -25.104 106
18.537001 -25.396 106.74
18.523001 -25.103001 106
18.652 -25.393999 106.73
18.636 -25.099001 105.98
18.767 -25.392 106.73
18.754999 -25.104 106
18.886999 -25.396999 106.75
19 -25.392 106.73
18.867001 -25.099001 105.98
18.983 -25.1 105.99
19.115 -25.391001 106.72
19.101999 -25.104 106
19.23 -25.389999 106.72
19.216999 -25.104 106
19.344999 -25.386999 106.71
19.330999 -25.101999 105.99
19.459 -25.384001 106.69
19.570999 -25.379 106.67
19.440001 -25.093 105.96
19.683001 -25.372999 106.65
19.548 -25.083 105.91
19.773001 -25.339001 106.5
19.639 -25.052 105.78
19.870001 -25.315001 106.4
19.731001 -25.023001 105.66
19.968 -25.292 106.31
19.827 -24.997999 105.56
20.056 -25.257 106.16
19.916 -24.965 105.42
20.149 -25.228001 106.04
19.992001 -24.917999 105.22
20.240999 -25.198999 105.91
20.062 -24.861 104.98
20.312 -25.143 105.68
