# .PCD v0.7 - Point Cloud Data file format
VERSION 0.7
FIELDS x y z
SIZE 4 4 4
TYPE F F F
COUNT 1 1 1
WIDTH 1722
HEIGHT 1
VIEWPOINT 0 0 0 1 0 0 0
POINTS 1722
DATA ascii
77.570999 -1.4045 22.826
77.621002 -1.3299 22.812
77.683998 -1.2557 22.802
77.758003 -1.1815 22.795
77.834999 -1.1073999 22.789
77.929001 -1.0335 22.789
78.032997 -0.95959997 22.790001
78.153999 -0.88589001 22.797001
78.283997 -0.81213999 22.806
78.424004 -0.73833001 22.818001
78.560997 -0.66425002 22.829
78.699997 -0.58996999 22.841
78.833 -0.51541001 22.85
78.968002 -0.44064999 22.861
79.097 -0.36561999 22.868999
79.233002 -0.29043999 22.879
79.351997 -0.21491 22.885
79.462997 -0.13912 22.888
79.568001 -0.063138999 22.889
79.669998 0.013016 22.889999
79.761002 0.089372002 22.886999
79.845001 0.16587 22.882
79.921997 0.24251001 22.875
79.992996 0.31924999 22.867001
80.056 0.39607999 22.856001
80.122002 0.47297999 22.846001
80.194 0.54996002 22.837999
80.271004 0.62704998 22.830999
80.362 0.70428002 22.827999
80.469002 0.78170002 22.829
80.587997 0.85935003 22.834
80.718002 0.93725997 22.841999
80.811996 1.0151 22.839001
80.908997 1.0931 22.837
80.989998 1.1711 22.830999
81.072998 1.2492 22.825001
81.152 1.3273 22.819
81.236 1.4056 22.813
81.414001 1.3791 22.778999
80.730003 -6.8783998 25.84
80.700996 -6.7926998 25.799999
80.663002 -6.7062998 25.757
80.614998 -6.6192002 25.711
80.556 -6.5311999 25.662001
80.468002 -6.4408998 25.603001
80.362 -6.3491998 25.540001
80.245003 -6.2568998 25.472
80.125999 -6.1645999 25.403999
80.007004 -6.0728002 25.337
79.901001 -5.9822001 25.273001
79.786003 -5.8913002 25.207001
79.681999 -5.8016 25.143999
79.580002 -5.7122998 25.082001
79.481003 -5.6234999 25.021999
79.378998 -5.5348001 24.959999
79.294998 -5.4475999 24.903999
79.220001 -5.3614998 24.851
79.147003 -5.2756 24.798
79.081001 -5.1905999 24.747999
79.018997 -5.1059999 24.698999
78.966003 -5.0222998 24.653
78.919998 -4.9391999 24.608999
78.889999 -4.8573999 24.570999
78.866997 -4.7761998 24.534
78.856003 -4.6959 24.500999
78.858002 -4.6166 24.472
78.888 -4.5391002 24.452
78.93 -4.4625001 24.434999
78.996002 -4.3873 24.426001
79.074997 -4.3127999 24.421
79.172997 -4.2395 24.421
79.281998 -4.1666002 24.424999
79.401001 -4.0941 24.431
79.523003 -4.0216999 24.438999
79.639999 -3.9487 24.445
79.746002 -3.875 24.447001
79.822998 -3.7995 24.441
79.888 -3.7233 24.431
79.952003 -3.6468999 24.421
80.008003 -3.5699999 24.408001
77.508003 -2.9777 23.483
77.466003 -2.8989999 23.441999
77.490997 -2.8234 23.421
77.512001 -2.7476001 23.398001
77.522003 -2.6712999 23.372999
77.519997 -2.5946 23.344
77.521004 -2.5181 23.316
77.518997 -2.4414999 23.287001
77.514 -2.3648 23.257
77.502998 -2.2880001 23.225
77.487999 -2.2111001 23.191999
77.466003 -2.1342001 23.158001
77.447998 -2.0574 23.124001
77.433998 -1.9808 23.091999
77.427002 -1.9046 23.061001
77.424004 -1.8285 23.032
77.427002 -1.7527 23.004999
77.432999 -1.677 22.979
77.445999 -1.6016001 22.955
77.467003 -1.5263 22.931999
77.497002 -1.4514 22.913
77.538002 -1.3767 22.896999
77.589996 -1.3022 22.884001
77.655998 -1.228 22.875
77.732002 -1.1539 22.868999
77.811996 -1.0798 22.864
77.906998 -1.0059 22.863001
78.009003 -0.93195999 22.865
78.126999 -0.85816002 22.871
78.25 -0.78425997 22.878
78.380997 -0.71029001 22.886999
78.509003 -0.63606 22.896
78.639 -0.56167001 22.905001
78.764999 -0.48701 22.913
78.890999 -0.41216999 22.921
79.018997 -0.33713001 22.929001
79.152 -0.26196 22.938999
79.279999 -0.18652 22.947001
79.398003 -0.11081 22.952
79.515999 -0.03492 22.957001
79.626999 0.041184001 22.959999
79.724998 0.11751 22.959
79.816002 0.19400001 22.955999
79.897003 0.27063 22.951
79.972 0.34738001 22.944
80.032997 0.42422 22.931999
80.096001 0.50112998 22.921
80.162003 0.57810998 22.912001
80.232002 0.65518999 22.903
80.308998 0.73237002 22.896
80.403999 0.80972999 22.893999
80.508003 0.88727999 22.893999
80.622002 0.96504998 22.898001
80.716003 1.0427999 22.895
80.808998 1.1207 22.893
80.885002 1.1986001 22.885
80.957001 1.2765 22.875999
81.027 1.3545001 22.867001
81.099998 1.4326 22.858999
80.713997 -6.8495998 25.922001
80.689003 -6.7642002 25.882999
80.653 -6.6781001 25.841
80.600998 -6.5906 25.794001
80.535004 -6.5019999 25.742001
80.439003 -6.4109998 25.681
80.32 -6.3182998 25.613001
80.195999 -6.2254 25.542999
80.067001 -6.1324 25.472
79.940002 -6.0398998 25.400999
79.810997 -5.9475999 25.330999
79.702003 -5.8572998 25.266001
79.592003 -5.7670999 25.201
79.486 -5.6775999 25.138
79.383003 -5.5886998 25.076
79.288002 -5.5005999 25.016001
79.210999 -5.4141998 24.962999
79.147003 -5.3288999 24.913
79.079002 -5.2435999 24.862
79.024002 -5.1594 24.815001
78.972 -5.0756001 24.768999
78.927002 -4.9924998 24.725
78.888 -4.9099998 24.684
78.863998 -4.8285999 24.646999
78.845001 -4.7477002 24.611
78.838997 -4.6677999 24.58
78.846001 -4.5888 24.552
78.882004 -4.5117002 24.534
78.929001 -4.4352999 24.518999
78.997002 -4.3603001 24.51
79.080002 -4.2859998 24.506001
79.181999 -4.2128 24.507999
79.291 -4.1399002 24.511
79.413002 -4.0675998 24.518999
79.538002 -3.9951999 24.528
79.654999 -3.9222 24.534
79.761002 -3.8484001 24.535999
79.837997 -3.7729001 24.530001
79.905998 -3.6967001 24.521
79.973 -3.6205001 24.511999
80.032997 -3.5437 24.5
77.448997 -2.9482999 23.547001
77.435997 -2.8710001 23.514
77.458 -2.7952001 23.492001
77.477997 -2.7193 23.469999
77.483002 -2.6429 23.443001
77.482002 -2.5662 23.414
77.483002 -2.4897001 23.386
77.484001 -2.4133 23.358
77.484001 -2.3369 23.33
77.480003 -2.2602999 23.299999
77.469002 -2.1835999 23.268
77.452003 -2.1068001 23.235001
77.434998 -2.0301001 23.202
77.421997 -1.9536 23.169001
77.412003 -1.8772 23.138
77.405998 -1.8011 23.108
77.404999 -1.7252001 23.08
77.404999 -1.6493 23.052
77.415001 -1.5738 23.025999
77.432999 -1.4985 23.003
77.460999 -1.4234999 22.983
77.502998 -1.3487999 22.968
77.558998 -1.2745 22.955999
77.627998 -1.2003 22.948
77.706001 -1.1263 22.941999
77.791 -1.0522 22.938999
77.885002 -0.97829998 22.938
77.987 -0.90434998 22.940001
78.098999 -0.83042002 22.944
78.217003 -0.75639999 22.950001
78.337997 -0.68225998 22.955999
78.457001 -0.60790002 22.962999
78.578003 -0.53337997 22.969
78.695 -0.45862001 22.974001
78.816002 -0.38374001 22.981001
78.938004 -0.30867001 22.988001
79.073997 -0.23354 22.997999
79.203003 -0.15813001 23.007
79.333 -0.082524002 23.014999
79.456001 -0.0066799 23.021999
79.580002 0.069356002 23.028999
79.684998 0.14565 23.030001
79.783997 0.22212 23.030001
79.871002 0.29875001 23.025999
79.949997 0.37549999 23.02
80.012001 0.45236 23.009001
80.073997 0.52928001 22.997999
80.135002 0.60627002 22.987
80.200996 0.68333 22.976999
80.271004 0.76049 22.968
80.353996 0.83780003 22.962999
80.445999 0.91527998 22.959999
80.547997 0.99295002 22.959999
80.640999 1.0707 22.957001
80.734001 1.1486 22.955
80.804001 1.2263 22.945999
80.872002 1.3042001 22.936001
80.935997 1.382 22.924999
80.999001 1.46 22.914
80.723 -6.9334998 25.955999
80.68 -6.902 26.028999
80.677002 -6.8186998 25.997
80.653999 -6.7336998 25.959
80.616997 -6.6473999 25.916
80.561996 -6.5597 25.868
80.488998 -6.4705 25.813999
80.378998 -6.3783998 25.747999
80.254997 -6.2852998 25.679001
80.123001 -6.1918001 25.606001
79.984001 -6.0981002 25.532
79.848999 -6.0050998 25.459
79.716003 -5.9126 25.386999
79.596001 -5.8214002 25.318001
79.484001 -5.7314 25.253
79.377998 -5.6420002 25.190001
79.278999 -5.5535002 25.129
79.198997 -5.4667001 25.073999
79.136002 -5.3814001 25.024
79.081001 -5.2968998 24.976999
79.023003 -5.2124 24.929001
78.975998 -5.1289001 24.884001
78.931 -5.0457001 24.841
78.894997 -4.9633002 24.799999
78.862 -4.8811998 24.76
78.843002 -4.8002 24.724001
78.828003 -4.7195001 24.690001
78.825996 -4.6399002 24.659
78.837997 -4.5612001 24.634001
78.876999 -4.4843998 24.615999
78.929001 -4.4081998 24.603001
79 -4.3333001 24.594999
79.084 -4.2591 24.591
79.188004 -4.1859999 24.594
79.297997 -4.1131001 24.598
79.422997 -4.0409002 24.607
79.550003 -3.9684999 24.615999
79.667 -3.8954999 24.622
79.773003 -3.8216 24.625
79.849998 -3.7460001 24.618
79.921997 -3.6700001 24.610001
79.991997 -3.5939 24.601999
80.057999 -3.5174 24.591999
77.390999 -2.9189 23.611
77.405998 -2.8429 23.587
77.425003 -2.767 23.563999
77.442001 -2.691 23.541
77.445 -2.6145 23.513
77.442001 -2.5378001 23.483999
77.444 -2.4614 23.455999
77.448997 -2.3850999 23.429001
77.456001 -2.309 23.402
77.456001 -2.2326 23.374001
77.452003 -2.1561999 23.344
77.440002 -2.0796001 23.313
77.427002 -2.0028999 23.280001
77.413002 -1.9263999 23.247999
77.401001 -1.85 23.216
77.390999 -1.7738 23.184999
77.386002 -1.6977 23.155001
77.379997 -1.6217 23.125
77.384003 -1.546 23.098
77.397003 -1.4707 23.073999
77.424004 -1.3956 23.054001
77.468002 -1.321 23.038
77.528 -1.2467 23.028
77.599998 -1.1726 23.021
77.681999 -1.0987 23.016001
77.769997 -1.0247 23.014
77.864998 -0.95073003 23.013
77.963997 -0.87671 23.014
78.070999 -0.80267 23.017
78.181999 -0.72852999 23.021
78.294998 -0.65425003 23.025
78.404999 -0.57976002 23.028999
78.514 -0.50507998 23.032
78.624001 -0.43026999 23.035999
78.739998 -0.35534 23.041
78.857002 -0.28025001 23.046
78.992996 -0.20513 23.056999
79.125 -0.12977999 23.066999
79.254997 -0.054195002 23.075001
79.390999 0.021562001 23.086
79.526001 0.097537003 23.096001
79.640999 0.17378999 23.1
79.747002 0.25024 23.101999
79.842003 0.32686999 23.101
79.927002 0.40362999 23.096001
79.991997 0.48050001 23.086
80.053001 0.55743003 23.075001
80.112 0.63441998 23.063
80.172997 0.71148002 23.052
80.237999 0.78863001 23.041
80.315002 0.86592001 23.035
80.396004 0.94332999 23.028999
80.487999 1.0209 23.025999
80.579002 1.0986 23.023001
80.672997 1.1765 23.021
80.742996 1.2542 23.011999
80.807999 1.332 23.000999
80.870003 1.4098001 22.99
80.93 1.4877 22.978001
80.676003 -6.9847002 26.058001
80.612 -6.9513001 26.125
80.622002 -6.8692002 26.098
80.621002 -6.7862 26.066
80.598 -6.7012 26.028
80.558998 -6.6146998 25.985001
80.495003 -6.5263 25.933001
80.413002 -6.4365001 25.877001
80.295998 -6.3436999 25.808001
80.161003 -6.2498999 25.735001
80.019997 -6.1557999 25.66
79.875999 -6.0616999 25.583
79.726997 -5.9677 25.506001
79.598999 -5.8758001 25.434999
79.478996 -5.7848001 25.367001
79.366997 -5.6949 25.301001
79.268997 -5.6062999 25.24
79.185997 -5.5191998 25.184
79.120003 -5.4334998 25.132999
79.067001 -5.3491001 25.087
79.018997 -5.2652998 25.042
78.971001 -5.1816001 24.997
78.932999 -5.0988002 24.955
78.897003 -5.0162001 24.914
78.867996 -4.9344001 24.875999
78.841003 -4.8527002 24.837
78.825996 -4.7719998 24.802999
78.814003 -4.6915998 24.77
78.817001 -4.6122999 24.740999
78.833 -4.5338998 24.716
78.875999 -4.4572001 24.700001
78.931 -4.3813 24.688
79.003998 -4.3063998 24.68
79.089996 -4.2322998 24.677
79.195999 -4.1592002 24.68
79.306999 -4.0862999 24.684999
79.433998 -4.0141001 24.694
79.558998 -3.9417 24.702999
79.678001 -3.8687 24.709999
79.783997 -3.7946999 24.712999
79.862 -3.7191 24.707001
79.933998 -3.6431 24.698999
80.007004 -3.5669999 24.691
80.074997 -3.4906001 24.681999
77.367996 -2.8912001 23.686001
77.380997 -2.8150001 23.660999
77.397003 -2.7390001 23.636999
77.411003 -2.6630001 23.613001
77.411003 -2.5862999 23.584
77.406998 -2.5095999 23.555
77.410004 -2.4333 23.527
77.419998 -2.3571999 23.500999
77.431999 -2.2813001 23.476999
77.440002 -2.2052 23.450001
77.442001 -2.1289999 23.423
77.433998 -2.0525 23.392
77.425003 -1.976 23.361
77.411003 -1.8995 23.329
77.398003 -1.823 23.296
77.383003 -1.7466 23.264
77.367996 -1.6703 23.231001
77.355003 -1.5941 23.198999
77.351997 -1.5183001 23.17
77.361 -1.4428 23.143999
77.388 -1.3678 23.124001
77.433998 -1.2933 23.108999
77.499001 -1.2191 23.1
77.574997 -1.1451 23.094
77.661003 -1.0712 23.091
77.751999 -0.99721998 23.09
77.848 -0.92325002 23.09
77.945 -0.84915 23.09
78.044998 -0.77495998 23.091
78.147003 -0.70067 23.091999
78.25 -0.62621999 23.094
78.346001 -0.55154997 23.093
78.447998 -0.47681001 23.094999
78.552002 -0.40193 23.096001
78.658997 -0.32692999 23.099001
78.774002 -0.25185001 23.104
78.906998 -0.17674001 23.114
79.043999 -0.10144 23.125
79.181 -0.025929 23.136
79.322998 0.049784999 23.149
79.469002 0.12571 23.162001
79.592003 0.20193 23.169001
79.709 0.27836001 23.174
79.811996 0.35499001 23.174999
79.904999 0.43176001 23.173
79.975998 0.50863999 23.164
80.039001 0.58560002 23.153999
80.095001 0.66259998 23.141001
80.153999 0.73966002 23.129
80.217003 0.81682003 23.118
80.289001 0.89409 23.110001
80.363998 0.97147 23.103001
80.447998 1.049 23.098
80.529999 1.1267 23.091999
80.615997 1.2043999 23.087999
80.684998 1.2822 23.079
80.749001 1.3599 23.068001
80.808998 1.4376 23.056
80.864998 1.5154001 23.042999
80.916 1.5931 23.028999
80.539001 -6.9169998 26.188999
80.549004 -6.835 26.160999
80.543999 -6.7516999 26.129
80.516998 -6.6664 26.089001
80.473999 -6.5797 26.045
80.403 -6.4906998 25.990999
80.302002 -6.3994002 25.927999
80.174004 -6.3058 25.856001
80.044998 -6.2125001 25.784
79.897003 -6.118 25.707001
79.742996 -6.0233998 25.627001
79.598999 -5.9299002 25.551001
79.474998 -5.8385 25.481001
79.356003 -5.7477999 25.413
79.252998 -5.6587 25.35
79.171997 -5.5716 25.295
79.102997 -5.4857001 25.243
79.049004 -5.4011002 25.195999
79.004997 -5.3174 25.152
78.967003 -5.2343998 25.110001
78.929001 -5.1515002 25.068001
78.900002 -5.0693998 25.028999
78.871002 -4.9874001 24.99
78.848 -4.9059 24.952999
78.823997 -4.8245001 24.916
78.813004 -4.7441001 24.882999
78.805 -4.664 24.851
78.810997 -4.5848999 24.823
78.832001 -4.5067 24.799999
78.877998 -4.4303002 24.785
78.935997 -4.3544998 24.773001
79.012001 -4.2797999 24.767
79.100998 -4.2058001 24.764999
79.207001 -4.1327 24.768
79.317001 -4.0595999 24.771999
79.445999 -3.9875 24.783001
79.569 -3.9149001 24.791
79.690002 -3.8419001 24.798
79.793999 -3.7678001 24.801001
79.874001 -3.6921999 24.795
79.945999 -3.6161001 24.787001
80.019997 -3.5401001 24.780001
80.089996 -3.4638 24.771999
77.397003 -2.9693 23.723
77.334999 -2.9396999 23.785999
77.345001 -2.8634 23.76
77.356003 -2.7872 23.735001
77.370003 -2.7111001 23.711
77.382004 -2.635 23.686001
77.378998 -2.5583 23.656
77.376999 -2.4816 23.627001
77.380997 -2.4052999 23.6
77.394997 -2.3295 23.576
77.412003 -2.2537 23.552
77.425003 -2.1777999 23.527
77.431999 -2.1018 23.500999
77.429001 -2.0253999 23.472
77.422997 -1.949 23.441999
77.408997 -1.8724999 23.409
77.391998 -1.7959 23.375
77.370003 -1.7193 23.341
77.348 -1.6428 23.306
77.327003 -1.5664001 23.271
77.319 -1.4905 23.240999
77.324997 -1.415 23.214001
77.353996 -1.34 23.195
77.404999 -1.2656 23.181
77.474998 -1.1914999 23.174
77.557999 -1.1176 23.17
77.652 -1.0439 23.17
77.746002 -0.96995002 23.169001
77.845001 -0.89599001 23.17
77.936996 -0.82178003 23.169001
78.029999 -0.74743998 23.167999
78.121002 -0.67294002 23.166
78.209 -0.59828001 23.163
78.296997 -0.52349001 23.160999
78.388 -0.44861999 23.159
78.481003 -0.37364 23.158001
78.584 -0.29863 23.159
78.693001 -0.22352 23.162001
78.820999 -0.14839 23.171
78.959999 -0.073132001 23.183001
79.105003 0.0023155999 23.195999
79.247002 0.078008004 23.209
79.406998 0.15387 23.226999
79.541 0.23006 23.237
79.667 0.30647999 23.243999
79.778 0.3831 23.247999
79.879997 0.45989001 23.247999
79.959 0.53679001 23.242001
80.026001 0.61377001 23.233
80.082001 0.69079 23.219999
80.139 0.76787001 23.208
80.198997 0.84502 23.195999
80.266998 0.92229003 23.187
80.337997 0.99965 23.177999
80.416 1.0772001 23.172001
80.492996 1.1548001 23.165001
80.572998 1.2325 23.159
80.643997 1.3102 23.15
80.709 1.388 23.139999
80.768997 1.4657 23.128
80.827003 1.5434999 23.115999
80.876999 1.6212 23.101
80.490997 -7.0784001 26.235001
80.442001 -6.9635 26.275999
80.516998 -6.9979 26.212999
80.461998 -6.8824 26.250999
80.466003 -6.8000002 26.222
80.456001 -6.7161999 26.187
80.424004 -6.6304998 26.146
80.374001 -6.5433002 26.099001
80.292 -6.4534998 26.042
80.179001 -6.3611999 25.975
80.044998 -6.2673998 25.900999
79.907997 -6.1735001 25.827
79.747002 -6.0781002 25.745001
79.595001 -5.9837999 25.666
79.463997 -5.8916001 25.593
79.338997 -5.8003001 25.523001
79.232002 -5.7108002 25.459
79.147003 -5.6231999 25.402
79.080002 -5.5373001 25.351
79.025002 -5.4526 25.302999
78.985001 -5.3692002 25.26
78.950996 -5.2863002 25.219999
78.922997 -5.2041001 25.181
78.893997 -5.1219001 25.142
78.873001 -5.0404 25.105
78.850998 -4.9590001 25.069
78.832001 -4.8778 25.033001
78.810997 -4.7965999 24.997
78.804001 -4.7164001 24.964001
78.800003 -4.6366 24.933001
78.807999 -4.5576 24.906
78.832001 -4.4797001 24.884001
78.882004 -4.4035001 24.870001
78.943001 -4.3277998 24.858999
79.021004 -4.2532001 24.854
79.113998 -4.1794 24.853001
79.221001 -4.1062999 24.857
79.332001 -4.0331998 24.862
79.459999 -3.961 24.871
79.584999 -3.8884001 24.879999
79.704002 -3.8152001 24.886999
79.808998 -3.7411001 24.889999
79.889 -3.6654999 24.885
79.961998 -3.5894001 24.877001
80.036003 -3.5132999 24.870001
80.106003 -3.4368999 24.862
77.307999 -2.9117999 23.858999
77.318001 -2.8355 23.834
77.329002 -2.7593 23.808001
77.341003 -2.6831 23.783001
77.351997 -2.6069 23.757999
77.348999 -2.5302999 23.729
77.348999 -2.4538 23.700001
77.357002 -2.3776 23.674
77.375 -2.3018999 23.650999
77.396004 -2.2262001 23.629
77.412003 -2.1505001 23.605
77.421997 -2.0745001 23.58
77.421997 -1.9983 23.551001
77.417 -1.9220001 23.521
77.403 -1.8454 23.488001
77.379997 -1.7687 23.452999
77.352997 -1.6919 23.417
77.321999 -1.6152 23.379
77.293999 -1.5386 23.343
77.282997 -1.4626 23.311001
77.292 -1.3872 23.285
77.325996 -1.3124 23.267
77.385002 -1.2381001 23.256001
77.464996 -1.1643 23.252001
77.556999 -1.0905 23.250999
77.656998 -1.0168 23.252001
77.759003 -0.94301999 23.254
77.860001 -0.86905003 23.256001
77.945999 -0.79465997 23.253
78.025002 -0.72007 23.247999
78.098999 -0.64529002 23.240999
78.171997 -0.5704 23.233999
78.245003 -0.49542001 23.226999
78.323997 -0.42043 23.222
78.410004 -0.34538999 23.219
78.505997 -0.27034 23.218
78.610001 -0.19520999 23.219999
78.734001 -0.12008 23.228001
78.871002 -0.044837002 23.239
79.022003 0.030552 23.254
79.170998 0.10619 23.268999
79.334 0.18203001 23.288
79.476997 0.25819001 23.301001
79.616997 0.33458 23.313
79.737 0.41119999 23.319
79.848999 0.48800001 23.322001
79.938004 0.56493002 23.319
80.011002 0.64194 23.311001
80.07 0.71899003 23.299
80.126999 0.79609001 23.287001
80.184998 0.87325001 23.275
80.250999 0.95051998 23.264999
80.317001 1.0279 23.254999
80.390999 1.1054 23.247999
80.463997 1.1829 23.24
80.539001 1.2606 23.233
80.612 1.3384 23.224001
80.679001 1.4161 23.215
80.740997 1.4938999 23.204
80.801003 1.5717 23.191999
80.851997 1.6495 23.177
80.902 1.7272 23.163
80.362 -6.9285002 26.337
80.372002 -6.8466001 26.309
80.367996 -6.7635002 26.277
80.349998 -6.6791 26.24
80.307999 -6.5925999 26.195999
80.248001 -6.5047002 26.145
80.148003 -6.4134002 26.082001
80.028 -6.3206 26.013
79.892998 -6.2269001 25.938999
79.739998 -6.132 25.858999
79.589996 -6.0377002 25.780001
79.453003 -5.9447999 25.705999
79.322998 -5.8529 25.634001
79.212997 -5.763 25.568001
79.123001 -5.6750002 25.51
79.052002 -5.5886998 25.457001
78.999001 -5.5040002 25.41
78.958 -5.4204998 25.367001
78.927002 -5.3376999 25.327
78.903 -5.2557998 25.289
78.885002 -5.1743002 25.254
78.864998 -5.0928001 25.216999
78.848999 -5.0117002 25.181999
78.832001 -4.9306002 25.146999
78.816002 -4.8497 25.112
78.801003 -4.7688999 25.077
78.792999 -4.6887002 25.045
78.792999 -4.6090999 25.014999
78.805 -4.5303998 24.989
78.833 -4.4527001 24.969
78.886002 -4.3765998 24.955
78.949997 -4.3010998 24.945999
79.031998 -4.2266998 24.941999
79.126999 -4.1529002 24.941999
79.237 -4.0798998 24.945999
79.351997 -4.0071001 24.952
79.478996 -3.9347 24.962
79.605003 -3.862 24.971001
79.724998 -3.7888 24.978001
79.830002 -3.7147 24.981001
79.911003 -3.6391001 24.976
79.983002 -3.5629001 24.969
80.057999 -3.4868 24.962
80.126999 -3.4103 24.952999
77.278 -2.8836999 23.931999
77.288002 -2.8074 23.906
77.297997 -2.7312 23.881001
77.309998 -2.655 23.856001
77.322998 -2.5789001 23.830999
77.320999 -2.5023 23.802
77.323997 -2.4260001 23.774
77.334999 -2.3499 23.749001
77.356003 -2.2743001 23.726999
77.382004 -2.1989 23.705999
77.400002 -2.1231999 23.683001
77.411003 -2.0473001 23.658001
77.412003 -1.9711 23.629999
77.404999 -1.8946 23.599001
77.387001 -1.818 23.565001
77.362999 -1.7412 23.528999
77.325996 -1.6641999 23.49
77.288002 -1.5872999 23.450001
77.252998 -1.5106 23.410999
77.248001 -1.4348 23.381001
77.264999 -1.3595999 23.358
77.308998 -1.285 23.343
77.378998 -1.211 23.336
77.471001 -1.1374 23.334999
77.573997 -1.0638 23.337
77.682999 -0.99019998 23.341
77.795998 -0.91650999 23.346001
77.896004 -0.84243 23.348
77.968002 -0.76775998 23.341
78.031998 -0.69286001 23.330999
78.084 -0.61773002 23.318001
78.138 -0.54258001 23.306
78.196999 -0.46742001 23.294001
78.263 -0.39229 23.285
78.338997 -0.31718001 23.278999
78.425003 -0.24206001 23.275999
78.524002 -0.16693 23.277
78.644997 -0.091808997 23.284
78.779999 -0.016581001 23.295
78.931999 0.058777999 23.309999
79.087997 0.13437 23.327
79.25 0.2102 23.346001
79.410004 0.2863 23.364
79.560997 0.36267 23.379
79.690002 0.43928999 23.388
79.810997 0.51611 23.393999
79.910004 0.59306002 23.393999
79.994003 0.67010999 23.389
80.058998 0.74720001 23.379
80.115997 0.82432002 23.367001
80.172997 0.90148997 23.355
80.236 0.97877002 23.344
80.300003 1.0561 23.333
80.371002 1.1336 23.325001
80.440002 1.2112 23.316
80.513 1.2888 23.308001
80.584999 1.3666 23.299999
80.654999 1.4444 23.291
80.719002 1.5222 23.281
80.781998 1.6001 23.27
80.841003 1.678 23.257999
80.892998 1.7558 23.243999
80.329002 -7.0911999 26.388
80.269997 -7.0581999 26.455999
80.349998 -7.0102 26.364
80.277 -6.9759998 26.427
80.276001 -6.8930998 26.396
80.275002 -6.8102999 26.365
80.260002 -6.7261 26.329
80.228996 -6.6406002 26.288
80.169998 -6.5528002 26.237
80.098 -6.4640002 26.183001
79.990997 -6.3722 26.118
79.866997 -6.2793002 26.047001
79.718002 -6.1845999 25.968
79.577003 -6.0908999 25.892
79.439003 -5.9977999 25.818001
79.311996 -5.9060001 25.746
79.194 -5.8153 25.677999
79.103996 -5.7272 25.618999
79.028 -5.6402998 25.563999
78.971001 -5.5552001 25.516001
78.929001 -5.4716001 25.472
78.900002 -5.3889999 25.433001
78.877998 -5.3070998 25.396
78.862999 -5.2258 25.361
78.851997 -5.1448998 25.327999
78.837997 -5.0637999 25.292999
78.827003 -4.9830999 25.26
78.813004 -4.9022002 25.225
78.800003 -4.8214998 25.191
78.787003 -4.7409 25.158001
78.782997 -4.6609998 25.125999
78.786003 -4.5816002 25.098
78.801003 -4.5029998 25.072001
78.833 -4.4256001 25.052999
78.890999 -4.3498001 25.041
78.960999 -4.2746 25.033001
79.050003 -4.2006001 25.031
79.148003 -4.1269999 25.033001
79.263 -4.0542002 25.039
79.382004 -3.9814 25.046
79.509003 -3.9089999 25.056
79.637001 -3.8364 25.066
79.754997 -3.763 25.073
79.860001 -3.6887 25.075001
79.938004 -3.6129 25.07
80.009003 -3.5366001 25.062
80.081001 -3.4602001 25.054001
80.148003 -3.3836 25.045
77.245003 -2.8555 24.003
77.253998 -2.7792001 23.976999
77.263 -2.7028999 23.952
77.276001 -2.6268001 23.927
77.290001 -2.5508001 23.903
77.289001 -2.4742999 23.874001
77.296997 -2.3980999 23.847
77.310997 -2.3222001 23.823
77.336998 -2.2467999 23.802
77.363998 -2.1714001 23.782
77.383003 -2.0957 23.759001
77.393997 -2.0197999 23.733999
77.392998 -1.9435 23.705
77.382004 -1.867 23.673
77.360001 -1.7902 23.638
77.331001 -1.7134 23.601
77.286003 -1.6362 23.559
77.242996 -1.5592 23.518
77.214996 -1.4827 23.481001
77.219002 -1.4072 23.454
77.249001 -1.3322001 23.434
77.306 -1.258 23.423
77.390999 -1.1842 23.42
77.499001 -1.1109 23.424
77.616997 -1.0375 23.431
77.744003 -0.96419001 23.441
77.862999 -0.89049 23.448
77.958 -0.81620002 23.447001
78.007004 -0.74106997 23.434
78.050003 -0.66579002 23.417999
78.079002 -0.59030002 23.398001
78.111 -0.51485002 23.379
78.149002 -0.43944001 23.362
78.197998 -0.36414 23.348
78.258003 -0.28889999 23.337
78.338997 -0.21378 23.333
78.431 -0.13864 23.330999
78.552002 -0.063556999 23.337999
78.682999 0.011658 23.348
78.834 0.086987004 23.364
78.991997 0.16254 23.381001
79.151001 0.23835 23.399
79.333 0.31439 23.424
79.492996 0.39074999 23.441999
79.630997 0.46735999 23.452999
79.762001 0.54417998 23.462
79.872002 0.62115997 23.466
79.967003 0.69825 23.464001
80.041 0.77538002 23.457001
80.103996 0.85255003 23.447001
80.163002 0.92975998 23.434999
80.223999 1.007 23.423
80.287003 1.0844001 23.413
80.356003 1.1619 23.403999
80.422997 1.2394 23.393999
80.491997 1.3171 23.385
80.566002 1.3949 23.378
80.638 1.4728 23.368999
80.704002 1.5506001 23.360001
80.772003 1.6286 23.35
80.837997 1.7066 23.34
80.900002 1.7846 23.329
80.956001 1.8626 23.316
80.257004 -7.1399002 26.483
80.216003 -7.1086998 26.556
80.211998 -7.0254002 26.524
80.202003 -6.9415998 26.49
80.186996 -6.8573999 26.454
80.170998 -6.7732 26.417
80.137001 -6.6875 26.375
80.092003 -6.6009002 26.33
80.018997 -6.5120001 26.275
79.931999 -6.4218998 26.216
79.820999 -6.3299999 26.149
79.686996 -6.2364998 26.075001
79.551003 -6.1430998 26
79.427002 -6.0510001 25.93
79.300003 -5.9590998 25.858
79.183998 -5.8684001 25.790001
79.084999 -5.7793999 25.728001
79.008003 -5.6924 25.673
78.945999 -5.6068001 25.622999
78.898003 -5.5225 25.577
78.867996 -5.4398999 25.538
78.848 -5.3579998 25.500999
78.834 -5.2768002 25.466999
78.825996 -5.1961002 25.434
78.82 -5.1156001 25.402
78.808998 -5.0348001 25.368999
78.801003 -4.9541998 25.336
78.790001 -4.8736 25.302
78.778999 -4.7930002 25.268999
78.768997 -4.7126002 25.236
78.767998 -4.6329002 25.205999
78.772003 -4.5535998 25.177
78.792 -4.4754 25.153999
78.832001 -4.3983998 25.136999
78.898003 -4.3231001 25.128
78.973999 -4.2483001 25.122
79.072998 -4.1747999 25.122999
79.179001 -4.1016002 25.127001
79.300003 -4.0289998 25.135
79.420998 -3.9563 25.143
79.556 -3.8842001 25.155001
79.683998 -3.8115001 25.165001
79.796997 -3.7377 25.171
79.898003 -3.6631999 25.172001
79.980003 -3.5875001 25.167999
80.050003 -3.5109999 25.159
80.120003 -3.4345 25.150999
80.184998 -3.3576 25.141001
77.301003 -2.8311999 24.101999
77.250999 -2.7523 24.058001
77.224998 -2.6745999 24.021999
77.237999 -2.5985 23.997
77.252998 -2.5225 23.973
77.255997 -2.4461999 23.945
77.266998 -2.3701999 23.92
77.285004 -2.2944 23.896999
77.311996 -2.2190001 23.875999
77.341003 -2.1436999 23.857
77.359001 -2.0680001 23.833
77.364998 -1.9919 23.806999
77.361 -1.9155999 23.777
77.346001 -1.839 23.743999
77.319 -1.7621 23.707001
77.278999 -1.6849 23.666
77.235001 -1.6078 23.625
77.199997 -1.5311 23.586
77.18 -1.4549 23.552
77.197998 -1.3796999 23.528999
77.247002 -1.3052 23.514999
77.323997 -1.2314 23.51
77.426003 -1.1579 23.511999
77.554001 -1.0849 23.521999
77.698997 -1.012 23.537001
77.848999 -0.93892002 23.552999
77.968002 -0.86505002 23.559999
78.044998 -0.79032999 23.555
78.082001 -0.71489 23.537001
78.100998 -0.63918 23.514999
78.103996 -0.56326997 23.487
78.106003 -0.48739001 23.459
78.116997 -0.41167 23.434
78.142998 -0.33614001 23.413
78.184998 -0.26075 23.396999
78.250999 -0.18554001 23.388
78.336998 -0.11039 23.385
78.445999 -0.035280999 23.389
78.578003 0.03988 23.399
78.725998 0.11518 23.414
78.879997 0.19070999 23.431
79.042 0.26646999 23.450001
79.219002 0.34248 23.473
79.408997 0.41879001 23.5
79.558998 0.49538001 23.514999
79.696999 0.57221001 23.525999
79.821999 0.64920998 23.534
79.926003 0.72632998 23.535
80.011002 0.80351001 23.531
80.084 0.88073999 23.524
80.148003 0.95798999 23.513
80.209 1.0353 23.502001
80.272003 1.1127 23.492001
80.339996 1.1902 23.482
80.403999 1.2677 23.472
80.473 1.3454 23.462999
80.547997 1.4232 23.455999
80.622002 1.5010999 23.448
80.692001 1.5791 23.438999
80.764999 1.6571 23.431
80.837997 1.7352999 23.423
80.908997 1.8135 23.415001
80.978996 1.8917 23.406
81.047997 1.9701 23.396999
80.214996 -7.1915998 26.587
80.182999 -7.1612 26.664
80.166 -7.0766001 26.627001
80.144997 -6.9917002 26.589001
80.119003 -6.9064999 26.549999
80.084999 -6.8206 26.507
80.049004 -6.7346001 26.464001
79.998001 -6.6475 26.417
79.932999 -6.5591998 26.365
79.858002 -6.4702001 26.309
79.764999 -6.3799 26.247999
79.646004 -6.2874999 26.177999
79.524002 -6.1952 26.108
79.403999 -6.1034002 26.039
79.289001 -6.0123 25.971001
79.177002 -5.9218001 25.903999
79.072998 -5.8322001 25.84
78.988998 -5.7445002 25.782
78.922997 -5.6585999 25.731001
78.872002 -5.5739002 25.684
78.833 -5.4905 25.641001
78.811996 -5.4085999 25.604
78.796997 -5.3270998 25.569
78.787003 -5.2463002 25.535999
78.781998 -5.1658001 25.504
78.777 -5.0854001 25.473
78.768997 -5.0047998 25.440001
78.760002 -4.9243002 25.407
78.750999 -4.8439002 25.375
78.744003 -4.7635999 25.341999
78.736 -4.6834002 25.309999
78.738998 -4.6040001 25.281
78.749001 -4.5250001 25.254
78.775002 -4.4471998 25.233
78.825996 -4.3709998 25.219
78.903 -4.2961998 25.212999
78.991997 -4.2221999 25.212
79.097 -4.1490002 25.215
79.216003 -4.0763998 25.223
79.346001 -4.0043001 25.233999
79.473999 -3.9319 25.243999
79.612999 -3.8599 25.257999
79.741997 -3.7871001 25.268
79.851997 -3.7131 25.273001
79.949997 -3.6382999 25.274
80.027 -3.5622001 25.268
80.098 -3.4858 25.26
80.158997 -3.4087 25.249001
80.210999 -3.3311999 25.235001
77.370003 -2.7306001 24.177
77.287003 -2.6503 24.122
77.260002 -2.5725999 24.084999
77.246002 -2.4955001 24.052
77.230003 -2.4182999 24.018999
77.244003 -2.3424001 23.993999
77.264999 -2.2667999 23.972
77.294998 -2.1914999 23.952999
77.324997 -2.1162 23.933001
77.335999 -2.0402999 23.908001
77.334 -1.964 23.879
77.321999 -1.8874 23.846001
77.299004 -1.8106 23.811001
77.261002 -1.7334 23.771
77.214996 -1.6562001 23.728001
77.181 -1.5793999 23.690001
77.158997 -1.5031 23.653999
77.153 -1.4273 23.624001
77.195 -1.3527 23.608
77.263 -1.2786 23.601
77.360001 -1.2052 23.601999
77.482002 -1.1321 23.610001
77.641998 -1.0596 23.629999
77.824997 -0.98720002 23.656
77.981003 -0.91403002 23.674
78.084 -0.83973002 23.677
78.146004 -0.76459998 23.667
78.171997 -0.68888003 23.646
78.162003 -0.61264998 23.614
78.136002 -0.53628999 23.577999
78.107002 -0.45998999 23.541
78.085999 -0.38391 23.506001
78.085999 -0.30813 23.478001
78.105003 -0.23258001 23.455
78.147003 -0.15722001 23.438999
78.232002 -0.082130998 23.436001
78.331001 -0.0070086 23.436001
78.454002 0.068135001 23.445
78.599998 0.14339 23.459
78.751999 0.21886 23.475
78.910004 0.29457 23.493
79.084 0.37052 23.516001
79.275002 0.44677001 23.542999
79.458 0.52333999 23.568001
79.608002 0.60014999 23.583
79.747002 0.67716998 23.594999
79.865997 0.75432003 23.601
79.962997 0.83155 23.6
80.049004 0.90884 23.596001
80.123001 0.98615998 23.589001
80.190002 1.0635 23.58
80.254997 1.1409 23.57
80.323997 1.2185 23.561001
80.389999 1.296 23.551001
80.459999 1.3737 23.542
80.536003 1.4516 23.535
80.612 1.5296 23.528999
80.685997 1.6076 23.521
80.764 1.6858 23.514
80.843002 1.7641 23.507999
80.924004 1.8425 23.502001
81.002998 1.921 23.496
81.084999 1.9996001 23.490999
80.198997 -7.2458 26.700001
80.185997 -7.2172999 26.783001
80.154999 -7.1313 26.742001
80.123001 -7.0453 26.700001
80.085999 -6.9589 26.657
80.042 -6.8719001 26.611
79.990997 -6.7845998 26.563
79.931 -6.6964998 26.513
79.865997 -6.6080999 26.459999
79.786003 -6.5187001 26.403
79.695 -6.4284 26.341999
79.592003 -6.3374 26.278
79.485001 -6.2463002 26.212
79.375 -6.1552 26.146
79.267998 -6.0647001 26.08
79.165001 -5.9748001 26.016001
79.069 -5.8857999 25.954
78.978996 -5.7975001 25.893999
78.907997 -5.711 25.841
78.851997 -5.6258998 25.792999
78.806999 -5.5419002 25.747999
78.774002 -5.4589 25.707001
78.754997 -5.3772001 25.671
78.742996 -5.2961001 25.636999
78.734001 -5.2153001 25.604
78.727997 -5.1348 25.572001
78.722 -5.0544 25.540001
78.713997 -4.9738998 25.507
78.706001 -4.8934999 25.475
78.698997 -4.8132 25.441999
78.695 -4.7332001 25.410999
78.690002 -4.6532001 25.379999
78.696999 -4.5741 25.351999
78.710999 -4.4955001 25.326
78.750999 -4.4186001 25.309
78.816002 -4.3432002 25.299999
78.904999 -4.2691998 25.299
79.010002 -4.1961002 25.302
79.130997 -4.1237998 25.311001
79.267998 -4.0521998 25.323999
79.404999 -3.9804001 25.337
79.549004 -3.9087999 25.353001
79.698997 -3.8371999 25.370001
79.818001 -3.7637999 25.378
79.928001 -3.6896 25.382
80.013 -3.6138999 25.378
80.089996 -3.5378001 25.372999
80.153 -3.4607999 25.362
80.200996 -3.3829999 25.347
80.235001 -3.3045001 25.327999
77.586998 -2.7128999 24.326
77.432999 -2.6294999 24.249001
77.353996 -2.5495999 24.195999
77.296997 -2.4705999 24.15
77.251999 -2.3922999 24.107
77.242996 -2.3155999 24.076
77.242996 -2.2392001 24.047001
77.275002 -2.164 24.028
77.305 -2.0887001 24.009001
77.314003 -2.0127001 23.983
77.309998 -1.9363 23.952999
77.293999 -1.8595999 23.919001
77.267998 -1.7826999 23.882999
77.220001 -1.7053 23.84
77.18 -1.6283 23.799
77.156998 -1.5519 23.763
77.146004 -1.4758 23.731001
77.164001 -1.4006 23.709
77.223999 -1.3264 23.698
77.313004 -1.2528 23.697001
77.429001 -1.1796 23.704
77.568001 -1.1068 23.716999
77.815002 -1.0358 23.763
77.970001 -0.96266001 23.781
78.102997 -0.88889003 23.792999
78.199997 -0.8143 23.792999
78.251999 -0.73887002 23.780001
78.260002 -0.66275001 23.754
78.230003 -0.58613998 23.716
78.172997 -0.50932997 23.671
78.115997 -0.43268001 23.625
78.056999 -0.35618001 23.579
78.030998 -0.28016999 23.542999
78.024002 -0.20443 23.511999
78.039001 -0.12893 23.488001
78.111 -0.053826999 23.482
78.204002 0.021253999 23.481001
78.32 0.096360996 23.487
78.453003 0.17158 23.497
78.601997 0.24698 23.513
78.757004 0.32260999 23.530001
78.919998 0.39849001 23.549999
79.105003 0.47466001 23.575001
79.328003 0.55119002 23.612
79.490997 0.62796998 23.631001
79.647003 0.70499003 23.648001
79.781998 0.78217 23.659
79.897003 0.85946 23.664
79.997002 0.93681997 23.664
80.084 1.0142 23.660999
80.162003 1.0917 23.655001
80.232002 1.1691 23.646
80.306 1.2467 23.639
80.375999 1.3243999 23.629999
80.447998 1.4021 23.622
80.526001 1.48 23.615999
80.606003 1.5581 23.610001
80.684998 1.6362 23.604
80.766998 1.7145 23.599001
80.852997 1.793 23.594
80.942001 1.8716 23.591
81.028999 1.9503 23.587
81.120003 2.0292001 23.584
81.208 2.1082001 23.580999
80.213997 -7.3031998 26.823999
80.208 -7.2754002 26.909
80.170998 -7.1886001 26.865
80.127998 -7.1013999 26.82
80.082001 -7.0139999 26.773001
80.028 -6.9260998 26.724001
79.963997 -6.8372998 26.672001
79.888 -6.7477002 26.615999
79.815002 -6.6585999 26.561001
79.728996 -6.5683999 26.500999
79.643997 -6.4787002 26.443001
79.541 -6.3875999 26.378
79.444 -6.2972002 26.315001
79.346001 -6.2070999 26.252001
79.25 -6.1174002 26.190001
79.150002 -6.0276999 26.127001
79.060997 -5.9390001 26.066999
78.974998 -5.8509998 26.009001
78.901001 -5.7642002 25.954
78.839996 -5.6785002 25.903999
78.791 -5.5941 25.858
78.75 -5.5105 25.813999
78.720001 -5.4278002 25.774
78.702003 -5.3462 25.738001
78.688004 -5.2649999 25.704
78.677002 -5.1841002 25.67
78.667 -5.1034002 25.636999
78.657997 -5.0228 25.604
78.648003 -4.9422002 25.57
78.642998 -4.862 25.539
78.636002 -4.7817998 25.507
78.633003 -4.7020001 25.476
78.630997 -4.6222 25.445
78.640999 -4.5433998 25.417999
78.662003 -4.4651999 25.395
78.718002 -4.3892999 25.382999
78.800003 -4.3150001 25.379999
78.911003 -4.2424002 25.385
79.030998 -4.1701002 25.393
79.177002 -4.0991998 25.41
79.335999 -4.0288 25.43
79.509003 -3.9590001 25.455
79.660004 -3.8875999 25.473
79.82 -3.8164001 25.493
79.93 -3.7421999 25.497999
80.028 -3.6673 25.499001
80.098 -3.5906999 25.49
80.165001 -3.5139 25.481001
80.208 -3.4358001 25.465
80.234001 -3.3569 25.443001
80.244003 -3.2772 25.416
77.651001 -2.6115 24.399
77.510002 -2.5288999 24.327
77.403 -2.4479001 24.264
77.318001 -2.368 24.209
77.277 -2.29 24.167999
77.247002 -2.2124 24.129999
77.251999 -2.1363001 24.103001
77.281998 -2.0610001 24.083
77.287003 -1.9849 24.056
77.277 -1.9083 24.024
77.258003 -1.8316 23.99
77.222 -1.7544 23.950001
77.169998 -1.677 23.906
77.134003 -1.6001 23.865999
77.127998 -1.5240999 23.836
77.141998 -1.4488 23.812
77.182999 -1.3741 23.796
77.265999 -1.3004 23.792
77.377998 -1.2272 23.798
77.514999 -1.1544 23.811001
77.772003 -1.0836999 23.860001
77.946999 -1.0111001 23.885
78.098 -0.93769002 23.902
78.225998 -0.86364001 23.912001
78.32 -0.78882998 23.910999
78.364998 -0.71314001 23.896
78.362999 -0.63676 23.867001
78.296997 -0.55958003 23.818001
78.223 -0.48249 23.767
78.130997 -0.40540999 23.711
78.035004 -0.32853001 23.653999
77.980003 -0.25227001 23.608999
77.949997 -0.17639001 23.572001
77.938004 -0.10075 23.540001
77.983002 -0.025544001 23.525
78.065002 0.049502 23.521
78.168999 0.12457 23.523001
78.287003 0.19975001 23.530001
78.425003 0.27507001 23.542
78.573997 0.3506 23.558001
78.734001 0.42636999 23.577
78.912003 0.50240999 23.601
79.102997 0.57879001 23.628
79.341003 0.65562999 23.67
79.518997 0.73264998 23.693001
79.674004 0.80985999 23.709999
79.808998 0.88721001 23.721001
79.928001 0.96465999 23.726999
80.031998 1.0422 23.729
80.121002 1.1197 23.726
80.203003 1.1973 23.721001
80.283997 1.275 23.716
80.361 1.3527 23.709
80.439003 1.4306 23.702999
80.522003 1.5086 23.698
80.606003 1.5867 23.693001
80.692001 1.665 23.688999
80.778999 1.7434 23.686001
80.869003 1.822 23.683001
80.963997 1.9008 23.681
81.057999 1.9797 23.679001
81.160004 2.0589001 23.679001
81.241997 2.1378 23.674
81.324997 2.2169001 23.669001
80.245003 -7.3622999 26.952999
80.247002 -7.3351998 27.041
80.205002 -7.2477999 26.995001
80.160004 -7.1602998 26.948999
80.107002 -7.0721002 26.9
80.045998 -6.9833999 26.849001
79.970001 -6.8933001 26.792
79.885002 -6.8027 26.733
79.797997 -6.7122002 26.673
79.702003 -6.6209998 26.610001
79.611 -6.5304999 26.549
79.510002 -6.4394999 26.485001
79.414001 -6.3491998 26.422001
79.319 -6.2592001 26.360001
79.226997 -6.1697001 26.299
79.138 -6.0808001 26.239
79.051003 -5.9921999 26.18
78.973999 -5.9047999 26.124001
78.899002 -5.8178 26.069
78.841003 -5.7322998 26.02
78.791 -5.6476998 25.973
78.745003 -5.5634999 25.927999
78.703003 -5.4798002 25.884001
78.676003 -5.3973999 25.844999
78.660004 -5.316 25.809
78.646004 -5.2349 25.775
78.633003 -5.1539001 25.74
78.621002 -5.073 25.707001
78.612999 -4.9926 25.674
78.602997 -4.9120002 25.641001
78.597 -4.8318 25.608999
78.587997 -4.7515001 25.576
78.580002 -4.6712999 25.542999
78.573997 -4.5914001 25.511
78.584 -4.5124998 25.483999
78.607002 -4.4345999 25.462
78.678001 -4.3597002 25.455
78.778999 -4.2866001 25.457001
78.902 -4.2147002 25.466999
79.047997 -4.1438999 25.483
79.225998 -4.0748 25.51
79.428001 -4.0068002 25.544001
79.624001 -3.9381001 25.577
79.787003 -3.8671999 25.598
79.952003 -3.796 25.620001
80.050003 -3.7211001 25.621
80.138 -3.6454 25.618999
80.193001 -3.5678999 25.606001
80.244003 -3.4902 25.591999
80.264999 -3.4109001 25.568001
80.271004 -3.3308001 25.540001
80.254997 -3.2499001 25.504999
80.194 -3.1668 25.455
77.706001 -2.4326 24.441
77.598999 -2.3515999 24.379
77.549004 -2.2729001 24.334
77.511002 -2.1949 24.292999
77.502998 -2.118 24.261999
77.503998 -2.0414 24.233
77.469002 -1.9638 24.194
77.417999 -1.8858 24.149
77.370003 -1.808 24.106001
77.306 -1.7299 24.056999
77.223 -1.6515 24.003
77.179001 -1.5743999 23.961
77.167999 -1.4983 23.929001
77.184998 -1.4229 23.906
77.249001 -1.3487 23.896999
77.355003 -1.2754 23.900999
77.487 -1.2025 23.912001
77.751999 -1.1322 23.965
77.904999 -1.0592 23.983
78.068001 -0.98606998 24.003
78.213997 -0.91238999 24.018999
78.335999 -0.83806998 24.027
78.429001 -0.76309001 24.027
78.473 -0.68724 24.011
78.467003 -0.61067998 23.98
78.399002 -0.53338999 23.931
78.294998 -0.45585999 23.871
78.164001 -0.37830999 23.802999
77.947998 -0.22457001 23.681
77.890999 -0.14850999 23.635
77.847 -0.072709002 23.594
77.875999 0.0025303001 23.573999
77.919998 0.077694997 23.559
78 0.15276 23.554001
78.102997 0.22786 23.556999
78.224998 0.30307999 23.563999
78.361 0.37847999 23.577
78.516998 0.45411 23.594
78.696999 0.53002 23.618999
78.889 0.60626 23.646999
79.120003 0.68295002 23.687
79.348 0.76005 23.726
79.533997 0.83732003 23.752001
79.697998 0.91475999 23.771
79.836998 0.99229997 23.783001
79.960999 1.0699 23.791
80.066002 1.1476001 23.792999
80.162003 1.2253 23.792
80.255997 1.3031 23.790001
80.343002 1.381 23.787001
80.43 1.459 23.784
80.521004 1.5371 23.781
80.612 1.6154 23.778999
80.704002 1.6939 23.775999
80.797997 1.7725 23.775
80.896004 1.8512 23.774
80.994003 1.9302 23.773001
81.094002 2.0093 23.773001
81.196999 2.0885999 23.774
81.272003 2.1673999 23.767
81.351997 2.2465 23.761
81.434998 2.3257 23.754999
80.281998 -7.4222002 27.084
80.283997 -7.3951001 27.172001
80.249001 -7.3081999 27.129
80.202003 -7.2203002 27.082001
80.151001 -7.1321001 27.033001
80.091003 -7.0433998 26.982
80.015999 -6.9531999 26.926001
79.919998 -6.8614001 26.862
79.830002 -6.7704 26.801001
79.724998 -6.6781998 26.735001
79.614998 -6.5858998 26.667999
79.509003 -6.4942002 26.601
79.416 -6.4039998 26.540001
79.325996 -6.3143001 26.479
79.235001 -6.2248001 26.417999
79.148003 -6.1359 26.358999
79.065002 -6.0475001 26.301001
78.989998 -5.9601002 26.246
78.918999 -5.8731999 26.191999
78.851997 -5.7869 26.139
78.796997 -5.7017999 26.091
78.752998 -5.6177001 26.046
78.708 -5.5335999 26.000999
78.666 -5.4499998 25.957001
78.639999 -5.3677001 25.917999
78.622002 -5.2862 25.882
78.608002 -5.2051001 25.847
78.593002 -5.1238999 25.812
78.577003 -5.0427999 25.777
78.568001 -4.9622998 25.743999
78.556 -4.8817 25.709999
78.549004 -4.8014998 25.677
78.541 -4.7213001 25.645
78.523003 -4.6405001 25.608999
78.511002 -4.5602002 25.575001
78.516998 -4.4811001 25.547001
78.557999 -4.4043999 25.531
78.651001 -4.3309002 25.530001
78.773003 -4.2589998 25.540001
78.919998 -4.1884999 25.556999
79.091003 -4.1192002 25.582001
79.301003 -4.0518999 25.618999
79.543999 -3.9861 25.667
79.741997 -3.9172001 25.698999
79.929001 -3.8475001 25.729
80.087997 -3.7758 25.749001
80.175003 -3.7000999 25.747
80.25 -3.6235001 25.74
80.288002 -3.5450001 25.722
80.314003 -3.4658999 25.700001
80.306999 -3.3850999 25.667
80.292 -3.3039999 25.632
80.260002 -3.2221999 25.591999
80.200996 -3.1393001 25.542999
80.057999 -3.0527999 25.468
80.028999 -3.0792 25.372999
79.882004 -2.9651 25.382
77.363998 -1.6285 24.128
77.306999 -1.5509 24.082001
77.286003 -1.4743 24.047001
77.296997 -1.3987 24.021999
77.360001 -1.3243001 24.011999
77.470001 -1.251 24.017
77.738998 -1.1809 24.070999
77.877998 -1.1076 24.084999
78.029999 -1.0343 24.103001
78.169998 -0.96060002 24.115999
78.308998 -0.88661999 24.129999
78.419998 -0.81197 24.135
78.507004 -0.73676997 24.132999
78.552002 -0.66083002 24.117001
78.546997 -0.58420002 24.087
78.484001 -0.50689 24.039
78.389999 -0.42943001 23.982
77.953003 -0.19718 23.764
77.865997 -0.12091 23.709
77.801003 -0.045001999 23.660999
77.794998 0.030401999 23.631001
77.803001 0.10567 23.605
77.845001 0.18077999 23.589001
77.914001 0.25586 23.582001
78.015999 0.33098 23.584
78.133003 0.40623999 23.59
78.278 0.48168999 23.605
78.470001 0.55746001 23.634001
78.653 0.63353002 23.659
78.874001 0.71004999 23.697001
79.125 0.78709 23.742001
79.362999 0.86451 23.784
79.556 0.94204998 23.812
79.723 1.0197001 23.832001
79.873001 1.0975 23.848
79.997002 1.1753 23.855
80.110001 1.2532001 23.860001
80.220001 1.3312 23.863001
80.323997 1.4093 23.865
80.425003 1.4875 23.865
80.524002 1.5658 23.865
80.625 1.6443 23.865999
80.724998 1.7229 23.865999
80.824997 1.8017 23.865999
80.927002 1.8806 23.867001
81.030998 1.9597 23.868
81.135002 2.039 23.868999
81.234001 2.1183 23.868999
81.309998 2.1972001 23.862
81.386002 2.2763 23.854
81.462997 2.3554001 23.847
81.541 2.4347 23.841
80.303001 -7.4805002 27.209999
80.293999 -7.4523001 27.295
80.281998 -7.3677001 27.259001
80.248001 -7.2809 27.216
80.200996 -7.1929998 27.169001
80.146004 -7.1044002 27.118999
80.075996 -7.0145998 27.063999
79.994003 -6.9239998 27.006001
79.894997 -6.8319001 26.941
79.802002 -6.7405 26.879
79.684998 -6.6472998 26.808001
79.569 -6.5545998 26.739
79.455002 -6.4622002 26.67
79.359001 -6.3719001 26.607
79.260002 -6.2814002 26.542999
79.167 -6.1918001 26.482
79.081001 -6.1030998 26.422001
79.002998 -6.0152001 26.365999
78.934998 -5.9285002 26.313
78.869003 -5.8421001 26.261
78.808998 -5.7564001 26.209999
78.759003 -5.6717 26.163
78.718002 -5.5879002 26.118999
78.674004 -5.5040002 26.073999
78.632004 -5.4204001 26.031
78.606003 -5.3382001 25.992001
78.584999 -5.2564001 25.954
78.564003 -5.1747999 25.917
78.544998 -5.0934 25.881001
78.527 -5.0123 25.844999
78.516998 -4.9317002 25.812
78.505997 -4.8512001 25.778
78.497002 -4.7708998 25.745001
78.488998 -4.6908002 25.712
78.469002 -4.6097999 25.676001
78.456001 -4.5296001 25.642
78.460999 -4.4505 25.613001
78.508003 -4.3741002 25.598
78.610001 -4.3011999 25.601999
78.745003 -4.2301002 25.615
78.907997 -4.1605 25.636999
79.097 -4.0921998 25.667999
79.389999 -4.0296001 25.732
79.605003 -3.9619999 25.771
79.810997 -3.8935001 25.806999
80.007004 -3.8241 25.839001
80.168999 -3.7525001 25.861
80.249001 -3.6761999 25.856001
80.317001 -3.5992 25.847
80.348 -3.5202 25.827
80.348 -3.4396999 25.796
80.315002 -3.3576 25.754999
80.278 -3.2755001 25.712999
80.223999 -3.1926999 25.666
80.149002 -3.1091001 25.612
80.032997 -3.0237999 25.545
79.911003 -2.9387 25.476
79.762001 -2.8526001 25.399
79.670998 -2.8764 25.285999
79.643997 -2.7681999 25.332001
79.470001 -2.7886 25.193001
79.521004 -2.6839001 25.263
77.742996 -1.2299 24.183001
77.866997 -1.1562999 24.191999
77.999001 -1.0827 24.204
78.130997 -1.0089 24.216
78.255997 -0.93475002 24.225
78.383003 -0.86041999 24.235001
78.486 -0.78551 24.237
78.566002 -0.71008998 24.233
78.611 -0.63407999 24.218
78.612 -0.55743998 24.188999
78.556 -0.48017001 24.143
78.469002 -0.40274 24.087999
77.987999 -0.17003 23.856001
77.865997 -0.093483001 23.791
77.779999 -0.017464999 23.736
77.737999 0.058104999 23.695
77.720001 0.13343 23.662001
77.727997 0.20859 23.636
77.751999 0.28367999 23.614
77.824997 0.35872 23.608
77.925003 0.43384001 23.608999
78.064003 0.50914001 23.622
78.246002 0.58475 23.648001
78.452003 0.66074997 23.681
78.696999 0.73724997 23.726
78.925003 0.81410998 23.764999
79.18 0.89152002 23.812
79.408997 0.96921003 23.851
79.595001 1.0470001 23.878
79.769997 1.1249 23.9
79.917 1.2029001 23.915001
80.052002 1.281 23.926001
80.18 1.3592 23.934999
80.305 1.4376 23.943001
80.419998 1.516 23.947001
80.530998 1.5944999 23.951
80.644997 1.6733 23.955
80.755997 1.7521 23.959
80.861 1.8311 23.959999
80.967003 1.9102 23.962
81.072998 1.9894 23.964001
81.172997 2.0687001 23.964001
81.268997 2.148 23.962999
81.341003 2.2269001 23.954
81.413002 2.3059001 23.945999
81.484001 2.385 23.938
81.555 2.4642 23.929001
80.303001 -7.5366998 27.329
80.292 -7.5084 27.413
80.290001 -7.4246001 27.381001
80.278999 -7.3400998 27.346001
80.248001 -7.2536001 27.304001
80.202003 -7.1658001 27.257
80.143997 -7.0770001 27.205999
80.074997 -6.9872999 27.150999
79.987 -6.8961 27.09
79.887001 -6.8038998 27.025999
79.791 -6.7124 26.962
79.667 -6.6185002 26.889
79.542999 -6.5250001 26.816999
79.414001 -6.4313998 26.743
79.308998 -6.3403001 26.677
79.203003 -6.2494001 26.610001
79.109001 -6.1596999 26.548
79.023003 -6.0711002 26.489
78.949997 -5.9837999 26.434
78.884003 -5.8972998 26.382
78.827003 -5.8116002 26.332001
78.769997 -5.7262998 26.283001
78.723999 -5.6419001 26.237
78.684998 -5.5583 26.194
78.640999 -5.4744 26.149
78.598 -5.3908 26.104
78.57 -5.3084998 26.065001
78.543999 -5.2263999 26.025999
78.518997 -5.1444998 25.987
78.496002 -5.0629001 25.950001
78.475998 -4.9815998 25.913
78.460999 -4.9008002 25.878
78.449997 -4.8203001 25.844
78.439003 -4.7399001 25.811001
78.43 -4.6598001 25.778
78.406998 -4.5787001 25.74
78.393997 -4.4984999 25.705999
78.404999 -4.4197998 25.679001
78.454002 -4.3435998 25.665001
78.568001 -4.2714 25.672001
78.718002 -4.2013001 25.691
78.891998 -4.1322999 25.716999
79.109001 -4.0655999 25.757
79.445999 -4.0054998 25.834999
79.681 -3.9389 25.881001
79.908997 -3.8714001 25.924
80.102997 -3.8017001 25.955999
80.266998 -3.73 25.978001
80.346001 -3.6535001 25.973
80.403 -3.5757999 25.959999
80.403999 -3.4951999 25.93
80.382004 -3.4135001 25.893
80.250999 -3.2463 25.790001
80.087997 -3.0783999 25.677999
79.987 -2.994 25.615999
79.933998 -2.9117999 25.569
79.846001 -2.8283999 25.511
79.780998 -2.7462001 25.459999
79.709999 -2.6638999 25.408001
79.651001 -2.5822999 25.358999
79.403999 -2.6001999 25.197001
