# .PCD v0.7 - Point Cloud Data file format
VERSION 0.7
FIELDS x y z
SIZE 4 4 4
TYPE F F F
COUNT 1 1 1
WIDTH 1744
HEIGHT 1
VIEWPOINT 0 0 0 1 0 0 0
POINTS 1744
DATA ascii
-6.1767998 -16.025 63.845001
-6.1044998 -16.018 63.816002
-6.0317998 -16.01 63.784
-5.9590001 -16.000999 63.748001
-5.8863001 -15.992 63.714001
-5.8153 -15.988 63.698002
-5.7473001 -15.992 63.713001
-5.684 -16.009001 63.782001
-5.6258001 -16.042 63.911999
-5.572 -16.087999 64.095001
-5.5254002 -16.156 64.365997
-5.5928001 -16.563 65.987999
-5.5458002 -16.638 66.287003
-5.4942002 -16.701 66.538002
-5.4373999 -16.749001 66.731003
-5.375 -16.782 66.860001
-5.3081999 -16.801001 66.936996
-5.2381001 -16.809999 66.973999
-5.1666002 -16.815001 66.992996
-5.0938001 -16.816 66.997002
-5.0212998 -16.818001 67.003998
-4.9492998 -16.820999 67.017998
-4.8776002 -16.826 67.037003
-4.8063002 -16.833 67.063004
-4.7360001 -16.841999 67.100998
-4.6662998 -16.855 67.151001
-4.5971999 -16.870001 67.211998
-4.5282998 -16.886999 67.278
-4.4603 -16.907 67.358002
-4.3922 -16.927999 67.441002
-4.3246999 -16.951 67.535004
-4.2574 -16.976 67.635002
-4.1938 -17.017 67.799004
-4.1311998 -17.063999 67.986
-4.0697999 -17.118 68.198997
-4.0078001 -17.171 68.408997
-3.9581001 -17.280001 68.844002
-3.8954 -17.334999 69.063004
-3.8301001 -17.379999 69.242996
-3.7620001 -17.414 69.379997
-3.6931 -17.445999 69.505997
-3.6204 -17.461 69.566002
-3.5458 -17.466999 69.589996
10.875 -19.985001 79.621002
10.958 -19.976999 79.589996
11.04 -19.968 79.556
11.12 -19.955999 79.507004
11.197 -19.940001 79.444
11.274 -19.923 79.374001
11.348 -19.9 79.282997
11.416 -19.868999 79.160004
11.484 -19.837999 79.033997
11.551 -19.805 78.903
11.616 -19.768 78.758003
11.682 -19.733999 78.623001
11.746 -19.698999 78.481003
11.812 -19.665001 78.347
11.876 -19.629999 78.206001
11.94 -19.594 78.066002
12.703 -19.459999 77.531998
13.159 -19.509001 77.724998
13.25 -19.518999 77.764999
13.334 -19.518 77.760002
13.472 -18.961 75.216003
13.447 -18.844 75.074997
13.505 -18.809999 74.942001
13.584 -18.806999 74.928001
13.657 -18.795 74.880997
13.729 -18.782 74.828003
13.797 -18.764 74.755997
13.864 -18.743999 74.678001
13.931 -18.725 74.601997
14.001 -18.709 74.538002
14.072 -18.695 74.482002
14.144 -18.684 74.439003
14.219 -18.674999 74.403999
14.295 -18.667999 74.375999
14.372 -18.663 74.355003
14.449 -18.659 74.336998
14.528 -18.655001 74.321999
14.606 -18.650999 74.307999
14.684 -18.648001 74.293999
14.762 -18.643999 74.278
14.839 -18.639999 74.261002
14.917 -18.636 74.246002
14.996 -18.632 74.232002
15.075 -18.629999 74.224998
15.155 -18.629 74.221001
15.236 -18.629999 74.221001
15.318 -18.629999 74.224998
15.4 -18.632 74.232002
15.483 -18.635 74.242996
15.567 -18.639 74.258003
15.652 -18.642 74.273003
15.736 -18.646 74.288002
15.821 -18.650999 74.306
15.906 -18.656 74.327003
15.993 -18.663 74.352997
16.080999 -18.671 74.388
16.171 -18.681 74.428001
16.261999 -18.693001 74.473999
16.355 -18.705999 74.524002
16.452 -18.724001 74.598999
16.556 -18.749001 74.697998
16.674 -18.791 74.864998
16.815001 -18.858 75.129997
16.969999 -18.938999 75.455002
17.138 -19.034 75.833
17.566999 -19.417 77.360001
17.74 -19.514 77.747002
17.891001 -19.587 78.033997
18.033001 -19.649 78.281998
18.164 -19.698 78.478996
18.257 -19.707001 78.513
18.343 -19.705999 78.511002
18.427999 -19.705999 78.510002
18.516001 -19.708 78.518997
18.605 -19.712 78.533997
18.698 -19.719999 78.566002
18.792999 -19.73 78.605003
18.889999 -19.740999 78.650002
18.982 -19.747999 78.677002
19.075001 -19.756001 78.709
19.169001 -19.764 78.741997
19.263 -19.771999 78.774002
18.782 -18.615 74.162003
18.860001 -18.612 74.152
18.938 -18.608999 74.139
19.014 -18.605 74.123001
19.091 -18.601 74.107002
19.165001 -18.594 74.080002
19.238001 -18.586 74.049004
19.308001 -18.576 74.009003
19.375999 -18.563999 73.959
19.441999 -18.549999 73.903999
19.507 -18.535 73.844002
19.570999 -18.518999 73.781998
19.635 -18.504 73.722
19.698999 -18.489 73.661003
19.763 -18.474001 73.600998
19.827999 -18.459999 73.543999
19.896 -18.448 73.496002
19.965 -18.438 73.458
20.037001 -18.43 73.427002
20.111 -18.424999 73.405998
20.188 -18.422001 73.392998
20.266001 -18.42 73.386002
20.348 -18.422001 73.392998
20.431999 -18.424999 73.406998
20.516001 -18.429001 73.422997
20.601 -18.433001 73.440002
20.687 -18.438999 73.460999
20.774 -18.445 73.485001
20.861 -18.451 73.509003
20.948999 -18.458 73.537003
21.037001 -18.464001 73.564003
21.122999 -18.469999 73.585999
21.207001 -18.473 73.598
21.291 -18.476 73.610001
21.375 -18.479 73.623001
21.459 -18.482 73.635002
-9.9614 -15.885 63.563
-9.8930998 -15.887 63.57
-9.8247004 -15.888 63.576
-9.7563 -15.89 63.582001
-9.6879997 -15.891 63.588001
-9.6206999 -15.895 63.602001
-9.5556002 -15.902 63.630001
-9.4938002 -15.914 63.681
-9.4334002 -15.93 63.742001
-9.3737001 -15.946 63.808998
-9.3153 -15.965 63.884998
-9.2587004 -15.988 63.976002
-9.1971998 -16.002001 64.032997
-9.1316004 -16.01 64.063004
-9.0639 -16.014 64.078003
-8.9939003 -16.013 64.077003
-8.9195995 -16.004999 64.044998
-8.8422003 -15.992 63.990002
-8.7658005 -15.98 63.942001
-8.6920996 -15.972 63.912998
-8.6267996 -15.981 63.945
-8.5637999 -15.993 63.994999
-8.5052004 -16.014 64.079002
-8.4500999 -16.042 64.191002
-8.4053001 -16.09 64.384003
-8.3504 -16.120001 64.502998
-8.2946997 -16.148001 64.616997
-8.2369003 -16.173 64.716003
-8.1759005 -16.191999 64.792
-8.1058998 -16.193001 64.796997
-8.0312996 -16.186001 64.765999
-7.9541001 -16.172001 64.711998
-7.8751001 -16.155001 64.642998
-7.7947998 -16.135 64.560997
-7.7122998 -16.108999 64.459999
-7.6318998 -16.087999 64.375
-7.5538998 -16.070999 64.307999
-7.4816999 -16.066999 64.290001
-7.4115 -16.066999 64.289001
-7.3450999 -16.075001 64.321999
-7.2814999 -16.089001 64.378998
-7.2189999 -16.106001 64.447998
-7.1526999 -16.115 64.484001
-7.0836 -16.118 64.495003
-7.0121002 -16.115 64.485001
-6.9382 -16.107 64.450996
-6.8589001 -16.086 64.365997
-6.7779002 -16.059999 64.264
-6.6978002 -16.035999 64.167999
-6.6192999 -16.014999 64.084999
-6.5419002 -15.997 64.012001
-6.4661002 -15.982 63.951
-6.3923001 -15.972 63.910999
-6.3196001 -15.964 63.881001
-6.2470002 -15.957 63.849998
-6.1743999 -15.949 63.82
-6.1016002 -15.941 63.785999
-6.0286002 -15.932 63.75
-5.9552999 -15.922 63.709999
-5.8821998 -15.912 63.668999
-5.8095002 -15.903 63.633999
-5.7398 -15.902 63.630001
-5.6742001 -15.912 63.672001
-5.6131001 -15.936 63.768002
-5.5555 -15.97 63.904999
-5.5054998 -16.028 64.133003
-5.4631 -16.108999 64.459
-5.5314999 -16.523001 66.115997
-5.4825001 -16.593 66.396004
-5.4294 -16.652 66.632004
-5.3699002 -16.693001 66.795998
-5.3053002 -16.719 66.900002
-5.2371001 -16.733999 66.959999
-5.1672001 -16.743999 67.000999
-5.0946002 -16.746 67.007004
-5.0221 -16.747999 67.014999
-4.9500999 -16.750999 67.029999
-4.8785 -16.756001 67.050003
-4.8073001 -16.763 67.075996
-4.7368999 -16.773001 67.114998
-4.6672001 -16.785 67.165001
-4.5981002 -16.799999 67.224998
-4.5292001 -16.816999 67.291
-4.461 -16.836 67.369003
-4.3929 -16.857 67.450996
-4.3253999 -16.879999 67.544998
-4.2582002 -16.906 67.647003
-4.1947999 -16.948 67.815002
-4.1324 -16.995001 68.004997
-4.0710001 -17.048 68.219002
-4.0095 -17.104 68.440002
-3.9614999 -17.219 68.901001
-3.8984001 -17.271999 69.113998
-3.8327999 -17.316999 69.292
-3.7648001 -17.351 69.431
-3.6959 -17.382999 69.558998
-3.6233001 -17.399 69.620003
-3.5486 -17.405001 69.644997
-3.4733 -17.408001 69.656998
10.954 -19.884001 79.564003
11.037 -19.877001 79.538002
11.118 -19.867001 79.495003
11.196 -19.851 79.433998
11.273 -19.834 79.366997
11.344 -19.806999 79.257004
11.409 -19.77 79.107002
11.472 -19.73 78.948997
11.535 -19.691 78.791
11.595 -19.646 78.612999
11.655 -19.603001 78.441002
11.712 -19.556 78.251999
11.769 -19.507999 78.060997
13.419 -18.723 74.917
13.487 -18.704 74.842003
13.564 -18.698 74.818001
13.64 -18.691 74.790001
13.714 -18.68 74.747002
13.781 -18.66 74.667999
13.848 -18.641001 74.589996
13.915 -18.622 74.513
13.985 -18.606001 74.452003
14.057 -18.594 74.403
14.131 -18.584999 74.365997
14.209 -18.580999 74.351997
14.289 -18.579 74.344002
14.369 -18.577999 74.337997
14.447 -18.573999 74.322998
14.525 -18.57 74.308998
14.603 -18.566999 74.294998
14.681 -18.563 74.279999
14.759 -18.559999 74.264999
14.837 -18.555 74.248001
14.915 -18.552 74.233002
14.993 -18.549 74.222
15.073 -18.547001 74.216003
15.154 -18.547001 74.213997
15.235 -18.547001 74.216003
15.317 -18.549 74.221001
15.4 -18.551001 74.230003
15.483 -18.554001 74.242996
15.568 -18.558001 74.258003
15.652 -18.562 74.274002
15.736 -18.566 74.289001
15.821 -18.57 74.307999
15.907 -18.576 74.330002
15.994 -18.583 74.360001
16.083 -18.593 74.397003
16.174 -18.604 74.442001
16.267 -18.617001 74.492996
16.360001 -18.629999 74.547997
16.454 -18.643999 74.603996
16.552 -18.664 74.683998
16.665001 -18.698999 74.821999
16.798 -18.756001 75.051003
16.947001 -18.830999 75.350998
17.106001 -18.916 75.692001
17.709 -19.396 77.612
17.868 -19.476999 77.935997
18.016001 -19.546 78.209999
18.153 -19.601 78.431999
18.250999 -19.615 78.487
18.341 -19.618999 78.503998
18.426001 -19.618999 78.502998
18.514 -19.621 78.513
18.604 -19.625999 78.531998
18.698 -19.634001 78.565002
18.794001 -19.645 78.609001
18.891001 -19.657 78.657997
18.983999 -19.665001 78.686996
19.077999 -19.673 78.722
19.173 -19.681999 78.758003
19.268 -19.691 78.793999
18.784 -18.535999 74.168999
18.863001 -18.534 74.164001
18.941999 -18.532 74.156998
19.021 -18.530001 74.147003
19.098 -18.527 74.135002
19.174999 -18.523001 74.119003
19.250999 -18.518 74.098999
19.323 -18.51 74.068001
19.393999 -18.5 74.027
19.461 -18.488001 73.976997
19.525999 -18.472 73.917
19.589001 -18.455999 73.850998
19.652 -18.438999 73.783997
19.715 -18.423 73.719002
19.777 -18.407 73.653
19.841 -18.391001 73.589996
19.906 -18.378 73.537003
19.975 -18.367001 73.494003
20.046 -18.358999 73.460999
20.121 -18.353001 73.440002
20.197001 -18.35 73.428001
20.275999 -18.349001 73.424004
20.358 -18.351 73.429001
20.441 -18.354 73.441002
20.525 -18.357 73.456001
20.610001 -18.361 73.471001
20.695 -18.365999 73.490997
20.781 -18.371 73.512001
20.868 -18.377001 73.536003
20.957001 -18.384001 73.564003
21.045 -18.392 73.593002
21.132999 -18.398001 73.620003
21.216999 -18.400999 73.632004
21.301001 -18.405001 73.644997
21.385 -18.408001 73.660004
21.469999 -18.412001 73.676003
-9.9582996 -15.811 63.542999
-9.8900995 -15.813 63.549999
-9.8218002 -15.814 63.556999
-9.7533998 -15.816 63.563
-9.6850996 -15.817 63.57
-9.6176996 -15.82 63.582001
-9.5524998 -15.827 63.609001
-9.4905996 -15.84 63.659
-9.4306002 -15.856 63.723
-9.3708 -15.872 63.789001
-9.3128004 -15.892 63.868
-9.2566996 -15.915 63.962002
-9.1957998 -15.93 64.023003
-9.1302004 -15.937 64.052002
-9.0622997 -15.941 64.067001
-8.9923 -15.941 64.065002
-8.9177999 -15.932 64.031998
-8.8396997 -15.917 63.972
-8.7627001 -15.904 63.918999
-8.6885004 -15.896 63.886002
-8.6225004 -15.903 63.912998
-8.5588999 -15.914 63.958
-8.5001001 -15.935 64.041
-8.4454002 -15.963 64.155998
-8.3976002 -16.006001 64.325996
-8.3441 -16.037001 64.454002
-8.2882996 -16.065001 64.567001
-8.2304001 -16.09 64.665001
-8.1693001 -16.108 64.738998
-8.0994997 -16.110001 64.746002
-8.0251999 -16.103001 64.716003
-7.9482002 -16.09 64.664001
-7.8692999 -16.072001 64.595001
-7.7895999 -16.052999 64.517998
-7.7069998 -16.028 64.416
-7.6262002 -16.006001 64.327003
-7.5482001 -15.989 64.260002
-7.4762001 -15.985 64.242996
-7.4063001 -15.985 64.244003
-7.3399 -15.993 64.277
-7.2754002 -16.006001 64.325996
-7.2143998 -16.025999 64.406998
-7.1482 -16.035 64.443001
-7.0791998 -16.038 64.455002
-7.0079002 -16.035 64.445999
-6.9341002 -16.027 64.413002
-6.8551998 -16.007 64.331001
-6.7747002 -15.983 64.233002
-6.6949 -15.959 64.139999
-6.6167002 -15.939 64.059998
-6.5397 -15.922 63.988998
-6.4640002 -15.907 63.931
-6.3903999 -15.898 63.891998
-6.3175001 -15.89 63.860001
-6.2447 -15.881 63.827
-6.1717 -15.873 63.792
-6.0988002 -15.864 63.757
-6.0254002 -15.854 63.715
-5.9517999 -15.843 63.671001
-5.8785 -15.832 63.630001
-5.8053999 -15.822 63.589001
-5.7342 -15.817 63.568001
-5.6668 -15.822 63.589001
-5.6033001 -15.839 63.655998
-5.5427999 -15.864 63.758999
-5.4884 -15.908 63.935001
-5.4400001 -15.971 64.186996
-5.5148001 -16.400999 65.917
-5.4692001 -16.48 66.235001
-5.4183002 -16.546 66.497002
-5.3621998 -16.596001 66.700996
-5.3002 -16.629999 66.835999
-5.2340999 -16.650999 66.921997
-5.1659002 -16.667 66.984001
-5.0948 -16.673 67.010002
-5.0226002 -16.676001 67.021004
-4.9506998 -16.68 67.037003
-4.8793001 -16.686001 67.059998
-4.8081002 -16.691999 67.086998
-4.7377 -16.702 67.126999
-4.6680002 -16.715 67.176003
-4.5988998 -16.73 67.237
-4.5299001 -16.746 67.301003
-4.4615998 -16.764999 67.377998
-4.3934002 -16.785 67.459
-4.3259001 -16.809 67.554001
-4.2586999 -16.834 67.654999
-4.1954999 -16.877001 67.827003
-4.1329999 -16.923 68.014999
-4.0718002 -16.976999 68.232002
-4.0105 -17.033001 68.456001
-3.9618001 -17.145 68.906998
-3.8996999 -17.202999 69.139
-3.8343 -17.247999 69.319
-3.7664001 -17.283001 69.459
-3.6975 -17.315001 69.588997
-3.6249001 -17.330999 69.653
-3.5504999 -17.337999 69.682999
-3.4755001 -17.343 69.700996
11.031 -19.778999 79.491997
11.113 -19.771 79.458
11.188 -19.750999 79.378998
11.262 -19.729 79.290001
11.391 -19.653 78.985001
11.448 -19.604 78.786003
11.505 -19.552999 78.584
11.556 -19.493999 78.348
11.608 -19.438 78.123001
11.65 -19.367001 77.834
13.377 -18.583 74.683998
13.458 -18.583 74.683998
13.534 -18.576 74.654999
13.613 -18.572001 74.641998
13.691 -18.566999 74.619003
13.759 -18.549999 74.550003
13.825 -18.528 74.464996
13.892 -18.51 74.391998
13.964 -18.497 74.339996
14.037 -18.487 74.297997
14.112 -18.48 74.271004
14.196 -18.483 74.281998
14.279 -18.486 74.295998
14.363 -18.489 74.307999
14.444 -18.489 74.307999
14.522 -18.486 74.293999
14.6 -18.482 74.279999
14.679 -18.479 74.265999
14.757 -18.475 74.250999
14.834 -18.471001 74.236
14.913 -18.468 74.222
14.992 -18.466 74.212997
15.072 -18.465 74.209
15.153 -18.465 74.209999
15.235 -18.466 74.214996
15.317 -18.468 74.222
15.4 -18.471001 74.233002
15.484 -18.474001 74.247002
15.568 -18.478001 74.262001
15.653 -18.482 74.278
15.737 -18.486 74.294998
15.822 -18.490999 74.314003
15.908 -18.497 74.337997
15.997 -18.504999 74.370003
16.086 -18.514999 74.411003
16.177999 -18.527 74.459999
16.271999 -18.541 74.515999
16.365 -18.555 74.572998
16.459 -18.569 74.629997
16.554001 -18.584999 74.691002
16.660999 -18.613001 74.806999
16.788 -18.663 75.007004
16.934 -18.733999 75.292
17.087999 -18.813999 75.613998
17.684999 -19.285 77.505997
17.846001 -19.368 77.839996
17.997 -19.438999 78.125
18.139 -19.500999 78.372002
18.243 -19.52 78.450996
18.337 -19.530001 78.489998
18.424 -19.531 78.494003
18.513 -19.535 78.510002
18.605 -19.541 78.535004
18.700001 -19.551001 78.573997
18.797001 -19.563 78.621002
18.896 -19.576 78.677002
18.99 -19.584 78.709999
19.084999 -19.594 78.748001
19.18 -19.604 78.787003
19.275999 -19.613001 78.825996
18.785999 -18.457001 74.179001
18.867001 -18.457001 74.178001
18.947001 -18.455999 74.176003
19.027 -18.455 74.170998
19.106001 -18.454 74.166
19.184999 -18.452 74.157997
19.263 -18.448999 74.148003
19.339001 -18.445 74.129997
19.413 -18.438 74.101997
19.483 -18.427999 74.059998
19.548 -18.413 74.001999
19.610001 -18.395 73.93
19.671 -18.377001 73.856003
19.732 -18.358999 73.783997
19.792999 -18.341 73.710999
19.855 -18.323999 73.641998
19.919001 -18.309 73.584
19.986 -18.297001 73.536003
20.056999 -18.288 73.5
20.131001 -18.283001 73.478996
20.208 -18.280001 73.468002
20.287001 -18.278999 73.464996
20.368999 -18.280001 73.469002
20.452 -18.283001 73.480003
20.535 -18.285999 73.491997
20.618999 -18.290001 73.505997
20.704 -18.294001 73.523003
20.791 -18.299 73.543999
20.878 -18.305 73.568001
20.966 -18.312 73.597
21.055 -18.32 73.626999
21.143999 -18.327999 73.657997
21.228001 -18.330999 73.671997
21.313 -18.334999 73.685997
21.399 -18.339001 73.705002
21.485001 -18.344 73.725998
-9.9549999 -15.736 63.521999
-9.8870001 -15.738 63.529999
-9.8189001 -15.74 63.537998
-9.7505999 -15.742 63.543999
-9.6823997 -15.744 63.550999
-9.6148005 -15.746 63.563
-9.5495996 -15.753 63.59
-9.4876003 -15.765 63.639
-9.4273996 -15.781 63.701
-9.3678999 -15.797 63.769001
-9.3098001 -15.817 63.848
-9.2544003 -15.841 63.945
-9.1933002 -15.856 64.005997
-9.1276999 -15.863 64.035004
-9.0597 -15.867 64.047997
-8.9895 -15.866 64.045998
-8.915 -15.858 64.012001
-8.8364 -15.842 63.948002
-8.7587996 -15.828 63.890999
-8.6838999 -15.818 63.852001
-8.6174002 -15.824 63.875
-8.5534 -15.834 63.917999
-8.4944 -15.854 63.998001
-8.4401999 -15.884 64.116997
-8.3908997 -15.923 64.274002
-8.3367004 -15.953 64.397003
-8.2816 -15.982 64.514999
-8.2236996 -16.006001 64.612999
-8.1626997 -16.025 64.688004
-8.0930996 -16.027 64.695
-8.0190001 -16.02 64.666
-7.9422002 -16.007 64.614998
-7.8634 -15.99 64.545998
-7.7838001 -15.971 64.470001
-7.7013001 -15.946 64.367996
-7.6202998 -15.923 64.277
-7.5426998 -15.907 64.212997
-7.4706001 -15.903 64.195
-7.4004998 -15.903 64.194
-7.3344002 -15.911 64.227997
-7.2695999 -15.923 64.275002
-7.2090998 -15.944 64.360001
-7.1426001 -15.952 64.392998
-7.0738001 -15.955 64.405998
-7.0029998 -15.954 64.400002
-6.9292998 -15.946 64.369003
-6.8509998 -15.927 64.292
-6.7711 -15.904 64.198997
-6.6919999 -15.882 64.112
-6.6139998 -15.863 64.033997
-6.5372 -15.846 63.965
-6.4619999 -15.833 63.910999
-6.3884001 -15.823 63.872002
-6.3153 -15.814 63.837002
-6.2421999 -15.806 63.801998
-6.1690998 -15.796 63.764999
-6.0959001 -15.787 63.727001
-6.0222001 -15.776 63.681999
-5.9485998 -15.765 63.637001
-5.8751001 -15.754 63.592999
-5.8018999 -15.743 63.550999
-5.7291002 -15.734 63.512001
-5.6601 -15.734 63.514
-5.5945001 -15.745 63.556
-5.5317998 -15.763 63.632
-5.4738998 -15.797 63.764999
-5.4204998 -15.844 63.956001
-5.3733001 -15.91 64.224998
-5.4512 -16.354 66.016998
-5.4035001 -16.427999 66.315002
-5.3516002 -16.490999 66.569
-5.2929001 -16.534 66.742996
-5.2291002 -16.563 66.858002
-5.1629 -16.584 66.945
-5.0935001 -16.596001 66.992996
-5.0228 -16.604 67.024002
-4.9510999 -16.608 67.042
-4.8797002 -16.614 67.066002
-4.8085999 -16.621 67.094002
-4.7384 -16.631001 67.136002
-4.6687002 -16.643999 67.185997
-4.5995002 -16.659 67.246002
-4.5304999 -16.674999 67.309998
-4.4622002 -16.694 67.386002
-4.3938999 -16.712999 67.466003
-4.3263998 -16.737 67.561996
-4.2593002 -16.763 67.665001
-4.1959 -16.804001 67.833
-4.1329999 -16.85 68.015999
-4.0717001 -16.903 68.231003
-4.0120001 -16.965 68.481003
-3.9593 -17.059 68.862999
-3.8994999 -17.127001 69.135002
-3.8343999 -17.173 69.320999
-3.7664001 -17.207001 69.460999
-3.6975 -17.239 69.588997
-3.6252 -17.256001 69.656998
-3.5511999 -17.264999 69.695
-3.4763999 -17.271 69.719002
11.484 -19.289 77.863998
11.509 -19.188999 77.459999
9.9555998 -16.313 65.560997
9.9126997 -16.171 65.278999
10.004 -16.275 65.407997
9.9645996 -16.139999 65.153
10.053 -16.239 65.264
10.016 -16.108999 65.026001
10.104 -16.205999 65.132004
10.071 -16.083 64.922997
10.161 -16.184 65.042999
10.128 -16.061001 64.833
10.218 -16.163 64.959
10.186 -16.041 64.751999
10.276 -16.143 64.877998
10.244 -16.021999 64.676003
10.34 -16.131001 64.832001
10.307 -16.01 64.626999
10.369 -15.997 64.573997
13.415 -18.441999 74.443001
13.491 -18.434999 74.417
13.568 -18.429001 74.392998
13.65 -18.43 74.396004
13.719 -18.414 74.332001
13.781 -18.389 74.228996
13.851 -18.374001 74.170998
13.925 -18.365 74.133003
14.005 -18.365 74.132004
14.087 -18.365999 74.139
14.177 -18.378 74.184998
14.266 -18.388 74.226997
14.354 -18.396999 74.262001
14.438 -18.400999 74.278999
14.519 -18.400999 74.280998
14.598 -18.398001 74.266998
14.676 -18.395 74.252998
14.754 -18.391001 74.238998
14.832 -18.386999 74.223999
14.911 -18.385 74.212997
14.99 -18.382999 74.207001
15.071 -18.382999 74.206001
15.153 -18.384001 74.209999
15.235 -18.386 74.218002
15.318 -18.388 74.226997
15.402 -18.391001 74.239998
15.486 -18.395 74.253998
15.57 -18.399 74.271004
15.655 -18.403 74.287003
15.739 -18.407 74.303001
15.824 -18.412001 74.322998
15.911 -18.417999 74.348999
16 -18.427 74.384003
16.09 -18.438 74.429001
16.183001 -18.451 74.482002
16.277 -18.466 74.540001
16.372 -18.481001 74.601997
16.466999 -18.496 74.663002
16.561001 -18.51 74.720001
16.664 -18.535 74.818001
16.785 -18.577999 74.994003
16.924 -18.641001 75.248001
17.075001 -18.716999 75.553001
17.658001 -19.171 77.385002
17.820999 -19.256001 77.732002
17.974001 -19.33 78.028
18.118999 -19.393 78.285004
18.23 -19.42 78.393997
18.33 -19.437 78.459999
18.423 -19.445 78.490997
18.514 -19.450001 78.514
18.608 -19.458 78.546997
18.704 -19.469999 78.592003
18.802999 -19.483 78.648003
18.903999 -19.499001 78.709999
18.999001 -19.509001 78.75
19.094999 -19.518999 78.792
19.191 -19.528999 78.834
19.287001 -19.539 78.873001
18.790001 -18.379999 74.193001
18.871 -18.379999 74.195
18.952999 -18.381001 74.196999
19.034 -18.381001 74.197998
19.115 -18.381001 74.197998
19.195999 -18.381001 74.198997
19.277 -18.381001 74.198997
19.356001 -18.379 74.191002
19.431999 -18.375 74.175003
19.504999 -18.368 74.143997
19.572001 -18.355 74.091003
19.634001 -18.337 74.021004
19.691999 -18.316 73.936996
19.750999 -18.296 73.857002
19.809999 -18.275999 73.776001
19.871 -18.257999 73.703003
19.934 -18.243 73.639
20 -18.229 73.584999
20.069 -18.219 73.544998
20.143 -18.212999 73.521004
20.219999 -18.209999 73.509003
20.299 -18.209999 73.505997
20.379999 -18.209999 73.509003
20.462999 -18.212999 73.517998
20.546 -18.215 73.528999
20.629 -18.218 73.541
20.714001 -18.222 73.556999
20.799999 -18.228001 73.579002
20.888 -18.233999 73.605003
20.976999 -18.240999 73.635002
21.066 -18.25 73.667
21.157 -18.257999 73.702003
21.240999 -18.261999 73.717003
21.327 -18.267 73.736
21.414 -18.271999 73.758003
21.502001 -18.278 73.783997
-9.8828001 -15.662 63.502998
-9.8149004 -15.665 63.512001
-9.7468996 -15.666 63.52
-9.6789999 -15.669 63.528999
-9.6113005 -15.671 63.540001
-9.5465002 -15.679 63.569
-9.4843998 -15.691 63.618
-9.4240999 -15.706 63.679001
-9.3646002 -15.722 63.745998
-9.3063002 -15.741 63.823002
-9.2493 -15.763 63.910999
-9.1898003 -15.78 63.980999
-9.1239004 -15.787 64.008003
-9.0558004 -15.79 64.019997
-8.9854002 -15.789 64.015999
-8.9109001 -15.781 63.981998
-8.8318996 -15.764 63.915001
-8.7537003 -15.749 63.854
-8.6784 -15.738 63.812
-8.6112003 -15.743 63.830002
-8.5471001 -15.753 63.870998
-8.4878998 -15.772 63.949001
-8.4349003 -15.804 64.075996
-8.3849001 -15.841 64.227997
-8.3297997 -15.87 64.344002
-8.2747002 -15.899 64.460999
-8.2173004 -15.923 64.561996
-8.1562004 -15.942 64.636002
-8.0867996 -15.944 64.644997
-8.0125999 -15.936 64.614998
-7.9359002 -15.924 64.564003
-7.8575001 -15.908 64.498001
-7.7774 -15.888 64.417
-7.6957002 -15.864 64.320999
-7.6150999 -15.842 64.233002
-7.5374999 -15.826 64.168999
-7.4653001 -15.822 64.149002
-7.395 -15.821 64.146004
-7.3288002 -15.829 64.179001
-7.2639999 -15.84 64.224998
-7.2024999 -15.859 64.301003
-7.1367002 -15.869 64.339996
-7.0681 -15.872 64.353996
-6.9969001 -15.87 64.344002
-6.9243999 -15.865 64.322998
-6.8467002 -15.847 64.251999
-6.7677999 -15.826 64.167999
-6.6890998 -15.806 64.084999
-6.6114001 -15.787 64.008003
-6.5349002 -15.771 63.943001
-6.4597998 -15.758 63.889999
-6.3863001 -15.748 63.851002
-6.3130999 -15.739 63.814999
-6.2399001 -15.73 63.778
-6.1666002 -15.721 63.738998
-6.0932999 -15.711 63.699001
-6.0194001 -15.699 63.653
-5.9460001 -15.689 63.610001
-5.8723998 -15.677 63.563999
-5.7990999 -15.667 63.52
-5.7261 -15.656 63.478001
-5.6554999 -15.652 63.463001
-5.5881 -15.657 63.483002
-5.5229998 -15.669 63.530998
-5.4625001 -15.694 63.632999
-5.4053001 -15.73 63.777
-5.3527999 -15.78 63.980999
-5.3067999 -15.851 64.267998
-5.3868999 -16.306 66.111
-5.3376999 -16.375999 66.396004
-5.2828002 -16.43 66.615997
-5.2217999 -16.466999 66.765999
-5.1578999 -16.495001 66.880997
-5.0904002 -16.513 66.952003
-5.0214 -16.525999 67.004997
-4.9512 -16.535999 67.043999
-4.8799 -16.542 67.069
-4.8088999 -16.549 67.098999
-4.7388 -16.559999 67.141998
-4.6690998 -16.572001 67.193001
-4.5999999 -16.587 67.252998
-4.5310001 -16.603001 67.317001
-4.4626002 -16.622 67.392998
-4.3943 -16.641001 67.473
-4.3269 -16.665001 67.568001
-4.2596998 -16.691 67.671997
-4.1959 -16.73 67.833
-4.1328001 -16.774 68.012001
-4.0711999 -16.826 68.223
-4.0121002 -16.891001 68.483002
-3.9563999 -16.972 68.813004
-3.8961999 -17.037001 69.075996
-3.8327999 -17.09 69.292
-3.7649 -17.125 69.433998
-3.6959 -17.156 69.559998
-3.6241 -17.174999 69.636002
-3.5504999 -17.186001 69.682999
9.8592997 -16.201 65.396004
9.8250999 -16.073 65.169998
9.8818998 -16.049999 65.075996
9.9365997 -16.024 64.969002
9.9912996 -15.998 64.864998
10.047 -15.975 64.771004
10.105 -15.955 64.688004
10.163 -15.935 64.610001
10.222 -15.917 64.535004
10.285 -15.905 64.487
10.346 -15.892 64.433998
10.432 -15.985 64.527
10.409 -15.88 64.388
10.495 -15.975 64.485001
10.472 -15.869 64.343002
10.559 -15.965 64.445
10.535 -15.859 64.301003
10.625 -15.958 64.418999
10.6 -15.851 64.268997
10.691 -15.952 64.393997
10.666 -15.844 64.240997
10.758 -15.948 64.375999
10.732 -15.839 64.218002
10.824 -15.941 64.349998
10.796 -15.831 64.184998
10.884 -15.926 64.290001
10.859 -15.819 64.139
10.951 -15.921 64.268997
10.925 -15.814 64.115997
10.997 -15.817 64.128998
13.865 -18.205999 73.816002
13.958 -18.222 73.880997
14.049 -18.236 73.939003
14.149 -18.26 74.036003
14.246 -18.281 74.120003
14.34 -18.298 74.189003
14.429 -18.308001 74.232002
14.514 -18.313999 74.252998
14.595 -18.313999 74.254997
14.673 -18.311001 74.240997
14.752 -18.306999 74.225998
14.83 -18.304001 74.212997
14.909 -18.302 74.204002
14.989 -18.301001 74.200996
15.071 -18.301001 74.203003
15.153 -18.302999 74.209999
15.236 -18.306 74.222
15.32 -18.309 74.234001
15.404 -18.313 74.249001
15.488 -18.316999 74.265999
15.573 -18.320999 74.282997
15.657 -18.325001 74.299004
15.742 -18.329 74.316002
15.827 -18.334 74.336998
15.914 -18.341 74.364998
16.003 -18.351 74.403
16.094999 -18.362 74.449997
16.188999 -18.375999 74.508003
16.283001 -18.392 74.57
16.379 -18.408001 74.635002
16.475 -18.424 74.699997
16.569 -18.438 74.758003
16.667999 -18.458 74.837997
16.785 -18.496 74.992996
16.919001 -18.552999 75.224998
17.066 -18.625 75.515999
17.228001 -18.711 75.863998
17.792999 -19.142 77.610001
17.950001 -19.219 77.922997
18.098 -19.285999 78.196999
18.216999 -19.322001 78.339996
18.326 -19.346001 78.439003
18.426001 -19.362 78.502998
18.52 -19.370001 78.537003
18.615999 -19.381001 78.580002
18.714001 -19.393999 78.634003
18.815001 -19.409 78.695999
18.917 -19.426001 78.764
19.014 -19.437 78.808998
19.111 -19.448999 78.855003
19.207001 -19.459999 78.899002
19.302 -19.469 78.934998
18.794001 -18.302999 74.209
18.875999 -18.304001 74.213997
18.959 -18.306 74.221001
19.041 -18.306999 74.226997
19.122999 -18.309 74.232002
19.207001 -18.311001 74.240997
19.290001 -18.313 74.249001
19.371 -18.313 74.250999
19.450001 -18.311001 74.242996
19.525 -18.306 74.220001
19.594 -18.294001 74.174004
19.657 -18.278 74.109001
19.716999 -18.257999 74.028
19.773001 -18.235001 73.935997
19.829 -18.212999 73.847
19.888 -18.194 73.766998
19.950001 -18.177 73.696999
20.014 -18.162001 73.638
20.082001 -18.150999 73.592003
20.155001 -18.143999 73.565002
20.232 -18.141001 73.553001
20.311001 -18.139999 73.549004
20.392 -18.141001 73.551003
20.474001 -18.142 73.557999
20.556999 -18.145 73.569
20.639999 -18.148001 73.580002
20.725 -18.152 73.596001
20.812 -18.157 73.620003
20.9 -18.164 73.647003
20.989 -18.172001 73.679001
21.08 -18.181 73.713997
21.171 -18.190001 73.750999
21.257 -18.195 73.771004
21.344 -18.200001 73.793999
21.431999 -18.207001 73.82
21.521 -18.214001 73.848999
-9.8775997 -15.585 63.470001
-9.8104 -15.588 63.483002
-9.7427998 -15.591 63.493999
-9.6752005 -15.593 63.504002
-9.6077003 -15.596 63.515999
-9.5431995 -15.604 63.547001
-9.4809999 -15.616 63.595001
-9.4208002 -15.631 63.657001
-9.3612003 -15.647 63.723999
-9.3023996 -15.665 63.797001
-9.2445002 -15.685 63.876999
-9.1849003 -15.702 63.946999
-9.1188002 -15.708 63.972
-9.0503998 -15.711 63.981998
-8.9799995 -15.71 63.977001
-8.9057999 -15.702 63.945999
-8.8263998 -15.685 63.875999
-8.7479 -15.669 63.811001
-8.6722002 -15.658 63.765999
-8.6054001 -15.663 63.786999
-8.5414 -15.673 63.827999
-8.4815998 -15.691 63.902
-8.4266996 -15.718 64.014
-8.3788996 -15.76 64.181999
-8.3235998 -15.788 64.295998
-8.2673998 -15.814 64.404999
-8.21 -15.839 64.504997
-8.1496 -15.858 64.583
-8.0802002 -15.86 64.591003
-8.0061998 -15.853 64.563004
-7.9295998 -15.841 64.513
-7.8508 -15.824 64.443001
-7.7712998 -15.805 64.365997
-7.6893001 -15.781 64.267998
-7.6100001 -15.762 64.190002
-7.5325999 -15.746 64.125999
-7.4601998 -15.741 64.106003
-7.3896999 -15.74 64.099998
-7.3234 -15.748 64.132004
-7.2585001 -15.758 64.176003
-7.1957998 -15.774 64.240997
-7.1299 -15.783 64.278
-7.0613999 -15.787 64.292999
-6.9910002 -15.786 64.290001
-6.9189 -15.782 64.272003
-6.8421001 -15.766 64.209
-6.7642999 -15.748 64.134003
-6.6859002 -15.728 64.054001
-6.6086001 -15.711 63.981998
-6.5324998 -15.695 63.918999
-6.4576001 -15.683 63.868
-6.3839998 -15.673 63.827999
-6.3105998 -15.663 63.789001
-6.2372999 -15.654 63.750999
-6.164 -15.644 63.712002
-6.0907001 -15.635 63.672001
-6.0170999 -15.624 63.627998
-5.9438 -15.614 63.585999
-5.8702998 -15.602 63.541
-5.7971001 -15.592 63.498001
-5.7238002 -15.581 63.452999
-5.6517 -15.573 63.421001
-5.5825 -15.573 63.419998
-5.5153999 -15.579 63.444
-5.4521999 -15.596 63.514
-5.3917999 -15.621 63.618
-5.3348999 -15.658 63.766998
-5.2828002 -15.709 63.977001
-5.3642998 -16.165001 65.834
-5.3196001 -16.247999 66.170998
-5.2694998 -16.316 66.448997
-5.2119999 -16.363001 66.639999
-5.1508999 -16.4 66.790001
-5.0854998 -16.424 66.888
-5.0184002 -16.443001 66.964996
-4.9496999 -16.458 67.024002
-4.8800001 -16.469 67.069
-4.809 -16.476 67.099998
-4.7389998 -16.487 67.144997
-4.6694002 -16.5 67.196999
-4.6004 -16.514999 67.258003
-4.5314002 -16.531 67.322998
-4.4629998 -16.549999 67.399002
-4.3947001 -16.569 67.478996
-4.3273001 -16.593 67.574997
-4.2602 -16.618999 67.68
-4.1957998 -16.656 67.831001
-4.1321998 -16.698 68.001999
-4.0711999 -16.752001 68.223
-4.0103998 -16.809 68.455002
-3.9517 -16.877001 68.731003
-3.8929 -16.947001 69.016998
-3.8294001 -16.999001 69.230003
-3.7625 -17.038 69.389
-3.6935 -17.069 69.514
-3.6222999 -17.09 69.600998
-3.5495 -17.106001 69.663002
9.7131996 -16.124001 65.373001
9.6806002 -15.998 65.153
9.7681999 -16.097 65.264
9.7425003 -15.983 65.092003
9.8032999 -15.967 65.025002
9.8641996 -15.951 64.959
9.9228001 -15.931 64.878998
9.9805002 -15.91 64.794998
10.039 -15.891 64.714996
10.098 -15.873 64.644997
10.159 -15.858 64.583
10.22 -15.843 64.521004
10.281 -15.829 64.463997
10.343 -15.816 64.412003
10.406 -15.805 64.364998
10.469 -15.794 64.32
10.532 -15.783 64.277
10.594 -15.772 64.233002
10.658 -15.763 64.193001
10.722 -15.753 64.155998
10.786 -15.745 64.121002
10.85 -15.736 64.086998
10.915 -15.73 64.060997
10.986 -15.731 64.066002
11.063 -15.741 64.105003
14.101 -18.118 73.787003
14.209 -18.153999 73.931999
14.313 -18.183001 74.049004
14.409 -18.202999 74.132004
14.5 -18.216 74.182999
14.586 -18.222 74.208
14.668 -18.223 74.212997
14.75 -18.224001 74.216003
14.828 -18.221001 74.205002
14.908 -18.219999 74.199997
14.989 -18.219999 74.200996
15.071 -18.221001 74.207001
15.154 -18.224001 74.217003
15.238 -18.226999 74.231003
15.322 -18.231001 74.247002
15.407 -18.235001 74.263
15.491 -18.24 74.280998
15.576 -18.243999 74.299004
15.661 -18.247999 74.316002
15.745 -18.252001 74.334
15.831 -18.257999 74.356003
15.919 -18.266001 74.387001
16.009001 -18.275999 74.428001
16.101 -18.288 74.480003
16.195 -18.302999 74.540001
16.291 -18.319 74.605003
16.388 -18.337 74.676003
16.483999 -18.353001 74.742996
16.58 -18.368999 74.806
16.674999 -18.384001 74.869003
16.785999 -18.416 75.000999
16.915001 -18.468 75.210999
17.062 -18.538 75.495003
17.216999 -18.617001 75.817001
17.385 -18.709 76.192001
17.759001 -19.02 77.458
17.924 -19.106001 77.808998
18.077 -19.177999 78.102997
18.207001 -19.225 78.295998
18.325001 -19.26 78.434998
18.433001 -19.284 78.532997
18.530001 -19.295 78.580002
18.629 -19.309 78.635002
18.73 -19.325001 78.699997
18.830999 -19.34 78.763
18.933001 -19.357 78.831001
19.030001 -19.368 78.877998
19.125999 -19.379 78.919998
19.223 -19.389 78.962997
19.316 -19.396999 78.992996
18.802 -18.23 74.240997
18.885 -18.232 74.248001
18.968 -18.233999 74.257004
19.051001 -18.236 74.264999
19.134001 -18.238001 74.274002
19.219 -18.242001 74.289001
19.304001 -18.245001 74.304001
19.386999 -18.247 74.313004
19.468 -18.247 74.313004
19.545 -18.243 74.296997
19.615 -18.233 74.253998
19.679001 -18.218 74.192001
19.74 -18.198999 74.114998
19.795 -18.174999 74.019997
19.849001 -18.150999 73.920998
19.906 -18.129999 73.834
19.966 -18.111 73.757004
20.028999 -18.094999 73.694
20.096001 -18.083 73.642998
20.167 -18.075001 73.611
20.243999 -18.072001 73.598999
20.323 -18.070999 73.594002
20.403 -18.070999 73.594002
20.485001 -18.072001 73.599998
20.568001 -18.075001 73.609001
20.652 -18.077999 73.622002
20.737 -18.082001 73.639
20.823999 -18.087999 73.664001
20.913 -18.094999 73.693001
21.003 -18.104 73.726997
21.094 -18.113001 73.764999
21.186001 -18.122999 73.806
21.273001 -18.128 73.829002
21.361 -18.135 73.853996
21.450001 -18.142 73.884003
21.539 -18.149 73.912003
-9.8717003 -15.506 63.431999
-9.8051004 -15.51 63.448002
-9.7381001 -15.514 63.463001
-9.6710997 -15.517 63.477001
-9.6037998 -15.521 63.490002
-9.5396996 -15.529 63.523998
-9.4773998 -15.54 63.570999
-9.4174004 -15.556 63.633999
-9.3576002 -15.572 63.699001
-9.2976999 -15.588 63.764
-9.2386999 -15.605 63.837002
-9.1791 -15.622 63.907001
-9.1127996 -15.628 63.931
-9.0440998 -15.63 63.938
-8.9736004 -15.629 63.931999
-8.8993998 -15.621 63.900002
-8.8198996 -15.603 63.828999
-8.7413998 -15.588 63.764
-8.6660004 -15.577 63.720001
-8.5992002 -15.582 63.741001
-8.5354996 -15.593 63.784
-8.4759998 -15.611 63.859001
-8.4189997 -15.634 63.955002
-8.3733997 -15.68 64.139999
-8.3176003 -15.706 64.25
-8.2613001 -15.732 64.356003
-8.2033997 -15.756 64.453003
-8.1428003 -15.775 64.529999
-8.0735998 -15.777 64.539001
-7.9997001 -15.77 64.510002
-7.9231 -15.758 64.459999
-7.8449001 -15.742 64.394997
-7.7659998 -15.724 64.322998
-7.6848998 -15.702 64.231003
-7.6058998 -15.683 64.154999
-7.5286999 -15.668 64.093002
-7.4562001 -15.663 64.070999
-7.3855 -15.661 64.064003
-7.3189001 -15.668 64.093002
-7.2536001 -15.678 64.133003
-7.1894002 -15.69 64.183998
-7.1237001 -15.7 64.223
-7.0555 -15.704 64.239998
-6.9853001 -15.703 64.237999
-6.9136 -15.7 64.223
-6.8375001 -15.686 64.166
-6.7607002 -15.67 64.099998
-6.6829 -15.651 64.024002
-6.6058002 -15.634 63.953999
-6.5300999 -15.62 63.896
-6.4552002 -15.607 63.845001
-6.3815999 -15.597 63.804001
-6.3080001 -15.588 63.764
-6.2347002 -15.578 63.724998
-6.1616001 -15.569 63.687
-6.0885 -15.56 63.648998
-6.0152001 -15.549 63.608002
-5.9421 -15.54 63.568001
-5.8688998 -15.529 63.525002
-5.7957001 -15.519 63.483002
-5.7224998 -15.508 63.438
-5.6501002 -15.499 63.402
-5.5791001 -15.494 63.381001
-5.5100002 -15.494 63.381001
-5.4445 -15.504 63.423
-5.3813 -15.522 63.493999
-5.3211002 -15.548 63.601002
-5.2638998 -15.584 63.749001
-5.2126999 -15.639 63.973
-5.2979999 -16.110001 65.901001
-5.2515001 -16.188 66.222
-5.1985998 -16.249001 66.469002
-5.1410999 -16.296 66.662003
-5.0784998 -16.329 66.795998
-5.0135002 -16.354 66.900002
-4.9468002 -16.375 66.984001
-4.8786001 -16.391001 67.050003
-4.809 -16.403 67.099998
-4.7392001 -16.415001 67.147003
-4.6697001 -16.427999 67.199997
-4.6005998 -16.443001 67.262001
-4.5314999 -16.458 67.324997
-4.4633002 -16.476999 67.403
-4.395 -16.497 67.483002
-4.3276 -16.521 67.581001
-4.2606001 -16.546 67.685997
-4.1957002 -16.580999 67.829002
-4.1317 -16.622 67.994003
-4.0697999 -16.672001 68.197998
-4.0082998 -16.725 68.417999
-3.9472001 -16.783001 68.653
-3.8892 -16.856001 68.950996
-3.8264 -16.91 69.175003
-3.7593999 -16.948999 69.332001
-3.6903999 -16.979 69.455002
-3.6199 -17.004 69.556
-3.5481 -17.023001 69.635002
9.6169004 -16.011 65.203003
9.5930004 -15.9 65.041
9.6606998 -15.895 65.019997
9.7264004 -15.886 64.985001
9.7905998 -15.875 64.941002
9.8540001 -15.863 64.891998
9.9151001 -15.848 64.829002
9.9750004 -15.831 64.759003
10.035 -15.815 64.692001
10.097 -15.8 64.633003
10.158 -15.785 64.572998
10.219 -15.771 64.513
10.28 -15.757 64.456001
10.342 -15.744 64.404999
10.404 -15.732 64.356003
10.467 -15.721 64.309998
10.53 -15.71 64.265999
10.592 -15.699 64.221001
10.655 -15.689 64.179001
10.719 -15.68 64.140999
10.783 -15.671 64.106003
10.847 -15.663 64.071999
10.913 -15.657 64.049004
10.984 -15.658 64.053001
11.059 -15.666 64.084999
11.14 -15.681 64.146004
11.145 -15.759 64.177002
11.504 -15.965 65.016998
11.429 -15.791 64.595001
11.527 -15.829 64.752998
11.63 -16.042 65.330002
11.618 -15.857 64.864998
11.909 -15.751 64.147003
11.861 -15.618 63.887001
11.929 -15.616 63.879002
11.977 -15.749 64.138
12.002 -15.62 63.896999
12.055 -15.758 64.177002
12.083 -15.635 63.959
14.252 -18.025 73.734001
14.361 -18.061001 73.882004
14.461 -18.086 73.984001
14.555 -18.103001 74.052002
14.644 -18.112 74.089996
14.731 -18.120001 74.124001
14.815 -18.124001 74.140999
14.9 -18.129 74.161003
14.986 -18.135 74.185997
15.073 -18.142 74.213997
15.157 -18.146 74.227997
15.241 -18.15 74.245003
15.326 -18.153999 74.262001
15.41 -18.158001 74.279999
15.495 -18.163 74.300003
15.58 -18.167 74.317001
15.665 -18.172001 74.334999
15.75 -18.177 74.355003
15.836 -18.183001 74.379997
15.925 -18.191 74.414001
16.016001 -18.202 74.459999
16.108999 -18.216 74.514999
16.204 -18.231001 74.579002
16.301001 -18.249001 74.650002
16.399 -18.267 74.725998
16.497 -18.285 74.799004
16.593 -18.302 74.867996
16.690001 -18.319 74.935997
16.797001 -18.347 75.050003
16.922001 -18.393 75.238998
17.065001 -18.459 75.508003
17.218 -18.535 75.820999
17.382999 -18.624001 76.183998
17.731001 -18.906 77.338997
17.902 -18.997999 77.713997
18.059999 -19.075001 78.029999
18.200001 -19.132999 78.267998
18.327999 -19.177999 78.448997
18.445 -19.209999 78.583
18.546 -19.226 78.647003
18.646 -19.240999 78.707001
18.747999 -19.257999 78.777
18.85 -19.274 78.843002
18.952 -19.291 78.912003
19.049 -19.301001 78.956001
19.143999 -19.309999 78.991997
19.237 -19.318001 79.023003
19.329 -19.323 79.044998
18.816 -18.163 74.297997
18.9 -18.165001 74.307999
18.983999 -18.167999 74.319
19.066999 -18.17 74.327003
19.15 -18.172001 74.335999
19.236 -18.177 74.356003
19.323 -18.181999 74.375999
19.407 -18.184999 74.389999
19.489 -18.186001 74.391998
19.566 -18.181999 74.375999
19.636 -18.172001 74.334
19.700001 -18.156 74.271004
19.761 -18.136999 74.194
19.818001 -18.115 74.103996
19.868999 -18.087999 73.994003
19.924 -18.065001 73.899002
19.982 -18.045 73.818001
20.044001 -18.028 73.748001
20.108999 -18.014999 73.692001
20.18 -18.006001 73.656998
20.256001 -18.002001 73.641998
20.334999 -18.000999 73.636002
20.415001 -18.000999 73.635002
20.497 -18.002001 73.640999
20.58 -18.004999 73.652
20.664 -18.007999 73.666
20.75 -18.013 73.684998
20.837999 -18.018999 73.710999
20.927999 -18.027 73.745003
21.018 -18.035999 73.780998
21.110001 -18.046 73.820999
21.204 -18.056999 73.865997
21.291 -18.063 73.890999
21.379999 -18.07 73.917999
21.468 -18.077 73.945999
21.556999 -18.083 73.973
-9.8648005 -15.427 63.388
-9.7988005 -15.431 63.408001
-9.7327003 -15.436 63.428001
-9.6662998 -15.441 63.445999
-9.5993996 -15.444 63.460999
-9.5359001 -15.453 63.499001
-9.4734001 -15.465 63.543999
-9.4136 -15.48 63.608002
-9.3539 -15.496 63.674
-9.2936001 -15.511 63.737
-9.2335997 -15.527 63.801998
-9.1718998 -15.541 63.856998
-9.1064997 -15.548 63.887001
-9.0375004 -15.549 63.890999
-8.9668999 -15.547 63.883999
-8.8917999 -15.538 63.845001
-8.8133001 -15.522 63.780998
-8.7354002 -15.507 63.720001
-8.6597996 -15.496 63.674999
-8.5936003 -15.502 63.699001
-8.5304003 -15.514 63.744999
-8.4707003 -15.532 63.82
-8.4136 -15.555 63.914001
-8.368 -15.6 64.098999
-8.3121996 -15.626 64.208
-8.2556 -15.652 64.311996
-8.1976004 -15.675 64.406998
-8.1367998 -15.693 64.483002
-8.0674 -15.695 64.488998
-7.9935002 -15.688 64.459999
-7.9173002 -15.676 64.412003
-7.8397002 -15.661 64.351997
-7.7613001 -15.645 64.283997
-7.6806998 -15.623 64.195999
-7.6023998 -15.606 64.125999
-7.5254002 -15.592 64.066002
-7.4527998 -15.586 64.042
-7.382 -15.584 64.032997
-7.3151002 -15.59 64.058998
-7.2494998 -15.599 64.097
-7.1842999 -15.609 64.138
-7.1178999 -15.617 64.170998
-7.0500002 -15.622 64.190002
-6.9801002 -15.622 64.190002
-6.9085999 -15.618 64.176003
-6.8330998 -15.606 64.124001
-6.7568998 -15.591 64.064003
-6.6795998 -15.574 63.993999
-6.6029 -15.558 63.926998
-6.5274 -15.544 63.868999
-6.4526 -15.531 63.819
-6.3790002 -15.522 63.778
-6.3053999 -15.511 63.737
-6.2322001 -15.502 63.699001
-6.1592002 -15.493 63.662998
-6.0865002 -15.485 63.629002
-6.0137 -15.476 63.591999
-5.9408998 -15.467 63.555
-5.8678999 -15.457 63.514999
-5.7947998 -15.447 63.473
-5.7216001 -15.437 63.429001
-5.6490002 -15.427 63.389999
-5.5763001 -15.417 63.348999
-5.5054002 -15.412 63.328999
-5.4376998 -15.416 63.344002
-5.3720999 -15.426 63.384998
-5.3084002 -15.442 63.449001
-5.2480001 -15.468 63.556
-5.1912999 -15.505 63.709999
-5.1395998 -15.559 63.931
-5.2286 -16.046 65.932999
-5.1816001 -16.122999 66.250999
-5.1283998 -16.183001 66.498001
-5.0688 -16.225 66.667999
-5.0067 -16.259001 66.808998
-4.9419999 -16.285999 66.919998
-4.8755002 -16.308001 67.008003
-4.8076 -16.325001 67.080002
-4.7391 -16.341 67.146004
-4.6697001 -16.354 67.199997
-4.6005998 -16.368999 67.262001
-4.5316 -16.385 67.327003
-4.4635 -16.405001 67.406998
-4.3952999 -16.424 67.487999
-4.3280001 -16.448 67.584999
-4.2610998 -16.474001 67.693001
-4.1956 -16.507 67.828003
-4.1307001 -16.542999 67.976997
-4.0682998 -16.591 68.172997
-4.0057998 -16.639999 68.375999
-3.9437001 -16.693001 68.593002
-3.8841 -16.759001 68.862
-3.8227999 -16.819 69.111
-3.7553999 -16.855 69.257004
-3.6868 -16.886999 69.387001
-3.6170001 -16.914 69.5
-3.5465 -16.938999 69.603996
9.0469999 -15.937 65.195
9.0339003 -15.843 65.100998
9.1011 -15.837 65.072998
9.4623003 -15.919 65.117996
9.4418001 -15.813 64.976997
9.5271997 -15.908 65.075996
9.5101004 -15.809 64.959
9.5789003 -15.806 64.945999
9.6472998 -15.802 64.929001
9.7151003 -15.797 64.908997
9.7813997 -15.79 64.879997
9.8466997 -15.781 64.844002
9.9094 -15.768 64.792
9.9707003 -15.753 64.731003
10.032 -15.739 64.672997
10.094 -15.725 64.612999
10.154 -15.71 64.553001
10.216 -15.696 64.494003
10.277 -15.682 64.439003
10.339 -15.67 64.387001
10.402 -15.658 64.339996
10.464 -15.647 64.292999
10.527 -15.636 64.248001
10.59 -15.625 64.204002
10.653 -15.615 64.162003
10.716 -15.605 64.121002
10.78 -15.596 64.085999
10.844 -15.589 64.056
10.911 -15.584 64.035004
10.981 -15.585 64.038002
11.056 -15.592 64.067001
11.135 -15.605 64.119003
11.213 -15.616 64.167
11.463 -15.671 64.393997
11.539 -15.679 64.425003
11.833 -15.512 63.740002
11.901 -15.509 63.728001
11.971 -15.51 63.730999
12.048 -15.52 63.771999
12.132 -15.538 63.846001
14.395 -17.923 73.643997
14.502 -17.955999 73.780998
14.601 -17.979 73.875
14.698 -17.999001 73.956001
14.791 -18.013 74.015999
14.883 -18.027 74.072998
14.975 -18.041 74.132004
15.067 -18.055 74.188004
15.156 -18.063999 74.224998
15.244 -18.073 74.261002
15.329 -18.077999 74.280998
15.414 -18.082001 74.300003
15.499 -18.087 74.319
15.584 -18.091 74.337997
15.67 -18.096001 74.358002
15.755 -18.101999 74.380997
15.843 -18.108999 74.410004
15.932 -18.118 74.448997
16.024 -18.129999 74.498001
16.118 -18.145 74.558998
16.215 -18.162001 74.628998
16.313999 -18.181999 74.709999
16.413 -18.201 74.790001
16.511999 -18.219999 74.867996
16.610001 -18.239 74.943001
16.708 -18.257 75.016998
16.811001 -18.280001 75.111
16.93 -18.319 75.274002
17.066 -18.378 75.514999
17.212999 -18.447001 75.796997
17.368 -18.524 76.116997
17.542999 -18.622 76.516998
17.877001 -18.886999 77.607002
18.042999 -18.972 77.958
18.198 -19.045 78.255997
18.339001 -19.103001 78.496002
18.459 -19.139999 78.644997
18.563 -19.158001 78.719002
18.665001 -19.174999 78.790001
18.768999 -19.193001 78.864998
18.872 -19.209999 78.934998
18.972 -19.224001 78.994003
19.068001 -19.233999 79.032997
19.16 -19.240999 79.059998
19.25 -19.243999 79.072998
19.34 -19.247999 79.091003
18.834999 -18.1 74.374001
18.919001 -18.103001 74.384003
19.002001 -18.104 74.390999
19.084999 -18.106001 74.398003
19.169001 -18.108 74.406998
19.254999 -18.114 74.429001
19.341999 -18.118999 74.449997
19.427 -18.122 74.464996
19.507999 -18.122999 74.466003
19.584999 -18.118 74.447998
19.653999 -18.108 74.403999
19.719 -18.091999 74.339996
19.778999 -18.073 74.263
19.836 -18.052 74.174004
19.889 -18.025999 74.067001
19.941999 -18.000999 73.964996
19.997999 -17.979 73.875999
20.059 -17.961 73.802002
20.122999 -17.945999 73.740997
20.191999 -17.937 73.702003
20.268 -17.931999 73.683998
20.346001 -17.93 73.676003
20.426001 -17.93 73.676003
20.507999 -17.931999 73.682999
20.591999 -17.934999 73.695
20.677 -17.938999 73.711998
20.764 -17.944 73.734001
20.851999 -17.951 73.763
20.943001 -17.959999 73.799004
21.035 -17.969999 73.837997
21.128 -17.98 73.882004
21.222 -17.992001 73.929001
21.309999 -17.997999 73.955002
21.398001 -18.004 73.980003
21.486 -18.011 74.007004
21.575001 -18.018 74.033997
-9.8557997 -15.343 63.330002
-9.7919998 -15.352 63.363998
-9.7265997 -15.357 63.388
-9.6608 -15.363 63.41
-9.5945997 -15.368 63.429001
-9.5314999 -15.377 63.470001
-9.4691 -15.388 63.514999
-9.4094 -15.404 63.578999
-9.3494997 -15.42 63.644001
-9.2890997 -15.434 63.706001
-9.2280998 -15.449 63.764
-9.1655998 -15.46 63.813
-9.0993004 -15.466 63.835999
-9.0298996 -15.466 63.837002
-8.9593 -15.465 63.830002
-8.8844995 -15.456 63.792999
-8.8069 -15.441 63.735001
-8.7296 -15.428 63.676998
-8.6541004 -15.417 63.632999
-8.5882998 -15.423 63.66
-8.5256004 -15.435 63.709
-8.4659996 -15.453 63.784
-8.4088001 -15.476 63.877998
-8.3635998 -15.522 64.065002
-8.3076 -15.547 64.171997
-8.2504997 -15.572 64.273003
-8.1922998 -15.594 64.365997
-8.1316996 -15.613 64.442001
-8.0619001 -15.614 64.445999
-7.9878998 -15.606 64.415001
-7.9120998 -15.595 64.370003
-7.8348999 -15.581 64.311996
-7.757 -15.566 64.248001
-7.6771002 -15.546 64.166
-7.5991001 -15.529 64.098
-7.5228 -15.516 64.042999
-7.4499998 -15.51 64.017998
-7.3789001 -15.507 64.007004
-7.3116999 -15.513 64.029999
-7.2456999 -15.521 64.063004
-7.1799998 -15.53 64.099998
-7.1128998 -15.536 64.125
-7.0451002 -15.541 64.143997
-6.9752998 -15.541 64.146004
-6.9038 -15.538 64.130997
-6.8291998 -15.527 64.086998
-6.7532001 -15.513 64.029999
-6.6764002 -15.497 63.962002
-6.5999999 -15.481 63.897999
-6.5247002 -15.468 63.842999
-6.4500999 -15.456 63.793999
-6.3764 -15.446 63.751999
-6.3027 -15.435 63.709999
-6.2298002 -15.427 63.674999
-6.1571999 -15.419 63.641998
-6.085 -15.412 63.612
-6.0124998 -15.404 63.578999
-5.9400001 -15.396 63.546001
-5.8671999 -15.386 63.507999
-5.7941999 -15.376 63.466
-5.7210002 -15.366 63.422001
-5.6482 -15.356 63.381001
-5.5753002 -15.345 63.338001
-5.5025001 -15.335 63.294998
-5.4327998 -15.333 63.287998
-5.3650999 -15.337 63.303001
-5.2992001 -15.346 63.339001
-5.2357998 -15.362 63.408001
-5.1759 -15.39 63.521999
-5.1194 -15.428 63.68
-5.0686002 -15.485 63.915001
-5.1592999 -15.982 65.967003
-5.1118002 -16.059 66.282997
-5.0563002 -16.112 66.502998
-4.9973998 -16.156 66.684998
-4.9351001 -16.190001 66.825996
-4.8708 -16.219 66.944
-4.8045001 -16.242001 67.037003
-4.7377 -16.263 67.125999
-4.6694999 -16.281 67.197998
-4.6005998 -16.296 67.261002
-4.5314999 -16.311001 67.324997
-4.4633999 -16.330999 67.405998
-4.3952999 -16.351 67.487999
-4.3280001 -16.375 67.586998
-4.2610998 -16.400999 67.693001
-4.1950002 -16.431 67.819
-4.1293998 -16.464001 67.956001
-4.0662999 -16.509001 68.139999
-4.0033998 -16.556 68.334999
-3.9409001 -16.607 68.543999
-3.8794999 -16.664 68.779999
-3.8197999 -16.731001 69.056
-3.7519 -16.764 69.192001
-3.6835001 -16.796 69.325996
