# .PCD v0.7 - Point Cloud Data file format
VERSION 0.7
FIELDS x y z
SIZE 4 4 4
TYPE F F F
COUNT 1 1 1
WIDTH 1721
HEIGHT 1
VIEWPOINT 0 0 0 1 0 0 0
POINTS 1721
DATA ascii
-7.0984998 -9.552 65.278999
-7.0365 -9.5643997 65.363998
-6.9765 -9.5798998 65.470001
-6.9189 -9.5991001 65.600998
-6.6856999 -9.6756001 66.124001
-6.6163001 -9.6794996 66.150002
-6.5409999 -9.6749001 66.119003
-6.4645 -9.6682997 66.072998
-6.3881998 -9.6618996 66.029999
-6.3119998 -9.6555004 65.986
-6.2372999 -9.6513004 65.957001
-6.1638999 -9.6489 65.941002
-6.0911999 -9.6477003 65.932999
-6.0188999 -9.6469002 65.927002
-5.9468002 -9.6464996 65.925003
-5.8748999 -9.6465998 65.925003
-5.8031001 -9.6466999 65.926003
-5.7314 -9.6470003 65.928001
-5.6592999 -9.6465998 65.925003
-5.5865998 -9.6451998 65.916
-5.5123 -9.6408997 65.886002
-5.4366999 -9.6342001 65.841003
-5.3593998 -9.6245003 65.774002
-5.2821002 -9.6141996 65.704002
-5.2059999 -9.6059999 65.648003
-5.1332002 -9.6036997 65.632004
-5.0640001 -9.6082001 65.663002
-4.9967999 -9.6168003 65.721001
-4.6957998 -9.7354002 66.531998
-4.6236 -9.7362003 66.538002
-4.5485001 -9.7306004 66.5
-4.4713998 -9.7207003 66.431
-4.3951001 -9.7122002 66.373001
-4.3192 -9.7042999 66.319
-4.2448001 -9.6995001 66.287003
-4.1712999 -9.6967001 66.267998
-4.0988002 -9.6961002 66.263
-4.0275002 -9.6983995 66.278999
-3.9651 -9.7227001 66.445
-3.9061 -9.7560997 66.674004
-3.8494999 -9.7972002 66.954002
-3.7962 -9.8483 67.304001
-3.8510001 -10.187 69.620003
-3.8151 -10.295 70.358002
-3.7681999 -10.377 70.919998
-3.7158 -10.448 71.399002
-3.6640999 -10.523 71.912003
-3.6061001 -10.582 72.320999
-3.546 -10.639 72.705002
-3.5474 -10.886 74.397003
-3.4949 -10.976 75.013
-3.4301 -11.031 75.386002
-3.3617001 -11.076 75.695
-3.2945001 -11.128 76.049004
-3.2274001 -11.183 76.422997
-3.1542001 -11.219 76.670998
-3.0780001 -11.246 76.856003
-3.0004001 -11.269 77.014999
-2.9205999 -11.285 77.124001
-2.8392 -11.296 77.196999
-2.7567999 -11.303 77.247002
-2.6736 -11.308 77.278
-2.5897999 -11.31 77.290001
-2.5058 -11.311 77.300003
-2.4224 -11.315 77.328003
-2.3395 -11.322 77.375
-2.2567999 -11.33 77.431999
-2.1745999 -11.342 77.509003
-2.0922 -11.354 77.591003
-2.0091 -11.362 77.646004
-1.9256999 -11.369 77.695999
-1.842 -11.375 77.738998
-1.7575999 -11.378 77.757004
-1.673 -11.379 77.764
-1.5882 -11.379 77.764
-1.5034 -11.379 77.764999
-1.4187 -11.38 77.772003
-1.3342 -11.382 77.787003
-1.2499 -11.387 77.819
-1.1658 -11.394 77.870003
-1.0819 -11.405 77.939003
-0.99813998 -11.419 78.038002
-0.91465998 -11.439 78.176003
-0.83104998 -11.462 78.329002
-0.74713999 -11.485 78.486
-0.66341001 -11.517 78.705002
-0.57945001 -11.554 78.957001
-0.49450001 -11.58 79.139999
-0.40915999 -11.607 79.324997
-0.32336 -11.632 79.495003
-0.23705 -11.65 79.619003
-0.15035 -11.659 79.678001
-0.063556001 -11.674 79.782997
0.023453999 -11.684 79.848
0.11049 -11.681 79.825996
1.7764 -10.321 70.014
1.7754 -10.239 69.976997
1.8494999 -10.227 69.891998
1.9255 -10.226 69.885002
2.0014999 -10.225 69.876999
2.0773001 -10.223 69.864998
2.1533 -10.222 69.860001
2.2284 -10.217 69.825996
2.3020999 -10.206 69.750999
2.3738 -10.188 69.623001
2.4432001 -10.161 69.440002
2.6394999 -10.118 68.638
2.6373999 -10.035 68.582001
2.7058001 -10.012 68.419998
2.7771001 -10 68.339996
2.8511 -9.9981003 68.328003
2.9260001 -9.9995003 68.336998
3.0007 -10 68.341003
3.0748999 -9.9989996 68.334
3.1485 -9.9961004 68.314003
3.2212 -9.9906998 68.277
3.2931001 -9.9829998 68.223999
3.3645 -9.9738998 68.162003
3.4352 -9.9637003 68.092003
3.5051999 -9.9516001 68.010002
3.575 -9.9392996 67.926003
3.6443999 -9.9266996 67.838997
3.7139001 -9.9146996 67.758003
3.7836001 -9.9038 67.682999
3.8538001 -9.8945999 67.620003
3.9244001 -9.8865995 67.565002
3.9953001 -9.8797998 67.518997
4.0667 -9.8744001 67.482002
4.1385999 -9.8704004 67.454002
4.2108998 -9.8676004 67.435997
4.2838001 -9.8661003 67.426003
4.3572001 -9.8659 67.424004
4.4309001 -9.8662996 67.427002
4.5047998 -9.8669996 67.431999
4.5787001 -9.868 67.438004
4.652 -9.8674002 67.433998
4.7248001 -9.8657999 67.422997
4.7944999 -9.8580999 67.370003
4.8625002 -9.8470001 67.294998
4.9295001 -9.8344002 67.208
4.9956999 -9.8204002 67.112999
5.0591998 -9.8015003 66.984001
5.1255002 -9.7886 66.896004
5.1929998 -9.7784004 66.825996
5.2631001 -9.7734003 66.791
5.3339 -9.7697001 66.766998
5.4074998 -9.7709999 66.776001
5.4812999 -9.7728996 66.788002
5.5552001 -9.7748003 66.801003
5.6276002 -9.7739 66.795998
5.6992002 -9.7719002 66.781998
5.7693 -9.7672997 66.75
5.8386998 -9.7615995 66.710999
5.9063001 -9.7531004 66.653
5.9738998 -9.7448997 66.597
6.0411 -9.7361002 66.537003
6.1087999 -9.7284002 66.485001
6.1764002 -9.7207003 66.431999
6.2454 -9.7153997 66.394997
6.3147001 -9.7105999 66.362999
6.3848 -9.7072001 66.338997
6.4548001 -9.7035999 66.315002
6.5253 -9.7010002 66.296997
6.5957999 -9.6983004 66.278999
6.6662002 -9.6956997 66.261002
6.7367001 -9.6931 66.242996
6.8070002 -9.6904001 66.224998
6.8772001 -9.6875 66.205002
6.9471998 -9.6845999 66.184998
7.0173998 -9.6817999 66.166
7.0876002 -9.6791 66.148003
7.158 -9.6768999 66.132004
7.2287002 -9.6749001 66.119003
7.2996998 -9.6735001 66.109001
7.3709998 -9.6724005 66.101997
7.4428 -9.6721001 66.099998
7.5149002 -9.6722002 66.099998
7.5876002 -9.6729002 66.105003
7.6603999 -9.6738005 66.111
7.7336998 -9.6752996 66.122002
7.8072 -9.6771002 66.134003
7.8814998 -9.6798 66.152
7.9562998 -9.6830997 66.174004
8.0319996 -9.6872997 66.204002
8.1083002 -9.6921997 66.237
8.1857996 -9.6984997 66.279999
8.2636003 -9.7049999 66.323997
8.3424997 -9.7126999 66.376999
8.4223003 -9.7212 66.434998
8.5023003 -9.7299004 66.495003
8.5825996 -9.7388 66.555
8.6637001 -9.7483997 66.621002
8.7519999 -9.7658005 66.739998
8.8493004 -9.7929001 66.925003
8.9677 -9.8428001 67.265999
11.775 -10.884 73.830002
11.83 -10.854 74.174004
11.867 -10.895 73.903999
11.928 -10.87 74.286003
11.951 -10.897 73.922997
12.014 -10.874 74.316002
12.086 -10.866 74.255997
11.725 -9.3511 63.905998
11.773 -9.3339996 63.789001
11.825 -9.3198004 63.692001
11.878 -9.3070002 63.605
11.936 -9.2980003 63.542999
11.995 -9.2905998 63.492001
12.06 -9.2870998 63.467999
12.133 -9.2902002 63.490002
12.211 -9.2966995 63.534
12.296 -9.3086004 63.615002
12.383 -9.3219004 63.706001
12.505 -9.3611002 63.973999
12.617 -9.3929005 64.192001
12.738 -9.4301996 64.445999
12.874 -9.4790001 64.779999
15.669 -11.35 77.565002
15.792 -11.377 77.753998
15.902 -11.396 77.878998
16.003 -11.407 77.959
16.101999 -11.417 78.023003
16.200001 -11.426 78.087997
16.295 -11.433 78.133003
16.386 -11.437 78.164001
16.48 -11.443 78.202003
16.573 -11.449 78.241997
16.669001 -11.456 78.291
16.763 -11.462 78.333
16.858 -11.468 78.375999
16.952 -11.474 78.413002
17.045 -11.479 78.447998
17.136999 -11.483 78.476997
17.226999 -11.487 78.5
17.316999 -11.489 78.517998
17.406 -11.492 78.535004
17.495001 -11.494 78.551003
17.584999 -11.497 78.57
17.676001 -11.5 78.593002
17.767 -11.504 78.615997
17.857 -11.506 78.634003
17.945999 -11.509 78.650002
18.035 -11.511 78.663002
18.122999 -11.512 78.671997
18.209999 -11.513 78.679001
18.298 -11.514 78.686996
18.386999 -11.516 78.702003
18.476999 -11.519 78.719002
18.572001 -11.525 78.760002
18.674999 -11.535 78.831001
18.794001 -11.555 78.968002
18.931999 -11.587 79.189003
19.101 -11.637 79.529999
19.285 -11.697 79.934998
19.483999 -11.764 80.396004
19.893999 -11.958 81.720001
20.098 -12.026 82.188004
20.301001 -12.094 82.650002
20.504 -12.161 83.108002
20.681999 -12.212 83.459
20.85 -12.258 83.769997
21.011999 -12.299 84.053001
21.142 -12.322 84.206001
21.320999 -12.372 84.553001
21.556999 -12.456 85.122002
21.933001 -12.618 86.233002
-6.0186 -9.5746002 65.925003
-5.9466 -9.5743999 65.922997
-5.8748002 -9.5746002 65.924004
-5.803 -9.5747004 65.925003
-5.7314 -9.5750999 65.928001
-5.6594 -9.5749998 65.927002
-5.5868001 -9.5737 65.917999
-5.5124998 -9.5693998 65.889
-5.4366999 -9.5626001 65.842003
-5.3592 -9.5523996 65.771004
-5.2807999 -9.5402002 65.688004
-5.2037001 -9.5302 65.619003
-5.1301999 -9.5265999 65.594002
-5.0613999 -9.5317001 65.628998
-4.9949999 -9.5415001 65.696999
-4.6262002 -9.6691999 66.575996
-4.5513 -9.6640997 66.541
-4.4737 -9.6532001 66.466003
-4.3972001 -9.6444998 66.405998
-4.3210001 -9.6360998 66.348
-4.2465 -9.6310997 66.313004
-4.1729999 -9.6282997 66.293999
-4.1004 -9.6275997 66.290001
-4.0290999 -9.6299 66.305
-3.9660001 -9.6524 66.459999
-3.9068 -9.6852999 66.685997
-3.8499 -9.7250996 66.960999
-3.7967999 -9.7763004 67.313004
-3.8492 -10.107 69.588997
-3.8168001 -10.223 70.389
-3.7723999 -10.312 70.999001
-3.723 -10.39 71.537003
-3.6719999 -10.467 72.066002
-3.6231999 -10.553 72.664001
-3.6368999 -10.83 74.57
-3.5785999 -10.9 75.051003
-3.5144999 -10.956 75.432999
-3.4481001 -11.006 75.780998
-3.3794 -11.052 76.094002
-3.3092 -11.094 76.389
-3.2398 -11.142 76.718002
-3.1638999 -11.17 76.906998
-3.086 -11.191 77.055
-3.0065999 -11.208 77.172997
-2.9252999 -11.219 77.249001
-2.8427999 -11.226 77.295998
-2.7595 -11.23 77.321999
-2.6752999 -11.231 77.328003
-2.5906999 -11.229 77.317001
-2.5067 -11.231 77.327003
-2.4231999 -11.235 77.353996
-2.3401999 -11.241 77.397003
-2.2574 -11.249 77.450996
-2.1749001 -11.259 77.519997
-2.0922 -11.269 77.587997
-2.0090001 -11.277 77.644997
-1.9258 -11.285 77.700996
-1.8422 -11.292 77.750999
-1.7581 -11.296 77.778
-1.6736 -11.298 77.792999
-1.5888 -11.299 77.795998
-1.5041 -11.299 77.799004
-1.4193 -11.3 77.806
-1.3348 -11.302 77.82
-1.2503 -11.306 77.846001
-1.1661 -11.312 77.889999
-1.0817 -11.318 77.929001
-0.99760997 -11.328 77.997002
-0.91373003 -11.342 78.096001
-0.82977998 -11.359 78.209
-0.74598002 -11.381 78.363998
-0.66206998 -11.408 78.545998
-0.57826 -11.444 78.795998
-0.49364999 -11.474 79.004997
-0.40843999 -11.501 79.185997
-0.32291999 -11.53 79.388
-0.23682 -11.552 79.542999
-0.15028 -11.567 79.640999
-0.063530996 -11.583 79.750999
0.023429999 -11.585 79.764
1.3401 -10.414 71.169998
1.3386 -10.325 71.089996
1.4144 -10.39 71.005997
1.413 -10.302 70.932999
1.488 -10.363 70.823997
1.4867001 -10.277 70.758003
1.7024 -10.259 70.112
1.7014 -10.177 70.071999
1.7745 -10.158 69.941002
1.8486 -10.146 69.858002
1.9245 -10.145 69.848
2.0004001 -10.143 69.838997
2.0762 -10.141 69.827003
2.152 -10.14 69.818001
2.2270999 -10.135 69.786003
2.3002999 -10.122 69.695999
2.3713 -10.101 69.552002
2.6352999 -9.9528999 68.528999
2.704 -9.9307003 68.375999
2.7756 -9.9200001 68.303001
2.8494 -9.9176998 68.287003
2.9240999 -9.9184999 68.292
2.9985001 -9.9181995 68.290001
3.0723 -9.9162998 68.277
3.1456001 -9.9125004 68.250999
3.2182 -9.9069004 68.211998
3.29 -9.8992004 68.160004
3.3613 -9.8903999 68.098999
3.4319999 -9.8800001 68.027
3.5020001 -9.8683996 67.946999
3.5716 -9.8557997 67.861
3.6410999 -9.8437996 67.778
3.7105999 -9.8322001 67.697998
3.7804 -9.8217001 67.625999
3.8505001 -9.8125 67.561996
3.9209001 -9.8044004 67.507004
3.9916 -9.7972002 67.457001
4.0627999 -9.7915001 67.417999
4.1343999 -9.7869997 67.387001
4.2065001 -9.7837 67.363998
4.2790999 -9.7819004 67.351997
4.3523002 -9.7812996 67.348
4.4259 -9.7816 67.349998
4.4995999 -9.7823 67.355003
4.5735002 -9.7832003 67.361
4.6468 -9.783 67.359001
4.7196999 -9.7817001 67.349998
4.7902002 -9.7757998 67.309998
4.8593001 -9.7671003 67.25
4.9271998 -9.7564001 67.176003
4.9941001 -9.7440996 67.091003
5.0602999 -9.7306995 66.999001
5.1276999 -9.7199001 66.925003
5.1957998 -9.7108002 66.862
5.2656999 -9.7054005 66.824997
5.3364 -9.7013998 66.797997
5.4092999 -9.7014999 66.797997
5.4826999 -9.7025003 66.805
5.5563002 -9.7038002 66.814003
5.6283998 -9.7025003 66.805
5.6998 -9.7000999 66.789001
5.7697001 -9.6952 66.754997
5.8390999 -9.6894999 66.716003
5.9067001 -9.6812 66.657997
5.9744 -9.6730003 66.601997
6.0416002 -9.6644001 66.542999
6.1093001 -9.6568003 66.489998
6.1771002 -9.6492996 66.439003
6.2460999 -9.6441002 66.403
6.3154998 -9.6394997 66.371002
6.3856001 -9.6360998 66.348
6.4559002 -9.6330004 66.325996
6.5265002 -9.6306 66.309998
6.5971999 -9.6281996 66.293999
6.6679001 -9.6259003 66.278
6.7386999 -9.6237001 66.263
6.8091998 -9.6212997 66.246002
6.8797002 -9.6188002 66.228996
6.9499002 -9.6161003 66.209999
7.02 -9.6132002 66.190002
7.0900998 -9.6104002 66.170998
7.1603999 -9.6078997 66.153999
7.2308998 -9.6057997 66.139
7.3017998 -9.6042004 66.127998
7.3730001 -9.6029997 66.120003
7.4447999 -9.6027002 66.117996
7.5170002 -9.6027002 66.117996
7.5897002 -9.6035004 66.124001
7.6627002 -9.6047001 66.132004
7.7361999 -9.6063004 66.142998
7.8099999 -9.6084995 66.157997
7.8846998 -9.6115999 66.179001
7.9598999 -9.6153002 66.205002
8.0359001 -9.6197996 66.236
8.1127996 -9.6253996 66.274002
8.1905003 -9.6316996 66.318001
8.2686996 -9.6386003 66.364998
8.3477001 -9.6463003 66.417999
8.4291 -9.6564999 66.488998
8.5110998 -9.6674004 66.563004
8.5937996 -9.6787996 66.641998
8.6781998 -9.6919003 66.732002
8.7714005 -9.7145004 66.888
8.8773003 -9.7507 67.137001
11.907 -10.844 74.662003
11.996 -10.85 74.707001
12.076 -10.849 74.696999
12.156 -10.847 74.689003
13.748 -11.37 77.700996
13.78 -11.312 77.886002
13.853 -11.302 77.819
13.817 -11.357 77.615997
13.922 -11.289 77.731003
13.881 -11.34 77.499001
13.988 -11.274 77.625
13.941 -11.32 77.364998
14.046 -11.253 77.477997
13.99 -11.292 77.168999
14.098 -11.226 77.296997
11.811 -9.2945995 63.995998
11.855 -9.2737999 63.853001
11.901 -9.2560997 63.731998
11.955 -9.2440996 63.648998
12.013 -9.2347002 63.584
12.075 -9.2296 63.549
12.147 -9.2316999 63.563
12.225 -9.2377996 63.605
12.31 -9.2496996 63.687
12.397 -9.2631998 63.779999
12.492 -9.2819004 63.909
12.775 -9.3872995 64.635002
15.709 -11.294 77.764
15.819 -11.312 77.888
15.919 -11.323 77.963997
16.013 -11.329 78.005997
16.106001 -11.334 78.042
16.198999 -11.34 78.082001
16.289 -11.344 78.105003
16.379 -11.347 78.126999
16.469999 -11.351 78.156998
16.563 -11.356 78.192001
16.657 -11.362 78.235001
16.752001 -11.369 78.278999
16.846001 -11.375 78.321999
16.940001 -11.381 78.361
17.034 -11.386 78.398003
17.125999 -11.39 78.427002
17.216 -11.394 78.449997
17.305 -11.396 78.464996
17.393999 -11.398 78.480003
17.482 -11.4 78.490997
17.57 -11.401 78.501999
17.659 -11.404 78.518997
17.749001 -11.406 78.536003
17.837999 -11.408 78.551003
17.927 -11.411 78.565002
18.016001 -11.413 78.581001
18.105 -11.415 78.596001
18.194 -11.417 78.611
18.284 -11.42 78.627998
18.375 -11.423 78.653
18.466999 -11.427 78.678001
18.563999 -11.434 78.726997
18.669001 -11.445 78.804001
18.785 -11.464 78.931999
18.92 -11.494 79.137001
19.087999 -11.543 79.475998
19.274 -11.603 79.888
19.471001 -11.669 80.342003
19.893999 -11.869 81.720001
20.118 -11.949 82.269997
20.325001 -12.018 82.749001
20.525999 -12.083 83.195999
20.718 -12.143 83.607002
20.899 -12.195 83.968002
21.072001 -12.242 84.292999
21.207001 -12.267 84.463997
-5.947 -9.5031004 65.927002
-5.8751998 -9.5032997 65.929001
-5.8035002 -9.5037003 65.931
-5.7319999 -9.5042 65.934998
-5.6601 -9.5042 65.933998
-5.5876002 -9.5031004 65.927002
-5.5131998 -9.4988003 65.897003
-5.4373002 -9.4917002 65.848
-5.3593998 -9.4809999 65.774002
-5.2807002 -9.4684 65.685997
-5.2031002 -9.4575996 65.611
-5.1292 -9.4532003 65.581001
-5.0633998 -9.4639997 65.655998
-4.9979 -9.4755001 65.735001
-4.7621999 -9.6504002 66.446999
-4.7674999 -9.5887003 66.521004
-4.7020998 -9.6033001 66.622002
-4.6299 -9.6041002 66.627998
-4.5542002 -9.5978003 66.584
-4.4762001 -9.5860996 66.502998
-4.3996 -9.5773001 66.442001
-4.3232999 -9.5688 66.383003
-4.2486 -9.5634003 66.345001
-4.1750002 -9.5606003 66.325996
-4.1023002 -9.5598001 66.32
-4.0311999 -9.5625 66.338997
-3.9672999 -9.5829 66.481003
-3.9072001 -9.6134996 66.693001
-3.8499999 -9.6521997 66.961998
-3.7967 -9.7026997 67.311996
-3.8448 -10.019 69.508003
-3.8164999 -10.146 70.384003
-3.7760999 -10.244 71.068001
-3.7291999 -10.329 71.655998
-3.6852 -10.425 72.325996
-3.7172999 -10.746 74.552002
-3.6610999 -10.82 75.065002
-3.5978 -10.877 75.455002
-3.5321 -10.928 75.809998
-3.4635 -10.972 76.120003
-3.3936999 -11.015 76.415001
-3.3234999 -11.059 76.720001
-3.2493 -11.091 76.943001
-3.1717 -11.113 77.097
-3.0924001 -11.13 77.216003
-3.0116 -11.143 77.303001
-2.9291 -11.15 77.349998
-2.8457 -11.153 77.374001
-2.7614 -11.154 77.376999
-2.6767001 -11.152 77.367996
-2.5920999 -11.151 77.359001
-2.5079999 -11.152 77.366997
-2.4244001 -11.155 77.389999
-2.3412001 -11.161 77.43
-2.2581999 -11.168 77.477997
-2.1754 -11.177 77.539001
-2.0924001 -11.185 77.596001
-2.0093 -11.194 77.653999
-1.9259 -11.201 77.706001
-1.8423001 -11.208 77.753998
-1.7582999 -11.213 77.787003
-1.6739 -11.216 77.806999
-1.5892 -11.217 77.815002
-1.5044 -11.217 77.819
-1.4197 -11.218 77.827003
-1.3351001 -11.22 77.841003
-1.2502 -11.22 77.837997
-1.1655 -11.222 77.849998
-1.0806 -11.222 77.848999
-0.99599999 -11.225 77.871002
-0.91162997 -11.231 77.917
-0.82771999 -11.245 78.014
-0.74379998 -11.263 78.135002
-0.65998 -11.286 78.297997
-0.57617998 -11.317 78.513
-0.49211001 -11.353 78.759003
-0.40739 -11.385 78.982002
-0.32232001 -11.422 79.237999
-0.23642001 -11.446 79.405998
1.1867 -10.352 71.278
1.186 -10.268 71.233002
1.2632 -10.342 71.208
1.2622 -10.256 71.150002
1.3374 -10.238 71.028
1.4117 -10.216 70.870003
1.4851 -10.189 70.682999
1.7000999 -10.093 70.017998
1.7733999 -10.075 69.897003
1.8474 -10.063 69.813004
1.9232 -10.061 69.800003
1.9989001 -10.06 69.789001
2.0746 -10.058 69.775002
2.1503 -10.056 69.761002
2.2253001 -10.051 69.728996
2.2979 -10.036 69.623001
2.3684001 -10.013 69.464996
2.5023 -10.019 68.982002
2.4974999 -9.9242001 68.848999
2.5673001 -9.9786997 68.707001
2.5651 -9.8955002 68.649002
2.6335001 -9.8713999 68.482002
2.7024 -9.8502998 68.335999
2.7741001 -9.8403997 68.266998
2.8478 -9.8375998 68.248001
2.9222 -9.8375998 68.248001
2.9963 -9.8367004 68.240997
3.0699 -9.8340998 68.223
3.1429999 -9.8298998 68.194
3.2155001 -9.8241997 68.154999
3.2873001 -9.8167 68.102997
3.3584001 -9.8076 68.040001
3.4289999 -9.7972002 67.968002
3.4988999 -9.7856998 67.887001
3.5685 -9.7735004 67.803001
3.6380999 -9.7616997 67.721001
3.7077 -9.7505999 67.643997
3.7774999 -9.7405005 67.573997
3.8475001 -9.7311001 67.509003
3.9177001 -9.7227001 67.450996
3.9881999 -9.7153997 67.400002
4.0591998 -9.7094002 67.358002
4.1304998 -9.7044001 67.323997
4.2024002 -9.7007999 67.297997
4.2747998 -9.6987 67.283997
4.3477998 -9.6978998 67.278
4.4211998 -9.6978998 67.278
4.4945998 -9.6981001 67.279999
4.5682998 -9.6988001 67.285004
4.6416001 -9.6985998 67.282997
4.7146001 -9.6978998 67.278999
4.7858 -9.6934996 67.248001
4.8557 -9.6865997 67.199997
4.9243999 -9.6775999 67.138
4.9927001 -9.6681995 67.071999
5.0608001 -9.6585999 67.005997
5.1290998 -9.6496 66.943001
5.198 -9.6421003 66.890999
5.2680001 -9.6366997 66.853996
5.3385 -9.6323004 66.823997
5.4109998 -9.6316996 66.819
5.4840002 -9.632 66.821999
5.5573001 -9.6328001 66.827003
5.6292 -9.6309996 66.815002
5.7005 -9.6283998 66.795998
5.7702999 -9.6234999 66.762001
5.8396001 -9.6176996 66.722
5.9073 -9.6093998 66.665001
5.9749999 -9.6014996 66.609001
6.0423999 -9.5930996 66.552002
6.1100998 -9.5854998 66.498001
6.1778998 -9.5782003 66.447998
6.2470999 -9.5731001 66.413002
6.3165998 -9.5688 66.383003
6.3868999 -9.5656004 66.361
6.4573002 -9.5627003 66.341003
6.5282001 -9.5606003 66.325996
6.599 -9.5585003 66.310997
6.6698999 -9.5565004 66.297997
6.7407999 -9.5544996 66.283997
6.8115001 -9.5523005 66.268997
6.8821001 -9.5500002 66.252998
6.9524999 -9.5474005 66.235001
7.0226002 -9.5445995 66.214996
7.0927 -9.5417004 66.195
7.1629 -9.5390997 66.177002
7.2335 -9.5369997 66.162003
7.3042002 -9.5352001 66.150002
7.3754001 -9.5340004 66.141998
7.4471998 -9.5335999 66.139
7.5194001 -9.5337 66.139
7.5921001 -9.5345001 66.144997
7.6652002 -9.5356998 66.153
7.7389002 -9.5375996 66.166
7.8130002 -9.54 66.182999
7.8878999 -9.5432997 66.206001
7.9636998 -9.5475998 66.236
8.0402002 -9.5527 66.271004
8.1170998 -9.5581999 66.308998
8.1950998 -9.5648003 66.355003
8.2734003 -9.5718002 66.403
8.3540001 -9.5811005 66.468002
8.4372997 -9.5934 66.554001
8.5220003 -9.6070995 66.649002
8.6077003 -9.6217003 66.75
8.6968002 -9.6398001 66.875
8.7975998 -9.6703997 67.087997
11.961 -10.81 74.995003
12.046 -10.813 75.017998
12.123 -10.81 74.990997
12.204 -10.808 74.981003
12.307 -10.827 75.113998
13.799 -11.242 77.988998
13.875 -11.235 77.941002
13.948 -11.225 77.875
14.018 -11.213 77.792
14.084 -11.198 77.684998
14.145 -11.179 77.556999
14.198 -11.155 77.385002
11.9 -9.2393999 64.097
11.936 -9.2131996 63.916
11.985 -9.1973 63.806
12.037 -9.184 63.714001
12.096 -9.1760998 63.658001
12.167 -9.1768999 63.664001
12.243 -9.1824999 63.702999
12.329 -9.1945 63.785999
12.417 -9.2083998 63.882
15.595 -11.273 77.617996
15.632 -11.215 77.803001
15.735 -11.228 77.892998
15.837 -11.24 77.974998
15.931 -11.246 78.021004
16.02 -11.249 78.040001
16.108 -11.251 78.052002
16.197001 -11.254 78.071999
16.283001 -11.254 78.075996
16.371 -11.256 78.089996
16.461 -11.26 78.113998
16.552999 -11.264 78.143997
16.646 -11.27 78.182999
16.74 -11.276 78.223
16.834999 -11.282 78.267998
16.929001 -11.288 78.307999
17.021999 -11.293 78.345001
17.114 -11.297 78.374001
17.204 -11.301 78.397003
17.292999 -11.303 78.410004
17.381001 -11.304 78.420998
17.468 -11.305 78.428001
17.555 -11.306 78.432999
17.642 -11.307 78.442001
17.73 -11.309 78.453003
17.818001 -11.31 78.464996
17.907 -11.313 78.480003
17.997 -11.315 78.5
18.087999 -11.319 78.521004
18.18 -11.322 78.547997
18.271999 -11.326 78.574997
18.365999 -11.331 78.611
18.461 -11.337 78.650002
18.561001 -11.346 78.709999
18.666 -11.358 78.793999
18.780001 -11.375 78.913002
18.912001 -11.402 79.101997
19.079 -11.451 79.441002
19.263 -11.509 79.841003
19.459 -11.574 80.291
19.659 -11.641 80.755997
20.129999 -11.866 82.320999
20.327999 -11.93 82.761002
20.535 -11.998 83.234001
20.737 -12.063 83.684998
20.931 -12.122 84.095001
-5.8762002 -9.4329004 65.939003
-5.8045001 -9.4333 65.941002
-5.4379001 -9.4210997 65.856003
-5.3596001 -9.4096003 65.776001
-5.2803001 -9.3961 65.681
-5.2021999 -9.3844004 65.599998
-5.1290002 -9.3814001 65.579002
-5.0653 -9.3958998 65.68
-5.0014 -9.4104004 65.780998
-4.9401999 -9.4305 65.921997
-4.7066002 -9.5397997 66.685997
-4.6332998 -9.5383997 66.676003
-4.5573001 -9.5316 66.628998
-4.4789 -9.5194998 66.543999
-4.4022999 -9.5106001 66.482002
-4.3257999 -9.5017996 66.420998
-4.2508001 -9.4960003 66.379997
-4.1771998 -9.4932003 66.360001
-4.1044998 -9.4925003 66.356003
-4.0335999 -9.4958 66.378998
-3.9689 -9.5143995 66.508003
-3.9082 -9.5431995 66.709999
-3.8504 -9.5804005 66.970001
-3.7965 -9.6288996 67.308998
-3.7553 -9.7119999 67.889999
-3.8197999 -10.078 70.445
-3.7813001 -10.181 71.166
-3.7543001 -10.32 72.139
-3.7934999 -10.651 74.452003
-3.7370999 -10.722 74.948997
-3.6784999 -10.79 75.422997
-3.6140001 -10.843 75.793999
-3.5460999 -10.888 76.112
-3.4763999 -10.93 76.403
-3.4049001 -10.968 76.667999
-3.3340001 -11.01 76.962997
-3.2572999 -11.034 77.132004
-3.1786001 -11.053 77.264
-3.0978999 -11.066 77.352997
-3.0158999 -11.074 77.412003
-2.9324999 -11.078 77.439003
-2.8482001 -11.079 77.443001
-2.7632 -11.076 77.428001
-2.6784 -11.075 77.415001
-2.5936 -11.073 77.403
-2.5093 -11.073 77.406998
-2.4252999 -11.075 77.420998
-2.3418 -11.08 77.449997
-2.2585001 -11.085 77.488998
-2.1754 -11.093 77.541
-2.0922999 -11.1 77.594002
-2.0091 -11.108 77.648003
-1.9258 -11.115 77.700996
-1.8421 -11.122 77.747002
-1.7581 -11.127 77.780998
-1.6739 -11.131 77.806
-1.5893 -11.132 77.819
-1.5046 -11.134 77.827003
-1.4198999 -11.135 77.835999
-1.3353 -11.137 77.848999
-1.2498 -11.132 77.813004
-1.1645 -11.128 77.786003
-1.079 -11.121 77.737
-0.99372 -11.114 77.692001
-0.90877998 -11.111 77.671997
-0.82444 -11.116 77.705002
-0.74057001 -11.129 77.795998
-0.48890999 -11.194 78.246002
0.88020003 -10.326 71.634003
0.87825 -10.225 71.474998
0.95649999 -10.306 71.499001
0.95499998 -10.212 71.386002
1.0328 -10.29 71.385002
1.0318 -10.202 71.311996
1.1093 -10.277 71.297997
1.1085 -10.192 71.249001
1.1849999 -10.182 71.176003
1.261 -10.169 71.085999
1.3361 -10.15 70.955002
1.4102 -10.127 70.792999
1.4836 -10.102 70.613998
1.6276 -10.117 70.183998
1.6264 -10.032 70.129997
1.6989 -10.009 69.967003
1.7721 -9.9918003 69.845001
1.846 -9.9794998 69.759003
1.9216 -9.9769001 69.741997
1.9972 -9.9750004 69.727997
2.0727999 -9.9727001 69.711998
2.1482 -9.9698 69.692001
2.2227001 -9.9632998 69.647003
2.2946999 -9.9461002 69.526001
2.3647001 -9.9217997 69.356003
2.5627999 -9.8118 68.586998
2.6314001 -9.7888002 68.426003
2.7005 -9.7690001 68.288002
2.7723999 -9.7599001 68.223999
2.8464 -9.7585001 68.214996
2.9205999 -9.7579002 68.209999
2.9944 -9.7560997 68.197998
3.0678 -9.7531004 68.177002
3.1407001 -9.7484999 68.144997
3.2130001 -9.7425003 68.102997
3.2846999 -9.7348003 68.049004
3.3556001 -9.7254 67.984001
3.4261999 -9.7152004 67.912003
3.4962001 -9.7040005 67.834
3.5658 -9.6922998 67.751999
3.6354001 -9.6808004 67.671997
3.7049999 -9.6698999 67.595001
3.7746999 -9.6597996 67.525002
3.8447001 -9.6505003 67.459999
3.9147 -9.6416998 67.399002
3.9849 -9.6339998 67.344002
4.0556002 -9.6274996 67.299004
4.1269002 -9.6225004 67.264
4.1985002 -9.6185999 67.237
4.2708001 -9.6162996 67.221001
4.3435998 -9.6150999 67.211998
4.4166999 -9.6147003 67.209999
4.4899001 -9.6145 67.208
4.5632 -9.6146002 67.209
4.6363001 -9.6141996 67.206001
4.7090001 -9.6129999 67.197998
4.7802 -9.6089001 67.168999
4.8508 -9.6036997 67.133003
4.9204998 -9.5967999 67.084999
4.9896998 -9.5894003 67.032997
5.0592999 -9.5825996 66.985001
5.1289001 -9.5761995 66.941002
5.1985002 -9.5700998 66.898003
5.2691002 -9.5657997 66.867996
5.3400998 -9.5623999 66.844002
5.4126 -9.5615997 66.838997
5.4854002 -9.5614996 66.837997
5.5584002 -9.5618 66.839996
5.6301999 -9.5599003 66.825996
5.7013001 -9.5570002 66.806
5.7711 -9.5518999 66.771004
5.8403001 -9.5460997 66.730003
5.9081001 -9.5380001 66.672997
5.9759002 -9.5302 66.619003
6.0433002 -9.5220003 66.561996
6.1111002 -9.5144997 66.509003
6.1789999 -9.5073996 66.459999
6.2481999 -9.5024996 66.425003
6.3178 -9.4982004 66.394997
6.3881998 -9.4953003 66.375
6.4587998 -9.4926004 66.356003
6.5297999 -9.4906998 66.343002
6.6008 -9.4886999 66.329002
6.6718001 -9.4869003 66.316002
6.7427001 -9.4849997 66.303001
6.8136001 -9.4828997 66.289001
6.8843002 -9.4807997 66.274002
6.9548001 -9.4783001 66.255997
7.0250001 -9.4757004 66.237999
7.0952001 -9.4729996 66.219002
7.1655002 -9.4703999 66.200996
7.2360001 -9.4681997 66.184998
7.3067999 -9.4664001 66.172997
7.3779998 -9.4652004 66.164001
7.4498 -9.4647999 66.162003
7.5219998 -9.4647999 66.162003
7.5948 -9.4657001 66.167999
7.6680999 -9.4671001 66.178001
7.7417998 -9.4689999 66.191002
7.8161001 -9.4715996 66.209
7.8915 -9.4754 66.236
7.9675002 -9.4799004 66.267998
8.0440998 -9.4850998 66.304001
8.1213999 -9.4909 66.344002
8.1995001 -9.4975004 66.390999
8.2782001 -9.5047998 66.442001
8.3604002 -9.5159998 66.519997
8.4455996 -9.5302 66.619003
8.5333996 -9.5472002 66.737999
8.6229 -9.5656996 66.866997
8.7175999 -9.5896997 67.035004
8.8283005 -9.6307001 67.321999
11.878 -10.809 74.987999
11.935 -10.78 75.352997
12.015 -10.778 75.337997
12.094 -10.774 75.315002
12.171 -10.77 75.285004
12.254 -10.771 75.290001
12.352 -10.785 75.388
12.46 -10.807 75.544998
13.721 -11.247 78.028
13.726 -11.166 78.056999
13.807 -11.164 78.038002
13.886 -11.159 78.004997
13.963 -11.152 77.958
14.037 -11.143 77.893997
14.106 -11.131 77.806999
14.174 -11.118 77.717003
14.236 -11.1 77.595001
14.295 -11.08 77.454002
14.24 -11.121 77.153999
14.346 -11.055 77.276001
12.03 -9.1618996 64.043999
12.075 -9.1436996 63.917
12.128 -9.1309996 63.827999
12.196 -9.1293001 63.817001
12.272 -9.1339998 63.849998
12.358 -9.1465998 63.938
15.654 -11.146 77.914001
15.751 -11.154 77.970001
15.847 -11.162 78.027
15.937 -11.166 78.051003
16.023001 -11.166 78.053001
16.107 -11.165 78.046997
16.191999 -11.165 78.049004
16.277 -11.165 78.045998
16.364 -11.166 78.055
16.452999 -11.169 78.073997
16.544001 -11.173 78.101997
16.636 -11.178 78.137001
16.729 -11.183 78.174004
16.823 -11.189 78.213997
16.917 -11.195 78.253998
17.011 -11.2 78.292
17.103001 -11.204 78.322998
17.193001 -11.208 78.344002
17.281 -11.209 78.356003
17.368 -11.21 78.362999
17.454 -11.211 78.364998
17.539 -11.21 78.363998
17.625 -11.211 78.364998
17.711 -11.211 78.371002
17.799 -11.213 78.382004
17.889 -11.215 78.398003
17.98 -11.219 78.424004
18.072001 -11.223 78.453003
18.166 -11.228 78.488998
18.261 -11.234 78.528
18.358 -11.241 78.577003
18.455999 -11.248 78.629997
18.559 -11.259 78.704002
18.667 -11.272 78.795998
18.778999 -11.288 78.904999
18.906 -11.313 79.078003
19.072001 -11.36 79.408997
19.253 -11.416 79.800003
19.447001 -11.479 80.242996
19.645 -11.544 80.697998
20.125 -11.774 82.301003
20.318001 -11.834 82.722
20.523001 -11.9 83.185997
20.73 -11.967 83.655998
-5.0644999 -9.3227997 65.669998
-5.0040002 -9.3435001 65.815002
-4.9442 -9.3662004 65.975998
-4.8792 -9.4514999 66.069
-4.8434 -9.4502001 66.567001
-4.8390999 -9.5143995 66.508003
-4.7765002 -9.4614 66.646004
-4.7091999 -9.4721003 66.722
-4.6359 -9.4710999 66.713997
-4.5599999 -9.4645996 66.667999
-4.4822001 -9.4539003 66.593002
-4.4050999 -9.4441004 66.524002
-4.3284998 -9.4352999 66.461998
-4.2533998 -9.4294996 66.420998
-4.1795998 -9.4264002 66.399002
-4.1071 -9.4261999 66.398003
-4.0365 -9.4301996 66.427002
-3.9711001 -9.4470997 66.544998
-3.9098001 -9.4742002 66.736
-3.8515 -9.5100002 66.987999
-3.7969999 -9.5565996 67.317001
-3.7537 -9.6341 67.862
-3.8246 -10.013 70.532997
-3.7911999 -10.13 71.351997
-3.8650999 -10.543 74.267998
-3.8111999 -10.619 74.797997
-3.7528999 -10.685 75.264999
-3.6916001 -10.745 75.691002
-3.6247001 -10.792 76.018997
-3.5567 -10.837 76.337997
-3.4858999 -10.876 76.612
-3.4145 -10.915 76.884003
-3.3413999 -10.95 77.133003
-3.2637999 -10.972 77.287003
-3.1840999 -10.988 77.399002
-3.1027 -10.998 77.471001
-3.0197999 -11.004 77.512001
-2.9356 -11.005 77.521004
-2.8506999 -11.004 77.510002
-2.7655001 -11.001 77.491997
-2.6803999 -10.999 77.474998
-2.5953 -10.996 77.456001
-2.5107999 -10.996 77.454002
-2.4265001 -10.996 77.457001
-2.3426001 -10.999 77.476997
-2.2590001 -11.003 77.505997
-2.1756001 -11.009 77.546997
-2.0924001 -11.016 77.596001
-2.0090001 -11.023 77.644997
-1.9256001 -11.03 77.694
-1.842 -11.036 77.740997
-1.758 -11.041 77.776001
-1.6739 -11.046 77.806
-1.5894001 -11.048 77.822998
-1.5046999 -11.05 77.833
-1.4195 -11.047 77.811996
-1.3343 -11.044 77.791
-1.2481 -11.031 77.706001
-1.1621 -11.02 77.624001
-1.0759 -11.004 77.511002
-0.98970997 -10.985 77.378998
0.57002997 -10.288 71.917
0.56901002 -10.191 71.789001
0.6476 -10.275 71.822998
0.64656001 -10.18 71.709
0.72463 -10.257 71.695999
0.72390997 -10.168 71.625
0.80172998 -10.243 71.599998
0.80093998 -10.155 71.529999
0.87782001 -10.142 71.439003
0.95450002 -10.129 71.348999
1.0312999 -10.119 71.277
1.1079 -10.109 71.208
1.1842 -10.097 71.125999
1.2599 -10.083 71.026001
1.3349 -10.064 70.891998
1.4089 -10.041 70.726997
1.6249 -9.9469004 70.066002
1.6975 -9.9250002 69.911003
1.7706 -9.9069996 69.785004
1.8443 -9.8944998 69.696999
1.9197 -9.8914003 69.675003
1.9952 -9.8891001 69.658997
2.0706 -9.8865004 69.639999
2.1458001 -9.8830004 69.615997
2.2198999 -9.8748999 69.558998
2.2914 -9.8561001 69.426003
2.3613999 -9.8324003 69.259003
2.5613 -9.7311001 68.545998
2.6301999 -9.7096996 68.394997
2.6995001 -9.6908998 68.262001
2.7715001 -9.6822996 68.202003
2.8453 -9.6801996 68.186996
2.9193001 -9.6791 68.179001
2.9928999 -9.6766996 68.163002
3.066 -9.6731005 68.137001
3.1387 -9.6681004 68.101997
3.2107999 -9.6616001 68.056
3.2823 -9.6536999 68
3.3531001 -9.6440001 67.931999
3.4233999 -9.6335001 67.858002
3.4935 -9.6225996 67.780998
3.5632 -9.6112003 67.702003
3.6328001 -9.6000996 67.623001
3.7024 -9.5895004 67.547997
3.7721 -9.5792999 67.476997
3.8418 -9.5698004 67.410004
3.9116001 -9.5607996 67.346001
3.9819 -9.5530996 67.292
4.0524998 -9.5466003 67.246002
4.1234002 -9.5410995 67.208
4.1949 -9.5369997 67.179001
4.2670002 -9.5345001 67.161003
4.3395 -9.5327997 67.149002
4.4123001 -9.5319996 67.142998
4.4850998 -9.5311003 67.137001
4.5580001 -9.5305004 67.133003
4.6307001 -9.5293999 67.125
4.7031002 -9.5278997 67.114998
4.7747998 -9.5249996 67.094002
4.8460999 -9.5212002 67.067001
4.9165001 -9.5159998 67.029999
4.987 -9.5110998 66.996002
5.0574002 -9.5059996 66.959999
5.1279998 -9.5016003 66.929001
5.1985998 -9.4972 66.898003
5.2698998 -9.4944 66.877998
5.3414998 -9.4919004 66.861
5.4138999 -9.4910002 66.855003
5.4864998 -9.4905005 66.850998
5.5592999 -9.4904003 66.850998
5.6311002 -9.4884996 66.836998
5.7020998 -9.4855003 66.815002
5.7719002 -9.4805002 66.780998
5.8411999 -9.4747 66.738998
5.9089999 -9.4667997 66.683998
5.9769001 -9.4590998 66.629997
6.0444002 -9.4510002 66.572998
6.1121998 -9.4436998 66.522003
6.1803002 -9.4369001 66.473
6.2494001 -9.4317999 66.438004
6.3190999 -9.4277 66.408997
6.3895998 -9.4249001 66.389
6.4603 -9.4224005 66.372002
6.5314002 -9.4205999 66.359001
6.6023998 -9.4187002 66.345001
6.6735001 -9.4169998 66.333
6.7445998 -9.4152002 66.320999
6.8154998 -9.4132004 66.306999
6.8862 -9.4111004 66.292
6.9568 -9.4088001 66.276001
7.0272999 -9.4063997 66.259003
7.0977001 -9.4040003 66.241997
7.1680999 -9.4017 66.224998
7.2386999 -9.3996 66.209999
7.3095999 -9.3978996 66.198997
7.3807998 -9.3966999 66.190002
7.4526 -9.3962002 66.186996
7.5247998 -9.3962002 66.186996
7.5977001 -9.3971004 66.193001
7.671 -9.3985004 66.203003
7.7449002 -9.4006004 66.218002
7.8193998 -9.4034004 66.237999
7.895 -9.4074001 66.264999
7.9710999 -9.4119997 66.297997
8.0481005 -9.4174004 66.335999
8.1258001 -9.4236002 66.379997
8.2040997 -9.4305 66.428001
8.2834997 -9.4384003 66.484001
8.3675003 -9.4513998 66.575996
8.4548998 -9.4680004 66.692001
8.5455999 -9.4879999 66.833
8.6398001 -9.5114002 66.998001
8.743 -9.5443001 67.230003
8.8786001 -9.6117001 67.705002
11.868 -10.793 75.444
11.916 -10.754 75.750999
11.984 -10.741 75.661003
12.06 -10.736 75.621002
12.139 -10.732 75.596001
12.212 -10.724 75.539001
12.294 -10.724 75.537003
12.384 -10.73 75.584999
12.492 -10.752 75.735001
13.729 -11.084 78.075996
13.811 -11.082 78.059998
13.893 -11.079 78.040001
13.972 -11.074 78.007004
14.048 -11.067 77.957001
14.121 -11.058 77.889
14.193 -11.048 77.820999
14.262 -11.035 77.732002
14.329 -11.021 77.635002
14.392 -11.005 77.518997
14.451 -10.986 77.383003
15.551 -11.133 77.820999
15.575 -11.065 77.941002
15.671 -11.073 77.999001
15.763 -11.077 78.028999
15.855 -11.083 78.066002
15.942 -11.084 78.073997
16.024 -11.082 78.058998
16.105 -11.079 78.039001
16.187 -11.076 78.023003
16.27 -11.076 78.015999
16.357 -11.076 78.022003
16.445 -11.079 78.037003
16.535 -11.082 78.061996
16.627001 -11.087 78.094002
16.719999 -11.092 78.128998
16.813 -11.097 78.167999
16.907 -11.102 78.205002
17 -11.107 78.240997
17.091999 -11.112 78.271004
17.181999 -11.115 78.292
17.268999 -11.116 78.302002
17.355 -11.117 78.305
17.440001 -11.116 78.302002
17.524 -11.115 78.295998
17.608999 -11.115 78.292999
17.694 -11.115 78.292999
17.781 -11.116 78.300003
17.870001 -11.118 78.314003
17.962 -11.122 78.345001
18.056 -11.127 78.382004
18.152 -11.134 78.428001
18.249001 -11.141 78.477997
18.349001 -11.15 78.541
18.451 -11.16 78.609001
18.556999 -11.172 78.696999
18.667999 -11.187 78.800003
18.782 -11.204 78.918999
18.907 -11.227 79.081001
19.070999 -11.273 79.407997
19.250999 -11.328 79.792
19.443001 -11.389 80.225998
19.632 -11.449 80.644997
20.099001 -11.669 82.194
20.288 -11.726 82.596001
20.488001 -11.789 83.042
-5.0050001 -9.2735004 65.828003
-4.9474001 -9.3002996 66.017998
-4.8467002 -9.3839998 66.612
-4.7789998 -9.3936996 66.681
-4.7104998 -9.4020004 66.739998
-4.6377001 -9.4020004 66.739998
-4.5619001 -9.3957996 66.695999
-4.4847002 -9.3864002 66.629997
-4.4077001 -9.3771 66.563004
-4.3311 -9.3684998 66.502998
-4.2558999 -9.3626003 66.459999
-4.1820002 -9.3592997 66.436996
-4.1099 -9.3599997 66.442001
-4.0395999 -9.3650999 66.478996
-3.9735999 -9.3804998 66.586998
-3.9119 -9.4067001 66.773003
-3.8534999 -9.4419003 67.023003
-3.7988 -9.4877996 67.349998
-3.7581999 -9.5713997 67.942001
-3.8292999 -9.9487 70.621002
-3.9284999 -10.416 73.935997
-3.8783 -10.498 74.519997
-3.822 -10.567 75.011002
-3.7627001 -10.631 75.460999
-3.7005999 -10.689 75.875999
-3.6331999 -10.734 76.195999
-3.5648999 -10.779 76.514999
-3.4937999 -10.817 76.785004
-3.4242001 -10.862 77.102997
-3.3485999 -10.889 77.297997
-3.2711999 -10.913 77.462997
-3.1908 -10.926 77.559998
-3.1083 -10.934 77.612
-3.0246 -10.937 77.637001
-2.9396 -10.936 77.625999
-2.8543 -10.933 77.608002
-2.7688999 -10.93 77.585999
-2.6835001 -10.927 77.563004
-2.5978999 -10.923 77.533997
-2.513 -10.921 77.521004
-2.4282 -10.92 77.513
-2.3439 -10.921 77.521004
-2.2599001 -10.923 77.539001
-2.1761999 -10.928 77.57
-2.0926001 -10.932 77.602997
-2.0091 -10.938 77.646004
-1.9255 -10.944 77.690002
-1.8418 -10.951 77.735001
-1.7579 -10.956 77.771004
-1.6738 -10.96 77.803001
-1.5894001 -10.963 77.821999
-1.5046999 -10.965 77.833
-1.4187 -10.956 77.773003
-1.3328 -10.947 77.704002
-1.2454 -10.924 77.542
-1.1585 -10.901 77.380997
0.41334999 -10.213 71.943001
0.41291001 -10.124 71.866997
0.49118999 -10.201 71.855003
0.49094 -10.117 71.818001
0.56871998 -10.108 71.752998
0.64624 -10.097 71.672997
0.72355002 -10.085 71.589996
0.80049002 -10.071 71.489998
0.87726003 -10.058 71.393997
0.95398003 -10.046 71.309998
1.0306 -10.034 71.228996
1.107 -10.023 71.147003
1.183 -10.01 71.057999
1.2585 -9.9945002 70.945999
1.3331 -9.9734001 70.795998
1.4068 -9.9490995 70.624001
1.4785 -9.9132996 70.370003
1.5527 -9.9738998 70.255997
1.5502 -9.8815002 70.143997
1.6227 -9.8569002 69.969002
1.6953 -9.8358002 69.82
1.7686 -9.8199997 69.707001
1.8425 -9.8088999 69.628998
1.9177999 -9.8053999 69.603996
1.9931 -9.8025999 69.584
2.0683 -9.7995996 69.563004
2.1431999 -9.7951002 69.530998
2.2169001 -9.7858 69.463997
2.2880001 -9.7658997 69.322998
2.3583 -9.7441998 69.168999
2.4272001 -9.7181997 68.985001
2.5597999 -9.6511002 68.508003
2.6291001 -9.6309996 68.365997
2.6986001 -9.6133003 68.239998
2.7709 -9.6057997 68.186996
2.8443999 -9.6030998 68.167999
2.9182 -9.6014004 68.155998
2.9916999 -9.5986004 68.136002
3.0646999 -9.5944996 68.106003
3.1371 -9.5888996 68.067001
3.2089 -9.5818005 68.016998
3.2802 -9.5733004 67.956001
3.3508999 -9.5635004 67.887001
3.421 -9.5528002 67.809998
3.4911001 -9.5421 67.735001
3.5606999 -9.5307999 67.653999
3.6301999 -9.5197001 67.575996
3.6998 -9.5091 67.500999
3.7693999 -9.4990997 67.43
3.8390999 -9.4897003 67.362
3.9087999 -9.4806004 67.297997
3.9790001 -9.4729004 67.242996
4.0493002 -9.4659996 67.194
4.1202002 -9.4604998 67.155998
4.1915002 -9.4561996 67.125
4.2634001 -9.4533997 67.105003
4.3357 -9.4513998 67.091003
4.4081001 -9.4497995 67.080002
4.4804001 -9.448 67.067001
4.5528998 -9.4467001 67.057999
4.6251998 -9.4449997 67.045998
4.6974001 -9.4432001 67.032997
4.7693 -9.4407997 67.015999
4.8410001 -9.4383001 66.998001
4.9123001 -9.4349003 66.973999
4.9836001 -9.4315004 66.949997
5.0549002 -9.4284 66.928001
5.1265001 -9.4258003 66.908997
5.1978998 -9.4230003 66.889
5.27 -9.4216003 66.879997
5.3421998 -9.4203997 66.871002
5.4148002 -9.4196997 66.865997
5.4872999 -9.4190998 66.862
5.5601001 -9.4188995 66.860001
5.6318998 -9.4169998 66.847
5.7030001 -9.4139996 66.825996
5.7729001 -9.4092999 66.792
5.8421001 -9.4034996 66.750999
5.9101 -9.3957996 66.695999
5.9779 -9.3880997 66.641998
6.0454998 -9.3802004 66.584999
6.1134 -9.3730001 66.535004
6.1815 -9.3662996 66.487
6.2505999 -9.3612003 66.450996
6.3203001 -9.3570995 66.420998
6.3909001 -9.3543997 66.402
6.4615998 -9.3520002 66.386002
6.5327001 -9.3500996 66.372002
6.6037998 -9.3483 66.359001
6.6749001 -9.3465996 66.347
6.7459998 -9.3449001 66.334999
6.8168998 -9.3430004 66.320999
6.8877001 -9.3409004 66.306999
6.9583998 -9.3388004 66.291
7.0290999 -9.3367004 66.276001
7.0998001 -9.3346004 66.262001
7.1705999 -9.3326998 66.248001
7.2413998 -9.3309002 66.235001
7.3123002 -9.3290997 66.223
7.3836002 -9.3281002 66.214996
7.4555001 -9.3276997 66.212997
7.5278001 -9.3276997 66.212997
7.6005998 -9.3284998 66.218002
7.6739998 -9.3299999 66.228996
7.7479 -9.3319998 66.244003
7.8225999 -9.335 66.264999
7.8983002 -9.3390999 66.293999
7.9748001 -9.3439999 66.329002
8.052 -9.3495998 66.367996
8.1300001 -9.3562002 66.415001
8.2090998 -9.3638 66.469002
8.2901001 -9.3733997 66.537003
8.3760996 -9.3884001 66.643997
8.4664001 -9.4081001 66.782997
8.5609999 -9.4321003 66.954002
8.6611004 -9.4616003 67.164001
8.7735996 -9.5042 67.466003
11.948 -10.7 75.957001
12.018 -10.689 75.876999
12.091 -10.681 75.816002
12.168 -10.675 75.776001
12.242 -10.667 75.722
12.322 -10.665 75.706001
12.412 -10.671 75.750999
12.514 -10.689 75.874001
13.557 -11.083 78.069
13.553 -10.995 78.045998
13.645 -11 78.082001
13.645 -11.085 78.081001
13.732 -11.001 78.091003
13.815 -11 78.081001
13.897 -10.997 78.063004
13.978 -10.994 78.040001
14.056 -10.988 78
14.131 -10.98 77.944
14.206 -10.973 77.889
14.278 -10.963 77.82
14.349 -10.953 77.747002
14.42 -10.942 77.669998
14.49 -10.931 77.594002
14.558 -10.918 77.503998
14.509 -10.966 77.242996
14.627 -10.907 77.420998
14.573 -10.951 77.136002
14.701 -10.899 77.365997
14.635 -10.934 77.019997
14.783 -10.897 77.355003
14.801 -10.932 77.008003
14.871 -10.9 77.373001
14.961 -10.904 77.403
15.352 -11.027 77.672997
15.378 -10.961 77.803001
15.47 -11.05 77.838997
15.483 -10.975 77.905998
15.581 -10.984 77.971001
15.674 -10.99 78.013
15.762 -10.992 78.027
15.852 -10.995 78.051003
15.936 -10.995 78.045998
16.018 -10.993 78.031998
16.099001 -10.99 78.010002
16.181 -10.987 77.995003
16.264 -10.986 77.987
16.35 -10.987 77.990997
16.438 -10.989 78.004997
16.528 -10.992 78.028
16.618999 -10.996 78.057999
16.712 -11.001 78.091003
16.805 -11.006 78.126999
16.898001 -11.011 78.163002
16.99 -11.016 78.195
17.080999 -11.02 78.223999
17.171 -11.023 78.244003
17.257999 -11.024 78.251999
17.343 -11.024 78.250999
17.427 -11.023 78.244003
17.509001 -11.021 78.231003
17.591999 -11.019 78.220001
17.676001 -11.018 78.212997
17.761 -11.018 78.213997
17.849001 -11.02 78.225998
17.941999 -11.025 78.259003
18.037001 -11.031 78.301003
18.136 -11.039 78.357002
18.236 -11.047 78.419998
18.34 -11.059 78.5
18.445 -11.07 78.584
18.555 -11.085 78.686996
18.667999 -11.101 78.802002
18.785999 -11.12 78.933998
18.91 -11.143 79.095001
19.073 -11.188 79.416
19.25 -11.24 79.790001
19.438999 -11.3 80.209999
19.618 -11.353 80.587997
20.045 -11.548 81.973999
20.236 -11.606 82.388
20.423 -11.662 82.781998
-4.8518 -9.3211002 66.681999
-4.7825999 -9.3278999 66.731003
-4.7129002 -9.3339996 66.774002
-4.6402001 -9.3343 66.776001
-4.5644002 -9.3282003 66.733002
-4.4872999 -9.3191996 66.667999
-4.4106002 -9.3107996 66.608002
-4.3337998 -9.3017998 66.543999
-4.2585001 -9.2957001 66.5
-4.1844001 -9.2922001 66.474998
-4.1125998 -9.2938004 66.486
-4.0430002 -9.3003998 66.533997
-3.9765999 -9.3147001 66.636002
-3.9145999 -9.3402996 66.819
-3.8563001 -9.3755999 67.071999
-3.8062 -9.4327002 67.481003
-3.7600999 -9.5022001 67.977997
-3.7186999 -9.5865002 68.581001
-3.9354 -10.353 74.066002
-3.8841 -10.433 74.633003
-3.8278 -10.501 75.125
-3.7681999 -10.564 75.570999
-3.7068 -10.624 76.001999
-3.6396 -10.67 76.332001
-3.5722001 -10.717 76.670998
-3.5032001 -10.762 76.991997
-3.4330001 -10.806 77.301003
-3.3573 -10.833 77.5
-3.2794001 -10.855 77.654999
-3.1977999 -10.866 77.731003
-3.1143 -10.87 77.763
-3.03 -10.872 77.774002
-2.9444001 -10.869 77.752998
-2.8587 -10.865 77.727997
-2.773 -10.861 77.700996
-2.6870999 -10.857 77.668999
-2.6010001 -10.851 77.625999
-2.5156 -10.847 77.601997
-2.4303 -10.845 77.581001
-2.3457 -10.844 77.578003
-2.2613001 -10.845 77.584999
-2.1772001 -10.848 77.603996
-2.0932 -10.851 77.625
-2.0093999 -10.855 77.657997
-1.9256001 -10.86 77.694
-1.8418 -10.866 77.734001
-1.7578 -10.871 77.767998
-1.6738 -10.875 77.801003
-1.5893 -10.878 77.820999
-1.5039999 -10.874 77.793999
-1.4169 -10.857 77.671997
-1.3298 -10.837 77.529999
-0.71766001 -10.62 75.389
-0.71133 -10.445 74.723999
-0.62993002 -10.446 74.733002
-0.63616002 -10.632 75.472
-0.54829001 -10.444 74.711998
-0.55422997 -10.639 75.522003
-0.47174999 -10.636 75.499001
0.25657001 -10.139 71.974998
0.25615999 -10.045 71.857002
0.33482 -10.132 71.925003
0.33451 -10.045 71.857002
0.41271001 -10.041 71.832001
0.49068999 -10.034 71.781998
0.56843001 -10.025 71.714996
0.64589 -10.013 71.634003
0.72312999 -10.001 71.549004
0.79996002 -9.9864998 71.442001
0.87661999 -9.9724998 71.342003
0.95336002 -9.9615002 71.263
1.0298001 -9.9489002 71.174004
1.1059 -9.9361 71.082001
1.1817 -9.9214001 70.976997
1.2568001 -9.9033003 70.847
1.331 -9.8804998 70.683998
1.4753 -9.8156004 70.220001
1.5477 -9.7887001 70.027
1.6202 -9.7658005 69.863998
1.693 -9.7461996 69.723
1.7665 -9.7326002 69.625999
1.8407 -9.7236004 69.560997
1.9158 -9.7194004 69.531998
1.9909 -9.7159004 69.507004
2.066 -9.7130003 69.486
2.1407001 -9.7077999 69.448997
2.2142 -9.6982002 69.379997
2.2853999 -9.6794004 69.245003
2.3557999 -9.6584997 69.096001
2.4252999 -9.6355 68.931
2.559 -9.5732002 68.486
2.6285 -9.5543003 68.349998
2.6982999 -9.5375996 68.231003
2.7702 -9.5291996 68.170998
2.8438001 -9.5268002 68.153999
2.9175 -9.5248003 68.139
2.9907999 -9.5214005 68.114998
3.0636001 -9.5167999 68.082001
3.1357 -9.5106001 68.038002
3.2072999 -9.5028 67.982002
3.2783 -9.4939003 67.917999
3.3487 -9.4834995 67.844002
3.4188001 -9.4727001 67.766998
3.4886999 -9.4617996 67.688004
3.5583 -9.4505997 67.609001
3.6278 -9.4396 67.529999
3.6973 -9.4292002 67.455002
3.7667999 -9.4189997 67.383003
3.8364 -9.4095001 67.314003
3.9061999 -9.4008999 67.252998
3.9762001 -9.3929996 67.195999
4.0465999 -9.3863001 67.148003
4.1173 -9.3807001 67.109001
4.1886001 -9.3762999 67.077003
4.2603002 -9.3732004 67.055
4.3322001 -9.3706999 67.037003
4.4043002 -9.3684998 67.021004
4.4762001 -9.3661003 67.003998
4.5482998 -9.3641005 66.989998
4.6199999 -9.3614998 66.971001
4.6919999 -9.3593998 66.956001
4.7638998 -9.3571997 66.940002
4.836 -9.3555002 66.928001
4.9078999 -9.3534002 66.913002
4.9801002 -9.3520002 66.903
5.0521002 -9.3501997 66.889999
5.1244001 -9.3492002 66.883003
5.1967001 -9.3479996 66.874001
5.2694998 -9.3478003 66.873001
5.3421998 -9.3473997 66.870003
5.415 -9.3472004 66.869003
5.4877 -9.3467999 66.865997
5.5605001 -9.3465996 66.863998
5.6324 -9.3450003 66.852997
5.7037001 -9.3423996 66.834
5.7737002 -9.3376999 66.801003
5.8429999 -9.3320999 66.761002
5.9110999 -9.3247004 66.708
5.9790001 -9.3170996 66.653
6.0467 -9.3094997 66.598999
6.1146002 -9.3023005 66.547997
6.1827998 -9.2958002 66.500999
6.2518001 -9.2905998 66.463997
6.3214002 -9.2862997 66.432999
6.3920002 -9.2837 66.415001
6.4629002 -9.2813997 66.398003
6.5338998 -9.2795 66.385002
6.605 -9.2776003 66.371002
6.6760998 -9.2758999 66.359001
6.7470999 -9.2741003 66.346001
6.8181 -9.2722998 66.333
6.8889999 -9.2702999 66.319
6.9597998 -9.2683001 66.305
7.0307002 -9.2665005 66.291
7.1018 -9.2649002 66.279999
7.1729002 -9.2634001 66.268997
7.244 -9.2620001 66.259003
7.3151999 -9.2607002 66.25
7.3867002 -9.2596998 66.242996
7.4587002 -9.2594004 66.240997
7.5310001 -9.2594995 66.240997
7.6037998 -9.2601995 66.246002
7.6771002 -9.2615004 66.255997
7.7512002 -9.2636995 66.272003
7.8260999 -9.2667999 66.293999
7.9021001 -9.2712002 66.324997
7.9787998 -9.2763996 66.362
8.0565996 -9.2825003 66.405998
8.1351995 -9.2896004 66.457001
8.2156 -9.2986002 66.521004
8.2982998 -9.3100996 66.602997
8.3870001 -9.3280001 66.731003
8.4805002 -9.3507996 66.893997
8.5803003 -9.3801003 67.103996
8.6878004 -9.4174004 67.371002
11.879 -10.712 76.040001
11.968 -10.635 76.082001
12.039 -10.625 76.008003
12.111 -10.615 75.936996
12.187 -10.609 75.892998
12.259 -10.6 75.831001
12.336 -10.595 75.796997
12.424 -10.599 75.823997
12.521 -10.611 75.912003
12.8 -10.79 76.591003
12.779 -10.689 76.469002
12.928 -10.743 76.856003
12.949 -10.844 76.978996
13.073 -10.794 77.218002
13.096 -10.897 77.352997
13.213 -10.84 77.544998
13.235 -10.942 77.675003
13.332 -10.867 77.744003
13.348 -10.966 77.839996
13.443 -10.889 77.902
13.456 -10.985 77.974998
13.546 -10.903 78.000999
13.641 -10.911 78.057999
13.73 -10.915 78.083
13.816 -10.915 78.084999
13.899 -10.914 78.073997
