# .PCD v0.7 - Point Cloud Data file format
VERSION 0.7
FIELDS x y z
SIZE 4 4 4
TYPE F F F
COUNT 1 1 1
WIDTH 1776
HEIGHT 1
VIEWPOINT 0 0 0 1 0 0 0
POINTS 1776
DATA ascii
-22.813999 -24.774 109.13
-22.691 -24.77 109.11
-22.573 -24.771 109.12
-22.455999 -24.771999 109.12
-22.341 -24.777 109.14
-22.226999 -24.783001 109.17
-22.117001 -24.792999 109.21
-22.007 -24.802999 109.26
-21.896 -24.812 109.3
-21.780001 -24.816 109.32
-21.660999 -24.816 109.32
-21.538 -24.811001 109.29
-21.412001 -24.804001 109.26
-21.284 -24.792999 109.21
-21.155001 -24.782 109.17
-21.030001 -24.775 109.14
-20.909 -24.773001 109.12
-20.794001 -24.777 109.14
-20.683001 -24.787001 109.19
-20.573999 -24.799 109.24
-20.466999 -24.813999 109.31
-20.360001 -24.829 109.37
-20.252001 -24.843 109.43
-20.145 -24.858 109.5
-20.037001 -24.871 109.56
-19.924 -24.879999 109.6
-19.806999 -24.882 109.61
-19.687 -24.882 109.6
-19.565001 -24.879 109.59
-19.441999 -24.875 109.58
-19.316999 -24.868 109.54
-19.191999 -24.861 109.51
-19.066 -24.851 109.47
-18.937 -24.84 109.42
-18.808001 -24.826 109.36
-18.68 -24.813999 109.31
-18.552999 -24.804001 109.26
-18.429001 -24.798 109.23
-18.306999 -24.794001 109.22
-18.190001 -24.796 109.23
-18.073999 -24.799999 109.25
-17.959999 -24.806999 109.28
-17.847 -24.816 109.32
-17.736 -24.827 109.37
-17.622999 -24.837 109.41
-17.511 -24.846001 109.45
-17.396999 -24.854 109.48
-17.281 -24.860001 109.51
-17.162001 -24.860001 109.51
-17.042999 -24.861 109.51
-16.924 -24.861 109.51
-16.806999 -24.865 109.53
-16.691999 -24.872 109.56
-16.577999 -24.879999 109.6
-16.464001 -24.888 109.63
-16.349001 -24.895 109.66
-16.232 -24.898001 109.68
-16.114 -24.900999 109.69
-15.995 -24.902 109.7
-15.875 -24.900999 109.69
-15.752 -24.895 109.67
-15.627 -24.888 109.63
-15.503 -24.881001 109.6
-15.38 -24.875 109.57
-15.258 -24.871 109.56
-15.138 -24.870001 109.55
-15.02 -24.872999 109.56
-14.903 -24.877001 109.58
-14.789 -24.885 109.62
-14.675 -24.895 109.66
-14.561 -24.905001 109.71
-14.447 -24.914 109.75
-14.333 -24.924 109.79
-14.218 -24.931999 109.83
-14.103 -24.940001 109.86
-13.985 -24.943001 109.88
-13.865 -24.944 109.88
-13.741 -24.934999 109.84
-13.614 -24.922001 109.78
-13.484 -24.903999 109.7
-13.357 -24.889999 109.64
-13.232 -24.879 109.59
-13.106 -24.867001 109.54
-12.978 -24.851 109.47
-8.9528999 -20.417999 89.513
-8.9368 -20.284 89.350998
-8.8268995 -20.254999 89.224998
-8.7328997 -20.360001 89.259003
-8.7201996 -20.233 89.128998
-8.6139002 -20.212 89.035004
-8.5079002 -20.191 88.942001
-8.3969002 -20.157 88.793999
-8.2860003 -20.122999 88.641998
-8.1759996 -20.09 88.498001
-8.0664997 -20.058001 88.355003
-7.9590001 -20.030001 88.232002
-7.8527002 -20.004 88.119003
-7.7477002 -19.981001 88.016998
-7.6436 -19.959999 87.924004
-7.5405998 -19.941 87.839996
-7.4383998 -19.924 87.765999
-7.3375001 -19.91 87.703003
-7.2371998 -19.896999 87.647003
-7.1374998 -19.885 87.596001
-7.0384002 -19.875 87.551003
-6.9407001 -19.868999 87.523003
-6.8439999 -19.865 87.505997
-6.7487001 -19.865 87.507004
-6.6545 -19.868999 87.523003
-6.5615001 -19.875999 87.556999
-6.4698 -19.888 87.607002
-6.3778 -19.899 87.655998
-6.2863998 -19.912001 87.713997
-6.1956 -19.927999 87.782997
-6.1055999 -19.947001 87.864998
-6.0198998 -19.98 88.013
-5.9387999 -20.030001 88.233002
-5.8573999 -20.080999 88.457001
-5.7747002 -20.129 88.667
-5.6957998 -20.191999 88.945999
-5.6071 -20.221001 89.077003
-5.5158 -20.243 89.171997
-5.4218001 -20.254999 89.223999
-5.3252001 -20.257 89.235001
-5.2237 -20.240999 89.164001
-5.1208 -20.219 89.066002
-5.0174999 -20.194 88.957001
-4.914 -20.167 88.838997
-4.8105998 -20.139999 88.717003
-4.7082 -20.115999 88.610001
-4.6062999 -20.093 88.509003
-4.5047998 -20.070999 88.412003
-4.4042001 -20.052 88.328003
-4.3042998 -20.035 88.253998
-4.2052002 -20.021 88.193001
-4.1065998 -20.009001 88.140999
-4.0092001 -20.003 88.112999
-3.9123001 -19.999001 88.095001
-3.8162 -19.997999 88.093002
-3.7205 -20 88.100998
-3.6257999 -20.007 88.133003
-3.5316999 -20.018999 88.183998
-3.4382999 -20.035 88.253998
-3.3452001 -20.054001 88.336998
-3.2528 -20.077999 88.443001
-3.1603 -20.103001 88.554001
-3.0667 -20.122 88.638
-2.9723001 -20.136999 88.706001
-2.8776 -20.152 88.768997
-2.7823 -20.162001 88.815002
-2.6861999 -20.167999 88.841003
-2.0237 -19.482 85.411003
-2.0156 -19.311001 85.066002
-1.9201 -19.284 84.946999
-1.8264 -19.273001 84.898003
-1.7342 -19.277 84.916
-1.6428 -19.290001 84.973999
-1.5526 -19.320999 85.109001
-1.4633 -19.368 85.315002
-1.374 -19.42 85.546997
-1.2855 -19.492001 85.862
-1.2036999 -19.684999 86.716003
-1.1133 -19.759001 87.041
-1.0216 -19.820999 87.314003
-0.92878997 -19.872999 87.541
-0.83517998 -19.917 87.734001
-0.74071997 -19.948999 87.876999
-0.6455 -19.966999 87.958
-0.54992002 -19.979 88.010002
-0.45414001 -19.987 88.044998
-0.35826999 -19.995001 88.077003
-0.26232001 -20.000999 88.107002
-0.1663 -20.007 88.134003
-0.070225 -20.011999 88.154999
0.025900001 -20.016001 88.172997
0.12206 -20.02 88.190002
0.21827 -20.025 88.209999
0.31452 -20.028999 88.228996
0.41080001 -20.033001 88.247002
0.50716001 -20.039 88.272003
0.60369003 -20.048 88.311996
0.70050001 -20.063 88.378998
0.79769999 -20.084 88.471001
0.89525002 -20.108 88.579002
0.99308002 -20.134001 88.690002
1.0912 -20.16 88.806999
1.1898 -20.190001 88.936996
1.2888 -20.221001 89.075996
1.3882 -20.254999 89.223
1.4879 -20.288 89.370003
1.5877 -20.318001 89.503998
1.6876 -20.346001 89.625
1.7876 -20.372 89.739998
1.8882 -20.402 89.871002
1.9894 -20.434 90.014
2.0912001 -20.469999 90.170998
2.1937001 -20.509001 90.345001
2.2972 -20.554001 90.542999
2.4017999 -20.604 90.762001
2.5071001 -20.657 90.995003
2.6136 -20.715 91.25
2.7205 -20.771 91.496002
2.826 -20.813 91.682999
2.9298999 -20.841 91.806999
3.0321 -20.856001 91.870003
3.1324 -20.856001 91.873001
3.2309999 -20.846001 91.829002
3.3281 -20.827 91.744003
3.4236 -20.799999 91.624001
3.5179999 -20.768 91.482002
3.6118 -20.733 91.331001
3.7061999 -20.704 91.203003
3.8013999 -20.681 91.100998
3.8965001 -20.659 91.001999
3.9907 -20.632999 90.888
4.0844002 -20.605 90.766998
4.1771998 -20.575001 90.635002
4.2697001 -20.544001 90.499001
4.3615999 -20.513 90.359001
4.454 -20.485001 90.236
4.5458999 -20.455999 90.108002
4.6374998 -20.426001 89.977997
4.7289 -20.396999 89.850998
4.8207002 -20.371 89.735001
4.9129 -20.348 89.633003
5.0057998 -20.327999 89.546997
5.0991001 -20.311001 89.471001
5.1932998 -20.298 89.414001
5.2887998 -20.290001 89.378998
5.3856001 -20.288 89.369003
5.4840999 -20.292 89.386002
5.5837998 -20.299999 89.421997
5.6844001 -20.311001 89.470001
5.7848001 -20.320999 89.514
5.8846002 -20.327999 89.547997
5.9839001 -20.334 89.571999
6.0827999 -20.337999 89.591003
6.1806998 -20.339001 89.594002
6.2764001 -20.333 89.566002
6.3720002 -20.326 89.536003
6.4664001 -20.316 89.491997
6.5627999 -20.312 89.475998
6.6601 -20.311001 89.472
6.7593002 -20.316 89.494003
6.8568001 -20.316 89.492996
6.9538002 -20.313999 89.486
7.7200999 -14.917 65.396004
7.7224002 -14.85 65.415001
7.7912998 -14.846 65.394997
7.8606 -14.842 65.378998
7.9299002 -14.838 65.362
7.9991002 -14.834 65.345001
8.0684996 -14.831 65.330002
8.1377001 -14.827 65.314003
8.2069998 -14.824 65.299004
8.2763004 -14.82 65.282997
8.3459997 -14.818 65.272003
8.4161997 -14.816 65.264
8.4870005 -14.815 65.262001
8.5581999 -14.815 65.262001
8.6299 -14.816 65.265999
8.7019997 -14.818 65.273003
8.7740002 -14.819 65.279999
8.8451004 -14.819 65.278999
8.9118004 -14.812 65.246002
8.9735003 -14.796 65.178001
9.0326996 -14.777 65.092003
9.0896997 -14.754 64.991997
9.1921997 -14.691 64.716003
9.2484999 -14.669 64.615997
9.3079996 -14.651 64.540001
9.3725004 -14.642 64.5
9.4394999 -14.637 64.476997
9.5079002 -14.634 64.463997
9.5768003 -14.632 64.455002
9.6454 -14.63 64.444
9.7138996 -14.627 64.431999
9.7819004 -14.623 64.417
9.8500004 -14.62 64.403
9.9174995 -14.616 64.385002
9.9840002 -14.611 64.362
10.049 -14.603 64.329002
10.113 -14.594 64.289001
10.175 -14.583 64.239998
10.237 -14.571 64.188004
10.299 -14.56 64.136002
10.36 -14.548 64.085999
10.422 -14.537 64.035004
10.484 -14.526 63.986
10.546 -14.515 63.938999
10.609 -14.506 63.900002
10.674 -14.499 63.868999
10.741 -14.496 63.854
10.808 -14.492 63.84
10.876 -14.491 63.833
10.946 -14.49 63.831001
11.016 -14.491 63.835999
11.088 -14.494 63.847
11.16 -14.498 63.865002
11.234 -14.503 63.887001
11.308 -14.509 63.911999
11.381 -14.513 63.93
11.453 -14.516 63.942001
11.52 -14.513 63.929001
11.582 -14.503 63.884998
11.642 -14.491 63.834
11.811 -14.443 63.620998
11.872 -14.431 63.570999
11.937 -14.427 63.553001
12.009 -14.43 63.564999
12.084 -14.437 63.596001
12.163 -14.448 63.644001
12.243 -14.46 63.699001
12.322 -14.472 63.751999
12.401 -14.483 63.797001
12.478 -14.492 63.838001
12.553 -14.498 63.862999
12.624 -14.5 63.873001
12.69 -14.496 63.855
12.746 -14.48 63.783001
12.798 -14.46 63.698002
12.845 -14.434 63.584999
12.888 -14.406 63.458
12.935 -14.381 63.349998
12.981 -14.355 63.235001
13.041 -14.345 63.191002
13.103 -14.338 63.16
13.17 -14.336 63.150002
13.24 -14.338 63.158001
13.314 -14.343 63.181999
13.386 -14.346 63.195999
13.458 -14.349 63.209
13.528 -14.35 63.213001
13.596 -14.349 63.209
13.662 -14.346 63.195
13.728 -14.343 63.182999
13.792 -14.338 63.16
13.856 -14.333 63.139
13.919 -14.327 63.112999
13.986 -14.325 63.104
14.05 -14.321 63.083
14.118 -14.32 63.078999
14.191 -14.324 63.099998
19.32 -17.025 74.995003
19.396 -17.02 74.973
19.469 -17.013 74.941002
19.542 -17.004999 74.905998
19.612 -16.995001 74.862999
19.677999 -16.981001 74.800003
19.740999 -16.965 74.732002
19.802999 -16.948999 74.658997
19.865999 -16.931999 74.587997
19.93 -16.917999 74.526001
19.996 -16.905001 74.468002
20.065001 -16.895 74.424004
20.136 -16.886999 74.386002
20.211 -16.881001 74.361
20.287001 -16.877001 74.343002
20.365 -16.874001 74.331001
20.444 -16.872 74.322998
20.524 -16.872 74.322998
20.607 -16.872999 74.328003
20.691999 -16.877001 74.344002
20.778 -16.881001 74.362
20.865999 -16.886999 74.387001
20.955999 -16.893 74.416
21.046 -16.9 74.446999
21.136 -16.908001 74.480003
21.229 -16.917 74.518997
21.320999 -16.926001 74.557999
21.415001 -16.934999 74.600998
21.51 -16.945999 74.648003
21.606001 -16.958 74.699997
21.702 -16.969 74.750999
21.792999 -16.976 74.781998
21.882 -16.983 74.808998
21.972 -16.989 74.837997
22.063 -16.996 74.867996
-23.541 -24.667999 109.19
-23.423 -24.67 109.2
-23.305 -24.67 109.2
-23.183001 -24.667 109.18
-23.059999 -24.663 109.17
-22.937 -24.66 109.15
-22.815001 -24.656 109.14
-22.694 -24.653 109.12
-22.575001 -24.653999 109.13
-22.458 -24.656 109.13
-22.341999 -24.66 109.15
-22.228001 -24.665001 109.18
-22.117001 -24.674 109.22
-22.007 -24.684 109.26
-21.893999 -24.691 109.29
-21.778 -24.694 109.3
-21.658001 -24.693001 109.3
-21.533001 -24.687 109.27
-21.408001 -24.68 109.24
-21.280001 -24.67 109.2
-21.152 -24.66 109.15
-21.028 -24.653 109.12
-20.907 -24.650999 109.11
-20.792999 -24.657 109.14
-20.683001 -24.667999 109.19
-20.575001 -24.681 109.25
-20.468 -24.695999 109.31
-20.362 -24.711 109.38
-20.254 -24.725 109.44
-20.146999 -24.740999 109.51
-20.038 -24.754 109.57
-19.924999 -24.761999 109.6
-19.806 -24.763 109.61
-19.684999 -24.76 109.6
-19.562 -24.756001 109.58
-19.438 -24.75 109.55
-19.313 -24.743 109.52
-19.187 -24.735001 109.48
-19.059999 -24.725 109.44
-18.931999 -24.714001 109.39
-18.802999 -24.701 109.33
-18.676001 -24.690001 109.29
-18.549999 -24.681 109.25
-18.427 -24.676001 109.22
-18.306 -24.673 109.21
-18.188999 -24.676001 109.22
-18.073999 -24.681 109.25
-17.959999 -24.688999 109.28
-17.847 -24.697001 109.32
-17.736 -24.708 109.37
-17.624001 -24.718 109.41
-17.511 -24.726999 109.45
-17.396999 -24.735001 109.48
-17.281 -24.74 109.51
-17.162001 -24.74 109.51
-17.042 -24.74 109.51
-16.923 -24.74 109.51
-16.806 -24.743999 109.53
-16.691 -24.75 109.55
-16.577 -24.757999 109.59
-16.462 -24.766001 109.62
-16.347 -24.771999 109.65
-16.23 -24.775 109.66
-16.112 -24.778 109.68
-15.993 -24.778999 109.68
-15.873 -24.778999 109.68
-15.75 -24.774 109.66
-15.627 -24.768 109.63
-15.504 -24.763 109.61
-15.382 -24.757999 109.59
-15.261 -24.756001 109.58
-15.142 -24.757 109.58
-15.025 -24.761 109.6
-14.908 -24.766001 109.62
-14.793 -24.773001 109.65
-14.679 -24.782 109.69
-14.565 -24.791 109.73
-14.45 -24.799999 109.77
-14.335 -24.808001 109.81
-14.219 -24.813999 109.83
-14.103 -24.82 109.86
-13.984 -24.822001 109.87
-13.863 -24.820999 109.86
-13.739 -24.812 109.82
-13.611 -24.797001 109.76
-13.481 -24.778 109.67
-13.355 -24.766001 109.62
-13.229 -24.754 109.57
-13.104 -24.743 109.52
-12.976 -24.726999 109.45
-8.8128004 -20.125999 89.083
-8.7082005 -20.108 89.005997
-8.6037998 -20.091 88.931
-8.5002003 -20.076 88.861
-8.3915005 -20.047001 88.736
-8.2821999 -20.017 88.602997
-8.1737003 -19.988001 88.473999
-8.0655003 -19.959 88.345001
-7.9580002 -19.931 88.221001
-7.8516002 -19.905001 88.106003
-7.7459998 -19.881001 87.998001
-7.6413999 -19.858 87.899002
-7.5377002 -19.837 87.806999
-7.4348998 -19.819 87.723999
-7.3337002 -19.804001 87.657997
-7.2335 -19.791 87.601997
-7.1345 -19.781 87.558998
-7.0366998 -19.775 87.528999
-6.9404001 -19.771999 87.517998
-6.8453002 -19.773001 87.523003
-6.7519999 -19.778999 87.550003
-6.6598001 -19.789 87.594002
-6.5696001 -19.805 87.665001
-6.48 -19.823 87.745003
-6.3887 -19.837 87.806
-6.2975998 -19.851999 87.871002
-6.2066998 -19.867001 87.940002
-6.1162 -19.885 88.016998
-6.0300999 -19.917999 88.161003
-5.9478998 -19.964001 88.369003
-5.8649001 -20.01 88.57
-5.7816 -20.056 88.774002
-5.6991 -20.107 88.998001
-5.6089001 -20.131001 89.106003
-5.5166001 -20.149 89.183998
-5.4215002 -20.157 89.219002
-5.3242998 -20.157 89.221001
-5.2226 -20.139999 89.144997
-5.1199002 -20.118 89.050003
-5.0169001 -20.094999 88.945999
-4.9137001 -20.069 88.833
-4.8105001 -20.042999 88.717003
-4.7083001 -20.018999 88.612
-4.6064 -19.997 88.511002
-4.5050001 -19.975 88.415001
-4.4042001 -19.955 88.327003
-4.3042002 -19.938 88.250999
-4.2049999 -19.924 88.188004
-4.1062999 -19.910999 88.134003
-4.0088 -19.905001 88.103996
-3.9119999 -19.900999 88.086998
-3.8159001 -19.900999 88.086998
-3.7204001 -19.903 88.098
-3.6257999 -19.912001 88.135002
-3.5321 -19.924999 88.194
-3.4391 -19.943001 88.276001
-3.3466001 -19.966 88.374001
-3.2546999 -19.993 88.495003
-3.1624 -20.018999 88.612
-3.0688 -20.039 88.698997
-2.9746001 -20.056 88.775002
-2.8801 -20.072001 88.845001
-2.7849 -20.084 88.900002
-2.0083001 -19.149 84.761002
-1.9143 -19.134001 84.691002
-1.8218 -19.132 84.682999
-1.7304 -19.142 84.727997
-1.6393 -19.158001 84.796997
-1.5489 -19.181999 84.904999
-1.4593 -19.222 85.082001
-1.37 -19.27 85.293999
-1.2812001 -19.334 85.575996
-1.1927 -19.412001 85.925003
-1.1111 -19.625999 86.872002
-1.02 -19.695999 87.181999
-0.92774999 -19.754999 87.443001
-0.83454001 -19.806 87.667
-0.74041998 -19.844999 87.841003
-0.64543998 -19.870001 87.949997
-0.55005002 -19.888 88.030998
-0.45425999 -19.896999 88.069
-0.35837999 -19.905001 88.105003
-0.2624 -19.912001 88.135002
-0.16635001 -19.917 88.158997
-0.070243001 -19.921 88.177002
0.025905 -19.924 88.191002
0.12208 -19.927 88.204002
0.21829 -19.931 88.219002
0.31452999 -19.934 88.233002
0.41080001 -19.937 88.246002
0.50713998 -19.941999 88.267998
0.60365999 -19.951 88.307999
0.70046002 -19.965 88.373001
0.79764003 -19.986 88.463997
0.89512002 -20.009001 88.566002
0.99291998 -20.034 88.676003
1.0911 -20.059999 88.792999
1.1896 -20.089001 88.920998
1.2884001 -20.118999 89.053001
1.3879 -20.153 89.202003
1.4876 -20.186001 89.349998
1.5874 -20.216 89.484001
1.6873 -20.245001 89.610001
1.7875 -20.271999 89.731003
1.8882 -20.304001 89.870003
1.9895 -20.337999 90.022003
2.0915999 -20.375999 90.190002
2.1946001 -20.42 90.383003
2.2986 -20.468 90.598
2.4038 -20.523001 90.841003
2.5097001 -20.579 91.087997
2.6173 -20.643999 91.377998
2.7244999 -20.702 91.632004
2.8299999 -20.742001 91.811996
2.9342 -20.771999 91.942001
3.0362999 -20.784 91.998001
3.1354001 -20.775999 91.962997
3.2327001 -20.757 91.877998
3.3276 -20.724001 91.732002
3.4212999 -20.686001 91.564003
3.5139999 -20.643999 91.376999
3.6066999 -20.605 91.202003
3.7011001 -20.576 91.078003
3.7966001 -20.556 90.986
3.8917 -20.534 90.890999
3.9863999 -20.511 90.790001
4.0805001 -20.487 90.681999
4.1739998 -20.461 90.565002
4.2670999 -20.433001 90.445
4.3596001 -20.405001 90.318001
4.4524002 -20.379 90.204002
4.5447998 -20.351999 90.084999
4.6364999 -20.323999 89.959999
4.7280002 -20.295 89.833
4.8197999 -20.27 89.720001
4.9116001 -20.245001 89.610001
5.0037999 -20.222 89.511002
5.0969 -20.205 89.431999
5.191 -20.191 89.374001
5.2863002 -20.183001 89.335999
5.3828001 -20.18 89.321999
5.4809999 -20.183001 89.335999
5.5808001 -20.191 89.373001
5.6812 -20.202 89.418999
5.7810998 -20.209999 89.458
5.8804002 -20.216 89.484001
5.9794002 -20.221001 89.504997
6.0777998 -20.224001 89.515999
6.1747999 -20.222 89.508003
6.2691998 -20.211 89.461998
6.3607998 -20.193001 89.378998
6.4541998 -20.18 89.323997
6.5469999 -20.166 89.260002
6.6431999 -20.162001 89.245003
6.7385001 -20.156 89.219002
6.8369999 -20.16 89.234001
6.9324002 -20.155001 89.210999
7.0293002 -20.153 89.205002
7.6535001 -14.855 65.435997
7.6560001 -14.788 65.457001
7.7245002 -14.783 65.433998
7.7926002 -14.777 65.405998
7.8611002 -14.771 65.383003
7.9298 -14.767 65.361
7.9986 -14.762 65.341003
8.0675001 -14.758 65.321999
8.1364002 -14.754 65.304001
8.2055998 -14.75 65.287003
8.2748003 -14.746 65.272003
8.3449001 -14.744 65.263
8.4153996 -14.743 65.259003
8.4867001 -14.744 65.260002
8.5586004 -14.745 65.264999
8.6310997 -14.747 65.275002
8.7040997 -14.75 65.289001
8.7768002 -14.753 65.301003
8.8487997 -14.754 65.306
8.9161997 -14.748 65.278
8.9766998 -14.73 65.200996
9.0342999 -14.708 65.103996
9.1858997 -14.611 64.671997
9.2412996 -14.587 64.566002
9.3013 -14.571 64.494003
9.3664999 -14.563 64.459
9.4338999 -14.558 64.439003
9.5024004 -14.556 64.427002
9.5711002 -14.553 64.417
9.6392002 -14.55 64.402
9.7068996 -14.546 64.385002
9.7739 -14.541 64.364998
9.8404999 -14.536 64.341003
9.9060001 -14.529 64.310997
9.9709997 -14.522 64.278
10.035 -14.513 64.239998
10.098 -14.503 64.195
10.16 -14.492 64.146004
10.224 -14.483 64.107002
10.287 -14.474 64.066002
10.351 -14.465 64.028
10.414 -14.456 63.987999
10.478 -14.448 63.952
10.542 -14.44 63.917999
10.607 -14.434 63.889999
10.673 -14.429 63.868
10.741 -14.426 63.854
10.808 -14.423 63.841
10.877 -14.422 63.835999
10.946 -14.422 63.834999
11.017 -14.423 63.84
11.088 -14.425 63.851002
11.161 -14.43 63.869999
11.235 -14.435 63.891998
11.309 -14.441 63.918999
11.382 -14.445 63.938
11.454 -14.448 63.951
11.521 -14.444 63.931999
11.581 -14.432 63.879002
11.639 -14.418 63.818001
11.801 -14.361 63.564999
11.86 -14.348 63.507
11.926 -14.344 63.493
11.998 -14.348 63.508999
12.074 -14.356 63.543999
12.154 -14.368 63.596001
12.234 -14.381 63.655998
12.316 -14.396 63.719002
12.396 -14.408 63.775002
12.475 -14.419 63.821999
12.551 -14.426 63.853001
12.624 -14.43 63.870998
12.689 -14.425 63.848999
12.743 -14.407 63.768002
12.868 -14.314 63.356998
12.912 -14.286 63.235001
12.961 -14.264 63.137001
13.022 -14.255 63.098
13.086 -14.25 63.076
13.154 -14.249 63.073002
13.225 -14.252 63.084999
13.3 -14.258 63.112
13.373 -14.263 63.132999
13.447 -14.269 63.158001
13.518 -14.271 63.167999
13.588 -14.272 63.172001
13.655 -14.27 63.162998
13.72 -14.266 63.146999
13.783 -14.261 63.120998
13.846 -14.254 63.095001
13.909 -14.248 63.064999
13.974 -14.244 63.048
14.037 -14.239 63.023998
14.103 -14.236 63.012001
14.173 -14.237 63.016998
14.247 -14.243 63.042999
19.32 -16.943001 74.996002
19.396999 -16.938999 74.975998
19.471001 -16.931999 74.947998
19.545 -16.924999 74.917
19.615999 -16.917 74.877998
19.683001 -16.903 74.819
19.747 -16.889 74.754997
19.811001 -16.874001 74.689003
19.874001 -16.858 74.617996
19.938999 -16.844 74.557999
20.004999 -16.832001 74.501999
20.075001 -16.822001 74.458
20.146 -16.813 74.420998
20.219999 -16.808001 74.397003
20.297001 -16.804001 74.379997
20.375999 -16.802 74.371002
20.455999 -16.801001 74.366997
20.537001 -16.802 74.370003
20.621 -16.804001 74.378998
20.707001 -16.808001 74.396004
20.794001 -16.812 74.417
20.882999 -16.819 74.445
20.973 -16.826 74.476997
21.063999 -16.834 74.512001
21.155001 -16.841999 74.546997
21.247999 -16.851 74.588997
21.341 -16.860001 74.627998
21.436001 -16.871 74.674004
21.532 -16.882 74.724998
21.628 -16.893999 74.776001
21.725 -16.905001 74.828003
21.815001 -16.912001 74.857002
21.905001 -16.919001 74.887001
21.996 -16.926001 74.917999
22.086 -16.933001 74.948997
-23.540001 -24.548 109.19
-23.423 -24.549999 109.19
-23.304001 -24.551001 109.2
-23.181999 -24.548 109.18
-23.059999 -24.544001 109.17
-22.938 -24.541 109.15
-22.816 -24.538 109.14
-22.695 -24.535999 109.13
-22.577 -24.537001 109.13
-22.459 -24.538 109.14
-22.343 -24.541 109.15
-22.229 -24.547001 109.18
-22.117001 -24.555 109.21
-22.004999 -24.563 109.25
-21.892 -24.57 109.28
-21.774 -24.570999 109.29
-21.653999 -24.569 109.28
-21.528999 -24.563999 109.25
-21.403999 -24.556 109.22
-21.275999 -24.547001 109.18
-21.149 -24.537001 109.13
-21.025 -24.532 109.11
-20.906 -24.531 109.11
-20.792999 -24.538 109.14
-20.684 -24.549999 109.19
-20.576 -24.563999 109.25
-20.469999 -24.577999 109.32
-20.363001 -24.594 109.39
-20.256001 -24.608 109.45
-20.148001 -24.622999 109.52
-20.039 -24.635 109.57
-19.924999 -24.641001 109.6
-19.804001 -24.641001 109.6
-19.681999 -24.636999 109.58
-19.558001 -24.632 109.56
-19.434 -24.625 109.53
-19.308001 -24.617001 109.49
-19.183001 -24.608999 109.46
-19.055 -24.599001 109.41
-18.927999 -24.589001 109.37
-18.799999 -24.577 109.31
-18.673 -24.566999 109.27
-18.548 -24.559 109.23
-18.426001 -24.555 109.21
-18.305 -24.552999 109.21
-18.188999 -24.556999 109.22
-18.073999 -24.562 109.25
-17.961 -24.570999 109.29
-17.848 -24.579 109.32
-17.737 -24.591 109.37
-17.624001 -24.6 109.41
-17.511 -24.608999 109.46
-17.396999 -24.615999 109.49
-17.281 -24.620001 109.5
-17.160999 -24.620001 109.5
-17.042 -24.620001 109.5
-16.921 -24.618999 109.5
-16.805 -24.622999 109.52
-16.688999 -24.629 109.54
-16.575001 -24.636 109.57
-16.459999 -24.643 109.61
-16.344 -24.648001 109.63
-16.226999 -24.652 109.65
-16.110001 -24.655001 109.66
-15.991 -24.657 109.67
-15.872 -24.658001 109.67
-15.75 -24.653999 109.66
-15.628 -24.65 109.64
-15.506 -24.646 109.62
-15.385 -24.643 109.61
-15.265 -24.642 109.6
-15.146 -24.643999 109.61
-15.029 -24.649 109.63
-14.913 -24.653999 109.66
-14.798 -24.662001 109.69
-14.683 -24.67 109.72
-14.568 -24.677 109.76
-14.452 -24.684 109.79
-14.337 -24.691 109.82
-14.219 -24.695 109.84
-14.103 -24.700001 109.86
-13.983 -24.701 109.86
-13.862 -24.698 109.85
-13.737 -24.688 109.81
-13.608 -24.672001 109.74
-13.478 -24.653 109.65
-13.352 -24.642 109.6
-13.227 -24.631001 109.55
-13.101 -24.618999 109.5
-12.973 -24.603001 109.43
-8.8051004 -20.011 89.004997
-8.7020998 -19.997 88.944
-8.5992002 -19.983999 88.883003
-8.4966002 -19.969999 88.823997
-8.3882999 -19.943001 88.702003
-8.2803001 -19.916 88.582001
-8.1728001 -19.889 88.463997
-8.0647001 -19.861 88.336998
-7.9576001 -19.834 88.216003
-7.8505998 -19.806999 88.095001
-7.7445998 -19.781 87.982002
-7.6394 -19.757 87.875
-7.5348001 -19.733999 87.773003
-7.4317999 -19.715 87.686996
-7.3308001 -19.700001 87.623001
-7.2312999 -19.690001 87.574997
-7.1332998 -19.683001 87.543999
-7.0366001 -19.679001 87.528
-6.9418998 -19.681 87.538002
-6.8487 -19.688 87.567001
-6.7574 -19.700001 87.621002
-6.6680002 -19.718 87.700996
-6.5798998 -19.740999 87.802002
-6.4910002 -19.761 87.893997
-6.4003 -19.777 87.966003
-6.3098001 -19.794001 88.040001
-6.2189002 -19.811001 88.112999
-6.1283998 -19.827999 88.192001
-6.0414 -19.858999 88.325996
-5.9569998 -19.899 88.503998
-5.8724999 -19.938999 88.683998
-5.6106 -20.040001 89.133003
-5.5169001 -20.052999 89.190002
-5.4207001 -20.056999 89.207001
-5.3232002 -20.055 89.202003
-5.2214999 -20.038 89.125999
-5.1191001 -20.018 89.036003
-5.0163999 -19.996 88.935997
-4.9134998 -19.971001 88.828003
-4.8105998 -19.947001 88.718002
-4.7084999 -19.924 88.615997
-4.6065998 -19.900999 88.515999
-4.5051999 -19.879 88.418999
-4.4043002 -19.858999 88.329002
-4.3042002 -19.841999 88.250999
-4.2048998 -19.827 88.186996
-4.1061001 -19.813999 88.128998
-4.0085001 -19.806999 88.098
-3.9116001 -19.802999 88.079002
-3.8155999 -19.802999 88.079002
-3.7202001 -19.806 88.093002
-3.6257 -19.815001 88.133003
-3.5322001 -19.829 88.195999
-3.4395001 -19.849001 88.285004
-3.3471 -19.872 88.388
-3.2556 -19.902 88.518997
-3.1631999 -19.927999 88.634003
-3.0695 -19.947001 88.722
-2.9751999 -19.962999 88.792999
-2.8807001 -19.979 88.862999
-2.7855 -19.992001 88.919998
-2.1063001 -19.200001 84.984001
-2.1012001 -19.061001 84.780998
-2.0035999 -19.011999 84.563004
-1.9109 -19.007 84.538002
-1.8192 -19.011999 84.560997
-1.7278 -19.021 84.598999
-1.6366 -19.033001 84.653999
-1.5459 -19.052 84.739998
-1.456 -19.086 84.889999
-1.3666 -19.129 85.083
-1.2776 -19.187 85.338997
-1.1889 -19.257999 85.653
-1.1084 -19.483 86.656998
-1.0181 -19.563999 87.016998
-0.92637002 -19.631001 87.313004
-0.83363998 -19.688999 87.572998
-0.73987001 -19.735001 87.776001
-0.64519 -19.766001 87.916
-0.55001998 -19.791 88.027
-0.45436999 -19.805 88.089996
-0.35848001 -19.813999 88.128998
-0.26247999 -19.820999 88.158997
-0.1664 -19.826 88.182999
-0.070258997 -19.83 88.196999
0.025909999 -19.832001 88.206001
0.1221 -19.834 88.216003
0.21831 -19.836 88.225998
0.31452999 -19.837999 88.234001
0.41080001 -19.841 88.246002
0.50714999 -19.846001 88.267998
0.60367 -19.855 88.309998
0.70046002 -19.868999 88.373001
0.79763001 -19.889 88.462997
0.8951 -19.912001 88.563004
0.99289 -19.936001 88.672997
1.091 -19.962999 88.789001
1.1894 -19.99 88.908997
1.2882 -20.018 89.037003
1.3874 -20.049 89.171997
1.487 -20.080999 89.317001
1.5869 -20.113001 89.456001
1.6869 -20.142 89.585999
1.7871 -20.17 89.712997
1.888 -20.202999 89.858002
1.9895 -20.24 90.022003
2.0919001 -20.281 90.205002
2.1954999 -20.329 90.418999
2.3001001 -20.382 90.655998
2.4058001 -20.441 90.915001
2.5123999 -20.502001 91.188004
2.6210001 -20.573 91.505997
2.7289 -20.635 91.778999
2.8352001 -20.68 91.981003
2.9400001 -20.712 92.123001
3.0420001 -20.723 92.170998
3.1408 -20.712 92.121002
3.2369001 -20.684 91.997002
3.4200001 -20.579 91.528999
3.5113001 -20.528999 91.306999
3.6025 -20.481001 91.097
3.6956 -20.447001 90.942001
3.7911999 -20.427999 90.858002
3.8864999 -20.408001 90.769997
3.9813001 -20.386999 90.675003
4.0757999 -20.364 90.575996
4.1697998 -20.341 90.473999
4.2638001 -20.319 90.375999
4.3571 -20.295 90.266998
4.4506001 -20.271999 90.166
4.5434999 -20.247999 90.059998
4.6357002 -20.222 89.944
4.7272 -20.194 89.819
4.8190999 -20.169001 89.707001
4.9108 -20.143999 89.594002
5.0026002 -20.120001 89.488998
5.0953002 -20.101 89.404999
5.1891999 -20.087 89.342003
5.2842002 -20.077999 89.301003
5.3804002 -20.073 89.281998
5.4782 -20.075001 89.289001
5.5776 -20.082001 89.321999
5.6774998 -20.091 89.362
5.7772002 -20.099001 89.397003
5.8762002 -20.104 89.419998
5.9748001 -20.108 89.436996
6.0727 -20.110001 89.443001
6.1689 -20.105 89.422997
6.2616 -20.09 89.355003
6.3498001 -20.061001 89.224998
6.4408002 -20.041 89.138
6.5321002 -20.023001 89.056999
6.6244001 -20.007999 88.991997
6.7153001 -19.99 88.912003
6.8102999 -19.983999 88.886002
6.9063001 -19.982 88.875
7.0005002 -19.974001 88.841003
7.6591001 -14.723 65.484001
7.7266998 -14.716 65.452003
7.7939 -14.708 65.417
7.8618002 -14.701 65.388
7.9299998 -14.696 65.362999
7.9981999 -14.69 65.337997
8.0668001 -14.685 65.317001
8.1353998 -14.681 65.295998
8.2045002 -14.677 65.278999
8.2737999 -14.673 65.264
8.3441 -14.672 65.257004
8.4151001 -14.672 65.255997
8.4869003 -14.673 65.261002
8.5593996 -14.675 65.271004
8.6325998 -14.678 65.287003
8.7063999 -14.683 65.306
8.7797003 -14.686 65.321999
8.8522997 -14.689 65.332001
8.9202003 -14.683 65.307999
8.9793997 -14.664 65.220001
9.0354996 -14.639 65.112999
9.1318998 -14.637 64.789001
9.1267996 -14.558 64.751999
9.1798 -14.531 64.628998
9.2343998 -14.506 64.517998
9.2952003 -14.491 64.450996
9.3613997 -14.484 64.422997
9.4292002 -14.481 64.406998
9.4980001 -14.479 64.397003
9.5664997 -14.476 64.386002
9.6342001 -14.472 64.369003
9.7011995 -14.467 64.348
9.7670002 -14.461 64.319
9.8319998 -14.453 64.286003
9.8961 -14.445 64.247002
9.9596004 -14.435 64.204002
10.023 -14.425 64.160004
10.085 -14.415 64.113998
10.149 -14.406 64.072998
10.213 -14.398 64.038002
10.277 -14.39 64.003998
10.342 -14.383 63.973
10.407 -14.376 63.943001
10.472 -14.37 63.916
10.538 -14.365 63.890999
10.604 -14.36 63.870998
10.671 -14.356 63.854
10.739 -14.354 63.842999
10.807 -14.352 63.833
10.876 -14.351 63.828999
10.946 -14.351 63.830002
11.016 -14.352 63.837002
11.088 -14.355 63.848999
11.161 -14.36 63.868999
11.235 -14.365 63.894001
11.31 -14.372 63.922001
11.383 -14.376 63.942001
11.454 -14.378 63.950001
11.519 -14.372 63.924
11.578 -14.359 63.865002
11.791 -14.279 63.508999
11.848 -14.265 63.445999
11.915 -14.262 63.433998
11.989 -14.267 63.458
12.065 -14.276 63.497002
12.145 -14.289 63.551998
12.226 -14.303 63.613998
12.308 -14.317 63.679001
12.391 -14.332 63.748001
12.471 -14.344 63.799999
12.548 -14.353 63.837002
12.622 -14.358 63.862999
12.687 -14.352 63.837002
12.739 -14.333 63.748001
12.89 -14.194 63.130001
12.941 -14.174 63.041
13.004 -14.168 63.014999
13.07 -14.164 62.999001
13.14 -14.165 63.004002
13.212 -14.169 63.02
13.286 -14.175 63.044998
13.36 -14.18 63.070999
13.434 -14.186 63.096001
13.507 -14.19 63.115002
13.578 -14.193 63.127998
13.646 -14.192 63.125
13.713 -14.19 63.115002
13.777 -14.186 63.094002
13.841 -14.181 63.071999
13.905 -14.175 63.049
13.969 -14.171 63.028999
14.034 -14.166 63.008999
14.099 -14.163 62.994999
14.168 -14.163 62.994999
14.241 -14.167 63.013
14.328 -14.185 63.092999
19.320999 -16.862 74.998001
19.398001 -16.858 74.978996
19.473 -16.851999 74.955002
19.547001 -16.846001 74.926003
19.620001 -16.837999 74.892998
19.688 -16.826 74.838997
19.753 -16.813 74.778
19.818001 -16.798 74.712997
19.882 -16.783001 74.648003
19.947001 -16.77 74.588997
20.014 -16.757999 74.536003
20.084 -16.747999 74.491997
20.155001 -16.74 74.456001
20.23 -16.735001 74.431999
20.306999 -16.731001 74.417
20.386999 -16.73 74.411003
20.468 -16.73 74.411003
20.551001 -16.731001 74.417999
20.635 -16.733999 74.43
20.722 -16.739 74.450996
20.809999 -16.743999 74.474998
20.9 -16.750999 74.507004
20.990999 -16.759001 74.541
21.083 -16.768 74.580002
21.174999 -16.777 74.617996
21.268999 -16.785999 74.662003
21.363001 -16.796 74.704002
21.457001 -16.806 74.75
21.554001 -16.818001 74.804001
21.650999 -16.83 74.857002
21.747 -16.841 74.903999
21.836 -16.847 74.931999
21.927 -16.854 74.962997
22.018999 -16.861 74.996002
22.111 -16.868999 75.030998
-23.424 -24.431999 109.2
-23.305 -24.431999 109.2
-23.183001 -24.429001 109.19
-23.059999 -24.424999 109.17
-22.938 -24.422001 109.15
-22.816999 -24.42 109.14
-22.695999 -24.417999 109.14
-22.577999 -24.419001 109.14
-22.459999 -24.421 109.15
-22.344 -24.424 109.16
-22.23 -24.429001 109.18
-22.118 -24.436001 109.22
-22.004999 -24.443001 109.25
-21.889999 -24.448 109.27
-21.771999 -24.448999 109.27
-21.65 -24.445999 109.26
-21.525 -24.440001 109.23
-21.4 -24.431999 109.2
-21.273001 -24.423 109.16
-21.146 -24.414 109.12
-21.023001 -24.41 109.1
-20.905001 -24.410999 109.1
-20.792999 -24.419001 109.14
-20.684999 -24.431 109.2
-20.577999 -24.445999 109.26
-20.471001 -24.461 109.33
-20.365 -24.476 109.39
-20.256001 -24.49 109.46
-20.148001 -24.503 109.52
-20.037001 -24.514 109.56
-19.922001 -24.518999 109.59
-19.801001 -24.517 109.58
-19.677999 -24.511999 109.56
-19.554001 -24.506001 109.53
-19.429001 -24.5 109.5
-19.302999 -24.490999 109.46
-19.177999 -24.483999 109.43
-19.051001 -24.474001 109.39
-18.924 -24.464001 109.34
-18.796 -24.452999 109.29
-18.671 -24.445 109.26
-18.546 -24.438 109.22
-18.424999 -24.434999 109.21
-18.306 -24.434999 109.21
-18.190001 -24.438999 109.23
-18.075001 -24.445 109.26
-17.962 -24.452999 109.29
-17.849001 -24.462 109.33
-17.738001 -24.473 109.38
-17.625 -24.482 109.42
-17.511999 -24.490999 109.46
-17.396999 -24.497 109.49
-17.280001 -24.5 109.5
-17.16 -24.499001 109.5
-17.041 -24.499001 109.5
-16.92 -24.497 109.49
-16.802999 -24.500999 109.51
-16.688 -24.506001 109.53
-16.573 -24.513 109.56
-16.457001 -24.52 109.59
-16.341 -24.525 109.61
-16.224001 -24.528999 109.63
-16.107 -24.532 109.65
-15.989 -24.535 109.66
-15.871 -24.537001 109.66
-15.75 -24.535 109.66
-15.629 -24.532 109.64
-15.508 -24.530001 109.64
-15.388 -24.528 109.63
-15.268 -24.528999 109.63
-15.15 -24.532 109.64
-15.034 -24.537001 109.67
-14.918 -24.542999 109.69
-14.803 -24.549999 109.73
-14.687 -24.556999 109.76
-14.572 -24.563 109.79
-14.455 -24.568001 109.81
-14.338 -24.573999 109.83
-14.22 -24.576 109.84
-14.102 -24.58 109.86
-13.982 -24.579 109.86
-13.861 -24.576 109.84
-13.735 -24.566 109.79
-13.606 -24.549 109.72
-13.476 -24.530001 109.63
-13.351 -24.52 109.59
-13.226 -24.509001 109.54
-13.1 -24.497999 109.49
-12.972 -24.481001 109.42
-8.7990999 -19.9 88.944
-8.6973 -19.889 88.894997
-8.5957003 -19.879 88.847
-8.4939003 -19.867001 88.794998
-8.3868999 -19.843 88.686996
-8.2800999 -19.819 88.580002
-8.1722002 -19.791 88.457001
-8.0644999 -19.764 88.334
-7.9572001 -19.737 88.211998
-7.8497 -19.708 88.084999
-7.7431002 -19.681999 87.966003
-7.6373 -19.656 87.851997
-7.5324998 -19.632999 87.747002
-7.4301 -19.615 87.667
-7.3297 -19.601999 87.610001
-7.2311001 -19.594 87.571999
-7.1342001 -19.59 87.554001
-7.0388999 -19.59 87.556999
-6.9459 -19.597 87.587997
-6.8547001 -19.608999 87.643997
-6.7658 -19.629 87.728996
-6.6773 -19.65 87.823997
-6.5900002 -19.674999 87.935997
-6.5016999 -19.698 88.040001
-6.4122 -19.718 88.128998
-6.3225002 -19.738001 88.218002
-6.2315998 -19.754999 88.292999
-6.1388998 -19.766001 88.344002
-6.0510001 -19.794001 88.467003
-5.9663 -19.833 88.641998
-5.6127 -19.950001 89.166
-5.5179 -19.959 89.204002
-5.4205999 -19.959 89.205002
-5.3225002 -19.955999 89.191002
-5.2209001 -19.938999 89.116997
-5.1187 -19.919001 89.028999
-5.0160999 -19.898001 88.931
-4.9134998 -19.875 88.828003
-4.8108001 -19.851 88.721001
-4.7087998 -19.827999 88.622002
-4.6069999 -19.806 88.522003
-4.5054998 -19.784 88.425003
-4.4045 -19.764 88.334
-4.3044 -19.746 88.254997
-4.2048998 -19.731001 88.186996
-4.1058998 -19.718 88.125999
-4.0082002 -19.709999 88.091003
-3.9112 -19.705 88.07
-3.8152001 -19.705 88.07
-3.7198 -19.708 88.083
-3.6254001 -19.716999 88.124001
-3.5318 -19.731001 88.185997
-3.4389999 -19.75 88.274002
-3.3466001 -19.773001 88.375
-3.2551 -19.802 88.504997
-3.1624999 -19.827 88.614998
-3.0685999 -19.844999 88.695999
-2.9741001 -19.858999 88.759003
-2.8794 -19.874001 88.825996
-2.7842 -19.886 88.877998
-2.0994 -18.952999 84.707001
-2.0019 -18.903999 84.490997
-1.9103 -18.91 84.514999
-1.8186001 -18.914 84.536003
-1.727 -18.919001 84.559998
-1.6355 -18.929001 84.599998
-1.5445 -18.943001 84.666
-1.4543 -18.971001 84.789001
-1.3645 -19.007999 84.954002
-1.2752 -19.058001 85.178001
-1.1864001 -19.122999 85.471001
-1.0974 -19.195999 85.796997
-1.0159 -19.427999 86.832001
-0.92479002 -19.502001 87.164001
-0.83257997 -19.569 87.460999
-0.73922002 -19.622 87.698997
-0.64486998 -19.660999 87.873001
-0.54992998 -19.691999 88.011002
-0.45443001 -19.712 88.101997
-0.35856 -19.722 88.148003
-0.26254001 -19.729 88.18
-0.16643 -19.733999 88.200996
-0.070271 -19.737 88.211998
0.025913 -19.738001 88.218002
0.12211 -19.739 88.223999
0.21832 -19.740999 88.230003
0.31454 -19.742001 88.235001
0.41080999 -19.745001 88.249001
0.50717002 -19.75 88.273003
0.60372001 -19.76 88.317001
0.70054001 -19.775 88.383003
0.79769999 -19.795 88.471001
0.89516997 -19.816999 88.570999
0.99296999 -19.841 88.68
1.091 -19.865999 88.791
1.1892999 -19.891001 88.901001
1.288 -19.917 89.018997
1.3868999 -19.944 89.139
1.4863 -19.974001 89.272003
1.586 -20.004 89.407997
1.686 -20.033001 89.539001
1.7862999 -20.063999 89.672997
1.8873 -20.098 89.827003
1.9892 -20.138 90.004997
2.092 -20.183001 90.208
2.1961999 -20.237 90.445999
2.3016 -20.297001 90.714996
2.4080999 -20.360001 91
2.5156 -20.427999 91.303001
2.6252999 -20.507 91.656998
2.7342 -20.573999 91.957001
2.8415999 -20.625999 92.188004
2.9466 -20.658001 92.331001
3.0483 -20.665001 92.362
3.1470001 -20.652 92.302002
3.2428 -20.621 92.165001
3.4196 -20.476 91.515999
3.5088 -20.415001 91.241997
3.5978999 -20.356001 90.978996
3.6894 -20.313 90.789001
3.7852001 -20.296 90.712997
3.8806 -20.278 90.629997
3.9756 -20.259001 90.544998
4.0702 -20.238001 90.453003
4.1651001 -20.219999 90.372002
4.2598 -20.202 90.290001
4.3540001 -20.181999 90.202003
4.4481001 -20.163 90.116997
4.5418 -20.142 90.026001
4.6346002 -20.118999 89.920998
4.7266002 -20.094 89.807999
4.8186002 -20.069 89.696999
4.9103999 -20.044001 89.587997
5.0019002 -20.02 89.476997
5.0945001 -20 89.389999
5.1882 -19.986 89.323997
5.2828999 -19.975 89.278999
5.3787999 -19.969999 89.254997
5.4761 -19.969999 89.255997
5.5749002 -19.976 89.279999
5.6743002 -19.983 89.311996
5.7737999 -19.99 89.344002
5.8724999 -19.993999 89.362999
5.9706001 -19.996 89.373001
6.0679998 -19.996 89.373001
6.1630998 -19.989 89.338997
6.2549 -19.971001 89.258003
6.3406 -19.934 89.095001
6.4298 -19.91 88.985001
6.5169001 -19.879 88.849998
6.6100001 -19.868 88.799004
6.7003999 -19.849001 88.713997
6.7923002 -19.834999 88.651001
6.8850999 -19.823999 88.600998
7.5921001 -14.731 65.522003
7.5950999 -14.666 65.547997
7.6616998 -14.656 65.505997
7.7284002 -14.648 65.467003
7.7951999 -14.639 65.428001
7.8625002 -14.631 65.394997
7.9302001 -14.625 65.363998
7.9980001 -14.618 65.335999
8.0662003 -14.613 65.311996
8.1346998 -14.608 65.290001
8.2037001 -14.604 65.272003
8.2730999 -14.601 65.258003
8.3436003 -14.6 65.253998
8.4151001 -14.6 65.255997
8.4872999 -14.602 65.264
8.5602999 -14.605 65.278
8.6341 -14.61 65.297997
8.7084999 -14.615 65.321999
8.7823 -14.619 65.341003
8.8556004 -14.623 65.356003
8.9240999 -14.618 65.335999
8.9821997 -14.597 65.240997
9.0372 -14.571 65.124001
9.1232004 -14.482 64.726997
9.1756001 -14.453 64.598999
9.2293997 -14.427 64.483002
9.2896996 -14.412 64.414001
9.3570995 -14.408 64.393997
9.4254999 -14.405 64.382004
9.4944 -14.403 64.373001
9.5623999 -14.4 64.358002
9.6295996 -14.395 64.337997
9.6957998 -14.389 64.311996
9.7606001 -14.381 64.277
9.8243999 -14.372 64.236
9.8872995 -14.362 64.190002
9.9498997 -14.351 64.141998
10.013 -14.341 64.095001
10.076 -14.331 64.052002
10.139 -14.322 64.013
10.204 -14.315 63.981998
10.269 -14.308 63.951
10.334 -14.303 63.924999
10.4 -14.297 63.898998
10.466 -14.292 63.877998
10.533 -14.288 63.859001
10.6 -14.285 63.845001
10.667 -14.282 63.832001
10.736 -14.28 63.823002
10.804 -14.278 63.817001
10.873 -14.278 63.816002
10.943 -14.279 63.818001
11.015 -14.281 63.827
11.087 -14.284 63.841999
11.16 -14.289 63.865002
11.235 -14.295 63.889999
11.309 -14.301 63.919998
11.383 -14.306 63.942001
11.453 -14.307 63.944
11.517 -14.299 63.910999
11.575 -14.285 63.846001
11.735 -14.295 63.580002
11.781 -14.198 63.459
11.839 -14.185 63.397999
11.907 -14.183 63.390999
11.981 -14.189 63.418999
12.058 -14.199 63.460999
12.138 -14.211 63.514
12.219 -14.225 63.577
12.302 -14.24 63.646
12.386 -14.257 63.719002
12.466 -14.269 63.773998
12.543 -14.278 63.816002
12.617 -14.283 63.838001
12.681 -14.276 63.806999
12.731 -14.255 63.709999
12.87 -14.103 63.032001
12.923 -14.085 62.952999
12.989 -14.082 62.938
13.056 -14.081 62.933998
13.127 -14.083 62.942001
13.199 -14.087 62.960999
13.273 -14.093 62.987
13.347 -14.099 63.013
13.422 -14.105 63.040001
13.495 -14.109 63.060001
13.568 -14.113 63.077999
13.637 -14.114 63.082001
13.706 -14.114 63.081001
13.771 -14.11 63.066002
13.836 -14.107 63.049
13.901 -14.103 63.032001
13.967 -14.099 63.016998
14.032 -14.096 63.000999
14.098 -14.093 62.990002
14.166 -14.093 62.987
14.237 -14.095 62.999001
14.32 -14.109 63.058998
14.412 -14.131 63.16
19.322001 -16.781 75.000999
19.399 -16.777 74.984001
19.475 -16.773001 74.963997
19.551001 -16.767 74.939003
19.624001 -16.76 74.907997
19.693001 -16.749001 74.859001
19.76 -16.736 74.803001
19.825001 -16.723 74.740997
19.889999 -16.709 74.68
19.955 -16.695 74.619003
20.023001 -16.684 74.568001
20.093 -16.674 74.524002
20.164 -16.666 74.487999
20.239 -16.660999 74.466003
20.316 -16.658001 74.450996
20.396999 -16.657 74.448997
20.479 -16.658001 74.452003
20.563 -16.660999 74.463997
20.649 -16.664 74.481003
20.737 -16.67 74.504997
20.826 -16.676001 74.532997
20.917 -16.684 74.568001
21.009001 -16.693001 74.606003
21.103001 -16.702 74.650002
21.195999 -16.712 74.692001
21.291 -16.722 74.736
21.385 -16.732 74.781998
21.481001 -16.743 74.833
21.579 -16.756001 74.888
21.677 -16.768 74.945
21.771 -16.778 74.987999
21.862 -16.785 75.017998
21.952999 -16.792 75.053001
22.045 -16.799999 75.085999
22.139 -16.809 75.125999
-23.426001 -24.315001 109.21
-23.306 -24.315001 109.21
-23.184 -24.311001 109.19
-23.061001 -24.306999 109.17
-22.938999 -24.304001 109.16
-22.818001 -24.302 109.15
-22.697001 -24.299999 109.14
-22.58 -24.302 109.15
-22.462 -24.302999 109.15
-22.346001 -24.306 109.17
-22.231001 -24.311001 109.19
-22.118 -24.318001 109.22
-22.004999 -24.323999 109.25
-21.889 -24.327999 109.26
-21.768999 -24.327 109.26
-21.646999 -24.323999 109.25
-21.521999 -24.316999 109.21
-21.396 -24.309 109.18
-21.268999 -24.299999 109.14
-21.143 -24.292 109.1
-21.021999 -24.289 109.09
-20.905001 -24.292 109.1
-20.794001 -24.301001 109.14
-20.684999 -24.313 109.2
-20.579 -24.327999 109.26
-20.471001 -24.341999 109.33
-20.365 -24.358 109.4
-20.257 -24.371 109.46
-20.148001 -24.382999 109.51
-20.035 -24.392 109.55
-19.919001 -24.396 109.57
-19.797001 -24.393 109.56
-19.674 -24.388 109.53
-19.549 -24.382 109.51
-19.424999 -24.375 109.48
-19.299 -24.367001 109.44
-19.174 -24.360001 109.41
-19.048 -24.351 109.37
-18.922001 -24.341999 109.33
-18.795 -24.332001 109.28
-18.67 -24.325001 109.25
-18.546 -24.318001 109.22
-18.424999 -24.316 109.21
-18.306 -24.316 109.21
-18.191 -24.320999 109.24
-18.077 -24.327999 109.26
-17.964001 -24.337 109.3
-17.851 -24.346001 109.34
-17.74 -24.356001 109.39
-17.627001 -24.364 109.43
-17.513 -24.372999 109.47
-17.398001 -24.378 109.49
-17.280001 -24.381001 109.5
-17.16 -24.379 109.5
-17.039 -24.378 109.49
-16.919001 -24.375999 109.48
-16.802 -24.379 109.5
-16.686001 -24.384001 109.52
-16.57 -24.389999 109.54
-16.455 -24.396 109.57
-16.339001 -24.400999 109.59
-16.222 -24.405001 109.61
-16.105 -24.41 109.63
-15.988 -24.413 109.65
-15.87 -24.415001 109.66
-15.75 -24.415001 109.66
-15.63 -24.414 109.65
-15.51 -24.414 109.65
-15.391 -24.414 109.65
-15.272 -24.415001 109.66
-15.155 -24.419001 109.67
-15.039 -24.424 109.7
-14.923 -24.431 109.73
-14.808 -24.438 109.76
-14.692 -24.444 109.79
-14.575 -24.448999 109.81
-14.457 -24.452999 109.83
-14.34 -24.457001 109.84
-14.221 -24.458 109.85
-14.102 -24.459999 109.86
-13.981 -24.458 109.85
-13.859 -24.454 109.83
-13.733 -24.443001 109.78
-13.605 -24.427 109.71
-13.474 -24.407 109.62
-13.351 -24.4 109.59
-13.225 -24.389 109.54
-13.101 -24.379 109.5
-12.973 -24.363001 109.42
-8.9013004 -19.912001 88.997002
-8.8963003 -19.804001 88.946999
-8.7953997 -19.795 88.906998
-8.6943998 -19.785999 88.865997
-8.5937996 -19.777 88.827003
-8.4923 -19.767 88.778
-8.3865004 -19.745001 88.682999
-8.2793999 -19.721001 88.571999
-8.1719999 -19.695 88.455002
-8.0647001 -19.667999 88.335999
-7.9569998 -19.639999 88.209999
-7.8488002 -19.610001 88.074997
-7.7423 -19.584 87.957001
-7.6363001 -19.558001 87.839996
-7.5320001 -19.535 87.739998
-7.4302001 -19.518999 87.667999
-7.3308001 -19.509001 87.622002
-7.2330999 -19.503 87.596001
-7.1374998 -19.503 87.595001
-7.0437002 -19.507999 87.616997
-6.9524999 -19.52 87.671997
-6.8635001 -19.539 87.754997
-6.7751999 -19.559999 87.851997
-6.6875 -19.584 87.957001
-6.6005998 -19.611 88.079002
-6.5135002 -19.638 88.198997
-6.4250002 -19.660999 88.304001
-6.3354998 -19.681999 88.399002
-6.2431002 -19.695 88.456001
-6.1506 -19.707001 88.512001
-5.6160002 -19.864 89.218002
-5.5198002 -19.868 89.236
-5.4215999 -19.865 89.221001
-5.3224001 -19.858 89.189003
-5.2206998 -19.841 89.113998
-5.1184001 -19.820999 89.024002
-5.0160999 -19.799999 88.93
-4.9134998 -19.778 88.830002
-4.8109999 -19.754999 88.724998
-4.7090001 -19.733 88.625999
-4.6072001 -19.711 88.527
-4.5058999 -19.690001 88.433998
-4.4047999 -19.669001 88.338997
-4.3045001 -19.650999 88.258003
-4.2048998 -19.635 88.186996
-4.1058002 -19.621 88.125
-4.0079999 -19.612 88.084999
-3.9109001 -19.607 88.061996
-3.8146999 -19.606001 88.058998
-3.7191999 -19.608999 88.070999
-3.6247001 -19.617001 88.107002
-3.5309 -19.629999 88.165001
-3.4379001 -19.648001 88.245003
-3.3453 -19.669001 88.338997
-3.253 -19.694 88.449997
-3.1607001 -19.719 88.566002
-3.0667 -19.735001 88.639
-2.9718001 -19.747 88.691002
-2.8766999 -19.759001 88.742996
-2.7811999 -19.767 88.781998
-2.6849999 -19.771999 88.801003
-1.9103 -18.816999 84.514
-1.8187 -18.823 84.541
-1.7271 -18.827999 84.565002
-1.6353 -18.834 84.588997
-1.544 -18.844 84.637001
-1.4534 -18.867001 84.736
-1.3633 -18.898001 84.877998
-1.2736 -18.941 85.070999
-1.1845 -18.999001 85.331001
-1.0951999 -19.066 85.629997
-1.0061001 -19.145 85.987
-0.92291999 -19.368 86.987999
-0.83122998 -19.441999 87.319
-0.73835999 -19.504 87.597
-0.64436001 -19.549 87.803001
-0.54969001 -19.587 87.973999
-0.45436001 -19.613001 88.088997
-0.35859001 -19.628 88.156998
-0.26256999 -19.636 88.191002
-0.16646001 -19.641001 88.212997
-0.070280001 -19.643 88.223
0.025916001 -19.643999 88.226997
0.12212 -19.645 88.231003
0.21833 -19.645 88.234001
0.31456 -19.646999 88.240997
0.41084999 -19.65 88.257004
0.50722998 -19.656 88.283997
0.60382998 -19.667 88.333
0.70069999 -19.683001 88.403
0.79790998 -19.702999 88.494003
0.89543998 -19.726 88.597
0.99322999 -19.75 88.704002
1.0912 -19.773001 88.805
1.1892999 -19.794001 88.903
1.2878 -19.818001 89.007004
1.3865 -19.841 89.114998
1.4856 -19.868 89.232002
1.5851001 -19.895 89.355003
1.6849999 -19.924999 89.487999
1.7854 -19.955999 89.628998
1.8864 -19.990999 89.786003
1.9887 -20.035 89.982002
2.0920999 -20.086 90.211998
2.1968999 -20.145 90.477997
2.3031001 -20.211 90.775002
2.4105999 -20.283001 91.096001
2.5201001 -20.365 91.466003
2.6303 -20.445999 91.829002
2.7404001 -20.521 92.167
2.8485999 -20.577 92.416
2.9546001 -20.613001 92.581001
3.0565 -20.620001 92.610001
3.1552999 -20.606001 92.546997
3.4230001 -20.396 91.608002
3.5092001 -20.316999 91.250999
3.5957999 -20.245001 90.925003
3.6849 -20.190001 90.68
3.7795 -20.167 90.577003
3.8748 -20.149 90.497002
3.9698999 -20.131001 90.415001
4.0648999 -20.113001 90.334
4.1599002 -20.096001 90.258003
4.2547002 -20.079 90.182999
4.3498998 -20.065001 90.117996
4.4446998 -20.049 90.047997
4.5393 -20.033001 89.975998
4.6328001 -20.013 89.886002
4.7254 -19.990999 89.785004
4.8179998 -19.968 89.684998
4.9101 -19.945999 89.582001
5.0021 -19.923 89.480003
5.0945001 -19.903 89.389999
5.1880999 -19.888 89.322998
5.2825999 -19.877001 89.274002
5.3782001 -19.870001 89.245003
5.4749999 -19.868999 89.237
5.5731001 -19.872 89.25
5.6715999 -19.875999 89.268997
5.7704 -19.881001 89.292
5.8687 -19.884001 89.306
5.9663 -19.885 89.308998
6.0630999 -19.882999 89.300003
6.1573 -19.872999 89.254997
6.2480001 -19.851 89.160004
6.3313999 -19.808001 88.966003
6.5927 -19.719 88.566002
6.6799002 -19.691999 88.443001
6.7695999 -19.672001 88.355003
6.8600001 -19.655001 88.278999
7.5978999 -14.6 65.571999
7.664 -14.589 65.526001
7.7305002 -14.58 65.484001
7.7965002 -14.57 65.439003
7.8634 -14.562 65.402
7.9306002 -14.554 65.367996
7.9979 -14.547 65.334999
8.0658998 -14.541 65.308998
8.1342001 -14.536 65.286003
8.2031002 -14.532 65.266998
8.2725 -14.529 65.253998
8.3431997 -14.528 65.250999
8.4151001 -14.529 65.255997
8.4877996 -14.532 65.267998
8.5613003 -14.536 65.286003
8.6356001 -14.541 65.308998
8.7102003 -14.547 65.334
8.7841997 -14.551 65.355003
8.8565998 -14.553 65.363998
8.9239998 -14.547 65.334999
8.9811001 -14.524 65.233002
9.1681995 -14.372 64.546997
9.2234001 -14.348 64.441002
9.2852001 -14.335 64.383003
9.3539 -14.333 64.372002
