# .PCD v0.7 - Point Cloud Data file format
VERSION 0.7
FIELDS x y z
SIZE 4 4 4
TYPE F F F
COUNT 1 1 1
WIDTH 1660
HEIGHT 1
VIEWPOINT 0 0 0 1 0 0 0
POINTS 1660
DATA ascii
15.457 -7.4741001 79.519997
15.542 -7.4733 79.512001
15.627 -7.4724998 79.502998
15.712 -7.4717002 79.495003
15.796 -7.4706998 79.484001
15.881 -7.4696999 79.473999
15.965 -7.4684 79.459999
16.049 -7.4672999 79.447998
16.132999 -7.4660001 79.433998
16.216999 -7.4647999 79.421997
16.301001 -7.4633999 79.406998
16.385 -7.4622002 79.393997
16.468 -7.4608998 79.380997
16.552999 -7.46 79.370003
16.636999 -7.4590001 79.360001
16.722 -7.4583001 79.351997
16.806999 -7.4575 79.344002
16.892 -7.4570999 79.338997
16.978001 -7.4566998 79.334999
17.063999 -7.4566002 79.334
17.149 -7.4559002 79.327003
17.233999 -7.4554 79.320999
17.319 -7.4545999 79.313004
17.403 -7.4534998 79.301003
17.483999 -7.4510002 79.274002
17.566999 -7.4496999 79.261002
17.646999 -7.4471002 79.233002
17.728001 -7.4447999 79.209
17.805 -7.4408998 79.167
17.891001 -7.0826001 74.490997
18.038 -7.0591002 75.105003
18.143999 -7.0683999 75.204002
18.297001 -7.0960002 75.498001
18.475 -7.1328001 75.889999
18.655001 -7.1704001 76.289001
18.837999 -7.2084999 76.694
19.327999 -7.3634 78.342003
19.469999 -7.3846002 78.569
19.596001 -7.3999 78.731003
19.709999 -7.4108 78.847
19.813999 -7.4173002 78.916
19.886999 -7.4124999 78.864998
19.959999 -7.4077001 78.814003
20.034 -7.4032001 78.765999
20.108 -7.3990998 78.722
20.184999 -7.3957 78.686996
20.264 -7.3930998 78.658997
20.343 -7.3908 78.635002
20.424 -7.3892002 78.616997
20.507 -7.3878002 78.602997
20.59 -7.3870001 78.594002
20.673 -7.3860002 78.584
20.756001 -7.3852 78.573997
20.839001 -7.3842001 78.564003
20.922001 -7.3832002 78.554001
21.004999 -7.3821998 78.542999
21.087 -7.3811002 78.530998
21.169001 -7.3797998 78.517998
21.250999 -7.3786001 78.504997
21.333 -7.3772001 78.489998
21.416 -7.3762999 78.480003
21.499001 -7.3755002 78.471001
21.582001 -7.3748002 78.463997
21.667 -7.3744001 78.459999
21.749001 -7.3733001 78.447998
21.832001 -7.3723998 78.438004
-11.217 -6.5132999 70.111
-11.131 -6.5075002 70.049004
-10.381 -6.3298998 68.138
-10.323 -6.3400998 68.247002
-10.263 -6.3488998 68.341003
-10.201 -6.3564 68.421997
-10.164 -6.3800001 68.677002
-10.104 -6.3898001 68.781998
-10.044 -6.3987999 68.878998
-9.9802999 -6.4064002 68.960999
-9.915 -6.4129 69.029999
-9.8406 -6.4134998 69.037003
-9.7609997 -6.4106002 69.005997
-9.6815004 -6.4078002 68.974998
-9.6020002 -6.4049001 68.945
-9.5240002 -6.4029999 68.924004
-9.4463997 -6.4014001 68.906998
-9.3691998 -6.3999 68.890999
-9.2916002 -6.3982 68.872002
-9.2138996 -6.3964 68.852997
-9.1353998 -6.3940001 68.828003
-9.0565996 -6.3913999 68.799004
-8.9775 -6.3884001 68.767998
-8.8954 -6.3834 68.712997
-8.8094997 -6.3754001 68.626999
-8.7227001 -6.3667002 68.532997
-8.6355 -6.3575001 68.433998
-8.5450001 -6.3456998 68.306999
-8.4586 -6.3367 68.210999
-8.3719997 -6.3274999 68.112
-8.2894001 -6.3211999 68.042999
-8.2095003 -6.3168001 67.996002
-8.1323004 -6.3144002 67.970001
-8.0579996 -6.3141999 67.969002
-7.9856 -6.3155999 67.984001
-7.9122 -6.3161998 67.989998
-7.8383999 -6.3164001 67.991997
-7.7639999 -6.3162999 67.990997
-7.6887002 -6.3153 67.980003
-7.6230998 -6.3223 68.056
-7.5601001 -6.3316998 68.156998
-7.4988999 -6.3428001 68.276001
-7.4400001 -6.3561001 68.418999
-7.3800001 -6.3687 68.555
-7.329 -6.3894 68.778
-7.1644001 -6.5889001 70.101997
-7.1276999 -6.4791002 69.742996
-7.0524001 -6.4797001 69.75
-7.0895 -6.5903001 70.117996
-7.0145998 -6.5917001 70.133003
-6.9762001 -6.4797001 69.75
-6.9070001 -6.4860001 69.818001
-6.9485998 -6.6016998 70.238998
-6.8471999 -6.5015998 69.985001
-7.3109999 -7.2659001 78.211998
-7.2428002 -7.283 78.397003
-7.1680999 -7.2940001 78.514999
-7.0857 -7.2974 78.551003
-7.0005999 -7.2978001 78.556999
-6.9198999 -7.3031001 78.613998
-6.8396001 -7.3088999 78.676003
-6.7600002 -7.3154998 78.747002
-6.6778998 -7.3196998 78.792
-6.5984998 -7.3270001 78.870003
-6.5186 -7.3337998 78.944
-6.4384999 -7.3406 79.016998
-6.3583999 -7.3476 79.092003
-6.2775998 -7.3540001 79.161003
-6.1964002 -7.3600998 79.225998
-6.1141 -7.3649001 79.278999
-6.0335999 -7.3722 79.357002
-5.9517002 -7.3779998 79.419998
-5.8694 -7.3834 79.476997
-5.7863998 -7.388 79.527
-5.7023001 -7.3913999 79.564003
-5.6174002 -7.3937998 79.589996
-5.5310001 -7.3944001 79.596001
-5.4446001 -7.3948998 79.600998
-5.3568001 -7.3936 79.586998
-5.2680998 -7.3908 79.557999
-5.1799002 -7.3887 79.535004
-5.0917001 -7.3866 79.512001
-5.0012999 -7.3811002 79.452003
-4.9106002 -7.375 79.387001
-4.8218999 -7.3716998 79.351997
-4.7330999 -7.3681998 79.314003
-4.6455002 -7.3664999 79.294998
-4.5587001 -7.3659 79.289001
-4.474 -7.3688002 79.320999
-4.3892002 -7.3716002 79.349998
-4.3052001 -7.3758998 79.397003
-4.2223001 -7.3824 79.467003
-4.1402998 -7.3906002 79.555
-4.0584002 -7.3994002 79.650002
-3.9763999 -7.4085002 79.747002
-3.8943 -7.4176998 79.847
-3.8122001 -7.4274001 79.950996
-3.7296 -7.4365001 80.049004
-3.6472001 -7.4464998 80.156998
-3.5651 -7.4576001 80.276001
-3.4830999 -7.4693999 80.403999
-3.4010999 -7.4818001 80.537003
-3.3188 -7.4942999 80.670998
-3.2360001 -7.5061998 80.800003
-3.1528001 -7.5180001 80.927002
-3.0753 -7.5443001 81.209999
-2.9974999 -7.5714998 81.502998
-2.9198999 -7.6008 81.817001
-2.8426001 -7.6329002 82.163002
-2.7801001 -7.7079 82.971001
-2.6989 -7.7343001 83.254997
-2.6159999 -7.7577 83.507004
-2.5315001 -7.7781 83.725998
-2.4461 -7.7965999 83.926003
-2.3568001 -7.8039999 84.005997
-2.2711 -7.8243999 84.223999
-2.1861999 -7.8491001 84.489998
-2.1033001 -7.8838 84.863998
-2.0232999 -7.9331002 85.394997
-2.2909999 -9.4157 101.35
-2.1912999 -9.4624004 101.86
-2.0876 -9.4961996 102.22
-1.9813 -9.5208998 102.49
-1.8724999 -9.5360003 102.65
-1.7596 -9.5305004 102.59
-1.6466 -9.5236998 102.52
-1.5335 -9.5158997 102.43
1.3189 -6.9070001 74.348999
1.3992 -6.9032001 74.308998
1.4792 -6.8985 74.258003
1.559 -6.8933001 74.202003
1.6386 -6.8878002 74.141998
1.7174 -6.8797002 74.055
1.7956001 -6.8698001 73.947998
1.8733 -6.8593001 73.834999
1.9514 -6.8505001 73.741997
2.0281 -6.8382001 73.608002
2.1043999 -6.8252001 73.469002
2.1795001 -6.8097 73.303001
2.2543001 -6.7941999 73.135002
2.3281 -6.777 72.949997
2.4012001 -6.7589002 72.755997
2.4735999 -6.7398 72.550003
2.5464001 -6.7231998 72.370003
2.6214001 -6.7132001 72.264
2.6956999 -6.7020998 72.143997
2.7713001 -6.6946998 72.064003
2.8469 -6.6877999 71.989998
2.9226999 -6.6816001 71.922997
3.152 -6.3533001 68.389
3.2228 -6.3460002 68.309998
3.2958 -6.3431001 68.279999
3.3687 -6.3400998 68.247002
3.4416001 -6.3374 68.218002
3.5128 -6.3316998 68.156998
3.5834999 -6.3253999 68.088997
3.6538 -6.3185 68.014
3.724 -6.3118 67.942001
3.7939 -6.3048 67.866997
3.8633001 -6.2974 67.787003
3.9326999 -6.2902002 67.709999
4.0022998 -6.2834001 67.637001
4.0716 -6.2765999 67.564003
4.1413002 -6.2707 67.5
4.2114 -6.2653999 67.443001
4.2818999 -6.2610002 67.394997
4.3525 -6.2568002 67.350998
4.4232998 -6.2530999 67.309998
4.4944 -6.2498999 67.276001
4.5658002 -6.2472 67.247002
4.6375999 -6.2452998 67.225998
4.7103 -6.2444 67.217003
4.7842999 -6.2452998 67.226997
4.8592 -6.2473001 67.248001
4.9348998 -6.2504001 67.280998
5.0112 -6.2540002 67.320999
5.0881 -6.2582998 67.366997
5.165 -6.2624998 67.412003
5.2419 -6.2666001 67.456001
5.3183999 -6.2701001 67.492996
5.3944998 -6.2729998 67.525002
5.4695001 -6.2744999 67.541
5.5440998 -6.2757001 67.554001
5.6185999 -6.2765999 67.564003
5.6931 -6.2775002 67.572998
5.7677002 -6.2785001 67.584
5.8424001 -6.2796001 67.595001
5.9169998 -6.2806001 67.606003
5.9917998 -6.2817001 67.619003
6.0667 -6.2828999 67.630997
6.1416998 -6.2842002 67.644997
6.2165999 -6.2852998 67.656998
6.2914 -6.2863002 67.667999
6.3663001 -6.2874999 67.681
6.4418998 -6.2891998 67.699997
6.5179 -6.2914 67.722
6.5942001 -6.2936001 67.747002
6.6705999 -6.2961001 67.773003
6.7466002 -6.2979999 67.793999
6.8225002 -6.2997999 67.814003
6.8983998 -6.3017001 67.833
6.9738998 -6.3031001 67.848
7.0489998 -6.3041 67.859001
7.1240001 -6.3049002 67.867996
7.1987 -6.3055 67.875
7.2739 -6.3066001 67.887001
7.3495998 -6.3081002 67.902
7.4266 -6.3105998 67.929001
7.5047998 -6.3140998 67.967003
7.5847001 -6.3189001 68.018997
7.6655998 -6.3243999 68.078003
7.7473001 -6.3305998 68.143997
7.8306999 -6.3379002 68.223
7.9143 -6.3452001 68.302002
7.9983001 -6.3527999 68.384003
8.0813999 -6.3596001 68.457001
8.1643 -6.3660002 68.526001
8.2465 -6.3717999 68.587997
8.3278999 -6.3768001 68.642998
8.4099998 -6.3824 68.702003
8.4935999 -6.3888998 68.772003
8.5782003 -6.3961 68.849998
8.6703997 -6.4087 68.986
8.7699003 -6.4264998 69.177002
8.8687 -6.4435 69.360001
8.9780998 -6.4678001 69.622002
9.1030998 -6.5029001 70
10.642 -7.5391998 81.153999
10.79 -7.5805998 81.599998
10.907 -7.6005998 81.816002
11.016 -7.6141 81.960999
11.119 -7.6236 82.063004
11.277 -7.6378999 81.263
11.269 -7.5441999 81.209
11.326 -7.5229001 80.978996
11.39 -7.507 80.807999
11.469 -7.5011001 80.745003
11.548 -7.4954 80.682999
11.628 -7.4899998 80.625
11.706 -7.4836001 80.556
11.784 -7.4773998 80.488998
11.863 -7.4717999 80.43
11.942 -7.4668002 80.375999
12.023 -7.4625001 80.329002
12.105 -7.4587998 80.289001
12.188 -7.4562001 80.261002
12.272 -7.4541998 80.238998
12.357 -7.4526 80.223
12.442 -7.4513001 80.209
12.528 -7.4502001 80.196999
12.613 -7.4491 80.184998
12.699 -7.448 80.172997
12.784 -7.4468002 80.161003
12.87 -7.4457002 80.148003
12.955 -7.4443998 80.134003
13.04 -7.4429998 80.119003
13.125 -7.4415002 80.102997
13.209 -7.4400001 80.086998
13.294 -7.4383001 80.069
13.378 -7.4366999 80.051003
13.462 -7.4348998 80.031998
13.546 -7.4330001 80.011002
13.629 -7.4310002 79.989998
13.713 -7.4288998 79.967003
13.796 -7.4267998 79.944
13.879 -7.4243999 79.918999
13.962 -7.4222999 79.896004
14.045 -7.4200001 79.872002
14.128 -7.4179001 79.848
14.211 -7.4159002 79.827003
14.294 -7.414 79.806999
14.377 -7.4120002 79.785004
14.46 -7.4095998 79.760002
14.542 -7.4070001 79.731003
14.623 -7.4043999 79.704002
14.705 -7.4018002 79.675003
14.787 -7.3990998 79.647003
14.868 -7.3965998 79.620003
14.95 -7.3941998 79.593002
15.033 -7.3920002 79.57
15.115 -7.3899999 79.549004
15.199 -7.3885999 79.532997
15.284 -7.3874002 79.521004
15.368 -7.3864999 79.511002
15.453 -7.3856001 79.500999
15.538 -7.3849001 79.494003
15.623 -7.3841 79.485001
15.708 -7.3834 79.476997
15.793 -7.3824 79.467003
15.878 -7.3814998 79.457001
15.962 -7.3803 79.444
16.046 -7.3792 79.431999
16.129999 -7.3779001 79.417999
16.214001 -7.3766999 79.405998
16.297001 -7.3754001 79.391998
16.381001 -7.3741999 79.378998
16.465 -7.3729 79.364998
16.549 -7.3717999 79.352997
16.632999 -7.3708 79.342003
16.718 -7.3699999 79.333
16.802 -7.369 79.322998
16.886999 -7.3683 79.315002
16.972 -7.3676 79.306999
17.056999 -7.3667998 79.299004
17.139999 -7.3656998 79.287003
17.225 -7.3646998 79.276001
17.306999 -7.3631001 79.259003
17.389999 -7.3614001 79.240997
17.468 -7.3579001 79.204002
17.547001 -7.3548999 79.170998
17.625999 -7.3518 79.137001
17.702999 -7.3481998 79.098
17.778999 -7.3436999 79.051003
17.768 -7.1150999 75.700996
17.915001 -7.0904999 76.324997
17.936001 -7.066 76.060997
17.790001 -7.0907998 75.442001
17.971001 -7.0472999 75.859001
17.826 -7.0725002 75.247002
18.02 -7.0338998 75.716003
17.875 -7.0594001 75.108002
18.09 -7.0292001 75.665001
17.948999 -7.0562 75.073997
18.176001 -7.0307002 75.681
18.278999 -7.0384998 75.764999
18.424 -7.0623002 76.022003
18.580999 -7.0907001 76.327003
18.750999 -7.1234999 76.68
19.208 -7.2646999 78.199997
19.343 -7.2835999 78.403
19.472 -7.2996998 78.577003
19.587999 -7.3112001 78.699997
19.701 -7.3211999 78.807999
19.802 -7.3270001 78.871002
19.877001 -7.3227 78.823997
19.951 -7.3183999 78.778
20.025999 -7.3143001 78.734001
20.101999 -7.3109999 78.697998
20.18 -7.3081999 78.667999
20.26 -7.3060999 78.644997
20.341 -7.3042002 78.625
20.423 -7.3028998 78.611
20.506001 -7.3018999 78.599998
20.59 -7.3013 78.593002
20.673 -7.3003001 78.584
20.756001 -7.2995 78.574997
20.839001 -7.2986999 78.565002
20.922001 -7.2976999 78.555
21.004999 -7.2965999 78.542999
21.087 -7.2954998 78.530998
21.169001 -7.2940998 78.515999
21.250999 -7.2927999 78.501999
21.332001 -7.2912998 78.486
21.414 -7.2902999 78.474998
21.497999 -7.2895002 78.467003
21.582001 -7.2888999 78.460999
21.667 -7.2887998 78.459
21.75 -7.2880998 78.450996
21.833 -7.2873001 78.443001
21.917 -7.2866998 78.435997
-11.3 -6.5169001 70.150002
-11.318 -6.4506998 70.262001
-11.241 -6.4503999 70.259003
-10.35 -6.2368002 67.931999
-10.3 -6.2515001 68.093002
-10.245 -6.2632999 68.221001
-10.186 -6.2729001 68.325996
-10.125 -6.2810001 68.414001
-10.101 -6.3127999 68.760002
-10.043 -6.3235998 68.877998
-9.9823999 -6.3326001 68.975998
-9.9169998 -6.3389001 69.043999
-9.8423996 -6.3393002 69.049004
-9.7629004 -6.3365998 69.019997
-9.6836996 -6.3340001 68.990997
-9.6042004 -6.3312001 68.960999
-9.5261002 -6.3291998 68.939003
-9.4483004 -6.3274999 68.919998
-9.3708 -6.3259001 68.903
-9.2929001 -6.3239999 68.882004
-9.2149 -6.322 68.861
-9.1362 -6.3195 68.834
-9.0572004 -6.3168001 68.803001
-8.9778996 -6.3137002 68.769997
-8.8954 -6.3084998 68.712997
-8.809 -6.3002 68.623001
-8.5395002 -6.2672 68.263
-8.4493999 -6.2556 68.137001
-8.3638 -6.2470999 68.044998
-8.2805004 -6.2403002 67.971001
-8.1990004 -6.2346001 67.908997
-8.1198997 -6.2308002 67.866997
-8.0434999 -6.2289 67.846001
-7.9699001 -6.2291999 67.848999
-7.8941998 -6.2279 67.834999
-7.8178 -6.2259002 67.814003
-7.7419 -6.2242999 67.795998
-7.6673002 -6.2238002 67.790001
-7.5998998 -6.2291002 67.848999
-7.5380001 -6.2391 67.958
-7.4807 -6.2532001 68.111
-7.4231 -6.2672 68.264
-7.3621998 -6.2788 68.389999
-7.3407998 -6.3245001 68.888
-7.2852998 -6.3417001 69.074997
-7.0991001 -6.3772998 69.462997
-7.0233002 -6.3772998 69.462997
-6.9425998 -6.3727999 69.413002
-6.868 -6.3737998 69.425003
-6.8013 -6.3821998 69.515999
-6.7399998 -6.3958998 69.666
-7.3676 -7.2377 77.908997
-7.2691002 -7.1394 77.764
-7.2031002 -7.1581001 77.968002
-7.1294999 -7.1694999 78.092003
-7.0499001 -7.1752 78.153999
-6.9658999 -7.1764998 78.167999
-6.8864002 -7.1824999 78.233002
-6.8067002 -7.1883001 78.296997
-6.73 -7.1977 78.399002
-6.6514001 -7.2051001 78.480003
-6.5756998 -7.2158999 78.597
-6.4994001 -7.2263999 78.711998
-6.4221001 -7.2360001 78.815002
-6.3442001 -7.2451 78.915001
-6.2658 -7.2540002 79.012001
-6.1855998 -7.2610002 79.087997
-6.1048002 -7.2674999 79.158997
-6.0240998 -7.2743001 79.233002
-5.9424 -7.2800002 79.294998
-5.8606 -7.2858 79.359001
-5.7771001 -7.2895002 79.399002
-5.6933999 -7.2933002 79.440002
-5.6083002 -7.2953 79.461998
-5.5226002 -7.2965002 79.474998
-5.4356999 -7.2961001 79.471001
-5.3485999 -7.2954998 79.464996
-5.2600999 -7.2930002 79.435997
-5.1725001 -7.2916002 79.420998
-5.0836 -7.2883 79.385002
-4.9963002 -7.2872 79.373001
-4.9071999 -7.2834001 79.332001
-4.8203001 -7.2828002 79.324997
-4.7329001 -7.2814002 79.310997
-4.6465001 -7.2814999 79.310997
-4.5609002 -7.2828999 79.325996
-4.4766002 -7.2865 79.365997
-4.3920999 -7.2898002 79.402
-4.3083 -7.2946 79.454002
-4.2252002 -7.3007002 79.521004
-4.1430001 -7.3085999 79.607002
-4.0609002 -7.3171 79.698997
-3.9788001 -7.3259001 79.794998
-3.8966999 -7.3351002 79.894997
-3.8143001 -7.3442001 79.994003
-3.7319 -7.3537998 80.098999
-3.6496 -7.3639002 80.209
-3.5676 -7.3751998 80.332001
-3.4856999 -7.3873 80.462997
-3.4037001 -7.3997998 80.599998
-3.3211 -7.4116001 80.728996
-3.2383001 -7.4235001 80.858002
-3.1551001 -7.4352999 80.987
-3.0775001 -7.4611001 81.267998
-2.9995 -7.4875998 81.556
-2.9221001 -7.5173001 81.878998
-2.8441 -7.5472002 82.205002
-2.7806001 -7.6187 82.984001
-2.6991999 -7.6444998 83.264999
-2.6161001 -7.6671 83.512001
-2.5315001 -7.6866002 83.723999
-2.4458001 -7.7044001 83.917999
-2.3571 -7.7133999 84.015999
-2.2714 -7.7336001 84.235001
-2.1866 -7.7586002 84.508003
-2.1039 -7.7934999 84.889
-2.0246999 -7.8453999 85.454002
-2.2918 -9.3084002 101.39
-2.1916001 -9.3527002 101.87
-2.0876999 -9.3851004 102.22
-1.9813 -9.4089003 102.48
-1.8719 -9.4209995 102.62
-1.7589999 -9.4152002 102.55
-1.646 -9.4085999 102.48
-1.533 -9.401 102.4
1.3184 -6.8232999 74.320999
1.3986 -6.8193998 74.278
1.4786 -6.8144999 74.224998
1.5583 -6.8094001 74.168999
1.6379 -6.8038998 74.110001
1.7165 -6.7954001 74.015999
1.7947 -6.7856998 73.911003
1.8724999 -6.7757001 73.802002
1.9505 -6.7673001 73.709999
2.0274 -6.7557001 73.584999
2.1039 -6.7435002 73.450996
2.1788001 -6.7275 73.278
2.3261001 -6.6915998 72.886002
2.3979001 -6.6704001 72.655998
2.4704001 -6.6522999 72.458
2.5425 -6.6342001 72.261002
2.6171 -6.6236 72.146004
2.6919999 -6.6142001 72.042999
2.7678001 -6.6079001 71.973999
2.8434999 -6.6013999 71.903999
2.9195001 -6.5960002 71.845001
3.2211001 -6.2680998 68.274002
3.2941999 -6.2656002 68.246002
3.3671999 -6.263 68.218002
3.4403 -6.2607002 68.192001
3.5118999 -6.2557998 68.139999
3.5829999 -6.2501998 68.078003
3.6537001 -6.2442002 68.013
3.7242 -6.2379999 67.945999
3.7944 -6.2315998 67.875999
3.8640001 -6.2245998 67.799004
3.9335999 -6.2177 67.723999
4.0030999 -6.211 67.652
4.0725999 -6.2045002 67.580002
4.1423001 -6.1985002 67.515999
4.2124 -6.1932998 67.459
4.2828999 -6.1890001 67.411003
4.3537998 -6.1852999 67.371002
4.4246998 -6.1817002 67.333
4.4960999 -6.1788998 67.302002
4.5676999 -6.1764998 67.275002
4.6398001 -6.1749001 67.258003
4.7128 -6.1743002 67.251999
4.7866998 -6.1752 67.261002
4.8615999 -6.177 67.281998
4.9372001 -6.1799002 67.311996
5.0132999 -6.1831999 67.348999
5.0899 -6.1870999 67.390999
5.1666002 -6.191 67.432999
5.2434001 -6.1947999 67.474998
5.3197999 -6.1981001 67.511002
5.3957 -6.2007999 67.540001
5.4707999 -6.2024002 67.557999
5.5455999 -6.2037001 67.571999
5.6202002 -6.2047 67.583
5.6946001 -6.2055001 67.592003
5.7691002 -6.2062998 67.599998
5.8435001 -6.2070999 67.609001
5.9177999 -6.2076998 67.614998
5.9920998 -6.2082 67.621002
6.0665998 -6.2090998 67.630997
6.1413002 -6.21 67.640999
6.2158999 -6.2108998 67.650002
6.2905002 -6.2117 67.658997
6.3653998 -6.2128 67.670998
6.441 -6.2146001 67.691002
6.5173998 -6.217 67.717003
6.5945001 -6.2200999 67.75
6.6718998 -6.2234001 67.786003
6.7481999 -6.2255998 67.810997
6.8246002 -6.2279 67.834999
6.9008999 -6.2298999 67.857002
6.9766998 -6.2315998 67.875999
7.0521998 -6.2329001 67.889999
7.1273999 -6.2339001 67.901001
7.2024002 -6.2347999 67.910004
7.2778001 -6.2358999 67.922997
7.3536 -6.2374001 67.939003
7.4306002 -6.2399001 67.966003
7.5089002 -6.2433 68.002998
7.5888 -6.2480998 68.056
7.6696 -6.2533998 68.113998
7.7519002 -6.2600002 68.184998
7.835 -6.2669001 68.261002
7.9187002 -6.2743001 68.341003
8.0024004 -6.2814999 68.418999
8.0851002 -6.2877998 68.487999
8.1675997 -6.2937999 68.554001
8.2496004 -6.2993999 68.613998
8.3306999 -6.3041 68.666
8.4124002 -6.3091998 68.721001
8.4951 -6.3150001 68.783997
8.5783997 -6.3211002 68.850998
8.6671 -6.3311 68.959
8.7610998 -6.3446999 69.108002
8.8569002 -6.3593998 69.267998
8.9596004 -6.3787999 69.478996
9.0798998 -6.4102001 69.820999
10.776 -7.4822998 81.499001
10.898 -7.5051999 81.748001
11.007 -7.5181999 81.889999
11.218 -7.5692 81.477997
11.206 -7.4724002 81.390999
11.26 -7.4495001 81.141998
11.319 -7.4301 80.931
11.385 -7.4155998 80.773003
11.463 -7.4092999 80.704002
11.542 -7.4035001 80.639999
11.621 -7.3978 80.578003
11.699 -7.3915 80.510002
11.778 -7.3857999 80.446999
11.857 -7.3807001 80.391998
11.937 -7.3761001 80.342003
12.018 -7.3720999 80.297997
12.101 -7.3688998 80.263
12.184 -7.3664999 80.237999
12.269 -7.3646998 80.217003
12.354 -7.3632002 80.200996
12.439 -7.3618999 80.186996
12.525 -7.3607998 80.176003
12.61 -7.3597999 80.164001
12.696 -7.3586998 80.152
12.781 -7.3576002 80.139999
12.866 -7.3562999 80.125999
12.951 -7.3548999 80.111
13.036 -7.3534999 80.096001
13.12 -7.3519001 80.078003
13.205 -7.3502998 80.060997
13.289 -7.3485999 80.042
13.373 -7.3469 80.023003
13.457 -7.3449001 80.001999
13.54 -7.3428001 79.978996
13.624 -7.3407001 79.956001
13.707 -7.3385 79.931999
13.79 -7.3362999 79.907997
13.872 -7.3339 79.882004
13.955 -7.3316002 79.857002
14.038 -7.3291998 79.832001
14.12 -7.3270001 79.806999
14.203 -7.3249002 79.783997
14.287 -7.323 79.763
14.369 -7.3207998 79.739998
14.452 -7.3186998 79.717003
14.534 -7.3161998 79.690002
14.616 -7.3137999 79.663002
14.698 -7.3113999 79.637001
14.78 -7.309 79.611
14.862 -7.3067999 79.586998
14.945 -7.3045998 79.563004
15.028 -7.3027 79.542999
15.111 -7.3009 79.523003
15.195 -7.2996998 79.510002
15.279 -7.2986999 79.499001
15.364 -7.2979002 79.489998
15.449 -7.2971001 79.481003
15.535 -7.2965002 79.474998
15.62 -7.2957001 79.467003
15.705 -7.2951002 79.459
15.79 -7.2941999 79.449997
15.874 -7.2933002 79.441002
15.959 -7.2922001 79.428001
16.042999 -7.2911 79.416
16.127001 -7.2898998 79.403
16.211 -7.2887998 79.390999
16.294001 -7.2874999 79.376999
16.378 -7.2862 79.362999
16.462 -7.2849002 79.348
16.545 -7.2837 79.334999
16.629 -7.2825999 79.323997
16.714001 -7.2817001 79.314003
16.798 -7.2806001 79.301003
16.882 -7.2796001 79.290001
16.966 -7.2783999 79.278
17.049 -7.277 79.262001
17.131001 -7.2751002 79.241997
17.212 -7.2729998 79.219002
17.292 -7.27 79.186996
17.370001 -7.2666998 79.151001
17.445999 -7.2624998 79.105003
17.525 -7.2593002 79.07
17.603001 -7.2558999 79.032997
17.68 -7.2523999 78.994003
17.756001 -7.2480998 78.947998
18.094999 -7.0778999 77.094002
18.084 -7.0405998 76.688004
18.103001 -7.0155001 76.414001
18.152 -7.0025001 76.273003
18.219999 -6.9966002 76.208
18.312 -6.9998999 76.245003
18.413 -7.0067 76.318001
18.559999 -7.0311999 76.584999
18.997 -7.1644001 78.037003
19.121 -7.1789999 78.195
19.243999 -7.1929998 78.347
19.365 -7.2062998 78.492996
19.483 -7.2182002 78.622002
19.589001 -7.2255998 78.703003
19.694 -7.2329001 78.781998
19.791 -7.2367001 78.823997
19.865 -7.2326999 78.779999
19.941999 -7.2291002 78.740997
20.018 -7.2258 78.705002
20.096001 -7.223 78.675003
20.176001 -7.2206998 78.649002
20.257 -7.2189999 78.630997
20.337999 -7.2175002 78.614998
20.421 -7.2164998 78.602997
20.504 -7.2156 78.594002
20.587999 -7.2150998 78.588997
20.672001 -7.2143002 78.579002
20.754999 -7.2135 78.570999
20.839001 -7.2126999 78.563004
20.922001 -7.2118001 78.553001
21.004 -7.2107 78.541
21.087 -7.2096 78.528999
21.167999 -7.2083001 78.514
21.25 -7.2069998 78.5
21.330999 -7.2055001 78.484001
21.414 -7.2045999 78.473999
21.497 -7.2038999 78.466003
21.582001 -7.2034998 78.461998
21.667999 -7.2035999 78.462997
21.752001 -7.2031999 78.459
21.837 -7.2030001 78.457001
21.921 -7.2026 78.453003
-10.327 -6.1489 67.779999
-10.281 -6.1657 67.966003
-10.228 -6.1788001 68.110001
-10.171 -6.1894002 68.225998
-10.114 -6.1996999 68.339996
-10.095 -6.2343001 68.722
-10.04 -6.2466998 68.858002
-9.9820004 -6.2571998 68.973
-9.9164 -6.2631998 69.040001
-9.8418999 -6.2637 69.044998
-9.7625999 -6.2612 69.016998
-9.6836004 -6.2586999 68.990997
-9.6044998 -6.2561998 68.961998
-9.5263996 -6.2543001 68.942001
-9.4484997 -6.2525001 68.921997
-9.3706999 -6.2507 68.902
-9.2923002 -6.2484999 68.877998
-9.2138996 -6.2462001 68.852997
-9.1348 -6.2435002 68.822998
-9.0556002 -6.2406998 68.792
-8.9758997 -6.2374001 68.754997
-8.8931999 -6.2319002 68.695
-8.8064003 -6.2235999 68.602997
-8.7181997 -6.2140002 68.498001
-8.5324001 -6.1876001 68.207001
-8.4438 -6.1771998 68.092003
-8.3571997 -6.1680002 67.990997
-8.2725 -6.1602001 67.903999
-8.1901999 -6.1539998 67.835999
-8.1103001 -6.1494999 67.786003
-8.0326996 -6.1465998 67.754997
-7.9573998 -6.1455002 67.742996
-7.8804002 -6.1430998 67.716003
-7.8024998 -6.1399999 67.681
-7.7252998 -6.1371999 67.651001
-7.6486001 -6.1349001 67.625999
-7.5791998 -6.1384001 67.664001
-7.5149002 -6.1461 67.75
-7.4587002 -6.1606998 67.910004
-7.4039001 -6.1767998 68.087997
-7.3796 -6.2189002 68.551003
-7.3295002 -6.2398 68.781998
-7.2751999 -6.2577 68.978996
-7.2165999 -6.2721 69.138
-7.2305002 -6.3597002 69.271004
-7.1547999 -6.2839999 69.269997
-7.0099001 -6.2895002 69.330002
-6.9288998 -6.2845998 69.276001
-6.8502002 -6.2817998 69.244003
-6.7765999 -6.2835002 69.264
-6.7042999 -6.2866001 69.296997
-6.6410999 -6.2982001 69.426003
-7.1526999 -7.0236001 77.421997
-7.0851002 -7.0402999 77.606003
-7.0053 -7.0451002 77.658997
-6.9229999 -7.0475998 77.685997
-6.8443999 -7.0538001 77.754997
-6.7648001 -7.0592999 77.815002
-6.4793 -7.1184001 78.467003
-6.4061999 -7.1322999 78.620003
-6.3315001 -7.1448002 78.758003
-6.2557998 -7.1564002 78.886002
-6.1774998 -7.1654 78.985001
-6.0983 -7.1735001 79.074997
-6.0167999 -7.1792002 79.137001
-5.9348998 -7.1845002 79.195999
-5.8533001 -7.1903 79.259003
-5.7697001 -7.1938 79.297997
-5.6866002 -7.1981001 79.345001
-5.6012998 -7.1996999 79.362999
-5.5158 -7.2009001 79.376999
-5.4287 -7.2002001 79.369003
-5.3421001 -7.2000999 79.366997
-5.2536001 -7.1974001 79.337997
-5.1666999 -7.1968999 79.332001
-5.0791001 -7.1954002 79.315002
-4.9923 -7.1949 79.309998
-4.9049001 -7.1935 79.294998
-4.8190999 -7.1945 79.306
-4.7328 -7.1947999 79.308998
-4.6475 -7.1966 79.329002
-4.5626001 -7.1991 79.356003
-4.4786 -7.2031999 79.402
-4.3944998 -7.2073002 79.446999
-4.3109999 -7.2124 79.502998
-4.2279 -7.2185998 79.570999
-4.1455002 -7.2262998 79.655998
-4.0630999 -7.2342 79.742996
-3.9809 -7.2427001 79.836998
-3.8987999 -7.2519002 79.939003
-3.8162999 -7.2609 80.038002
-3.7341001 -7.2707 80.146004
-3.6519001 -7.2810998 80.261002
-3.5699999 -7.2923999 80.385002
-3.4879 -7.3042002 80.514999
-3.4059 -7.3165002 80.651001
-3.3232 -7.3281999 80.779999
-3.2402999 -7.3399 80.908997
-3.1572001 -7.3516998 81.039001
-3.0792999 -7.3769002 81.317001
-3.0013001 -7.4031 81.605003
-2.9231999 -7.4306998 81.910004
-2.8452001 -7.4604001 82.237
-2.7807 -7.5285001 82.987999
-2.6989 -7.5528998 83.255997
-2.6157 -7.5748 83.497002
-2.5309 -7.5935001 83.704002
-2.4451001 -7.6106 83.892998
-2.3569 -7.6210999 84.008003
-2.2713001 -7.6413999 84.232002
-2.1866 -7.6662998 84.505997
-2.1045001 -7.7031999 84.913002
-2.3875999 -9.1414003 100.77
-2.2931001 -9.2031002 101.45
-2.1923001 -9.2446003 101.9
-2.0878999 -9.2746 102.23
-1.9816 -9.2987003 102.5
-1.8717 -9.3078003 102.6
-1.7587 -9.302 102.54
-1.6457 -9.2953997 102.46
-1.5328 -9.2877998 102.38
1.318 -6.7402 74.297997
1.3982 -6.7361999 74.253998
1.4780999 -6.7312999 74.198997
1.5578001 -6.7261 74.142998
1.6373 -6.7206001 74.082001
1.7158 -6.7119002 73.986
1.7939 -6.7024002 73.880997
1.8717999 -6.6926999 73.774002
1.9499 -6.6845999 73.684998
2.0267999 -6.6732998 73.559998
2.1033001 -6.6616001 73.431999
2.1784999 -6.6469002 73.268997
2.3248999 -6.6086998 72.848999
2.3961 -6.5862002 72.599998
2.4679 -6.5665998 72.385002
2.54 -6.5489998 72.190002
2.6148 -6.5391998 72.082001
2.6895001 -6.5297999 71.978996
2.7651999 -6.5230999 71.904999
2.8411 -6.5173998 71.842003
2.9172001 -6.5124998 71.788002
2.9807 -6.4802999 71.432999
3.2193999 -6.1904998 68.237999
3.2925999 -6.1882 68.213997
3.3657999 -6.1859999 68.189003
3.4389999 -6.184 68.167
3.5109999 -6.1799002 68.121002
3.5824001 -6.1749001 68.066002
3.6535001 -6.1697001 68.009003
3.7242999 -6.1641002 67.946999
3.7948 -6.1582999 67.884003
3.8647001 -6.1518002 67.811996
3.9342999 -6.1448998 67.736
4.0040002 -6.1385999 67.666
4.0735998 -6.1322999 67.597
4.1434002 -6.1265001 67.533997
4.2136002 -6.1215 67.477997
4.2842002 -6.1173 67.431999
4.3552999 -6.1138 67.393997
4.4264998 -6.1107998 67.360001
4.4980998 -6.1082001 67.331001
4.5700002 -6.1062002 67.308998
4.6423001 -6.1048002 67.293999
4.7154002 -6.1044998 67.290001
4.7894001 -6.1051998 67.299004
4.8641 -6.1069002 67.317001
4.9396 -6.1094999 67.345001
5.0156002 -6.1125998 67.379997
5.0918999 -6.1160002 67.417999
5.1683998 -6.1195998 67.457001
5.2449999 -6.1230998 67.496002
5.3211999 -6.1261001 67.528999
5.3971 -6.1286998 67.556999
5.4721999 -6.1303 67.574997
5.5469999 -6.1315999 67.588997
5.6216002 -6.1325002 67.598999
5.6959 -6.1332002 67.607002
5.7701001 -6.1336999 67.612999
5.8442001 -6.1339998 67.615997
5.9180002 -6.1341 67.616997
5.9919 -6.1343999 67.620003
6.0661998 -6.1349001 67.625
6.1405001 -6.1355 67.632004
6.2147999 -6.1360002 67.638
6.2891998 -6.1367002 67.644997
6.3639002 -6.1375999 67.654999
6.4397001 -6.1395001 67.676003
6.5165 -6.1423001 67.707001
6.5946999 -6.1464 67.752998
6.6729002 -6.1504002 67.795998
6.75 -6.1532998 67.829002
6.8267002 -6.1557999 67.856003
6.9035001 -6.1582999 67.884003
6.9797001 -6.1602001 67.904999
7.0553999 -6.1616998 67.920998
7.131 -6.1630001 67.934998
7.2062998 -6.164 67.946999
7.2818999 -6.1652999 67.960999
7.3579998 -6.1669998 67.980003
7.4352999 -6.1696 68.009003
7.5135002 -6.1729999 68.045998
7.5935998 -6.1777 68.098
7.6746998 -6.1833 68.158997
7.7571001 -6.1897998 68.230003
7.8400002 -6.1964998 68.304001
7.9233999 -6.2034998 68.380997
8.0061998 -6.2098999 68.452003
8.0886002 -6.2157998 68.516998
8.1705999 -6.2213998 68.579002
8.2524004 -6.2266002 68.637001
8.3331003 -6.2309999 68.684998
8.4141998 -6.2356 68.736
8.4959002 -6.2406001 68.791
8.5777998 -6.2456002 68.846001
8.6632996 -6.2530999 68.929001
8.7525997 -6.2632999 69.041
8.8443003 -6.2749 69.168999
8.9419003 -6.2905002 69.341003
9.0565996 -6.3178 69.641998
9.1880999 -6.3562002 70.065002
10.738 -7.3674998 81.211998
10.865 -7.3931999 81.496002
10.975 -7.4077001 81.655998
11.06 -7.4047999 81.624001
11.187 -7.3716002 81.258003
11.246 -7.3523002 81.044998
11.308 -7.3351002 80.856003
11.377 -7.3225999 80.718002
11.457 -7.3175998 80.663002
11.535 -7.3113999 80.595001
11.614 -7.3053002 80.527
11.692 -7.2996001 80.463997
11.771 -7.2940998 80.403999
11.851 -7.2895002 80.351997
11.932 -7.2852001 80.305
12.013 -7.2816 80.265999
12.096 -7.2788 80.235001
12.181 -7.2768002 80.212997
12.265 -7.2751002 80.195
12.35 -7.2737999 80.18
12.436 -7.2726002 80.167
12.522 -7.2716999 80.155998
12.607 -7.2705998 80.144997
12.693 -7.2694998 80.133003
12.778 -7.2684999 80.121002
12.863 -7.2672 80.107002
12.948 -7.2656999 80.089996
13.032 -7.2642002 80.073997
13.117 -7.2624998 80.055
13.201 -7.2607999 80.037003
13.285 -7.2589998 80.016998
13.369 -7.2571001 79.996002
13.452 -7.2550001 79.973
13.535 -7.2526999 79.946999
13.618 -7.2505002 79.922997
13.701 -7.2481999 79.898003
13.784 -7.2459998 79.873001
13.866 -7.2435002 79.846001
13.948 -7.2410998 79.819
14.031 -7.2385998 79.792
14.113 -7.2364001 79.766998
14.196 -7.2343998 79.746002
14.279 -7.2323999 79.723999
14.362 -7.2302999 79.700996
14.445 -7.2282 79.677002
14.527 -7.2258 79.651001
14.609 -7.2235999 79.626999
14.692 -7.2214999 79.602997
14.774 -7.2192001 79.578003
14.857 -7.2172999 79.556999
14.939 -7.2151999 79.533997
15.023 -7.2136998 79.516998
15.106 -7.2121 79.5
15.191 -7.211 79.487999
15.275 -7.2101002 79.477997
15.36 -7.2093 79.469002
15.445 -7.2086 79.460999
15.531 -7.2080998 79.456001
15.616 -7.2073998 79.447998
15.701 -7.2068 79.441002
15.786 -7.2059999 79.431999
15.871 -7.2052002 79.424004
15.955 -7.2041998 79.412003
16.040001 -7.2031999 79.401001
16.124001 -7.2020998 79.389
16.208 -7.2009001 79.376999
16.291 -7.1996002 79.362
16.375 -7.1982999 79.347
16.458 -7.1968002 79.332001
16.542 -7.1956 79.317001
16.625 -7.1943002 79.304001
16.709 -7.1932998 79.292999
16.792999 -7.1921 79.278999
16.875999 -7.1908002 79.264999
16.959 -7.1893001 79.248001
17.042 -7.1875 79.228996
17.122 -7.1849999 79.202003
17.201 -7.1820002 79.167999
17.278999 -7.1784 79.127998
17.354 -7.1739998 79.080002
17.43 -7.1696 79.030998
17.507 -7.1658001 78.988998
17.584 -7.1620998 78.948997
17.660999 -7.1585002 78.908997
17.737 -7.1543002 78.862999
17.809 -7.1487999 78.802002
18.120001 -7.1204 77.556999
18.177999 -7.0584998 77.806
18.231001 -7.0461001 77.669998
18.274 -7.0302 77.495003
18.681999 -7.0567999 77.788002
18.796 -7.0675998 77.907997
18.923 -7.0834999 78.082001
19.044001 -7.0969 78.230003
19.159 -7.1076002 78.348
19.273001 -7.1183 78.466003
19.382 -7.1271 78.563004
19.49 -7.1352 78.652
19.59 -7.1402001 78.707001
19.688 -7.1445999 78.755997
19.778 -7.1464 78.775002
19.855 -7.1430998 78.739998
19.933001 -7.1402998 78.708
20.011 -7.1375999 78.678001
20.091 -7.1353002 78.653
20.171 -7.1334 78.632004
20.253 -7.1321001 78.617996
20.334999 -7.1307998 78.603996
20.419001 -7.1300001 78.595001
20.502001 -7.1292 78.585999
20.587 -7.1287999 78.582001
20.67 -7.1279998 78.572998
20.754 -7.1272998 78.565002
20.837 -7.1265998 78.556999
20.921 -7.1258001 78.549004
21.003 -7.1248999 78.538002
21.086 -7.1238999 78.527
21.167999 -7.1226001 78.513
21.25 -7.1213999 78.5
21.332001 -7.1201 78.485001
21.415001 -7.1192002 78.475998
21.497999 -7.1185999 78.469002
21.583 -7.1184001 78.467003
21.67 -7.1187 78.470001
21.756001 -7.1191001 78.474998
21.844 -7.1198001 78.482002
21.931999 -7.1205001 78.489998
22.021 -7.1215 78.500999
-10.263 -6.0809999 67.847
-10.212 -6.0946002 67.999001
-10.157 -6.1065001 68.132004
-10.138 -6.1401 68.505997
-10.089 -6.1553001 68.676003
-10.035 -6.1683998 68.822998
-9.9787998 -6.1799998 68.950996
-9.9132996 -6.1859999 69.018997
-9.8389997 -6.1866002 69.025002
-9.7596998 -6.184 68.997002
-9.6810999 -6.1819 68.973
-9.6023998 -6.1795998 68.946999
-9.5244999 -6.1778998 68.928001
-9.4463997 -6.1760001 68.905998
-9.3678999 -6.1736999 68.882004
-9.2886 -6.1708999 68.849998
-9.2090998 -6.1680002 68.818001
-9.1294003 -6.1648002 68.782997
-9.0496998 -6.1616001 68.746002
-8.9694996 -6.158 68.706001
-8.8865004 -6.1525002 68.643997
-8.7995996 -6.1440001 68.550003
-8.7114 -6.1345 68.444
-8.6226997 -6.1245999 68.333
-8.4383001 -6.099 68.047997
-8.3511 -6.0895 67.942001
-8.2662001 -6.0815001 67.852997
-8.1831999 -6.0748 67.778
-8.1023998 -6.0696998 67.721001
-8.0236998 -6.066 67.679001
-7.9466 -6.0634999 67.652
-7.8684001 -6.0599999 67.612999
-7.7895002 -6.0560002 67.569
-7.7115002 -6.0525999 67.530998
-7.5622001 -6.0510001 67.512001
-7.4977999 -6.0584002 67.595001
-7.4369998 -6.0689998 67.712997
-7.3808999 -6.0836 67.875999
-7.3731999 -6.1388001 68.491997
-7.3218999 -6.1585002 68.710999
-7.2653999 -6.1740999 68.886002
-7.2054 -6.1869998 69.029999
-7.1416998 -6.1971002 69.141998
-7.0735998 -6.2034998 69.213997
-6.9966002 -6.2020998 69.197998
-6.9120998 -6.1940999 69.108002
-6.8302002 -6.1880999 69.042
-7.0207 -6.8924999 76.901001
-6.9500999 -6.9056001 77.047997
-6.8709998 -6.9105 77.101997
-6.3913999 -7.0303001 78.439003
-6.3207998 -7.0469999 78.624001
-6.2479 -7.0615001 78.786003
-6.1717 -7.0725999 78.911003
-6.0942998 -7.0826001 79.022003
-6.0124998 -7.0878 79.080002
-5.9303999 -7.0927 79.135002
-5.8484001 -7.0978999 79.193001
-5.7646999 -7.1011 79.228996
-5.6813998 -7.105 79.272003
-5.5956998 -7.1059999 79.282997
-5.5107002 -7.1078 79.304001
-5.4236002 -7.1071 79.294998
-5.3372998 -7.1072998 79.296997
-5.2494001 -7.1052999 79.275002
-5.1629 -7.1051002 79.273003
-5.0760999 -7.1046 79.267998
-4.9900999 -7.1052999 79.276001
-4.9036002 -7.1051998 79.274002
-4.8186998 -7.1073999 79.299004
-4.7333002 -7.1090999 79.318001
-4.6487002 -7.112 79.349998
-4.5643001 -7.1152 79.386002
-4.4807 -7.1199999 79.439003
-4.3969002 -7.1244998 79.489998
-4.3134999 -7.1299 79.550003
-4.2304001 -7.1360002 79.617996
-4.1479001 -7.1434999 79.700996
-4.0654001 -7.1511998 79.787003
-3.9830999 -7.1595998 79.880997
-3.9007001 -7.1683002 79.978996
-3.8183999 -7.1774998 80.081001
-3.7362001 -7.1873002 80.191002
-3.6540999 -7.1978998 80.307999
-3.5720999 -7.2090001 80.431999
-3.4899001 -7.2205 80.559998
-3.4077001 -7.2323999 80.694
-3.325 -7.244 80.822998
-3.2420001 -7.2554002 80.949997
-3.1589 -7.2673001 81.082001
-3.0806999 -7.2915001 81.352997
-3.0027001 -7.3175998 81.643997
-2.9242001 -7.3439999 81.939003
-2.846 -7.3727999 82.260002
-2.7801001 -7.4366002 82.972
-2.6984999 -7.4611001 83.245003
-2.615 -7.4819002 83.476997
-2.53 -7.4997001 83.675003
-2.4440999 -7.5159998 83.858002
-2.3563001 -7.5278001 83.988998
-2.2708001 -7.5479999 84.213997
-2.1863 -7.5732999 84.497002
-2.1041999 -7.6093998 84.900002
-2.3899 -9.0402002 100.86
-2.2945001 -9.0984001 101.51
-2.1932001 -9.1374998 101.95
-2.0885999 -9.1660004 102.27
-1.9821 -9.1894999 102.53
-1.8715 -9.1949997 102.59
-1.7585 -9.1892004 102.53
-1.6456 -9.1827002 102.45
-1.5326 -9.1752996 102.37
1.3175 -6.6568999 74.273003
1.3977 -6.6529002 74.227997
1.4775 -6.6478 74.170998
1.5572 -6.6427002 74.113998
1.6366 -6.6371002 74.052002
1.7151 -6.6285 73.956001
1.7933 -6.6195002 73.855003
1.8712 -6.6100998 73.750999
1.9493001 -6.6023002 73.663002
2.0263 -6.5917001 73.543999
2.1029999 -6.5805998 73.420998
2.1786001 -6.5671 73.269997
2.3252001 -6.5300999 72.857002
2.3958001 -6.5061002 72.589996
2.4665999 -6.4842 72.345001
2.5386 -6.4668002 72.151001
2.6134 -6.4572001 72.043999
2.6879001 -6.4475002 71.935997
2.7632999 -6.4404001 71.857002
2.8388 -6.4338002 71.782997
3.2177 -6.1128998 68.203003
3.2909999 -6.1107998 68.18
3.3643 -6.1090002 68.158997
3.4375999 -6.1071 68.139
3.5099001 -6.1036 68.098999
3.5816 -6.0992999 68.052002
3.6531 -6.0948 68.000999
3.7241001 -6.0897002 67.944
3.7948999 -6.0844998 67.886002
3.8652999 -6.0787001 67.821999
3.9351001 -6.0723 67.75
4.0049 -6.0661001 67.681
4.0746002 -6.0601001 67.613998
4.1444998 -6.0545998 67.552002
4.2147999 -6.0496998 67.498001
4.2856002 -6.0457001 67.453003
4.3568001 -6.0423999 67.417
4.4282999 -6.0398002 67.387001
4.5002999 -6.0377002 67.363998
4.5724001 -6.0359998 67.345001
4.645 -6.0349998 67.333
4.7181001 -6.0345998 67.329002
4.7921 -6.0352998 67.336998
4.8667998 -6.0367999 67.353996
4.9422002 -6.0391998 67.379997
5.0180001 -6.0419998 67.412003
5.0942001 -6.0451999 67.447998
5.1704998 -6.0483999 67.484001
5.2469001 -6.0517001 67.519997
5.323 -6.0545001 67.551003
5.3987002 -6.0567999 67.577003
5.4738002 -6.0584002 67.595001
5.5486002 -6.0595999 67.608002
5.6230001 -6.0604 67.616997
5.6971998 -6.0608001 67.622002
5.7709999 -6.0609002 67.623001
5.8446999 -6.0609002 67.623001
5.9182 -6.0605998 67.620003
5.9917998 -6.0605001 67.617996
6.0657001 -6.0606999 67.620003
6.1395998 -6.0609002 67.623001
6.2136002 -6.0611 67.625
6.2856002 -6.0594001 67.607002
6.3576999 -6.0579 67.588997
6.4308 -6.0573001 67.583
6.5047002 -6.0574999 67.584999
6.5808001 -6.0598001 67.610001
6.6601 -6.0648999 67.667
6.7391 -6.0696001 67.719002
6.8171 -6.0732002 67.760002
6.8948998 -6.0767002 67.799004
6.974 -6.0812001 67.848999
7.0524998 -6.0851002 67.892998
7.1306 -6.0886002 67.931999
7.2083001 -6.0917001 67.966003
7.2862 -6.0948 68.000999
7.3627 -6.0967002 68.023003
7.4401999 -6.0995002 68.054001
7.5187001 -6.1030002 68.092003
7.5988998 -6.1076999 68.144997
7.6802001 -6.1134 68.208
7.7621002 -6.1192999 68.275002
7.8443999 -6.1255002 68.343002
7.9274001 -6.132 68.416
8.0095997 -6.1378002 68.481003
8.0914001 -6.1433001 68.542
8.1731005 -6.1483998 68.598999
8.2544003 -6.1532998 68.653
8.3346996 -6.1573 68.698997
8.4152002 -6.1613998 68.744003
8.4960003 -6.1657 68.792
8.5768995 -6.1698999 68.838997
8.6597004 -6.1753998 68.900002
8.7451 -6.1827002 68.981003
8.8324003 -6.1911001 69.075996
8.9249001 -6.2031002 69.209
9.0306997 -6.224 69.443001
9.1501999 -6.2540002 69.777
10.823 -7.2765002 81.184998
10.933 -7.2905002 81.341003
11.027 -7.2941999 81.382004
11.109 -7.2894001 81.330002
11.171 -7.2721 81.136002
11.235 -7.2564998 80.962997
11.3 -7.2414999 80.794998
11.372 -7.2311001 80.679001
11.451 -7.2255998 80.616997
11.528 -7.2189999 80.543999
11.606 -7.2128 80.474998
11.685 -7.2072001 80.413002
11.764 -7.2023001 80.357002
11.845 -7.1978002 80.306999
11.926 -7.1939001 80.263
12.008 -7.1907001 80.228996
12.091 -7.1883001 80.202003
12.176 -7.1866999 80.182999
12.261 -7.1852999 80.167999
12.347 -7.1841998 80.155998
12.432 -7.1833 80.144997
12.518 -7.1824999 80.136002
12.604 -7.1815 80.125
12.69 -7.1805 80.114998
12.775 -7.1795001 80.102997
12.86 -7.1781001 80.087997
12.945 -7.1766 80.070999
13.029 -7.1750002 80.053001
13.113 -7.1732001 80.032997
13.197 -7.1715002 80.013
13.281 -7.1694002 79.989998
13.364 -7.1673002 79.967003
13.447 -7.1651001 79.942001
13.53 -7.1627002 79.915001
13.612 -7.1603999 79.889999
13.695 -7.158 79.863998
13.777 -7.1556001 79.836998
13.859 -7.1529999 79.807999
13.942 -7.1506 79.780998
14.024 -7.1483002 79.754997
14.107 -7.1459999 79.730003
14.19 -7.1441998 79.709
14.273 -7.1420999 79.685997
14.356 -7.1402001 79.665001
14.438 -7.1381001 79.641998
14.521 -7.1359 79.616997
14.604 -7.1339998 79.595001
14.686 -7.132 79.572998
14.769 -7.1300001 79.550003
14.852 -7.1280999 79.529999
14.935 -7.1262999 79.509003
15.018 -7.1248002 79.492996
15.102 -7.1234002 79.476997
15.186 -7.1223998 79.466003
15.271 -7.1216002 79.457001
15.356 -7.1209002 79.448997
15.442 -7.1202002 79.442001
15.527 -7.1198001 79.436996
15.612 -7.1191001 79.429001
15.698 -7.1185999 79.424004
15.783 -7.1178999 79.416
15.868 -7.1173 79.408997
15.952 -7.1163001 79.398003
16.037001 -7.1153002 79.387001
16.121 -7.1142001 79.375
16.205 -7.1131001 79.362999
16.288 -7.1117001 79.347
16.372 -7.1103001 79.332001
16.455 -7.1087999 79.314003
16.538 -7.1073999 79.299004
16.621 -7.1059999 79.282997
16.705 -7.1048999 79.271004
16.788 -7.1034999 79.254997
16.871 -7.1020999 79.238998
16.952999 -7.1002998 79.220001
17.035 -7.0983 79.196999
17.114 -7.0953002 79.164001
17.191999 -7.0918002 79.124001
17.268 -7.0876002 79.078003
17.341999 -7.0829 79.025002
17.417 -7.0780001 78.971001
17.492001 -7.0737 78.922997
17.568001 -7.0696998 78.877998
17.643999 -7.0655999 78.832001
17.719 -7.0612998 78.785004
17.792999 -7.0563998 78.728996
17.864 -7.0509 78.667999
18.045 -7.1062999 78.333
18.049 -7.0225 78.350998
18.094999 -7.0072999 78.181999
18.082001 -7.0875001 78.125999
18.153 -6.9966998 78.064003
18.131001 -7.0732002 77.969002
18.216 -6.9882002 77.969002
18.282 -6.9811001 77.889999
18.355 -6.9765 77.838997
18.444 -6.9782 77.857002
18.742001 -6.9944 78.038002
18.857 -7.0054998 78.161003
18.975 -7.0174999 78.295998
19.087999 -7.0275002 78.407997
19.195 -7.0353999 78.495003
19.298 -7.0418 78.567001
19.399 -7.0474 78.628998
19.497999 -7.0521998 78.682999
19.59 -7.0545998 78.709999
19.683001 -7.0569 78.735001
19.768 -7.0567002 78.733002
19.847 -7.0542002 78.705002
19.926001 -7.0518999 78.68
20.006001 -7.0497999 78.655998
20.087 -7.0479999 78.636002
20.167999 -7.0465999 78.620003
20.250999 -7.0454998 78.608002
20.333 -7.0444002 78.596001
20.417 -7.0436001 78.586998
20.5 -7.0429001 78.579002
20.584 -7.0423999 78.572998
20.667999 -7.0416002 78.565002
20.752001 -7.0409999 78.557999
20.834999 -7.0402999 78.550003
20.919001 -7.0397 78.542999
21.002001 -7.0388999 78.535004
21.086 -7.0380998 78.525002
21.167999 -7.0370002 78.514
21.250999 -7.0360999 78.502998
21.333 -7.0349002 78.489998
21.416 -7.0342002 78.482002
21.5 -7.0337 78.476997
21.586 -7.0337 78.475998
21.673 -7.0342002 78.482002
21.76 -7.0348001 78.488998
21.849001 -7.0358 78.499001
21.938 -7.0366998 78.510002
22.025999 -7.0377998 78.522003
-10.251 -5.9998999 67.765999
-10.202 -6.0146999 67.933998
-10.15 -6.0281 68.085999
-10.135 -6.0630999 68.480003
-10.085 -6.0780001 68.649002
-10.031 -6.0908999 68.793999
-9.9747 -6.1023002 68.922997
-9.908 -6.1075001 68.982002
-9.8338003 -6.1080999 68.988998
-9.7545996 -6.1055999 68.960999
-9.6759996 -6.1034999 68.936996
-9.5972004 -6.1012001 68.910004
-9.5186996 -6.099 68.886002
-9.4396 -6.0963998 68.857002
-9.3601999 -6.0935998 68.824997
-9.2796001 -6.0900002 68.783997
-9.1995001 -6.0865998 68.745003
-9.1189003 -6.0827999 68.703003
-9.0387001 -6.0791998 68.663002
-8.9584999 -6.0756001 68.622002
-8.8755999 -6.0700998 68.558998
-8.7897997 -6.0625 68.473
-8.7027998 -6.0538998 68.376999
-8.6155005 -6.0450001 68.276001
-8.5281 -6.0358 68.171997
-8.4343996 -6.0219998 68.015999
-8.3473997 -6.0127001 67.911003
-8.2622004 -6.0046 67.82
-8.1787996 -5.9977002 67.741997
-8.0972996 -5.9920998 67.678001
-8.0176001 -5.9875998 67.627998
-7.9390998 -5.9840002 67.586998
-7.8596001 -5.9796 67.538002
-7.7796998 -5.9748001 67.483002
-7.7006001 -5.9706001 67.434998
-7.6219001 -5.9664998 67.389
-7.5496001 -5.9674001 67.400002
-7.4850001 -5.9745002 67.480003
-7.4252 -5.9857001 67.606003
-7.3683 -5.9993 67.760002
-7.3653002 -6.0576 68.417999
-7.3155999 -6.0783 68.652
-7.2612 -6.0953999 68.846001
-7.2017999 -6.1086998 68.996002
-7.1396999 -6.1199999 69.123001
-7.0697999 -6.1248002 69.177002
-6.9934001 -6.1238999 69.167
-6.9116998 -6.1183 69.103996
-6.3710999 -6.9228001 78.190002
-6.3070002 -6.9461002 78.453003
-6.2382002 -6.9647002 78.664001
-6.165 -6.9789 78.823997
-6.0895 -6.9910002 78.959999
-6.0089002 -6.9973998 79.032997
-5.9281001 -7.0036998 79.105003
-5.8457999 -7.0084 79.156998
-5.7617998 -7.0112 79.189003
-5.6781001 -7.0145001 79.225998
-5.5925002 -7.0155001 79.237
-5.5071998 -7.0169001 79.253998
-5.4203 -7.0163002 79.246002
-5.3340998 -7.0166001 79.25
-5.2466998 -7.0152001 79.233002
-5.1606998 -7.0156999 79.239998
-5.0743999 -7.0159001 79.241997
-4.9891 -7.0173998 79.259003
-4.9035001 -7.0186 79.272003
-4.8192 -7.0216999 79.307999
-4.7344999 -7.0244002 79.337997
-4.6503 -7.0279002 79.376999
-4.5661998 -7.0316 79.418999
-4.4828 -7.0366998 79.476997
-4.3990998 -7.0414 79.529999
-4.3158002 -7.0468998 79.592003
-4.2326999 -7.053 79.661003
-4.1501002 -7.0602999 79.742996
-4.0675998 -7.0681 79.831001
-3.9851999 -7.0762 79.924004
-3.9026999 -7.0847998 80.019997
-3.8204999 -7.0941 80.125
-3.7383001 -7.1040001 80.237
-3.6561 -7.1142998 80.352997
-3.5739999 -7.1251001 80.475998
-3.4918001 -7.1364002 80.602997
-3.4093001 -7.1478 80.732002
-3.3264999 -7.1589999 80.858002
-3.2434001 -7.1703 80.986
-3.1601 -7.1817002 81.113998
-3.0818 -7.2054 81.382004
-3.0034001 -7.2302999 81.663002
-2.9247 -7.2557998 81.950996
-2.8462 -7.2835999 82.265999
-2.7795999 -7.3446002 82.954002
-2.6975999 -7.3678002 83.217003
-2.6141 -7.3881001 83.445999
-2.5288 -7.4050002 83.637001
-2.4428 -7.4207001 83.814003
-2.3557 -7.4341002 83.964996
-2.2702 -7.454 84.191002
-2.1859 -7.4798002 84.481003
-2.1040001 -7.5163002 84.892998
-2.3922 -8.9391003 100.96
-2.2962 -8.9941998 101.59
-2.1944001 -9.0312004 102
-2.0895 -9.0583 102.31
-1.9829 -9.0811996 102.57
-1.8715 -9.0832996 102.59
-1.7585 -9.0775995 102.53
-1.6456 -9.0712004 102.46
-1.5326 -9.0637999 102.37
1.3171999 -6.5739999 74.250999
1.3973 -6.5700002 74.206001
1.477 -6.5648999 74.148003
1.5567 -6.5599999 74.093002
1.636 -6.5541 74.027
1.7146 -6.5458002 73.931999
1.7927999 -6.5372 73.835999
1.8708 -6.5282998 73.734001
1.9489 -6.5207 73.649002
2.0260999 -6.5107002 73.536003
2.1029 -6.5002999 73.417999
2.1787 -6.4875998 73.275002
2.3266001 -6.4547 72.903
2.4674001 -6.4074998 72.370003
2.5392001 -6.3895998 72.167999
2.6138999 -6.3797998 72.056999
2.6882 -6.3697 71.943001
2.7632999 -6.3618999 71.855003
2.8383 -6.3544002 71.771004
3.2162001 -6.0356998 68.170998
3.2895 -6.0338998 68.150002
3.3629 -6.0321002 68.130997
3.4361 -6.0303001 68.110001
3.5086999 -6.0274 68.077003
3.5806999 -6.0237002 68.035004
3.6524999 -6.0197001 67.989998
3.7239001 -6.0152001 67.940002
3.7948999 -6.0105 67.886002
3.8656001 -6.0051999 67.827003
3.9358001 -5.9994998 67.762001
4.0057001 -5.9935002 67.694
4.0756001 -5.9878001 67.629997
4.1457 -5.9825001 67.57
4.2161002 -5.9779 67.517998
4.2869 -5.9741001 67.474998
4.3583999 -5.9710999 67.441002
4.4301 -5.9686999 67.415001
4.5022998 -5.967 67.394997
4.5748 -5.9656 67.379997
4.6476002 -5.9647999 67.370003
4.7209001 -5.9646001 67.367996
4.7947998 -5.9651999 67.375
4.8694 -5.9665999 67.389999
4.9446001 -5.9685998 67.413002
5.0202999 -5.9713001 67.444
5.0963998 -5.9742999 67.476997
5.1725001 -5.9772 67.511002
5.2487998 -5.9802999 67.544998
5.3248 -5.9829001 67.573997
5.4004002 -5.9850001 67.598
5.4754 -5.9864001 67.613998
5.5500002 -5.9874001 67.625
5.6241999 -5.9878998 67.630997
5.6978998 -5.9878998 67.630997
5.7715001 -5.9877 67.627998
5.8449001 -5.9874001 67.625
5.9166999 -5.9854002 67.601997
5.9882002 -5.9832001 67.578003
6.0598001 -5.9811001 67.555
6.1308999 -5.9787002 67.527
6.2038999 -5.9780002 67.518997
6.2740998 -5.9748001 67.483002
6.4871998 -5.9678001 67.403999
6.7280002 -5.9857998 67.607002
6.8102002 -5.9931998 67.691002
6.8892002 -5.9977999 67.742996
6.9695001 -6.0033998 67.806
7.0489998 -6.0081 67.859001
7.1279998 -6.0123 67.906998
7.2083998 -6.0176001 67.967003
7.2887001 -6.0228 68.025002
7.3677001 -6.0267 68.069
7.4453001 -6.0293999 68.099998
7.5239 -6.0328999 68.139
7.6041002 -6.0376 68.193001
7.6852002 -6.0429001 68.252998
7.7667999 -6.0485001 68.316002
7.8484998 -6.0541 68.377998
7.9309001 -6.0599999 68.445999
8.0124998 -6.0653 68.505997
