# .PCD v0.7 - Point Cloud Data file format
VERSION 0.7
FIELDS x y z
SIZE 4 4 4
TYPE F F F
COUNT 1 1 1
WIDTH 1703
HEIGHT 1
VIEWPOINT 0 0 0 1 0 0 0
POINTS 1703
DATA ascii
90.581001 -14.839 6.2596002
90.544998 -14.743 6.2330999
90.508003 -14.647 6.2065001
90.475998 -14.552 6.1803002
90.446999 -14.457 6.1543002
90.431 -14.365 6.1290998
90.399002 -14.27 6.1029
90.370003 -14.176 6.0770001
90.344002 -14.082 6.0513
90.323997 -13.989 6.0258999
90.307999 -13.898 6.0008001
90.299004 -13.807 5.9761
90.292999 -13.717 5.9516001
90.292 -13.628 5.9274001
90.299004 -13.54 5.9036002
90.308998 -13.453 5.8800001
90.321999 -13.367 5.8565998
90.336998 -13.28 5.8332
90.352997 -13.194 5.8099999
90.366997 -13.108 5.7866998
90.379997 -13.021 5.7632999
90.392998 -12.935 5.7399001
90.408997 -12.848 5.7167001
90.426003 -12.763 5.6935
90.445 -12.677 5.6704998
90.467003 -12.592 5.6476002
90.489998 -12.507 5.6248002
90.514 -12.422 5.6020002
90.536003 -12.338 5.5791001
90.560997 -12.253 5.5563998
90.583 -12.168 5.5335999
90.606003 -12.083 5.5107999
90.627998 -11.998 5.4878998
90.651001 -11.913 5.4650998
90.671997 -11.828 5.4422002
90.695999 -11.744 5.4194999
90.717003 -11.659 5.3965998
90.739998 -11.574 5.3737998
90.759003 -11.489 5.3508
90.778999 -11.404 5.3278999
90.795998 -11.318 5.3049002
90.816002 -11.233 5.2820001
90.833 -11.148 5.2589002
90.850998 -11.063 5.2360001
90.869003 -10.977 5.2129998
90.889999 -10.893 5.1901999
90.910004 -10.808 5.1673002
90.931 -10.723 5.1444998
90.949997 -10.638 5.1216002
90.968002 -10.553 5.0985999
90.978996 -10.467 5.0753999
90.990997 -10.381 5.0521998
90.999001 -10.295 5.0288
91.005997 -10.209 5.0054002
91.010002 -10.122 4.9819002
91.014 -10.035 4.9583998
91.015999 -9.9485998 4.9348998
91.016998 -9.8617001 4.9113002
91.017998 -9.7749996 4.8877001
91.018997 -9.6883001 4.8642001
91.021004 -9.6016998 4.8407001
91.025002 -9.5155001 4.8172998
91.028 -9.4292002 4.7939
91.036003 -9.3435001 4.7705998
91.043999 -9.2578001 4.7473998
91.053001 -9.1723003 4.7242999
91.060997 -9.0867004 4.7010999
91.072998 -9.0016003 4.6781001
91.080002 -8.9160004 4.6549001
91.088997 -8.8308001 4.6318002
91.097 -8.7453003 4.6086998
91.107002 -8.6601 4.5855999
91.113998 -8.5747004 4.5625
91.125 -8.4898005 4.5395002
91.138 -8.4050999 4.5166998
91.154999 -8.3206997 4.4938998
91.169998 -8.2363997 4.4710999
91.189003 -8.1522999 4.4485002
91.205002 -8.0678997 4.4257002
91.221001 -7.9836998 4.4029999
91.232002 -7.8989 4.3800998
91.244003 -7.8143001 4.3572001
91.253998 -7.7296 4.3343
91.263 -7.6448002 4.3112998
91.268997 -7.5598001 4.2883
91.278999 -7.4751 4.2653999
91.286003 -7.3902998 4.2424002
91.297997 -7.3059001 4.2196002
91.306999 -7.2213998 4.1967001
91.320999 -7.1371999 4.1739998
91.335999 -7.0531998 4.1513
91.355003 -6.9696002 4.1287999
91.372002 -6.8857999 4.1062002
91.393997 -6.8024001 4.0837002
91.416 -6.7191 4.0612998
91.443001 -6.6362 4.0391002
91.470001 -6.5532999 4.0167999
91.502998 -6.4707999 3.9948001
91.538002 -6.3885999 3.9728
90.785004 -15.327 6.3941998
90.716003 -15.287 6.4763999
90.748001 -15.23 6.3674002
90.672997 -15.189 6.4492002
90.623001 -15.09 6.4215999
90.575996 -14.991 6.3941998
90.525002 -14.893 6.3667002
90.474998 -14.794 6.3393002
90.438004 -14.698 6.3126998
90.400002 -14.601 6.2859998
90.373001 -14.507 6.2600999
90.347 -14.413 6.2342
90.334 -14.321 6.2090001
90.313004 -14.228 6.1834998
90.297997 -14.136 6.1582999
90.287003 -14.045 6.1334
90.280998 -13.955 6.1087999
90.277 -13.866 6.0844002
90.279999 -13.777 6.0602999
90.283997 -13.689 6.0363002
90.292999 -13.601 6.0125999
90.308998 -13.515 5.9892998
90.329002 -13.429 5.9661999
90.347 -13.343 5.9429998
90.362999 -13.257 5.9197001
90.376999 -13.171 5.8962998
90.389999 -13.084 5.8729
90.399002 -12.997 5.8492999
90.410004 -12.91 5.8257999
90.419998 -12.823 5.8023
90.433998 -12.737 5.7789001
90.448997 -12.65 5.7557001
90.468002 -12.565 5.7326002
90.488998 -12.48 5.7096
90.511002 -12.395 5.6868
90.532997 -12.31 5.6638999
90.557999 -12.225 5.6410999
90.581001 -12.14 5.6183
90.605003 -12.056 5.5956001
90.627998 -11.971 5.5727
90.652 -11.886 5.5499001
90.676003 -11.802 5.5272002
90.700996 -11.717 5.5044999
90.723 -11.632 5.4815998
90.746002 -11.547 5.4589
90.765999 -11.462 5.4359002
90.786003 -11.377 5.4130001
90.804001 -11.292 5.3899999
90.823997 -11.207 5.3670998
90.843002 -11.122 5.3441
90.862 -11.036 5.3211002
90.882004 -10.951 5.2982001
90.904999 -10.867 5.2754002
90.926003 -10.782 5.2526002
90.950996 -10.698 5.23
90.973 -10.613 5.2072001
90.992996 -10.528 5.1842999
91.010002 -10.443 5.1613002
91.025002 -10.357 5.1381998
91.037003 -10.272 5.1149998
91.046997 -10.186 5.0917001
91.055 -10.099 5.0682998
91.057999 -10.013 5.0447998
91.058998 -9.9258003 5.0211
91.058998 -9.8388004 4.9973998
91.056 -9.7515001 4.9735999
91.052002 -9.6641998 4.9498
91.046997 -9.5768003 4.9260001
91.045998 -9.4898996 4.9022999
91.042999 -9.4028997 4.8786001
91.045998 -9.3165998 4.8551998
91.047997 -9.2301998 4.8316998
91.051003 -9.1441002 4.8083
91.053001 -9.0579004 4.7848001
91.058998 -8.9721003 4.7616
91.061996 -8.8860998 4.7382002
91.069 -8.8006001 4.7150002
91.071999 -8.7145996 4.6915998
91.075996 -8.6288996 4.6683998
91.081001 -8.5432997 4.6451001
91.092003 -8.4582996 4.6220999
91.103996 -8.3734999 4.5991998
91.122002 -8.2894001 4.5764999
91.140999 -8.2053003 4.5538001
91.163002 -8.1216002 4.5313001
91.181 -8.0374002 4.5086002
91.202003 -7.9535999 4.4860001
91.217003 -7.8692999 4.4632001
91.231003 -7.7849002 4.4404001
91.242996 -7.7003002 4.4175
91.253998 -7.6156001 4.3945999
91.262001 -7.5309 4.3716002
91.272003 -7.4461002 4.3487
91.278999 -7.3614001 4.3256998
91.292999 -7.2771001 4.3028998
91.303001 -7.1925998 4.2800002
91.317001 -7.1083999 4.2572999
91.330002 -7.0243001 4.2344999
91.348 -6.9405999 4.2119999
91.364998 -6.8566999 4.1893001
91.385002 -6.7732 4.1669002
91.405998 -6.6897998 4.1444001
91.432999 -6.6069002 4.1220999
91.458 -6.5237999 4.0998001
91.488998 -6.4411998 4.0777001
91.524002 -6.3589001 4.0556998
91.559998 -6.2767 4.0337
90.753998 -15.385 6.5033002
90.684998 -15.345 6.5854001
90.641998 -15.247 6.5581999
90.587997 -15.147 6.5302
90.531998 -15.047 6.5022001
90.474998 -14.947 6.4741998
90.424004 -14.848 6.4466
90.371002 -14.749 6.4190001
90.338997 -14.653 6.3926001
90.305 -14.558 6.3660998
90.285004 -14.465 6.3404999
90.271004 -14.373 6.3153
90.262001 -14.282 6.2904
90.255997 -14.192 6.2656999
90.257004 -14.103 6.2413998
90.260002 -14.014 6.2172999
90.265999 -13.926 6.1932998
90.275002 -13.838 6.1696
90.290001 -13.751 6.1461
90.305 -13.665 6.1227002
90.324997 -13.579 6.0995998
90.350998 -13.494 6.0767999
90.374001 -13.409 6.0538998
90.393997 -13.324 6.0307999
90.410004 -13.237 6.0075002
90.421997 -13.15 5.9840002
90.429001 -13.063 5.9601998
90.435997 -12.975 5.9363999
90.439003 -12.887 5.9123998
90.444 -12.799 5.8885002
90.450996 -12.712 5.8648
90.461998 -12.625 5.8413
90.475998 -12.539 5.8179998
90.491997 -12.453 5.7947998
90.514999 -12.368 5.7719002
90.536003 -12.283 5.7488999
90.559998 -12.198 5.7261
90.583 -12.113 5.7033
90.609001 -12.029 5.6806002
90.633003 -11.944 5.6578002
90.657997 -11.86 5.6350999
90.683998 -11.775 5.6124001
90.709 -11.691 5.5897002
90.731003 -11.606 5.5668998
90.754997 -11.521 5.5440998
90.774002 -11.436 5.5211
90.793999 -11.351 5.4981999
90.811996 -11.265 5.4751
90.832001 -11.18 5.4520998
90.849998 -11.095 5.4291
90.869003 -11.01 5.4061999
90.888 -10.924 5.3832002
90.910004 -10.84 5.3604002
90.931 -10.755 5.3375001
90.958 -10.671 5.3148999
90.982002 -10.586 5.2922001
91.003998 -10.502 5.2694001
91.023003 -10.417 5.2465
91.041 -10.331 5.2234998
91.053001 -10.246 5.2003002
91.065002 -10.16 5.177
91.073997 -10.074 5.1536002
91.079002 -9.9872999 5.1301999
91.079002 -9.9001999 5.1064
91.077003 -9.8128004 5.0826001
91.072998 -9.7255001 5.0587001
91.067001 -9.6379004 5.0348001
91.058998 -9.5502005 5.0107999
91.054001 -9.4628 4.9868999
91.051003 -9.3758001 4.9631
91.050003 -9.2889996 4.9394999
91.047997 -9.2021999 4.9158001
91.049004 -9.1159 4.8923001
91.049004 -9.0293999 4.8687
91.053001 -8.9434004 4.8453002
91.053001 -8.8570995 4.8218002
91.051003 -8.7706003 4.7982001
91.045998 -8.6837997 4.7744999
91.043999 -8.5974998 4.7508998
91.042999 -8.5113001 4.7273998
91.049004 -8.4259005 4.7041998
91.057999 -8.3408003 4.6812
91.074997 -8.2566004 4.6584001
91.093002 -8.1724005 4.6357002
91.115997 -8.0888004 4.6132002
91.139999 -8.0052996 4.5907998
91.166 -7.9219999 4.5683999
91.188004 -7.8383002 4.5458999
91.208 -7.7544999 4.5233002
91.224998 -7.6704001 4.5005002
91.239998 -7.5861001 4.4777999
91.251999 -7.5015998 4.4548998
91.264999 -7.4172001 4.4320002
91.274002 -7.3325 4.4091001
91.288002 -7.2483001 4.3863001
91.299004 -7.1638999 4.3635001
91.313004 -7.0797 4.3407001
91.325996 -6.9955001 4.3179002
91.342003 -6.9116001 4.2951999
91.356003 -6.8276 4.2725
91.375 -6.7438998 4.2498999
91.393997 -6.6603999 4.2273998
91.418999 -6.5771999 4.2051001
91.443001 -6.4941001 4.1827002
91.473 -6.4113998 4.1605
91.505997 -6.329 4.1385002
91.542999 -6.2467999 4.1166
91.574997 -6.1643 4.0945001
90.748001 -15.538 6.6387
90.688004 -15.5 6.7213998
90.720001 -15.442 6.6122999
90.652 -15.403 6.6943998
90.609001 -15.305 6.6669998
90.552002 -15.204 6.6388001
90.490997 -15.103 6.6104002
90.421997 -15.001 6.5815001
90.366997 -14.901 6.5535998
90.314003 -14.802 6.5258002
90.263 -14.703 6.4981999
90.238998 -14.609 6.4723001
90.218002 -14.516 6.4464998
90.210999 -14.425 6.4217
90.209999 -14.336 6.3972001
90.217003 -14.248 6.3731999
90.224998 -14.16 6.3492999
90.238998 -14.073 6.3257999
90.253998 -13.986 6.3024001
90.274002 -13.9 6.2792001
90.294998 -13.814 6.2561002
90.320999 -13.729 6.2333002
90.348 -13.645 6.2104998
90.377998 -13.561 6.1880002
90.406998 -13.476 6.1652999
90.433998 -13.391 6.1426001
90.454002 -13.306 6.1195002
90.468002 -13.219 6.0960002
90.473 -13.131 6.072
90.473 -13.042 6.0478001
90.472 -12.953 6.0235
90.468002 -12.864 5.9991002
90.461998 -12.775 5.9745998
90.459 -12.686 5.9503002
90.460999 -12.598 5.9263
90.468002 -12.51 5.9025002
90.484001 -12.424 5.8793001
90.504997 -12.339 5.8562999
90.527 -12.254 5.8333998
90.552002 -12.169 5.8106999
90.575996 -12.085 5.7879
90.601997 -12 5.7652001
90.626999 -11.916 5.7424998
90.653999 -11.831 5.7198
90.68 -11.747 5.6971002
90.706001 -11.663 5.6745
90.728996 -11.578 5.6515999
90.753998 -11.493 5.6289001
90.772003 -11.408 5.6058002
90.793999 -11.323 5.5829
90.811996 -11.238 5.5598998
90.832001 -11.153 5.5369
90.852997 -11.067 5.5139999
90.873001 -10.982 5.4910998
90.892998 -10.897 5.4681001
90.916 -10.813 5.4454002
90.938004 -10.728 5.4225001
90.967003 -10.644 5.4000001
90.992996 -10.56 5.3773999
91.016998 -10.476 5.3547001
91.039001 -10.391 5.3319001
91.057999 -10.306 5.3088999
91.073997 -10.22 5.2858
91.087997 -10.135 5.2625999
91.098 -10.049 5.2392998
91.102997 -9.9621 5.2157998
91.101997 -9.875 5.1919999
91.099998 -9.7875996 5.1680999
91.093002 -9.6997995 5.1440001
91.084 -9.6119003 5.1199002
91.072998 -9.5236998 5.0956998
91.063004 -9.4358997 5.0716
91.055 -9.3481998 5.0475998
91.051003 -9.2610998 5.0237002
91.044998 -9.1738997 4.9998999
91.042 -9.0871 4.9761
91.039001 -9.0003004 4.9524002
91.040001 -8.9139996 4.9288998
91.038002 -8.8274002 4.9052
91.031998 -8.7405005 4.8814001
91.023003 -8.6534004 4.8575001
91.018997 -8.5668001 4.8337998
91.007004 -8.4796 4.8098998
91.005997 -8.3935003 4.7863998
91.010002 -8.3078003 4.763
91.025002 -8.2235003 4.7402
91.042999 -8.1393003 4.7175002
91.064003 -8.0556002 4.6949
91.087997 -7.9720998 4.6725001
91.114998 -7.8888998 4.6501999
91.139 -7.8055 4.6276999
91.167 -7.7224002 4.6054001
91.191002 -7.6389999 4.5830002
91.214996 -7.5555 4.5605001
91.232002 -7.4714999 4.5377998
91.25 -7.3875999 4.5152001
91.264999 -7.3034 4.4924002
91.281998 -7.2193999 4.4696999
91.294998 -7.1352 4.4468999
91.307999 -7.0509 4.4240999
91.320999 -6.9667001 4.4013
91.335999 -6.8827 4.3785
91.349998 -6.7986002 4.3558002
91.365997 -6.7147002 4.3330998
91.383003 -6.631 4.3105001
91.403999 -6.5475998 4.2880001
91.428001 -6.4643998 4.2656002
91.456001 -6.3814998 4.2434001
91.488998 -6.2990999 4.2213998
91.526001 -6.2168999 4.1993999
91.559998 -6.1345 4.1774001
91.596001 -6.0523 4.1553998
90.716003 -15.596 6.7479
90.662003 -15.559 6.8309999
90.627998 -15.462 6.8039999
90.584 -15.364 6.7765002
90.533997 -15.264 6.7486
90.463997 -15.161 6.7193999
90.389 -15.058 6.6901002
90.320999 -14.956 6.6612
90.264 -14.856 6.6331
90.213997 -14.757 6.6054001
90.179001 -14.662 6.5787001
90.162003 -14.569 6.5531998
90.154999 -14.478 6.5282998
90.162003 -14.39 6.5043001
90.175003 -14.303 6.4807
90.195999 -14.217 6.4575
90.219002 -14.132 6.4345002
90.247002 -14.047 6.4117999
90.275002 -13.962 6.3891001
90.306999 -13.878 6.3666
90.338997 -13.794 6.3441
90.377998 -13.712 6.322
90.412003 -13.628 6.2996998
90.443001 -13.544 6.2771001
90.472 -13.459 6.2544999
90.496002 -13.374 6.2315001
90.512001 -13.288 6.2080998
90.521004 -13.2 6.1842999
90.521004 -13.111 6.1599998
90.509003 -13.02 6.1350999
90.495003 -12.93 6.1100998
90.477997 -12.838 6.0848999
90.469002 -12.748 6.0602002
90.461998 -12.659 6.0356002
90.459999 -12.57 6.0113001
90.462997 -12.482 5.9872999
90.476997 -12.396 5.9640002
90.498001 -12.311 5.941
90.518997 -12.225 5.9180002
90.544998 -12.141 5.8952999
90.569 -12.056 5.8724999
90.597 -11.972 5.8498998
90.623001 -11.888 5.8271999
90.650002 -11.803 5.8045998
90.678001 -11.719 5.7818999
90.704002 -11.635 5.7593002
90.726997 -11.55 5.7364001
90.752998 -11.466 5.7136998
90.772003 -11.38 5.6907001
90.793999 -11.295 5.6677999
90.814003 -11.21 5.6448002
90.834 -11.125 5.6219001
90.853996 -11.04 5.5988998
90.875999 -10.955 5.5760002
90.898003 -10.87 5.5531998
90.921997 -10.786 5.5303998
90.945 -10.701 5.5075998
90.974998 -10.617 5.4851999
91.002998 -10.533 5.4626002
91.027 -10.449 5.4398999
91.051003 -10.364 5.4172001
91.072998 -10.28 5.3943
91.089996 -10.194 5.3713002
91.105003 -10.109 5.3481002
91.116997 -10.023 5.3248
91.124001 -9.9366999 5.3013
91.123001 -9.8493996 5.2775002
91.120003 -9.7618999 5.2535
91.112 -9.6739998 5.2294002
91.099998 -9.5857 5.2051001
91.084 -9.4968996 5.1806002
91.069 -9.4084997 5.1561999
91.056999 -9.3204002 5.1318998
91.045998 -9.2325001 5.1078
91.036003 -9.1449003 5.0837002
91.029999 -9.0577002 5.0598001
91.022003 -8.9703999 5.0358
91.018997 -8.8837004 5.0121002
91.014 -8.7967997 4.9882002
91.003998 -8.7095003 4.9642
90.990997 -8.6219997 4.9401999
90.983002 -8.5349998 4.9162998
90.970001 -8.4476995 4.8922
90.968002 -8.3614998 4.8685999
90.971001 -8.2757998 4.8453002
90.976997 -8.1906004 4.8221002
90.986 -8.1056995 4.7989998
91.005997 -8.0218 4.7764001
91.030998 -7.9383998 4.7539001
91.058998 -7.8554001 4.7315998
91.084 -7.7721 4.7091999
91.113998 -7.6891999 4.6869998
91.140999 -7.6061001 4.6647
91.167999 -7.5229998 4.6423998
91.196999 -7.4400001 4.6201
91.225998 -7.3571 4.5978999
91.248001 -7.2736001 4.5753999
91.271004 -7.1901002 4.5528998
91.287003 -7.1061001 4.5302
91.302002 -7.0219998 4.5074
91.316002 -6.9377999 4.4846001
91.330002 -6.8537002 4.4619002
91.342003 -6.7694998 4.4390001
91.356003 -6.6854 4.4162002
91.370003 -6.6015 4.3934999
91.389 -6.5179 4.3709998
91.410004 -6.4345002 4.3484998
91.436996 -6.3515 4.3262
91.469002 -6.2690001 4.3041
91.504997 -6.1866999 4.2821002
91.540001 -6.1044002 4.2600999
91.578003 -6.0222998 4.2382998
91.616997 -5.9401999 4.2164001
90.692001 -15.655 6.8576999
90.643997 -15.619 6.9411998
90.605003 -15.522 6.9137998
90.559998 -15.423 6.8860998
90.508003 -15.323 6.8579001
90.439003 -15.22 6.8287001
90.361 -15.116 6.7989998
90.285004 -15.013 6.7694998
90.218002 -14.911 6.7406001
90.162003 -14.811 6.7125001
90.125999 -14.715 6.6855998
90.109001 -14.622 6.6599998
90.107002 -14.533 6.6353998
90.117996 -14.445 6.6115999
90.140999 -14.359 6.5886002
90.167999 -14.275 6.5658002
90.206001 -14.192 6.5437002
90.238998 -14.108 6.5212998
90.281998 -14.026 6.4994001
90.320999 -13.943 6.4773998
90.364998 -13.861 6.4555998
90.408997 -13.779 6.4338002
90.445999 -13.695 6.4116001
90.481003 -13.612 6.3892002
90.513 -13.528 6.3667998
90.540001 -13.443 6.3439999
90.560997 -13.357 6.3207998
90.570999 -13.27 6.2969999
90.572998 -13.181 6.2728
90.561996 -13.09 6.2477999
90.542 -12.998 6.2223001
90.524002 -12.907 6.197
90.498001 -12.814 6.1712999
90.481003 -12.723 6.1461
90.471001 -12.633 6.1212001
90.463997 -12.543 6.0967002
90.461998 -12.455 6.0724001
90.473999 -12.368 6.0488
90.492996 -12.282 6.0257001
90.513 -12.197 6.0026999
90.537003 -12.112 5.9798002
90.560997 -12.028 5.9570999
90.589996 -11.944 5.9345002
90.615997 -11.859 5.9117999
90.643997 -11.775 5.8892002
90.670998 -11.691 5.8666
90.697998 -11.606 5.8439002
90.721001 -11.522 5.8211002
90.747002 -11.437 5.7982998
90.766998 -11.352 5.7753
90.788002 -11.267 5.7523999
90.807999 -11.182 5.7294002
90.827003 -11.096 5.7063999
90.848 -11.011 5.6834002
90.869003 -10.927 5.6605
90.890999 -10.842 5.6375999
90.915001 -10.757 5.6149001
90.940002 -10.673 5.5921998
90.970001 -10.589 5.5696998
90.999001 -10.505 5.5472002
91.024002 -10.421 5.5244999
91.050003 -10.336 5.5019002
91.073997 -10.252 5.4791002
91.092003 -10.167 5.4561
91.070999 -10.077 5.4312
91.083 -9.9911003 5.4078999
91.088997 -9.9046001 5.3843002
91.088997 -9.8174 5.3604002
91.082001 -9.7296 5.3362999
91.071999 -9.6415005 5.3119998
91.056999 -9.5528002 5.2876
91.038002 -9.4638004 5.2628999
91.019997 -9.375 5.2382998
91.042999 -9.2908001 5.2157001
91.028 -9.2025003 5.1911998
91.014 -9.1145 5.1669002
91.003998 -9.0268002 5.1427999
90.992996 -8.9392004 5.1187
90.986 -8.8521004 5.0946999
90.976997 -8.7649002 5.0707002
90.961998 -8.6771002 5.0465002
90.945 -8.5890999 5.0221
90.933998 -8.5019999 4.9980998
90.919998 -8.4145002 4.9738998
90.917 -8.3282003 4.9503002
90.917 -8.2424002 4.9267998
90.921997 -8.1570997 4.9035001
90.938004 -8.0727997 4.8807001
90.946999 -7.9879999 4.8576999
90.964996 -7.9039998 4.835
90.992996 -7.8210001 4.8126998
91.023003 -7.7381001 4.7905002
91.056 -7.6556001 4.7684002
91.087997 -7.573 4.7463002
91.119003 -7.4903002 4.7241001
91.153 -7.4078002 4.7020998
91.184998 -7.3250999 4.6799998
91.219002 -7.2427001 4.658
91.251999 -7.1601 4.6359
91.276001 -7.0767002 4.6134
91.292999 -6.9928002 4.5907001
91.306999 -6.9087 4.5679002
91.320999 -6.8246002 4.5451002
91.332001 -6.7402 4.5222001
91.344002 -6.6560001 4.4993
91.356003 -6.5718002 4.4765
91.373001 -6.4881001 4.4538002
91.390999 -6.4045 4.4313002
91.416 -6.3214002 4.4088998
91.447998 -6.2388 4.3867998
91.484001 -6.1564999 4.3649001
91.518997 -6.0742002 4.3428998
91.559998 -5.9923 4.3211002
91.598999 -5.9102001 4.2992001
91.640999 -5.8284001 4.2775002
90.666 -15.714 6.9675002
90.625999 -15.68 7.0514002
90.595001 -15.583 7.0244999
90.546997 -15.484 6.9965
90.492996 -15.384 6.9681001
90.425003 -15.281 6.9387999
90.342003 -15.176 6.9085999
90.266998 -15.072 6.8790002
90.190002 -14.969 6.8492999
90.126999 -14.868 6.8207002
90.083 -14.77 6.7932
90.064003 -14.677 6.7673998
90.065002 -14.588 6.743
90.082001 -14.501 6.7195001
90.110001 -14.417 6.6968002
90.150002 -14.334 6.6746998
90.191002 -14.252 6.6529002
90.237 -14.17 6.6311998
90.285004 -14.088 6.6097002
90.348999 -14.01 6.5892
90.414001 -13.931 6.5686998
90.481003 -13.853 6.5482998
90.552002 -13.775 6.5282001
90.592003 -13.692 6.5061002
90.628998 -13.608 6.4837999
90.664001 -13.525 6.4615002
90.691002 -13.44 6.4386001
90.710999 -13.353 6.4152999
90.699997 -13.262 6.3902001
90.677002 -13.17 6.3643999
90.635002 -13.074 6.3376002
90.571999 -12.976 6.3095002
90.551003 -12.884 6.2839999
90.526001 -12.791 6.2582002
90.500999 -12.699 6.2325001
90.485001 -12.608 6.2072001
90.474998 -12.518 6.1824002
90.468002 -12.428 6.1578002
90.475998 -12.341 6.1341
90.492996 -12.255 6.1107998
90.511002 -12.169 6.0876999
90.533997 -12.085 6.0647998
90.557999 -12 6.0419002
90.585999 -11.915 6.0193
90.611 -11.831 5.9965
90.638 -11.747 5.9738998
90.665001 -11.662 5.9512
90.691002 -11.578 5.9285002
90.712997 -11.493 5.9056001
90.737 -11.408 5.8828001
90.757004 -11.323 5.8597999
90.778 -11.238 5.8368001
90.796997 -11.153 5.8137002
90.816002 -11.067 5.7907
90.848 -8.2932997 5.0310998
90.850998 -8.2077999 5.0078001
90.855003 -8.1224003 4.9844999
90.867996 -8.0379 4.9615002
90.882004 -7.9535999 4.9386001
90.903 -7.8699002 4.9161
90.927002 -7.7866001 4.8936
90.953003 -7.7034001 4.8713002
90.991997 -7.6215 4.8495002
91.028 -7.5391998 4.8274999
91.064003 -7.4569998 4.8056002
91.105003 -7.3751998 4.7838001
91.141998 -7.2930002 4.7618999
91.181 -7.211 4.7400999
91.217003 -7.1286998 4.7181001
91.251999 -7.0461998 4.6961002
91.278 -6.9631 4.6738
91.294998 -6.8792 4.6511002
91.309998 -6.7951999 4.6283002
91.320999 -6.7108998 4.6054001
91.331001 -6.6265001 4.5823998
91.342003 -6.5422001 4.5595002
91.356003 -6.4583001 4.5367999
91.373001 -6.3744998 4.5141001
91.394997 -6.2912002 4.4916
91.426003 -6.2086 4.4695001
91.461998 -6.1262999 4.4475999
91.498001 -6.0440998 4.4256001
91.539001 -5.9621 4.4038
91.577003 -5.8800001 4.382
91.617996 -5.7981 4.3601999
90.641998 -15.774 7.0774002
90.606003 -15.74 7.1616998
90.583 -15.645 7.1352
90.542999 -15.547 7.1076002
90.485001 -15.446 7.0788002
90.415001 -15.343 7.0493002
90.334 -15.238 7.0190001
90.254997 -15.133 6.9889998
90.176003 -15.029 6.9590998
90.102997 -14.927 6.9295998
90.058998 -14.829 6.902
90.029999 -14.734 6.8755002
90.028 -14.644 6.8508
90.046997 -14.558 6.8274999
90.084 -14.475 6.8053002
90.127998 -14.393 6.7835999
90.179001 -14.312 6.7623
90.231003 -14.231 6.7410002
90.301003 -14.153 6.7209001
90.374001 -14.076 6.7010002
90.468002 -14.002 6.6823001
90.558998 -13.928 6.6634998
90.658997 -13.854 6.6451001
90.734001 -13.777 6.6251998
90.779999 -13.695 6.6034999
90.823997 -13.612 6.5816002
90.862 -13.529 6.5594001
90.876999 -13.442 6.5356998
90.872002 -13.351 6.5109
90.829002 -13.255 6.4836998
90.768997 -13.157 6.4556999
90.679001 -13.053 6.4257998
90.607002 -12.953 6.3971
90.581001 -12.861 6.3712001
90.788002 -8.0019999 5.0416999
90.800003 -7.9176002 5.0187998
90.823997 -7.8343 4.9963999
90.853996 -7.7515001 4.9741998
90.888 -7.6691999 4.9521999
90.924004 -7.5869999 4.9302001
90.964996 -7.5051999 4.9085002
91.009003 -7.4236999 4.8870001
91.056 -7.3425002 4.8655
91.099998 -7.2609 4.8439002
91.144997 -7.1795001 4.8223
91.184998 -7.0974998 4.8004999
91.223999 -7.0153999 4.7786999
91.251999 -6.9324999 4.7564001
91.278999 -6.8494 4.7340999
91.296997 -6.7656002 4.7115002
91.310997 -6.6815 4.6886001
91.32 -6.5970998 4.6655998
91.329002 -6.5127001 4.6426001
91.342003 -6.4285998 4.6198001
91.357002 -6.3446999 4.5970001
91.376999 -6.2613001 4.5745001
91.404999 -6.1784 4.5521998
91.440002 -6.0960002 4.5302
91.475998 -6.0138001 4.5082998
91.515999 -5.9317999 4.4864998
91.555 -5.8497 4.4647002
91.596001 -5.7677002 4.4429002
91.638 -5.6858001 4.4211998
90.619003 -15.833 7.1875
90.596001 -15.802 7.2726998
90.578003 -15.708 7.2465
90.546997 -15.612 7.2193999
90.499001 -15.512 7.1911001
90.432999 -15.41 7.1616998
90.350998 -15.304 7.1313
90.264999 -15.198 7.1005998
90.181 -15.093 7.0702
90.101997 -14.989 7.0401001
90.047997 -14.89 7.0117998
90.015999 -14.795 6.9850001
90.001999 -14.702 6.9594998
90.019997 -14.616 6.9359999
90.056 -14.533 6.9137998
90.106003 -14.452 6.8924999
90.158997 -14.371 6.8713002
90.221001 -14.292 6.8508
90.297997 -14.215 6.8311
90.393997 -14.142 6.8126998
90.497002 -14.069 6.7947001
90.621002 -14 6.7779999
90.748001 -13.931 6.7614002
90.883003 -13.863 6.7452998
90.968002 -13.787 6.7259998
91.032997 -13.708 6.7054
91.084 -13.626 6.6838999
91.113998 -13.541 6.6610999
91.110001 -13.451 6.6362
91.081001 -13.357 6.6097002
90.999001 -13.254 6.5799999
90.762001 -7.7147999 5.0538001
90.800003 -7.6329002 5.0320001
90.848 -7.5517998 5.0106001
90.891998 -7.4703999 4.9891
90.942001 -7.3895001 4.9678001
90.995003 -7.3088002 4.9466
91.047997 -7.2280998 4.9253998
91.100998 -7.1472998 4.9042001
91.146004 -7.0658002 4.8825998
91.190002 -6.9842 4.8610001
91.222 -6.9015002 4.8389001
91.251999 -6.8186998 4.8167
91.279999 -6.7357001 4.7944002
91.296997 -6.6518998 4.7716999
91.307999 -6.5675998 4.7487998
91.318001 -6.4832001 4.7256999
91.328003 -6.3990002 4.7027998
91.341003 -6.3148999 4.6799002
91.358002 -6.2312002 4.6573
91.384003 -6.1482 4.6349001
91.416 -6.0655999 4.6128998
91.449997 -5.9833002 4.5908999
91.489998 -5.9013 4.5690999
91.529999 -5.8192 4.5472999
91.57 -5.7371998 4.5254998
91.612 -5.6553001 4.5037999
91.656998 -5.5735998 4.4821
90.596001 -15.893 7.2976999
90.578003 -15.863 7.3832002
90.572998 -15.771 7.3579001
90.550003 -15.676 7.3312001
90.518997 -15.58 7.3041
90.459 -15.478 7.2749
90.379997 -15.373 7.2445002
90.290001 -15.266 7.2133999
90.205002 -15.161 7.1827002
90.114998 -15.055 7.1518002
90.051003 -14.953 7.1226001
90.005997 -14.856 7.0949001
89.987 -14.762 7.0689001
89.992996 -14.674 7.0446
90.028 -14.59 7.0223999
90.079002 -14.51 7.0011001
90.140999 -14.43 6.9805999
90.205002 -14.352 6.9601998
90.291 -14.277 6.9411998
90.393997 -14.204 6.9232998
90.518997 -14.135 6.9067998
90.652 -14.068 6.8908
90.813004 -14.004 6.8765001
90.949997 -13.937 6.8606
91.098 -13.871 6.8453999
91.194 -13.797 6.8267999
91.292 -13.722 6.8081999
91.347 -13.641 6.7869
91.379997 -13.556 6.7642002
91.347 -13.461 6.7372999
90.761002 -7.5156999 5.0904002
90.807999 -7.4345999 5.0689998
90.861 -7.3540001 5.0479002
90.927002 -7.2744999 5.0272999
90.986 -7.1943002 5.0064001
91.046997 -7.1142998 4.9856
91.099998 -7.0334001 4.9643998
91.150002 -6.9524002 4.9429998
91.186996 -6.8702002 4.9211001
91.221001 -6.7877002 4.8990998
91.251999 -6.7049999 4.8769999
91.278999 -6.6220002 4.8547001
91.293999 -6.5379 4.8318
91.305 -6.4537001 4.8088999
91.316002 -6.3694 4.7859001
91.325996 -6.2852001 4.7628999
91.339996 -6.2013001 4.7400999
91.362 -6.118 4.7177
91.391998 -6.0352998 4.6954999
91.425003 -5.9527001 4.6733999
91.462997 -5.8706999 4.6515999
91.502998 -5.7886 4.6297998
91.542 -5.7065001 4.6079998
91.583 -5.6245999 4.5862002
91.625999 -5.5426998 4.5646
90.57 -15.953 7.4077001
90.556 -15.923 7.4935999
90.561996 -15.833 7.4689002
90.554001 -15.741 7.4432998
90.526001 -15.645 7.4162998
90.494003 -15.548 7.3889999
90.424004 -15.445 7.3590002
90.334999 -15.338 7.3278999
90.237999 -15.23 7.2961001
90.153 -15.125 7.2653999
90.069 -15.02 7.2347002
90.014 -14.92 7.2061
89.978996 -14.824 7.1789999
89.973 -14.733 7.1538
89.997002 -14.648 7.1307998
90.044998 -14.566 7.1093001
90.109001 -14.488 7.0890002
90.188004 -14.412 7.0696001
90.279999 -14.337 7.0510998
90.363998 -14.262 7.0320001
90.469002 -14.19 7.0142999
90.598999 -14.122 6.9981999
90.744003 -14.056 6.9830999
90.919998 -13.995 6.9698
91.078003 -13.93 6.9554
91.253998 -13.869 6.9421
91.385002 -13.8 6.9257002
90.778 -7.3183999 5.1278
90.839996 -7.2385998 5.1071
90.914001 -7.1596999 5.0869002
90.981003 -7.0802002 5.0662999
91.042 -7.0001998 5.0454998
91.102997 -6.9200001 5.0247002
91.144997 -6.8383002 5.0030999
91.184998 -6.7563 4.9812999
91.221001 -6.6739001 4.9594002
91.250999 -6.5911999 4.9372001
91.275002 -6.5079002 4.9147
91.291 -6.4239998 4.8920002
91.303001 -6.3399 4.869
91.313004 -6.2556 4.8460002
91.324997 -6.1715002 4.8231001
91.343002 -6.0879002 4.8003998
91.367996 -6.0049 4.7781
91.399002 -5.9222002 4.7558999
91.435997 -5.8400002 4.7340002
91.474998 -5.7579002 4.7122002
91.512001 -5.6757998 4.6904001
91.553001 -5.5936999 4.6686001
91.595001 -5.5118999 4.6469002
90.542999 -16.011999 7.5177999
90.531998 -15.983 7.6039
90.545998 -15.894 7.5797
90.550003 -15.804 7.5549002
90.542 -15.712 7.5293002
90.514 -15.615 7.5022001
90.478996 -15.518 7.4745998
90.397003 -15.413 7.4436998
90.296997 -15.304 7.4116001
90.195999 -15.196 7.3794999
90.108002 -15.09 7.3484001
90.029999 -14.986 7.3179998
89.982002 -14.887 7.2898998
89.961998 -14.794 7.2637
89.973999 -14.706 7.2398
90.010002 -14.623 7.2175002
90.070999 -14.544 7.197
90.151001 -14.468 7.1778002
90.258003 -14.396 7.1602998
90.349998 -14.322 7.1419001
90.435997 -14.247 7.1229
90.546997 -14.175 7.1057
90.688004 -14.109 7.0904002
90.846001 -14.045 7.0762
91.049004 -13.988 7.0648999
91.257004 -13.932 7.0538998
91.986 -13.869 7.0521002
92.142998 -13.803 7.0373001
91.760002 -13.77 6.9250998
91.866997 -13.696 6.9070001
92.250999 -13.729 7.0193
91.901001 -13.611 6.8842001
90.823997 -7.1237001 5.1665001
90.902 -7.0451002 5.1465001
90.970001 -6.9657001 5.1259999
91.040001 -6.8863001 5.1055999
91.093002 -6.8055 5.0844998
91.139 -6.7241001 5.0630002
91.181 -6.6422 5.0412998
91.214996 -6.5598001 5.0194001
91.244003 -6.4769001 4.9970999
91.268997 -6.3937998 4.9747
91.288002 -6.3101001 4.9520998
91.299004 -6.2259998 4.9291
91.309998 -6.1417999 4.9060998
91.325996 -6.0580001 4.8832998
91.347 -5.9747 4.8607998
91.375 -5.8917999 4.8385
91.408997 -5.8094001 4.8165998
91.445999 -5.7272 4.7947001
91.482002 -5.6448998 4.7726998
91.521004 -5.5627999 4.7508998
91.561996 -5.4808002 4.7291999
91.603996 -5.3989 4.7075
90.514999 -16.070999 7.6278
90.503998 -16.042 7.7139001
90.523003 -15.954 7.6901999
90.537003 -15.866 7.6661
90.542 -15.776 7.6413002
90.533997 -15.683 7.6156001
90.507004 -15.587 7.5885
90.473999 -15.49 7.5609002
90.378998 -15.383 7.5289998
90.271004 -15.272 7.4962001
90.166 -15.163 7.4636002
90.069 -15.056 7.4317999
89.996002 -14.953 7.4017
89.961998 -14.857 7.3744998
89.958 -14.766 7.3494
89.982002 -14.681 7.3263001
90.028 -14.599 7.3046999
90.092003 -14.52 7.2845001
90.175003 -14.445 7.2655001
90.283997 -14.374 7.2481999
90.379997 -14.3 7.2301002
90.471001 -14.225 7.2115002
90.589996 -14.155 7.1949
90.739998 -14.09 7.1803002
90.921997 -14.03 7.1677999
91.167 -13.98 7.1595998
91.731003 -13.982 7.1725998
92.071999 -13.946 7.1704998
91.762001 -13.924 7.0623999
92.275002 -13.887 7.1588998
92.454002 -13.825 7.1455998
92.619003 -13.76 7.1313
92.373001 -13.657 7.0021
92.750999 -13.689 7.1146998
90.814003 -7.0093002 5.2261
90.892998 -6.9308 5.2062001
90.967003 -6.8518 5.1859999
91.030998 -6.7719002 5.1654
91.088997 -6.6915002 5.1444998
91.137001 -6.6101999 5.1230998
91.178001 -6.5282998 5.1015
91.211998 -6.4457998 5.0794001
91.241997 -6.3631001 5.0572
91.269997 -6.2802 5.0349998
91.287003 -6.1964002 5.0121999
91.299004 -6.1124001 4.9892998
91.313004 -6.0283999 4.9664001
91.330002 -5.9447999 4.9436998
91.351997 -5.8614998 4.9211998
91.383003 -5.7789001 4.8990998
91.417999 -5.6964998 4.8771
91.450996 -5.6139998 4.8551002
91.487 -5.5317998 4.8332
91.526001 -5.4496999 4.8113999
91.567001 -5.3677001 4.7895999
90.491997 -16.011999 7.8000002
90.514 -15.926 7.7765002
90.529999 -15.837 7.7525001
90.536003 -15.747 7.7277002
90.527 -15.655 7.7020001
90.501999 -15.559 7.6749001
90.459999 -15.461 7.6466999
90.352997 -15.351 7.6136999
90.238998 -15.24 7.5804
90.123001 -15.129 7.5468998
89.960999 -14.92 7.4853001
89.941002 -14.826 7.4590001
89.952003 -14.738 7.4348998
89.987999 -14.655 7.4127002
90.056 -14.577 7.3927002
90.123001 -14.499 7.3727002
90.209 -14.424 7.3539
90.320999 -14.353 7.3369999
90.422997 -14.28 7.3193002
90.517998 -14.206 7.3010998
90.651001 -14.138 7.2855
90.834 -14.079 7.2733002
91.045998 -14.023 7.263
92.057999 -14.007 7.2823
92.415001 -13.973 7.2814002
92.597 -13.911 7.2684999
92.804001 -13.852 7.2571001
90.792999 -6.8941002 5.2852001
90.883003 -6.8165002 5.2658
90.948997 -6.7368002 5.2454
91.018997 -6.6574001 5.2249999
91.079002 -6.5770998 5.2042999
91.127998 -6.4959002 5.1829
91.167999 -6.4138999 5.1612
91.203003 -6.3315001 5.1392999
91.244003 -6.2495999 5.1176
91.269997 -6.1665001 5.0952001
91.287003 -6.0827999 5.0724001
91.301003 -5.9988999 5.0496001
91.315002 -5.915 5.0267
91.334 -5.8316002 5.0040998
91.360001 -5.7486 4.9816999
91.390999 -5.6659999 4.9596
91.420998 -5.5833001 4.9373999
91.455002 -5.5008001 4.9154
91.489998 -5.4184999 4.8934999
91.529999 -5.3364 4.8716998
90.470001 -16.1 7.8235998
90.454002 -16.07 7.9095001
90.480003 -15.983 7.8862
90.502998 -15.897 7.8628001
90.521004 -15.809 7.8388
90.528 -15.719 7.8141999
90.523003 -15.627 7.7886
90.501999 -15.532 7.7617998
90.447998 -15.432 7.7326002
90.333 -15.32 7.6989002
90.202003 -15.206 7.6641002
90.074997 -15.093 7.6297002
89.932999 -14.888 7.5693002
89.926003 -14.797 7.5440001
89.954002 -14.712 7.5211
90.004997 -14.631 7.4998999
90.075996 -14.553 7.4801998
90.146004 -14.476 7.4604001
90.233002 -14.401 7.4418001
90.351997 -14.331 7.4253998
90.459999 -14.259 7.4081998
90.566002 -14.187 7.3908
90.721001 -14.123 7.3769002
91.008003 -14.08 7.3720002
90.785004 -6.7800002 5.3448
90.872002 -6.7020998 5.3253999
90.944 -6.6229 5.3052001
91.015999 -6.5434999 5.2849998
91.077003 -6.4633002 5.2642999
91.124001 -6.3818998 5.2428999
91.165001 -6.3000002 5.2213001
91.209999 -6.2184 5.1998
91.248001 -6.1363001 5.1778998
91.272003 -6.0531001 5.1554999
91.287003 -5.9692998 5.1327
91.301003 -5.8853002 5.1097002
91.317001 -5.8017001 5.0869999
91.337997 -5.7182999 5.0644002
91.366997 -5.6355 5.0422001
91.393997 -5.5525999 5.0198998
91.424004 -5.4699998 4.9977002
91.457001 -5.3874002 4.9756999
91.492996 -5.3052001 4.9538002
90.436996 -16.040001 7.9952998
90.464996 -15.954 7.9720998
90.490997 -15.867 7.9489002
90.510002 -15.78 7.9250998
90.522003 -15.691 7.9007001
90.519997 -15.599 7.8752999
90.503998 -15.506 7.8488998
90.441002 -15.403 7.8189001
90.306999 -15.288 7.7835999
89.904999 -14.856 7.6533999
89.914001 -14.768 7.6292
89.959999 -14.686 7.6076999
90.012001 -14.605 7.5865998
90.087997 -14.528 7.5672998
90.162003 -14.451 7.5476999
90.253998 -14.377 7.5295
90.382004 -14.309 7.5138998
90.499001 -14.239 7.4973998
90.623001 -14.169 7.4812999
90.862999 -14.119 7.4734998
90.783997 -6.6665001 5.4047999
90.869003 -6.5883999 5.3853002
90.950996 -6.5099001 5.3656998
91.022003 -6.4305 5.3453999
91.079002 -6.3498998 5.3246002
91.127998 -6.2686 5.3032999
91.178001 -6.1873999 5.2820001
91.220001 -6.1055002 5.2603998
91.252998 -6.0229998 5.2384
91.273003 -5.9396 5.2157001
91.288002 -5.8557 5.1929002
91.301003 -5.7718 5.1698999
91.318001 -5.6882 5.1472001
91.344002 -5.6051998 5.1248002
91.367996 -5.5222001 5.1023998
91.396004 -5.4393001 5.0801001
91.425003 -5.3565998 5.0579
91.459 -5.2740998 5.0359001
90.403 -16.124001 8.0179005
90.377998 -16.093 8.1030998
90.416 -16.009001 8.0806999
90.445 -15.923 8.0577002
90.474998 -15.837 8.0347004
90.498001 -15.751 8.0113001
90.514 -15.662 7.9871998
90.518997 -15.572 7.9622998
90.499001 -15.478 7.9355001
90.421997 -15.373 7.9043002
89.878998 -14.825 7.7375998
89.907997 -14.74 7.7147999
89.958 -14.659 7.6936002
90.015999 -14.579 7.6729999
90.097 -14.503 7.6540999
90.178001 -14.427 7.6350999
90.277 -14.354 7.6174998
90.417999 -14.288 7.6029
90.549004 -14.22 7.5875001
90.799004 -6.5544 5.4656
90.888 -6.4763999 5.4463
90.966003 -6.3976002 5.4264998
91.033997 -6.3178 5.4060998
91.092003 -6.2372999 5.3853002
91.148003 -6.1566 5.3643999
91.195999 -6.0750999 5.3429999
91.233002 -5.9928999 5.3211999
91.260002 -5.9099002 5.2989001
91.276001 -5.8262 5.2761002
91.290001 -5.7423 5.2530999
91.303001 -5.6584001 5.2301998
91.323997 -5.5750999 5.2076001
91.346001 -5.4919 5.1851001
91.370003 -5.4088001 5.1627002
91.396004 -5.3259001 5.1402998
91.426003 -5.2431998 5.1181002
90.344002 -16.177 8.1257
90.310997 -16.143999 8.2102003
90.347 -16.059999 8.1878004
90.386002 -15.976 8.1654997
90.419998 -15.891 8.1429005
90.453003 -15.806 8.1202002
90.481003 -15.72 8.0970001
90.502998 -15.633 8.0733995
90.498001 -15.541 8.0478001
90.463997 -15.444 8.0198002
89.846001 -14.792 7.8211999
89.883003 -14.708 7.7990999
89.945 -14.629 7.7788
90.010002 -14.551 7.7588
90.100998 -14.477 7.7406998
90.188004 -14.402 7.7221999
90.294998 -14.33 7.7052002
90.448997 -14.266 7.6915998
90.667999 -14.212 7.6829
90.734001 -6.5208001 5.546
90.817001 -6.4424 5.5265002
90.903999 -6.3642998 5.5071001
90.978996 -6.2851 5.4871998
91.045998 -6.2052999 5.4668999
91.110001 -6.1251001 5.4463
91.163002 -6.0440998 5.4253001
91.205002 -5.9622002 5.4036002
91.240997 -5.8799 5.3817
91.261002 -5.7964001 5.3590999
91.277 -5.7126999 5.3362999
91.288002 -5.6286998 5.3132
91.306 -5.5451999 5.2905002
91.324997 -5.4617 5.2677999
91.347 -5.3785 5.2452998
91.370003 -5.2953 5.2227998
91.396004 -5.2124 5.2003999
90.273003 -16.110001 8.2943001
90.308998 -16.025999 8.2718
90.348 -15.942 8.2496004
90.386002 -15.858 8.2272997
90.422997 -15.774 8.2048998
90.456001 -15.689 8.1822004
90.484001 -15.603 8.1590996
90.466003 -15.509 8.1323004
89.835999 -14.88 7.8455
89.786003 -14.844 7.9278002
89.808998 -14.758 7.9046001
89.856003 -14.677 7.8832998
89.931 -14.6 7.8639998
90.010002 -14.524 7.8449998
90.108002 -14.451 7.8274999
90.204002 -14.377 7.8097
90.330002 -14.308 7.7941999
90.507004 -14.248 7.7824998
90.767998 -6.4101 5.6076002
90.851997 -6.3316998 5.5882001
90.933998 -6.2530999 5.5686998
91.003998 -6.1735001 5.5485001
91.074997 -6.0939002 5.5283999
91.134003 -6.0132999 5.5077
91.18 -5.9317002 5.4863
91.219002 -5.8495998 5.4645
91.245003 -5.7666001 5.4421
91.264 -5.6830001 5.4194002
91.275002 -5.599 5.3962998
91.290001 -5.5152998 5.3734002
91.307999 -5.4317999 5.3506999
91.327003 -5.3484001 5.3281002
91.347 -5.2651 5.3053999
91.371002 -5.1820002 5.283
90.231003 -16.075001 8.3780003
90.264999 -15.991 8.3554001
90.300003 -15.906 8.3329
90.334 -15.821 8.3101997
90.373001 -15.737 8.2880001
90.407997 -15.653 8.2653999
90.439003 -15.568 8.2426004
89.757004 -14.812 8.0117998
89.793999 -14.729 7.9896002
89.850998 -14.649 7.9691
89.941002 -14.575 7.9510002
90.027 -14.5 7.9327002
90.138 -14.429 7.9162002
90.244003 -14.357 7.8993001
90.384003 -14.29 7.8849001
90.809998 -6.3000002 5.6697998
90.889 -6.2210999 5.6501002
90.966003 -6.1420002 5.6304002
91.042 -6.0627999 5.6104999
91.106003 -5.9826002 5.5900002
91.155998 -5.9013 5.5689001
91.198997 -5.8195 5.5472999
91.227997 -5.7367001 5.5251002
91.249001 -5.6532998 5.5025001
91.262001 -5.5693002 5.4794998
91.275002 -5.4854999 5.4565001
91.292 -5.4018998 5.4337001
91.309998 -5.3183999 5.4109001
91.327003 -5.2349 5.3881998
91.348 -5.1517 5.3656001
90.192001 -16.159 8.4001999
90.139 -16.122 8.4829998
90.175003 -16.038 8.4604998
90.206001 -15.953 8.4377003
90.238998 -15.868 8.415
90.264999 -15.782 8.3916998
90.304001 -15.698 8.3695002
90.324997 -15.611 8.3458004
90.336998 -15.522 8.3214998
89.778999 -14.789 8.0997
89.825996 -14.707 8.0783997
89.896004 -14.63 8.0587997
89.992996 -14.556 8.0414
90.089996 -14.483 8.0239
90.219002 -14.415 8.0088997
90.349998 -14.348 7.994
87.995003 -11.288 6.9769001
87.93 -11.252 7.0555
87.966003 -11.198 6.9510002
87.902 -11.162 7.0296998
87.935997 -11.108 6.9250998
87.874001 -11.073 7.0039001
87.908997 -11.019 6.8994999
87.852997 -10.985 6.9786
87.888 -10.931 6.8741999
87.834 -10.897 6.9534998
87.863998 -10.842 6.8488002
87.811996 -10.809 6.9281998
87.841003 -10.754 6.8235002
87.792999 -10.721 6.9031
87.831001 -10.667 6.7990999
87.782997 -10.634 6.8786001
87.825996 -10.582 6.7750001
87.779999 -10.549 6.8547001
87.822998 -10.496 6.7511001
87.777 -10.463 6.8306999
87.821999 -10.411 6.7273002
87.776001 -10.378 6.8069
87.824997 -10.326 6.7038002
87.777 -10.293 6.7832999
87.830002 -10.242 6.6805
87.780998 -10.209 6.7598
87.834999 -10.158 6.6571999
87.781998 -10.124 6.7361999
87.838997 -10.074 6.6338
87.783997 -10.04 6.7126999
87.843002 -9.9893999 6.6104002
87.785004 -9.9552002 6.6890998
87.846001 -9.9050999 6.5869999
87.785004 -9.8705997 6.6655002
87.850998 -9.8211002 6.5637002
87.788002 -9.7863998 6.6420999
87.860001 -9.7376003 6.5407
87.793999 -9.7025995 6.6188002
87.867996 -9.6541004 6.5177002
87.801003 -9.6189003 6.5956998
87.877998 -9.5707998 6.4947
87.809998 -9.5355997 6.5727
87.890999 -9.4877996 6.4720001
87.820999 -9.4525003 6.5497999
87.903 -9.4048004 6.4492002
87.834 -9.3697004 6.5272002
87.850998 -9.2874002 6.5047002
87.919998 -9.3224001 6.4267001
87.872002 -9.2054996 6.4825001
87.938004 -9.2403002 6.4043999
87.896004 -9.1240997 6.4604998
87.961998 -9.1587 6.3822999
87.920998 -9.0426998 6.4384999
87.987 -9.0773001 6.3604002
87.954002 -8.9623003 6.4171
88.021004 -8.9968996 6.3390002
87.994003 -8.8824997 6.3959999
88.059998 -8.9169998 6.3179002
88.040001 -8.8035002 6.3754001
88.109001 -8.8381996 6.2972999
88.091003 -8.7249002 6.355
88.161003 -8.7596998 6.277
88.153 -8.6473999 6.3353
88.221001 -8.6820002 6.2571001
88.219002 -8.5704002 6.3158002
88.285004 -8.6047001 6.2375002
88.289001 -8.4935999 6.2965002
88.353996 -8.5277996 6.2181001
88.359001 -8.4167995 6.2772002
88.417999 -8.4503002 6.1982999
88.435997 -8.3406 6.2582998
88.491997 -8.3738003 6.1792002
88.516998 -8.2648001 6.2396002
88.568001 -8.2974005 6.1602001
88.605003 -8.1894999 6.2213001
88.653 -8.2219 6.1416998
88.695999 -8.1143999 6.2031002
88.740997 -8.1464996 6.1231999
88.799004 -8.0403996 6.1855998
88.841003 -8.0721998 6.1055002
88.899002 -7.9660001 6.1679001
88.942001 -7.9977999 6.0876999
89.012001 -7.8926001 6.1508999
89.056 -7.9246001 6.0707002
89.133003 -7.8200002 6.1343002
89.177002 -7.8519001 6.0541
89.273003 -7.7487998 6.1188002
89.325996 -7.7817001 6.0388999
89.418999 -7.6781001 6.1034999
90.863998 -6.1907001 5.7326002
90.934998 -6.1111999 5.7126002
91.010002 -6.0317998 5.6926999
91.078003 -5.9519 5.6725001
91.132004 -5.8709002 5.6515002
91.178001 -5.7891998 5.6300998
91.209 -5.7066002 5.6079998
91.234001 -5.6234999 5.5855999
91.249001 -5.5397 5.5626001
91.262001 -5.4558001 5.5395999
91.277 -5.3722 5.5166998
91.293999 -5.2886 5.4938998
91.309998 -5.2049999 5.4710999
91.328003 -5.1216002 5.4482999
90.075996 -16.084 8.5649004
90.108002 -15.998 8.5421
90.134003 -15.912 8.5187998
90.164001 -15.827 8.4959002
90.182999 -15.739 8.4720001
90.209 -15.653 8.4488001
90.210999 -15.563 8.4235001
89.695999 -14.864 8.1182003
89.725998 -14.843 8.2068996
89.818001 -14.769 8.1892004
89.875999 -14.689 8.1687002
89.952003 -14.612 8.1496
90.056 -14.54 8.1328001
90.154999 -14.467 8.1155005
90.319 -14.405 8.1034002
88.093002 -11.791 7.2108998
88.031998 -11.755 7.2901001
88.064003 -11.7 7.1848001
87.998001 -11.664 7.2635999
88.042 -11.611 7.1592002
87.969002 -11.574 7.2374001
88.021004 -11.522 7.1338
87.947998 -11.485 7.2119002
87.994003 -11.432 7.1079001
87.918999 -11.395 7.1859002
87.959999 -11.342 7.0816002
87.888 -11.305 7.1596999
87.857002 -11.215 7.1336002
87.832001 -11.126 7.1078
87.806 -11.037 7.0820999
87.787003 -10.949 7.0570002
87.771004 -10.861 7.0320001
87.750999 -10.773 7.0068002
87.733002 -10.686 6.9816999
87.723999 -10.6 6.9573002
87.718002 -10.514 6.9331999
87.711998 -10.428 6.9089999
87.709999 -10.343 6.8850999
87.709 -10.258 6.8613
87.709999 -10.173 6.8376999
87.709999 -10.088 6.8139
87.710999 -10.004 6.7904
87.710999 -9.9191999 6.7666998
87.710999 -9.8346004 6.743
87.713997 -9.7504997 6.7196002
87.721001 -9.6667995 6.6964002
87.726997 -9.5832005 6.6732998
87.737999 -9.5001001 6.6504002
87.749001 -9.4169998 6.6275001
87.764 -9.3346004 6.6048999
87.780998 -9.2523003 6.5825
87.802002 -9.1704998 6.5602999
87.825996 -9.0890999 6.5383
87.852997 -9.0079002 6.5163999
87.885002 -8.9274998 6.4949999
87.924004 -8.8477001 6.4738998
87.969002 -8.7685003 6.4531999
88.018997 -8.6899004 6.4327998
88.079002 -8.6121998 6.4130001
88.142998 -8.5349998 6.3934002
88.214996 -8.4584999 6.3743
88.288002 -8.382 6.3552999
88.369003 -8.3063002 6.3367
88.454002 -8.2308998 6.3182998
88.543999 -8.1557999 6.3000998
88.638 -8.0811005 6.2821999
88.740997 -8.0071001 6.2648001
88.842003 -7.9327998 6.2472
88.952003 -7.8592 6.2301002
89.067001 -7.7859001 6.2133002
89.204002 -7.7145 6.1977
89.341003 -7.6429 6.1820002
89.473 -7.5707002 6.1659999
89.549004 -7.6055999 6.0872002
89.600998 -7.4977999 6.1497002
89.681999 -7.5331998 6.0711002
89.730003 -7.4249001 6.1334
89.803001 -7.4596 6.0542998
89.834999 -7.3495998 6.1156998
89.900002 -7.3835001 6.0359998
89.915001 -7.2719998 6.0964999
90.086998 -7.1457 5.9752998
90.07 -7.1160002 6.0577998
90.119003 -7.0636001 5.9534001
90.116997 -7.0352001 6.0366998
90.139 -6.9805002 5.9308
90.148003 -6.9531002 6.0148001
90.833 -6.1598001 5.8147001
90.911003 -6.0808001 5.7951002
90.981003 -6.0011001 5.7750001
91.049004 -5.9211998 5.7547998
91.107002 -5.8404002 5.7340999
91.154999 -5.7589002 5.7128
91.190002 -5.6764998 5.6908998
91.217003 -5.5935001 5.6686001
91.235001 -5.5100002 5.6458001
91.249001 -5.4261999 5.6227999
91.265999 -5.3425999 5.5999999
91.282997 -5.2589998 5.5770998
91.295998 -5.1753001 5.5542002
91.311996 -5.0917001 5.5313001
90.042 -16.167999 8.5874004
89.974998 -16.129 8.6688004
90.002998 -16.042999 8.6457996
90.029999 -15.957 8.6225004
90.053001 -15.87 8.5991001
90.077003 -15.784 8.5756998
90.085999 -15.694 8.5509996
90.095001 -15.605 8.5263004
90.082001 -15.512 8.4997997
90.055 -15.416 8.4721003
89.661003 -14.921 8.2268
89.683998 -14.898 8.3149996
89.796997 -14.828 8.2990999
89.899002 -14.756 8.2820997
89.962997 -14.677 8.2622004
90.044998 -14.601 8.2435999
90.158997 -14.531 8.2276001
90.304001 -14.466 8.2140999
88.460999 -12.337 7.4664998
88.417999 -12.304 7.5472999
88.339996 -12.232 7.4333
88.286003 -12.197 7.5131998
88.252998 -12.133 7.4026999
88.189003 -12.097 7.4818001
88.176003 -12.035 7.3727999
88.112 -11.999 7.4519
88.116997 -11.94 7.3443999
88.052002 -11.904 7.4232998
88.067001 -11.846 7.3167
88 -11.81 7.3952999
87.959 -11.718 7.3681998
87.921997 -11.626 7.3414001
87.890999 -11.536 7.3151002
87.865997 -11.447 7.2893
87.838997 -11.357 7.2634001
87.809998 -11.267 7.2372999
87.780998 -11.178 7.2112999
87.759003 -11.089 7.1856999
87.735001 -11 7.1601
87.717003 -10.913 7.1349001
87.700996 -10.825 7.1100001
87.679001 -10.737 7.0846
87.660004 -10.65 7.0595002
87.650002 -10.563 7.0349998
87.641998 -10.477 7.0106001
87.635002 -10.391 6.9863
87.632004 -10.306 6.9624
87.628998 -10.221 6.9383998
87.629997 -10.136 6.9148002
87.628998 -10.051 6.8909998
87.632004 -9.9671001 6.8674998
87.632004 -9.8825998 6.8438001
87.634003 -9.7982998 6.8203001
87.637001 -9.7143002 6.7968998
87.646004 -9.6309004 6.7737999
87.652 -9.5473003 6.7505999
87.664001 -9.4644003 6.7277999
87.676003 -9.3816004 6.7049999
87.692001 -9.2992001 6.6824999
87.709 -9.217 6.6601
87.732002 -9.1355 6.638
87.755997 -9.0539999 6.6160002
87.780998 -8.9728003 6.5941
87.815002 -8.8924999 6.5727
87.852997 -8.8127003 6.5516
87.894997 -8.7333002 6.5307002
87.944 -8.6546001 6.5103002
88.001999 -8.5767002 6.4903998
88.065002 -8.4995003 6.4707999
88.137001 -8.4230003 6.4517999
88.210999 -8.3466997 6.4329
88.293999 -8.2712002 6.4145002
88.382004 -8.1961002 6.3962998
88.475998 -8.1215 6.3785
88.572998 -8.0469999 6.3607998
88.677002 -7.9731998 6.3435001
88.778 -7.8989 6.3260999
88.885002 -7.8249998 6.3088999
88.999001 -7.7515998 6.2919998
89.123001 -7.6789999 6.2758002
89.261002 -7.6076002 6.2603002
89.389999 -7.5351 6.2442002
89.517998 -7.4622998 6.2280002
89.641998 -7.3889999 6.2115998
89.755997 -7.3144999 6.1945
89.846001 -7.2378001 6.1759
89.944 -7.1616998 6.1578002
90.003998 -7.1950998 6.0777998
90.026001 -7.0840001 6.1388001
90.086998 -7.0044999 6.1185002
90.140999 -6.9243002 6.0977998
90.182999 -6.8431001 6.0764999
90.901001 -6.0514002 5.8783002
90.961998 -5.9710002 5.8578
91.026001 -5.8908 5.8375001
91.083 -5.8099999 5.8167
91.133003 -5.7286 5.7955999
91.169998 -5.6464 5.7737999
91.199997 -5.5636001 5.7515001
91.222 -5.4802999 5.7290001
91.237999 -5.3966999 5.7061
91.258003 -5.3133001 5.6834002
91.275002 -5.2297001 5.6606002
91.288002 -5.1458998 5.6374998
91.301003 -5.0622001 5.6145
89.908997 -16.089001 8.7503004
89.931 -16.002001 8.7265997
89.952003 -15.915 8.7028999
89.969002 -15.828 8.6788998
89.987 -15.74 8.6549997
89.984001 -15.649 8.6293001
89.977997 -15.557 8.6033001
89.949997 -15.461 8.5755997
89.911003 -15.363 8.5467997
89.832001 -15.259 8.5148001
89.740997 -14.882 8.4061003
89.866997 -14.814 8.3913002
89.969002 -14.741 8.3745003
90.043999 -14.664 8.3554001
90.129997 -14.589 8.3372002
90.264999 -14.522 8.3228998
90.527 -14.476 8.3190002
88.698997 -12.521 7.6171999
88.646004 -12.486 7.6975999
88.550003 -12.411 7.5815001
88.489998 -12.375 7.6613002
88.346001 -12.266 7.6261001
88.211998 -12.16 7.5915999
88.116997 -12.059 7.5602002
88.040001 -11.961 7.5303001
87.980003 -11.866 7.5015998
87.926003 -11.772 7.4734001
87.882004 -11.68 7.4460001
87.838997 -11.588 7.4187002
87.806999 -11.497 7.3923001
87.782997 -11.408 7.3664999
87.755997 -11.319 7.3404999
87.724998 -11.229 7.3143001
87.697998 -11.139 7.2883
87.676003 -11.051 7.2628002
87.655998 -10.963 7.2375002
87.637001 -10.875 7.2122002
87.622002 -10.788 7.1872001
87.599998 -10.7 7.1617999
87.582001 -10.612 7.1367002
