# .PCD v0.7 - Point Cloud Data file format
VERSION 0.7
FIELDS x y z
SIZE 4 4 4
TYPE F F F
COUNT 1 1 1
WIDTH 1813
HEIGHT 1
VIEWPOINT 0 0 0 1 0 0 0
POINTS 1813
DATA ascii
87.311996 -6.7140999 10.175
87.236 -6.6243 10.142
87.146004 -6.5335999 10.108
87.061996 -6.4435 10.074
86.976997 -6.3536 10.041
86.893997 -6.2639999 10.007
86.814003 -6.1750002 9.9743004
86.738998 -6.0865998 9.9419003
86.674004 -5.9991002 9.9105997
86.620003 -5.9127002 9.8804998
86.579002 -5.8273001 9.8516998
86.552002 -5.7431998 9.8243999
86.540001 -5.6602001 9.7987003
86.537003 -5.5780001 9.7740002
86.544998 -5.4966998 9.7504997
86.559998 -5.4158001 9.7276001
86.581001 -5.3354001 9.7054005
86.570999 -5.2529001 9.6800003
86.453003 -5.1633 9.6437998
85.221001 -4.7595 9.4232998
84.969002 -4.6637001 9.3743
84.829002 -4.5753002 9.3366003
84.736 -4.4899998 9.3036003
84.667 -4.4064002 9.2730999
84.635002 -4.3252001 9.2462997
84.593002 -4.2435002 9.2186003
84.558998 -4.1623998 9.1917
84.531998 -4.0818 9.1654997
84.516998 -4.0019002 9.1405001
84.503998 -3.9223001 9.1156998
84.498001 -3.8431001 9.0916004
84.5 -3.7643001 9.0684004
84.568001 -3.6889999 9.0515003
84.661003 -3.6148 9.0369997
84.776001 -3.5416 9.0244999
84.907997 -3.4690001 9.0136995
85.089996 -3.3985 9.0073996
85.254997 -3.3269999 8.9996004
85.428001 -3.2556 8.9924002
85.598 -3.1838 8.9848003
85.769997 -3.1117001 8.9773998
85.903999 -3.0378001 8.9663
86.027 -2.9633 8.9540997
86.148003 -2.8885 8.9417
86.264 -2.8132999 8.9287004
86.376999 -2.7377999 8.9153996
86.472 -2.6616001 8.9005003
86.550003 -2.5845001 8.8838997
86.624001 -2.5072999 8.8669004
86.694 -2.4298 8.8494997
86.754997 -2.3519001 8.8312998
86.167 -15.418 12.673
86.030998 -15.366 12.74
86.040001 -15.279 12.715
86.042999 -15.191 12.689
86.028999 -15.1 12.661
86.000999 -15.006 12.631
85.956001 -14.91 12.598
85.897003 -14.811 12.564
85.842003 -14.713 12.53
85.778 -14.614 12.495
85.723999 -14.516 12.462
85.681999 -14.421 12.43
85.647003 -14.327 12.399
85.619003 -14.235 12.369
85.594002 -14.143 12.34
85.570999 -14.052 12.311
85.543999 -13.96 12.281
85.510002 -13.867 12.251
85.470001 -13.773 12.22
85.425003 -13.679 12.188
85.374001 -13.584 12.155
85.320999 -13.488 12.122
85.263 -13.392 12.089
85.206001 -13.296 12.055
85.143997 -13.199 12.022
85.046997 -13.097 11.983
84.959 -12.997 11.946
84.832001 -12.891 11.904
84.708 -12.785 11.862
84.418999 -12.764 11.741
84.574997 -12.678 11.819
84.262001 -12.654 11.696
84.407997 -12.566 11.772
82.103996 -11.458 11.252
81.995003 -11.359 11.214
81.927002 -11.267 11.181
81.872002 -11.178 11.149
81.829002 -11.09 11.12
81.828003 -11.008 11.095
81.822998 -10.926 11.07
81.847 -10.848 11.049
81.871002 -10.77 11.028
81.929001 -10.697 11.011
81.987999 -10.624 10.994
82.043999 -10.55 10.977
82.105003 -10.477 10.96
82.174004 -10.405 10.944
82.240997 -10.333 10.928
82.319 -10.262 10.913
82.402 -10.192 10.899
82.495003 -10.123 10.886
82.586998 -10.054 10.873
82.678001 -9.9842997 10.86
82.762001 -9.9137001 10.846
82.846001 -9.8430004 10.832
82.920998 -9.7709999 10.816
82.988998 -9.698 10.8
83.043999 -9.6233997 10.782
83.095001 -9.5481997 10.764
83.139999 -9.4722004 10.745
83.18 -9.3955002 10.726
83.224998 -9.3195 10.707
83.266998 -9.2431002 10.688
83.364998 -9.1731997 10.675
83.485001 -9.1058998 10.665
83.627998 -9.0410004 10.657
83.792 -8.9785004 10.652
83.958 -8.9158001 10.647
84.135002 -8.8542004 10.643
84.362999 -8.7980003 10.645
84.609001 -8.7434998 10.649
84.888 -8.6920996 10.657
85.119003 -8.6350002 10.659
85.317001 -8.5739002 10.657
85.573997 -8.5187998 10.662
85.769997 -8.4568005 10.659
85.982002 -8.3959999 10.659
86.188004 -8.3343 10.657
86.369003 -8.2694998 10.653
86.551003 -8.2047005 10.649
86.725998 -8.1387997 10.643
86.889999 -8.0714998 10.637
87.045998 -8.0031004 10.629
87.192001 -7.9334002 10.62
87.309998 -7.8607998 10.609
87.407997 -7.7860999 10.594
87.476997 -7.7083998 10.577
87.532997 -7.6293998 10.558
87.57 -7.5486002 10.537
87.585999 -7.4657001 10.514
87.575996 -7.3806 10.487
87.555 -7.2944999 10.46
87.527 -7.2077999 10.432
87.487 -7.1202002 10.402
87.433998 -7.0314999 10.372
87.379997 -6.9431 10.341
87.319 -6.8541002 10.309
87.254997 -6.7649999 10.277
87.184998 -6.6756001 10.245
87.110001 -6.586 10.212
87.028 -6.4960999 10.179
86.945 -6.4061999 10.145
86.862 -6.3165998 10.111
86.778999 -6.2272 10.078
86.697998 -6.1381998 10.045
86.625 -6.0500998 10.012
86.565002 -5.9629998 9.9813995
86.516998 -5.8772001 9.9518995
86.485001 -5.7926002 9.9240999
86.466003 -5.7090998 9.8976002
86.461998 -5.6269002 9.8727999
86.468002 -5.5453 9.8488998
86.485001 -5.4647002 9.8262997
86.505997 -5.3843002 9.8041
86.531998 -5.3042998 9.7824001
86.551003 -5.2238002 9.7600002
86.473 -5.1368999 9.7276001
86.335999 -5.0462999 9.6892996
85.225998 -4.6522999 9.4804001
85.066002 -4.5623999 9.4404001
84.936996 -4.4748001 9.4036999
84.813004 -4.3878002 9.3676004
84.764999 -4.3055 9.3389997
84.702003 -4.2224998 9.3091002
84.655998 -4.1406002 9.2809
84.615997 -4.0591998 9.2532997
84.593002 -3.9788001 9.2275
84.575996 -3.8989 9.2023001
84.567001 -3.8195 9.1779003
84.573997 -3.7409 9.1548996
84.639999 -3.6652999 9.1379004
84.731003 -3.5908999 9.1232004
84.843002 -3.5174999 9.1106005
84.973999 -3.4447 9.0995998
85.139 -3.3733001 9.0918999
85.322998 -3.3025999 9.0860004
85.501999 -3.2312 9.0795002
85.690002 -3.1601 9.0738001
85.855003 -3.0876 9.0657997
85.989998 -3.0136001 9.0549002
86.112 -2.9389 9.0425997
86.227997 -2.8636999 9.0298004
86.341003 -2.7883 9.0165997
86.439003 -2.7121999 9.0019999
86.527 -2.6355 8.9863005
86.599998 -2.5581999 8.9693003
86.672997 -2.4807999 8.9523001
86.738998 -2.4031 8.9345999
86.791 -2.3248999 8.9154997
86.014999 -15.451 12.765
85.866997 -15.397 12.83
85.891998 -15.313 12.807
85.908997 -15.228 12.783
85.912003 -15.14 12.757
85.898003 -15.049 12.729
85.866997 -14.956 12.698
85.825996 -14.86 12.666
85.764 -14.761 12.631
85.716003 -14.664 12.598
85.662003 -14.566 12.565
85.610001 -14.469 12.531
85.57 -14.375 12.5
85.535004 -14.281 12.469
85.502998 -14.188 12.439
85.474998 -14.096 12.409
85.449997 -14.005 12.379
85.421997 -13.913 12.35
85.386002 -13.82 12.319
85.344002 -13.726 12.287
85.305 -13.632 12.256
85.255997 -13.537 12.224
85.211998 -13.443 12.192
85.165001 -13.349 12.16
85.113998 -13.255 12.127
85.061996 -13.16 12.095
85.004997 -13.064 12.061
84.948997 -12.969 12.029
84.862999 -12.87 11.992
84.782997 -12.771 11.955
84.695999 -12.671 11.918
84.574997 -12.567 11.877
84.458 -12.463 11.836
84.231003 -12.453 11.724
84.315002 -12.356 11.792
84.037003 -12.338 11.674
84.170998 -12.248 11.748
82.130997 -11.272 11.287
82.024002 -11.175 11.249
81.927002 -11.079 11.212
81.880997 -10.99 11.182
81.835999 -10.902 11.152
81.815002 -10.818 11.125
81.815002 -10.737 11.101
81.830002 -10.657 11.078
81.848 -10.579 11.056
81.866997 -10.5 11.034
81.919998 -10.426 11.017
81.964996 -10.351 10.998
82.019997 -10.278 10.981
82.096001 -10.207 10.966
82.184998 -10.138 10.953
82.295998 -10.071 10.942
82.416 -10.006 10.933
82.541 -9.9406996 10.924
82.653 -9.8739004 10.913
82.761002 -9.8062 10.902
82.861 -9.7376003 10.89
82.955002 -9.6679001 10.877
83.033997 -9.5962 10.862
83.091003 -9.5218 10.844
83.140999 -9.4463997 10.826
83.184998 -9.3701 10.807
83.235001 -9.2945995 10.789
83.311996 -9.2222996 10.773
83.453003 -9.1576004 10.766
83.623001 -9.0960999 10.762
83.819 -9.0372 10.76
84 -8.9764004 10.757
84.221001 -8.9197998 10.759
84.431999 -8.8615999 10.759
84.75 -8.8153 10.772
85.110001 -8.7729998 10.789
85.289001 -8.71 10.786
85.489998 -8.6491003 10.784
85.614998 -8.5796003 10.774
85.772003 -8.5131998 10.767
85.932999 -8.4471998 10.761
86.097 -8.3810997 10.755
86.251999 -8.3137999 10.748
86.397003 -8.2453003 10.739
86.538002 -8.1759996 10.73
86.688004 -8.1075001 10.722
86.816002 -8.0365 10.712
86.936996 -7.9646001 10.701
87.033997 -7.8902001 10.686
87.115997 -7.8140998 10.671
87.193001 -7.7375002 10.654
87.255997 -7.6594 10.636
87.307999 -7.5802999 10.617
87.342003 -7.4994001 10.596
87.366997 -7.4175 10.573
87.371002 -7.3339 10.549
87.367996 -7.2495999 10.523
87.348 -7.1637998 10.496
87.322998 -7.0777998 10.468
87.286003 -6.9906998 10.439
87.246002 -6.9036002 10.41
87.194 -6.8154998 10.379
87.137001 -6.7272 10.348
87.071999 -6.6382999 10.316
87.003998 -6.5493999 10.284
86.929001 -6.4601002 10.251
86.848 -6.3706002 10.217
86.767998 -6.2814002 10.184
86.684998 -6.1921 10.15
86.607002 -6.1034002 10.117
86.535004 -6.0153999 10.085
86.477997 -5.9287 10.055
86.435997 -5.8434 10.026
86.408997 -5.7593002 9.9982004
86.397003 -5.6764002 9.9724998
86.400002 -5.5946999 9.9483004
86.411003 -5.5135999 9.9250002
86.435997 -5.4334998 9.9032001
86.461998 -5.3534999 9.8815002
86.491997 -5.2737999 9.8601999
86.514 -5.1935 9.8381004
86.466003 -5.1086998 9.8087997
86.364998 -5.0205002 9.7740002
86.239998 -4.9309001 9.7368002
85.473999 -4.6402001 9.5861998
85.294998 -4.5489998 9.5439997
85.140999 -4.4597001 9.5045004
85.012001 -4.3722 9.4675999
84.922997 -4.2873001 9.4348001
84.827003 -4.2023001 9.4013996
84.764999 -4.1194 9.3715
84.709999 -4.0370998 9.3423996
84.675003 -3.9559 9.3151999
84.652 -3.8756001 9.2894001
84.643997 -3.7962 9.2650003
84.654999 -3.7177 9.2424002
84.720001 -3.642 9.2252998
84.809998 -3.5675001 9.2105999
84.922997 -3.4939001 9.198
85.052002 -3.4209001 9.1870003
85.217003 -3.3494 9.1794004
85.416 -3.2790999 9.1750002
85.606003 -3.2082 9.1696997
85.776001 -3.1359999 9.1624002
85.940002 -3.0632999 9.1542997
86.073997 -2.9892001 9.1434002
86.195 -2.9143 9.1310997
86.307999 -2.8389001 9.1181002
86.414001 -2.7630999 9.1042995
86.509003 -2.6867001 9.0894003
86.587997 -2.6096001 9.073
86.660004 -2.5322001 9.0558996
86.727997 -2.4545 9.0382996
86.787003 -2.3764999 9.0200005
86.831001 -2.2980001 9.0003004
85.842003 -15.48 12.853
85.697998 -15.427 12.918
85.725998 -15.344 12.896
85.749001 -15.26 12.872
85.758003 -15.173 12.847
85.757004 -15.085 12.821
85.730003 -14.992 12.791
85.690002 -14.897 12.759
85.638 -14.799 12.725
85.584999 -14.702 12.692
85.538002 -14.605 12.659
85.496002 -14.51 12.627
85.459 -14.416 12.596
85.422997 -14.322 12.565
85.393997 -14.23 12.535
85.362999 -14.137 12.504
85.336998 -14.046 12.475
85.309998 -13.954 12.445
85.277 -13.862 12.415
85.245003 -13.769 12.384
85.206001 -13.676 12.353
85.172997 -13.584 12.323
85.133003 -13.49 12.291
85.093002 -13.397 12.26
85.050003 -13.304 12.229
85.005997 -13.21 12.197
84.957001 -13.116 12.165
84.907997 -13.022 12.133
84.857002 -12.928 12.1
84.807999 -12.834 12.068
84.755997 -12.741 12.036
84.709999 -12.648 12.004
84.636002 -12.551 11.969
84.560997 -12.454 11.933
84.468002 -12.354 11.896
84.370003 -12.254 11.857
84.267998 -12.153 11.819
84.025002 -12.141 11.704
84.142998 -12.049 11.777
83.855003 -12.031 11.657
84.004997 -11.944 11.734
82.125 -11.082 11.317
82.051003 -10.99 11.284
81.953003 -10.894 11.247
81.894997 -10.804 11.215
81.844002 -10.715 11.184
81.818001 -10.63 11.157
81.797997 -10.546 11.13
81.785004 -10.464 11.104
81.793999 -10.384 11.081
81.801003 -10.304 11.057
81.834 -10.227 11.037
81.903 -10.155 11.022
82.005997 -10.088 11.01
82.110001 -10.021 10.999
82.237999 -9.9567003 10.991
82.384003 -9.8944998 10.984
82.501999 -9.8284998 10.975
82.670998 -9.7688999 10.971
82.801003 -9.7040005 10.963
82.926003 -9.6382999 10.954
83.014 -9.5677996 10.94
83.077003 -9.4940996 10.923
83.132004 -9.4193001 10.906
83.18 -9.3435001 10.887
83.235001 -9.2686005 10.869
83.355003 -9.2013998 10.859
83.556999 -9.1437998 10.859
83.759003 -9.0858002 10.859
84.004997 -9.0326996 10.864
84.265999 -8.9807997 10.87
84.513 -8.9267998 10.875
84.919998 -8.8906002 10.899
85.297997 -8.8505001 10.919
85.498001 -8.7896004 10.917
85.606003 -8.7182999 10.905
85.698997 -8.6450996 10.891
85.797997 -8.5725002 10.878
85.894997 -8.4995003 10.864
86.007004 -8.4279003 10.852
86.123001 -8.3566999 10.841
86.235001 -8.2847996 10.829
86.348 -8.2129002 10.817
86.452003 -8.1398001 10.804
86.554001 -8.0664997 10.79
86.647003 -7.9920998 10.776
86.738998 -7.9173999 10.762
86.820999 -7.8415999 10.746
86.894997 -7.7649999 10.729
86.971001 -7.6883998 10.713
87.028999 -7.6100998 10.694
87.086998 -7.5316 10.676
87.128998 -7.4517002 10.655
87.164001 -7.3709998 10.634
87.181 -7.2887001 10.611
87.191002 -7.2056999 10.587
87.186996 -7.1216002 10.562
87.172997 -7.0366998 10.535
87.150002 -6.9510002 10.507
87.122002 -6.8649998 10.479
87.079002 -6.7779002 10.45
87.029999 -6.6903 10.419
86.975998 -6.6025 10.389
86.915001 -6.5142999 10.357
86.844002 -6.4254999 10.325
86.766998 -6.3364 10.291
86.691002 -6.2474999 10.258
86.610001 -6.1585002 10.225
86.530998 -6.0697999 10.192
86.463997 -5.9822998 10.16
86.411003 -5.8961 10.13
86.372002 -5.8109999 10.101
86.349998 -5.7273002 10.074
86.344002 -5.6448998 10.049
86.351997 -5.5636001 10.025
86.367996 -5.4829001 10.003
86.398003 -5.4031 9.9812002
86.428001 -5.3235002 9.96
86.460999 -5.244 9.9390001
86.484001 -5.1637998 9.9169998
86.461998 -5.0806999 9.8902998
86.389999 -4.9942999 9.8584003
86.296997 -4.9068999 9.8243999
86.167 -4.8172998 9.7866001
86.064003 -4.8385 9.6946001
86.000999 -4.7259002 9.7453003
85.804001 -4.6329002 9.7009001
85.557999 -4.5373998 9.6514997
85.336998 -4.4439001 9.6049004
85.190002 -4.3551998 9.566
85.086998 -4.2694001 9.5316
84.991997 -4.1842999 9.4981003
84.890999 -4.0991001 9.4642
84.810997 -4.0152998 9.4323997
84.764999 -3.9335001 9.4040003
84.730003 -3.8524001 9.3767996
84.719002 -3.7727001 9.3521004
84.732002 -3.6942999 9.3297005
84.794998 -3.6184001 9.3123999
84.884003 -3.5436001 9.2974997
84.997002 -3.47 9.2851
85.132004 -3.3971 9.2747002
85.292999 -3.3253 9.2667999
85.521004 -3.2562001 9.2655001
85.694 -3.1842999 9.2586002
85.862 -3.1119001 9.2511997
86.024002 -3.039 9.243
86.157997 -2.9647 9.2320995
86.277 -2.8896 9.2198
86.389 -2.8139999 9.2066002
86.492996 -2.7379999 9.1927996
86.582001 -2.6612999 9.1773005
86.656998 -2.5840001 9.1604996
86.724998 -2.5063 9.1430998
86.789001 -2.4284 9.1252003
86.841003 -2.3501 9.1062002
86.880997 -2.2713001 9.0860004
85.547997 -15.372 12.982
85.574997 -15.289 12.96
85.587997 -15.203 12.935
85.580002 -15.114 12.908
85.571999 -15.024 12.88
85.537003 -14.93 12.849
85.499001 -14.835 12.817
85.444 -14.737 12.783
85.402 -14.642 12.751
85.361 -14.547 12.719
85.329002 -14.454 12.689
85.300003 -14.361 12.659
85.271004 -14.269 12.628
85.248001 -14.178 12.599
85.221001 -14.086 12.569
85.192001 -13.994 12.539
85.167999 -13.903 12.51
85.138 -13.811 12.48
85.105003 -13.719 12.45
85.071999 -13.627 12.419
85.039001 -13.535 12.389
85.003998 -13.442 12.358
84.969002 -13.35 12.328
84.928001 -13.257 12.296
84.885002 -13.164 12.265
84.841003 -13.071 12.233
84.791 -12.977 12.201
84.746002 -12.884 12.169
84.694 -12.79 12.136
84.647003 -12.697 12.105
84.607002 -12.605 12.074
84.570999 -12.514 12.043
84.540001 -12.424 12.014
84.484001 -12.33 11.981
84.422997 -12.236 11.947
84.362999 -12.142 11.914
84.278 -12.044 11.878
84.182999 -11.945 11.84
84.046997 -11.84 11.797
83.821999 -11.832 11.685
83.911003 -11.735 11.754
83.640999 -11.721 11.636
83.733002 -11.625 11.706
82.146004 -10.896 11.352
82.060997 -10.802 11.316
81.985001 -10.71 11.282
81.916 -10.619 11.249
81.851997 -10.529 11.217
81.792 -10.439 11.185
81.752998 -10.353 11.155
81.725998 -10.268 11.128
81.711998 -10.185 11.102
81.761002 -10.111 11.084
81.839996 -10.041 11.069
81.928001 -9.9714003 11.056
82.082001 -9.9106998 11.051
82.235001 -9.8494997 11.046
82.393997 -9.7889004 11.041
82.560997 -9.7291002 11.038
82.741997 -9.6707001 11.036
82.885002 -9.6072998 11.029
82.987 -9.5384998 11.017
83.057999 -9.4657001 11.002
83.120003 -9.3916998 10.985
83.171997 -9.3164997 10.967
83.234001 -9.2424002 10.95
83.387001 -9.1791 10.944
83.649002 -9.1285 10.951
83.904999 -9.0768003 10.958
84.218002 -9.0311003 10.971
85.093002 -8.9666996 11.026
85.379997 -8.9161997 11.036
85.555 -8.8525 11.032
85.690002 -8.7841997 11.023
85.737 -8.7058001 11.003
85.801003 -8.6292 10.986
85.866997 -8.5529003 10.969
85.929001 -8.4759998 10.951
86.081001 -8.3250999 10.919
86.142998 -8.2479 10.901
86.222 -8.1724997 10.885
86.291 -8.0960999 10.868
86.370003 -8.0205002 10.852
86.444 -7.9442 10.836
86.514999 -7.8677001 10.819
86.595001 -7.7918 10.803
86.664001 -7.7149 10.786
86.737999 -7.6384001 10.77
86.806 -7.5612001 10.752
86.870003 -7.4835 10.735
86.918999 -7.4043999 10.715
86.969002 -7.3253002 10.696
86.998001 -7.2442999 10.674
87.023003 -7.1629 10.652
87.036003 -7.0802999 10.628
87.036003 -6.9967999 10.603
87.025002 -6.9123001 10.577
87.009003 -6.8274999 10.55
86.974998 -6.7412 10.521
86.940002 -6.6550002 10.493
86.894997 -6.5679998 10.463
86.843002 -6.4805999 10.432
86.774002 -6.3920999 10.4
86.703003 -6.3034 10.367
86.629997 -6.2149 10.334
86.550003 -6.1261001 10.301
86.472 -6.0374999 10.268
86.410004 -5.9505 10.236
86.361 -5.8646002 10.207
86.324997 -5.7797999 10.178
86.307999 -5.6966 10.152
86.307999 -5.6146002 10.127
86.320999 -5.5337 10.104
86.339996 -5.4531999 10.082
86.373001 -5.3737998 10.061
86.405998 -5.2943001 10.04
86.439003 -5.2147999 10.019
86.461998 -5.1345 9.9967003
86.460999 -5.0528002 9.9721003
86.411003 -4.9678998 9.9424
86.344002 -4.8821998 9.9110003
86.248001 -4.7947001 9.8766003
86.124001 -4.7058001 9.8394003
85.968002 -4.6153002 9.7989998
85.796997 -4.5240998 9.7571001
85.580002 -4.4306998 9.7105999
85.370003 -4.3382001 9.6648998
85.25 -4.2512999 9.6286001
85.136002 -4.1648998 9.5930996
85.033997 -4.0795999 9.5587997
84.938004 -3.9948001 9.5251999
84.875 -3.9119 9.4949999
84.816002 -3.8295 9.4652996
84.801003 -3.7495 9.4399996
84.811996 -3.6709001 9.4174995
84.874001 -3.5948 9.3999996
84.961998 -3.52 9.3851995
85.078003 -3.4463 9.3731003
85.212997 -3.3733001 9.3627005
85.441002 -3.3044 9.3615999
85.611 -3.2325001 9.3546
85.783997 -3.1605 9.3479004
85.950996 -3.0878999 9.3404999
86.110001 -3.0146999 9.3320999
86.247002 -2.9403 9.3216
86.363998 -2.865 9.3091002
86.473999 -2.7893 9.2958002
86.573997 -2.7130001 9.2816
86.654999 -2.6357999 9.2653999
86.724998 -2.5581999 9.2482004
86.788002 -2.4802999 9.2302999
86.847 -2.4022 9.2118998
86.893997 -2.3236001 9.1924
85.508003 -15.453 13.003
85.371002 -15.4 13.069
85.391998 -15.316 13.045
85.406998 -15.231 13.021
85.415001 -15.145 12.996
85.407997 -15.056 12.969
85.389 -14.964 12.94
85.352997 -14.87 12.908
85.306 -14.774 12.875
85.257004 -14.677 12.842
85.221001 -14.583 12.811
85.190002 -14.49 12.78
85.167 -14.399 12.751
85.137001 -14.306 12.721
85.117996 -14.216 12.692
85.098 -14.125 12.663
85.075996 -14.035 12.634
85.054001 -13.944 12.605
85.028999 -13.853 12.575
85.000999 -13.762 12.546
84.969002 -13.67 12.515
84.939003 -13.578 12.485
84.910004 -13.487 12.455
84.874001 -13.394 12.425
84.837997 -13.302 12.394
84.799004 -13.21 12.363
84.758003 -13.117 12.331
84.710999 -13.024 12.299
84.664001 -12.93 12.267
84.612 -12.836 12.235
84.565002 -12.743 12.203
84.523003 -12.651 12.171
84.486 -12.56 12.141
84.456001 -12.47 12.111
84.43 -12.381 12.082
84.407997 -12.292 12.054
84.385002 -12.204 12.025
84.365997 -12.116 11.998
84.316002 -12.024 11.966
84.261002 -11.931 11.933
84.167999 -11.832 11.895
84.074997 -11.734 11.858
83.944 -11.63 11.815
83.796997 -11.525 11.771
83.542 -11.513 11.656
83.632004 -11.417 11.724
81.996002 -10.523 11.315
81.913002 -10.43 11.28
81.852997 -10.341 11.248
81.805 -10.253 11.218
81.766998 -10.167 11.188
81.803001 -10.091 11.169
81.870003 -10.019 11.153
81.955002 -9.9493999 11.139
82.084999 -9.8855 11.132
82.238998 -9.8243999 11.127
82.390999 -9.7628002 11.121
82.610001 -9.7095003 11.124
85.348 -8.9689999 11.14
85.513 -8.9042997 11.134
85.660004 -8.8374004 11.127
85.787003 -8.7679996 11.117
85.82 -8.6878996 11.096
85.865997 -8.5256996 11.052
85.890999 -8.4448996 11.03
85.913002 -8.3635998 11.007
85.945999 -8.2837 10.986
85.988998 -8.2047005 10.966
86.042999 -8.1267996 10.947
86.096001 -8.0488997 10.929
86.164001 -7.9721999 10.912
86.227997 -7.8951998 10.894
86.291 -7.8181 10.876
86.364998 -7.7419 10.86
86.438004 -7.6655002 10.843
86.513 -7.5892 10.827
86.584999 -7.5125999 10.81
86.657997 -7.4359999 10.794
86.722 -7.3583999 10.776
86.787003 -7.2809 10.758
86.830002 -7.2013001 10.738
86.869003 -7.1213002 10.718
86.893997 -7.04 10.695
86.908997 -6.9579 10.672
86.905998 -6.8741999 10.647
86.903 -6.7905998 10.621
86.884003 -6.7056999 10.594
86.859001 -6.6205001 10.567
86.822998 -6.5342999 10.538
86.778 -6.4475999 10.508
86.716003 -6.3597002 10.476
86.649002 -6.2715001 10.444
86.579002 -6.1831999 10.411
86.501999 -6.0946999 10.378
86.429001 -6.0065999 10.345
86.369003 -5.9197001 10.314
86.321999 -5.8340001 10.284
86.288002 -5.7494001 10.256
86.275002 -5.6665001 10.23
86.279999 -5.5848999 10.206
86.296997 -5.5043001 10.184
86.319 -5.4240999 10.161
86.355003 -5.3446999 10.141
86.389 -5.2652998 10.12
86.421997 -5.1858001 10.099
86.443001 -5.1055002 10.077
86.458 -5.0247998 10.054
86.426003 -4.9411001 10.026
86.379997 -4.8566999 9.9966002
86.309998 -4.7708001 9.9649
86.219002 -4.6838999 9.9308996
86.101997 -4.5956998 9.8943996
85.956001 -4.506 9.8548002
85.797997 -4.4159002 9.8141003
85.595001 -4.3235998 9.7688999
85.406998 -4.2326999 9.7254
85.286003 -4.1458001 9.6889
85.171997 -4.0597 9.6532001
85.07 -3.9744999 9.6189003
84.996002 -3.891 9.5874996
84.929001 -3.8080001 9.5566998
84.902 -3.7272999 9.5302
84.903 -3.648 9.5066004
84.962997 -3.5718 9.4889002
85.052002 -3.4967999 9.4741001
85.168999 -3.4230001 9.4622002
85.327003 -3.3510001 9.4541998
85.532997 -3.2809 9.4511003
85.702003 -3.2086999 9.4441004
85.870003 -3.1363001 9.4369001
86.039001 -3.0637 9.4299002
86.197998 -2.9904001 9.4216003
86.329002 -2.9157 9.4105997
86.446999 -2.8401999 9.3982
86.557999 -2.7644 9.3851004
86.650002 -2.6877 9.3701
86.727997 -2.6103001 9.3536997
86.789001 -2.5323 9.3355999
86.846001 -2.4540999 9.3170996
86.900002 -2.3757 9.2981997
85.334999 -15.481 13.09
85.207001 -15.431 13.157
85.232002 -15.348 13.134
85.247002 -15.263 13.11
85.253998 -15.176 13.084
85.252998 -15.088 13.058
85.239998 -14.998 13.03
85.216003 -14.906 13
85.165001 -14.809 12.966
85.123001 -14.714 12.934
85.080002 -14.619 12.902
85.049004 -14.526 12.871
85.028 -14.435 12.842
85.009003 -14.344 12.813
84.992996 -14.254 12.785
84.981003 -14.165 12.757
84.966003 -14.076 12.729
84.949997 -13.986 12.701
84.927002 -13.896 12.672
84.904999 -13.805 12.642
84.876999 -13.714 12.613
84.848 -13.623 12.583
84.816002 -13.531 12.552
84.783997 -13.439 12.522
84.748001 -13.347 12.491
84.711998 -13.255 12.461
84.671997 -13.163 12.429
84.626999 -13.069 12.397
84.577003 -12.975 12.365
84.526001 -12.882 12.332
84.476997 -12.788 12.3
84.43 -12.695 12.268
84.389 -12.604 12.237
84.355003 -12.513 12.207
84.329002 -12.424 12.178
84.307999 -12.336 12.149
84.289001 -12.248 12.121
84.272003 -12.16 12.093
84.261002 -12.074 12.067
84.244003 -11.987 12.039
84.225998 -11.899 12.011
84.178001 -11.808 11.979
84.124001 -11.715 11.947
84.030998 -11.617 11.909
83.935997 -11.519 11.872
83.814003 -11.417 11.83
83.688004 -11.315 11.789
83.459999 -11.308 11.677
83.549004 -11.212 11.745
81.929001 -10.245 11.313
81.873001 -10.156 11.282
81.896004 -10.078 11.26
81.953003 -10.004 11.243
82.028999 -9.9335003 11.229
82.156998 -9.8691998 11.221
82.288002 -9.8050003 11.213
85.429001 -8.9513998 11.232
85.570999 -8.8838997 11.224
85.693001 -8.8141003 11.214
85.727997 -8.4003 11.093
85.747002 -8.3190002 11.07
85.775002 -8.2385998 11.049
85.814003 -8.1592999 11.028
85.850998 -8.0798998 11.008
85.896004 -8.0011997 10.988
85.950996 -7.9236002 10.97
86.009003 -7.8460999 10.951
86.079002 -7.7697001 10.935
86.151001 -7.6936002 10.918
86.228996 -7.6178002 10.902
86.310997 -7.5423999 10.887
86.389999 -7.4667001 10.871
86.471001 -7.3909001 10.855
86.544998 -7.3144002 10.839
86.616997 -7.2377 10.822
86.672997 -7.1594 10.804
86.725998 -7.0808001 10.785
86.761002 -7.0005999 10.764
86.788002 -6.9196 10.742
86.800003 -6.8372998 10.718
86.807999 -6.7547998 10.694
86.801003 -6.671 10.668
86.788002 -6.5868001 10.642
86.762001 -6.5015998 10.614
86.723999 -6.4155002 10.585
86.668999 -6.3281002 10.554
86.607002 -6.2403998 10.522
86.542 -6.1525998 10.49
86.468002 -6.0643001 10.457
86.396004 -5.9763999 10.424
86.338997 -5.8898001 10.393
86.292999 -5.8042002 10.364
86.262001 -5.7199001 10.336
86.252998 -5.6373 10.31
86.261002 -5.5559001 10.286
86.281998 -5.4755001 10.264
86.306 -5.3954 10.242
86.342003 -5.3161998 10.221
86.376999 -5.2368002 10.201
86.410004 -5.1571999 10.18
86.428001 -5.0767999 10.157
86.440002 -4.9959002 10.134
86.421997 -4.9130998 10.108
86.391998 -4.8295999 10.08
86.341003 -4.7449999 10.05
86.273003 -4.6595001 10.018
86.182999 -4.5728998 9.9844999
86.07 -4.4850998 9.9482002
85.931 -4.3961 9.9094
85.789001 -4.3072 9.8702002
85.601997 -4.2161002 9.8264999
85.43 -4.1262999 9.7845001
85.310997 -4.0397 9.7480001
85.199997 -3.9539001 9.7125998
85.114998 -3.8697 9.6799002
85.042999 -3.7864001 9.6485996
85.011002 -3.7053001 9.6213999
85.011002 -3.6259 9.5976
85.070999 -3.5495 9.5798998
85.160004 -3.4744 9.5651999
85.292999 -3.4013 9.5549002
85.461998 -3.3295 9.5482998
85.623001 -3.2572 9.5405998
85.788002 -3.1847 9.5333996
85.959 -3.1122999 9.5265999
86.128998 -3.0395 9.5197001
86.282997 -2.9658999 9.5110998
86.414001 -2.891 9.5001001
86.531998 -2.8155 9.4877996
86.634003 -2.7392001 9.4737997
86.723999 -2.6622 9.4586
86.790001 -2.5843999 9.441
86.845001 -2.506 9.4224005
86.900002 -2.4275999 9.4036999
86.948997 -2.349 9.3844004
85.166 -15.511 13.177
85.063004 -15.465 13.247
85.089996 -15.383 13.225
85.103996 -15.297 13.201
85.110001 -15.211 13.175
85.109001 -15.123 13.149
85.100998 -15.034 13.121
85.077003 -14.942 13.091
85.045998 -14.848 13.061
85.003998 -14.753 13.028
84.961998 -14.658 12.996
84.93 -14.565 12.965
84.907997 -14.474 12.936
84.892998 -14.384 12.908
84.883003 -14.296 12.88
84.872002 -14.207 12.852
84.864998 -14.119 12.825
84.853996 -14.03 12.798
84.837997 -13.941 12.77
84.818001 -13.851 12.741
84.794998 -13.76 12.711
84.767998 -13.669 12.682
84.735001 -13.577 12.651
84.702003 -13.486 12.621
84.667999 -13.394 12.59
84.628998 -13.301 12.559
84.584999 -13.208 12.527
84.542 -13.115 12.495
84.488998 -13.021 12.462
84.438004 -12.927 12.429
84.385002 -12.833 12.396
84.336998 -12.739 12.364
84.293999 -12.647 12.333
84.252998 -12.556 12.301
84.218002 -12.465 12.271
84.192001 -12.376 12.242
84.174004 -12.289 12.214
84.160004 -12.202 12.187
84.149002 -12.115 12.16
84.141998 -12.03 12.134
84.129997 -11.943 12.107
84.120003 -11.857 12.08
84.099998 -11.77 12.052
84.083 -11.683 12.024
84.036003 -11.592 11.993
83.985001 -11.5 11.961
83.902 -11.404 11.924
83.819 -11.308 11.888
83.723999 -11.211 11.851
83.639 -11.115 11.814
83.425003 -11.11 11.704
83.516998 -11.014 11.773
83.263 -11.004 11.658
83.401001 -10.915 11.733
82.089996 -9.9969997 11.341
82.155998 -9.9245005 11.325
82.280998 -9.8596001 11.316
85.241997 -9.0134001 11.234
85.248001 -8.9874001 11.318
85.422997 -8.9238005 11.314
85.541 -8.3534002 11.153
85.554001 -8.2714996 11.13
85.575996 -8.1906996 11.108
85.616997 -8.1118002 11.087
85.649002 -8.0319996 11.066
85.695999 -7.9537001 11.047
85.748001 -7.8758998 11.028
85.809998 -7.7989998 11.011
85.876999 -7.7226 10.994
85.955002 -7.6472001 10.978
86.037003 -7.572 10.963
86.128998 -7.4977002 10.948
86.214996 -7.4225998 10.933
86.304001 -7.3477998 10.919
86.387001 -7.2722998 10.904
86.467003 -7.1964002 10.888
86.532997 -7.1191001 10.87
86.595001 -7.0415001 10.853
86.640999 -6.9622998 10.833
86.678001 -6.8822999 10.812
86.703003 -6.8013 10.79
86.723 -6.7198 10.767
86.727997 -6.6371002 10.743
86.724998 -6.5538001 10.718
86.708 -6.4693999 10.691
86.679001 -6.3841 10.663
86.628998 -6.2972002 10.632
86.572998 -6.21 10.601
86.512001 -6.1226001 10.569
86.441002 -6.0345998 10.536
86.372002 -5.9468999 10.504
86.318001 -5.8606 10.473
86.273003 -5.7751002 10.444
86.245003 -5.691 10.416
86.237999 -5.6085 10.39
86.25 -5.5275002 10.367
86.274002 -5.4473 10.345
86.300003 -5.3673 10.323
86.338997 -5.2881999 10.303
86.373001 -5.2087998 10.282
86.403999 -5.1290998 10.261
86.421997 -5.0485001 10.239
86.43 -4.9674001 10.215
86.421997 -4.8853002 10.19
86.401001 -4.8024001 10.163
86.363998 -4.7185998 10.134
86.310997 -4.6339998 10.104
86.239998 -4.5485001 10.072
86.149002 -4.4619002 10.038
86.037003 -4.3744998 10.002
85.917 -4.2867999 9.9649
85.782997 -4.1985998 9.9265003
85.574997 -4.1066999 9.8804998
85.445 -4.0194998 9.8427
85.331001 -3.9333 9.8066998
85.236 -3.8485 9.7728004
85.158997 -3.7648001 9.7407999
85.114998 -3.6830001 9.7124004
85.122002 -3.6039 9.6892004
85.183998 -3.5274 9.6716995
85.274002 -3.4521999 9.6571999
85.394997 -3.3784001 9.6457005
85.556 -3.3060999 9.6381998
85.719002 -3.2337 9.6309996
85.885002 -3.1610999 9.6238003
86.056 -3.0885 9.6173
86.226997 -3.0156 9.6105003
86.377998 -2.9417 9.6016998
86.504997 -2.8664999 9.5903997
86.620003 -2.7907 9.5777998
86.716003 -2.7140999 9.5633001
86.793999 -2.6366 9.5468998
86.853996 -2.5583999 9.5288
86.907997 -2.4798999 9.5100002
86.959 -2.4013 9.4909
87.003998 -2.3224001 9.4712
84.974998 -15.624 13.287
84.918999 -15.587 13.364
84.949997 -15.505 13.342
85.025002 -15.546 13.268
84.972 -15.422 13.319
84.987 -15.337 13.295
84.991997 -15.25 13.269
84.990997 -15.162 13.243
84.978996 -15.072 13.215
84.963997 -14.982 13.186
84.934998 -14.889 13.156
84.897003 -14.795 13.124
84.861 -14.701 13.092
84.829002 -14.608 13.062
84.806 -14.517 13.032
84.790001 -14.427 13.004
84.779999 -14.338 12.976
84.773003 -14.25 12.949
84.766998 -14.162 12.922
84.762001 -14.075 12.895
84.754997 -13.987 12.868
84.739998 -13.898 12.84
84.721001 -13.808 12.811
84.697998 -13.718 12.782
84.667999 -13.626 12.752
84.634003 -13.534 12.721
84.597 -13.442 12.69
84.557999 -13.349 12.659
84.514 -13.256 12.627
84.458 -13.161 12.593
84.407997 -13.067 12.56
84.357002 -12.973 12.527
84.304001 -12.879 12.494
84.25 -12.785 12.461
84.200996 -12.692 12.429
84.154999 -12.599 12.397
84.112999 -12.507 12.366
84.081001 -12.417 12.336
84.057999 -12.329 12.307
84.035004 -12.241 12.278
84.026001 -12.155 12.252
84.015999 -12.069 12.225
84.013 -11.984 12.199
84.005997 -11.898 12.173
83.999001 -11.813 12.146
83.987999 -11.727 12.119
83.976997 -11.641 12.093
83.959999 -11.555 12.065
83.945 -11.468 12.038
83.900002 -11.378 12.007
83.857002 -11.288 11.976
83.808998 -11.197 11.944
83.758003 -11.106 11.912
83.674004 -11.011 11.876
83.594002 -10.916 11.84
83.508003 -10.821 11.804
83.276001 -10.814 11.692
83.399002 -10.723 11.764
83.154999 -10.715 11.651
83.279999 -10.623 11.724
85.573997 -8.6903 11.257
85.317001 -8.6350002 11.309
85.331001 -8.5532999 11.285
85.543999 -8.4369001 11.179
85.323997 -8.3863001 11.235
85.332001 -8.3041 11.211
85.358002 -8.2238998 11.189
85.388 -8.1440001 11.167
85.432999 -8.0657997 11.148
85.469002 -7.9864998 11.127
85.510002 -7.9077001 11.107
85.568001 -7.8306999 11.089
85.627998 -7.7537999 11.072
85.695 -7.6774998 11.055
85.779999 -7.6029 11.04
85.863998 -7.5279999 11.025
85.959 -7.4541998 11.011
86.051003 -7.3797998 10.997
86.146004 -7.3056998 10.983
86.233002 -7.2305999 10.968
86.32 -7.1554999 10.954
86.393997 -7.0791001 10.937
86.467003 -7.0025001 10.921
86.524002 -6.9243999 10.902
86.574997 -6.8456998 10.883
86.611 -6.7656999 10.863
86.644997 -6.6855001 10.841
86.661003 -6.6037998 10.818
86.668999 -6.5214 10.794
86.660004 -6.4377999 10.768
86.639 -6.3530998 10.741
86.597 -6.2669001 10.711
86.545998 -6.1802001 10.681
86.487999 -6.0929999 10.649
86.421997 -6.0054002 10.617
86.352997 -5.9177999 10.584
86.301003 -5.8316998 10.554
86.258003 -5.7463002 10.524
86.233002 -5.6623998 10.497
86.228996 -5.5802002 10.472
86.244003 -5.4994001 10.449
86.271004 -5.4194002 10.427
86.301003 -5.3397002 10.406
86.343002 -5.2607002 10.386
86.376999 -5.1813002 10.365
86.406998 -5.1015 10.344
86.422997 -5.0208001 10.321
86.429001 -4.9394999 10.297
86.421997 -4.8573999 10.272
86.404999 -4.7747998 10.245
86.374001 -4.6914001 10.217
86.332001 -4.6075001 10.188
86.274002 -4.5226998 10.158
86.197998 -4.4369998 10.125
86.106003 -4.3506999 10.091
86.001999 -4.2638998 10.055
85.890999 -4.1768999 10.019
85.748001 -4.0885 9.9797001
85.580002 -3.9991 9.9377003
85.455002 -3.9123001 9.9004002
85.353996 -3.8271 9.8656998
85.275002 -3.7432001 9.8333998
85.224998 -3.661 9.8042002
85.237999 -3.582 9.7814999
85.300003 -3.5053999 9.7641001
85.388 -3.4298999 9.7493
85.500999 -3.3555 9.7370996
85.653999 -3.2828 9.7289
85.818001 -3.2102001 9.7217999
85.984001 -3.1375 9.7149
86.161003 -3.0650001 9.7089005
86.334999 -2.9921 9.7026997
86.480003 -2.9177001 9.6933002
86.602997 -2.8422999 9.6816998
86.714996 -2.7662001 9.6688004
86.795998 -2.6888001 9.6527996
86.862999 -2.6108 9.6353998
86.921997 -2.5325 9.6169996
86.974998 -2.4539001 9.5981998
87.021004 -2.375 9.5785999
84.845001 -15.748 13.406
84.796997 -15.713 13.484
84.827003 -15.631 13.462
84.879997 -15.668 13.385
84.849998 -15.548 13.439
84.867996 -15.464 13.416
84.880997 -15.378 13.391
84.886002 -15.292 13.365
84.882004 -15.203 13.338
84.875 -15.114 13.311
84.859001 -15.024 13.282
84.838997 -14.933 13.253
84.806 -14.839 13.222
84.772003 -14.746 13.191
84.746002 -14.654 13.16
84.723 -14.563 13.131
84.704002 -14.472 13.102
84.693001 -14.383 13.074
84.685997 -14.295 13.047
84.681 -14.208 13.02
84.678001 -14.12 12.994
84.674004 -14.033 12.967
84.669998 -13.946 12.94
84.655998 -13.857 12.912
84.637001 -13.767 12.884
84.612 -13.677 12.854
84.579002 -13.585 12.823
84.540001 -13.492 12.792
84.498001 -13.399 12.76
84.453003 -13.305 12.728
84.397003 -13.21 12.694
84.337997 -13.115 12.66
84.280998 -13.02 12.626
84.224998 -12.925 12.593
84.172997 -12.831 12.559
84.117996 -12.737 12.526
84.069 -12.644 12.494
84.019997 -12.552 12.461
83.981003 -12.46 12.43
83.945 -12.37 12.4
83.922997 -12.282 12.371
83.906998 -12.195 12.344
83.896004 -12.109 12.317
83.886002 -12.023 12.29
83.884003 -11.938 12.264
83.877998 -11.853 12.238
83.875 -11.768 12.212
83.867996 -11.683 12.186
83.862 -11.598 12.16
83.848999 -11.512 12.133
83.838997 -11.427 12.106
83.824997 -11.341 12.079
83.814003 -11.256 12.052
83.796997 -11.169 12.025
83.783997 -11.084 11.998
83.741997 -10.994 11.967
83.697998 -10.905 11.936
83.648003 -10.814 11.904
83.578003 -10.722 11.87
83.495003 -10.627 11.834
83.411003 -10.533 11.798
83.177002 -10.527 11.686
83.301003 -10.435 11.758
83.061996 -10.429 11.646
83.199997 -10.339 11.72
85.217003 -8.7070999 11.321
84.954002 -8.6511002 11.371
85.042 -8.5777998 11.357
85.078003 -8.4988003 11.337
85.321999 -8.4692001 11.259
85.084999 -8.4166002 11.313
85.116997 -8.3371 11.292
85.141998 -8.257 11.27
85.177002 -8.1779003 11.249
85.218002 -8.0993004 11.229
85.274002 -8.0222998 11.211
85.316002 -7.9439001 11.191
85.361 -7.8656001 11.172
85.410004 -7.7877998 11.153
85.471001 -7.7111001 11.135
85.540001 -7.6350999 11.119
85.619003 -7.5601001 11.103
85.705002 -7.4854999 11.088
85.802002 -7.4120002 11.075
85.892998 -7.3376999 11.061
85.994003 -7.2641001 11.048
86.084 -7.1896 11.034
86.18 -7.1153002 11.02
86.261002 -7.0395999 11.005
86.342003 -6.9638 10.989
86.410004 -6.8867998 10.972
86.475998 -6.8095002 10.955
86.525002 -6.7307 10.936
86.57 -6.6515002 10.916
86.598 -6.5707998 10.894
86.615997 -6.4893999 10.871
86.616997 -6.4064999 10.846
86.602997 -6.3225002 10.82
86.568001 -6.2368999 10.791
86.523003 -6.1506 10.761
86.471001 -6.0640001 10.73
86.405998 -5.9765 10.698
86.338997 -5.8891001 10.665
86.289001 -5.8031001 10.635
86.249001 -5.7179999 10.605
86.224998 -5.6342001 10.578
86.223999 -5.5521002 10.553
86.240997 -5.4714999 10.531
86.272003 -5.3917999 10.509
86.305 -5.3122001 10.488
86.349998 -5.2335 10.469
86.388 -5.1542001 10.448
86.417999 -5.0745001 10.427
86.433998 -4.9937 10.404
86.438004 -4.9123001 10.38
86.428001 -4.8299999 10.354
86.411003 -4.7473001 10.328
86.383003 -4.6641002 10.3
86.348999 -4.5806999 10.272
86.300003 -4.4963999 10.242
86.236 -4.4113998 10.211
86.157997 -4.3259001 10.178
86.073997 -4.2400999 10.144
85.977997 -4.1539998 10.11
85.864998 -4.0672002 10.073
85.732002 -3.9795001 10.035
85.592003 -3.8917999 9.9958
85.480003 -3.806 9.9597998
85.398003 -3.7218001 9.927
85.355003 -3.6398001 9.8983002
85.371002 -3.5608001 9.8760004
85.431 -3.484 9.8584003
85.514 -3.4080999 9.8430004
85.621002 -3.3333001 9.8302002
85.764999 -3.2599001 9.8212004
85.931999 -3.1873 9.8144999
86.099998 -3.1145 9.8079004
86.275002 -3.0416999 9.8017998
86.445 -2.9684999 9.7952003
86.587997 -2.8938999 9.7856998
86.699997 -2.8178999 9.7729998
86.793999 -2.7409999 9.7584
86.866997 -2.6631999 9.7414999
86.927002 -2.5848 9.7234001
86.983002 -2.5063 9.7048998
87.033997 -2.4275999 9.6857004
87.074997 -2.3485 9.6657
84.747002 -15.879 13.53
84.700996 -15.845 13.608
84.772003 -15.796 13.507
84.723 -15.761 13.585
84.744003 -15.677 13.562
84.764 -15.593 13.538
84.778 -15.508 13.514
84.789001 -15.423 13.489
84.792999 -15.336 13.463
84.792999 -15.248 13.437
84.783997 -15.159 13.409
84.773003 -15.069 13.381
84.752998 -14.978 13.352
84.728996 -14.886 13.322
84.698997 -14.794 13.291
84.675003 -14.702 13.261
84.653999 -14.611 13.232
84.635002 -14.521 13.203
84.620003 -14.431 13.174
84.612 -14.343 13.147
84.607002 -14.255 13.12
84.605003 -14.168 13.094
84.605003 -14.082 13.067
84.605003 -13.995 13.041
84.601997 -13.908 13.015
84.587997 -13.819 12.987
84.566002 -13.729 12.958
84.536003 -13.638 12.927
84.499001 -13.545 12.896
84.455002 -13.452 12.864
84.404999 -13.357 12.831
84.348 -13.262 12.797
84.287003 -13.166 12.762
84.221001 -13.069 12.727
84.162003 -12.974 12.693
84.103996 -12.879 12.659
84.047997 -12.785 12.625
83.992996 -12.691 12.592
83.944 -12.598 12.559
83.890999 -12.505 12.526
83.852997 -12.414 12.496
83.821999 -12.325 12.466
83.800003 -12.237 12.437
83.782997 -12.15 12.409
83.771004 -12.063 12.382
83.761002 -11.978 12.355
83.757004 -11.893 12.329
83.749001 -11.807 12.303
83.746002 -11.723 12.277
83.741997 -11.638 12.251
83.738998 -11.554 12.226
83.731003 -11.469 12.199
83.724998 -11.384 12.173
83.716003 -11.299 12.147
83.707001 -11.214 12.12
83.696999 -11.129 12.094
83.690002 -11.045 12.067
83.679001 -10.96 12.041
83.670998 -10.875 12.015
83.658997 -10.79 11.988
83.622002 -10.702 11.958
83.579002 -10.613 11.927
83.533997 -10.523 11.896
83.462997 -10.431 11.862
83.396004 -10.339 11.828
83.327003 -10.247 11.794
83.100998 -10.243 11.682
83.301003 -10.161 11.765
83.064003 -10.156 11.653
83.305 -10.079 11.741
83.066002 -10.074 11.628
83.086998 -9.9945002 11.606
83.319 -9.9987001 11.718
83.164001 -9.9224005 11.592
83.375999 -9.9236002 11.701
83.245003 -9.8506002 11.577
83.429001 -9.8479996 11.683
83.331001 -9.7792997 11.564
83.488998 -9.7733002 11.666
83.458 -9.7131004 11.555
83.583 -9.7026997 11.653
83.587997 -9.6471004 11.547
83.676003 -9.6318998 11.64
83.766998 -9.5607996 11.627
83.871002 -9.4348001 11.509
83.848999 -9.4057999 11.588
83.872002 -9.3261995 11.566
83.918999 -9.3582001 11.49
83.903 -9.2474003 11.545
83.950996 -9.2796001 11.47
83.941002 -9.1695995 11.525
83.990997 -9.2018995 11.45
84.050003 -9.1000004 11.514
84.114998 -9.1341 11.441
84.161003 -9.0305004 11.503
84.277 -9.0705004 11.436
84.250999 -8.9584999 11.49
84.421997 -9.0047998 11.429
84.348 -8.8871002 11.477
84.556 -8.9376001 11.421
84.442001 -8.8151999 11.464
84.674004 -8.8683004 11.411
84.530998 -8.7426996 11.451
84.775002 -8.7967997 11.399
84.610001 -8.6688995 11.436
84.867996 -8.7243996 11.386
84.695999 -8.5957003 11.421
84.789001 -8.5232 11.408
84.824997 -8.4445 11.388
84.857002 -8.3652 11.367
84.910004 -8.2882004 11.348
84.957001 -8.2104998 11.329
85.009003 -8.1332998 11.311
85.064003 -8.0564003 11.293
85.117996 -7.9794002 11.274
85.168999 -7.9018998 11.256
85.219002 -7.8243999 11.237
85.272003 -7.7470002 11.218
85.333 -7.6704001 11.201
85.400002 -7.5942998 11.184
85.476997 -7.5191998 11.168
85.556 -7.4439998 11.153
85.649002 -7.3702002 11.139
85.740997 -7.2961001 11.125
85.845001 -7.2231002 11.113
85.942001 -7.1490998 11.1
86.042 -7.0753999 11.087
86.133003 -7.0007 11.072
86.223 -6.9257998 11.058
86.302002 -6.8498001 11.042
86.377998 -6.7733998 11.026
86.441002 -6.6959 11.009
86.499001 -6.6178999 10.991
86.539001 -6.5381999 10.97
86.567001 -6.4576001 10.948
86.577003 -6.3755999 10.925
86.57 -6.2921 10.899
86.542 -6.2070999 10.871
86.500999 -6.1212001 10.841
86.453003 -6.0349002 10.811
86.390999 -5.9477 10.779
86.331001 -5.8607998 10.747
86.279999 -5.7747002 10.716
86.239998 -5.6897001 10.687
86.218002 -5.6059999 10.66
86.220001 -5.5242 10.635
86.239998 -5.4436998 10.613
86.276001 -5.3642998 10.592
86.313004 -5.2849998 10.572
86.362 -5.2065001 10.552
86.403999 -5.1275001 10.532
86.436996 -5.0478001 10.511
86.453003 -4.9671001 10.489
86.456001 -4.8856001 10.464
86.444 -4.8031001 10.438
86.424004 -4.7202001 10.411
86.392998 -4.6367998 10.383
86.362 -4.5535002 10.355
86.321999 -4.4698 10.327
86.265999 -4.3853002 10.296
86.197998 -4.3003001 10.264
86.125999 -4.2151999 10.232
86.044998 -4.1299 10.199
85.955002 -4.0441999 10.164
85.844002 -3.9577 10.128
85.728996 -3.8713 10.092
85.609001 -3.7848001 10.054
85.524002 -3.7004001 10.021
85.481003 -3.6184001 9.9924002
85.500999 -3.5394001 9.9703999
85.557999 -3.4623001 9.9525003
85.638 -3.3861001 9.9368
85.744003 -3.3111 9.9238997
85.884003 -3.2372999 9.9145002
86.052002 -3.1645999 9.908
86.221001 -3.0917001 9.9015999
86.415001 -3.0195 9.8976002
86.572998 -2.9454999 9.8899002
86.696999 -2.8699999 9.8783998
86.793999 -2.7932 9.8641996
86.873001 -2.7156999 9.8480997
86.936996 -2.6375 9.8304005
86.994003 -2.5589001 9.8119001
87.045998 -2.4802001 9.7930002
87.091003 -2.4010999 9.7733002
84.679001 -15.928 13.631
84.633003 -15.893 13.709
84.653999 -15.809 13.686
84.675003 -15.726 13.663
84.690002 -15.641 13.639
84.704002 -15.556 13.614
84.711998 -15.47 13.589
84.719002 -15.383 13.563
84.717003 -15.296 13.537
84.711998 -15.207 13.51
84.699997 -15.117 13.481
84.682999 -15.027 13.452
84.662003 -14.935 13.423
84.636002 -14.843 13.393
84.612999 -14.752 13.363
84.594002 -14.661 13.334
84.577003 -14.571 13.305
84.563004 -14.482 13.277
84.551003 -14.393 13.249
84.544998 -14.305 13.222
84.542 -14.218 13.195
84.541 -14.131 13.169
84.542 -14.044 13.143
84.542999 -13.958 13.117
84.541 -13.872 13.09
84.524002 -13.782 13.062
84.499001 -13.692 13.032
84.464996 -13.599 13.001
84.421997 -13.506 12.969
84.367996 -13.411 12.935
84.308998 -13.315 12.901
84.246002 -13.219 12.866
84.177002 -13.122 12.83
84.107002 -13.025 12.794
84.044998 -12.929 12.76
83.983002 -12.834 12.725
83.925003 -12.739 12.691
83.870003 -12.645 12.658
83.817001 -12.552 12.625
83.773003 -12.46 12.593
83.734001 -12.369 12.562
83.703003 -12.28 12.532
83.68 -12.192 12.503
83.661003 -12.105 12.475
83.648003 -12.019 12.448
83.636002 -11.933 12.421
83.628998 -11.847 12.394
83.623001 -11.762 12.368
83.617996 -11.678 12.342
83.613998 -11.593 12.316
83.611 -11.509 12.291
83.605003 -11.424 12.264
83.602997 -11.34 12.239
83.598 -11.256 12.213
83.595001 -11.172 12.187
83.586998 -11.087 12.161
83.586998 -11.004 12.136
83.581001 -10.92 12.11
83.579002 -10.836 12.084
83.573997 -10.752 12.058
83.57 -10.668 12.033
83.564003 -10.584 12.007
83.553001 -10.5 11.98
83.519997 -10.412 11.951
83.487 -10.325 11.922
83.456001 -10.238 11.892
83.457001 -10.156 11.868
83.467003 -10.074 11.844
83.484001 -9.9940004 11.821
83.513 -9.9152002 11.8
83.542 -9.8362999 11.779
83.574997 -9.7580004 11.758
83.635002 -9.6829996 11.741
83.694 -9.6078997 11.724
83.75 -9.5323 11.706
83.776001 -9.4531002 11.685
83.823997 -9.4851999 11.609
83.802002 -9.3737001 11.663
83.824997 -9.2941999 11.642
83.856003 -9.2154999 11.621
83.892998 -9.1374998 11.601
83.963997 -9.0635004 11.585
84.040001 -8.9898996 11.57
84.094002 -8.9138002 11.552
84.163002 -8.8394003 11.536
84.250999 -8.7670002 11.522
84.329002 -8.6933002 11.507
84.412003 -8.6201 11.493
84.501999 -8.5475998 11.479
84.587997 -8.4745998 11.465
84.647003 -8.3984003 11.448
84.703003 -8.3219004 11.43
84.775002 -8.2470999 11.414
84.837997 -8.1710997 11.397
84.885002 -8.0935001 11.378
84.934998 -8.0162001 11.359
84.985001 -7.9387999 11.34
85.030998 -7.8610001 11.321
85.081001 -7.7835002 11.302
85.132004 -7.7061 11.284
85.193001 -7.6294999 11.266
85.255997 -7.5532999 11.249
85.332001 -7.4780998 11.233
85.411003 -7.4031 11.218
85.502998 -7.3292999 11.204
85.593002 -7.2550998 11.19
85.695 -7.1819 11.178
85.800003 -7.1087999 11.165
85.908997 -7.0359998 11.153
86.008003 -6.9621 11.14
86.108002 -6.8881001 11.127
86.199997 -6.8133001 11.113
86.285004 -6.7378998 11.098
86.359001 -6.6613002 11.082
86.429001 -6.5843 11.065
86.481003 -6.5057001 11.046
86.517998 -6.4260001 11.026
86.538002 -6.3446999 11.003
86.539001 -6.2618999 10.978
86.517998 -6.1774998 10.951
86.484001 -6.0921998 10.922
86.439003 -6.0061002 10.892
86.380997 -5.9191999 10.86
86.322998 -5.8325 10.828
86.272003 -5.7465 10.798
86.235001 -5.6616001 10.769
86.213997 -5.5780001 10.741
86.218002 -5.4963999 10.717
86.240997 -5.4161 10.695
86.278999 -5.3368001 10.675
86.321999 -5.2578001 10.655
86.375999 -5.1795998 10.636
86.424004 -5.1009998 10.617
86.463997 -5.0218 10.597
86.481003 -4.941 10.574
86.486 -4.8596001 10.55
86.471001 -4.7768998 10.523
86.446999 -4.6938 10.496
86.414001 -4.6101999 10.468
86.378998 -4.5267 10.439
86.343002 -4.4432001 10.411
86.294998 -4.3590999 10.381
86.236 -4.2746 10.35
86.174004 -4.1900001 10.319
86.103996 -4.1052999 10.287
86.028 -4.0202999 10.254
85.932999 -3.9347 10.219
85.835999 -3.8491001 10.184
85.737999 -3.7637 10.149
85.652 -3.6791 10.116
85.599998 -3.5964 10.086
85.613998 -3.5171001 10.063
85.668999 -3.4396999 10.045
85.749001 -3.3634 10.029
85.856003 -3.2883 10.017
86.014 -3.2151999 10.009
86.207001 -3.1433001 10.006
86.374001 -3.0701001 9.9989996
86.539001 -2.9965 9.9920998
86.694 -2.9222 9.9841003
86.810997 -2.8462 9.9720001
86.894997 -2.7688 9.9565001
86.966003 -2.6908 9.9396
87.026001 -2.6122999 9.9212999
87.075996 -2.5335 9.9021997
87.122002 -2.4544001 9.8825998
87.155998 -2.3749001 9.8618002
84.599998 -16.063 13.758
84.556999 -16.028 13.836
84.616997 -15.978 13.734
84.571999 -15.943 13.812
84.586998 -15.858 13.788
84.602997 -15.774 13.764
84.621002 -15.69 13.74
84.632004 -15.604 13.715
84.642998 -15.518 13.69
84.647003 -15.431 13.664
84.648003 -15.344 13.638
84.643997 -15.256 13.611
84.633003 -15.166 13.583
84.617996 -15.076 13.554
84.599998 -14.985 13.525
84.581001 -14.894 13.496
84.563004 -14.804 13.466
84.544998 -14.713 13.437
84.529999 -14.624 13.409
84.515999 -14.534 13.381
84.502998 -14.445 13.352
84.494003 -14.356 13.325
84.488998 -14.269 13.298
84.486 -14.182 13.271
84.484001 -14.095 13.245
84.485001 -14.009 13.219
84.486 -13.922 13.193
84.483002 -13.835 13.166
84.462997 -13.746 13.137
84.434998 -13.654 13.107
84.394997 -13.562 13.075
84.347 -13.467 13.042
84.283997 -13.371 13.007
84.219002 -13.274 12.972
84.146004 -13.176 12.935
84.073997 -13.079 12.899
83.999001 -12.981 12.862
83.933998 -12.885 12.827
83.866997 -12.789 12.792
83.807999 -12.694 12.758
83.750999 -12.6 12.724
83.704002 -12.508 12.692
83.660004 -12.416 12.66
83.624001 -12.326 12.629
83.593002 -12.237 12.599
83.568001 -12.149 12.57
83.547997 -12.061 12.542
83.535004 -11.975 12.515
83.521004 -11.889 12.487
83.512001 -11.804 12.461
83.501999 -11.718 12.434
83.498001 -11.634 12.408
83.491997 -11.549 12.382
83.487999 -11.465 12.356
83.483002 -11.38 12.33
83.483002 -11.297 12.305
83.480003 -11.213 12.279
83.476997 -11.129 12.253
83.473999 -11.045 12.228
83.476997 -10.962 12.203
83.473 -10.879 12.177
83.476997 -10.796 12.153
83.478996 -10.713 12.128
83.482002 -10.63 12.103
83.481003 -10.547 12.078
83.480003 -10.464 12.053
83.480003 -10.381 12.027
83.481003 -10.298 12.002
83.483002 -10.216 11.978
83.489998 -10.134 11.954
83.502998 -10.053 11.93
83.521004 -9.9726 11.908
83.549004 -9.8936005 11.886
83.575996 -9.8144999 11.865
83.608002 -9.7360001 11.844
83.641998 -9.6576004 11.824
83.671997 -9.5789003 11.803
83.700996 -9.5 11.782
83.725998 -9.4205999 11.76
83.750999 -9.3413 11.739
83.776001 -9.2618999 11.717
83.806 -9.1830997 11.696
83.842003 -9.1050997 11.676
83.884003 -9.0277004 11.656
83.929001 -8.9506998 11.637
83.981003 -8.8743 11.619
84.046997 -8.7995996 11.602
84.120003 -8.7255001 11.587
84.195 -8.6517 11.572
84.274002 -8.5782003 11.557
84.352997 -8.5045004 11.542
84.431 -8.4307003 11.527
84.513 -8.3571997 11.513
84.587997 -8.2827997 11.497
84.653999 -8.2074003 11.481
84.713997 -8.1313 11.463
84.764999 -8.0542002 11.445
84.811996 -7.9766002 11.426
84.856003 -7.8987002 11.406
84.899002 -7.8207002 11.387
84.945999 -7.743 11.368
