# .PCD v0.7 - Point Cloud Data file format
VERSION 0.7
FIELDS x y z
SIZE 4 4 4
TYPE F F F
COUNT 1 1 1
WIDTH 1649
HEIGHT 1
VIEWPOINT 0 0 0 1 0 0 0
POINTS 1649
DATA ascii
-103.99 -69.347 -608.63
6.6795001 -69.752998 -609.09998
-55.513 -67.777 -608.44
-80.494003 -67.319 -609.56
-56.268002 -65.103996 -607.42999
-80.785004 -64.317001 -609.09003
-103.92 -64.184998 -610.29999
-80.051003 -62.735001 -609.58002
-80.735001 -62.903999 -609.09998
-80.700996 -61.652 -609.06
-79.369003 -62.571999 -609.66998
-104.02 -60.993999 -608.90997
76.695999 -60.870998 -609.37
-77.249001 -60.400002 -609.58002
68.775002 -60.68 -609.5
79.524002 -60.528 -609.84998
81.153999 -59.925999 -609.63
-104.5 -58.911999 -609.04999
-78.055 -60.014999 -609.12
-58.490002 -58.896 -608.82001
66.612999 -59.339001 -608.32001
81.271004 -59.030998 -608.12
82.373001 -59.674 -610.14001
-76.042999 -58.851002 -610.23999
64.376999 -59.040001 -609.17999
-76.914001 -56.814999 -609.78998
-78.490997 -57.464001 -608.76001
60.716 -57.464001 -609.88
87.426003 -56.661999 -610.59998
148.62 -57.182999 -608.94
149.81 -57.813 -609.52002
147.07001 -56.890999 -609.33002
154.10001 -55.667999 -609.79999
58.627998 -54.358002 -608.10999
88.457001 -55.381001 -610.06
-108.81 -54.311001 -609.53003
28.898001 -54.394001 -609.21997
143.60001 -53.816002 -608.65002
22.781 -53.372002 -608.63
30.695999 -54.292999 -609.78003
56.188 -53.32 -609.90002
89.122002 -54.043999 -609.21997
-108.91 -53.071999 -610.38
-78.752998 -53.333 -609.45001
22.075001 -53.558998 -610.19
32.205002 -52.825001 -609.47998
22.011 -52.262001 -608.53003
34.456001 -51.587002 -608.84003
21.528999 -51.965 -609.78003
36.056 -51.966999 -609.63
36.714001 -51.077 -609.23999
95.063004 -51.401001 -609.71002
-80.063004 -50.431999 -609.90997
93.996002 -50.216999 -608.94
140.45 -50.145 -609.62
-82.32 -49.719002 -609.17999
38.577 -50.335999 -609.76001
140.24001 -48.486 -608.78998
156.64 -49.448002 -609.88
-108.1 -48.126999 -608.53003
-82.820999 -47.806 -610.07001
103.28 -48.41 -609.59998
-85.816002 -47.702999 -608.81
40.304001 -47.542999 -609.17999
-107.3 -47.152 -609.28003
-97.875 -46.706001 -609.34998
-96.289001 -46.563 -609.12
104.96 -46.756001 -609.23999
106.82 -47.641998 -610.35999
138.96001 -46.084999 -609.13
156.86 -46.597 -609.84998
-105.29 -46.512001 -608.64001
-93.375999 -45.963001 -609.19
40.472 -46.424 -608.92999
156.27 -45.196999 -608.45001
108.04 -45.965 -609.78998
41.141998 -45.081001 -609.20001
109.7 -44.473 -609.85999
156.48 -43.229 -608.85999
41.744999 -43.714001 -609.32001
42.480999 -43.278 -609.51001
-61.272999 -43.633999 -609.14001
42.457001 -42.330002 -609.06
111.45 -41.709999 -609.54999
45.528999 -40.855999 -609.03998
49.508999 -40.681999 -608.96002
48.041 -40.497002 -609.77002
48.720001 -40.021 -609.29999
-61.362 -40.297001 -608.79999
46.594002 -39.006001 -609.01001
47.310001 -38.955002 -609.21002
113.1 -39.631001 -608.71997
48.008999 -39.291 -609.28998
156.72 -38.015999 -609.09998
-61.248001 -35.573002 -608.85999
135.12 -37.777 -610.40002
116.55 -34.395 -608.71997
118.39 -33.757999 -609.5
133.87 -33.780998 -609.12
117.79 -33.453999 -609.01001
157.21001 -32.868 -608.39001
119.12 -32.021 -609.16998
-61.073002 -31.4 -609.01001
120.6 -32.819 -610.03003
121.15 -31.466 -609.85999
132.03999 -29.500999 -610.52002
119.76 -30.208 -609.03003
-94.713997 -29.209999 -609.65997
-91.401001 -29.09 -609.51001
-90.112999 -29.082001 -609.40997
-88.762001 -29.044001 -609.44
-101.21 -28.916 -609.14001
-95.732002 -28.566 -609.08002
-94.406998 -28.479 -609.33002
-93.334 -28.405001 -609.64001
-91.897003 -27.771999 -609.33002
-88.671997 -28.537001 -609.21997
-93.364998 -27.702999 -609.14001
-90.322998 -28.233999 -609.22998
-87.018997 -27.813 -609.13
123 -28.047001 -609.90997
-85.662003 -27.143999 -609.17999
-83.462997 -25.618 -609.20001
121.49 -25.947001 -609.15997
132.24001 -24.370001 -610.03998
-81.371002 -24.386 -609.60999
123.3 -24.547001 -609.85999
-80.908997 -22.42 -609.08002
158.07001 -22.797001 -609.84998
-108.89 -22.714001 -609.22998
123.63 -22.405001 -610.07001
130.82001 -20.954 -609.77002
121.96 -20.246 -609.71002
157.60001 -20.347 -609.84998
46.624001 -20.408001 -608.89001
121.49 -18.014999 -609.94
-79.049004 -19.211 -609.14001
46.494999 -18.669001 -609.56
-105.19 -17.547001 -610.65002
43.549 -17.51 -609.17999
129.49001 -17.497999 -609.81
42.577999 -16.006001 -609.45001
155.82001 -16.160999 -609.47998
-78.699997 -15.953 -608.91998
38.866001 -15.68 -609.12
38.278 -15.844 -608.85999
116.42 -13.931 -609.09998
117.18 -13.16 -609.62
-78.509003 -13.401 -608.97998
34.120998 -12.592 -608.82001
113.81 -12.762 -609.01001
114.67 -12.663 -609.28003
-105.36 -12.472 -609.12
-78.611 -11.217 -609.14001
-78.627998 -9.1368999 -609.47998
23.485001 -10.204 -609.03998
33.316002 -9.7875004 -609.21997
32.414001 -9.7989998 -608.73999
52.388 -8.7216997 -609.34998
111.98 -9.0075998 -609.87
129.16 -8.4605999 -609.31
-80.760002 -7.2656002 -609.42999
23.664 -8.5832996 -609.03003
-79.539001 -7.6087999 -609.52002
-56.693001 -8.1194 -608.64001
23.656 -7.0798998 -609.34003
-81.536003 -6.7062001 -609.25
23.438 -5.9710999 -609.76001
24.243999 -6.3670998 -609.27002
25.362 -6.8593998 -608.90002
26.264 -6.2391 -609.54999
27.589001 -6.6627998 -608.96997
28.683001 -6.6887999 -609.09998
107.69 -6.4896998 -608.71997
129.19 -6.4802999 -609.65997
150.94 -5.4331999 -609.98999
-81.502998 -4.8903999 -609.91998
103.8 -4.8137002 -609.21997
105.67 -5.1868 -609.21002
-82.226997 -3.7678001 -609.29999
102.33 -4.1279001 -609.53998
55.556999 -3.8060999 -609.46002
98.204002 -3.4981999 -609
99.339996 -2.8296001 -609.85999
130.3 -2.1473 -608.45001
-42.327 -0.91171998 -610.34998
-41.562 -1.2915 -610.21002
-40.577 -2.1623001 -609.5
94.585999 -1.6147 -609.67999
-51.391998 -0.20789 -608.59003
88.556 0.23503 -609.41998
-48.581001 0.91712999 -609.32001
-47.549 0.57132 -609.21002
-30.650999 1.0343 -609.73999
86.135002 1.0538 -609.09003
148.83 1.6999 -609.72998
-30.389999 1.8444 -609.76001
5.2553 1.7025 -609.46997
62.820999 2.3194001 -610.04999
-30.299 2.8557999 -610.66998
6.6950002 2.7225001 -609.5
7.6564002 3.6910999 -609.28003
65.293999 2.4835 -608.28003
67.559998 3.7602999 -609.47998
8.1719999 4.5163002 -609.66998
71.044998 4.5640001 -609.84003
131.81 4.5040998 -610.07001
146.87 4.7087002 -608.46002
-105.68 5.1968002 -609.52002
7.724 5.1623001 -609.52002
-106.36 5.8671999 -608.63
-106.36 6.5739999 -610.54999
-27.724001 7.6382999 -609.5
132.77 8.0309 -609.88
3.6900001 8.4414997 -609.62
3.0897999 8.1541996 -608.97998
133.42999 9.0233002 -609.28003
0.60749 9.9278002 -609.56
143.69 9.7013998 -609.53003
-25.843 9.7693996 -609.34003
-109.82 10.415 -608.15002
-109.95 11.671 -608.59998
-109.96 13.547 -608.53998
-93.363998 14.246 -608.08002
-92.442001 14.505 -611.06
-14.098 14.932 -609.59998
-11.301 14.917 -609.47998
-99.315002 15.844 -609.48999
-95.475998 15.132 -609.15002
-108.78 16.468 -609.77002
-108.08 16.820999 -609.53003
-105.35 -92.629997 -607.79999
-104.58 -92.946999 -609.15002
-97.575996 -91.532997 -608.45001
-87.412003 -87.728996 -608.29999
-14.339 -83.407997 -607.40002
-3.4263 -83.705002 -607.75
-18.906 -80.850998 -607.70001
4.2546 -81.014 -608.42999
6.5353999 -78.723 -607.85999
8.8648996 -75.371002 -608.34998
-50.644001 -74.855003 -608.98999
-49.945999 -74.098 -607.67999
9.6085997 -74.147003 -608.40002
-81.299004 -73.546997 -607.75
-40.956001 -73.158997 -608.84003
-24.841999 -72.846001 -608.23999
-30.284 -72.566002 -608.71997
-28.416 -73.024002 -609.37
10.195 -72.515999 -608.53998
-26.158001 -72.528 -608.84003
9.4513998 -71.845001 -608.58002
-34.991001 -71.184998 -608.5
-33.883999 -71.728996 -609.03003
8.7081003 -71.746002 -608.34998
6.0082002 -70.387001 -608.63
7.3379998 -70.941002 -608.78003
-81.014999 -69.379997 -608.37
-80.831001 -65.654999 -609.02002
-81.360001 -62.543999 -608.38
-57.764 -61.997002 -609.06
-81.459999 -60.813999 -608.42999
-78.902 -60.564999 -608.98999
76.455002 -59.889999 -607.56
-104.48 -59.799999 -607.89001
-80.778999 -60.167 -608.84003
-81.454002 -59.896999 -608.44
-80.098 -60.702 -609.08002
79.945 -59.307999 -607.76001
-105.28 -57.998001 -609.04999
-80.800003 -58.931 -608.52002
-79.418999 -58.841 -608.48999
-78.752998 -59.013 -608.71997
62.646 -57.778999 -608.60999
83.117996 -58.213001 -608.21997
85.091003 -57.152 -608.58002
150.94 -57.140999 -608.76001
60.171001 -55.953999 -608.34003
152.07001 -56.851002 -608.97998
-108.23 -55.262001 -609.34003
-77.058998 -55.645 -609.84998
145.56 -55.785 -608.91998
144.92 -54.876999 -608.39001
-109.09 -54.192001 -608.07001
25.542999 -54.375999 -608.72998
26.784 -54.195999 -608.53998
153.78999 -54.358002 -608.15997
-80.577003 -53.66 -608.23999
28.775999 -52.858002 -607.97998
-81.985001 -52.352001 -607.96997
-59.589001 -53.651001 -608.82001
57.310001 -52.780998 -608.01001
90.473 -52.794998 -609.17999
-80.227997 -51.798 -609.22998
21.414 -51.459999 -608.63
31.667999 -51.106998 -608.02002
54.701 -50.799 -609.23999
91.025002 -51.698002 -608.71997
142.34 -52.248001 -608.71997
-83.055 -51.549999 -607.76001
20.958 -50.797001 -608.45001
92.656998 -51.563 -609.31
141.09 -49.313 -608.09003
37.004002 -49.922001 -608.70001
-109.2 -50.308998 -608.32001
-108.85 -48.993 -609.29999
95.056 -49.349998 -608.64001
-108.81 -49.333 -607.78998
-85.490997 -48.671001 -608.26001
38.098999 -48.337002 -608.53003
96.047997 -48.787998 -608.46002
98.332001 -48.372002 -608.84003
100.24 -49.021 -609.27002
101.53 -48.32 -609.14001
-99.016998 -47.294998 -608.83002
39.588001 -47.334 -608.65997
-102.77 -46.585999 -608.52002
-95.032997 -47.230999 -608.45001
-94.683998 -46.292999 -609.19
-92.903 -47.193001 -608.42999
-91.885002 -46.062 -608.94
-89.981003 -46.655998 -608.46997
-87.709 -47.671001 -608.13
53.09 -47.609001 -608.78998
102.09 -46.264999 -608.23999
140.03999 -46.953999 -608.15002
-61.008999 -45.196999 -608.45001
51.775002 -44.497002 -608.69
103.67 -45.966 -608.40997
40.397999 -44.702999 -608.37
105.69 -44.186001 -608.04999
108.31 -42.852001 -608.32001
138.27 -43.25 -608.83002
41.09 -41.915001 -608.40997
109.44 -42.469002 -608.59998
41.751999 -41.091 -608.45001
44.356998 -43.167999 -609.62
-61.311001 -41.435001 -608.60999
50.261002 -41.515999 -608.59003
156.71001 -41.347 -609.41998
44.48 -40.794998 -608.62
112.28 -40.860001 -609.32001
48.710999 -38.48 -608.56
48.036999 -37.459999 -608.53998
113.99 -39.257999 -609.62
136.75 -37.813999 -607.98999
47.314999 -37.053001 -608.54999
115.17 -35.466 -608.03003
134.92999 -35.688999 -608.81
117.78 -32.661999 -608.5
133.53 -31.896999 -608.73999
118.65 -31.045 -608.53003
-105.45 -29.955 -609.25
-103.95 -29.804001 -608.72998
157.85001 -30.712999 -609.76001
-108.07 -29.062 -607.79999
-103.02 -29.686001 -608.82001
119.3 -29.356001 -608.54999
-108.91 -28.629999 -608.53003
-100.14 -28.572001 -608.92999
-96.696999 -28.559999 -608.92999
120.23 -28.107 -608.84998
158.16 -27.697001 -609.33002
-109.45 -27.761 -609.76001
-95.139 -27.858999 -608.12
-93.952003 -27.535999 -608.40002
-87.763 -27.035 -608.81
-92.482002 -27.455999 -609.23999
-90.654999 -26.927999 -609.03003
-88.827003 -27.438999 -608.91998
-86.768997 -26.997999 -608.84998
-60.313999 -26.978001 -607.78998
119.55 -27.360001 -608.38
-91.216003 -26.237 -608.46002
-90.575996 -26.297001 -608.81
-89.518997 -26.110001 -608.78003
-84.738998 -25.729 -608.79999
120.26 -26.516001 -608.72998
-109.77 -26.297001 -609.15002
-87.080002 -26.118 -608.64001
-85.894997 -25.972 -608.65997
-89.806 -25.431 -608.53003
-85.120003 -24.643999 -608.40002
121.24 -24.896999 -609.08002
-88.066002 -24.452 -608.46997
-87.088997 -24.323999 -608.42999
-83.628998 -24.427 -608.65002
-109.48 -23.496 -609
-82.789001 -23.849001 -608.75
119.45 -22.962999 -608.39001
121.24 -22.447001 -609.16998
157.50999 -21.747 -607.75
-81.889 -21.299 -608.37
-80.444 -21.124001 -608.88
47.330002 -21.243999 -608.45001
118.96 -20.759001 -608.42999
-105.88 -19.726 -608.46002
47.355999 -18.782 -609.52002
48.036999 -19.527 -608.78003
-80.512001 -19.292 -608.46997
-105.49 -18.950001 -608.95001
-59.193001 -19.438 -607.90997
44.916 -19.445 -608.71997
117.63 -18.569 -608.23999
156.78999 -18.947001 -608.28003
-80.663002 -18.365999 -608.26001
-58.900002 -16.458 -609.07001
41.783001 -17.820999 -608.16998
-105.37 -17.896999 -608.79999
-79.848 -15.304 -608.33002
41.709 -16.242001 -608.97998
48.841999 -16.982 -609.40997
117.78 -16.881001 -608.65997
-105.37 -15.623 -608.40997
36.209 -15.044 -608.17999
116.38 -15.113 -608.77002
154.94 -15.185 -608.67999
37.181999 -13.662 -609.51001
114.7 -15.438 -608.59003
129.69 -13.96 -608.14001
154.14999 -13.892 -608.83002
-58.324001 -14.674 -608.26001
-79.375999 -12.997 -608.59003
-80.010002 -13.7 -608.33002
35.178001 -12.72 -609.34998
50.519001 -13.869 -608.79999
-58.082001 -12.021 -609.42999
112.75 -12.019 -608.69
-57.734001 -10.197 -609.70001
33.493999 -10.778 -608.92999
32.685001 -10.719 -608.40997
-80.785004 -9.868 -608.71997
-80.094002 -11.482 -608.52002
-79.392998 -11.335 -608.73999
-57.111 -10.009 -608.21002
112.33 -10.399 -609.14001
129.21001 -10.197 -609.10999
-81.529999 -10.138 -608.48999
-79.665001 -9.2526999 -609.03003
23.854 -9.5292997 -608.44
152.14 -9.1520996 -610.16998
31.601 -8.6693001 -609.13
109.91 -8.4201002 -608.51001
129.7 -9.4973001 -607.75
-81.459 -7.4493999 -609.14001
-82.191002 -9.2082005 -608.08002
52.438 -9.6236 -608.53003
24.18 -8.1636 -608.40997
25.004999 -7.4342999 -608.46997
29.385 -7.3976998 -608.84998
-82.190002 -6.1518002 -608.53998
26.764 -7.4152002 -608.25
27.934999 -7.3646002 -608.38
54.437 -6.7368002 -608.15997
-56.185001 -6.6655998 -608.73999
105.04 -5.8603001 -608.57001
106.52 -6.0307002 -608.53998
-55.570999 -4.8754001 -609.17999
102.55 -5.3923998 -608.65002
130.03 -5.6740999 -607.60999
100.53 -4.2241001 -609.03003
97.899002 -4.2712998 -608.39001
-54.168999 -3.5524001 -608.10999
-42.043999 -3.5780001 -608.03998
-53.478001 -2.9556999 -607.75
-42.979 -3.4875 -607.89001
-38.776001 -2.5776 -608.71997
149.63 -2.4972999 -608.85999
-52.827 -1.2149 -608.84998
91.134003 -1.3873 -608.87
-83.029999 -0.1656 -608.82001
-52.119999 -0.61176002 -608.72998
89.856003 -1.396 -608.38
-46.476002 0.19286001 -609.25
-32.021999 -1.2552 -608.21002
-105.47 -1.0973001 -609.15002
-49.283001 0.016317001 -608.34003
86.098 -0.17251 -607.62
84.580002 0.95006001 -608.13
-105.33 1.3527 -609.84998
-30.52 0.49171001 -608.53998
148.62 0.97907001 -608.81
5.3821998 2.8199 -608.19
83.609001 1.6622 -608.59998
81.021004 2.5050001 -608.21997
147.39 2.6995001 -607.70001
-105.47 3.8027 -608.79999
-29.732 3.4784999 -608.46002
6.7126999 3.8517001 -608.46002
69.723 4.3372002 -609.71002
-29.198 4.8990002 -608.70001
6.2038999 6.1434999 -608.78003
5.0012002 6.9425001 -608.65002
145.77 6.4266 -608.41998
2.0009999 8.4069996 -608.90997
133.46001 7.3151002 -608.21002
144.86 8.1936998 -609.13
-26.733 8.4924002 -608.04999
1.1761 9.2693005 -609.38
1.1415 7.4103999 -608.02002
-109.52 9.3094997 -607.73999
-0.28696999 9.9308996 -608.67999
133.94 9.9762001 -609.22998
134.77 10.438 -608.60999
135.46001 11.366 -608.98999
142.2 10.55 -608.89001
-24.135 11.164 -608.78998
-1.9523 11.741 -608.79999
136.39 11.671 -608.76001
140.7 11.521 -609.02002
139.83 11.358 -608.25
137.58 11.782 -608.53003
138.57001 11.827 -608.53998
-109.98 12.892 -608.69
-90.773003 13.049 -608.03003
-21.007999 12.936 -608.03998
-109.68 14.311 -608.83002
-8.3522997 14.519 -609.15997
-108.22 16.482 -608.45001
-101.78 16.058001 -609.15002
-104.36 16.961 -609.35999
-103.87 16.747999 -609.02002
-107.38 -92.116997 -608.19
-106.68 -92.453003 -608.03998
-105.97 -92.43 -607.27002
-101.78 -91.921997 -607.75
-95.475998 -91.153999 -608.09998
-91.276001 -90.178001 -608.45001
-108.32 -87.897003 -608.09998
-108.19 -87.195 -608.45001
-85.202003 -85.763 -609.25
-107.55 -85.267998 -607.87
-106.47 -84.605003 -608.90997
-84.524002 -85.166 -609.90997
-7.2763 -84.337997 -608.45001
-105.31 -83.617996 -609.08002
-104.51 -82.624001 -608.84998
-15.661 -82.990997 -607.81
-104.11 -81.546997 -608.08002
3.2442 -81.609001 -608.35999
-103.97 -80.218002 -606.85999
5.0538998 -80.327003 -608.16998
-103.81 -79.147003 -607.26001
5.9116001 -79.301003 -607.60999
-103.82 -77.046997 -608.45001
-21.746 -77.536003 -608.75
-82.067001 -77.744003 -607.33002
8.1470003 -76.620003 -608.21002
-48.516998 -73.916 -607.34998
8.9666004 -73.93 -607.72998
-49.258999 -75.081001 -608.59998
-47.660999 -73.629997 -607.19
-23.587 -74.597 -608.45001
-51.382 -73.518997 -607.96997
-43.875 -73.489998 -608.25
9.9937 -73.217003 -608.29999
-41.652 -71.793999 -607.31
9.5236998 -72.497002 -608.09003
-30.733999 -71.697998 -607.53998
-29.4 -71.763 -607.69
-27.556999 -71.974998 -608.27002
-26.877001 -71.852997 -608.07001
-37.761002 -70.536003 -607.33002
-32.129002 -71.819 -608.06
7.7783999 -71.727997 -607.75
6.3881001 -70.832001 -607.75
-81.208 -71.446999 -607.75
-81.322998 -65.710999 -608.10999
-81.453003 -63.653 -608.15997
-104.05 -61.997002 -608.09998
-81.936996 -61.563 -607.72998
-104.17 -60.596001 -608.22998
-58.229 -60.411999 -609.23999
-82.214996 -59.974998 -607.75
70.991997 -60.437 -608.54999
-82.372002 -58.686001 -607.78998
68.932999 -59.761002 -608.04999
-81.443001 -58.844002 -608.34998
66.625 -58.625999 -607.40002
-81.362 -57.816002 -608.20001
64.348999 -58.113998 -607.87
-82.504997 -57.081001 -607.84003
-80.252998 -57.620998 -608.15997
-79.597 -57.337002 -608.25
61.775002 -56.558998 -607.62
85.956001 -55.702999 -607.52002
149.98 -56.848999 -608.28998
-79.813004 -55.868 -608.17999
146.97 -55.868999 -608.01001
-108.81 -55.445999 -607.90002
-80.702003 -54.683998 -607.90997
60.249001 -55.021 -607.21002
146.59 -55.127998 -607.40002
153.02 -55.546001 -608.39001
-81.322998 -54.743999 -607.70001
145 -53.875 -607.33002
25.249001 -53.639999 -607.77002
89.422997 -52.424999 -607.94
154.44 -53.145 -608.03003
-109.38 -51.570999 -607.67999
30.777 -51.448002 -608.03998
143.39999 -52.276001 -607.46002
155.53999 -51.372002 -608.56
-60.487 -49.387001 -609.33002
33.069 -50.058998 -607.29999
143.08 -51.007 -606.90997
-84.197998 -49.893002 -608.09998
-86.127998 -49.195 -607.66998
-59.98 -49.560001 -606.88
35.717999 -49.980999 -608.09998
93.071999 -49.269001 -608.15002
-107.38 -47.994999 -607.73999
-100.2 -47.234001 -608.84003
-99.445 -47.882 -608.03998
-91.489998 -48.047001 -607.81
94.857002 -47.494999 -607.06
-97.630997 -47.417 -608.48999
-95.746002 -48.111 -607.39001
-92.93 -47.959 -607.77002
-89.434998 -47.502998 -607.96002
97.591003 -48.139 -608.48999
-104.58 -46.064999 -609.17999
-103.88 -46.528 -608.33002
-60.578999 -46.247002 -606.96997
98.870003 -46.799999 -608.15002
100.08 -46.610001 -608.26001
38.924 -45.351002 -607.57001
39.558998 -45.356998 -607.88
101.28 -46.411999 -608.21002
139.07001 -45.241001 -608.54999
155.99001 -48.550999 -608.28003
40.952 -43.334999 -608.60999
108.42 -41.686001 -607.64001
109.97 -41.620998 -608.34003
138.57001 -41.696999 -607.97998
-60.981998 -41.610001 -607.15997
40.358002 -41.348 -607.71997
155.96001 -41.507999 -607.38
41.043999 -39.868 -607.83002
40.472 -40.133999 -607.58002
110.56 -40.889 -607.96002
138.44 -39.581001 -607.08002
44.214001 -39.185001 -607.94
44.915001 -38.529999 -608.02002
46.466999 -37.494999 -608.53003
48.046001 -35.908001 -607.78003
114.55 -36.514 -608.07001
47.316002 -35.93 -608.16998
46.612 -35.307999 -607.97998
-61.263 -33.297001 -609.15002
134.99001 -32.419998 -606.62
117.25 -32.290001 -607.71002
134.53999 -31.197001 -607.04999
118.07 -30.726999 -607.75
-60.908001 -30.063999 -609.07001
118.65 -29.344999 -607.90997
-108.77 -28.48 -607.41998
-101.34 -28.402 -607.75
157.84 -27.871 -606.96002
-109.8 -26.297001 -607.40002
-93.040001 -27.152 -608.45001
-92.126999 -26.349001 -607.76001
119.51 -24.652 -608.31
118.81 -25 -607.70001
-109.84 -24.191999 -608.33002
-91.091003 -25.646999 -607.71997
158.06 -24.555 -608.53998
-89.515999 -24.441 -607.82001
133.95 -24.063999 -607.29999
-109.8 -23.372999 -607.06
-87.805 -23.539 -608.16998
-86.700996 -23.298 -608.32001
-84.269997 -22.954 -608.28003
45.841 -23.893999 -607.78003
46.613998 -24.604 -607.62
-88.306999 -23.367001 -607.71997
-85.609001 -22.455 -608.23999
-83.531998 -23.127001 -608.37
-60.071999 -24.372 -608.35999
47.363998 -22.959999 -607.78998
118.63 -23.173 -607.82001
-108.81 -22.007999 -607.92999
-86.760002 -22.502001 -608.10999
-82.873001 -22.438 -608.35999
45.956001 -21.250999 -608.46002
46.630001 -22.318001 -608.25
-108.07 -21.870001 -608.94
-86.698997 -21.847 -607.71002
-85.676003 -21.396999 -608.09003
47.991001 -21.759001 -607.71002
118.37 -21.790001 -607.91998
132.08 -21.396999 -608.02002
-85.710999 -20.671 -607.77002
-85.022003 -21.225 -608.16998
-83.307999 -21.729 -608.22998
117.37 -20.52 -607.51001
-84.307999 -20.513 -608.17999
-83.624001 -19.365 -608.15002
43.313999 -19.384001 -608.35999
48.5 -21.402 -607.21002
117.56 -19.863001 -607.87
-85.050003 -19.898001 -607.88
-84.276001 -19.297001 -608.04999
-82.193001 -19.789 -608.13
-81.481003 -19.589001 -608.21002
42.386002 -19.423 -607.90997
130.78 -18.052999 -607.73999
-84.378998 -18.533001 -607.78998
-83.671997 -17.434999 -607.95001
156.5 -17.950001 -608.72998
-105.54 -17.471001 -607.23999
-81.614998 -18.386 -608.09998
38.327 -17.481001 -607.83002
40.195999 -17.290001 -607.95001
41.032001 -16.929001 -608.35999
115.43 -17.822001 -607.76001
116.6 -17.556 -608.22998
-82.903999 -17.620001 -608.09998
115 -16.472 -608.34998
-81.360001 -15.304 -608.07001
37.592999 -16.063 -608.42999
50.480999 -15.097 -608.09998
113.8 -15.598 -608.26001
-82.997002 -15.58 -607.92999
130.33 -14.4 -606.84003
-82.259003 -15.461 -608.04999
-80.728996 -15.343 -608.09003
34.608002 -13.907 -608.39001
112.19 -15.103 -607.46997
-82.803001 -13.977 -607.73999
-82.176003 -13.697 -608.04999
33.202999 -13.584 -607.84998
-81.305 -12.694 -608.25
112.36 -13.521 -607.90002
-82.283997 -12.732 -608.01001
-81.466003 -12.059 -608.29999
23.539 -13.393 -607.25
111.68 -12.445 -607.48999
152.56 -12.361 -607.90002
-82.260002 -11.237 -607.98999
32.462002 -11.945 -607.78003
31.9 -11.142 -607.78003
52.516998 -10.387 -607.89001
111.11 -10.479 -607.84003
30.861 -11.332 -607.17999
29.944 -9.6963997 -607.94
109.76 -9.2189999 -607.71002
24.757999 -8.2671003 -607.88
25.545 -7.7904 -608.01001
28.611 -8.3565998 -607.95001
108.82 -8.4524002 -607.65997
-82.538002 -7.9312 -607.46997
27.329 -8.0798998 -607.71002
106.97 -7.1666002 -607.77002
104.11 -7.0647001 -607.84003
106.08 -6.855 -607.82001
-105.63 -6.5222998 -605.90997
101.46 -6.3322001 -607.76001
55.945999 -4.3969998 -608.22998
-54.914001 -3.8348999 -609.02002
94.704002 -3.0167 -608.59003
129.67999 -4.2473001 -609.15002
-41.035999 -4.2561002 -607.32001
-39.856998 -3.2874 -608.17999
-37.133999 -3.0265 -607.56
-105.51 -2.9786 -608.28003
-52.819 -2.8175001 -607.13
57.301998 -2.8636999 -608.21997
91.817001 -2.6113 -608.10999
-105.59 -1.0098 -607.22998
-82.757004 -2.3153999 -608.21997
-52.165001 -2.5002999 -606.87
90.362 -2.9345 -607.35999
149.14 -3.1973 -607.75
-46.186001 -2.3025 -607.17999
-31.063 -0.51231003 -608.44
59.247002 -1.2225 -607.96997
88.018997 -0.66565001 -608.16998
-83.288002 -0.49004 -607.20001
-50.675999 0.31018999 -608.79999
-47.556999 -0.78904003 -607.91998
147.99001 0.30270001 -607.35999
-83.517998 0.82585001 -607.48999
3.9077001 1.7402 -607.77002
3.4916 1.0027 -608.45001
4.6334 1.7007999 -608.41998
3.9237001 1.4248 -608.45001
132.19 1.8584 -606.41998
-105.54 1.0027 -607.40002
4.5915999 2.4577 -607.78998
64.168999 1.956 -608.15002
-84.081001 2.7639999 -607.28998
66.617996 2.4219999 -607.34998
131.95 2.9726 -608.19
-29.774 2.5035 -606.91998
71.369003 3.7291999 -607.92999
74.958 3.6894 -607.78998
-84.046997 3.8027 -608.79999
7.5704002 4.4874001 -608.97998
-106 5.1480999 -608.16998
6.3171 5.2017002 -608.03003
132.7 4.9731002 -608
-28.285 6.6139002 -608.83002
5.0156002 5.9671001 -607.69
132.59 6.2322001 -609.34003
-108.12 7.6605 -608.45001
-27.532 7.1399999 -607.31
2.085 7.2589002 -607.98999
3.5074 7.1634002 -608.09998
-85.653999 6.9830999 -607.42999
0.38692999 8.5846004 -608.44
-109.02 8.5559998 -607.97998
142.47 9.0084 -607.27002
-87.765999 10.116 -606.98999
-1.0292 9.8348999 -607.54999
135.50999 9.7074003 -607.19
-1.4969 10.788 -607.96997
141.52 9.9551001 -607.58002
137.31 10.914 -607.53003
-23.155001 11.252 -606.85999
-3.4683001 12.092 -607.38
-110.1 12.72 -607.71997
-3.3471999 12.628 -608.87
-91.976997 13.603 -607.75
-19.709 13.581 -608.69
-109.8 14.303 -607.75
-95.125999 14.671 -607.58002
-9.3762999 14.152 -607.04999
-9.7217999 14.73 -609.17999
-100.46 15.654 -608.15002
-97.344002 15.16 -607.52002
-107.45 16.694 -607.85999
-106.74 -91.903 -606.20001
-104.58 -92.386002 -607.40002
-107.8 -91.401001 -607.42999
-98.282997 -91.002998 -606.54999
-108.11 -90.730003 -607.98999
-92.374001 -90.195 -607.22998
-108.23 -89.664001 -608.77002
-108.4 -86.454002 -606.46997
-87.063004 -86.713997 -606.78003
-108.05 -86.288002 -607.71002
-107.42 -84.225998 -606.42999
-8.5012999 -84.083 -607.04999
-6.9263 -83.964996 -606.88
-16.017 -82.442001 -606.37
0.42366999 -82.707001 -607.75
-83.193001 -81.040001 -607.41998
-104.45 -81.542 -607.12
3.3729999 -80.990997 -606.38
7.1255002 -77.627998 -607.46997
-103.9 -75.994003 -607.39001
8.0775003 -75.258003 -607.40002
-103.94 -73.012001 -608.34998
-50.661999 -73.737999 -607.60999
8.2093 -73.204002 -607.21997
-51.433998 -71.864998 -606.10999
-24.636 -72.722 -607.45001
7.7326002 -72.411003 -607.15002
-52.096001 -71.476997 -606.37
-52.793999 -71.471001 -607.34998
-32.490002 -70.777 -606.57001
-26.964001 -70.875 -606.71002
5.9787998 -71.002998 -606.79999
-104.08 -69.872002 -606.34998
-35.214001 -70.473999 -607.40002
-33.248001 -71.007004 -607.22998
5.3497 -70.380997 -606.94
-81.592003 -70.394997 -606.70001
-36.355 -70.500999 -607.65002
4.3845 -69.741997 -606.41998
4.5250001 -69.744003 -607.75
-81.883003 -66.899002 -606.44
-104.14 -62.596001 -606.59998
-82.125 -64.097 -606.71002
-56.683998 -63.394001 -606.88
-82.461998 -62.609001 -606.56
-104.18 -61.275002 -607.57001
-82.612999 -61.207001 -606.82001
-105.2 -59.181999 -607.44
78.658997 -59.619999 -607.71002
-106.65 -57.731998 -607.77002
-83.050003 -58.754002 -607.09998
82.929001 -57.159 -606.58002
-108.09 -56.604 -607.63
-83.748001 -56.551998 -607.09998
64.568001 -57.324001 -606.79999
-59.055 -54.240002 -606.81
-84.240997 -55.005001 -607.15997
-82.195999 -56.138 -607.81
148.47 -56.016998 -607.57001
149.34 -55.285999 -606.70001
150.95 -56.064999 -607.59003
-80.999001 -55.765999 -607.78998
152.05 -55.373001 -607.44
-83.827003 -54.743 -607.39001
-82.315002 -54.092999 -607.52002
-83.303001 -54.394001 -607.46997
-81.821999 -53.787998 -607.62
-59.290001 -52.196999 -606
24.214001 -53.235001 -607.25
25.216 -52.978001 -607.04999
26.285 -53.257 -607.54999
27.221001 -53.165001 -607.69
-85.898003 -52.013 -607.07001
-84.823997 -52.852001 -607.22998
27.393 -51.848 -606.83002
154 -52.388 -606.95001
-83.768997 -52.009998 -607.39001
57.918999 -51.521999 -606.34003
-87.519997 -50.896 -606.95001
21.155001 -50.303001 -606.58002
154.61 -50.817001 -606.92999
-109.14 -50.160999 -607.33002
-85.800003 -50.417 -607.28003
21.191 -50.797001 -607.75
29.858 -50.349998 -607.06
30.629 -50.138 -607.14001
55.951 -50.643002 -607.69
91.017998 -50.598999 -608.02002
155.14999 -49.917999 -607.34998
-108.77 -49.403 -606.85999
-88.841003 -49.676998 -607.09998
34.363998 -50.644001 -608.04999
-91.586998 -48.673 -607.28003
-90.772003 -48.345001 -607.59998
-90.061996 -49.438 -607.03998
-88.139 -48.778 -607.40997
55.230999 -48.498001 -606.95001
91.415001 -49.044998 -607.40997
92.268997 -49.500999 -608.06
-101.1 -47.471001 -608.15997
-97.139 -48.862999 -606.29999
-94.296997 -48.208 -607.34003
-92.884003 -48.625 -607.03003
-90.079002 -48.426998 -607.54999
93.977997 -48.339001 -607.58002
141.09 -47.248001 -607.03998
-104.35 -47.382999 -606.85999
-102.82 -47.768002 -606.63
96.469002 -46.873001 -607.06
38.216999 -45.928001 -607.53998
55.035 -46.938 -606.27002
97.944 -46.101002 -607.13
99.683998 -45.519001 -607.76001
99.787003 -43.917999 -606.96002
100.65 -45.02 -607.69
102.27 -44.521999 -607.51001
155.91 -44.146999 -607.67999
-60.936001 -43.797001 -607.40002
39.728001 -43.43 -607.5
103.84 -44.035 -607.46997
39.001999 -41.388 -606.53998
52.5 -43.167 -607.13
106.92 -41.886002 -607.17999
110.04 -40.347 -607.10999
50.400002 -39.541 -607.09003
111.07 -39.091 -606.20001
111.66 -39.679001 -607.25
41.715 -39.278 -607.70001
42.349998 -38.365002 -607.29999
43.256001 -39.923 -607.96997
112.39 -39.047001 -607.19
40.998001 -37.935001 -607.10999
49.433998 -37.297001 -606.71002
113.18 -38.095001 -607.15002
43.417 -37.507 -607.25
113.18 -36.535999 -605.89001
48.734001 -36.734001 -607.44
44.523998 -36.097 -607.33002
48.424999 -35.042 -606.67999
136.12 -35.404999 -606.65997
47.987 -34.452999 -606.98999
44.412998 -33.439999 -606.91998
45.841 -34.854 -607.65997
46.633999 -33.402 -607.46997
47.25 -34.585999 -607.65002
45.077999 -32.597 -607.09998
45.917999 -32.844002 -607.34998
47.358002 -33.199001 -607.10999
116.49 -32.983002 -607.28998
45.914001 -31.348 -607.20001
46.640999 -31.013 -607.06
117.31 -31.368999 -606.97998
133.50999 -29.879 -608.5
-105.67 -29.363001 -607.41998
-102.97 -29.344999 -607.84003
-60.304001 -28.385 -606.51001
157.73 -29.447001 -607.22998
46.527 -28.999001 -607.03003
118.01 -29.264999 -606.89001
-109.33 -27.695999 -607.69
-100.39 -27.986 -607.14001
-97.926003 -28.096001 -607.34998
-96.153 -27.848 -607.37
45.112999 -27.940001 -607.08002
45.931 -28.849001 -607.14001
46.685001 -26.924 -607.13
157.98 -26.122 -607.59998
-109.95 -25.247 -607.22998
45.229 -25.795 -607.28998
45.91 -26.038 -607.39001
134.19 -24.879999 -607.40002
-110.01 -23.944 -606.12
47.368999 -24.851999 -607.13
44.151001 -23.775 -607.21997
44.313999 -21.891001 -607.75
43.095001 -20.936001 -607.76001
42.438999 -21.188 -607.47998
157.28 -20.177999 -608.59003
-106.7 -19.983999 -607.33002
131.78 -19.853001 -607.16998
-106.68 -19.326 -606.28003
-85.796997 -19.885 -607.02002
41.145 -19.826 -607.01001
50.139999 -19 -606.28998
116.44 -19.958 -607.03998
116.65 -19.117001 -607.65997
41 -18.341 -607.57001
48.726002 -18.974001 -608.34003
115.21 -18.601999 -607.04999
36.806 -18.523001 -606.77002
37.548 -18.045 -607.33002
38.367001 -18.65 -607
131.28999 -16.847 -605.92999
36.323002 -15.79 -607.82001
114.13 -17.785 -607.07001
155.86 -17.833 -606.85999
113.57 -16.822001 -607.62
155.17 -16.77 -606.67999
-83.557999 -16.392 -607.75
-84.120003 -16.409 -606.96002
35.318001 -15.615 -607.46997
50.493999 -16.562 -607.22998
113.12 -15.389 -607.97998
-83.619003 -15.09 -607.12
33.395 -15.259 -607.17999
33.761002 -14.13 -607.94
51.457001 -15.464 -606.65997
153.57001 -13.595 -608.07001
-105.54 -12.997 -606.53003
32.501999 -14.274 -607.15002
52.098999 -12.658 -607.21002
111.53 -14.202 -607.09998
111.08 -12.554 -606.78003
111.01 -11.587 -607.04999
129.05 -11.772 -609.46997
151.98 -11.597 -607.75
-82.871002 -11.964 -607.21002
24.403 -10.318 -607.16998
28.820999 -10.88 -606.81
110.26 -10.626 -607.03998
108.8 -9.7852001 -606.75
-82.799004 -9.4638996 -606.78998
27.778 -9.0256004 -607.21002
26.319 -8.5840998 -607.14001
54.666 -7.3701 -607.35999
104.39 -8.3666 -607.21002
105.88 -8.2596998 -607.21002
108.16 -9.2414999 -606.83002
101.22 -8.0972996 -606.75
106.13 -7.4445 -607.48999
129.81 -7.7473001 -607.66998
98.257004 -5.5556998 -607.63
99.891998 -5.2887998 -608.09998
-82.468002 -5.7017002 -607.88
-55.137001 -5.9631 -607.33002
150.53 -6.9597001 -608.5
95.185997 -5.4825001 -607.15002
-43.028 -5.3243999 -606.23999
-41.540001 -4.2080002 -607.40997
91.772003 -4.3083 -606.97998
93.524002 -3.6912 -607.84003
130.60001 -3.2779 -606.85999
58.403 -3.2112 -606.58002
-34.768002 -2.6171 -607.17999
-83.250999 -1.3933001 -606.63
-31.604 -1.8357 -607.12
-50.675999 -1.3019 -607.27002
-49.964001 -0.026177 -608.32001
-48.535 -0.67435998 -607.78998
-30.702999 -0.62348002 -607.48999
87.192001 -1.4402 -606.95001
60.429001 -0.23064999 -608.03998
2.4739001 0.29291999 -607.28003
83.192001 1.034 -607.34003
-30.375999 0.34542999 -607.5
3.3111999 1.0577 -607.67999
65.403 1.4164 -606.40002
4.4088001 2.9914 -606.96002
69.105003 2.9912 -607.14001
76.995003 3.3924999 -607.62
-105.67 4.3123999 -608.06
5.7205 3.8815999 -607.52002
71.176003 3.0436001 -606.53998
72.136002 3.4247999 -606.90997
73.199997 3.5018001 -607.15002
5.4643998 4.4635 -607.09998
146.3 4.0359001 -606.97998
-85.109001 5.5517001 -607.14001
5.3237 5.2027001 -607.28003
4.3284998 5.3589001 -606.92999
133.17 5.2027001 -607.04999
2.0339999 5.7147999 -606.94
0.4021 7.0085001 -607.59003
-0.32822001 6.2455001 -606.70001
-108.69 7.7867999 -607.16998
-0.29243001 8.3136997 -607.59003
144.25999 7.237 -607.27002
134.22 8.2999001 -607.63
143.25999 9.0644999 -608.13
134.81 9.1618996 -607.45001
-87.07 9.0704002 -606.66998
136.31 10.496 -607.46997
141.46001 8.9070997 -606.40002
138.67999 10.948 -607.46002
140 10.127 -606.91998
-110.07 11.58 -607.34998
-88.499001 10.957 -607.20001
-89.332001 12.282 -608.88
-109.87 13.593 -607
-16.996 13.382 -605.42999
-16.375999 14.331 -608.28003
-14.976 14.573 -608.45001
-12.172 14.398 -607.40002
-99.041 15.085 -606.40997
-106.74 16.884001 -608.08002
-105.64 16.940001 -608.41998
-105.2 -91.999001 -605.97998
-108.06 -90.666 -606.46002
-100.39 -91.103996 -606.60999
-99.719002 -91.259003 -607.17999
-94.869003 -90.583 -606.65002
-91.424004 -89.084999 -605.34998
-108.37 -88.772003 -606.17999
-89.167 -88.176003 -606.15002
-108.46 -87.639 -606.20001
-85.679001 -84.731003 -606.34003
-107.54 -83.311996 -604.75
-13.275 -83.517998 -606.65997
-106.25 -82.603996 -605.65002
-4.1262999 -83.345001 -605.65002
-2.0423 -83.394997 -607.66998
-105.18 -81.717003 -605.90997
-84.250999 -82.344002 -606.21997
-0.80132997 -82.925003 -607.04999
-83.407997 -79.153 -604.94
-19.184 -80.051003 -605.59003
4.4232001 -80.265999 -606.53998
-103.97 -79.273003 -606.10999
7.6535001 -76.313004 -607.34003
7.9082999 -74.574997 -607.03003
-81.891998 -75.261002 -606.45001
7.4116998 -73.914001 -606.56
6.7786002 -72.622002 -606.29999
-25.490999 -70.940002 -605.51001
6.8723998 -71.75 -606.96002
-26.165001 -71.328003 -606.96002
-25.455 -72.087997 -607.63
-28.295 -70.991997 -607.04999
-27.573 -70.878998 -606.90997
-37.391998 -69.929001 -606.82001
-36.675999 -69.602997 -606.46997
-33.799999 -70.038002 -605.92999
-54.192001 -69.723 -607.69
-104.1 -66.196999 -607.58002
-55.415001 -66.918999 -607.16998
-104.54 -61.515999 -605.78003
-104.6 -60.532001 -606.73999
71.205002 -59.185001 -606.71002
74.536003 -59.566002 -606.97998
70.412003 -58.655998 -606.28003
81.319 -58.193001 -606.89001
-84.376999 -56.748001 -606.40002
-108.75 -56.646 -606.53998
-58.084 -57.764 -606.19
63.853001 -56.030998 -605.84998
84.008003 -56.647999 -606.84003
-84.995003 -55.388 -606.41998
61.282001 -55.382999 -606.73999
85.098 -55.145 -606.04999
150.22 -55.448002 -606.85999
86.910004 -54.025002 -606.69
148.12 -54.751999 -606.44
151.59 -53.858002 -605.96997
59.419998 -53.466999 -606.47998
146.53 -53.898998 -606.31
-109.39 -52.866001 -605.46997
-86.014 -53.224998 -606.64001
144.45 -51.723 -606.15997
-85.655998 -52.832001 -606.95001
23.556 -52.695999 -606.82001
26.341 -51.993 -606.54999
87.239998 -52.879002 -605.95001
-109.36 -51.942001 -606.96997
-87.814003 -51.701 -606.46002
22.674 -51.773998 -606.45001
89.774002 -50.780998 -607.08002
28.249001 -51.145 -606.77002
-109.18 -50.619999 -606.20001
-89.904999 -50.291 -606.40997
-88.782997 -50.474998 -606.76001
57.775002 -50.243999 -605.56
29.141001 -49.646 -606.40002
29.916 -49.396999 -606.42999
31.768 -48.799 -606.10999
-107.99 -48.702 -607.06
-92.984001 -49.363998 -606.03003
20.110001 -49.507999 -606.63
32.813 -48.446999 -606.14001
34.304001 -48.144001 -606.46002
90.640999 -48.393002 -606.56
143.07001 -49.323002 -605.98999
-101.06 -48.905998 -605.98999
35.849998 -48.360001 -607.23999
91.427002 -47.549 -606.54999
92.153999 -47.598999 -606.79999
154.88 -48.393002 -606.44
36.400002 -47.275002 -607.02002
93.371002 -46.325001 -606.22998
95.282997 -46.615002 -606.60999
37.445 -46.238998 -607.28003
95.944 -45.48 -606.22998
37.594002 -44.694 -606.85999
97.186996 -45.207001 -606.38
98.648003 -44 -606.45001
155.05 -45.419998 -606.17999
-60.484001 -44.124001 -605.64001
37.462002 -43.452 -606.39001
100.69 -43.313 -606.95001
101.92 -42.595001 -606.65002
140.00999 -44.654999 -607.33002
38.863998 -43.062 -606.85999
140.96001 -42.570999 -605.53998
52.460999 -41.282001 -606.06
105.19 -41.547001 -606.58002
106.96 -40.376999 -606.40997
108.04 -40.634998 -606.78003
108.84 -40.750999 -607.09998
138.72 -40.319 -607.16998
-60.938999 -38.787998 -607.01001
39.220001 -38.814999 -606.37
108.63 -39.530998 -606.08002
137.63 -38.847 -607.63
156.16 -38.547001 -607.40002
49.941002 -39.092999 -607.38
112.15 -38.553001 -606.45001
40.307999 -38.153 -607
156.24001 -36.271999 -606.88
39.651001 -36.122002 -606.27002
-60.654999 -35.571999 -606.41998
40.369999 -36.013 -606.45001
42.158001 -36.839001 -606.78003
136.55 -36.123001 -606.63
43.088001 -35.665001 -606.75
41.355 -34.986 -606.28003
135.35001 -33.664001 -606.66998
-60.726002 -33.646999 -606.88
42.743 -31.722 -606.33002
43.98 -30.847 -606.65997
47.360001 -30.638 -606.46002
-104.07 -29.084999 -606.5
45.273998 -30.146999 -607.03998
47.353001 -29.313 -606.37
-103.23 -28.601999 -605.66998
-101.83 -28.405001 -606.96997
-101.31 -28.017 -606.84003
43.028 -29.097 -606.38
47.368999 -27.556 -606.46002
135.7 -28.747 -605.27002
-95.433998 -27.006001 -605.63
118.67 -27.358 -607.53998
135.17999 -26.782 -606.13
-93.237999 -26.315001 -606.21002
43.125 -26.393999 -606.53998
118.32 -25.841999 -606.96997
41.112999 -26.254999 -606.17999
134.64999 -25.561001 -606.85999
43.862 -25.200001 -606.90002
118.12 -24.51 -606.91998
-90.862 -24.853001 -606.53003
42.612999 -24.827 -606.66998
157.53 -24.547001 -605.39001
41.573002 -24.398001 -606.48999
42.473 -22.792999 -607.09998
157.58 -23.146999 -606.70001
-87.734001 -22.266001 -606.98999
41.860001 -22.198 -606.94
117.51 -22.221001 -606.90997
-109.42 -22.469 -607.15997
40.445999 -21.681 -606.03998
116.89 -21.179001 -606.70001
-108.66 -21.228001 -606.60999
-59.195999 -21.396999 -606.58002
40.028 -20.257999 -606.26001
37.508999 -19.636 -606.34003
39.641998 -18.860001 -606.88
40.323002 -19.01 -606.96997
-105.97 -18.648001 -606.77002
114.1 -18.452 -606.31
-105.69 -18.103001 -607.06
-84.734001 -17.924999 -607.01001
112.75 -17.784 -606.32001
35.442001 -17.327999 -606.5
111.73 -17.198 -606.46997
111.61 -16.546 -606.76001
32.681 -15.445 -606.81
32.706001 -16.325001 -606.32001
31.959999 -15.309 -606.44
-57.730999 -15.097 -606.20001
30.660999 -14.541 -605.65997
110.48 -14.758 -606.27002
153.37 -14.751 -606.02002
31.448999 -13.466 -606.56
-83.327003 -13.783 -606.96002
31.325001 -12.406 -606.85999
-83.247002 -11.714 -606.22998
24.243 -12.124 -606.48999
30.298 -12.112 -606.5
53.036999 -11.338 -606.78003
110.36 -12.679 -606.15997
-57.487 -12.647 -607.28998
110.16 -11.632 -606.37
151.14999 -10.593 -607.25
27.132 -10.208 -606.28998
-105.51 -9.3223 -607.22998
25.591 -9.2011995 -606.67999
26.966999 -9.1117001 -606.84998
105.55 -10.329 -606.46002
105.95 -9.9518995 -606.65997
130.38 -8.9722996 -606.08002
-56.318001 -9.3334999 -606.88
54.375999 -9.7637997 -606.26001
103.67 -10.277 -606.04999
55.936001 -7.3604002 -605.91998
103.04 -7.5293002 -607.40002
-105.54 -7.3098001 -607.22998
-55.207001 -7.5950999 -605.90997
95.477997 -7.0302 -606.40997
93.531998 -5.6285 -606.71002
-42.314999 -4.9134002 -606.71002
56.157001 -5.7505002 -606.71997
-83.029999 -4.4768 -606.15997
-44.220001 -4.0627999 -606.88
89.049004 -2.8166001 -606.83002
-34.518002 -3.4212999 -606.03998
-32.512001 -2.4038 -606.73999
88.321999 -3.3831999 -605.96997
0.90226001 -1.8039 -606.57001
1.1145 -1.0805 -606.34998
147.64999 -1.7111 -606.02002
1.8119 -0.021118 -606.41998
60.702 -1.5412 -606.04999
2.006 0.30270001 -606.34998
62.418999 0.51977998 -607.20001
84.306 -0.19713999 -606.40997
2.4923999 1.0863 -606.40002
-84.153 1.375 -605.42999
80.261002 1.7108999 -606.34003
79.43 2.6884 -607.40002
-105.62 3.0920999 -607.23999
3.9277 3.0977001 -606.34003
72.566002 3.1912999 -606.38
78.792 2.431 -606.59998
-105.98 4.4013 -606.76001
1.0726 3.7957001 -606.17999
4.2725 4.4885998 -606.41998
-106.98 5.6831999 -606.58002
-0.26010999 5.1427002 -606.40002
1.1433001 5.6292 -607.02002
3.1959 5.6900001 -606.90997
2.9414001 4.6464 -606.28003
134.14999 6.2270002 -606.02002
144.98 5.7301998 -606.67999
-26.958 7.2954998 -605.98999
134.75999 7.8568001 -606.38
-25.839001 9.2636995 -607.44
-24.847 9.8905001 -606.67999
-1.7235 10.101 -606.62
-110.12 12.229 -606.81
-20.576 12.763 -606.82001
-4.8260002 12.567 -606.71002
-92.343002 13.346 -606.31
-19.492001 12.967 -606.17999
-18.377001 13.374 -606.37
-7.1984 13.628 -606.89001
-8.3240995 13.521 -605.65002
-108.8 15.933 -606.92999
-109.46 15.428 -607.01001
-102.13 15.536 -606.70001
-107.41 -91.638 -606.35999
-100.38 -90.412003 -604.95001
-108.17 -89.842003 -605.72998
-93.316002 -89.575996 -605
-108.04 -84.897003 -605.85999
-11.147 -83.808998 -606.5
-5.3512998 -83.412003 -605.29999
-1.4758 -82.592003 -604.95001
-83.753998 -81.264 -606.15997
-17.051001 -81.481003 -605.08002
-18.046 -81.300003 -606.63
-104.52 -80.745003 -605.73999
-20.629999 -78.866997 -607.40002
5.0307002 -78.778999 -605.16998
-82.568001 -78.622002 -606.70001
-82.763 -76.865997 -605
-21.347 -77.490997 -605.12
-103.92 -77.921997 -606.21002
7.0742998 -75.703003 -606.27002
-22.915001 -75.678001 -607.92999
-23.419001 -74.674004 -606.17999
-104.03 -72.410004 -607.01001
5.9984999 -72.730003 -605.44
-50.719002 -72.222 -605.98999
-48.442001 -72.139 -605.67999
-44.323002 -71.264 -606.01001
-81.914001 -69.870003 -605.77002
-43.880001 -70.157997 -605.23999
-31.943001 -69.926003 -605.41998
-26.282 -70.447998 -605.65002
-39.741001 -69.763 -606.08002
-29.164 -69.184998 -605.03003
-53.466999 -68.5 -604.97998
-38.300999 -69.220001 -605.96002
-35.942001 -69.622002 -606.29999
3.1659999 -68.834999 -605.56
3.2228999 -69.015999 -606.34998
-54.869999 -67.719002 -606.78998
-55.803001 -65.183998 -606.27002
-104.17 -65.230003 -604.90997
-104.15 -63.741001 -605.98999
-56.127998 -63.282001 -605.28998
-83.565002 -62.660999 -604.20001
-83.542999 -60.951 -605.23999
-105.26 -59.93 -606.31
-57.389 -60.946999 -606.70001
76.166 -58.424999 -605.33002
69.179001 -57.185001 -605.09998
79.587997 -58.355999 -606.25
66.942001 -57.698002 -606.28998
-85.264999 -56.612999 -605.34003
65.250999 -56.448002 -605.65002
-109.37 -55.428001 -605.04999
62.425999 -55.387001 -605.98999
-109.22 -54.646999 -606.17999
-85.853996 -55.327 -605.56
61.076 -54.174 -605.76001
150.92999 -54.602001 -606.28003
-86.492996 -53.668999 -606.07001
147.67999 -52.855999 -605.12
149.19 -53.936001 -605.60999
150.21001 -54.041 -605.71997
150.99001 -52.736 -604.98999
152.37 -53.172001 -605.97998
146.3 -52.998001 -605.79999
153.05 -53.193001 -606.51001
-88.356003 -52.290001 -605.62
22.99 -51.464001 -605.70001
24.157 -51.980999 -605.90002
24.937 -51.807999 -605.91998
86.997002 -51.571999 -604.79999
145.53999 -50.125999 -604.51001
-90.220001 -51.002998 -605.5
21.938 -50.403 -605.25
-108.81 -50.067001 -605.47998
-91.620003 -49.618999 -606.28998
153.74001 -50.166 -605.59003
-94.776001 -49.792 -604.95001
-106.69 -48.415001 -606.13
-99.676003 -49.068001 -606.12
-95.825996 -49.438999 -605.40997
28.422001 -48.938 -605.77002
29.239 -48.59 -605.72998
30.75 -48.183998 -605.44
-105.99 -48.477001 -605.26001
19.941999 -49.009998 -605.89001
-60.16 -47.122002 -605.83002
90.731003 -46.603001 -605.65002
142.21001 -48.000999 -606.19
91.899002 -45.979 -605.59998
94.095001 -45.292 -605.87
35.759998 -45.445 -605.84003
141.25999 -45.993 -606.37
94.850998 -44.235001 -605.64001
36.657001 -44.415001 -606.14001
95.882004 -42.805 -605.47998
97.468002 -43.5 -605.89001
98.959 -42.777 -606.21997
37.526001 -40.723 -605.69
98.110001 -42.136002 -605.84998
99.658997 -41.738998 -606.19
38.198002 -40.527 -605.92999
100.38 -41.612999 -606.23999
103.05 -41.437 -606.20001
139.8 -41.314999 -606.29999
52.436001 -39.502998 -604.81
97.800003 -40.525002 -605.66998
98.759003 -40.061001 -605.71002
101.42 -40.686001 -605.78003
140.46001 -40.305 -604.97998
155.21001 -38.728001 -604.65002
105.81 -39.299999 -605.73999
107.25 -38.854 -605.47998
110.33 -39.134998 -606
51.113998 -38.402 -605.28998
39.495998 -37.469002 -606.40002
50.145 -36.762001 -604.97998
-60.359001 -38.196999 -604.63
38.779999 -36.330002 -605.78998
38.269001 -38.028999 -605.58002
138.42 -38.457001 -606.15997
38.778999 -35.124001 -605.77002
135.72 -34.699001 -606.72998
39.695999 -34.358002 -606.06
41.811001 -33.648998 -606.21002
114.52 -34.460999 -606.01001
38.924 -32.263 -605.63
116.32 -31.929001 -605.78998
-59.877998 -31.021999 -604.40002
39.624001 -32.654999 -605.87
116.85 -30.929001 -605.71002
-60.602001 -30.421 -606.83002
39.523998 -30.677999 -605.67999
41.723999 -30.497 -606.06
157.37 -30.497 -606
40.286999 -31.193001 -605.87
-59.869999 -28.242001 -604.92999
39.681999 -29.389 -605.65997
40.450001 -29.052 -605.92999
42.068001 -29.193001 -606.14001
157.44 -29.254 -605.21997
-108.05 -28.360001 -605.09003
-107.38 -28.996 -606.88
-105.28 -28.962999 -606.02002
41.011002 -27.750999 -606.06
117.37 -29.718 -605.96002
-109.4 -27.392 -606.01001
40.285999 -27.957001 -605.85999
-100.78 -27.525 -605.81
-98.625999 -27.261999 -604.84998
-97.193001 -27.625 -606.21002
40.273998 -26.450001 -605.69
-109.74 -26.297001 -605.13
-59.654999 -25.771999 -605.29999
47.894001 -25.684 -606.14001
-92.311996 -25.634001 -605.96002
-59.291 -24.056 -605.20001
41.101002 -24.427999 -606.23999
-109.96 -25.247 -605.47998
117.08 -24.788 -605.29999
135.00999 -24.902 -606
-89.543999 -23.898001 -606.88
48.027 -23.111 -607
39.754002 -23.066 -605.29999
49.445999 -22.827999 -604.96997
157.08 -22.846001 -604.78003
-58.847 -22.447001 -604.78003
133.38 -23.354 -607.59998
-58.417 -21.396999 -604.14001
39.617001 -21.733 -605.56
-86.686996 -21.062 -606.88
132.7 -21.096001 -606.59998
36.807999 -20.113001 -605.95001
38.832001 -19.862 -606.19
115.64 -20.211 -606.16998
-58.393002 -17.749001 -606.29999
36.146 -18.784 -606.25
115.03 -19.225 -606.37
131.67 -18.597 -606.34998
156.28999 -18.597 -607.04999
111.46 -17.837 -605.81
34.591999 -16.687 -606.52002
110.54 -17.176001 -605.90997
-105.64 -15.764 -603.85999
31.98 -16.847 -605.79999
-85.015999 -16.750999 -605.35999
31.225 -15.838 -605.75
52.376999 -14.412 -606.15002
109.42 -14.637 -605.69
-84.042 -15.214 -606.27002
130.74001 -15.066 -606.17999
29.540001 -12.802 -605.78998
30.341999 -13.453 -605.83002
108.9 -13.245 -605.65997
130.39999 -11.794 -606.16998
-105.71 -12.339 -605.15002
24.309999 -12.99 -605.59003
109.68 -12.496 -605.88
24.844 -11.412 -605.75
107.18 -13.383 -605.51001
109.03 -12.08 -605.88
-56.528 -10.927 -606.17999
24.948 -9.8128996 -606.60999
107.24 -11.024 -606.25
107.74 -9.8354998 -606.53003
-105.58 -11.247 -606.88
25.601999 -10.385 -605.84998
26.32 -9.7951002 -606.21997
150.07001 -9.8633003 -606.02002
98.469002 -10.939 -605.08002
-55.375999 -8.8044004 -605.31
96.489998 -9.0479002 -605.67999
98.624001 -8.4104004 -606.20001
149.88 -8.2419996 -606.72998
97.374001 -8.4473 -606.02002
94.133003 -7.4165001 -606.02002
130.52 -6.1722999 -606.15997
-83.072998 -7.3557 -605.65997
-54.206001 -5.2508001 -606.39001
91.790001 -5.9453001 -606.07001
-53.169998 -4.5605998 -605.79999
90.011002 -4.9828 -605.82001
-0.25623 -3.7267001 -606.01001
148.45 -4.388 -606.19
-105.74 -4.0723 -605.42999
-48.237999 -2.8148 -606.03998
-83.342003 -2.1549001 -605.66998
-31.061001 -2.0488 -606.46997
-30.695999 -2.4168999 -605.69
59.272999 -2.2163999 -606.70001
-30.349001 -1.5226001 -605.72998
0.38679999 -1.8315001 -605.72998
131.37 -0.88085002 -606.34998
-105.88 -0.39730999 -604.59998
62.287998 -0.35905999 -606.12
-29.959 1.0027 -606
64.565002 0.30982 -605.39001
146.74001 -0.31281 -605.28003
1.6004 0.66475999 -605.69
-105.76 2.2047999 -605.95001
3.0711999 2.1921999 -606.02002
0.42949 2.0606 -605.67999
2.5062001 2.4026999 -605.65002
67.000999 1.6693 -605.90997
-0.29909 2.957 -605.65997
1.813 2.6235001 -605.65002
2.5237 3.1027 -605.72998
3.2237 3.1027 -605.84998
70.776001 1.9867001 -605.03998
72.721001 2.1921 -605.06
73.988998 2.5218999 -605.64001
132.77 3.4779999 -606.47998
0.41205999 4.7620001 -606.59998
2.3900001 3.8721001 -605.96002
3.2237 3.8027 -605.95001
4.0910001 3.7649 -606.20001
144.95 4.4983001 -605.60999
-0.56431001 4.112 -605.65997
-85.672997 5.2087998 -604.22998
