# .PCD v0.7 - Point Cloud Data file format
VERSION 0.7
FIELDS x y z
SIZE 4 4 4
TYPE F F F
COUNT 1 1 1
WIDTH 1555
HEIGHT 1
VIEWPOINT 0 0 0 1 0 0 0
POINTS 1555
DATA ascii
33.737 -106.36 -641.27002
11.625 -105.94 -641.22998
33.193001 -105.86 -641.59998
33.693001 -105.86 -641.38
33.905998 -105.86 -641.22998
11.168 -105.39 -641.22998
33.193001 -105.36 -641.64001
33.693001 -105.36 -641.44
34.123001 -105.36 -641.19
33.693001 -104.86 -641.47998
34.200001 -104.87 -641.22998
33.693001 -104.36 -641.54999
34.276001 -104.36 -641.28003
33.693001 -103.86 -641.60999
34.193001 -103.86 -641.40002
34.605999 -103.86 -641.17999
9.2056999 -103.35 -641.22998
34.193001 -103.36 -641.46997
8.7016001 -102.85 -641.14001
34.193001 -102.86 -641.53998
34.687 -103.32 -641.22998
34.759998 -102.86 -641.27002
8.2042999 -102.35 -641.15002
34.693001 -102.36 -641.40002
35.098999 -102.36 -641.17999
7.6936002 -101.86 -641.22998
34.693001 -101.86 -641.51001
35.200001 -101.87 -641.22998
7.1757998 -101.37 -641.31
34.693001 -101.36 -641.60999
35.303001 -101.36 -641.28998
6.6122999 -100.93 -641.22998
35.193001 -100.86 -641.47998
35.681 -100.83 -641.21997
5.9439998 -100.36 -641.22998
6.1929002 -100.58 -641.22998
35.193001 -100.36 -641.59998
35.757 -100.36 -641.27002
5.2865 -99.776001 -641.22998
5.6929002 -100.13 -641.22998
35.693001 -99.860001 -641.41998
36.089001 -99.860001 -641.15997
4.7223001 -99.334999 -641.14001
35.693001 -99.360001 -641.51001
36.181 -99.327003 -641.21997
4.2014999 -98.851997 -641.21002
35.693001 -98.860001 -641.59998
36.257 -98.860001 -641.27002
3.6805999 -98.383003 -641.25
36.193001 -98.360001 -641.41998
36.588001 -98.360001 -641.16998
3.1824999 -97.879997 -641.25
36.193001 -97.860001 -641.5
36.679001 -97.821999 -641.21997
2.6830001 -97.380997 -641.25
36.193001 -97.360001 -641.60999
36.755001 -97.360001 -641.27002
-44.806999 -96.860001 -641.59003
-44.924 -96.860001 -641.22998
-44.806999 -96.952003 -641.22998
-44.306999 -97.068001 -641.22998
-43.806999 -97.149002 -641.22998
-43.306999 -97.209 -641.22998
-42.806999 -97.308998 -641.10999
-42.306999 -97.329002 -641.15002
-41.806999 -97.329002 -641.15002
-41.306999 -97.225998 -641.22998
-40.806999 -97.000999 -641.22998
-40.687 -96.860001 -641.22998
2.1810999 -96.883003 -641.25
36.693001 -96.860001 -641.41998
37.095001 -96.860001 -641.16998
-45.250999 -96.360001 -641.22998
1.6756001 -96.391998 -641.25
36.693001 -96.360001 -641.48999
37.157001 -96.360001 -641.21002
-45.292999 -95.860001 -641.22998
-40.014999 -95.860001 -641.22998
1.1734 -95.902 -641.26001
36.693001 -95.860001 -641.56
37.221001 -95.918999 -641.23999
-45.241001 -95.360001 -641.22998
-39.806999 -95.583 -641.22998
-39.375999 -95.321999 -641.22998
0.68053001 -95.385002 -641.25
37.271 -95.360001 -641.28998
-45.248001 -94.860001 -641.22998
-38.806999 -95.100998 -641.22998
-38.308998 -94.859001 -641.21997
0.18997 -94.866997 -641.23999
37.314999 -94.860001 -641.31
-45.257999 -94.360001 -641.22998
-37.82 -94.341003 -641.12
-0.29888999 -94.350998 -641.21002
37.193001 -94.360001 -641.40002
37.588001 -94.360001 -641.15997
-45.271 -93.860001 -641.22998
-37.653 -93.860001 -641.22998
-0.79273999 -93.846001 -641.19
36.693001 -93.860001 -641.62
37.325001 -93.860001 -641.29999
-45.27 -93.360001 -641.22998
-37.462002 -93.360001 -641.22998
-1.2790999 -93.327003 -641.15002
36.693001 -93.360001 -641.53998
37.269001 -93.360001 -641.27002
-45.278999 -92.860001 -641.22998
-37.306999 -93 -641.22998
-37.139 -92.860001 -641.22998
-1.7052 -92.746002 -641.22998
37.193001 -92.860001 -641.38
37.462002 -92.860001 -641.22998
-45.308998 -92.416 -641.25
-36.806999 -92.634003 -641.22998
-36.306999 -92.508003 -641.22998
-35.886002 -92.323997 -641.22998
-7.8070998 -92.360001 -641.39001
-8.2835999 -92.347 -641.21002
-7.8070998 -92.702003 -641.22998
-7.3028998 -92.366997 -641.22998
-2.0357001 -92.360001 -641.22998
37.693001 -92.602997 -641.22998
37.693001 -92.360001 -641.40002
37.901001 -92.360001 -641.22998
-45.344002 -91.860001 -641.22998
-35.306 -91.861 -641.20001
-8.8077002 -91.861 -641.22998
-8.3071003 -91.860001 -641.56
-7.8070998 -91.860001 -641.53998
-7.2905998 -91.761002 -641.25
-2.3496001 -91.948997 -641.28998
38.193001 -92.135002 -641.22998
38.66 -91.837997 -641.19
-45.423 -91.360001 -641.22998
-34.866001 -91.277 -641.22998
-9.3071003 -91.360001 -641.41998
-9.3642998 -91.403999 -641.22998
-7.8070998 -91.360001 -641.53003
-7.3621001 -91.360001 -641.19
-2.8440001 -91.429001 -641.27002
39.228001 -91.375 -641.25
-45.486 -90.860001 -641.22998
-34.609001 -90.860001 -641.22998
-9.8071003 -90.860001 -641.53003
-10 -90.860001 -641.22998
-9.8071003 -91.028 -641.22998
-7.7126002 -90.860001 -641.31
-3.4093001 -90.860001 -641.28998
-3.3071001 -90.988998 -641.22998
39.734001 -90.880997 -641.26001
-45.511002 -90.360001 -641.22998
-10.579 -90.360001 -641.22998
-10.307 -90.582001 -641.22998
-7.8171 -90.407997 -641.21997
-4.8148999 -90.366997 -641.23999
-4.3070998 -90.401001 -641.26001
-3.8071001 -90.754997 -641.15002
-3.8071001 -90.360001 -641.46997
40.244999 -90.383003 -641.26001
-46.992001 -89.860001 -641.22998
-46.806999 -90.067001 -641.22998
-46.306999 -90.152 -641.22998
-45.806999 -90.144997 -641.22998
-33.889999 -89.744003 -641.22998
-11.238 -89.796997 -641.22998
-10.807 -90.158997 -641.22998
-8.3071003 -89.860001 -641.46002
-8.0235996 -89.860001 -641.22998
-5.4274001 -89.860001 -641.31
-5.3070998 -90.116997 -641.22998
-4.8070998 -89.860001 -641.53003
40.693001 -89.940002 -641.33002
-47.09 -89.360001 -641.22998
-33.548 -89.360001 -641.22998
-11.798 -89.351997 -641.19
-8.2528 -89.360001 -641.26001
-5.8070998 -89.360001 -641.41998
-6.2578001 -89.276001 -641.20001
-5.8070998 -89.742996 -641.15997
41.193001 -89.760002 -641.14001
41.671001 -89.338997 -641.20001
-47.119999 -88.860001 -641.22998
-33.306999 -89.120003 -641.22998
-32.908001 -88.773003 -641.22998
-12.333 -88.877998 -641.34998
-8.8071003 -88.860001 -641.47998
-8.3380003 -88.962997 -641.22998
-6.3070998 -88.860001 -641.46997
-6.7733002 -88.791 -641.21002
42.153 -88.749001 -641.20001
-47.140999 -88.360001 -641.22998
-32.372002 -88.304001 -641.22998
-13.271 -88.314003 -641.19
-12.807 -88.584999 -641.22998
-8.8071003 -88.360001 -641.41998
-8.3045998 -88.365997 -641.22998
-6.8070998 -88.360001 -641.46002
-7.2933998 -88.346001 -641.21997
42.277 -88.360001 -641.32001
-47.195 -87.860001 -641.22998
-31.823999 -87.846001 -641.22998
-14.035 -87.860001 -641.22998
-13.807 -87.977997 -641.22998
-9.3071003 -87.860001 -641.57001
-8.8071003 -87.860001 -641.40002
-8.3071003 -87.860001 -641.28003
-7.8070998 -87.927002 -641.25
-7.3070998 -87.860001 -641.45001
42.669998 -87.747002 -641.21002
-47.238998 -87.360001 -641.22998
-31.267 -87.393997 -641.22998
-14.807 -87.418999 -641.29999
-15.191 -87.332001 -641.21002
-14.307 -87.789001 -641.15002
-9.3071003 -87.360001 -641.53998
-8.8071003 -87.360001 -641.40997
-8.3071003 -87.360001 -641.37
-7.8070998 -87.360001 -641.48999
42.744999 -87.360001 -641.28998
-47.262001 -86.860001 -641.22998
-30.712999 -86.936996 -641.22998
-16.35 -86.866997 -641.23999
-15.807 -86.970001 -641.32001
-9.3071003 -86.860001 -641.52002
-8.8071003 -86.860001 -641.45001
-8.3071003 -86.860001 -641.51001
43.106998 -86.860001 -641.13
-47.262001 -86.360001 -641.22998
-30.306999 -86.613998 -641.22998
-29.899 -86.287003 -641.22998
-17.306999 -86.440002 -641.29999
-17.782 -86.350998 -641.21997
-16.806999 -86.791 -641.17999
-16.806999 -86.360001 -641.53003
-9.3071003 -86.360001 -641.58002
-8.8071003 -86.360001 -641.59998
43.214001 -86.386002 -641.25
-47.268002 -85.860001 -641.22998
-18.806999 -85.938004 -641.29999
-19.302999 -85.859001 -641.22998
-18.306999 -86.252998 -641.13
-18.306999 -85.860001 -641.46997
43.439999 -85.860001 -641.22998
-47.278 -85.360001 -641.22998
-28.806999 -85.558998 -641.22998
-28.379 -85.32 -641.22998
-20.306999 -85.360001 -641.38
-20.725 -85.319 -641.22998
-20.306999 -85.507004 -641.22998
-19.806999 -85.677002 -641.22998
-19.806999 -85.360001 -641.52002
43.68 -85.327003 -641.20001
-47.307999 -84.876999 -641.23999
-27.686001 -84.927002 -641.22998
-21.306999 -84.860001 -641.47998
-21.798 -84.856003 -641.21997
-21.306999 -85.043999 -641.22998
43.766998 -84.860001 -641.32001
-47.32 -84.360001 -641.22998
-27.306999 -84.721001 -641.22998
-26.806999 -84.511002 -641.22998
-26.308001 -84.360001 -641.22998
-23.389999 -84.369003 -641.25
-22.806999 -84.525002 -641.22998
-22.306999 -84.661003 -641.22998
-47.32 -83.860001 -641.22998
-25.806999 -84.245003 -641.22998
-25.306999 -84.197998 -641.22998
-24.806999 -84.196999 -641.22998
-24.306999 -84.237999 -641.22998
-23.806999 -84.325996 -641.12
44.214001 -83.958 -641.26001
-47.352001 -83.360001 -641.22998
44.490002 -83.360001 -641.22998
-47.387001 -82.860001 -641.22998
44.693001 -82.860001 -641.22998
-47.405998 -82.360001 -641.22998
44.901001 -82.360001 -641.22998
-47.366001 -81.860001 -641.22998
45.175999 -81.824997 -641.19
-47.300999 -81.397003 -641.22998
45.275002 -81.360001 -641.34003
-47.043999 -80.860001 -641.22998
45.667 -80.748001 -641.20001
-46.742001 -80.453003 -641.22998
45.756001 -80.360001 -641.31
-46.308998 -79.857002 -641.19
-46.091999 -79.360001 -641.22998
46.216 -79.460999 -641.26001
-45.917999 -78.860001 -641.22998
46.605 -78.860001 -641.10999
-45.806999 -78.355003 -641.27002
46.714001 -78.384003 -641.25
-45.777 -77.860001 -641.22998
46.967999 -77.860001 -641.22998
-45.793999 -77.360001 -641.09998
47.193001 -77.360001 -641.22998
47.424 -76.860001 -641.22998
-45.811001 -76.460999 -641.26001
47.681999 -76.336998 -641.20001
-45.855 -75.860001 -641.22998
47.889999 -75.860001 -641.22998
-45.875999 -75.360001 -641.22998
48.18 -75.333 -641.20001
-45.911999 -74.860001 -641.22998
48.383999 -74.860001 -641.22998
-45.938 -74.360001 -641.22998
48.681 -74.336998 -641.20001
-45.950001 -73.860001 -641.22998
48.898998 -73.860001 -641.22998
-45.951 -73.360001 -641.22998
49.181 -73.336998 -641.20001
-45.957001 -72.860001 -641.22998
49.409 -72.860001 -641.22998
-45.985001 -72.360001 -641.22998
49.682999 -72.339996 -641.20001
-46.006001 -71.860001 -641.22998
49.896 -71.860001 -641.22998
-46.012001 -71.360001 -641.22998
50.178001 -71.325996 -641.17999
-46.019001 -70.860001 -641.22998
50.352001 -70.860001 -641.22998
-46.035 -70.360001 -641.22998
50.623001 -70.360001 -641.13
-46.064999 -69.860001 -641.22998
50.712002 -69.952003 -641.26001
-46.105 -69.360001 -641.22998
50.959999 -69.360001 -641.22998
-46.132 -68.860001 -641.22998
51.179001 -68.778999 -641.21002
-46.140999 -68.360001 -641.22998
51.249001 -68.360001 -641.32001
-46.162998 -67.860001 -641.22998
51.444 -67.860001 -641.22998
-46.176998 -67.360001 -641.22998
51.645 -67.360001 -641.15002
-46.160999 -66.860001 -641.22998
51.698002 -66.905998 -641.23999
-46.146999 -66.360001 -641.22998
51.75 -66.360001 -641.33002
-46.16 -65.860001 -641.22998
51.894001 -65.860001 -641.22998
-46.188 -65.360001 -641.22998
51.965 -65.360001 -641.22998
-46.194 -64.860001 -641.22998
52.027 -64.860001 -641.22998
-46.193001 -64.360001 -641.22998
52.126999 -64.360001 -641.09998
-46.209999 -63.860001 -641.22998
52.138 -63.860001 -641.12
-46.221001 -63.360001 -641.22998
52.141998 -63.360001 -641.13
-46.215 -62.860001 -641.22998
52.141998 -62.860001 -641.14001
-46.205002 -62.360001 -641.22998
52.155998 -62.360001 -641.16998
-46.203999 -61.860001 -641.22998
52.168999 -61.860001 -641.20001
-46.223 -61.360001 -641.22998
52.185001 -61.308998 -641.22998
-46.242001 -60.860001 -641.22998
52.297001 -60.860001 -641.28998
-46.255001 -60.360001 -641.22998
52.693001 -60.619999 -641.22998
52.693001 -60.360001 -641.44
53.146 -60.279999 -641.20001
-46.269001 -59.860001 -641.22998
53.193001 -59.860001 -641.51001
53.671001 -59.841999 -641.20001
-46.298 -59.360001 -641.14001
54.183998 -59.341999 -641.22998
-46.306999 -58.849998 -641.21997
54.673 -58.808998 -641.21997
-46.327 -58.360001 -641.22998
54.693001 -58.360001 -641.46997
55.091999 -58.360001 -641.15002
-46.348999 -57.860001 -641.22998
55.220001 -57.952999 -641.26001
-46.366001 -57.360001 -641.22998
55.625999 -57.360001 -641.17999
-46.373001 -56.860001 -641.22998
55.716999 -56.966 -641.25
-46.376999 -56.360001 -641.22998
55.693001 -56.360001 -641.51001
56.113998 -56.360001 -641.15997
-46.391998 -55.860001 -641.22998
56.209999 -55.939999 -641.25
-46.422001 -55.360001 -641.22998
56.193001 -55.360001 -641.44
56.571999 -55.360001 -641.13
-46.448002 -54.860001 -641.22998
-46.457001 -54.360001 -641.22998
56.688 -54.834 -641.22998
56.787998 -54.360001 -641.29999
-46.466 -53.860001 -641.22998
57.175999 -53.826 -641.21002
-46.484001 -53.360001 -641.22998
-10.807 -53.360001 -641.62
-6.8070998 -53.360001 -641.54999
-6.3070998 -53.360001 -641.58002
57.285 -53.360001 -641.29999
-46.508999 -52.860001 -641.22998
-20.806999 -52.860001 -641.56
-20.306999 -52.860001 -641.46997
-19.806999 -52.860001 -641.41998
-19.306999 -52.860001 -641.45001
-11.307 -52.860001 -641.54999
-10.807 -52.860001 -641.40002
-10.307 -52.860001 -641.38
-7.3070998 -52.860001 -641.5
-6.7003002 -52.839001 -641.23999
-6.3070998 -52.896999 -641.20001
-6.1455998 -52.860001 -641.22998
-5.8070998 -52.787998 -641.29999
57.679001 -52.833 -641.21002
-46.532001 -52.360001 -641.22998
-27.306999 -52.466999 -641.22998
-27.806 -52.360001 -641.22998
-26.806999 -52.542999 -641.22998
-26.306999 -52.577999 -641.22998
-25.806999 -52.574001 -641.22998
-25.306999 -52.490002 -641.22998
-24.820999 -52.359001 -641.66998
-24.775 -52.368999 -641.22998
-22.306999 -52.360001 -641.59003
-21.806999 -52.360001 -641.5
-21.306999 -52.25 -641.31
-20.708 -52.346001 -641.23999
-20.306999 -52.404999 -641.20001
-19.806999 -52.465 -641.16998
-19.306999 -52.613998 -641.22998
-18.743999 -52.412998 -641.22998
-11.307 -52.360001 -641.46002
-10.745 -52.335999 -641.23999
-10.307 -52.555 -641.22998
-9.8072996 -52.360001 -641.22998
-7.8070998 -52.360001 -641.54999
-7.2644 -52.245998 -641.26001
-5.2867999 -52.373001 -641.20001
57.792999 -52.360001 -641.29999
-46.550999 -51.860001 -641.22998
-28.806999 -52.036999 -641.22998
-29.233999 -51.819 -641.22998
-28.306999 -52.303001 -641.09998
-24.306999 -52.229 -641.22998
-23.806999 -52.102001 -641.22998
-23.306999 -52.013 -641.22998
-22.806999 -51.929001 -641.22998
-22.306999 -51.901001 -641.16998
-21.806999 -52.035999 -641.22998
-18.306999 -52.084 -641.22998
-18.077999 -51.860001 -641.22998
-11.17 -51.860001 -641.29999
-9.2198 -51.888 -641.21002
-8.8071003 -51.860001 -641.42999
-8.3071003 -51.860001 -641.45001
-7.8070998 -51.740002 -641.28003
-7.4362001 -51.860001 -641.17999
-4.8070998 -52.115002 -641.22998
-4.3320999 -51.827999 -641.25
57.693001 -51.860001 -641.53998
58.176998 -51.830002 -641.21002
-46.563999 -51.360001 -641.22998
-29.865 -51.415001 -641.22998
-17.806999 -51.616001 -641.22998
-17.42 -51.256001 -641.22998
-11.807 -51.360001 -641.57001
-11.255 -51.360001 -641.26001
-8.8071003 -51.641998 -641.22998
-8.3071003 -51.415001 -641.20001
-3.7725999 -51.384998 -641.15997
58.292 -51.360001 -641.29999
-46.578999 -50.860001 -641.22998
-30.351999 -50.915001 -641.22998
-16.806999 -50.860001 -641.47998
-16.878 -50.798 -641.22998
-11.807 -50.860001 -641.46997
-11.318 -50.896999 -641.21997
-3.3071001 -51.088001 -641.22998
-2.921 -50.771999 -641.22998
58.193001 -50.860001 -641.53003
58.675999 -50.825001 -641.21002
-46.598999 -50.360001 -641.22998
-30.791 -50.337002 -641.22998
-16.318001 -50.342999 -641.25
-15.807 -50.360001 -641.59998
-14.307 -50.360001 -641.54999
-13.807 -50.360001 -641.51001
-12.807 -50.360001 -641.63
-12.307 -50.360001 -641.53998
-11.807 -50.360001 -641.38
-11.418 -50.360001 -641.17999
-2.3347001 -50.337002 -641.29999
58.780998 -50.360001 -641.28998
-46.622002 -49.860001 -641.22998
-31.072001 -49.860001 -641.22998
-15.807 -49.995998 -641.22998
-15.393 -49.84 -641.25
-14.807 -49.792999 -641.28003
-14.242 -49.851002 -641.23999
-13.807 -49.909 -641.20001
-13.307 -49.924999 -641.19
-12.686 -49.873001 -641.21997
-12.307 -49.834 -641.25
-11.926 -49.882999 -641.21997
-1.8204 -49.837002 -641.25
58.693001 -49.860001 -641.46002
59.125 -49.860001 -641.19
-46.637001 -49.360001 -641.22998
-31.315001 -49.376999 -641.12
-1.3055 -49.362 -641.22998
58.693001 -49.360001 -641.57001
59.216999 -49.393002 -641.23999
-46.638 -48.860001 -641.22998
-31.552 -48.860001 -641.22998
-0.79730999 -48.869999 -641.20001
59.305 -48.860001 -641.29999
-46.646999 -48.360001 -641.22998
-31.778 -48.289001 -641.22998
-0.29745001 -48.368999 -641.20001
59.193001 -48.360001 -641.46002
59.617001 -48.360001 -641.19
-46.665001 -47.860001 -641.22998
-31.943001 -47.860001 -641.22998
0.22490001 -47.875999 -641.21002
59.193001 -47.860001 -641.56
59.702 -47.902 -641.23999
-46.674 -47.360001 -641.22998
-32.106998 -47.360001 -641.22998
0.70956999 -47.368999 -641.21997
59.801998 -47.360001 -641.28998
-46.678001 -46.860001 -641.22998
-32.299999 -46.823002 -641.27002
1.188 -46.848999 -641.23999
59.693001 -46.860001 -641.45001
60.132999 -46.860001 -641.20001
-46.683998 -46.360001 -641.22998
-32.478001 -46.360001 -641.22998
1.6778001 -46.327999 -641.25
59.693001 -46.360001 -641.52002
60.200001 -46.409 -641.23999
-46.703999 -45.860001 -641.22998
-32.646999 -45.860001 -641.22998
2.1726 -45.817001 -641.26001
59.693001 -45.860001 -641.57001
60.257 -45.860001 -641.27002
-46.724998 -45.360001 -641.22998
-32.819 -45.381001 -641.17999
2.6701 -45.316002 -641.26001
60.299999 -45.360001 -641.28998
-46.743999 -44.860001 -641.22998
-33.077999 -44.860001 -641.22998
3.1696 -44.813 -641.27002
59.693001 -44.860001 -641.60999
60.304001 -44.860001 -641.28998
-46.755001 -44.360001 -641.22998
-33.313 -44.368999 -641.21002
3.6705 -44.314999 -641.26001
59.693001 -44.360001 -641.60999
60.296001 -44.360001 -641.28998
-46.756001 -43.860001 -641.22998
-33.606998 -43.860001 -641.22998
4.1691999 -43.812 -641.26001
59.693001 -43.860001 -641.59003
60.278 -43.860001 -641.28003
-33.826 -43.393002 -641.15997
4.6739998 -43.324001 -641.26001
59.693001 -43.360001 -641.53998
60.247002 -43.360001 -641.26001
-46.811001 -42.976002 -641.27002
-34.23 -42.723999 -641.22998
5.1917 -42.858002 -641.22998
59.693001 -42.860001 -641.48999
60.196999 -42.82 -641.23999
-46.831001 -42.360001 -641.22998
-34.414001 -42.360001 -641.22998
5.7126999 -42.377998 -641.19
59.693001 -42.360001 -641.42999
60.144001 -42.360001 -641.21002
-46.820999 -41.860001 -641.34998
-34.733002 -41.727001 -641.22998
6.256 -41.889 -641.19
59.193001 -41.860001 -641.59998
59.821999 -41.860001 -641.29999
-46.821999 -41.360001 -641.33002
-34.928001 -41.360001 -641.22998
6.7775998 -41.397999 -641.19
59.193001 -41.360001 -641.51001
59.709 -41.273998 -641.23999
-46.847 -40.860001 -641.22998
-35.251999 -40.752998 -641.22998
7.2458 -40.91 -641.09998
59.193001 -40.860001 -641.40997
59.631001 -40.860001 -641.20001
-46.863998 -40.360001 -641.22998
-35.465 -40.360001 -641.22998
7.6929002 -40.599998 -641.22998
8.0840998 -40.262001 -641.22998
58.693001 -40.360001 -641.57001
59.272999 -40.360001 -641.28003
-46.882999 -39.860001 -641.22998
-35.785 -39.826 -641.22998
8.5918999 -39.759998 -641.22998
58.693001 -39.860001 -641.45001
59.164001 -39.966999 -641.21997
-46.891998 -39.360001 -641.22998
-36.244999 -39.292 -641.22998
9.1451998 -39.266998 -641.28998
58.193001 -39.360001 -641.57001
58.719002 -39.271999 -641.25
-46.903999 -38.860001 -641.22998
-36.743 -38.797001 -641.22998
9.6577997 -38.798 -641.27002
58.193001 -38.860001 -641.40002
58.598 -38.860001 -641.17999
-46.933998 -38.360001 -641.22998
-37.027 -38.360001 -641.22998
10.171 -38.32 -641.26001
57.693001 -38.360001 -641.5
58.200001 -38.339001 -641.23999
-46.966 -37.860001 -641.22998
10.694 -37.861 -641.22998
57.193001 -37.860001 -641.58002
57.738998 -37.745998 -641.26001
-47 -37.360001 -641.22998
-37.523998 -37.360001 -641.22998
11.248 -37.382999 -641.20001
57.193001 -37.360001 -641.38
57.583 -37.360001 -641.16998
-47.030998 -36.860001 -641.22998
-37.778 -36.805 -641.22998
11.783 -36.902 -641.17999
56.693001 -36.860001 -641.42999
57.160999 -36.938 -641.21002
-47.041 -36.360001 -641.22998
-38.131001 -36.360001 -641.22998
12.193 -36.569 -641.22998
12.633 -36.313 -641.34998
56.193001 -36.360001 -641.47998
56.679001 -36.375999 -641.21997
-47.027 -35.860001 -641.22998
-38.834999 -35.875 -641.20001
-38.306999 -36.153 -641.22998
13.166 -35.817001 -641.26001
55.693001 -35.860001 -641.45001
56.18 -35.882999 -641.22998
-47.008999 -35.360001 -641.22998
-40.807999 -35.361 -641.21997
-40.306999 -35.540001 -641.22998
-39.806999 -35.647999 -641.22998
-39.306999 -35.757 -641.22998
13.689 -35.353001 -641.23999
55.193001 -35.360001 -641.44
55.667999 -35.384998 -641.21002
-46.808998 -34.856998 -641.31
-41.306999 -34.991001 -641.22998
-41.422001 -34.860001 -641.22998
14.265 -34.887001 -641.20001
54.693001 -34.860001 -641.42999
55.158001 -34.926998 -641.21002
-46.306999 -34.596001 -641.22998
-45.806999 -34.549999 -641.22998
-45.306999 -34.507 -641.22998
-44.811001 -34.359001 -641.22998
-41.799 -34.348999 -641.16998
14.693 -34.59 -641.22998
15.148 -34.327 -641.32001
54.193001 -34.360001 -641.41998
54.646999 -34.446999 -641.21002
-44.306999 -34.158001 -641.22998
-43.745998 -33.877998 -641.22998
-42.338001 -33.863998 -641.26001
15.711 -33.872002 -641.20001
53.779999 -33.826 -641.26001
54.193001 -33.978001 -641.14001
-43.306999 -33.766998 -641.22998
-42.806999 -33.747002 -641.22998
16.193001 -33.594002 -641.22998
16.659 -33.338001 -641.28998
52.693001 -33.360001 -641.54999
53.209 -33.332001 -641.23999
17.24 -32.889 -641.15002
17.693001 -32.764999 -641.35999
52.193001 -32.860001 -641.47998
52.674999 -32.874001 -641.21002
18.212999 -32.370998 -641.20001
51.820999 -32.316002 -641.27002
52.193001 -32.445999 -641.16998
18.693001 -32.133999 -641.22998
19.201 -31.864 -641.21997
50.693001 -31.860001 -641.53003
51.217999 -31.851999 -641.23999
19.693001 -31.634001 -641.22998
20.215 -31.370001 -641.20001
50.307999 -31.327999 -641.26001
50.693001 -31.437 -641.15997
20.693001 -31.167999 -641.22998
21.294001 -30.879999 -641.20001
21.693001 -30.799999 -641.32001
49.193001 -30.77 -641.32001
49.606998 -30.885 -641.21002
22.193001 -30.438999 -641.10999
22.672001 -30.344 -641.23999
48.193001 -30.288 -641.29999
48.657001 -30.374001 -641.21002
23.193001 -30.136 -641.22998
23.802999 -29.879 -641.20001
24.193001 -29.813 -641.31
47.286999 -29.839001 -641.25
47.693001 -29.931999 -641.15997
24.693001 -29.598 -641.22998
25.297001 -29.375999 -641.21002
25.693001 -29.316 -641.29999
45.693001 -29.285999 -641.31
46.158001 -29.365999 -641.22998
46.693001 -29.58 -641.22998
26.193001 -29.131001 -641.22998
26.693001 -28.923 -641.13
27.15 -28.854 -641.23999
43.693001 -28.761999 -641.34998
44.304001 -28.846001 -641.25
44.693001 -28.896999 -641.19
45.193001 -28.961 -641.12
27.693001 -28.702 -641.22998
28.193001 -28.554001 -641.22998
28.693001 -28.400999 -641.15997
29.159 -28.344999 -641.25
41.693001 -28.294001 -641.32001
42.254002 -28.354 -641.23999
42.693001 -28.399 -641.17999
43.193001 -28.448999 -641.12
29.693001 -28.205999 -641.22998
30.193001 -28.115 -641.22998
30.693001 -28.037001 -641.22998
31.193001 -27.906 -641.15002
31.702 -27.861 -641.22998
32.193001 -27.833 -641.28003
32.693001 -27.802 -641.33002
37.193001 -27.788 -641.34003
37.693001 -27.806 -641.31
38.193001 -27.83 -641.28003
38.693001 -27.847 -641.25
39.146999 -27.868 -641.22998
39.693001 -27.895 -641.17999
40.193001 -27.923 -641.14001
40.693001 -28.051001 -641.22998
41.193001 -28.138 -641.22998
33.193001 -27.688 -641.22998
33.693001 -27.657 -641.22998
34.193001 -27.646 -641.22998
34.693001 -27.629 -641.22998
35.193001 -27.627001 -641.22998
35.693001 -27.632999 -641.22998
36.193001 -27.65 -641.22998
36.693001 -27.676001 -641.22998
23.669001 -112.88 -640.73999
24.193001 -112.94 -640.79999
24.693001 -112.97 -640.83002
25.193001 -113.27 -640.65997
25.193001 -112.86 -640.98999
25.693001 -113.32 -640.70001
25.693001 -112.86 -641.03998
26.193001 -113.35 -640.71997
26.693001 -113.36 -640.72998
26.693001 -112.86 -641.09998
27.193001 -113.33 -640.70001
27.193001 -112.86 -641.07001
27.693001 -113.2 -640.72998
27.693001 -112.86 -641.01001
28.193001 -113.05 -640.72998
28.193001 -112.86 -640.91998
28.761 -112.87 -640.75
23.193001 -112.49 -640.79999
22.745001 -112.26 -640.71002
23.693001 -112.36 -641.08002
29.193001 -112.78 -640.63
29.193001 -112.36 -641.08002
29.693001 -112.43 -640.81
30.139999 -112.33 -640.65997
22.693001 -111.86 -640.89001
22.274 -111.83 -640.71002
23.193001 -111.86 -641.10999
30.752001 -111.88 -640.76001
18.674999 -111.37 -640.83002
19.193001 -111.54 -640.72998
19.693001 -111.65 -640.72998
20.193001 -111.64 -640.72998
20.693001 -111.58 -640.72998
21.193001 -111.54 -640.72998
21.193001 -111.36 -640.96997
21.693001 -111.51 -640.72998
21.693001 -111.36 -640.88
22.193001 -111.36 -640.96002
31.297001 -111.41 -640.78003
18.193001 -111.14 -640.72998
31.799 -110.92 -640.78003
16.809 -110.29 -640.72998
17.193001 -110.53 -640.72998
32.23 -110.41 -640.81
16.188 -109.86 -640.65002
32.701 -109.87 -640.73999
15.573 -109.45 -640.72998
33.111 -109.36 -640.63
14.761 -108.8 -640.72998
15.193 -109.15 -640.72998
33.223 -108.97 -640.77002
14.221 -108.35 -640.78003
33.618999 -108.36 -640.65002
13.691 -107.86 -640.71997
33.712002 -107.95 -640.75
34.096001 -107.36 -640.63
12.682 -106.87 -640.66998
34.194 -106.86 -640.72998
34.276001 -106.36 -640.81
34.193001 -105.86 -641.02002
34.616001 -105.86 -640.66998
11.199 -105.35 -640.82001
34.714001 -105.39 -640.73999
10.686 -104.87 -641.12
10.711 -104.84 -640.72998
34.818001 -104.86 -640.82001
10.187 -104.37 -641.14001
10.217 -104.34 -640.72998
34.693001 -104.36 -641.03003
35.178001 -104.28 -640.71997
9.6906996 -103.86 -641.14001
9.7004995 -103.85 -640.72998
35.257 -103.86 -640.78003
9.1806002 -103.37 -640.78998
35.193001 -103.36 -640.92999
35.602001 -103.36 -640.66998
8.6627998 -102.89 -640.72998
35.193001 -102.86 -641.03003
35.692001 -102.86 -640.72998
8.1391001 -102.41 -640.72998
35.783001 -102.36 -640.78998
7.6025 -101.94 -640.72998
35.693001 -101.86 -640.96997
36.130001 -101.86 -640.69
6.7796998 -101.29 -640.72998
7.1929002 -101.62 -640.72998
35.693001 -101.36 -641.08002
36.216 -101.4 -640.73999
6.211 -100.84 -640.66998
36.292999 -100.86 -640.79999
5.6957002 -100.36 -640.71997
36.193001 -100.36 -640.98999
36.626999 -100.36 -640.69
5.1724 -99.892998 -640.77002
36.719002 -99.894997 -640.73999
4.5987 -99.440002 -640.72998
36.806999 -99.360001 -640.81
3.7908001 -98.778 -640.72998
4.1929002 -99.099998 -640.72998
36.693001 -98.860001 -640.98999
37.137001 -98.860001 -640.69
3.2305 -98.322998 -640.63
37.219002 -98.400002 -640.73999
2.7188001 -97.835999 -640.65997
37.301998 -97.860001 -640.81
-43.306999 -97.385002 -640.78998
-43.764 -97.347 -640.71997
-42.806999 -97.462997 -640.72998
-42.306999 -97.492996 -640.72998
-41.806999 -97.483002 -640.72998
-41.216999 -97.375999 -640.77002
2.2176001 -97.336998 -640.66998
37.193001 -97.360001 -641
37.636002 -97.360001 -640.69
-45.042 -96.860001 -640.72998
-44.806999 -97.092003 -640.72998
-44.306999 -97.237 -640.72998
-40.806999 -97.236 -640.72998
-40.513 -96.860001 -640.72998
1.7084 -96.845001 -640.69
37.695999 -96.889 -640.73999
-45.234001 -96.360001 -640.72998
-40.264999 -96.445999 -640.72998
-40.312 -96.351997 -641.19
1.2041 -96.348999 -640.70001
37.755001 -96.360001 -640.78003
-45.269001 -95.860001 -640.72998
-39.933998 -95.860001 -640.72998
0.71336001 -95.838997 -640.66998
37.808998 -95.860001 -640.82001
-45.276001 -95.360001 -640.72998
-39.806999 -95.683998 -640.72998
-39.313999 -95.356003 -640.64001
0.21716 -95.334 -640.65997
37.693001 -95.360001 -640.97998
38.108002 -95.360001 -640.66998
-45.300999 -94.860001 -640.65002
-38.806999 -95.136002 -640.72998
-38.278999 -94.883003 -640.72998
-0.27204001 -94.821999 -640.63
37.693001 -94.860001 -641.06
38.153 -94.860001 -640.70001
-45.303001 -94.360001 -640.70001
-37.789001 -94.397003 -640.72998
-0.70831001 -94.257004 -640.72998
-45.306999 -93.860001 -640.72998
-37.582001 -93.860001 -640.72998
-1.0702 -93.860001 -640.72998
37.693001 -93.860001 -641.09998
38.188 -94.307999 -640.72998
38.233002 -93.860001 -640.76001
-37.401001 -93.360001 -640.72998
-7.3132 -93.366997 -640.73999
-6.7674999 -93.379997 -640.75
-1.4031 -93.477997 -640.72998
37.693001 -93.360001 -641.07001
38.279999 -93.360001 -640.78003
-45.311001 -92.860001 -640.78998
-45.306999 -93.299004 -640.72998
-37.306999 -93.141998 -640.72998
-37.051998 -92.860001 -640.72998
-7.8070998 -92.860001 -641.14001
-8.1360998 -92.860001 -640.72998
-7.8070998 -93.130997 -640.72998
-7.3070998 -92.860001 -641.14001
-6.8070998 -92.860001 -640.90997
-6.5888 -92.860001 -640.72998
-1.8392 -92.932999 -640.78003
37.693001 -92.860001 -641.12
38.193001 -92.860001 -640.88
38.608002 -92.860001 -640.69
-45.354 -92.360001 -640.72998
-36.806999 -92.647003 -640.72998
-36.306999 -92.509003 -640.72998
-35.901001 -92.310997 -640.72998
-8.573 -92.360001 -640.72998
-8.3071003 -92.697998 -640.72998
-6.8070998 -92.360001 -640.94
-6.5918002 -92.360001 -640.72998
-2.3348999 -92.407997 -640.76001
38.193001 -92.360001 -641.04999
38.785999 -92.413002 -640.75
-45.405998 -91.860001 -640.72998
-35.327999 -91.841003 -640.72998
-9.0690002 -91.860001 -640.72998
-8.8071003 -92.114998 -640.72998
-6.7575002 -91.860001 -640.77002
-2.8362 -91.907997 -640.76001
39.193001 -92.236 -640.67999
39.193001 -91.860001 -640.85999
39.570999 -91.807999 -640.71002
-45.477001 -91.360001 -640.72998
-34.882999 -91.259003 -640.72998
-9.6940002 -91.253998 -640.72998
-9.3071003 -91.624001 -640.72998
-6.8102999 -91.389 -640.72998
-3.3071001 -91.438004 -640.79999
39.693001 -91.360001 -640.90997
40.143002 -91.248001 -640.71002
-45.516998 -90.860001 -640.72998
-34.612 -90.860001 -640.72998
-10.219 -90.782997 -640.72998
-7.3070998 -90.860001 -640.97998
-6.8362999 -90.860001 -640.71002
-4.8070998 -90.956001 -640.81
-5.3067002 -90.860001 -640.72998
-4.3070998 -91.260002 -640.65997
-4.3070998 -90.860001 -640.94
-3.7284 -91.338997 -640.71997
40.193001 -90.860001 -640.88
40.446999 -90.860001 -640.72998
-45.505001 -90.360001 -640.72998
-34.299999 -90.371002 -640.72998
-34.310001 -90.356003 -641.12
-7.3070998 -90.360001 -640.84998
-6.8594999 -90.360001 -640.71997
-5.8070998 -90.441002 -640.77002
-6.2063999 -90.360001 -640.70001
-5.3070998 -90.360001 -641.09003
40.693001 -90.755997 -640.67999
40.693001 -90.360001 -640.92999
41.161999 -90.337997 -640.71002
-47.041 -89.860001 -640.72998
-46.806999 -90.007004 -640.72998
-46.306999 -89.952003 -640.72998
-45.838001 -89.846001 -640.75
-45.698002 -89.860001 -640.72998
-33.877998 -89.762001 -640.72998
-11.324 -89.886002 -640.77002
-7.8070998 -89.860001 -641.06
-7.3070998 -89.860001 -640.83002
-6.8070998 -90.123001 -640.72998
-6.8070998 -89.860001 -640.77002
-6.3070998 -90.193001 -640.72998
-6.3070998 -89.860001 -640.84003
41.724998 -89.875 -640.73999
-47.137001 -89.360001 -640.72998
-33.41 -89.257004 -640.72998
-11.931 -89.448997 -640.72998
-7.8070998 -89.360001 -641.03003
-7.3070998 -89.360001 -640.90002
-6.8070998 -89.360001 -640.91998
42.220001 -89.379997 -640.75
-47.208 -88.860001 -640.72998
-32.888 -88.789001 -640.72998
-12.806 -88.859001 -640.72998
-12.307 -89.181999 -640.72998
-8.3071003 -88.860001 -641.20001
-7.8070998 -88.860001 -641.06
-7.3070998 -88.860001 -641.02002
42.661999 -88.740997 -640.70001
-47.223 -88.360001 -640.72998
-32.358002 -88.315002 -640.72998
-13.835 -88.378998 -640.73999
-13.307 -88.601997 -640.72998
-7.8070998 -88.360001 -641.14001
42.755001 -88.360001 -640.79999
-47.237 -87.860001 -640.72998
-31.827999 -87.841003 -640.72998
-14.807 -87.938004 -640.78998
-15.271 -87.853996 -640.72998
-14.307 -88.290001 -640.67999
43.117001 -87.860001 -640.64001
-47.249001 -87.360001 -640.72998
-31.275999 -87.388 -640.72998
-16.306999 -87.424004 -640.78998
-16.764 -87.352997 -640.71997
-15.807 -87.765999 -640.64001
-15.807 -87.360001 -641.01001
43.213001 -87.387001 -640.73999
-47.298 -86.860001 -640.65002
-30.740999 -86.912003 -640.72998
-17.809 -86.862 -640.72998
-17.306999 -87.102997 -640.72998
-17.306999 -86.860001 -640.96997
43.431999 -86.860001 -640.72998
-47.306999 -86.360001 -640.72998
-30.306999 -86.573997 -640.72998
-29.92 -86.272003 -640.72998
-18.806999 -86.392998 -640.78003
-18.968 -86.360001 -640.72998
-18.306999 -86.630997 -640.72998
43.681999 -86.333 -640.71002
-47.301998 -85.860001 -640.70001
-29.305 -85.862 -641.15997
-29.318001 -85.852997 -640.72998
-19.806999 -85.917999 -640.84003
-20.063 -85.860001 -640.72998
-19.306999 -86.227997 -640.72998
43.772999 -85.860001 -640.83002
-47.306999 -85.371002 -640.72998
-28.806999 -85.542999 -640.72998
-28.375999 -85.324997 -640.72998
-20.806999 -85.360001 -641.08002
-21.209999 -85.313004 -640.72998
-20.806999 -85.507004 -640.72998
-20.306999 -85.75 -640.72998
-47.332001 -84.860001 -640.72998
-27.806999 -85.037003 -640.72998
-27.386 -84.819 -640.72998
-22.304001 -84.858002 -640.72998
-21.806999 -85.055 -640.72998
44.210999 -84.945999 -640.75
-47.376999 -84.360001 -640.72998
-26.806999 -84.588997 -640.72998
-26.306999 -84.453003 -640.72998
-25.823 -84.357002 -640.69
-24.434 -84.367996 -640.76001
-23.806999 -84.445 -640.72998
-23.306999 -84.559998 -640.72998
-22.806999 -84.699997 -640.72998
44.125 -84.360001 -641.15002
44.476002 -84.360001 -640.72998
-47.370998 -83.860001 -640.72998
-25.306999 -84.338997 -640.64001
-24.806999 -84.343002 -640.64001
44.689999 -83.853996 -640.72998
-47.384998 -83.360001 -640.72998
44.787998 -83.360001 -640.84998
-47.418999 -82.860001 -640.72998
45.166 -82.794998 -640.65997
-47.415001 -82.360001 -640.72998
45.241001 -82.360001 -640.79999
-47.334 -81.722 -640.72998
45.603001 -81.860001 -640.60999
-47.252998 -81.360001 -640.72998
45.698002 -81.387001 -640.73999
-46.877998 -80.761002 -640.72998
45.956001 -80.860001 -640.72998
-46.591 -80.360001 -640.72998
46.199001 -80.366997 -640.73999
-46.285999 -79.891998 -640.72998
46.122002 -79.860001 -641.14001
46.425999 -79.860001 -640.72998
-46.076 -79.360001 -640.72998
46.681999 -79.336998 -640.70001
-45.918999 -78.860001 -640.72998
46.883999 -78.860001 -640.72998
-45.848 -78.360001 -640.72998
47.173 -78.267998 -640.71002
-45.818001 -77.860001 -640.83002
47.263 -77.860001 -640.83002
-45.833 -77.360001 -640.72998
-45.796001 -76.860001 -641.14001
-45.845001 -76.860001 -640.72998
47.713001 -76.950996 -640.76001
-45.867001 -76.360001 -640.72998
48.007 -76.360001 -640.72998
-45.908001 -75.860001 -640.72998
48.223999 -75.890999 -640.75
-45.943001 -75.360001 -640.72998
48.491001 -75.360001 -640.72998
-45.964001 -74.860001 -640.72998
48.720001 -74.886002 -640.75
-45.972 -74.360001 -640.72998
49.000999 -74.360001 -640.72998
-45.970001 -73.860001 -640.72998
49.217999 -73.886002 -640.75
-45.977001 -73.360001 -640.72998
49.487 -73.360001 -640.72998
-46.009998 -72.860001 -640.72998
49.719002 -72.886002 -640.75
-46.032001 -72.360001 -640.72998
49.98 -72.360001 -640.72998
-46.040001 -71.860001 -640.72998
50.198002 -71.882004 -640.73999
-46.046001 -71.360001 -640.72998
50.443001 -71.360001 -640.72998
-46.058998 -70.860001 -640.72998
50.685001 -70.842003 -640.70001
-46.073002 -70.360001 -640.72998
50.873001 -70.360001 -640.72998
-46.085999 -69.860001 -640.72998
51.130001 -69.860001 -640.62
-46.118999 -69.360001 -640.72998
51.209 -69.447998 -640.76001
-46.160999 -68.860001 -640.72998
51.426998 -68.860001 -640.72998
-46.183998 -68.360001 -640.72998
51.644001 -68.360001 -640.65002
-46.207001 -67.860001 -640.72998
51.713001 -67.896004 -640.75
-46.223999 -67.360001 -640.72998
51.872002 -67.360001 -640.72998
-46.217999 -66.860001 -640.72998
51.993 -66.860001 -640.72998
-46.207001 -66.360001 -640.72998
52.141998 -66.360001 -640.64001
-46.222 -65.860001 -640.72998
52.186001 -65.751999 -640.71997
-46.243999 -65.360001 -640.72998
52.209999 -65.360001 -640.77002
-46.257 -64.860001 -640.72998
52.231998 -64.860001 -640.81
-46.254002 -64.360001 -640.72998
52.306999 -64.360001 -640.72998
-46.25 -63.860001 -640.72998
52.326 -63.860001 -640.72998
-46.257999 -63.360001 -640.72998
52.356998 -63.360001 -640.72998
-46.265999 -62.860001 -640.72998
52.403999 -62.860001 -640.72998
-46.271999 -62.360001 -640.72998
52.466 -62.360001 -640.72998
-46.277 -61.860001 -640.72998
52.678001 -61.834 -640.71002
-46.280998 -61.360001 -640.72998
52.693001 -61.360001 -640.89001
53.088001 -61.360001 -640.66998
-46.299999 -60.860001 -640.66998
52.693001 -60.860001 -641.08002
53.220001 -60.952 -640.75
53.73 -60.379002 -640.75
-46.313 -59.860001 -640.79999
-46.306999 -60.331001 -640.72998
54.254002 -59.888 -640.76001
-46.334999 -59.360001 -640.72998
54.751999 -59.391998 -640.76001
-46.354 -58.860001 -640.72998
55.213001 -58.872002 -640.73999
-46.373001 -58.360001 -640.72998
55.671001 -58.289001 -640.71002
-46.393002 -57.860001 -640.72998
55.790001 -57.860001 -640.82001
-46.411999 -57.360001 -640.72998
56.178001 -57.327999 -640.71002
-46.425999 -56.860001 -640.72998
56.283001 -56.860001 -640.81
-46.437 -56.360001 -640.72998
56.672001 -56.271 -640.71997
-46.457001 -55.860001 -640.72998
56.77 -55.860001 -640.79999
-46.487999 -55.360001 -640.72998
57.124001 -55.360001 -640.67999
-46.521 -54.860001 -640.72998
57.216 -54.957001 -640.75
-46.527 -54.360001 -640.72998
57.193001 -54.360001 -641
57.618 -54.360001 -640.67999
-46.527 -53.860001 -640.72998
57.724998 -53.973999 -640.76001
-46.541 -53.360001 -640.72998
57.693001 -53.360001 -641.01001
58.165001 -53.254002 -640.71002
-46.574001 -52.860001 -640.72998
58.269001 -52.860001 -640.78998
-46.605 -52.360001 -640.72998
-28.422001 -52.41 -640.72998
-27.806999 -52.570999 -640.72998
-27.306999 -52.688 -640.72998
-26.806999 -52.812 -640.60999
-26.306999 -52.826 -640.64001
-25.806999 -52.763 -640.72998
-25.306999 -52.639999 -640.72998
-24.806999 -52.483002 -640.72998
-24.389999 -52.326 -640.72998
-19.306999 -52.360001 -641.03998
-18.806999 -52.360001 -641.10999
-10.307 -52.360001 -641.14001
-6.8070998 -52.360001 -641.04999
-6.3070998 -52.360001 -640.87
-5.8070998 -52.360001 -640.90002
58.193001 -52.360001 -641.02002
58.674 -52.323002 -640.71002
-46.612 -51.860001 -640.72998
-29.353001 -51.876999 -640.78998
-28.806999 -52.244999 -640.72998
-23.806999 -52.112 -640.72998
-23.306999 -51.953999 -640.72998
-22.806999 -51.860001 -641
-22.989 -51.860001 -640.72998
-21.806999 -51.860001 -641.03003
-21.306999 -51.860001 -641.01001
-20.806999 -51.860001 -640.91998
-20.306999 -51.792 -640.78003
-19.806999 -51.826 -640.76001
-19.365 -51.875 -640.71002
-18.806999 -51.958 -640.72998
-18.587999 -51.860001 -640.72998
-18.306999 -51.860001 -640.87
-10.807 -51.860001 -641.12
-10.307 -51.860001 -640.96002
-9.8071003 -51.860001 -640.90997
-6.6711998 -51.860001 -640.79999
-6.3070998 -52.113998 -640.72998
-5.8070998 -52.166 -640.72998
-5.3070998 -51.919998 -640.66998
-4.9443002 -51.820999 -640.78003
58.779999 -51.860001 -640.78998
-46.605999 -51.360001 -640.72998
-29.806999 -51.543999 -640.72998
-29.98 -51.360001 -640.72998
-22.806999 -51.806 -640.72998
-22.306999 -51.688999 -640.72998
-21.806999 -51.666 -640.72998
-21.306999 -51.598999 -640.72998
-20.806999 -51.650002 -640.72998
-18.306999 -51.757999 -640.72998
-17.787001 -51.377998 -640.66998
-10.807 -51.360001 -641.03003
-10.307 -51.360001 -640.81
-10.053 -51.360001 -640.72998
-9.8071003 -51.537998 -640.72998
-9.2782001 -51.380001 -640.70001
-8.8071003 -51.360001 -640.96997
-7.8070998 -51.360001 -641.12
-7.3070998 -51.360001 -640.95001
-6.8204002 -51.379002 -640.71997
-4.2916002 -51.369999 -640.71002
58.693001 -51.360001 -641.02002
59.175999 -51.328999 -640.71002
-46.617001 -50.860001 -640.72998
-30.353001 -50.924999 -640.72998
-17.306999 -50.995998 -640.72998
-17.153 -50.860001 -640.72998
-10.807 -50.860001 -640.94
-10.335 -50.971001 -640.71997
-8.8071003 -51.102001 -640.72998
-8.3814001 -50.834 -640.75
-7.8070998 -50.860001 -640.85999
-7.3051 -50.855999 -640.72998
-3.678 -50.912998 -640.67999
-3.3071001 -50.768002 -640.84998
59.297001 -50.860001 -640.79999
-46.641998 -50.360001 -640.72998
-30.768 -50.303001 -640.72998
-16.695 -50.466 -640.72998
-10.703 -50.360001 -640.78998
-7.8070998 -50.638 -640.72998
-2.8241 -50.335999 -640.75
59.193001 -50.360001 -641.03003
59.681 -50.331001 -640.71997
-46.668999 -49.860001 -640.72998
-31.025 -49.860001 -640.72998
-16.306999 -50.098999 -640.72998
-15.807 -49.860001 -641.03998
-16.028999 -49.860001 -640.72998
-11.307 -49.860001 -641.01001
-10.767 -49.860001 -640.76001
-2.2951 -49.869999 -640.70001
59.766998 -49.860001 -640.78003
-46.681999 -49.360001 -640.72998
-31.289 -49.320999 -640.72998
-15.807 -49.672001 -640.72998
-15.322 -49.337002 -640.75
-14.807 -49.360001 -640.98999
-14.307 -49.360001 -640.97998
-13.807 -49.360001 -640.90997
-13.307 -49.285999 -640.78003
-12.807 -49.316002 -640.76001
-12.307 -49.289001 -640.78998
-11.807 -49.360001 -640.91998
-11.307 -49.360001 -640.85999
-10.841 -49.473 -640.71997
-1.779 -49.387001 -640.65997
59.693001 -49.360001 -640.94
60.112999 -49.360001 -640.67999
-46.681999 -48.860001 -640.72998
-31.469 -48.860001 -640.72998
-14.807 -49.082001 -640.72998
-14.307 -48.917999 -640.69
-13.807 -48.952999 -640.67999
-11.807 -49.105999 -640.72998
-11.307 -49.091 -640.72998
-1.268 -48.895 -640.63
59.693001 -48.860001 -641.06
60.219002 -48.889999 -640.73999
-46.681999 -48.360001 -640.72998
-31.652 -48.360001 -640.72998
-0.70358998 -48.460999 -640.72998
60.319 -48.360001 -640.79999
-46.716 -47.860001 -640.72998
-31.815001 -47.879002 -640.67999
-0.20281 -47.966 -640.72998
60.193001 -47.860001 -640.97998
-46.748001 -47.360001 -640.72998
-32.016998 -47.360001 -640.72998
0.23946001 -47.41 -640.59998
60.193001 -47.360001 -641.08002
60.676998 -47.777 -640.71997
60.758999 -47.360001 -640.77002
-46.742001 -46.860001 -640.72998
-32.152 -46.860001 -640.72998
0.72785997 -46.898998 -640.63
60.693001 -46.860001 -640.90997
61.098 -46.860001 -640.67999
-46.741001 -46.360001 -640.72998
-32.316002 -46.377998 -640.70001
1.2174 -46.386002 -640.65997
60.693001 -46.360001 -640.96997
61.179001 -46.242001 -640.72998
-46.778999 -45.860001 -640.72998
-32.523998 -45.860001 -640.72998
1.7257 -45.877998 -640.71002
60.693001 -45.860001 -641.02002
61.223999 -45.860001 -640.75
-46.800999 -45.360001 -640.69
-32.682999 -45.360001 -640.72998
2.2145 -45.370998 -640.71997
60.693001 -45.360001 -641.08002
61.278 -45.360001 -640.78003
-32.835999 -44.910999 -640.65002
2.7175 -44.873001 -640.71997
60.693001 -44.860001 -641.08002
61.303001 -44.860001 -640.78998
-46.813999 -44.360001 -640.78998
-46.806 -44.799 -640.71997
-33.110001 -44.360001 -640.72998
3.2005999 -44.368 -640.71002
60.693001 -44.360001 -641.07001
61.296001 -44.360001 -640.78003
-46.82 -43.860001 -640.83002
-33.320999 -43.882 -640.70001
3.6998999 -43.867001 -640.71002
60.693001 -43.860001 -641.06
61.266998 -43.860001 -640.77002
-46.797001 -43.360001 -641.15002
-46.84 -43.360001 -640.72998
-33.609001 -43.360001 -640.72998
4.1999002 -43.367001 -640.71002
60.693001 -43.360001 -641.03003
61.236 -43.360001 -640.75
-46.861 -42.860001 -640.72998
-33.820999 -42.884998 -640.69
4.7255998 -42.873001 -640.71002
60.693001 -42.860001 -640.98999
61.198002 -42.818001 -640.73999
-46.873001 -42.360001 -640.72998
-34.275002 -42.257 -640.78998
5.2330999 -42.396999 -640.63
60.693001 -42.360001 -640.92999
61.144001 -42.360001 -640.71002
-46.882999 -41.860001 -640.72998
-34.476002 -41.860001 -640.72998
5.7933998 -41.904999 -640.66998
60.193001 -41.860001 -641.09998
60.820999 -41.860001 -640.79999
-46.890999 -41.360001 -640.72998
-34.806 -41.356998 -640.73999
6.1929002 -41.592999 -640.72998
6.4355998 -41.360001 -640.72998
60.193001 -41.360001 -641.02002
60.715 -41.256001 -640.73999
-46.896 -40.860001 -640.72998
-35.085999 -40.860001 -640.72998
6.6929002 -41.117001 -640.72998
7.0942998 -40.778999 -640.72998
60.193001 -40.860001 -640.91998
60.629002 -40.860001 -640.70001
-46.911999 -40.360001 -640.72998
-35.342999 -40.421001 -640.72998
7.6620002 -40.300999 -640.77002
59.693001 -40.360001 -641.03998
60.266998 -40.360001 -640.77002
-46.931 -39.860001 -640.72998
-35.764999 -39.800999 -640.72998
8.1667995 -39.811001 -640.76001
59.693001 -39.860001 -640.90997
60.164001 -39.964001 -640.71997
-46.950001 -39.360001 -640.72998
-36.216999 -39.262001 -640.72998
8.6705999 -39.316002 -640.76001
59.193001 -39.360001 -641.01001
59.716999 -39.284 -640.73999
-46.965 -38.860001 -640.72998
-36.727001 -38.787998 -640.72998
9.1754999 -38.827 -640.75
59.330002 -38.860001 -640.79999
-46.987 -38.360001 -640.72998
-37.049 -38.360001 -640.72998
9.6917 -38.358002 -640.72998
58.693001 -38.360001 -640.98999
59.182999 -38.394001 -640.72998
-47.018002 -37.860001 -640.72998
-37.303001 -37.853001 -641.16998
-37.327999 -37.904999 -640.72998
10.205 -37.869999 -640.71002
58.193001 -37.860001 -641.06
58.727001 -37.771 -640.75
-47.060001 -37.360001 -640.72998
-37.562 -37.360001 -640.72998
10.772 -37.394001 -640.69
58.300999 -37.297001 -640.76001
-47.081001 -36.860001 -640.72998
-37.786999 -36.819 -640.72998
11.25 -36.910999 -640.60999
57.693001 -36.860001 -640.89001
58.089001 -36.860001 -640.67999
-47.077999 -36.360001 -640.72998
-38.098 -36.360001 -640.72998
11.693 -36.615002 -640.72998
12.141 -36.273998 -640.78998
57.193001 -36.360001 -640.91998
57.653999 -36.403 -640.69
-47.073002 -35.860001 -640.72998
-38.721001 -35.806999 -640.72998
-38.306999 -36.069 -640.72998
12.673 -35.828999 -640.75
56.693001 -35.860001 -640.92999
57.159 -35.929001 -640.71002
-47.055 -35.360001 -640.72998
-40.334 -35.372002 -640.71002
-39.806999 -35.476002 -640.72998
-39.306999 -35.592999 -640.72998
13.204 -35.368999 -640.71002
56.193001 -35.360001 -640.90997
56.647999 -35.442001 -640.71002
-46.831001 -34.825001 -640.72998
-41.306999 -35.004002 -640.72998
-41.460999 -34.860001 -640.72998
-40.806999 -35.275002 -640.72998
13.776 -34.890999 -640.69
55.755001 -34.75 -640.77002
56.193001 -34.970001 -640.65997
-46.306999 -34.562 -640.72998
-45.806999 -34.533001 -640.72998
-45.306999 -34.484001 -640.72998
-44.841 -34.351002 -640.72998
-41.877998 -34.432999 -640.72998
14.193 -34.597 -640.72998
14.641 -34.279999 -640.78003
55.238998 -34.280998 -640.76001
-44.306999 -34.136002 -640.72998
-43.756001 -33.872002 -640.72998
-42.306999 -33.993999 -640.72998
-42.617001 -33.860001 -640.72998
15.19 -33.855999 -640.73999
54.712002 -33.830002 -640.73999
-43.306999 -33.779999 -640.72998
-42.806999 -33.783001 -640.72998
15.693 -33.449001 -640.60999
16.086 -33.326 -640.78003
53.693001 -33.360001 -640.97998
54.179001 -33.372002 -640.71997
16.718 -32.874001 -640.69
53.193001 -32.860001 -640.92999
53.647999 -32.936001 -640.71002
17.193001 -32.627998 -640.72998
17.681 -32.347 -640.73999
52.769001 -32.333 -640.75
53.193001 -32.608002 -640.72998
18.193001 -32.080002 -640.72998
18.667 -31.832001 -640.75
51.693001 -31.860001 -640.97998
52.171001 -31.875999 -640.71002
19.193001 -31.556999 -640.72998
19.667999 -31.334999 -640.75
51.280998 -31.333 -640.76001
51.693001 -31.465 -640.64001
20.193001 -31.063 -640.72998
20.674999 -30.844 -640.75
50.193001 -30.782 -640.81
50.594002 -30.886 -640.71002
21.193001 -30.628 -640.72998
21.726999 -30.375 -640.69
49.193001 -30.253 -640.83002
49.664001 -30.375999 -640.70001
22.193001 -30.201 -640.72998
22.693001 -29.934999 -640.60999
23.162001 -29.836 -640.75
48.193001 -29.784 -640.81
48.666 -29.871 -640.71002
23.693001 -29.636999 -640.72998
24.59 -29.341 -640.76001
46.693001 -29.360001 -641
47.271999 -29.343 -640.75
47.693001 -29.436001 -640.65997
25.193001 -29.115 -640.72998
25.693001 -28.908001 -640.65002
26.155001 -28.839001 -640.75
45.826 -28.837 -640.76001
46.193001 -28.902 -640.67999
46.693001 -29.111 -640.72998
26.693001 -28.681999 -640.72998
27.193001 -28.540001 -640.72998
27.723 -28.368 -640.71002
28.193001 -28.312 -640.82001
43.693001 -28.311001 -640.78998
44.155998 -28.364 -640.72998
44.693001 -28.438 -640.64001
45.193001 -28.639999 -640.72998
28.693001 -28.138 -640.72998
29.193001 -28.033001 -640.72998
29.693001 -27.893 -640.66998
30.149 -27.843 -640.75
30.693001 -27.801001 -640.83002
40.693001 -27.785 -640.84003
41.193001 -27.819 -640.78998
41.688999 -27.861 -640.72998
42.193001 -27.908001 -640.66998
42.693001 -27.955 -640.60999
43.193001 -28.149 -640.72998
31.193001 -27.664 -640.72998
31.693001 -27.583 -640.72998
32.193001 -27.437 -640.59998
32.693001 -27.400999 -640.65997
33.193001 -27.375999 -640.70001
33.687 -27.358999 -640.72998
34.193001 -27.348 -640.75
34.693001 -27.341 -640.76001
