# .PCD v0.7 - Point Cloud Data file format
VERSION 0.7
FIELDS x y z
SIZE 4 4 4
TYPE F F F
COUNT 1 1 1
WIDTH 1617
HEIGHT 1
VIEWPOINT 0 0 0 1 0 0 0
POINTS 1617
DATA ascii
58.078999 -105.87 -612.78998
56.790001 -104.14 -613.20001
4.9071002 -102.99 -612.90997
54.458 -102.18 -613.20001
3.5295999 -101.81 -612.90997
53.644001 -101.18 -613.59003
52.257999 -100.13 -613.54999
-0.78293002 -97.629997 -613.38
-2.5578001 -95.683998 -613.12
-45.306999 -95.422997 -613.57001
46.039001 -94.806999 -612.84998
-41.158001 -94.065002 -613.07001
-4.3655 -93.439003 -613.72998
-48.145 -93.877998 -613.33002
-4.8723001 -92.623001 -613.06
44.521999 -91.382004 -613.19
-6.1599998 -90.609001 -613.35999
44.591 -89.220001 -613.78998
-38.025002 -88.421997 -613.58002
44.393002 -88.375 -612.89001
-37.765999 -87.341003 -613.16998
-37.515999 -86.110001 -613.26001
45.834 -85.503998 -612.79999
-37.312 -84.82 -613.21997
-9.6192999 -85.169998 -614.29999
-13.708 -84.391998 -613.20001
-14.893 -84.362 -613.23999
-10.246 -84.050003 -613.46002
47.209999 -83.939003 -613.88
-36.916 -83.516998 -613.20001
-12.297 -83.722 -613.62
-10.794 -83.446999 -613.42999
-16.421 -83.153 -613.22998
-11.714 -83.362 -613.65002
-36.666 -82.616997 -613.25
47.710999 -81.919998 -612.85999
-48.52 -81.235001 -612.85999
-36.294998 -81.617996 -613.22998
-48.416 -80.735001 -613.81
-35.506001 -80.723 -613.23999
-19.518999 -79.643997 -612.95001
-48.485001 -79.422997 -613.72998
-34.166 -79.268997 -613.22998
-20.351999 -78.468002 -612.75
-33.299999 -78.365997 -613.22998
-26.77 -78.375 -613.23999
-20.941 -78.575996 -613.72998
-32.325001 -78.012001 -613.25
-31.802999 -78.073997 -613.63
-30.375 -78.297997 -613.53998
-29.487 -78.205002 -613.21997
-28.641001 -78.150002 -613.21997
-27.385 -78.237 -613.21002
-25.896 -78.294998 -613.22998
-25.306999 -78.18 -613.22998
-24.788 -78.103996 -613.63
49.213001 -78.122002 -613.46997
-24.931999 -77.821999 -613.23999
-23.382999 -77.547997 -613.69
-22.385 -77.377998 -613.21002
-21.65 -77.380997 -612.73999
-24.184 -77.295998 -613.20001
50.493 -73.860001 -613.22998
-48.792 -69.992996 -613.46997
52.025002 -69.453003 -613.23999
-48.910999 -66.860001 -613.34998
52.717999 -66.887001 -612.71002
53.688 -66.304001 -613.85999
-48.926998 -64.172997 -614.10999
55.986 -64.004997 -613.29999
57.257999 -63.689999 -613.52002
57.636002 -63.330002 -612.87
-23.68 -62.999001 -613.44
-22.216 -63.255001 -613.56
-20.986 -62.847 -612.95001
58.499001 -63.362 -613.78003
-26.297001 -62.5 -613.62
-26.891001 -62.108002 -614.13
-25.783001 -62.762001 -612.98999
-18.296 -62.581001 -614.03003
-49.125 -61.610001 -612.72998
-27.298 -62.011002 -613.59998
-28.809 -61.709999 -613.45001
-16.348 -61.328999 -612.84003
62.693001 -60.925999 -613.03003
63.469002 -61.013 -613.65002
-29.76 -60.799999 -613.22998
-15.459 -60.521999 -613.63
-49.477001 -58.828999 -612.83002
-14.849 -59.882999 -613.59998
70.265999 -59.870998 -614.51001
-30.819 -58.981998 -613.65997
71.513 -59.063999 -613.04999
74.051003 -58.393002 -612.26001
-49.459999 -58.667 -613.51001
-13.727 -58.139999 -613.77002
-49.707001 -57.657001 -613.40997
-49.499001 -58.042 -613.39001
-31.257999 -58.082001 -613.34003
79.595001 -58.416 -613.63
-31.483 -57.487999 -613.38
84.206001 -57.769001 -613.34003
84.982002 -57.847 -613.76001
-50.271 -57.103001 -613.40002
90.342003 -56.749001 -612.84998
92.601997 -56.460999 -613.26001
93.952003 -56.030998 -613.06
-11.32 -54.84 -613.48999
97.041 -55.369999 -613.70001
-32.094002 -54.301998 -612.90002
-50.333 -54.273998 -613.21997
-49.698002 -52.698002 -613.17999
-32.591 -53.044998 -613.25
-10.593 -53.782001 -613.47998
99.914001 -53.451 -613.01001
115.81 -52.862999 -613.40002
117.85 -52.853001 -613.44
113.87 -52.348999 -613.46002
115.9 -52.463001 -613.21997
116.85 -52.742001 -613.28998
117.98 -52.381001 -613.27002
118.86 -52.341 -613.46997
112.39 -51.681 -613.63
113.38 -51.872002 -613.40002
114.54 -51.944 -613.21002
119.55 -51.865002 -613.73999
-49.433998 -51.485001 -613.25
113.44 -51.348999 -613.29999
114.84 -51.318001 -613.15002
117.59 -51.181999 -613.21002
118.66 -51.759998 -613.33002
-49.375 -50.860001 -613.22998
-32.933998 -51.181999 -613.21997
118.43 -50.459999 -613.70001
-7.6697001 -50.245998 -613.81
104.54 -49.991001 -613.19
112.15 -50.810001 -613.59003
113.47 -50.723 -613.31
114.57 -50.438999 -613.25
116.08 -51.292 -613.14001
115.99 -50.105999 -613.46002
116.81 -50.311001 -613.46002
-33.404999 -49.860001 -613.22998
112.48 -49.762001 -613.58002
114.1 -49.658001 -613.41998
-33.459999 -49.262001 -613.21997
105.72 -48.605 -613.20001
-33.720001 -48.375999 -613.35999
-5.1332998 -48.106998 -612.40997
-33.952 -47.655998 -613.26001
-34.332001 -46.874001 -613.42999
-3.8188 -46.849998 -613.15002
107.3 -46.143002 -613.28998
-34.817001 -45.375 -613.19
-49.445999 -44.860001 -614.04999
-35.255001 -44.794998 -613.22998
-36.025002 -43.999001 -613.25
-37.042999 -42.511002 -613.26001
-49.598999 -42.138 -613.5
2.5874 -41.000999 -614.12
-49.819 -40.860001 -613.44
-37.924999 -41.853001 -613.21997
108.4 -41.222 -613.54999
-38.917999 -41.373001 -613.21997
-49.924 -40.339001 -612.82001
-49.738998 -39.91 -613.57001
-44.860001 -39.389 -613.28998
-43.831001 -39.709 -613.57001
-41.827999 -39.57 -613.53003
-49.396999 -39.264 -613.27002
-48.195999 -38.742001 -613.96997
-45.369999 -38.924999 -613.41998
5.4812002 -38.639 -613.73999
6.0608001 -38.521 -613.01001
106.23 -38.853001 -613.22998
-46.313 -38.907001 -612.21002
104.41 -38.472 -613.23999
105.49 -38.817001 -613.08002
103.56 -37.823002 -613.53998
102.89 -37.348 -613.63
8.5565004 -36.226002 -613.45001
87.315002 -35.186001 -613.53003
88.388 -35.263 -613.15997
89.665001 -34.845001 -613.20001
99.406998 -34.23 -613.77002
79.397003 -34.710999 -613.33002
90.130997 -34.363998 -613.40002
11.773 -34.097 -612.65997
76.170998 -34.306999 -612.90997
92.059998 -33.859001 -613.09003
73.015999 -33.324001 -613.56
74.584 -33.894001 -613.01001
93.538002 -33.384998 -613.33002
95.306999 -34.148998 -612.28003
97.246002 -33.612999 -613.48999
69.475998 -32.646 -613.34003
15.193 -31.150999 -613.72998
61.884998 -30.351 -613.71997
60.138 -30.424999 -612.67999
50.848999 -27.355 -612.76001
24.184 -26.971001 -612.72998
26.274 -25.729 -613.78998
48.875999 -26.753 -612.82001
27.382999 -25.780001 -613.03003
29.014 -25.254 -613.46997
33.622002 -24.587 -613.90997
44.227001 -140.2 -613.15002
46.522999 -139.86 -612.28003
38.237 -139.37 -613.34998
40.214001 -139.42 -612.67999
48.841999 -139.66 -612.58002
53.667 -138.36 -613.03003
37.426998 -138.02 -612.62
32.990002 -137.36 -612.69
36.117001 -137.72 -612.84998
29.486 -136.92999 -612.14001
31.568001 -137.23 -612.47998
26.077999 -135.81 -612.41998
26.339001 -136.22 -612.76001
25.573999 -134.88 -612.48999
59.275002 -135.09 -612.28998
59.904999 -134.39999 -613.09998
25.612 -134.33 -612.52002
25.24 -133.34 -613.03998
60.664001 -133.72 -612.32001
25.219 -132.32001 -612.76001
25.783001 -132.86 -612.76001
25.118999 -131.94 -612.25
61.963001 -132.10001 -612.70001
62.52 -131.35001 -612.26001
23.552999 -130.85001 -612.54999
22.483 -129.87 -613
63.25 -130.24001 -612.35999
22.348 -129.34 -613.09998
23.333 -128.82001 -612.31
22.806 -128.25 -613.01001
24.114 -126.83 -612.72998
65.195 -126.38 -612.75
24.921 -125.89 -612.60999
65.57 -124.99 -612.73999
25.434 -124.92 -612.64001
65.845001 -123.4 -612.71997
65.858002 -122.61 -612.76001
26.237 -122.43 -612.77002
65.887001 -120.95 -612.73999
26.816 -119.13 -612.42999
65.764999 -119.56 -612.71002
65.720001 -118.86 -612.70001
65.638 -118.36 -612.83002
65.345001 -117.51 -612.60999
65.211998 -116.66 -612.71002
65.183998 -115.34 -613.27002
25.613001 -115.39 -613.04999
24.041 -114.22 -612.17999
64.829002 -114.31 -613.16998
22.091999 -113.4 -613.03003
63.637001 -113.05 -612.71002
20.823 -112.65 -612.53003
18.225 -111.35 -612.46997
62.591 -111.37 -612.73999
15.993 -110.21 -612.64001
60.248001 -107.99 -613.12
12.485 -108.3 -613.25
9.1929998 -105.97 -611.84003
7.2733998 -104.8 -612.72998
56.457001 -104.27 -612.71997
6.8176999 -104.42 -612.47998
53.041 -101.86 -612.41998
52.375 -101.43 -612.32001
2.9407001 -100.95 -612.16998
51.327 -100.41 -612.46002
50.560001 -99.821999 -612.28998
49.660999 -98.373001 -613.26001
48.659 -97.624001 -613.26001
-1.0322 -97.022003 -612.34003
47.872002 -97.273003 -612.62
-46.817001 -94.968002 -612.94
-42.855999 -95.237999 -613.47998
-42.228001 -94.916 -613.15997
-47.824001 -94.314003 -612.84998
-47.317001 -94.839996 -613.09003
-41.800999 -94.742996 -613.28998
45.675999 -94.102997 -612.77002
-48.292999 -93.345001 -612.62
-40.533001 -93.444 -612.95001
45.129002 -92.966003 -612.98999
-39.847 -92.848999 -612.85999
-39.252998 -92.023003 -613.16998
-48.257 -92.380997 -612.96002
-5.7023001 -91.156998 -612.47998
-38.081001 -89.078003 -612.72998
44.244999 -89.567001 -613.06
-7.3766999 -88.565002 -613.22998
44.868 -87.122002 -612.81
-37.791 -87.714996 -612.65997
-48.515999 -84.797997 -611.85999
-37.297001 -86.168999 -612.63
-8.8102999 -85.825996 -612.25
-14.315 -84.495003 -613.16998
-36.791 -83.962997 -612.79999
-15.106 -83.783997 -612.70001
-14.307 -83.956001 -612.65997
-36.688 -83.360001 -612.72998
-13.341 -83.897003 -612.96997
-36.473999 -82.689003 -612.66998
-16.198999 -82.952003 -612.72998
-10.774 -83.047997 -612.83002
-48.441002 -82.485001 -613.10999
-11.844 -82.322998 -612.73999
-11.288 -82.816002 -613.04999
-36.296001 -81.874001 -612.75
-17.009001 -82.224998 -612.75
-36.006001 -81.287003 -612.72998
-17.657 -82.002998 -613.14001
-18.551001 -80.625 -612.71002
-35.152 -80.283997 -612.72998
-48.633999 -80.047997 -612.16998
-34.316002 -79.349998 -612.72998
-33.478001 -78.543999 -612.83002
-26.589001 -78.587997 -612.71997
-25.806999 -78.587997 -612.72998
-25.294001 -78.405998 -612.71002
-32.762001 -78.014999 -613.15997
-31.040001 -78.181 -613.57001
-29.417999 -78.021004 -612.69
-24.804001 -77.862 -612.73999
-24.322001 -77.291 -612.73999
-23.419001 -76.761002 -612.75
-23.294001 -76.972 -613.20001
-22.809 -76.911003 -612.98999
-48.735001 -76.672997 -612.38
-22.806999 -76.634003 -612.72998
49.657001 -76.237 -613.12
-48.737 -73.860001 -613.72998
50.398998 -73.117996 -612.47998
-48.796001 -72.860001 -613.03003
51.096001 -72.249001 -613.33002
-48.827 -71.235001 -613.12
51.608002 -70.351997 -612.97998
-48.945 -68.422997 -612.60999
53.070999 -66.124001 -612.63
53.408001 -65.087997 -612.19
55.175999 -64.308998 -613.22998
55.827 -63.785 -612.32001
56.411999 -63.726002 -612.72998
58.633999 -62.540001 -612.37
-20.075001 -62.777 -612.63
-19.302999 -62.831001 -613.33002
-18.795 -62.702 -613.47998
-28.357 -61.884998 -613.20001
60.759998 -62.376999 -613.90997
-28.813 -61.855999 -612.51001
60.299999 -61.707001 -612.46002
61.724998 -61.645 -613.47998
63.263 -60.189999 -612.15002
64.160004 -60.328999 -612.81
-30.563 -60.223999 -611.91998
-14.365 -59.323002 -613.14001
-31.006001 -59.201 -612.46002
68.322998 -59.307999 -612.77002
69.017998 -59.370998 -613.06
70.890999 -58.794998 -612.42999
74.921997 -58.433998 -612.51001
77.443001 -58.338001 -612.87
-49.398998 -57.452999 -612.73999
81.420998 -57.976002 -613.03003
85.856003 -57.455002 -613.04999
-49.587002 -56.474998 -612.77002
-49.455002 -56.860001 -612.72998
-31.535 -57.283001 -612.67999
-12.898 -57.233002 -612.22998
87.327003 -57.258999 -613
88.808998 -56.856998 -612.62
-50.537998 -56.250999 -613.21997
-12.31 -56.354 -613.01001
-49.775002 -55.860001 -612.75
95.644997 -55.609001 -613.21002
-50.467999 -54.917999 -613.21997
-31.992001 -55.366001 -612.96997
-49.792999 -54.492001 -612.78003
-49.568001 -53.554001 -612.71002
-32.339001 -53.537998 -612.72998
-9.9027004 -53.022999 -612.45001
-49.457001 -52.390999 -612.72998
-32.59 -52.790001 -612.79999
-32.674999 -51.938999 -612.89001
102.27 -51.909 -613.17999
115.26 -51.837002 -613.12
116.67 -51.874001 -613.07001
117.89 -51.821999 -613.15997
-49.416 -51.669998 -612.73999
-32.868999 -51.071999 -612.78998
114.87 -50.125999 -613.31
-33.087002 -50.360001 -612.72998
-6.4466 -49.030998 -614.08002
-33.402 -48.902 -612.71002
-6.5372 -49.386002 -612.47998
105.22 -48.508999 -612.65997
-34.098 -47.360001 -612.72998
-34.247002 -46.830002 -612.47998
106.63 -47.037998 -613.03998
-34.352001 -46.220001 -613.14001
-34.229 -46.115002 -612.65997
107.57 -45.223999 -613.19
-49.602001 -44.610001 -612.60999
-34.625 -45.362999 -612.72998
-35.318001 -44.683998 -612.72998
-36.005001 -43.821999 -612.76001
107.27 -44.306 -612.66998
1.0547 -42.749001 -613.08002
-36.688 -42.606998 -612.71002
107.47 -42.463001 -612.65002
-37.561001 -41.946999 -612.75
-38.856998 -41.408001 -612.77002
-39.791 -40.986 -612.71002
107.57 -41.437 -612.78998
-40.571999 -40.473 -612.83002
107.46 -40.039001 -613.10999
-49.791 -39.888 -612.72998
-41.258999 -39.723999 -613.64001
-41.723 -39.855999 -612.57001
4.7887998 -39.820999 -612.59998
105.94 -39.324001 -612.72998
106.87 -39.091 -613.28003
104.39 -39.242001 -612.27002
102.58 -37.818001 -613.03003
7.5925002 -37.129002 -613.22998
101.82 -37.167 -613.04999
100.18 -36.631001 -612.22998
9.8773003 -35.529999 -612.73999
99.982002 -35.647999 -612.98999
83.209999 -35.380001 -613.10999
86.584999 -35.800999 -612.59998
89.200996 -35.220001 -613.01001
79.917 -35.366001 -612.38
90.813004 -34.402 -612.78998
98.537003 -34.414001 -613.10999
73.259003 -33.799 -612.71997
13.157 -33.514999 -611.98999
94.418999 -33.625 -612.87
68.146004 -32.504002 -612.78998
16.096001 -31.035 -612.84003
63.425999 -31.108999 -612.90002
64.721001 -31.743999 -612.31
17.348 -30.157 -613.06
54.897999 -28.535999 -613.15997
55.375999 -29.073 -612.45001
21.326 -28.311001 -612.57001
26.164 -26.461 -612.41998
42.676998 -25.354 -613.02002
31.823999 -25.032 -613.28003
33.616001 -25.219 -612.56
35.493 -24.664 -613.58002
37.505001 -25.153 -612.59003
42.019001 -139.75999 -612.28003
47.528999 -139.82001 -612.35999
40.026001 -138.84 -612.31
50.987999 -139.2 -612.23999
52.672001 -138.73 -612.22998
38.973 -138.75999 -612.60999
39.722 -137.87 -611.84003
38.205002 -137.81 -612.26001
34.426998 -137.41 -612.70001
35.500999 -137.44 -612.71997
36.833 -137.3 -612.32001
35.938999 -137.2 -612.17999
56.112999 -137.12 -612.40997
28.695 -136.67 -611.90997
27.094999 -136.3 -612.27002
58.001999 -135.97 -612.21002
25.971001 -135.37 -612.28003
26.556 -133.38 -612.28998
25.788 -132.33 -612.27002
61.630001 -132.62 -612.26001
24.17 -131.37 -612.45001
23.236 -130.34 -612.45001
63.869999 -129.13 -612.33002
64.446999 -128.02 -612.22998
24.504 -127.54 -612.07001
64.973 -126.76 -612.27002
65.344002 -125.64 -612.17999
65.483002 -124.72 -612.21997
65.650002 -123.38 -612.27002
25.811001 -123.82 -612.76001
26.639999 -123.01 -612.15002
65.531998 -122.07 -612.20001
26.806999 -121.96 -612.15997
26.527 -121.46 -612.66998
26.653999 -120.9 -612.46997
65.619003 -120.86 -612.33002
26.989 -119.58 -611.88
65.137001 -118.72 -612.21997
26.715 -117.3 -612.64001
64.374001 -116.61 -612.17999
64.142998 -115.43 -612.22998
25.034 -114.9 -612.83002
24.521 -114.44 -611.88
64.514 -114.66 -612.75
63.662998 -114.35 -612.23999
21.978001 -112.96 -611.13
62.650002 -112.34 -612.23999
62.116001 -111.48 -612.22998
61.785 -110.48 -612.65997
61.089001 -109.43 -612.67999
13.846 -109 -612.71997
58.749001 -107.63 -611.96002
10.929 -107.09 -611.76001
58.726002 -107.27 -612.21997
57.450001 -106.23 -611.83002
57.349998 -105.01 -612.92999
56.014999 -104.82 -611.95001
55.32 -103.48 -612.53003
2.283 -100.24 -611.84003
1.4595 -99.654999 -612.48999
46.817001 -96.442001 -612.04999
-1.8444999 -96.398003 -612.97998
-47.331001 -94.373001 -612.19
-45.181999 -94.797997 -612.42999
-44.056999 -94.824997 -612.41998
-43.047001 -94.599998 -612.10999
-48.008999 -93.988998 -612.21997
-48.339001 -93.448997 -612.25
-40.741001 -93.560997 -612.45001
-4.0170002 -93.617996 -612.35999
44.432999 -91.598999 -612.66998
-38.750999 -90.814003 -612.46002
44.207001 -90.635002 -612.66998
-48.348999 -90.110001 -612.72998
-6.6322999 -89.560997 -612.31
43.918999 -89.281998 -612.27002
-37.792999 -88.807999 -611.90002
-7.1876998 -88.665001 -612.21002
44.048 -87.926003 -611.95001
-48.398998 -87.985001 -612.47998
-37.598999 -87.764 -612.22998
-7.7937999 -87.536003 -612.10999
-8.1778002 -87.212997 -613.09998
-8.2131004 -86.626999 -611.66998
-9.3768997 -85.067001 -612.72998
-35.990002 -83.836998 -611.87
-10.057 -84.002998 -612.75
-13.799 -83.769997 -612.65002
-48.516998 -83.235001 -611.97998
-16.277 -82.028 -612.03998
-12.349 -82.629997 -612.82001
-11.798 -81.668999 -612.33002
-11.33 -81.874001 -612.20001
-35.846001 -81.521004 -612.22998
-17.320999 -81.390999 -612.21997
-35.294998 -80.850998 -612.23999
-18.23 -80.467003 -612.20001
48.016998 -80.360001 -612.22998
-34.061001 -79.236 -612.03998
-19.035 -79.528 -612.16998
-25.929001 -78.960999 -612.40997
-25.302999 -78.862 -612.23999
-32.757999 -78.389 -611.87
-26.976 -78.755997 -612.29999
-24.783001 -78.375 -612.25
-32.765999 -78.075996 -612.71997
-31.021 -77.987999 -612.28003
-29.684999 -77.927002 -612.13
-28.722 -78.083 -612.69
-28.124001 -78.265999 -612.33002
-20.690001 -78.042 -612.65997
-24.395 -78.049004 -611.78003
-20.896 -77.181 -611.97998
-23.913 -77.086998 -612.31
-22.009001 -76.899002 -612.63
-21.372 -76.885002 -612.19
48.780998 -77.491997 -611.97998
-22.306999 -76.362 -612.22998
-21.806999 -76.5 -612.22998
-48.837002 -74.802002 -612.13
49.965 -74.360001 -612.47998
-48.965 -70.985001 -611.91998
51.051998 -71.214996 -612.46002
51.358002 -69.540001 -611.92999
51.757999 -67.860001 -611.60999
-49.193001 -65.123001 -611.29999
-49.047001 -65.110001 -612.47998
53.852001 -64.793999 -612.45001
54.709 -64.337997 -612.73999
55.193001 -63.896 -612.13
56.792 -63.353001 -612.13
-24.094 -62.928001 -612.38
-22.820999 -63.233002 -613.41998
-26.792999 -62.353001 -612.38
-18.59 -62.466 -611.97998
-27.421 -62.049999 -612.58002
-17.794001 -62.166 -612.40997
-16.877001 -61.694 -612.45001
-29.351999 -61.443001 -612.78003
-15.27 -60.480999 -612.28003
61.418999 -61.074001 -612.35999
-14.712 -59.939999 -612.42999
-49.330002 -59.723 -612.57001
68.207001 -58.813999 -611.90997
69.337997 -58.898998 -612.28998
-31.266001 -58.714001 -612.28003
-31.226999 -58.304001 -612.71002
-13.269 -57.827999 -611.90002
76.390999 -58.028999 -612
78.588997 -57.648998 -611.77002
-49.398998 -56.470001 -611.39001
83.625999 -57.402 -612.45001
87.204002 -56.828999 -612.28998
-31.767 -56.338001 -612.89001
-31.837 -56.43 -612.19
-49.431 -56.050999 -612.27002
-31.936001 -55.881001 -612.54999
91.236 -56.323002 -612.46997
94.059998 -55.362999 -612.14001
-32.027 -55.019001 -612.19
96.723999 -54.573002 -612.28003
-49.452999 -53.886002 -612.23999
-32.459999 -53.360001 -612.22998
98.867996 -53.382999 -612.08002
-32.651001 -52.865002 -612.13
-49.472 -53.188 -612.21997
-32.637001 -51.880001 -612.21002
-8.2851 -51.004002 -612.85999
101.49 -51.195999 -611.78998
-32.893002 -50.990002 -612.28998
-49.504002 -50.610001 -611.60999
103.22 -50.384998 -612.45001
-33.278 -50.028999 -612.22998
-33.307999 -49.841999 -612.65002
-33.516998 -48.327999 -612.56
104.53 -48.679001 -612.19
-33.819 -47.827 -612.63
105.26 -46.605999 -611.71997
-34.577 -45.389999 -612.21997
-35.810001 -44.361 -612.22998
-1.6483001 -45.245998 -612.62
-0.17698 -43.941002 -612.72998
-49.783001 -43.48 -612
-36.297001 -43.837002 -612.21997
0.74444997 -43.804001 -611.17999
107.91 -43.395 -613.09003
-49.808998 -42.460999 -612.41998
-36.745998 -42.882 -612.17999
-37.334999 -42.368999 -612.25
2.6068001 -41.583 -612.77002
-39.527 -41.334 -612.21002
-38.710999 -41.791 -612.21997
4.1025 -40.980999 -611.58002
-49.797001 -39.918999 -611.78998
-42.966999 -39.806999 -612.52002
-41.271999 -40.335999 -611.81
106.11 -39.875 -612.46997
-44.794998 -39.720001 -612.28003
-45.237999 -39.345001 -612.44
5.2711 -39.792 -611.96997
-48.834 -39.000999 -613.46002
-45.884998 -38.884998 -612.65002
6.0671 -39.256001 -611.72998
103.34 -39.235001 -611.79999
102.65 -38.300999 -612.53998
100.87 -37.313999 -612.19
87.556 -35.672001 -612.64001
89.648003 -35.432999 -612.58002
98.458 -35.370998 -612.23999
77.373001 -34.923 -612.29999
78.273003 -35.181 -612.13
90.507004 -34.813999 -612.46002
73.932999 -34.411999 -611.90997
91.666 -34.395 -612.46997
92.476997 -34.368 -612.22998
96.996002 -34.327 -612.59003
72.121002 -33.603001 -612.60999
93.200996 -34.143002 -612.34003
70.414001 -33.278 -612.53998
66.505997 -32.362 -612.09003
17.399 -30.833 -611.90002
61.473999 -31.120001 -611.98999
58.512001 -30.105 -612.47998
19.266001 -29.566 -612.17999
52.637001 -28.18 -612.35999
46.652 -26.375999 -612.48999
28.847 -25.816 -612.40002
31.365 -25.868 -611.77002
39.080002 -25.194 -612.65002
40.210999 -25.612 -612.07001
34.807999 -25.641001 -611.65002
41.104 -139.38 -612.21002
43.425999 -139.87 -612.14001
44.410999 -139.86 -612.03998
46.073002 -139.64 -611.71002
46.848999 -139.61 -611.64001
42.092999 -139.37 -611.75
50.512001 -139.2 -611.71997
51.888 -138.78 -611.44
53.394001 -138.39999 -611.70001
38.688 -137.97 -612.15002
54.188999 -138.10001 -611.92999
38.319 -137.35001 -612.03998
31.441999 -136.92999 -611.09998
31.99 -137.06 -611.29999
34.502998 -137.25999 -611.73999
37.560001 -136.88 -611.72998
38.498001 -136.87 -611.71997
55.793999 -137.24001 -611.76001
57.786999 -136.02 -611.73999
27.169001 -135.88 -611.71002
28.021 -136.34 -611.71997
26.739 -134.86 -611.76001
59.386002 -134.91 -611.76001
26.358999 -134.3 -612.08002
27.563999 -133.37 -611.76001
60.57 -133.8 -611.73999
27.686001 -132.88 -611.40997
26.658001 -132.83 -612.10999
61.487 -132.72 -611.65997
62.365002 -131.5 -611.75
24.282 -130.38 -611.66998
23.356001 -129.69 -612.19
24.183001 -129.64 -611.65997
63.411999 -129.8 -611.78003
24.716 -128.88 -611.44
64.018997 -128.61 -611.77002
24.612 -128.10001 -611.79999
64.550003 -127.49 -611.72998
24.940001 -126.82 -612.02002
64.984001 -126.1 -611.77002
25.907 -125.74 -611.87
26.132999 -124.48 -612.21002
65.163002 -125.29 -611.77002
26.768 -124.28 -611.78003
65.225998 -123.78 -611.70001
27.231001 -122.47 -611.71997
27.396 -120.98 -611.28003
65.126999 -121.87 -611.75
27.146 -120.47 -611.48999
65.263 -119.68 -612.16998
64.794998 -120.86 -611.66998
64.397003 -119.12 -611.70001
64.693001 -118.61 -612
64.148003 -117.89 -611.76001
26.628 -116.44 -611.96002
63.702999 -115.94 -611.70001
26.134001 -115.87 -611.78003
25.125999 -114.89 -611.71002
23.295 -113.77 -611.94
63.223 -114.59 -611.67999
22.469999 -113.33 -611.85999
20.01 -112.21 -612.35999
19.455999 -111.71 -611.60999
16.458 -110.22 -611.16998
15.121 -109.65 -612.12
60.380001 -109.25 -611.96002
59.743999 -108.67 -611.82001
10.213 -106.46 -611.26001
6.3106999 -103.54 -610.88
7.6893001 -104.86 -611.71002
54.053001 -103.08 -612.02002
53.106998 -102.68 -611.65002
51.846001 -101.47 -611.73999
49.569 -98.957001 -612.28998
0.15311 -98.212997 -612.34998
48.005001 -98.153 -611.40997
46.368 -95.557999 -612.52002
-2.5845001 -95.321999 -611.96002
-46.625999 -94.712997 -612.42999
-43.568001 -94.177002 -611.20001
-42.306999 -94.524002 -612.22998
-47.818001 -93.867996 -611.71002
-47.280998 -93.991997 -611.54999
-41.865002 -94.280998 -612.10999
-41.373001 -93.783997 -611.60999
-48.32 -93.263 -611.44
44.91 -93.362999 -612.13
-48.452 -92.561996 -611.35999
-39.834999 -92.855003 -612
44.348999 -92.004997 -612.15997
-48.328999 -92.153999 -612.16998
-39.223 -92.004997 -611.78003
-48.441002 -91.360001 -611.72998
-38.403999 -90.059998 -612.09998
43.897999 -89.904999 -612.21997
-38.046001 -89.406998 -612.01001
-37.290001 -87.879997 -611.73999
-6.9176002 -88.666 -611.09998
-37.216999 -87.255997 -611.94
-36.776001 -86.639 -611.76001
-36.570999 -84.846001 -612.09003
45.053001 -85.759003 -611.66998
-9.5356998 -84.068001 -611.19
-15.466 -82.825996 -612.14001
-14.887 -82.925003 -612.07001
-14.305 -83.001999 -612.13
-10.815 -82.517998 -612.21002
-35.763 -82.360001 -611.78003
-13.579 -82.896004 -612.25
-35.382 -81.860001 -611.64001
-15.487 -82 -611.72998
-13.918 -81.946999 -611.78003
-48.571999 -81.672997 -611.97998
-12.251 -81.561996 -612.25
-34.794998 -81.190002 -611.60999
-12.284 -80.848 -611.79999
-34.757999 -79.997002 -612.21002
-33.888 -79.675003 -611.21997
-18.318001 -79.605003 -611.66998
-33.571999 -78.82 -612.26001
-26.927 -79.045998 -611.63
-19.283001 -78.823997 -611.75
48.237 -79.282997 -611.96997
-48.841999 -77.797997 -611.34003
-28.149 -78.397003 -611.71997
-19.688999 -78.556 -611.92999
-31.500999 -78.068001 -611.71002
-23.311001 -76.568001 -611.85999
-22.77 -76.392998 -612.16998
-21.788 -76.330002 -611.76001
-22.472 -76.257004 -611.66998
49.986 -72.740997 -611.42999
52.344002 -66.988998 -612.09998
-49.195 -64.047997 -611.54999
53.962002 -64.344002 -611.97998
55.729 -63.495998 -611.5
-25.827 -62.823002 -612
-22.275 -63.231998 -612.20001
-27.278 -62.226002 -611.73999
-26.305 -62.655998 -612.17999
-20.361 -62.723 -612.03003
-19.482 -62.679001 -611.67999
-17.662001 -62.041 -611.42999
59.355 -61.619999 -611.71002
-31.291 -59.328999 -611.66998
-14.267 -59.424 -612.22998
64.779999 -59.580002 -611.92999
-49.363998 -59.360001 -611.72998
-49.417 -57.985001 -611.22998
72.141998 -57.897999 -611.15997
77.452003 -57.972 -612.07001
81.581001 -57.57 -612.32001
85.230003 -56.972 -612.02002
88.083 -56.422001 -611.83002
89.773003 -56.320999 -611.96002
90.598999 -55.902 -611.65002
-32.181 -55.771 -611.65002
92.890999 -55.529999 -611.96002
95.055 -55.125 -612.19
-32.199001 -54.564999 -611.65002
-32.143002 -53.917999 -612.13
-9.3542995 -52.298 -612.47998
-32.821999 -51.860001 -611.77002
100 -52.480999 -611.92999
-32.935001 -51.087002 -611.72998
-33.393002 -50.054001 -611.73999
-7.7231002 -50.681 -611.46002
103.12 -49.729 -611.84003
-49.598999 -48.985001 -611.47998
-33.445999 -48.888 -611.96997
-5.6087999 -48.890999 -611.10999
-34.304001 -47.327999 -612.15002
-4.2363 -47.553001 -611.73999
105.08 -47.563999 -612
-49.502998 -47.750999 -612.72998
-34.443001 -46.785999 -611.79999
-34.286999 -45.82 -611.97998
-2.7035999 -46.083 -612.76001
-34.616001 -45.842999 -611.22998
106.47 -45.807999 -612.35999
-35.275002 -44.785999 -612.22998
-36.083 -44.900002 -611.29999
-36.355 -44.377998 -611.75
-36.825001 -43.875999 -611.71997
-37.301998 -42.896 -611.82001
-37.734001 -42.289001 -612.08002
-38.014999 -42.771999 -611.71997
2.3322001 -42.294998 -611.79999
-39.278999 -41.837002 -611.67999
106.57 -41.376999 -612.14001
-50.02 -40.901001 -611.92999
106.35 -40.747002 -612.21002
-44.355999 -39.979 -611.82001
-43.806999 -40.011002 -611.97998
-42.990002 -40.092999 -611.46002
-42.286999 -39.941002 -611.92999
-49.264 -39.530998 -612.19
-45.737999 -39.358002 -611.54999
-47.306999 -38.991001 -612.22998
6.9906001 -38.380001 -612.01001
102.37 -38.846001 -611.71997
101.47 -38.153999 -611.90002
9.0860996 -36.391998 -612.42999
83.668999 -36.084 -612.08002
85.101997 -36.004002 -612.37
87.134003 -36.323002 -611.89001
11.593 -34.98 -611.52002
79.905998 -35.858002 -611.64001
81.167 -35.526001 -612.40997
82.849998 -36.574001 -611.22998
89.515999 -35.999001 -611.75
90.442001 -36.098 -611.23999
98.323997 -36.023998 -611.65997
77.112999 -35.276001 -611.67999
90.674004 -35.43 -611.85999
97.249001 -35.050999 -611.96002
91.245003 -34.849998 -611.92999
92.32 -34.834 -611.67999
96.003998 -34.866001 -611.70001
13.829 -32.606998 -612.63
69.267998 -33.171001 -612.15997
65.169998 -32.374001 -611.40997
15.59 -31.951 -611.90997
63.754002 -31.825001 -611.70001
59.880001 -31.077999 -611.44
54.591 -29.233999 -611.72998
51.945999 -28.641001 -611.26001
49.457001 -27.268 -612.21997
26.167 -26.841999 -611.78998
45.825001 -26.844 -611.46002
48.077999 -27.061001 -611.92999
27.125999 -26.302 -612.21997
28.259001 -26.841999 -610.92999
44.397999 -25.938999 -612.44
29.479 -26.188999 -611.58002
36.999001 -25.593 -611.71997
42.759998 -139.42 -611.58002
44.557999 -139.35001 -611.21997
45.418999 -139.35001 -611.20001
48.094002 -139.49001 -611.5
48.970001 -139.25 -611.27002
42.543999 -138.92 -611.31
41.389 -138.48 -611.53003
53.124001 -138.33 -611.21002
41.132999 -137.89 -611.22998
53.784 -138.10001 -611.19
32.854 -137.16 -611.53003
36.216999 -137.08 -611.78003
36.452999 -136.98 -611.26001
39.478001 -136.84 -611.53003
40.07 -136.94 -611.42999
55.992001 -137 -611.22998
28.902 -136.38 -611.23999
29.747 -136.66 -611.25
38.497002 -136.61 -611.23999
39.431999 -136.44 -611.23999
40.193001 -136.39 -611.20001
28.076 -135.88 -611.25
57.108002 -136.25999 -611.25
58.053001 -135.64999 -611.23999
26.76 -135.36 -611.79999
59.452 -134.61 -611.23999
27.282 -133.85001 -611.79999
28.565001 -133.81 -611.14001
28.444 -133.36 -611.28998
60.448002 -133.64999 -611.19
28.657 -132.88 -610.84003
61.516998 -132.47 -611.27002
27.613001 -132.39999 -610.79999
25.795 -131.86 -611.52002
25.046 -131.41 -611.65002
24.754999 -130.88 -611.52002
62.443001 -131.00999 -611.23999
25.236 -129.73 -610.96997
62.924999 -130.25999 -611.21997
64.169998 -127.7 -611.23999
26.264999 -126.85 -610.82001
64.563004 -126.51 -611.29999
64.625 -125.43 -611.26001
64.598999 -124.24 -611.28003
27.679001 -122.97 -611.32001
27.725 -122.36 -611.27002
27.577 -121.83 -611.32001
64.632004 -122.16 -611.39001
64.237 -120.99 -611.17999
27.177999 -119.85 -611.12
27.087 -118.86 -611.22998
63.855999 -118.71 -611.21002
26.851999 -118.1 -611.90997
26.797001 -117.04 -611.32001
63.754002 -117.36 -611.39001
25.91 -115.54 -611.03998
24.639999 -114.53 -611.29999
23.007 -113.57 -611.14001
62.219002 -113.92 -610.71997
61.755001 -112.18 -611.29999
61.027 -110.88 -611.33002
17.311001 -110.83 -612.01001
59.804001 -109.42 -611.21997
13.7 -108.7 -611.77002
58.714001 -108.45 -611.28998
13.216 -108.34 -611.22998
58.216999 -107.69 -611.28003
11.693 -107.61 -612.22998
12.384 -107.81 -611.22998
56.659 -106.74 -610.91998
56.044998 -106.36 -610.78998
55.352001 -105.59 -610.87
54.566002 -104.35 -611.33002
51.203999 -101.03 -611.41998
2.5006001 -100.06 -610.97998
48.696999 -98.857002 -611.21997
47.16 -97.272003 -611.48999
-1.6832 -95.901001 -610.84003
46.412998 -96.626999 -611.22998
45.426998 -94.922997 -611.51001
45.327999 -94.171997 -612.03998
-48.478001 -92.474998 -610.83002
-40.242001 -92.921997 -610.72998
43.867001 -92.598 -610.98999
-39.776001 -92.552002 -610.79999
-5.0032001 -92.018997 -611.59998
-39.262001 -91.733002 -610.87
43.835999 -91.065002 -611.58002
-48.5 -89.948997 -611.32001
-38.699001 -90.785004 -611.56
-6.1118002 -90.228996 -611.70001
43.724998 -90.278 -611.46002
-48.500999 -89.235001 -611.47998
-37.997002 -89.694 -611.21002
43.694 -89.027 -611.15002
-37.450001 -88.848 -611.22998
43.852001 -88.629997 -611.39001
-48.515999 -87.640999 -611.29999
43.994999 -87.741997 -611.19
44.368999 -86.945999 -611.87
-36.202999 -84.983002 -611.40002
-8.9403 -85.107002 -611.34998
-35.743999 -84.254997 -611.33002
46.667 -83.522003 -612.09998
-35.363998 -82.386002 -611.19
-10.727 -81.790001 -610.72998
-34.686001 -81.436996 -611.28003
-14.835 -81.750999 -611.58002
47.595001 -80.748001 -611.57001
-15.857 -81.351997 -611.58002
-14.353 -81.072998 -611.46002
-11.374 -81.102997 -611.33002
-34.286999 -80.566002 -611.26001
-15.37 -80.625 -611.28998
-12.325 -80.183998 -611.42999
-11.858 -80.488998 -611.25
-17.586 -80.431 -611.78003
-12.821 -80.650002 -611.69
-12.715 -79.901001 -611.34003
-25.816999 -79.335999 -611.53003
-26.250999 -79.335999 -611.46002
-17.16 -79.252998 -611.21997
-13.307 -79.655998 -611.22998
-32.890999 -78.794998 -611.22998
-25.312 -79.200996 -611.52002
-24.851 -78.834 -611.48999
-18.794001 -79.223999 -611.70001
-32.176998 -78.322998 -611.22998
-28.752001 -78.116997 -611.32001
-19.193001 -78.417 -611.34998
-30.858 -77.972 -611.52002
-30.058001 -77.847 -611.25
-24.363001 -78.249001 -610.92999
-19.827 -77.879997 -611.20001
-23.771 -77.221001 -611.32001
-20.299999 -77.396004 -611.21002
-20.805 -76.858002 -611.23999
48.463001 -77.360001 -611.22998
-21.413 -76.551003 -611.65997
48.988998 -76.360001 -611.72998
49.250999 -76.169998 -612.20001
-49.075001 -69.610001 -611.35999
50.707001 -69.557999 -610.71002
51.851002 -65.82 -610.34003
54.256001 -63.865002 -611.44
-23.351999 -63.203999 -611.64001
-20.966 -62.780998 -611.98999
56.605999 -62.523998 -610.78003
-49.118999 -63.110001 -612.35999
-20.625999 -62.813999 -610.94
-29.341 -61.895 -611.33002
-27.85 -62.106998 -611.59003
57.838001 -62.380001 -611.52002
-29.789 -61.389 -611.69
-16.834999 -61.754002 -611.10999
60.132999 -60.754002 -611.14001
-14.81 -60.294998 -610.96002
-14.359 -59.798 -610.84998
62.651001 -59.959 -611.46002
63.966 -59.092999 -610.91998
-31.733999 -58.897999 -611.37
65.471001 -58.501999 -610.71002
66.078003 -59.077999 -611.67999
-31.827 -58.358002 -611.37
68.757004 -57.983002 -610.82001
69.709 -57.471001 -610.25
73.488998 -57.957001 -611.41998
-31.796 -57.466 -611.47998
74.753998 -57.889 -611.47998
75.894997 -57.618 -611.25
78.477997 -57.339001 -611.23999
79.624001 -57.452999 -611.64001
80.531998 -56.993 -611.09998
83.182999 -56.721001 -611.31
-32.293999 -56.398998 -611.31
85.573997 -56.405998 -611.22998
87.656998 -55.977001 -611.08002
88.717003 -55.678001 -610.96997
-49.480999 -55.360001 -611.35999
-32.417 -54.366001 -611.22998
-11.519 -55.337002 -611.85999
-10.737 -54.192001 -612.16998
93.708 -54.817001 -611.40002
94.579002 -54.125 -610.96997
95.306999 -53.314999 -610.46997
96.833 -53.987999 -611.65997
-32.854 -53.318001 -611.41998
-49.464001 -53.610001 -611.72998
-33.098999 -52.860001 -611.22998
98.393997 -52.41 -610.84003
99.696999 -52.050999 -611.28003
-33.046001 -51.873001 -611.23999
100.93 -51.022999 -611.26001
-33.174999 -51.118999 -611.23999
-33.700001 -49.922001 -611.27002
-33.741001 -49.360001 -611.15002
-33.789001 -48.765999 -611.20001
102.67 -49.320999 -611.21997
-33.896999 -48.341999 -611.28003
-34.226002 -47.880001 -611.47998
-49.669998 -46.860001 -611.35999
-34.800999 -47.360001 -611.21997
-34.806999 -46.870998 -611.22998
-2.2853999 -46.379002 -610.92999
105.59 -45.731998 -611.65997
-35.311001 -45.355999 -611.23999
105.53 -44.653 -611.37
-37.314999 -44.16 -611.38
-36.881001 -44.492001 -611.34003
106.05 -43.785 -611.63
-38.801998 -43.805 -611.15002
-50.113998 -41.816002 -610.77002
-38.819 -42.320999 -611.67999
-39.446999 -42.445 -611.04999
105.47 -42.691002 -611.28998
-39.895 -41.814999 -611.01001
106.02 -42.195 -611.69
105.4 -41.256001 -611.54999
-39.937 -41.278999 -611.71002
105.34 -40.535 -611.79999
-49.981998 -40.389999 -611.47998
-41.789001 -40.319 -611.28003
103.97 -40.382 -611.26001
-49.303001 -40.046001 -610.78003
104.65 -39.893002 -611.84998
-48.790001 -39.484001 -611.83002
102.96 -39.617001 -611.32001
101.29 -38.819 -611.21997
8.3290997 -37.414001 -611.78003
99.771004 -36.978001 -611.70001
9.8135004 -36.417 -611.5
80.990997 -36.330002 -611.23999
84.940002 -36.905998 -611.19
86.293999 -36.852001 -611.26001
87.783997 -36.839001 -611.15997
89.484001 -36.414001 -611.23999
91.082001 -35.691002 -611.31
72.857002 -34.609001 -611.23999
75.223 -34.986 -611.46997
93.236 -34.983002 -611.44
94.207001 -34.550999 -611.78998
94.855003 -34.77 -611.58002
12.818 -34.737 -610.63
70.615997 -33.858002 -611.64001
69.404999 -33.821999 -611.15002
67.547997 -33.222 -611.21997
15.96 -32.581001 -610.69
62.009998 -31.865999 -610.94
18.568001 -31.040001 -610.56
57.970001 -30.596001 -611.39001
56.534 -30.188999 -611.28003
24.309 -27.462 -611.82001
49.396 -28.160999 -610.85999
50.569 -27.879999 -611.76001
25.999001 -27.455 -610.96997
47.112 -27.393 -611.09003
42.443001 -26.139999 -611.59003
44.275002 -26.833 -610.98999
33.313999 -26.273001 -610.78003
35.672001 -25.872 -611.23999
39.507999 -25.785999 -611.63
43.194 -139.07001 -611.17999
44.474998 -138.82001 -610.78998
45.353001 -138.89 -610.70001
46.328999 -138.92999 -610.65002
47.219002 -138.92999 -610.60999
48.837002 -138.56 -610.17999
42.455002 -138.35001 -611.08002
50.569 -138.92 -611.07001
52.141998 -138.37 -610.71002
42.173 -137.84 -610.88
42.997002 -137.88 -610.59998
53.185001 -138.08 -610.72998
40.761002 -137.35001 -611.26001
42.189999 -137.36 -610.75
54.386002 -137.58 -610.70001
32.838001 -136.88 -610.59998
34.467999 -137.14 -610.79999
40.889999 -136.84 -611.22998
41.995998 -136.85001 -610.85999
54.992001 -137.52 -611.08002
30.021999 -136.38 -610.67999
30.702999 -136.42999 -610.46002
37.610001 -136.74001 -611.17999
40.839001 -136.35001 -611.03998
56.060001 -136.56 -610.51001
40.000999 -136.23 -610.78003
40.981998 -136.10001 -610.73999
41.623001 -136.27 -610.83002
57.358002 -135.75 -610.67999
27.892 -135.35001 -611.19
27.657 -134.86 -611.27002
28.091 -134.32001 -611.17999
59.001999 -134.58 -610.71997
29.882999 -133.37 -610.62
26.933001 -131.85001 -610.70001
61.435001 -132.06 -610.76001
61.985001 -131.12 -610.71002
62.543999 -130.25999 -610.70001
25.844 -128.82001 -610.84003
63.136002 -129.2 -610.77002
25.483 -128.37 -611.15002
63.674 -128.8 -611.21002
63.359001 -128.21001 -610.66998
63.748001 -127.1 -610.76001
26.691 -125.81 -611.16998
63.772999 -126.11 -610.71997
27.142 -125.07 -611.26001
28.009001 -124.85 -610.72998
63.924 -125.2 -610.78003
64.043999 -124.36 -610.87
27.870001 -124.09 -611.03998
28.294001 -123.12 -610.79999
64.041 -122.08 -610.84998
28.176001 -122.33 -610.67999
27.746 -121.2 -610.75
27.311001 -120.09 -610.73999
64.102997 -119.84 -611.29999
63.244999 -118.6 -610.33002
63.173 -116.88 -610.71002
26.611 -116.4 -610.89001
62.938999 -115.74 -610.81
23.530001 -113.94 -610.78998
61.472 -112.53 -610.76001
20.934999 -112.4 -610.84998
19.690001 -111.53 -610.32001
17.243999 -110.43 -610.19
18.452999 -111.1 -610.90997
16.156 -109.93 -610.34003
59.492001 -109.67 -610.84998
58.698002 -109.36 -610.72998
58.192001 -109.01 -610.59003
57.742001 -107.51 -611.04999
7.9032001 -104.75 -610.71997
53.939999 -104.2 -610.87
5.3358002 -102.66 -610.85999
52.581001 -102.62 -611.09998
50.181 -100.23 -610.98999
0.98338997 -98.568001 -610.96997
48.395 -99.086998 -610.46002
47.485001 -98.125 -610.72998
46.191002 -96.754997 -610.79999
-2.1407001 -95.241997 -610.40997
45.525002 -95.523003 -611.14001
-2.8018999 -94.560997 -610.44
-44.806999 -94.074997 -611.13
-42.548 -93.952003 -610.96997
-46.172001 -93.718002 -610.88
-41.752998 -93.705002 -610.97998
-48.326 -92.874001 -610.71002
-40.939999 -93.261002 -610.72998
-4.2090998 -92.992996 -611.25
-38.821999 -90.799004 -610.90002
43.161999 -90.862 -610.51001
-38.497002 -90.210999 -610.71997
-5.7676001 -90.264999 -610.59003
43.099998 -90.255997 -610.45001
-37.780998 -89.482002 -610.73999
43.084999 -89.501999 -610.34998
-37.306 -88.862 -610.72998
-37.132 -88.360001 -610.72998
-36.778999 -87.370003 -611.09003
44.126999 -86.973 -610.63
-36.394001 -86.466003 -611.09998
44.834999 -85.552002 -610.78003
-36.106998 -85.663002 -610.72998
-35.804001 -84.862999 -610.73999
-35.360001 -84.329002 -610.26001
45.925999 -84.135002 -611.32001
-9.7054996 -83.218002 -610.34998
-35.175999 -82.938004 -610.48999
-34.985001 -82.246002 -610.64001
-33.863998 -79.981003 -610.75
-15.959 -80.047997 -611.21997
-13.896 -79.929001 -611.23999
-11.769 -80.225998 -610.65997
-33.418999 -79.351997 -610.95001
-15.885 -79.238998 -610.87
-15.311 -79.709999 -610.97998
-12.695 -79.357002 -610.75
-32.811001 -78.857002 -610.66998
-26.777 -79.227997 -610.89001
-25.988001 -79.392998 -610.81
-25.306999 -79.160004 -610.72998
-24.875 -78.802002 -610.72998
-16.961 -78.675003 -610.87
-14.194 -79.035004 -611.03998
-13.315 -79.349998 -611.09003
-32.185001 -78.355003 -610.71997
-28.240999 -78.311996 -610.72998
-27.353001 -78.932999 -610.96002
-18.202999 -78.681 -611.22998
-17.802 -78.273003 -610.87
-15.464 -78.419998 -610.85999
-14.315 -78.363998 -610.72998
-13.419 -78.720001 -610.59998
-30.545 -77.850998 -610.71997
-29.319 -77.917999 -611.03003
-19.195 -77.824997 -610.96002
-16.407 -77.799004 -610.72998
-15.575 -77.883003 -610.71997
-19.806999 -77.360001 -610.90002
-18.705 -77.404999 -610.71002
-22.379999 -76.334 -611.21997
-21.785 -76.375999 -611.02002
-20.806999 -76.717003 -610.72998
-48.886002 -75.860001 -611.47998
-48.977001 -74.235001 -610.79999
49.387001 -74.495003 -611.40997
50.321999 -71.734001 -611.40002
-49.151001 -70.672997 -610.41998
-49.09 -67.860001 -611.72998
-49.098 -66.672997 -611.66998
52.698002 -65.069 -611.07001
53.264 -64.333 -611.09998
53.658001 -63.876999 -610.94
53.849998 -63.438999 -610.40002
-22.280001 -63.333 -610.81
-21.313 -62.912998 -611.35999
-49.266998 -61.610001 -611.35999
-26.239 -62.845001 -611.15997
-18.771 -62.529999 -610.65002
-17.757999 -62.191002 -610.39001
-17.32 -62.078999 -610.28998
-16.24 -61.484001 -610.48999
-49.330002 -60.484001 -611.59998
-15.844 -61.122002 -611.08002
-30.549 -60.952999 -610.51001
-31.465 -59.457001 -611.22998
61.300999 -59.416 -610.07001
-32.370998 -58.360001 -610.78998
66.801003 -58.314999 -610.84003
71.042 -58.056999 -611.27002
-32.370998 -57.623001 -610.72998
-32.248001 -56.830002 -611.07001
-33.004002 -56.400002 -610.65002
81.603996 -56.749001 -611.07001
84.043999 -56.424 -611.07001
-33.158001 -55.796001 -610.56
85.347 -55.773998 -610.48999
86.365997 -56.130001 -611.03998
-32.844002 -54.908001 -610.75
-11.53 -55.444 -610.72998
91.272003 -55.321999 -611.19
92.182999 -55.277 -611.40997
-32.858002 -54.360001 -610.78003
93.07 -54.377998 -610.76001
-33.387001 -53.502998 -610.65002
96.968002 -53.007 -610.77002
-49.514999 -51.985001 -611.35999
-8.9610996 -52.054001 -611.23999
-33.715 -51.112 -610.65002
99.693001 -51.272999 -610.65997
-7.2305999 -50.346001 -610.96997
-34.212002 -49.984001 -610.67999
101.56 -50.196999 -611.07001
103.58 -48.183998 -611.21997
-35.311001 -47.348999 -610.71997
-3.0404 -46.872002 -611.07001
103.76 -46.560001 -610.65997
-34.702999 -46.356998 -611.17999
-35.255001 -46.360001 -610.70001
-35.505001 -45.903 -610.65002
104.39 -45.471001 -610.78998
-36.046001 -45.457001 -610.72998
-0.43053001 -44.830002 -611.01001
-37.813999 -45.150002 -610.71997
-37.205002 -45.106998 -610.76001
-38.290001 -44.201 -611.21997
-49.811001 -44.581001 -611.27002
103.88 -42.546001 -610.40002
-50.103001 -41.289001 -610.96002
-50.049999 -40.862 -611.08002
-41.515999 -40.860001 -610.46997
-42.493999 -40.367001 -610.75
-44.977001 -39.948002 -611.08002
-43.514999 -40.471001 -610.28003
-46.785 -39.162998 -611.31
-46.245998 -39.439999 -610.70001
7.6616001 -38.629002 -610.84003
100.46 -38.129002 -611.29999
9.3216 -37.729 -610.32001
98.011002 -37.646 -610.46997
84.627998 -37.313999 -610.67999
85.973999 -37.407001 -610.71002
88.996002 -37.337002 -610.47998
89.931999 -36.971001 -610.64001
96.987 -35.900002 -611.17999
92.126999 -35.314999 -611.26001
92.055 -36.617001 -610.26001
95.957001 -35.891998 -610.82001
94.171997 -35.504002 -610.94
72.431999 -35.244999 -610.28998
71.156998 -34.391998 -611.02002
69.399002 -34.293999 -610.53003
68.282997 -33.91 -610.54999
64.509003 -32.567001 -610.84998
57.345001 -31.226 -610.21997
20.764999 -29.506001 -611.08002
54.325001 -29.582001 -611.10999
22.075001 -28.77 -611.22998
51.437 -28.899 -610.70001
29.527 -26.974001 -610.40002
31.714001 -26.461 -610.73999
38.950001 -26.379 -610.63
41.099998 -26.450001 -610.87
44.969002 -138.39999 -610.45001
45.708 -138.36 -610.22998
47.917999 -138.48 -610.12
50.249001 -138.38 -610.17999
44.792999 -137.44 -610.09003
43.193001 -137.36 -610.40002
34.102001 -136.88 -610.20001
35.935001 -137.03 -610.39001
36.969002 -136.84 -610.15997
43.02 -136.81 -610.5
31.701 -136.39999 -610.15002
32.338001 -136.63 -610.23999
39.111 -136.39 -610.63
42.619999 -136.37 -610.62
43.477001 -136.34 -610.38
29.173 -135.89 -610.71997
40.716 -135.96001 -610.23999
41.195 -135.85001 -610.19
42.061001 -135.82001 -610.31
42.847 -135.83 -610.28003
56.714001 -135.75 -610.07001
29.136 -135.38 -610.62
28.747 -134.81 -610.75
29.857 -134.84 -610.26001
58.408001 -134.41 -610.09998
30.132 -134.38 -610.22998
29.941999 -133.92999 -610.5
29.35 -132.78 -610.46997
30.565001 -132.83 -610.09003
60.279999 -133.39 -610.67999
60.481998 -131.81 -609.73999
27.547001 -131.48 -610.04999
26.489 -131.32001 -610.58002
25.992001 -130.87 -610.67999
61.506001 -130.37 -609.90002
26.264999 -128.36 -610.58002
62.481998 -129.17999 -610.25
26.319 -127.9 -610.53003
63.032001 -127.52 -610.28003
26.855 -126.87 -610.37
63.152 -126.83 -610.25
27.614 -125.94 -610.47998
28.433001 -125.28 -610.28003
29.186001 -124.72 -610.02002
63.604 -124.54 -610.33002
28.684999 -123.11 -610.28003
64.032997 -123.54 -610.78003
63.717999 -121.32 -610.48999
27.618999 -120.71 -610.26001
63.224998 -120.05 -610.09998
27.1 -117.86 -610.22998
26.879999 -116.92 -610.65002
62.757 -117.13 -610.17999
62.626999 -116.23 -610.26001
25.559999 -115.27 -610.53003
24.184 -114.36 -610.79999
61.695 -113.86 -610.22998
21.799999 -112.81 -609.81
22.333 -113.17 -610.69
20.457001 -111.9 -609.76001
60.599998 -111.73 -610.40997
19.181999 -111.1 -609.47998
59.428001 -110.76 -610.19
58.669998 -110.07 -610.29999
58.084 -110.12 -609.95001
15.56 -109.52 -609.91998
57.828999 -108.48 -610.41998
13.074 -107.94 -609.72998
56.783001 -107.85 -610.25
11.799 -107.29 -610.72998
55.956001 -107 -610.16998
54.981998 -105.84 -610.22998
7.8337002 -104.41 -609.95001
53.931999 -104.66 -610.27002
4.3049002 -101.83 -611.03998
3.6571 -100.83 -610.03003
49.403999 -100.06 -610.17999
2.7232001 -99.939003 -610.06
47.175999 -98.350998 -610.21002
46.019001 -97.169998 -610.21002
44.771999 -95.533997 -610.14001
-43.849998 -93.431 -610.12
-42.195999 -93.389 -610.21002
-3.4885001 -93.880997 -610.85999
-47.777 -93.240997 -610.70001
-3.7837 -92.824997 -609.45001
42.771 -91.320999 -609.90002
-48.605999 -91.202003 -610.34998
-48.693001 -89.969002 -610.28998
-38.388 -89.710999 -610.21997
-48.597 -88.860001 -610.47998
-37.743 -89.042 -610.17999
-37.241001 -88.399002 -610.21002
43.222 -88.591003 -610.27002
-48.650002 -87.610001 -610.22998
-36.810001 -87.778 -610.26001
-7.6300998 -86.860001 -610.22998
43.721001 -87.880997 -610.54999
-36.290001 -86.882004 -610.26001
-48.694 -85.860001 -610.22998
44.046001 -86.560997 -610
-35.797001 -84.978996 -610.28998
-35.215 -83.912003 -610.15997
-8.8389997 -84.628998 -610.37
45.504002 -83.027 -609.47998
-10.063 -83.110001 -611.10999
46.712002 -82.435997 -611.20001
-34.278 -81.349998 -610.51001
46.792 -81.316002 -610.5
-48.914001 -78.797997 -610.35999
-26.042999 -79.155998 -610.27002
-32.319 -78.325996 -609.91998
-27.42 -78.757004 -610.32001
-25.172001 -78.832001 -610.27002
47.571999 -78.189003 -610.04999
-28.783001 -77.918999 -610.39001
-15.04 -78.073997 -610.76001
-29.702999 -77.663002 -610.08002
-23.791 -77.357002 -610.41998
-16.886 -77.351997 -610.51001
-16.306999 -77.360001 -610.40997
-23.33 -76.845001 -610.42999
-20.416 -76.916 -610.73999
-19.082001 -76.863998 -610.21997
-17.381001 -77.042 -610.25
47.999001 -77.874001 -610.71997
-22.791 -76.521004 -610.56
48.191002 -76.346001 -610.23999
-49.014999 -75.547997 -610.10999
48.681 -74.780998 -610.25
-48.912998 -72.985001 -611.85999
49.957001 -71.224998 -610.40997
51.195999 -68.869003 -611.21997
-49.256001 -68.422997 -609.88
-22.844 -63.382 -611.04999
-49.404999 -63.110001 -609.72998
-24.43 -62.963001 -611.59998
54.950001 -63.249001 -610.59998
55.904999 -62.925999 -610.72998
-27.806999 -62.330002 -610.52002
-28.813999 -62.207001 -610.66998
-19.629999 -62.755001 -610.53998
55.346001 -62.380001 -609.79999
-29.764 -61.838001 -610.54999
56.237999 -61.778999 -609.84998
-15.243 -60.916 -610.03003
57.658001 -61.264 -610.20001
58.759998 -61.116001 -610.75
-49.540001 -59.298 -609.64001
-31.837 -59.952 -610.04999
60.146999 -59.855 -609.90997
-32.345001 -59.375999 -610.25
-32.812 -58.854 -610.26001
-13.891 -59.067001 -610.78998
62.561001 -58.98 -610.20001
64.098999 -58.231998 -609.96997
-33.481998 -57.686001 -610.06
-13.391 -58.162998 -610.72998
66.202003 -57.915001 -610.25
-32.794998 -57.515999 -610.42999
70.954002 -57.306999 -610.26001
72.919998 -57.445999 -610.64001
-12.814 -57.338001 -609.66998
74.866997 -57.271999 -610.64001
76.438004 -56.849998 -610.31
77.384003 -56.990002 -610.60999
78.929001 -56.869999 -610.66998
80.530998 -56.321999 -610.26001
82.041 -56.348 -610.59998
83.658997 -55.806999 -610.22998
84.179001 -55.817001 -610.37
-33.693001 -55.153 -610.16998
87.971001 -55.112 -610.22998
89.403 -55.063999 -610.41998
90.323997 -54.326 -609.96997
-33.486 -54.465 -610.27002
92.203003 -54.198002 -610.31
-49.562 -54.485001 -609.97998
-34.044998 -53.354 -610.29999
94.241997 -53.393002 -610.22998
-33.542 -52.844002 -610.71002
-34.294998 -52.782001 -610.21997
97.349998 -52.171001 -610.23999
-33.622002 -52.263 -610.59998
-49.639999 -50.985001 -610.47998
99.000999 -51.303001 -610.33002
-34.333 -51.098999 -610.22998
-7.6321001 -51.084 -609.81
-34.779999 -50.360001 -610.21997
-34.751999 -49.507 -610.23999
