# .PCD v0.7 - Point Cloud Data file format
VERSION 0.7
FIELDS x y z
SIZE 4 4 4
TYPE F F F
COUNT 1 1 1
WIDTH 1645
HEIGHT 1
VIEWPOINT 0 0 0 1 0 0 0
POINTS 1645
DATA ascii
37.791 -50.127998 -618.56
39.827 -48.564999 -618.26001
41.564999 -48.018002 -618.25
43.188999 -47.368 -618.29999
-3.5915999 -45.838001 -618.14001
-5.0486999 -45.480999 -618.97998
-2.7349999 -44.702999 -618.40997
48.244999 -45.151001 -618.41998
-2.0455999 -43.363998 -618.40002
50.904999 -43.617001 -618.60999
51.493 -42.332001 -617.90997
52.567001 -42.165001 -618.33002
53.242001 -41.188 -617.89001
54.665001 -39.973999 -618.31
55.412998 -39.380001 -618.19
57.702999 -38.978001 -618.20001
58.372002 -38.277 -618.02002
0.91056001 -36.904999 -618.71002
60.883999 -37.011002 -618.53998
61.301998 -36.143002 -618.45001
2.1649001 -35.938999 -618.09003
62.362999 -33.881001 -617.83002
62.925999 -34.862 -618.47998
63.886002 -35.152 -619.03003
3.3657 -33.428001 -618.20001
64.933998 -33.755001 -618.45001
66.361 -32.929001 -619.19
67.379997 -32.937 -619.33002
67.251999 -31.226 -617.82001
4.5777001 -30.632999 -618.39001
4.9295001 -28.725 -618.56
71.165001 -26.143999 -617.79999
5.8113999 -26.023001 -617.88
5.2687998 -24.642 -618.65997
163.42 -22.974001 -618.16998
164.58 -23.247 -618.26001
165.23 -22.051001 -618.72998
166.00999 -23.33 -618.09998
163.33 -21.34 -618.5
76.152 -20.246 -618.35999
162.84 -20.636 -618.22998
163.03 -19.818001 -618.25
4.6928 -19.351 -617.91998
168.50999 -19.391001 -618.47998
4.8453999 -18.313999 -618.17999
163.27 -18.579 -618.20001
78.677002 -15.946 -617.81
4.6117001 -15.026 -617.76001
5.7027998 -14.313 -618.63
171.10001 -15.992 -618.03003
164.03 -13.81 -617.83002
164.10001 -13.071 -617.95001
82.251999 -12.006 -618.88
164.77 -10.501 -618.32001
165.31 -7.5799999 -618.21002
9.3322001 -8.1103001 -618.76001
83.060997 -5.9619002 -618.09003
11.87 -5.2205 -618.25
14.366 -3.8994999 -618.04999
15.207 -3.6231 -618.53998
85.186996 -1.7209001 -618.28998
166.34 -1.8875999 -618.34998
86.072998 -0.56037998 -618.48999
174.22 0.64723998 -618.34003
22.285 2.8025 -618.28998
23.252001 3.2593999 -618.62
88.057999 3.2665999 -618.53998
167.31 3.8536 -618.60999
174.35001 2.4421 -618.14001
24.278 3.9412999 -618.34998
168.08 4.0914001 -618.23999
172.89999 4.2494998 -617.90997
173.86 4.8867002 -618.71002
26.007999 5.9355998 -618.65002
93.986 6.6506 -618.10999
168.71001 5.5742998 -618.38
95.980003 6.1623001 -618.73999
172.8 5.9075999 -618.25
168.97 7.8337002 -618.90997
169.84 5.368 -618.15002
170.77 7.2891002 -618.41998
171.74001 7.4018998 -618.35999
29.101 7.5198002 -617.67999
29.587 8.2031002 -618.45001
96.293999 8.5256996 -617.77002
98.005997 8.7293997 -617.98999
171.36 8.4977999 -618.59998
30.605 9.6500998 -618.59003
99.610001 8.7030001 -618.54999
32.849998 10.084 -618.21997
33.341999 10.441 -618.20001
33.976002 11.145 -618.02002
100.98 10.461 -618.27002
102.44 12.589 -618.23999
36.379002 13.466 -618.28003
39.407001 14.392 -617.81
40.064999 15.274 -618.56
103.39 16.795 -618.16998
43.214001 16.677999 -617.73999
45.617001 18.381001 -618.48999
47.995998 19.239 -618.87
50.035 19.823 -618.72998
52.382 19.709 -617.94
52.903 20.674 -618.75
54.166 20.702 -618.92999
60.660999 21.898001 -618.26001
103.26 22.046 -617.79999
62.528 23.103001 -618.37
103.81 23.087 -618.53998
63.560001 23.771999 -618.03998
64.078003 24.389 -618.21002
64.945999 24.989 -618.40002
66.108002 26.285 -618.40002
100.95 26.429001 -617.5
66.067001 27.452 -618.06
66.733002 27.944 -618.63
66.568001 28.540001 -618.35999
100.04 28.909 -618.22998
66.415001 28.989 -618.25
67.936996 29.094999 -618.47998
68.849998 29.066999 -618.69
69.005997 29.570999 -618.21997
72.309998 29.271999 -618.66998
74.253998 30.256001 -618.25
148.97 30.768 -618.54999
151.57001 29.653999 -618.76001
156.14999 30.207001 -618.65997
150.44 31.656 -618.53998
153.28999 31.712999 -618.44
156.88 31.511 -618.58002
80.083 31.649 -617.89001
81.165001 31.927 -617.96997
82.494003 32.477001 -618.69
83.718002 32.338001 -618.40997
152.05 31.841 -618.59003
85.384003 33.144001 -619.16998
154.23 32.998001 -618.58002
157.37 33.480999 -618.54999
151.64999 33.698002 -618.64001
156.83 33.037998 -618.62
88.891998 34.187 -619.37
91.182999 34.095001 -619.08002
149.73 33.678001 -618.57001
-30.294001 -175.97 -617.94
-29.32 -175.77 -618.08002
-31.736 -175.14 -617.95001
-29.246 -175.11 -618.17999
-33.619999 -175.19 -618.04999
-30.652 -174.53999 -618.01001
-34.410999 -174 -618
-33.067001 -174.41 -617.88
-33.324001 -172.82001 -617.64001
-30.825001 -173.25 -617.78003
-35.331001 -173.31 -617.91998
-36.181999 -172.37 -618.03998
-31.934999 -172.05 -617.75
-31.205 -171.58 -618.12
-36.584999 -171.34 -617.58002
-35.647999 -171.8 -617.72998
-37.513 -169.89999 -617.52002
-31.798 -170.58 -617.60999
-38.787998 -169.19 -617.45001
-32.827999 -168.31 -617.25
-40.034 -167.52 -617.71002
-40.629002 -166.57001 -617.38
-33.158001 -165.78 -617.72998
-33.458 -165.03 -617.79999
-43.618999 -163.75999 -618.21002
-42.948002 -163.64999 -617.53998
-44.620998 -161.66 -618.20001
-45.092999 -160.75999 -618.03998
-35.758999 -160.34 -617.25
-45.542 -159.52 -618.23999
-45.515999 -158.73 -618.02002
-45.685001 -157.98 -617.72998
-46.032001 -158.02 -617.90002
-35.754002 -157.27 -617.72998
-46.120998 -157.11 -617.95001
-46.687 -156.46001 -617.91998
-46.231998 -155.89999 -617.51001
-36.387001 -153.98 -617.76001
-36.999001 -153.13 -617.22998
-36.667999 -151.5 -617.67999
-48.153 -149.91 -617.98999
-47.608002 -149.53999 -617.69
-48.650002 -146.57001 -618.07001
-48.638 -145.55 -617.88
-48.647999 -144.14 -618.19
-38.077 -142.85001 -617.75
-48.651001 -141.64 -618.15002
-37.442001 -141.63 -618.26001
-49.144001 -140.67999 -618.21997
-37.185001 -140.42 -618.53998
-49.064999 -139.92999 -617.98999
-48.571999 -138.38 -617.64001
-48.227001 -136.09 -617.56
-47.785 -133.5 -617.38
-48.612 -132.34 -617.84003
-37.327999 -129.45 -617.72998
-47.744999 -127.99 -617.75
-36.381001 -128.37 -618.37
-47.105999 -126.52 -617.40002
-46.946999 -121.2 -617.95001
-36.095001 -121.47 -617.91998
-47.049 -119.08 -618.53003
-46.252998 -120.24 -617.71997
-35.584 -117.81 -618.15002
-44.577999 -117.16 -617.59998
-44.389 -114.9 -617.66998
-35.5 -115.73 -618.12
-36.198002 -114.2 -618.10999
-37.766998 -113.54 -617.57001
-36.638 -112.02 -617.78998
-45.125 -112.52 -618.34998
-35.744999 -111.16 -617.90997
-43.269001 -110.67 -617.53003
-44.139 -109.55 -618.15997
-35.209999 -108.67 -617.87
-43.495998 -108.51 -618.15997
-35.139 -107.64 -617.85999
-42.127998 -106.2 -617.84998
-35.053001 -104.7 -617.65002
-33.686001 -105.36 -618.13
-40.983002 -104.12 -617.78998
-32.500999 -103.46 -618.33002
-40.293999 -103.04 -617.62
-41.066002 -101.67 -618.21997
-33.988998 -102.55 -617.84998
-39.257999 -101.94 -617.59998
-33.354 -101.76 -617.77002
-40.504002 -100.76 -618.12
-39.562 -100.72 -617.82001
-35.804001 -99.414001 -617.77002
-38.185001 -99.903999 -617.71997
-33.388 -99.431999 -617.82001
-31.846001 -99.221001 -617.95001
-39.632 -99.195 -618.27002
-37.939999 -98.822998 -617.73999
-35.203999 -98.208 -618
-34.653999 -98.612999 -617.96997
-36.154999 -97.724998 -617.84003
-37.233002 -97.806 -617.85999
-34.567001 -97.598999 -617.84003
-31.972 -97.203003 -618.01001
-33.534 -97.764999 -617.69
-31.176001 -96.633003 -617.96002
-30.766001 -97.660004 -618.19
-36.948002 -97.105003 -617.84998
-34.806 -96.686996 -617.90997
-29.969 -96.213997 -617.95001
-36.205002 -96.288002 -617.66998
-34.279999 -95.393997 -618.08002
-32.729 -95.766998 -618.06
-36.444 -95.399002 -617.83002
-31.525999 -94.922997 -617.83002
-35.325001 -94.844002 -617.97998
-30.07 -94.223999 -618.08002
-35.952999 -93.389 -618.15997
-34.967999 -94.143997 -617.97998
-33.168999 -94.226997 -618.15997
-28.761999 -94.107002 -618.14001
-32.641998 -92.786003 -618.17999
-30.524 -93.563004 -618.07001
-29.886 -92.764 -617.83002
-28.903 -92.906998 -617.92999
-34.091999 -93.32 -617.90997
-31.556999 -92.372002 -618.16998
-27.166 -92.987 -618.33002
-33.365002 -92.222 -618.09998
-28.301001 -92.158997 -618.01001
-25.931 -91.836998 -618.21002
-31.448999 -91.321999 -618.19
-27.058001 -91.834999 -617.87
-32.935001 -91.023003 -618
-30.999001 -90.410004 -618.27002
-28.409 -90.733002 -617.71997
-27.962 -91.129997 -617.71002
-31.952 -89.450996 -618.21997
-29.433001 -91.227997 -618.03998
-29.634001 -89.043999 -618.06
-26.924999 -89.677002 -617.96997
-25.662001 -90.690002 -618.31
-28.077 -88.662003 -618.01001
-33.126999 -88.655998 -618.41998
-25.382 -88.580002 -617.85999
-31.625 -88.357002 -617.89001
-30.202 -89.001999 -618.09998
-26.597 -88.478996 -617.72998
-29.611 -87.824997 -618.21997
-26.320999 -86.695 -617.96002
-25.280001 -87.609001 -617.97998
-28.889 -86.779999 -618.15002
-27.947001 -86.594002 -618.08002
-23.537001 -87.096001 -618.03998
-28.305 -86.069 -618.07001
-25.726 -85.849998 -617.90997
-29.468 -85.719002 -617.77002
-27.361 -85.632004 -618.17999
-30.688999 -85.304001 -617.91998
-29.739 -84.179001 -617.78003
-29.247999 -85.081001 -617.67999
-27.709999 -84.767998 -618.06
-24.854 -85.302002 -617.90997
-23.632 -84.869003 -618.09003
-21.35 -84.844002 -618.28003
-27.038 -84.609001 -618.20001
-22.716999 -84.343002 -617.96002
-27.921 -83.679001 -617.98999
-23.556999 -83.476997 -617.90002
-28.767 -83.098999 -618.03998
-27.184 -82.413002 -617.83002
-22.006001 -83.625 -617.96997
-23.146 -82.129997 -618.02002
-27.775999 -81.916 -617.87
-21.847 -81.869003 -618.08002
-26.906 -81.218002 -618.03998
-20.143 -81.435997 -617.89001
-26.238001 -80.914001 -617.91998
-25.403999 -80.886002 -617.92999
-21.483999 -80.291 -617.90002
-20.862 -81.021004 -617.84003
-26.398001 -79.797997 -617.85999
-25.4 -79.880997 -617.90002
-19.910999 -80.061996 -617.91998
-17.551001 -80.522003 -618.04999
-25.964001 -78.318001 -618.31
-21.620001 -78.196999 -618.28003
-20.688999 -79.335999 -617.92999
-20.108 -78.016998 -617.91998
-17.552 -78.788002 -618
-23.878 -77.844002 -617.84998
-19.117001 -78.848 -617.71002
-15.982 -78.487999 -618
-23.445 -77.088997 -617.85999
-18.666 -77.825996 -617.88
-17.698 -76.519997 -617.71997
-17.299999 -77.115997 -617.69
-15.261 -77.699997 -618.07001
-22.158001 -76.524002 -618.21002
-16.209 -76.682999 -617.90997
-23.363001 -75.417 -618.31
-20.158001 -75.913002 -618.12
-19.643 -76.511002 -618.14001
-22.823999 -75.864998 -618.20001
-21.572001 -75.195 -617.82001
-18.261 -75.083 -618.14001
-15.889 -76.330002 -617.82001
-14.14 -76.232002 -617.64001
-22.688999 -74.900002 -618.04999
-19.341 -75.224998 -618.27002
-17.191 -75.494003 -618.02002
-15.811 -75.296997 -617.59003
-12.826 -75.210999 -617.96997
-11.376 -74.666 -617.77002
-18.089001 -74.657997 -618.10999
-17.162001 -74.140999 -618.08002
-13.733 -74.556 -617.84998
-13.777 -73.448997 -617.63
-10.122 -74.028999 -618.15997
-20.676001 -73.515999 -618.23999
-19.075001 -73.263 -617.73999
-17.223 -73.615997 -618.02002
-14.771 -73.718002 -617.82001
-17.987 -72.093002 -617.78998
-16.652 -73.411003 -618.04999
-15.372 -72.643997 -618.06
-12.079 -72.287003 -617.82001
-11.383 -72.363998 -617.87
-9.5611 -72.672997 -617.67999
-7.02 -72.702003 -618.37
-18.805 -72.384003 -617.65002
-9.0019999 -71.788002 -617.57001
-17.398001 -71.824997 -618.09003
-15.882 -71.990997 -618.21002
-15 -71.647003 -618.02002
-19.91 -71.207001 -617.84003
-16.843 -71.648003 -618.16998
-14.434 -70.974998 -618.06
-13.479 -70.748001 -618.08002
-12.155 -71.547997 -617.91998
-18.66 -70.657997 -618.17999
-18.389 -70.319 -618.16998
-16.475 -70.713997 -617.71002
-15.416 -70.834999 -617.79999
-13.065 -70.237 -618.08002
-8.6852999 -70.708 -617.78998
-8.0045996 -70.846001 -617.90997
-13.938 -70.164001 -618.21002
-9.5619001 -69.657997 -617.94
-8.4804001 -69.684998 -617.56
-15.58 -69.952003 -617.67999
-14.709 -69.602997 -618.02002
-11.282 -69.583 -617.70001
-5.0935998 -69.524002 -617.96002
-16.493 -69.795998 -617.58002
-16.608999 -68.276001 -618.03998
-14.477 -69.222 -617.98999
-13.154 -69.379997 -617.98999
-10.685 -68.819 -618.04999
-2.3269999 -69.945999 -618.41998
-17.652 -69.514999 -617.73999
-13.41 -68.585999 -617.60999
-12.511 -69.016998 -617.97998
-10.31 -68.114998 -618.09998
-9.3945999 -69.240997 -617.81
-4.6072001 -68.378998 -617.53003
-3.8794999 -68.945999 -617.84998
-18.780001 -67.862999 -618.21997
-17.554001 -68.325996 -617.92999
-15.33 -68.161003 -617.87
-11.312 -67.519997 -618.27002
-9.2249002 -68.012001 -617.60999
-11.948 -68.439003 -618.06
-0.91215003 -67.953003 -618.13
-16.749001 -67.499001 -618.13
-9.9970999 -66.700996 -618.01001
-8.9205999 -67.308998 -617.69
-8.3437004 -66.302002 -618.12
-7.5832 -67.330002 -617.78003
-2.6728001 -67.450996 -617.75
-1.9648 -66.471001 -617.5
-15.488 -66.402 -617.82001
-14.159 -67.054001 -617.59003
-12.731 -66.791 -617.92999
-10.842 -66.672997 -617.96997
-7.3371 -66.848 -617.78998
-0.30283999 -67.546997 -618.20001
-16.940001 -65.678001 -618.25
-13.869 -65.769997 -618.10999
-11.363 -65.566002 -617.46002
-9.4799004 -66.071999 -618.09998
-1.6145999 -66.042 -617.53003
-14.798 -65.678001 -618.06
-12.819 -65.818001 -617.83002
-8.8648005 -65.523003 -618.23999
-7.8920999 -64.973999 -617.96997
-1.1408 -65.153 -617.89001
-9.4242001 -64.956001 -617.98999
-7.5030999 -64.543999 -617.91998
-6.3738999 -65.521004 -617.56
-13.172 -64.153999 -617.71997
-10.097 -64.237 -617.83002
-9.2320004 -64.483002 -617.92999
-4.7238998 -65.022003 -617.59998
-13.384 -63.387001 -617.84998
-11.222 -63.118999 -617.87
-10.431 -63.268002 -617.79999
-8.1905003 -64.5 -617.96002
1.5019 -63.832001 -617.65002
2.6010001 -63.553001 -617.69
-12.808 -62.522999 -618.07001
-11.984 -64.111 -617.5
-7.2554998 -63.935001 -617.91998
3.1919 -63.202 -617.78003
3.9758 -62.759998 -618.07001
-14.042 -62.285999 -618.22998
-6.5502 -63.646 -618.06
-6.0595999 -62.860001 -617.98999
-5.0669999 -62.437 -617.65997
2.9718001 -62.222 -617.67999
-12.589 -61.997002 -618.21002
-10.581 -62.331001 -617.52002
-7.3736 -62.393002 -617.77002
-5.3516002 -62.133999 -617.65002
-3.9161 -62.359001 -617.78003
3.1134 -61.695999 -617.60999
-6.9421 -61.882 -617.78998
-4.0317998 -61.425999 -617.76001
5.6139002 -62.212002 -617.71997
6.8856001 -61.057999 -617.95001
-9.0289001 -60.901001 -617.63
8.1099005 -60.826 -617.79999
9.4272003 -61.046001 -618.09998
-11.265 -60.431999 -617.76001
-10.205 -59.644001 -617.98999
-9.2762003 -59.833 -617.65002
11.508 -60.082001 -618.37
-9.4097004 -58.645 -617.58002
9.9799004 -58.986 -617.63
12.958 -59.808998 -618.21002
13.784 -58.173 -617.63
14.847 -58.804001 -618.15002
15.104 -57.873001 -617.59998
-9.6794004 -57.624001 -617.75
17.443001 -56.664001 -617.53003
-8.9582996 -56.056999 -618.23999
18.695999 -56.716 -617.90002
-7.8738999 -55.051998 -617.76001
22.268999 -55.424 -618.15997
-7.2491002 -54.529999 -617.70001
22.548 -54.577999 -617.92999
23.339001 -53.699001 -618.21997
-7.4787998 -53.289001 -618.22998
-5.7326999 -52.514 -617.46002
22.416 -53.272999 -617.75
23.176001 -53.047001 -618.04999
23.847 -53.139999 -618.04999
-7.1027999 -52.764999 -618.21997
22.818001 -52.594002 -617.64001
25.448999 -52.527 -617.69
25.806999 -53.389999 -618.33002
-7.3392 -51.865002 -618.20001
26.966 -51.771999 -617.70001
28.658001 -51.412998 -618.06
-5.7572999 -50.883999 -617.77002
29.066 -50.192001 -617.40002
30.535999 -50.089001 -617.39001
-5.4324002 -49.582001 -618.20001
33.247002 -50.560001 -617.98999
33.896 -49.633999 -617.56
34.673 -49.091 -617.28003
-4.9158001 -49.088001 -617.85999
36.820999 -49.028 -617.81
-4.2244 -48.400002 -617.73999
37.855999 -48.587002 -617.72998
-3.8303001 -47.209 -618.22998
-2.6752 -47.910999 -617.71997
40.884998 -47.835999 -617.81
42.632999 -46.771999 -617.09003
-2.4331999 -47.102001 -617.53003
-2.5936999 -45.971001 -617.71997
44.651001 -46.346001 -617.65997
46.664001 -45.959 -618.28998
-1.4915 -45.515999 -617.78003
-1.5447 -44.792 -617.98999
47.641998 -44.513 -617.57001
48.32 -43.974998 -617.53003
49.949001 -43.647999 -618.03003
-1.6695 -42.694 -618.37
-0.10923 -41.549999 -618.21997
0.38223001 -42.168999 -617.77002
0.37704 -40.005001 -618.01001
53.805 -40.213001 -617.46002
55.216999 -39.023998 -617.89001
55.798 -38.206001 -617.59998
1.7598 -38.123001 -618.03998
3.0681 -37.599998 -617.16998
59.584999 -37.041 -618.01001
60.841 -35.181 -617.28998
3.5202999 -35.403 -617.62
63.308998 -34.854 -618.52002
65.783997 -31.801001 -617.94
5.6742001 -30.040001 -617.53003
66.322998 -31.284 -617.77002
68.651001 -29.669001 -618.04999
69.764999 -28.757999 -617.95001
69.682999 -27.791 -617.32001
70.324997 -26.735001 -617.53998
5.8885999 -27.436001 -617.75
73.684998 -25.718 -618.88
72.501999 -23.457001 -617.33002
166.23 -24.162001 -617.54999
167.91 -22.013 -617.78003
167.08 -21.552999 -618.5
161.92 -21.034 -617.26001
168.06 -20.408001 -618.28003
162.37 -20.563 -617.62
162.84 -19.099001 -617.56
4.3463001 -18.298 -617.76001
78.223999 -17.343 -618.32001
4.3214998 -17.15 -617.87
163.85001 -15.337 -617.91998
163.82001 -13.827 -617.31
4.7694001 -14.361 -617.78998
80.342003 -12.229 -617.77002
81.184998 -11.303 -617.90002
164.44 -11.028 -617.26001
6 -10.834 -617.92999
81.867996 -10.3 -618.22998
7.2764001 -8.6407003 -617.95001
8.9110003 -5.2045002 -617.17999
10.534 -6.777 -618.58002
165.99001 -5.2599001 -617.84003
82.533997 -4.994 -617.59003
83.647003 -4.8053002 -618.28003
83.279999 -3.9974999 -617.87
166.36 -3.3118 -617.89001
16.688 -2.3966 -617.77002
84.397003 -2.6306 -617.98999
166.8 -2.5404 -617.19
18.398001 -1.391 -617.85999
166.74001 -1.4186 -617.81
19.67 -0.37772 -618.10999
166.8 0.48965999 -618.25
167.33 1.4363 -617.90002
173.81 0.50432998 -617.73999
86.168999 1.6457 -617.90997
173.53999 1.6278 -617.69
21.537001 2.3789001 -618.16998
21.836 2.1837001 -617.46997
167.91 2.842 -617.91998
173.95 1.8005 -618.13
86.398003 2.8345001 -618.06
173.46001 3.3348999 -618.01001
86.225998 3.3908 -617.95001
25.105 3.9224 -617.70001
25.591999 4.3808999 -617.90002
169.7 2.9978001 -617.5
26.309999 5.3523002 -617.84998
171.64999 5.2817998 -617.78998
88.973 5.6887002 -617.89001
170.78999 5.8063998 -617.98999
27.011999 5.8972998 -617.84998
90.18 5.9197001 -618.15002
172.16 6.4488001 -618.16998
91.484001 5.4695001 -618.39001
90.814003 6.2551999 -617.94
92.217003 7.2701001 -617.77002
94.232002 7.836 -617.53003
95.473 7.6139002 -617.85999
97.143997 8.9174004 -617.69
32.687 9.9617004 -617.90002
99.879997 10.671 -617.64001
34.233002 11.581 -618.22998
35.416 11.549 -618.09998
35.870998 11.55 -617.78998
36.283001 12.913 -617.92999
36.938 13.617 -618.03003
38.263 13.762 -618.03003
103.18 14.732 -618.21002
41.972 16.290001 -617.79999
44.320999 17.069 -618.01001
45.691002 17.705 -617.71002
47.591 17.677999 -617.54999
49.132999 19.183001 -618.35999
52.884998 20.256001 -618.17999
55.073002 19.92 -617.75
53.929001 19.872 -617.60999
57.98 20.59 -617.87
59.730999 21.17 -617.69
61.980999 22.021999 -617.84998
63.591999 23.42 -617.71002
64.010002 24.583 -617.67999
101.39 25.686001 -617.54999
65.856003 26.422001 -617.78003
65.896004 26.966999 -617.91998
100.79 27.415001 -617.90997
65.142998 28.818001 -617.67999
65.140999 29.67 -617.66998
65.594002 28.966999 -618.07001
66.323997 29.966 -617.78998
70.677002 29.75 -618.21997
70.223999 30.489 -617.40997
72.116997 30.653999 -617.25
82.733002 32.007999 -617.84998
83.775002 32.073002 -617.63
94.834999 32.811001 -618.22998
84.682999 32.528999 -618.23999
92.448997 33.34 -617.71002
71.442001 64.434998 -617.79999
72.612999 64.244003 -617.78003
70.492996 65.624001 -617.58002
71.435997 65.218002 -618
72.759003 64.913002 -617.77002
71.676003 66.155998 -617.94
72.325996 66.345001 -617.67999
71.549004 66.835999 -617.70001
-32.033001 -173.98 -617.46002
-32.421001 -172.63 -617.58002
-31.648001 -173.45 -617.51001
-33.251999 -171.75 -617.33002
-34.632999 -172 -617.65002
-34.887001 -171.00999 -617.52002
-32.368999 -171.03999 -617.35999
-34.207001 -170.31 -617.28998
-35.716999 -170.14999 -617.34998
-33.442001 -169.96001 -617.34003
-37.292999 -168.02 -616.91998
-32.679001 -169.31 -617.53998
-39.006001 -168.34 -617.28998
-33.844002 -167.11 -617.20001
-32.474998 -167.88 -617.48999
-33.911999 -165.59 -617.33002
-41.164001 -165.49001 -617.27002
-34.221001 -165.07001 -617.45001
-35.113998 -163.67999 -617.03003
-43.036999 -162.50999 -616.96002
-43.995998 -161.61 -617.66998
-34.832001 -161.33 -617.53003
-43.769001 -160.99001 -617.38
-36.021 -159.49001 -617.09998
-35.764999 -159.03999 -617.44
-46.655998 -155.11 -617.72998
-37.116001 -155.22 -616.90002
-46.855 -153.32001 -617.32001
-37.014 -154.17999 -617.21997
-47.639999 -151.45 -617.65002
-37.481998 -150.85001 -616.98999
-47.5 -150.94 -617.57001
-46.835999 -149.16 -616.87
-37.198002 -149.61 -617.48999
-38.456001 -148.66 -616.65997
-48.119999 -148.25999 -617.67999
-48.139999 -146.60001 -617.64001
-37.752998 -146.49001 -617.59998
-38.171001 -145.11 -617.39001
-47.978001 -145.41 -617.31
-47.310001 -143.63 -616.85999
-47.944 -141.62 -617.33002
-48.348 -140.31 -617.29999
-38.338001 -139.28 -617.60999
-39.463001 -138.34 -616.94
-39.632999 -137.05 -616.73999
-38.93 -135.62 -617.32001
-47.296001 -135.74001 -616.94
-38.416 -134.31 -617.60999
-39.528999 -134.60001 -616.84998
-48.089001 -134.62 -617.42999
-48.131001 -129.42 -617.83002
-47.165001 -129.21001 -617.09998
-47.089001 -127.82 -617.33002
-37.398998 -128.09 -617.70001
-36.985001 -122.89 -617.63
-37.758999 -121.29 -617.09998
-46.294998 -120.81 -617.58002
-45.164001 -120.97 -617.03003
-36.759998 -120.05 -617.65997
-44.432999 -119.23 -617.15002
-45.212002 -118.6 -617.54999
-36.895 -118.62 -617.42999
-43.555 -118.22 -617.12
-41.758999 -116.14 -617.40002
-35.422001 -116.87 -618.10999
-43.902 -116.44 -617.28003
-40.77 -115.97 -617.12
-36.807999 -116.05 -617.47998
-41.528999 -115.52 -617.45001
-43.352001 -114.95 -617.28998
-40.873001 -114.88 -617.15002
-41.682999 -114.39 -617.37
-37.818001 -114.81 -617.28003
-43.619999 -113.6 -617.53003
-42.419998 -114.52 -617.34003
-38.882999 -113.73 -617.42999
-37.325001 -114.21 -617.63
-41.237999 -113.46 -617.34998
-40.209999 -113.04 -617.46997
-43.486 -112.61 -617.34998
-41.43 -112.04 -617.25
-38.948002 -112.21 -617.23999
-42.467999 -112.35 -617.17999
-42.222 -113.06 -617.12
-42.959 -111.41 -617.39001
-40.345001 -111.88 -617.34998
-40.118999 -110.97 -617.46002
-38.367001 -111.34 -617.39001
-37.448002 -111.32 -617.46002
-41.652 -110.57 -617.17999
-38.348999 -109.94 -617.29999
-42.673 -109.61 -617.5
-37.094002 -109.31 -617.48999
-41.922001 -109.31 -617.39001
-39.824001 -110.04 -617.5
-39.505001 -108.47 -617.47998
-38.063 -108.6 -617.38
-40.84 -109.06 -617.37
-37.324001 -107.9 -617.19
-40.563 -107.33 -617.31
-36.477001 -108.18 -617.33002
-42.056999 -108.31 -617.53003
-39.006001 -106.81 -617.37
-36.162998 -107.06 -617.48999
-39.905998 -105.84 -617.27002
-40.82 -105.83 -617.38
-37.432999 -106.12 -617.42999
-34.682999 -106.19 -617.78003
-38.417 -105.54 -617.53003
-36.544998 -105.08 -617.32001
-38.966999 -104.6 -617.46997
-40.083 -103.96 -617.48999
-39.404999 -103.29 -617.35999
-38.032001 -104.1 -617.47998
-36.292 -104.03 -617.46997
-34.501999 -103.82 -617.65997
-36.290001 -102.73 -617.42999
-38.648998 -102.48 -617.5
-37.658001 -102.76 -617.58002
-35.546001 -102.4 -617.47998
-35.043999 -101.47 -617.66998
-38.408001 -101.29 -617.56
-37.215 -101.26 -617.58002
-35.977001 -100.76 -617.71002
-33.726002 -100.64 -617.60999
-37.125 -100.19 -617.64001
-36.895 -98.723 -617.71002
-14.934 -76.366997 -617.63
-14.882 -75.276001 -617.53003
-15.554 -74.598 -617.57001
-12.221 -74.412003 -617.60999
-11.551 -73.980003 -617.64001
-12.748 -73.362999 -617.52002
-13.958 -72.304001 -617.66998
-13.524 -72.108002 -617.65002
-11.057 -71.800003 -617.57001
-9.8653002 -71.795998 -617.48999
-11.15 -70.333 -617.5
-10.355 -70.182999 -617.53003
-7.4449 -70.005997 -617.46997
-6.4461999 -69.858002 -617.58002
-8.4583998 -68.570999 -617.39001
-7.4131999 -68.852997 -617.37
-6.323 -68.332001 -617.70001
-13.235 -67.700996 -617.54999
-5.8558002 -68.810997 -617.76001
-15.19 -67.265999 -617.70001
-13.784 -67.815002 -617.46002
-5.6368999 -67.203003 -617.35999
-4.3957 -67.404999 -617.40997
-3.8262999 -66.345001 -617.53998
-5.1838999 -66.308998 -617.35999
-2.8845 -65.797997 -617.27002
-10.458 -65.821999 -617.66998
-5.1377001 -65.212997 -617.66998
-3.7767999 -64.821999 -617.21997
-10.664 -64.883003 -617.53998
-2.8383 -64.907997 -617.21997
-1.9727 -64.509003 -617.65002
-0.12579 -64.746002 -617.53003
0.89311999 -64.598 -617.59998
-1.9923 -64.197998 -617.66998
-8.1316996 -63.242001 -617.47998
-4.0766001 -63.921001 -617.26001
-2.9988999 -63.743999 -617.51001
-0.51367003 -63.761002 -617.16998
-9.4148998 -63.568001 -617.64001
-8.7337999 -63.358002 -617.45001
-2.9047 -62.901001 -617.60999
-1.2298 -63.584 -617.19
0.64348 -62.93 -617.34998
-8.2549 -62.376999 -617.42999
-2.3296001 -62.467999 -617.21997
-9.2952995 -61.974998 -617.23999
-7.9573002 -61.382999 -617.69
-1.8368 -61.738998 -617.13
4.1052999 -61.965 -617.59003
-11.184 -61.262001 -617.59998
-10.032 -61.245998 -617.40002
-6.0186 -61.07 -617.09998
-3.6173999 -60.855999 -617.57001
-2.6092999 -60.932999 -617.28998
-0.26282999 -62.085999 -617.26001
1.9762 -60.675999 -617.25
4.6244001 -61.089001 -617.21002
6.4598999 -60.756001 -617.69
-8.5983 -60.627998 -617.63
-5.1441998 -60.797001 -617.15997
-4.1973 -60.598999 -617.51001
-1.4671 -60.594002 -617.42999
-4.6852002 -59.658001 -617.28003
-3.6689999 -60.085999 -617.51001
-3.2567999 -59.514999 -617.23999
-2.368 -59.401001 -617.39001
-2.5494001 -60.039001 -617.46002
-0.75423998 -59.638 -617.19
5.9647002 -59.550999 -617.15002
-4.4777002 -59.030998 -617.21002
-1.7409 -58.691002 -617.34003
8.8402004 -59.960999 -617.63
-6.2135 -58.919998 -617.10999
-0.85821998 -58.174999 -617.39001
11.509 -58.964001 -617.56
-7.1655002 -57.182999 -617.59998
-5.5394001 -58.486 -617.27002
8.7393999 -58.098999 -617.21997
12.374 -58.137001 -617.25
-8.4357996 -57.848 -617.46997
-7.7674999 -56.855999 -617.75
16.716999 -57.376999 -617.83002
17.693001 -55.705002 -617.12
19.129 -54.856998 -617.34003
20.76 -54.673 -617.48999
20.704 -54.160999 -617.17999
21.288 -53.715 -617.22998
-5.9271998 -53.875999 -617.77002
22.323999 -52.562 -617.67999
24.323 -52.911999 -617.77002
21.865 -52.091 -617.21002
-4.8346 -51.827999 -617.31
-1.7387 -52.111 -617.09003
-4.4464998 -50.873001 -617.67999
-3.4498 -51.294998 -617.53998
26.169001 -51.312 -617.33002
27.261 -50.689999 -617.42999
25.636999 -50.215 -616.83002
-3.7616999 -50.712002 -617.56
-3.7235999 -49.237 -617.40997
-1.7487 -49.063999 -617.48999
31.754 -50.317001 -617.63
-2.684 -49.325001 -617.28003
-2.8780999 -48.446999 -617.60999
-2.1494 -48.080002 -617.51001
-0.92111999 -48.547001 -616.96997
39.182999 -48.008999 -617.25
40.713001 -47.584999 -617.21002
-1.0531 -47.414001 -617
0.089962997 -46.514 -617.15002
-1.7878 -46.683998 -617.34998
-0.64938998 -45.651001 -617.53003
45.762001 -45.182999 -616.97998
1.4295 -42.868999 -617.14001
0.81138998 -41.499001 -617.62
52.150002 -41.456001 -617.65002
1.8493 -41.237 -616.94
52.976002 -40.071999 -616.95001
1.4012001 -40.032001 -617.46002
3.0532 -39.257 -617.15002
1.9323 -38.874001 -617.71997
56.789001 -38.488998 -617.70001
59.101002 -35.805 -616.81
3.9093001 -36.264999 -617.22998
5.0261002 -35.672001 -616.67999
4.5275998 -32.407001 -617.73999
61.868 -33.849998 -617.48999
6.1413999 -33.000999 -616.78003
64.293999 -32.882 -617.51001
67.341003 -29.587 -616.81
67.917 -30.93 -618.04999
6.0809002 -28.468 -617.51001
164.86 -25.041 -617.17999
163.94 -23.982 -617.79999
165.21001 -24.358999 -617.64001
71.932999 -24.791 -617.41998
163.21001 -24.223 -617.41998
162.84 -23.388 -617.62
162.77 -22.243 -617.94
74.033997 -23.033001 -618.03998
4.7936001 -20.087999 -618.17999
169.12 -20.403 -617.42999
169.84 -18.997 -617.54999
162.48 -18.271999 -616.72998
163.25999 -16.745001 -617.48999
3.8399 -17.021999 -617.04999
163.02 -15.891 -616.75
171.81 -15.518 -617.22998
79.242996 -14.86 -617.84003
163.44 -14.927 -616.96997
4.2339001 -13.44 -617.09003
5.6066999 -12.515 -618.09998
79.861 -13.6 -617.62
164.38 -11.966 -617.69
164.61 -9.6746998 -617.21997
81.436996 -9.5223999 -617.79999
6.2586002 -8.2136002 -617.16998
80.397003 -8.7234001 -617.03003
164.99001 -8.0799999 -617.21002
8.7305002 -7.3167 -618.14001
81.746002 -7.8295002 -617.63
7.7939 -5.3428998 -616.82001
80.934998 -6.3396001 -617.20001
82.135002 -6.5053 -617.81
165.82001 -5.6085 -617.27002
10.455 -4.3318 -617.17999
11.285 -4.4970999 -617.52002
12.808 -4.0184999 -617.72998
166.22 -4.9597998 -617.23999
12.866 -3.5720999 -617.29999
15.44 -3.0594001 -617.44
173.89999 -2.9640999 -617.52002
83.574997 -2.8357999 -617.63
173.85001 -1.4527 -617.33002
167.38 -0.92719001 -617.10999
168.14 0.84502 -617.17999
173.14999 0.62769997 -617.10999
85.272003 0.21292 -617.96997
20.899 1.5712 -617.96997
83.934998 1.8224 -617.03003
168.53 2.5648 -617.54999
172.67 2.78 -617.41998
23.33 2.3722999 -617.58002
24.169001 2.1566 -616.94
23.976 2.7916 -617.59998
84.795998 2.4747 -617.19
168.87 3.8453 -617.90997
24.975 3.2024 -617.02002
170.72 3.6312001 -617.40997
171.53999 3.2899001 -617.31
26.445999 3.8153 -616.78998
85.228996 3.3192 -617.29999
85.488998 4.4256001 -617.41998
86.765999 4.7131 -617.62
87.961998 5.0110998 -618.02002
28.177999 6.0956998 -617.31
87.160004 6.9519 -617.28003
28.163 7.2877998 -618.14001
88.072998 7.1508002 -617.21002
89.580002 7.2663999 -617.54999
31.040001 7.8492999 -616.96002
88.910004 7.9621 -617.15997
30.775999 8.7806997 -617.71997
31.667 9.6963997 -617.82001
32.602001 9.3832998 -616.94
35.831001 10.925 -617.14001
36.533001 11.467 -616.96997
36.571999 12.529 -617.39001
100.53 12.427 -617.13
37.025002 12.932 -617.29999
101.8 14.058 -617.40002
40.785999 14.648 -617.40997
44.639 16.518 -617.33002
44.938 16.91 -617.56
46.303001 17.655001 -617.52002
48.696999 18.311001 -617.52002
50.030998 19.1 -617.87
102.55 17.990999 -617.34003
50.950001 18.802 -617.28003
52.216 18.764 -617.25
53.466999 19.214001 -617.01001
57.106998 19.83 -616.92999
58.615002 20.124001 -617.08002
102.65 19.951 -617.35999
63.387001 22.424999 -617.53003
63.811001 22.639 -617.28998
63.859001 23.452999 -617.21997
63.782001 23.958 -617.47998
101.81 24.049999 -617.27002
64.132004 25.43 -617.13
64.834 25.966 -617.34003
65.309998 26.438 -617.57001
64.991997 27.193001 -617.41998
64.526001 27.959 -617.27002
64.348999 28.923 -617.35999
99.055 29.301001 -617.53003
67.800003 30.215 -617.66998
97.524002 30.009001 -616.96997
66.411003 31.323999 -617.15002
72.893997 30.577 -617.47998
73.892998 30.891001 -617.33002
75.517998 31.101999 -617.32001
78.313004 31.242001 -617.53003
96.064003 30.761 -616.51001
79.174004 31.459 -617.04999
82.821999 31.829 -617.15997
95.208 31.422001 -616.64001
86.502998 33.001999 -616.79999
93.431999 32.540001 -616.52002
87.646004 33.409 -617.46997
90.197998 33.179001 -616.71997
90.802002 33.484001 -617.32001
72.528999 63.032001 -617.32001
71.457001 63.792 -617.29999
70.336998 65.029999 -617.10999
73.477997 64.689003 -617.26001
72.956001 65.841003 -617.26001
70.592003 66.376999 -617.75
70.367996 67.084 -617.22998
72.271004 66.695 -617.25
70.969002 67.334 -617.17999
-34.555 -169.41 -616.90002
-35.797001 -168.71001 -616.91998
-33.362 -169.13 -617.08002
-38.313 -168.66 -617.06
-33.764999 -168.31 -617.01001
-38.595001 -167 -616.84003
-35.229 -168.22 -616.87
-34.341 -167.48 -616.98999
-38.951 -167.25 -617
-34.887001 -166.8 -616.59003
-39.747002 -166.11 -616.69
-34.261002 -166.32001 -616.91998
-35.463001 -165.60001 -616.65002
-35.113998 -165.13 -616.94
-40.091 -164.82001 -616.57001
-40.801998 -164.92999 -616.82001
-41.771999 -164.53999 -616.97998
-42.030998 -163.33 -616.78003
-42.574001 -162.45 -616.69
-34.724998 -162.57001 -617.5
-35.749001 -161.81 -616.79999
-36.171001 -160.66 -617.02002
-36.623001 -160.14999 -616.65997
-44.324001 -160.13 -617.27002
-44.693001 -157.66 -616.52002
-36.646999 -157.67 -616.91998
-36.435001 -156.39999 -617.37
-37.278999 -156.05 -616.81
-45.210999 -154 -616.22998
-47.146999 -152.11 -617.41998
-37.527 -152.00999 -616.96002
-46.362999 -150.28999 -616.33002
-38.834 -149.77 -616.29999
-46.827999 -145.16 -616.41998
-39.143002 -143.14999 -616.92999
-47.155998 -141.60001 -616.73999
-39.779999 -139.78 -616.59998
-47.931 -138.75 -617.15002
-47.759998 -137.33 -617.01001
-46.796001 -134.83 -616.64001
-40.354 -134.10001 -616.46002
-46.252998 -133.57001 -616.56
-39.596001 -133.19 -617.09003
-39.264 -132.03 -617.06
-47.023998 -132.23 -616.82001
-46.515999 -130.57001 -616.78003
-39.016998 -130.87 -617.09003
-38.824001 -129.52 -616.97998
-39.588001 -128.28999 -616.66998
-45.84 -127.81 -616.75
-36.698002 -127.13 -617.84003
-45.833 -126.45 -616.70001
-46.220001 -125.25 -617.12
-38.438999 -125.76 -616.90997
-46.345001 -123.81 -617.15997
-45.533001 -123.82 -616.83002
-37.716 -124.45 -617.06
-38.390999 -122.69 -617
-44.431 -122.24 -616.85999
-42.247002 -122.09 -616.54999
-45.467999 -122.35 -617.09003
-43.229 -121.97 -616.91998
-38.861 -121.27 -616.65997
-44.299 -120.78 -616.78003
-41.640999 -121.19 -616.34998
-38.027 -119.78 -617.17999
-43.051998 -120.47 -616.85999
-42.519001 -119.56 -616.92999
-40.280998 -119.15 -616.75
-39.175999 -119.52 -616.89001
-41.872002 -118.68 -617.13
-40.368 -118.2 -616.63
-38.832001 -118.53 -616.75
-40.869999 -118.1 -616.72998
-38.931999 -117.75 -616.81
-43.306 -117.37 -617.17999
-42.188 -117.29 -617.16998
-39.186001 -116.8 -616.94
-40.965 -117.13 -616.85999
-37.645 -117.08 -617.28003
-43.057999 -116.3 -617.13
-39.875 -116.25 -616.91998
-38.504002 -115.72 -616.96997
-39.893002 -114.27 -617.08002
-1.0275 -62.889999 -616.98999
1.7378 -62.569 -617.22998
0.65924001 -61.715 -617.01001
1.3147 -60.976002 -617.09998
-6.9306002 -59.584 -616.96997
0.17321 -60.716 -616.96002
1.0594 -59.835999 -617.19
2.0064001 -60.001999 -616.96997
4.2761998 -60.308998 -616.92999
5.3817 -60.158001 -617.28998
-6.0446 -60.291 -616.89001
3.2097001 -60.577 -616.94
5.2101998 -59.227001 -617.15002
-3.9419999 -58.513 -616.90002
2.6730001 -58.703999 -616.66998
4.7575002 -59.169998 -617.13
5.9155998 -58.362999 -616.70001
6.9517999 -59.297001 -617
-2.9379001 -58.445999 -616.84003
1.6672 -58.779999 -616.69
3.6387999 -57.971001 -617.06
4.3769999 -58.098999 -616.94
10.385 -58.126999 -616.95001
-5.0370998 -57.736 -617
-3.4449999 -57.442001 -616.71002
-1.6458 -57.780998 -617.20001
-0.042927001 -57.528 -617.10999
3.0810001 -57.964001 -616.89001
6.1223998 -57.651001 -616.58002
7.4354 -57.126999 -616.83002
7.9835 -57.186001 -616.78998
10.758 -57.398998 -616.63
0.35899001 -56.678001 -617.02002
1.2723 -57.744999 -616.75
4.8404999 -57.595001 -616.54999
13.605 -57.138 -617.04999
-6.1059999 -56.221001 -617.20001
-2.2558 -57.041 -617.09998
-1.5167 -57.132 -617.07001
-0.15271001 -56.992001 -617.02002
1.7956001 -57.250999 -616.76001
2.5186 -56.958 -616.90997
3.0244999 -56.641998 -616.78003
12.18 -56.403 -616.70001
14.695 -57.196999 -617.16998
-5.0706 -56.060001 -617.06
0.90802997 -55.842999 -617.07001
15.733 -56.179001 -617.04999
-4.5341001 -54.991001 -617.28998
0.36565 -55.827 -616.96002
1.7278 -55.759998 -617.02002
15.042 -55.473999 -616.63
-3.4017999 -55.796001 -617.07001
2.1243999 -55.021999 -616.82001
-2.4003999 -54.458 -616.67999
-0.13145 -54.645 -616.96997
-1.3321 -54.48 -616.69
-4.6012998 -53.654999 -617.12
0.10204 -54.313999 -616.96997
1.4450001 -54.236 -616.59003
3.1027 -53.768002 -616.83002
-2.6723001 -53.349998 -616.95001
-1.3166 -53.562 -617.09003
19.336 -53.535999 -616.59003
-2.0177 -52.793999 -617.23999
-4.1518998 -52.834999 -617.06
-1.4236 -52.813999 -617.09998
21.436001 -52.589001 -617.16998
-0.51475 -52.375999 -616.72998
20.996 -52.074001 -616.97998
0.54162002 -51.318001 -616.84003
1.6339999 -51.598 -616.63
21.072001 -51.604 -616.70001
22.872 -52.026001 -616.95001
23.107 -51.477001 -616.66998
24.179001 -52.127998 -617.20001
-2.1131001 -51.033001 -616.98999
-0.42563999 -51.727001 -616.77002
-1.9434 -50.271 -617.03003
-2.6038001 -50.264 -617.12
26.304001 -49.706001 -616.63
-0.87220001 -49.714001 -617.14001
28.406 -48.979 -616.59998
32.712002 -49.083 -617.07001
33.241001 -48.511002 -616.28998
36.298 -48.467999 -616.84003
1.1312 -47.091999 -616.76001
40.937 -47.037998 -616.65002
0.49020001 -46.195 -616.95001
0.62975001 -45.286999 -616.71997
-0.43380001 -44.195 -617.34003
0.64872998 -43.591999 -617.03003
1.9019001 -42.612999 -616.97998
48.916 -42.445999 -616.75
50.929001 -41.629002 -616.89001
53.68 -38.896 -616.47998
4.0276999 -37.293999 -616.79999
55.811001 -36.632999 -616.03998
56.478001 -37.292999 -617.16998
57.368999 -38.265999 -617.64001
4.9565001 -36.334 -616.73999
58.424 -35.675999 -616.47998
4.0879998 -33.91 -617.5
61.395 -34.32 -617.25
61.848 -32.164001 -616.48999
62.34 -32.140999 -616.70001
63.280998 -32.233002 -616.73999
5.4977002 -31.416 -617.34998
64.606003 -31.556999 -616.78998
65.584999 -30.528999 -616.95001
66.781998 -30.110001 -616.85999
68.193001 -28.165001 -616.78998
6.5706 -27.836 -616.88
69.053001 -27.871 -617.01001
6.3615999 -26.66 -617.01001
163.56 -25.014 -616.79999
165.55 -25.681999 -616.54999
166.11 -25.082001 -616.97998
71.210999 -24.719 -616.89001
162.44 -24.033001 -616.89001
161.95 -23.798 -616.75
167.03 -24.483 -616.94
168 -23.664 -616.67999
161.81 -22.812 -616.83002
168.86 -21.910999 -616.96997
4.4249001 -21.58 -616.64001
161.97 -20.516001 -616.98999
4.2315001 -20.523001 -617.09003
74.670998 -20.408001 -617.28003
170.12 -20.083 -616.46002
162.42 -19.511 -616.83002
75.175003 -19.063 -617.16998
170.61 -18.131001 -617.16998
76.128998 -17.895 -617.01001
162.84 -16.549 -616.39001
77.163002 -16.289 -617.21997
78.060997 -13.847 -616.72998
79.088997 -13.151 -617
4.1230998 -11.571 -616.59003
79.670998 -11.51 -617.09003
5.0974998 -10.587 -617.21002
80.209999 -10.201 -616.97998
4.5352998 -9.3582001 -616.59998
165.22 -9.0799999 -616.71002
79.380997 -9.0604 -616.27002
6.9414001 -6.7873001 -617.03003
166.33 -5.5724001 -616.62
80.449997 -4.3825998 -616.71997
81.723 -3.9384999 -617.20001
11.721 -3.4326 -616.75
15.088 -2.8518 -616.94
166.78 -3.9707999 -616.60999
80.851997 -2.9714999 -616.42999
15.987 -2.3213 -616.59003
82.502998 -3.1530001 -617.39001
17.375 -1.7280999 -616.76001
81.609001 -1.8355 -616.67999
82.962997 -1.1512001 -616.94
20.094 0.12886 -616.96997
83.640999 0.38214001 -617.15997
172.61 0.013073 -616.58002
168.92 0.26469001 -616.72998
23.285999 1.5525 -616.27002
24.073 1.8128 -616.58002
170.75 1.6824 -616.77002
25.451 3.5222001 -616.97998
84.156998 3.9119999 -616.60999
27.201 5.2625999 -617.04999
28.013 5.4980998 -616.77002
84.172997 5.7665 -616.66998
29.506001 6.8536 -616.73999
30.636999 7.5166998 -616.95001
86.555 6.7873998 -617.21002
85.184998 6.8771 -616.63
87.486 8.7755003 -616.66998
85.038002 8.7505999 -616.69
85.891998 8.4389 -616.90002
89.355003 8.1878004 -617.08002
90.170998 8.2110004 -616.90002
90.872002 7.9130001 -617.09998
91.864998 8.6156998 -617.02002
33.68 9.6345997 -617.32001
34.321999 9.4439001 -616.67999
88.447998 9.3305998 -616.75
92.376999 10.15 -616.27002
94.875999 8.3507996 -617.34998
95.795998 10.333 -616.84003
35.153999 10.544 -616.81
97.686996 10.374 -617.09003
99.804001 12.647 -616.71002
39.047001 13.149 -616.97998
40.167 13.677 -616.70001
42.271 14.393 -616.23999
100.45 13.404 -616.82001
42.188999 15.102 -616.84003
100.86 15.809 -616.64001
43.806999 15.262 -616.21002
43.986 15.954 -616.76001
46.455002 16.559 -616.40002
102.64 16.705999 -617.54999
52.903 18.155001 -616.44
54.415001 19.103001 -616.62
56.273998 19.086 -616.71002
60.290001 20.216 -616.70001
61.366001 21.316 -617.56
62.769001 20.684 -616.84003
63.273998 20.622999 -616.62
101.69 20.996 -616.60999
63.833 21.636999 -616.76001
64.292999 22.313999 -617.01001
64.815002 22.42 -616.67999
64.556 22.882999 -616.90997
63.445 23.945999 -616.67999
63.400002 24.474001 -617.16998
63.106998 24.808001 -616.65997
63.528 26.107 -616.41998
64.334 26.193001 -616.73999
64.366997 27.301001 -616.84998
63.521 28.254999 -616.70001
99.658997 27.851 -616.84003
98.348 28.874001 -616.62
64.100998 29.457001 -617.14001
64.347 30.891001 -616.59998
69.114998 30.792 -617.04999
70.865997 31.087999 -616.25
72.953003 30.837999 -616.76001
65.035004 31.372 -616.76001
67.911003 31.129999 -617.15002
75.947998 31.677999 -615.75
67.941002 31.933001 -616.90997
77.325996 31.506001 -616.78998
80.584999 31.658001 -617.16998
68.153 32.578999 -616.89001
92.505997 32.875 -616.59998
66.419998 32.396999 -616.87
87.210999 32.897999 -616.21997
91.092003 33.126999 -616.67999
72.651001 62.366001 -616.98999
71.939003 62.683998 -616.67999
74.417 62.639 -616.69
73.671997 63.286999 -617.09003
70.984001 64.027 -617.03998
69.865997 65.123001 -616.41998
69.716003 66.448997 -616.85999
72.723 66.251999 -616.72998
71.598999 67.099998 -616.58002
69.791 67.042999 -616.58002
70.383003 67.281998 -616.52002
70.878998 67.292 -616.53003
-36.084 -167.47 -616.5
-35.584999 -166.97 -616.44
-38.216999 -165.66 -616.59003
-37.134998 -166.23 -616.5
-36.372002 -165.81 -616.47998
-36.541 -164.94 -616.26001
-35.854 -164.24001 -616.53003
-40.506001 -164.03999 -616.41998
-38.868 -164.5 -616.53998
-37.242001 -165.22 -616.21002
-37.993 -164.08 -616.23999
-37.224998 -163.25 -616.21002
-39.293999 -163.23 -616.28003
-40.348 -163.33 -616.28003
-41.765999 -162.39999 -616.40997
-36.470001 -162.66 -616.40997
-41.953999 -160.62 -616.26001
-37.807999 -161.48 -616.17999
-36.880001 -160.89999 -616.53003
-42.605999 -160.92999 -616.66998
-38.208 -160.75 -615.90002
-37.34 -159.99001 -616.33002
-43.917999 -159.02 -616.51001
-37.283001 -158.86 -616.53003
-38.380001 -158.39 -615.96997
-45.136002 -156.35001 -616.72998
-37.792999 -156.56 -616.53003
-44.355 -156.03 -616.03998
-45.349998 -155.05 -616.40997
-45.823002 -152.82001 -616.28998
-37.887001 -153.47 -616.59998
-38.976002 -151.32001 -615.96997
-45.865002 -148.89999 -616.03003
-46.470001 -148.10001 -616.33002
-46.821999 -146.96001 -616.52002
-39.776001 -147.33 -616.15997
-39.095001 -147.41 -616.53003
-39.769001 -145.67 -616.38
-41.200001 -143.56 -615.90997
-46.807999 -143.8 -616.53998
-39.417999 -142.08 -616.71997
-45.985001 -141.58 -616.17999
-39.292 -140.87 -617.01001
-47.021999 -140.27 -616.46002
-45.726002 -138.24001 -616.15997
-47.021 -138.41 -616.64001
-44.66 -137.63 -616.19
-46.679001 -137.10001 -616.42999
-43.452999 -137.08 -615.96997
-41.078999 -136.13 -616.25
-45.889999 -135.89999 -616.32001
-44.533001 -135.64 -616.34998
-40.907001 -135.37 -616.22998
-45.891998 -134.56 -616.34003
-44.727001 -134.25999 -616.34998
-45.599998 -133.31 -616.41998
-42.361 -133.13 -616.21997
-40.742001 -133.11 -616.53998
-44.550999 -133.10001 -616.46997
-43.379002 -133.10001 -616.29999
-45.959999 -132.00999 -616.44
-44.638 -131.64 -616.51001
-45.634998 -130.66 -616.53003
-43.175999 -130.57001 -616.21002
-40.216999 -131.78999 -616.59998
-42.268002 -130.66 -616.19
-41.057999 -130.58 -616.39001
-44.234001 -129.96001 -616.46002
-40.691002 -129.82001 -616.38
-46.283001 -129.41 -616.58002
-45.514 -129.37 -616.37
-42.929001 -129.56 -616.15002
-44.172001 -127.86 -616.53998
-41.487999 -128.46001 -616.28003
-45.119999 -127.87 -616.56
-42.917999 -128.28 -616.23999
-45.071999 -126.65 -616.45001
-43.986 -126.93 -616.42999
-40.139999 -126.94 -616.19
-39.360001 -126.98 -616.46002
-42.457001 -125.01 -616.31
-39.919998 -125.5 -616.40002
-44.984001 -125.2 -616.63
-41.491001 -125.31 -616.23999
-43.655998 -125.15 -616.60999
-44.646999 -123.92 -616.58002
-43.577 -124.02 -616.59003
-39.523998 -124.33 -616.39001
-43.605 -122.75 -616.76001
-40.824001 -123.28 -616.28003
-42.527 -122.82 -616.44
-39.874001 -122.56 -616.58002
-41.353001 -122.44 -616.40997
-40.155998 -121.35 -616.39001
-41.032001 -119.84 -616.59003
9.0878 -57.119999 -616.47998
3.6593001 -56.195 -616.45001
5.6185999 -56.653 -616.48999
7.6276999 -55.756001 -616.14001
10.336 -56.411999 -616.34998
-1.4862 -56.132999 -616.62
-0.64308 -55.716 -616.57001
4.2992001 -55.951 -616.34003
6.2742 -56.584999 -616.66998
6.6749001 -56.139999 -616.65002
10.446 -55.201 -616.32001
13.612 -56.078999 -616.53003
-1.7589 -55.283001 -616.53998
2.9820001 -54.793999 -616.66998
12.281 -55.183998 -616.20001
4.2828999 -53.978001 -616.75
5.3730001 -55.047001 -616.65997
9.7142 -54.644001 -616.21997
7.6465001 -54.433998 -616.01001
12.905 -54.827999 -616.15002
6.5630999 -54.151001 -616.09998
16.339001 -54.958 -616.48999
6.8055 -53.389 -616.12
8.4405003 -53.695999 -616.28003
17.063 -53.193001 -616.27002
18.061001 -54.035 -616.71997
0.14985 -53.285999 -616.64001
1.4216 -53.189999 -616.46997
4.2846999 -53.076 -616.64001
4.7797999 -52.501999 -616.53998
8.7517004 -53.490002 -616.26001
18.165001 -52.521 -615.92999
3.4052999 -51.791 -616.10999
7.8539 -52.68 -616.5
20.084999 -52.980999 -616.63
1.3710001 -52.054001 -616.69
2.4542999 -52.724998 -616.70001
5.4323001 -52.120998 -616.52002
6.4833002 -52.192001 -616.48999
5.6441998 -51.423 -616.58002
20.572001 -51.810001 -616.69
8.0802002 -51.147999 -616.15002
2.3666 -50.891998 -616.19
4.4432998 -50.291 -616.20001
6.5395002 -51.199001 -616.58002
8.9942999 -50.389999 -616.27002
19.570999 -50.646999 -616.10999
2.3352001 -49.911999 -616.20001
23.049999 -49.851002 -616.26001
24.735001 -50.363998 -616.64001
0.29199001 -49.728001 -616.63
6.7093 -50.25 -616.29999
7.3351998 -49.903999 -616.27002
8.4448004 -49.397999 -616.45001
1.1885 -48.541 -616.46002
3.0466001 -48.867001 -616.32001
7.9113998 -48.849998 -616.27002
1.7064 -48.120998 -616.56
0.15245999 -48.286999 -616.60999
27.693001 -49.235001 -616.67999
30.497 -48.581001 -616.5
35.164001 -48.132 -616.12
37.425999 -48.129002 -616.67999
38.380001 -47.203999 -616.16998
39.021 -47.610001 -616.65997
1.6155 -44.891998 -616.34003
45.764999 -43.712002 -615.69
2.8173001 -43.668999 -616.57001
46.875 -43.977001 -616.52002
3.0502999 -42.758999 -616.31
49.042 -41.709999 -616.14001
3.3794 -41.778 -616.25
49.839001 -41.136002 -616.28003
50.700001 -40.405998 -616.14001
3.5453 -40.044998 -616.73999
51.825001 -40.429001 -616.44
4.5071998 -39.755001 -616.42999
4.007 -38.598 -616.57001
52.609001 -39.080002 -615.88
54.460999 -38.931 -616.84003
4.8614001 -38.206001 -616.26001
6.1662002 -37.412998 -616.19
56.424 -36.626999 -616.71002
57.905998 -36.765999 -616.91998
56.844002 -36.118 -616.60999
5.3474998 -34.798 -616.62
59.841999 -35.275002 -616.89001
7.1939001 -33.395 -616.21997
6.5798998 -31.094999 -616.69
7.5823998 -30.51 -616.09998
7.1482 -29.219999 -616.38
66.893997 -28.611 -616.04999
7.1185999 -28.431999 -616.21997
69.821999 -25.445 -616.59003
164.03 -25.643999 -616.21002
166.91 -25.618999 -615.96997
167.66 -24.802999 -616.14001
162.47 -24.632999 -616.31
168.33 -24.007999 -616.01001
161.36 -23.579 -616.19
72.775002 -21.886999 -616.70001
161.36 -21.805 -616.58002
169.97 -21.201 -615.83002
161.84 -19.725 -616.21997
73.674004 -19.566999 -616.28998
170.7 -19.056999 -616.20001
161.94 -19.200001 -616.14001
171.14 -17.612 -616.73999
3.7246001 -19.143999 -616.59998
3.2693999 -17.524 -616.29999
75.628998 -17.059 -616.35999
76.222 -15.815 -616.45001
3.7217 -14.58 -616.88
163.05 -15.379 -615.90997
77.829002 -15.099 -616.90002
163.50999 -14.082 -616.40997
3.3826001 -13.935 -616.21002
76.718002 -14.03 -615.87
2.984 -13.481 -615.84003
163.85001 -13.376 -616.20001
164.16 -12.205 -616.69
78.098 -11.511 -615.92999
164.31 -11.389 -616.62
164.53999 -11.035 -616.19
79.053001 -10.659 -616.54999
165.09 -10.088 -616.34003
2.9879 -10.297 -615.62
164.85001 -9.5423002 -616.62
165.45 -8.9741001 -616.28003
5.0165 -7.2926998 -616.40002
165.75999 -7.5847998 -616.59003
79.444 -7.1325998 -616.29999
6.5737 -5.8744998 -616.44
80.883003 -4.8178 -617.07001
173.27 -5.5405998 -616.58002
173.35001 -4.0983 -616.63
172.91 -4.1592999 -616.15002
79.782997 -3.388 -616.07001
167.37 -3.9635 -615.87
173.35001 -3.0912001 -616.53998
167.53999 -2.0622001 -616.53998
167.89 -0.50599003 -616.82001
173.23 -1.5159 -616.71997
18.965 -0.86166 -616.48999
81.203003 -1.1216 -616.34003
170.14 -0.29234999 -616.33002
81.611 0.32269001 -616.06
82.054001 0.47878 -616.22998
171.36 1.6511 -616.71997
172.03999 1.0304 -616.65997
21.421 1.5031 -616.58002
82.080002 1.9605 -616.19
83.083 3.0583999 -616.38
26.702999 3.553 -616.28998
83.442001 5.1738 -616.20001
30.271999 6.3270998 -615.78998
83.68 6.8306999 -616.45001
82.356003 6.7842999 -615.91998
30.558001 6.8404002 -616.09003
82.705002 7.6752 -616.14001
84.700996 8.1662998 -616.46002
32.193001 8.6204004 -616.45001
34.004002 8.7319002 -616
34.469002 8.9263 -616.21002
83.569 9.8083 -616.20001
84.814003 9.4533997 -616.65002
86.668999 8.9927998 -616.59998
34.771 10.161 -616.70001
85.327003 9.7721004 -616.65002
85.707001 11.001 -616.14001
