# .PCD v0.7 - Point Cloud Data file format
VERSION 0.7
FIELDS x y z
SIZE 4 4 4
TYPE F F F
COUNT 1 1 1
WIDTH 1618
HEIGHT 1
VIEWPOINT 0 0 0 1 0 0 0
POINTS 1618
DATA ascii
28.504 -61.712002 -48.764999
-41.889 -61.446999 -49.259998
-42.383999 -60.938 -49.262001
28.035 -61.195 -49.241001
-42.882 -60.439999 -49.27
-43.400002 -59.995998 -49.25
27.339001 -60.250999 -49.491001
-44.418999 -59.501999 -49.237999
-43.917 -59.793999 -49.241001
-19.115999 -59.500999 -49.241001
26.806 -59.536999 -49.528999
-44.938999 -59.023998 -49.188999
-19.205999 -59.000999 -49.241001
-45.435001 -58.522999 -49.188999
-18.915001 -58.507999 -49.242001
25.822001 -58.263 -49.402
-18.816 -57.991001 -49.254002
-46.152 -57.769001 -49.331001
25.120001 -57.457001 -49.452
-50.679001 -57.500999 -49.241001
-50.652 -57.000999 -49.241001
-46.882 -57.004002 -49.164001
-47.367001 -56.561001 -49.085999
24.559 -56.488998 -48.799
23.601999 -55.987 -49.431
-50.417 -55.500999 -49.601002
-48.686001 -55.466999 -49.261002
-17.417 -55.932999 -49.241001
-49.912998 -55.018002 -49.631001
-49.438999 -55.013 -49.194
-16.507 -55.176998 -49.139999
22.726 -54.987 -48.834999
-50.421001 -54.967999 -49.282001
-49.917 -54.799999 -49.241001
21.827999 -54.592999 -49.473
-15.017 -53.902 -49.241001
20.125999 -53.546001 -49.443001
19.612 -52.937 -49.276001
-13.417 -52.679001 -49.241001
-12.913 -52.509998 -49.714001
-12.852 -52.042999 -49.200001
18.903999 -52.202999 -49.213001
17.874001 -51.437 -49.367001
-11.182 -50.037998 -49.465
-10.74 -49.337002 -49.171001
-9.6705999 -48.368 -49.152
-8.8788996 -48.008999 -49.519001
9.7094002 -47.500999 -49.330002
10.432 -47.481998 -48.772999
-8.2010002 -47.445 -49.327
-7.3608999 -47.148998 -49.601002
8.5752001 -47.018002 -49.212002
-7.1851001 -46.771999 -48.861
-5.4758 -46.480999 -49.342999
-4.6272001 -46.262001 -49.271999
-3.9171 -46.035999 -49.194
-2.6958001 -45.995998 -49.466
5.1610999 -45.737 -49.006001
-2.5685999 -45.708 -49.292999
1.5153 -45.390999 -49.349998
2.4658 -45.478001 -49.359001
4.2268 -45.646 -49.191002
1.9615 -103.49 -48.999001
2.8052001 -103.81 -49.290001
3.3717 -103.61 -49.134998
-0.71884 -102.9 -48.841
0.26919001 -102.92 -48.744999
2.0848 -103.02 -48.712002
3.4742999 -102.9 -48.692001
5.9631 -103.05 -48.948002
7.3027 -103.06 -49.105999
-1.5608 -102.15 -48.620998
5.8332 -102.55 -48.716
6.9184999 -102.39 -48.742001
7.7804999 -102.05 -48.685001
-4.1254001 -101.99 -49.151001
-3.4168 -102 -48.924
9.5832005 -102.28 -49.07
-5.3502998 -101.56 -49.237
-3.1054001 -101.8 -48.785
-4.0346999 -101.35 -48.847
11.075 -101.44 -48.929001
12.914 -101.05 -49.02
12.356 -100.57 -48.743
13.591 -100.13 -48.762001
14.08 -100.93 -49.236
-6.9168 -100 -49.029999
-5.9348001 -100.01 -48.730999
15.453 -99.973 -49.236
-7.2968998 -99.529999 -48.952999
-7.2848001 -98.949997 -48.708
15.14 -99.273003 -48.806999
-7.9191999 -98.867996 -48.894001
-9.4055004 -98.321999 -49.216999
-9.9055004 -97.992996 -49.268002
-10.411 -97.070999 -49.096001
17.167 -96.900002 -48.327999
18.558001 -97.207001 -49.167
-10.76 -96.055 -48.852001
19.337999 -96.449997 -49.193001
19.316 -95.538002 -48.692001
20.396 -94.487999 -48.737
21.215 -94.501999 -49.314999
-12.19 -93.475998 -48.867001
21.278999 -93.132004 -48.603001
-13 -91.630997 -48.962002
22.382999 -91.764999 -48.703999
23.059999 -90.941002 -48.758999
23.649 -90.088997 -48.729
-13.478 -89.500999 -48.695999
24.524 -89.614998 -49.216
24.336 -88.499001 -48.480999
25.604 -87.647003 -49.112999
-15.152 -86.648003 -49.063
25.958 -87.019997 -49.111
-15.859 -85.663002 -49.27
-15.961 -84.913002 -48.937
-16.386999 -84.126999 -48.914001
27.103001 -83.445999 -48.411999
-16.742001 -83.500999 -49.241001
-16.711 -82.057999 -48.43
27.893 -82.022003 -48.764
-16.875 -81.882004 -48.806999
28.079 -81.486 -48.747002
28.416 -81.007004 -48.821999
-17.236 -80.750999 -49.241001
-17.663 -79.000999 -48.741001
29.645 -79.572998 -48.741001
30.056999 -79.431 -49.237999
-18.114 -78.013 -48.897999
-18.370001 -77.424004 -48.678001
-19.382 -76.503998 -49.208
-19.426001 -76.468002 -48.741001
-18.917 -76.554001 -48.741001
-19.715 -75.997002 -49.205002
-19.263 -76.000999 -48.741001
-21.65 -75.496002 -47.91
-21.417 -75.640999 -48.991001
-20.917 -75.753998 -48.991001
-19.417 -75.865997 -48.741001
31.302999 -70.000999 -48.741001
31.063999 -68.426003 -48.973999
-27.440001 -67.500999 -49.202
-26.931999 -68.000999 -49.223
-26.917 -67.500999 -49.064999
-26.608 -66.968002 -48.743999
-26.271999 -68 -49.008999
-25.746 -67.519997 -48.801998
-24.48 -67.622002 -48.769001
-24.952 -68.008003 -48.944
-22.813 -67.500999 -48.723999
-22.417 -67.458 -48.765999
-22.417999 -67.997002 -49.084
-21.907 -67.459999 -48.825001
30.808001 -67.250999 -48.741001
-27.475 -66.488998 -48.766998
-28.514999 -65.964996 -48.884998
-28.072001 -66.164001 -48.813999
-51.192001 -65.791 -48.668999
-50.417 -65.712997 -49.241001
-49.917 -65.811996 -48.741001
-47.902 -65.471001 -49.109001
-48.417 -65.652 -48.741001
-47.917 -65.656998 -48.741001
-47.410999 -66.003998 -49.080002
-47.417 -65.852997 -48.741001
-46.917 -66.000999 -49.143002
-46.811001 -65.973999 -48.271999
-29.922001 -65.439003 -49.006001
-29.309 -65.439003 -48.807999
-33.741001 -64.642998 -49.153999
-32.749001 -64.934998 -49.234001
-31.033001 -64.831001 -48.833
-20.125999 -64.500999 -48.991001
-20.208 -65.000999 -48.741001
-36.41 -64.260002 -49.234001
-35.895 -63.771 -48.779999
-35.442001 -64.363998 -49.243
-34.917 -63.895 -48.825001
-34.220001 -64.024002 -48.82
-33.101002 -64.008003 -48.756001
-20.047001 -64.000999 -48.366001
-36.419998 -63.349998 -48.484001
-37.362 -63.743999 -49.201
-39.230999 -62.243 -48.549
29.226 -63.092999 -48.636002
-40.457001 -62.41 -49.133999
-41.463001 -61.112 -48.735001
-42.324001 -60.474998 -48.778999
-41.917 -60.717999 -48.741001
-42.986 -59.993 -48.679001
-19.09 -59.500999 -48.741001
-19.136999 -60.000999 -48.845001
27.535999 -59.478001 -48.118
-19.062 -59.000999 -48.741001
26.806 -59.000999 -48.741001
-18.903 -58.562 -48.741001
-45.297001 -58.291 -48.666
-18.91 -58.000999 -48.741001
26.193001 -58.289001 -48.741001
-45.993 -57.574001 -48.741001
-18.792 -57.500999 -48.741001
25.323 -57.255001 -48.768002
-47.984001 -56.071999 -49.240002
-48.348999 -55.446999 -48.742001
-17.417 -55.709999 -48.738998
-50.631001 -55.500999 -48.741001
-16.41 -55.006001 -48.694
-50.417 -54.716 -48.741001
-49.917 -54.636002 -48.741001
-49.032001 -54.997002 -48.723999
-15.759 -54.580002 -49.042
21.059 -53.943001 -48.841
21.643999 -54.314999 -48.991001
-15.138 -53.931999 -48.705002
-14.569 -53.457001 -48.973999
-13.884 -52.978001 -48.859001
20.042999 -52.972 -48.817001
-12.829 -50.951 -48.222
18.766001 -51.651001 -48.681
17.469999 -50.721001 -48.733002
16.01 -50.081001 -49.069
16.684999 -50.445 -49.043999
15.085 -49.499001 -48.743
15.299 -49.724998 -49.029999
14.083 -49.222 -49.241001
-10.892 -49.077 -48.66
11.684 -47.980999 -48.75
11.985 -48.155998 -48.858002
12.637 -48.445999 -48.789001
11.113 -47.778999 -48.773998
-8.2840996 -47.147999 -48.759998
9.4862003 -47.021999 -48.715
7.0978999 -46.577 -49.235001
-5.4094 -46.014 -48.749001
-4.7090001 -45.984001 -48.944
6.8375001 -46.035 -48.702999
-4.8425002 -45.627998 -48.688
-3.2744999 -45.023998 -48.734001
-2.0994999 -44.964001 -48.858002
-1.4121 -45.101002 -49.067001
-0.77752 -45.157001 -49.153999
0.24367 -45.306999 -49.285999
2.2239001 -44.917999 -48.799
3.2859001 -44.985001 -48.708
-0.44404 -44.577999 -48.691002
1.4450999 -44.819 -48.806
1.7717 -102.39 -48.396999
4.4657998 -102.9 -48.813
0.76097 -102.45 -48.464001
2.5688 -102.22 -48.313999
3.6782 -101.59 -48.096001
6.6329999 -101.99 -48.507
4.6698999 -101.86 -48.312
5.9088998 -101.28 -48.131001
7.7632999 -101.22 -48.313
9.1016998 -101.91 -48.816002
-3.1668 -100.98 -48.465
10.022 -101.51 -48.757999
11.083 -100.45 -48.479
-5.0778999 -100.31 -48.619999
-4.4807 -100.08 -48.362
12.812 -100.01 -48.546001
-5.9168 -99.500999 -48.542999
-4.4614 -99.5 -48.117001
14.631 -100.27 -49.098
13.097 -99.011002 -48.167999
14.083 -98.599998 -48.195
-7.1912999 -98.213997 -48.268002
15.711 -98.507004 -48.633999
15.391 -97.975998 -48.252998
-8.8479996 -97.888 -48.772999
-8.5305996 -96.935997 -48.097
16.549 -97.473 -48.356998
17.042999 -97.387001 -48.516998
-9.8226004 -96.948997 -48.735001
-10.928 -95.539001 -48.748001
18.702999 -95.718002 -48.478001
-10.723 -94.779999 -48.370998
-10.914 -93.636002 -48.127998
-11.725 -92.500999 -48.294998
21.35 -92.253998 -48.237
22.125 -91.205002 -48.209999
23.09 -90.051003 -48.265999
-12.858 -89.750999 -48.284
-13.528 -88.757004 -48.499001
-14.143 -87.598 -48.640999
24.614 -86.726997 -47.762001
-14.553 -86.314003 -48.455002
25.436001 -85.636002 -47.880001
-15.368 -85.055 -48.514
-15.449 -84.538002 -48.181
26.604 -85.084 -48.717999
-16.379 -83.648003 -48.618999
-16.434999 -82.925003 -48.241001
-16.921 -81.035004 -48.229
28.733999 -80.527 -48.716999
29.035 -79.940002 -48.241001
29.452 -79.43 -48.221001
30.080999 -77.998001 -47.983002
-18.683001 -77.026001 -48.444
-19.450001 -76.525002 -48.241001
-18.917 -76.689003 -48.241001
-20.559 -76.000999 -48.491001
-20.427999 -76.144997 -48.230999
-19.49 -75.997002 -48.245998
-19.917 -75.725998 -48.241001
-22.684 -75.000999 -48.491001
31.378 -70.000999 -48.241001
31.245001 -69.250999 -48.616001
-23.945999 -67.610001 -48.733002
-23.403999 -67.440002 -48.738998
-25.747 -66.987 -48.562
-24.917 -67.000999 -48.499001
-24.554001 -66.624001 -48.250999
-23.417 -67.000999 -48.471001
-22.51 -66.650002 -48.242001
-21.908001 -66.668999 -48.243
-21.757999 -67.000999 -48.741001
-26.474001 -66.438004 -48.415001
-25.899 -66.403 -48.271
-23.906 -66.768997 -48.303001
-23.219999 -66.709 -48.262001
-21.417 -66.628998 -48.741001
-20.417 -66.000999 -48.525002
-20.417 -65.551003 -48.259998
30.584999 -66.237 -48.492001
-52.300999 -65.834 -48.347
-51.417 -65.894997 -48.241001
-50.917 -65.833 -48.241001
-50.606998 -65.780998 -48.724998
-49.416 -65.802002 -48.236
-48.301998 -65.757004 -48.278
-47.417 -65.848999 -48.241001
-27.822001 -65.471001 -48.264999
-27.451 -65.924004 -48.422001
-28.667 -65.389999 -48.509998
-29.457001 -64.654999 -48.289001
-32.387001 -64.369003 -48.813999
-31.618 -63.877998 -48.237
-30.802 -63.821999 -48.053001
-35.021 -63.272999 -48.316002
-34.165001 -63.437 -48.327
-32.891998 -63.419998 -48.292999
-19.917 -63.749001 -48.723
-37.922001 -63.028 -48.736
-33.422001 -63.404999 -48.381001
-38.425999 -62.855999 -48.806999
-37.532001 -62.160999 -47.778999
-19.628 -62.000999 -48.491001
-19.671 -62.5 -48.248001
-40.681 -61.521999 -48.564999
-40.025002 -61.567001 -48.272999
-40.900002 -60.98 -48.250999
-41.631001 -60.466999 -48.202999
28.027 -60.618999 -48.490002
-42.506001 -59.928001 -47.950001
27.635 -59.860001 -48.452999
-43.847 -59.48 -48.361
-19.153999 -59.500999 -48.241001
-44.437 -59.167999 -48.678001
-18.951 -58.959 -48.118
-44.918999 -58.502998 -48.229
-18.910999 -58.550999 -48.241001
-45.658001 -57.696999 -48.283001
25.886999 -57.563 -48.098
-46.444 -56.938999 -48.251999
-47.514999 -56.097 -48.241001
-48.033001 -55.610001 -48.27
23.739 -55.653999 -48.473
-50.609001 -55.007 -48.299
-50.708 -55.500999 -48.241001
-48.823002 -55.041 -48.265999
-16.915001 -55.352001 -48.736
-50.417 -54.639999 -48.241001
-49.910999 -54.551998 -48.243
21.570999 -54.008999 -48.207001
22.452999 -54.543999 -48.16
20.701 -53.502998 -48.571999
-14.177 -53.075001 -48.293999
-13.885 -52.548 -48.141998
-13.448 -52.457001 -48.749001
19.466999 -51.917999 -48.160999
18.181 -50.993999 -48.289001
-11.947 -50.200001 -48.694
16.047001 -49.530998 -47.521
-11.376 -49.515999 -48.654999
13.267 -48.542999 -48.292
14.085 -48.875999 -48.235001
-9.7786999 -47.935001 -48.438
12.432 -48.025002 -48.214001
-9.3695002 -47.528999 -48.278
11.505 -47.536999 -48.175999
10.309 -46.935001 -48.209
-8.3269997 -46.889999 -48.167999
-7.3954 -46.508999 -48.219002
-6.4382 -46.485001 -48.755001
9.3727999 -46.439999 -48.105
-6.4021001 -45.969002 -48.287998
8.1300001 -46.493 -48.75
-5.8755999 -45.312 -48.188
6.0620999 -45.383999 -48.261002
7.1940999 -45.446999 -47.939999
-5.1283998 -45.071999 -48.32
-4.0548 -44.537998 -48.313
4.8835001 -44.580002 -47.827999
-3.0446999 -44.405998 -48.341999
-1.4387 -44.596001 -48.647999
0.70283002 -44.595001 -48.647999
2.9992001 -44.500999 -48.227001
4.0974998 -44.966 -48.527
-1.0835 -44.105999 -48.188999
-0.33684 -44.092999 -48.138
1.474 -44.407001 -48.328999
0.81906998 -101.28 -47.945
2.0541 -101.06 -47.848999
2.5832 -101.5 -47.98
3.0544 -101.47 -48.001999
-1.1796 -101.66 -48.361
-0.46935999 -101.46 -48.162998
-1.931 -100.76 -48.129002
-0.91684997 -100.5 -47.866001
0.14119001 -100.52 -47.730999
3.7758 -100.73 -47.765999
4.9716001 -100.47 -47.734001
5.5611 -100.47 -47.789001
6.4105 -100.52 -47.868
-3.2797999 -99.394997 -47.841999
8.1104002 -100.24 -47.959
9.0388002 -100.12 -48.022999
9.9464998 -100.21 -48.213001
8.0873003 -99.533997 -47.719002
11.333 -99.550003 -48.150002
-4.1612 -98.948997 -47.779999
9.3627996 -99.278999 -47.783001
12.146 -99.138 -48.062
-5.4847002 -98.991997 -48.174
12.354 -98.469002 -47.756001
-6.3414998 -97.636002 -47.613998
14.083 -97.577003 -47.703999
-7.6668 -97.543999 -48.071999
15.228 -97.231003 -47.855
16.583 -96.500999 -47.952
-8.9167995 -96.250999 -48.008999
-9.6740999 -95.510002 -48.098999
17.964001 -95.570999 -48.073002
-9.9167995 -94.750999 -47.952999
19.07 -94.627998 -48.030998
19.576 -94.410004 -48.174999
20.070999 -93.717003 -48.162998
-10.917 -93.000999 -47.943001
20.306999 -92.507004 -47.716999
-11.315 -91.500999 -47.806999
21.360001 -91.268997 -47.73
-12.112 -91.000999 -48.181
-12.169 -90.003998 -47.896999
23.124001 -89.490997 -48.028
-12.961 -88.750999 -48.077
23.341999 -88.218002 -47.546001
24.836 -87.780998 -48.470001
-12.898 -87.795998 -47.779999
-13.181 -86.797997 -47.613998
25.080999 -86.119003 -47.824001
26.059 -84.801003 -48.012001
-15.901 -83.884003 -48.105999
27.148001 -82.502998 -48.056
-16.297001 -81.958 -47.464001
27.311001 -81.960999 -47.991001
27.719 -81.500999 -48.241001
-16.681 -81.148003 -47.701
28.054001 -81.011002 -48.193001
-16.924999 -80.391998 -47.758999
28.620001 -80.056999 -47.636002
29.084999 -79.502998 -47.737999
-17.482 -78.733002 -47.75
29.419001 -78.755997 -47.648998
-17.84 -77.960999 -47.875
-19.532 -76.559998 -47.733002
-20.416 -76.174004 -47.741001
-19.917 -76.029999 -47.761002
-21.454 -75.627998 -47.872002
-20.931999 -75.768997 -47.779999
-22.417999 -75.218002 -47.806
31.405001 -70.500999 -47.741001
31.461 -69.915001 -47.742001
-37.917 -68.500999 -48.095001
-37.740002 -68.447998 -47.808998
31.139999 -67.960999 -47.751999
30.847 -66.625999 -47.741001
-21.417 -66.500999 -48.151001
-46.417 -66.137001 -48.241001
-46.803001 -66.019997 -47.764999
-45.917 -66.245003 -47.741001
-24.973 -65.973 -47.848999
-24.417 -65.932999 -47.792999
-23.566 -66.066002 -47.799999
-22.077999 -65.987 -47.726002
-21.389 -66.004997 -47.737999
-20.913 -66.502998 -48.231998
-52.917 -65.891998 -47.741001
-52.396999 -65.929001 -47.750999
-51.375999 -65.939003 -47.754002
-49.521 -65.815002 -47.493
-48.931 -65.769997 -48.230999
-47.470001 -65.858002 -47.763
-26.927 -65.883003 -48.192001
-26.311001 -65.579002 -47.77
-20.912001 -65.692001 -47.612999
-27.591 -65.023003 -47.806
-28.725 -64.425003 -47.751999
-29.558001 -63.974998 -47.747002
-20.190001 -64.498001 -48.231998
-31.417 -63.417999 -47.811001
-30.917 -63.441002 -47.790001
-30.455 -63.514999 -47.717999
-19.917 -63.687 -47.271999
-35.912998 -62.754002 -47.769001
-33.784 -62.917 -47.800999
-32.382999 -62.969002 -47.755001
-31.898001 -63.230999 -47.780998
29.622999 -63.400002 -47.923
-36.629002 -62.480999 -47.740002
-32.941002 -62.958 -47.908001
-38.169998 -61.948002 -47.877998
-39.165001 -61.458 -47.798
28.561001 -61.256001 -47.974998
-40.917 -60.500999 -47.741001
-39.991001 -60.936001 -47.674999
-40.967999 -60.191002 -47.249001
-19.08 -59.500999 -47.741001
-19.118 -60.000999 -47.762001
-44.825001 -58.418999 -47.741001
-18.805 -58.014999 -48.245998
-45.360001 -57.880001 -47.743999
-18.562 -57.433998 -47.991001
-46.317001 -56.894001 -47.741001
-18.452999 -57 -48.240002
-46.842999 -56.452 -47.741001
-47.476002 -56.053001 -47.741001
24.729 -56.363998 -48.122002
-50.737999 -55.000999 -47.741001
-48.296001 -55.432999 -47.731998
-50.417 -54.693001 -47.741001
-49.917 -54.633999 -47.741001
-49.278 -54.896 -47.741001
-16.426001 -54.891998 -48.199001
-15.935 -54.515999 -47.953999
-15.385 -54.054001 -47.848
-14.761 -53.568001 -47.998001
-14.403 -53.021 -47.688999
20.783001 -53.056 -47.952999
-13.511 -51.48 -47.755001
19.153 -51.477001 -47.796001
18.101999 -50.695999 -47.737
17.507999 -50.522999 -48.155998
-12.409 -49.750999 -47.487
-11.815 -48.978001 -47.396
14.617 -48.986 -47.846001
15.344 -49.298 -47.757
-10.951 -48.472 -47.862999
-10.433 -47.977001 -47.762001
13.848 -48.513 -47.757
12.116 -47.460999 -47.761002
13.041 -47.974998 -47.735001
-8.9181995 -47.000999 -47.756001
-8.2251997 -46.561001 -47.703999
-7.4447999 -45.93 -47.757
8.7554998 -45.926998 -47.828999
-6.9310999 -45.977001 -48.054001
6.1209002 -44.973999 -47.757
-4.9482999 -44.486 -48.036999
5.5690999 -44.830002 -47.858002
-5.4168 -44.118999 -47.651001
-4.7466998 -43.974998 -47.717999
-3.6294999 -43.855999 -47.851002
-2.8122001 -43.952 -47.952999
2.9175 -44.070999 -47.657001
3.7471001 -44.311001 -47.830002
-2.2121999 -43.730999 -47.716
1.3305 -100.56 -47.66
1.4332 -100.07 -47.541
2.4059999 -100.26 -47.583
4.2163 -100.04 -47.561001
5.1213999 -99.474998 -47.411999
5.9312 -100.09 -47.719002
-1.8939 -99.532997 -47.683998
0.081781 -99.528999 -47.442001
1.8528 -99.244003 -47.251999
2.6424 -99.343002 -47.248001
3.4955001 -99.427002 -47.299999
5.5225 -99.421997 -47.411999
6.3596001 -99.482002 -47.558998
7.2343001 -99.536003 -47.620998
-2.3292 -98.985001 -47.485001
-0.84426999 -98.947998 -47.243999
0.27711001 -99.085999 -47.216
4.4425998 -99.448997 -47.367001
7.0071998 -98.858002 -47.222
7.6487999 -99.000999 -47.438
8.8261995 -98.978996 -47.535
-5.0297999 -98.103996 -47.486
-3.9475 -98.196999 -47.285
-2.013 -98.521004 -47.153999
7.6350002 -98.601997 -47.171001
10.833 -98.913002 -47.787998
11.583 -98.282997 -47.568001
9.5799999 -98.087997 -47.176998
11.508 -96.675003 -46.761002
13.493 -97.528 -47.523998
-6.9288998 -97.487 -47.737999
-7.8224001 -96.771004 -47.751999
-7.0184002 -96.204002 -47.215
14.664 -96.507004 -47.324001
15.95 -96.518997 -47.710999
-7.9168 -96.000999 -47.463001
16.134001 -95.682999 -47.303001
-8.9179001 -95.251999 -47.653999
17.004999 -95.360001 -47.488998
17.816999 -94.973 -47.666
17.917999 -94.343002 -47.398998
18.827 -93.987 -47.639
19.555 -93.460999 -47.754002
-9.8231001 -93.636002 -47.533001
-9.2151003 -93.250999 -47.161999
19.559999 -92.945 -47.498001
-10.732 -91.755997 -47.521
-10.445 -91.122002 -47.227001
21.110001 -90.767998 -47.319
-11.174 -90.220001 -47.375
22.073 -90.078003 -47.577999
-12.22 -89.500999 -47.799
-11.442 -89.199997 -47.224998
22.551001 -88.806999 -47.261002
-12.114 -87.500999 -47.181999
23.915001 -86.976997 -47.374001
-13.202 -86.000999 -47.339001
24.296 -85.850998 -47.023998
-14.048 -85.565002 -47.721001
-14.342 -84.983002 -47.638
-14.866 -84.503998 -47.674
25.607 -84.086998 -47.217999
-15.427 -84.040001 -47.723
-15.449 -82.575996 -46.716
26.431999 -82.941002 -47.438999
-15.942 -82.656998 -47.341999
26.556999 -82.420998 -47.271
27.211 -81.524002 -47.435001
-16.465 -81.190002 -47.176998
27.931 -80.654999 -47.334999
-16.754 -80.500999 -47.241001
-17.063 -79.754997 -47.275002
28.613001 -79.606003 -47.200001
29.052 -78.882004 -47.285
-17.704 -77.988998 -47.124001
29.362 -78.209999 -47.205002
-18.013 -77.553001 -47.535
-18.643 -76.991997 -47.504002
-19.532 -76.566002 -47.216
-18.905001 -76.767998 -47.465
-19.917 -76.233002 -47.241001
-21.582001 -75.542 -47.283001
-20.900999 -75.865997 -47.202
30.565001 -75.908997 -47.278
-22.75 -75.003998 -47.491001
-22.417 -75.175003 -47.241001
-27.917 -71.730003 -47.741001
-27.917 -71.745003 -47.241001
-30.683001 -71.43 -47.453999
-32.965 -70.500999 -47.741001
-33.417 -70.250999 -47.741001
-33.417 -70.500999 -47.34
-38.43 -68.200996 -47.738998
-38.421001 -68.106003 -47.240002
-37.917 -68.317001 -47.241001
-40.022999 -67.537003 -47.241001
-39.973999 -67.697998 -47.736
-39.48 -67.865997 -47.735001
-41.917 -67.331001 -47.741001
-42.417 -67.054001 -47.241001
-41.331001 -67.468002 -47.731998
-40.386002 -67.431999 -47.321999
-44.155998 -66.500999 -47.241001
-43.720001 -66.622002 -47.745998
-43.687 -66.684998 -47.231998
-42.773998 -66.977997 -47.268002
-42.823002 -66.981003 -47.742001
-46.722 -65.990997 -47.248001
-45.917 -66.228996 -47.241001
-45.112999 -66.334 -47.257999
-44.627998 -66.468002 -47.742001
-52.417 -65.970001 -47.241001
-51.452 -65.918999 -47.173
-50.421001 -65.814003 -47.639999
-48.417 -65.761002 -47.491001
-24.688 -65.362 -47.297001
-23.917 -65.420998 -47.314999
-23.062 -65.469002 -47.278
-22.417 -65.448997 -47.286999
-21.434 -65.505997 -47.285
-20.914 -65.285004 -47.269001
30.612 -65.415001 -47.241001
-25.950001 -64.983002 -47.238998
-25.363001 -65.151001 -47.229
-20.417 -65.160004 -47.741001
30.349001 -65.000999 -47.741001
-27.417999 -64.529999 -47.222
-26.966999 -64.943001 -47.438
-20.417 -64.904999 -47.241001
-29.275 -63.773998 -47.382
-20.02 -63.757 -46.816002
-20.278 -64.500999 -47.241001
30.056 -64.359001 -47.849998
-31.417 -62.895 -47.345001
-30.917 -62.925999 -47.318001
-30.396999 -62.98 -47.250999
-35.417 -62.403999 -47.360001
-34.741001 -62.548 -47.549
-34.228001 -62.653 -47.566002
-32.917 -62.444 -47.314999
-32.419998 -62.446999 -47.269001
29.51 -62.493 -46.997002
-36.606998 -62.070999 -47.280998
-35.738998 -61.976002 -46.853001
-37.77 -61.476002 -47.196999
-19.471001 -61.499001 -46.855
-19.653999 -61.995998 -47.722
29.063 -61.882999 -47.471001
-39.039001 -61.019001 -47.272999
-19.452 -61.383999 -48.374001
-40.148998 -60.505001 -47.263
-19.18 -60.000999 -47.241001
-19.167 -60.500999 -47.741001
-19.143 -60.500999 -47.241001
28.098 -59.981998 -47.431999
-41.983002 -59.964001 -47.511002
-18.916 -59.500999 -47.243
28.120001 -59.611 -46.700001
-44.014 -59.091 -47.729
-43.393002 -59.313 -47.5
-42.603001 -59.435001 -47.085999
-44.470001 -58.595001 -47.262001
-18.771 -59.000999 -47.241001
-44.985001 -58.206001 -47.234001
27.235001 -59.001999 -47.933998
-45.816002 -57.408001 -47.241001
25.721001 -56.938999 -47.32
-18.200001 -57.000999 -47.243
-46.382 -56.813 -47.238998
-46.853001 -56.451 -47.126999
-47.859001 -55.82 -47.634998
-48.450001 -55.509998 -47.266998
24.249001 -55.495998 -47.263
-50.889 -55.500999 -47.727001
-49.404999 -54.992001 -47.213001
-16.914 -54.962002 -47.75
23.448 -54.918999 -47.451
-50.417 -54.752998 -47.241001
-49.917 -54.813 -47.241001
-16.417 -54.605999 -47.241001
-15.417 -54.000999 -47.237999
22.004999 -54.035999 -47.646
22.697001 -54.365002 -47.282001
-14.92 -53.492001 -47.249001
21.593 -53.594002 -47.567001
-14.168 -52.514 -47.622002
21.205 -52.956001 -47.280998
19.947001 -51.951 -47.547001
-13.953 -51.654999 -47.16
-13.225 -50.839001 -47.473
19.177 -51.292 -47.247002
18.065001 -50.511002 -47.133999
17.573 -50.257 -47.219002
16.569 -49.858002 -47.701
15.156 -48.977001 -47.250999
13.984 -48.037998 -47.207001
-10.109 -47.638 -47.534
-10.009 -47.431999 -47.241001
13.583 -47.657001 -47.084
-9.4007998 -46.999001 -47.234001
11.828 -47.062 -47.542999
11.375 -46.352001 -47.002998
-8.4013004 -46.036999 -47.306999
10.506 -46.415001 -47.563999
9.8044004 -45.830002 -47.200001
-7.4168 -45.000999 -47.408001
-6.9145999 -44.964001 -47.630001
8.0396996 -45.132999 -47.215
-7.0605998 -44.481998 -47.360001
-6.0883002 -44.477001 -47.709
5.7701998 -44.460999 -47.341999
6.6587 -44.701 -47.224998
-6.5151 -43.98 -47.258999
3.4717 -43.939999 -47.349998
4.9944 -44.141998 -47.16
-5.9903998 -43.908001 -47.347
-5.4168 -43.596001 -47.120998
-4.9168 -43.526001 -47.206001
-4.0901999 -43.458 -47.266998
-3.4168 -43.418999 -47.351002
-2.5774 -43.412998 -47.313
-1.4378 -43.577999 -47.506001
-0.55416 -43.139999 -46.701
0.20815 -43.73 -47.522999
0.98944002 -43.341999 -46.784
1.9152 -43.881001 -47.512001
1.1295 -99.246002 -47.262001
3.5365 -98.550003 -46.797001
-0.74923998 -98.529999 -46.974998
0.97158998 -98.415001 -46.793999
2.4170001 -98.492996 -46.763
4.4324002 -98.408997 -46.772999
6.2065001 -98.486 -46.939999
7.0832 -98.500999 -46.997002
-2.2585001 -98.011002 -46.910999
-0.8854 -98.060997 -46.772999
8.3583002 -97.990997 -46.916
8.9514999 -98.186996 -47.083
-3.6629 -97.883003 -47.069
-2.0232 -97.495003 -46.668999
9.0840998 -97.207001 -46.661999
-5.3002 -97.117996 -47.061001
-4.6668 -96.944 -46.865002
12.324 -97.218002 -47.169998
-6.086 -96.329002 -46.929001
-5.2918 -96.183998 -46.696999
13.23 -96.737 -47.110001
13.151 -95.963997 -46.713001
-6.6849999 -95.496002 -46.849998
14.583 -95.709 -46.916
15.333 -95.346001 -46.938
-7.9187999 -95.316002 -47.231998
-7.2023001 -94.500999 -46.794998
-8.5978003 -94.750999 -47.355
17.083 -94.000999 -46.924999
-7.7096 -93.932999 -46.82
-8.6644001 -92.995003 -46.853001
18.566 -93.219002 -47.162998
18.521999 -92.224998 -46.681
-9.6400003 -92.349998 -47.085999
19.559 -91.702003 -46.919998
20.547001 -91.307999 -47.258999
-10.417 -90.500999 -47.049
-9.6524 -89.651001 -46.348
20.542999 -90.308998 -46.759998
21.707001 -89.249001 -46.946999
-10.613 -88.750999 -46.611
-11.206 -87.619003 -46.640999
22.361 -87.477997 -46.469002
22.937 -86.867996 -46.544998
-12.387 -85.990997 -46.779999
-11.811 -87.000999 -46.812
-12.974 -85.025002 -46.800999
24.573999 -84.973999 -46.748001
-13.445 -84.405998 -46.792
24.632 -84.079002 -46.323002
-14.87 -83.887001 -47.227001
-14.957 -83.039001 -46.681999
25.573999 -83.224998 -46.695
26.517 -81.941002 -46.806
-15.998 -81.761002 -46.745998
-16.527 -80.742996 -46.77
-17.066999 -79.658997 -46.849998
27.997999 -79.814003 -46.541
-17.451 -78.568001 -47.109001
-18.546 -77.082001 -46.741001
-19.535 -76.569 -46.741001
-20.399 -76.186996 -46.970001
30.091 -76.474998 -47.007
-21.84 -75.372002 -46.703999
-22.83 -74.966003 -46.672001
-23.417 -74.702003 -47.241001
-23.417 -74.705002 -46.741001
-27.417 -72.000999 -46.888
-27.426001 -71.759003 -47.245998
-31.415001 -71.380997 -46.743
-33.950001 -70.707001 -46.742001
-34.050999 -70.500999 -47.241001
-34.417 -70.309998 -47.241001
-34.917 -70.271004 -46.741001
-35.037998 -70.000999 -47.241001
-35.417 -69.681999 -47.241001
-37.615002 -68.533997 -47.250999
-37.412998 -68.670998 -46.737999
-37.009998 -69 -47.241001
-36.915001 -68.945 -46.741001
-38.473999 -68.113998 -46.716
-37.917 -68.303001 -46.741001
-39.933998 -67.509003 -46.698002
-39.417 -67.68 -46.741001
-38.931 -67.818001 -46.787998
-42.431999 -66.835999 -46.765999
-41.867001 -67.114998 -46.692001
-40.917 -67.211998 -46.741001
-40.417 -67.292 -46.741001
31.134001 -67.499001 -47.262001
-43.890999 -66.478996 -46.766998
-43.183998 -66.681 -46.790001
-46.306999 -65.983002 -46.797001
-45.022999 -66.198997 -46.735001
-44.396999 -66.278 -46.776001
30.884001 -66.250999 -46.991001
-53.917 -65.848999 -47.241001
-54.417 -65.797997 -46.741001
-53.410999 -65.847 -47.238998
-52.849998 -65.904999 -47.101002
-52.306 -65.903999 -46.361
-50.667 -65.793999 -46.991001
-49.284 -65.690002 -46.269001
-48.917 -65.738998 -46.991001
-47.919998 -65.796997 -47.008999
-47.339001 -65.815002 -46.966999
-46.917 -65.847 -46.741001
-24.535 -64.901001 -46.831001
-23.778999 -65.010002 -46.887001
-22.917 -64.968002 -46.771999
-22.417 -64.949997 -46.797001
-21.475 -65 -46.759998
-20.917 -64.958 -46.804001
-26.075001 -64.429001 -46.742001
-20.416 -64.651001 -46.703999
30.563999 -64.852997 -46.48
-26.905001 -64.047997 -46.543999
-29.423 -62.997002 -46.750999
-28.452999 -63.589001 -46.792999
30.07 -63.534 -46.667
-31.417 -62.394001 -46.846001
-30.610001 -62.505001 -46.794998
-34.867001 -62.060001 -46.863998
-33.917 -61.973 -46.779999
-33.028999 -62.005001 -46.703999
-32.41 -62.02 -46.771
-36.27 -61.644001 -46.551998
-37.999001 -61.016998 -46.714001
-37.382999 -61.365002 -46.82
28.666 -60.674 -46.984001
-38.476002 -60.915001 -46.814999
-39.589001 -60.425999 -46.769001
-19.396999 -60.500999 -46.741001
28.468 -60.077999 -46.561001
-41.507 -59.931 -47.108002
-19.002001 -59.994999 -46.737
-42.893002 -59.082001 -46.362999
-18.618 -59.382 -46.102001
-43.917 -58.832001 -46.741001
-18.502001 -58.112 -47.025002
26.993999 -58.110001 -46.741001
-18.343 -57.521999 -47.096001
-46.396 -56.981998 -46.647999
-17.917 -56.500999 -47.164001
-17.621 -56.5 -46.488998
25.058001 -56.021 -46.799999
-48.917 -55.286999 -47.241001
-50.876999 -55.007999 -47.206001
-16.879999 -55.000999 -46.741001
-17.237 -55.502998 -46.740002
23.761 -54.997002 -46.792
-50.917 -54.856998 -46.741001
23.093 -54.483002 -46.766998
-16.417 -54.346001 -46.738998
-15.939 -54.334999 -47.174999
22.579 -54.004002 -46.728001
-15.413 -53.879002 -46.735001
-15.151 -53.500999 -46.741001
22.091 -53.483002 -46.754002
21.596001 -52.994999 -46.750999
20.691 -52.183998 -46.699001
20.049999 -51.659 -46.709999
18.583 -50.742001 -46.741001
-13.182 -50.212002 -46.764999
17.042999 -49.949001 -47.226002
16.577999 -49.504002 -46.729
17.083 -49.828999 -46.741001
15.89 -49.057999 -46.723
-11.49 -48.5 -47.189999
14.605 -48.528999 -47.207001
-10.955 -47.883999 -46.789001
-10.438 -47.455002 -46.771999
14.067 -47.092999 -46.196999
-9.9392004 -46.931 -46.762001
12.802 -46.869999 -46.756001
-8.8810997 -46.514999 -47.233002
11.659 -45.978001 -46.388
-8.8079004 -45.230999 -46.773998
9.9310999 -45.535 -46.757999
-8.0081997 -44.48 -46.851002
6.8478999 -44.484001 -46.854
7.5832 -44.571999 -46.618
8.2986002 -44.929001 -46.831001
-7.1191001 -44.028999 -47.030998
5.4295001 -43.995998 -46.66
6.0832 -44.217999 -46.741001
-6.3691001 -43.469002 -46.741001
2.2428 -43.491001 -46.784
3.1382 -43.535999 -46.646
4.5254998 -43.851002 -46.745998
-5.0584002 -43.244999 -46.742001
-3.9714999 -42.786999 -46.216
-2.4168 -43.022999 -46.706001
-1.4391 -43.048 -46.698002
0.76002997 -97.906998 -46.569
2.0262001 -97.994003 -46.547001
3.2305 -97.807999 -46.473
4.7687001 -97.941002 -46.613998
-0.70358002 -97.519997 -46.563
6.0953002 -97.980003 -46.716
7.1599998 -97.789001 -46.698002
-0.25196999 -96.545998 -46.133999
0.79306 -96.066002 -45.890999
3.8127 -97.139 -46.271999
4.8464999 -97.361 -46.397999
5.6966 -96.822998 -46.258999
7.4208999 -97.045998 -46.438999
9.9230003 -97.324997 -46.816002
7.3491998 -96.435997 -46.243999
8.3332005 -96.875999 -46.472
10.028 -96.492996 -46.472
-3.5486 -96.440002 -46.43
-3.3239999 -95.751999 -46.169998
8.4582005 -95.500999 -45.976002
11.818 -96.274002 -46.647999
12.642 -96.105003 -46.691002
-5.2477002 -95.377998 -46.414001
12.333 -95.296997 -46.32
13.015 -94.486 -46.050999
13.687 -94.627998 -46.229
-6.3662 -94.504997 -46.506001
15.031 -94.553001 -46.481998
-6.7965999 -93.977997 -46.483002
-5.7845001 -93.983002 -46.219002
14.054 -94.095001 -46.088001
16.051001 -94.454002 -46.751999
-6.7084999 -93.098999 -46.098
15.5 -93.539001 -46.179001
-7.5971999 -93.122002 -46.424999
16.318001 -93.078003 -46.223
17.459999 -92.528999 -46.400002
-7.6099 -92.500999 -46.210999
-8.8879004 -92.404999 -46.736
-9.5408001 -90.933998 -46.664001
19.333 -91.092003 -46.525002
19.833 -90.250999 -46.388
19.833 -89.250999 -45.875999
21.110001 -89.267998 -46.581001
-9.4167995 -88.750999 -45.966999
20.733 -88.25 -45.890999
-10.298 -87.786003 -46.167999
23.599001 -86.071999 -46.553001
-11.713 -85.754997 -46.207001
-12.917 -84.500999 -46.480999
23.563 -85.238998 -46.084999
-13.479 -84.012001 -46.563
-13.007 -84.100998 -46.241001
-14.28 -83.538002 -46.688999
-13.509 -83.559998 -46.173
-14.42 -83.002998 -46.235001
25.777 -82.505997 -46.426998
-15.482 -82.125 -46.209999
26.079 -81.991997 -46.247002
-15.923 -81.511002 -46.209
26.611 -81.444 -46.285
27.058001 -80.970001 -46.327999
-16.414 -80.792 -46.262001
27.490999 -80.514999 -46.455002
-16.899 -79.971001 -46.241001
28.558001 -78.480003 -46.258999
29.341999 -77.710999 -46.813999
-17.966999 -77.568001 -46.337002
-18.888 -76.875 -46.507
-19.902 -76.386002 -46.398998
29.584999 -76.003998 -45.734001
-20.774 -76.039001 -46.451
-21.903 -75.533997 -45.729
-21.417 -75.740997 -46.241001
-22.408001 -75.196999 -46.700001
30.200001 -75.259003 -46.099998
-23.917 -74.532997 -46.317001
-23.066 -74.947998 -46.174999
-23.931999 -74.375 -46.737
-24.388 -74.427002 -46.261002
-26.917 -72.624001 -46.241001
-26.5 -73.000999 -46.241001
-27.319 -72.475998 -46.249001
-30.134001 -71.541 -46.314999
-29.914 -71.649002 -46.738998
-29.417 -71.733002 -46.241001
-28.546 -71.892998 -46.228001
-32.417 -71.111 -46.741001
-32.365002 -71.004997 -46.416
-31.823 -71.189003 -46.224998
-30.743999 -71.308998 -45.959
-33.021 -70.989998 -46.743999
-33.030998 -70.845001 -46.27
-34.417 -70.336998 -46.241001
-35.417 -69.789001 -46.241001
-36.417 -69.315002 -46.741001
-36.493999 -69.139 -46.195
-36.035 -69.501999 -46.740002
-35.858002 -69.456001 -46.214001
-37.409 -68.489998 -46.248001
-36.917 -68.742996 -46.241001
-38.333 -67.977997 -46.268002
-37.917 -68.110001 -46.241001
-38.921001 -67.556999 -46.169998
-41.898998 -67 -46.469002
-40.905998 -66.962997 -46.296001
-40.256001 -67.074997 -46.169998
31.204 -67.499001 -46.242001
-42.608002 -66.467003 -46.234001
-45.959999 -66.038002 -46.653999
-45.022999 -65.972 -46.280998
-44.056999 -66.005997 -46.208
-43.312 -66.443001 -46.403999
30.91 -65.750999 -45.866001
-55.248001 -65.565002 -46.382
-54.917 -65.639 -46.741001
-54.417 -65.857002 -46.241001
-53.625999 -65.880997 -46.332001
-52.917 -65.939003 -46.241001
-51.417 -65.841003 -46.241001
-50.473999 -65.613998 -45.745998
-48.022999 -65.720001 -46.358002
-47.319 -65.721001 -46.229
-46.417 -65.731003 -46.241001
-45.917 -65.794998 -46.241001
-55.917 -65.342003 -46.241001
-25.358999 -64.573997 -46.682999
-23.066999 -64.458 -46.252998
-22.452999 -64.515999 -46.238998
-21.370001 -64.485001 -46.029999
-20.882 -64.514 -46.198002
-26.417 -63.949001 -46.301998
-27.792999 -63.464001 -46.283001
-27.437 -64.008003 -46.710999
-20.118 -63.544998 -46.167
-28.843 -62.799999 -46.250999
-19.917 -63.172001 -46.241001
30.122 -63.202999 -46.112999
-29.65 -62.487999 -46.328999
-31.417 -61.933998 -46.330002
-30.636999 -62.028 -46.234001
-35.455002 -61.675999 -46.264
-34.417 -61.735001 -46.241001
-33.917 -61.682999 -46.241001
-33.070999 -61.695999 -46.188
-31.917 -61.734001 -46.241001
-19.42 -61.500999 -46.241001
-19.639 -62.002998 -46.405998
29.323 -61.500999 -46.241001
-38.534 -60.638 -46.259998
-37.900002 -60.818001 -46.275002
-40.390999 -60.005001 -46.417
-39.417 -60.237 -46.241001
-18.917 -60.236 -45.978001
-19.153 -60.500999 -46.241001
-41.422001 -59.537998 -46.134998
-40.917 -59.82 -46.241001
-41.973 -59.450001 -46.410999
-44.442001 -58.52 -46.554001
-43.917 -58.789001 -46.241001
-43.438 -58.945 -46.327999
-18.441 -58.535 -46.433998
-44.917 -58.333 -46.241001
-44.933998 -58.261002 -46.702
-18.209 -58.000999 -46.241001
-45.664001 -57.651001 -46.688999
26.528999 -57.562 -46.741001
-17.882999 -56.952999 -46.523998
25.608999 -56.437 -46.481998
-47.91 -55.990002 -46.631001
-17.315001 -55.720001 -46.68
-48.845001 -55.662998 -46.380001
-49.370998 -55.396999 -46.342999
24.620001 -55.511002 -46.431999
-50.648998 -54.949001 -46.353001
-49.931999 -55.046001 -46.633999
-16.917 -55.235001 -46.241001
-50.917 -54.960999 -46.068001
23.242001 -54.472 -46.301998
-15.919 -53.999001 -46.243999
-16.417999 -54.008999 -45.758999
-15.405 -53.523998 -46.205002
-15.08 -53.088001 -46.505001
-14.671 -52.500999 -46.741001
20.627001 -51.993999 -46.354
-14.313 -51.574001 -46.52
-13.92 -51.057999 -46.612
19.049 -51.008999 -46.626999
-13.449 -49.721001 -45.744999
17.582001 -50.001999 -46.237999
18.083 -50.314999 -46.241001
17.048 -49.525002 -46.173
-12.388 -49.049 -46.640999
-11.991 -48.425999 -46.241001
15.641 -48.400002 -46.287998
16.514 -49.027 -46.132
-11.425 -47.993 -46.261002
-10.92 -47.492001 -46.243999
-10.651 -47.027 -46.237
-9.5819998 -46.493 -46.786999
-9.6608 -46.055 -46.581001
-10.011 -45.042999 -46.063
10.786 -45.229 -45.82
-8.9771004 -44.917 -46.574001
9.7149 -45.035 -46.174999
-8.9167995 -44.500999 -46.433998
-9.3736 -44.605999 -46.212002
8.7427998 -44.472 -45.752998
6.3752999 -44.047001 -46.188
7.3425002 -44.304001 -46.235001
-8.3678999 -43.957001 -46.305
-7.4141002 -43.539001 -46.323002
4.4995999 -43.535 -46.173
5.3382001 -43.791 -46.226002
-5.8871002 -43.053001 -46.186001
-4.9045 -42.970001 -46.289001
-0.10996 -43.080002 -46.548
0.97057998 -42.958 -46.292999
3.4272001 -43.331001 -46.261002
-3.148 -42.799 -46.348999
-2.4126 -42.585999 -46.167
-1.0865 -42.605999 -46.175999
-0.96827 -96.508003 -46.146
1.8332 -97.276001 -46.298
-1.6928 -96.558998 -46.220001
-0.92123002 -95.994003 -45.988998
-0.086404003 -96.012001 -45.963001
1.7754 -95.943001 -45.845001
4.2082 -96.250999 -46.000999
7.1662998 -95.514 -45.882999
2.1387 -95.014 -45.598999
3.5222001 -95.898003 -45.866001
5.5672998 -95.708 -45.873001
6.4519 -95.702003 -45.925999
10.083 -95.714996 -46.185001
-3.0583 -95.027 -45.979
-2.0985 -95.049004 -45.903999
-0.94681001 -94.920998 -45.768002
5.5692 -95.003998 -45.659
7.5155001 -94.985001 -45.745998
10.724 -95.121002 -46.025002
-4.4123001 -94.564003 -46.09
-2.178 -94.459999 -45.729
9.4376001 -94.598999 -45.712002
10.902 -94.438004 -45.782001
11.713 -94.554001 -45.933998
-4.415 -94.010002 -45.883999
12.513 -94.003998 -45.772999
-5.7898002 -93.113998 -45.813
13.657 -93.483002 -45.73
-6.6645002 -92.416 -45.821999
15.223 -92.504997 -45.629002
16.426001 -92.554001 -46.009998
-7.4168 -92.000999 -46.008999
18.153999 -91.530998 -46.228001
-7.0901999 -91.643997 -45.764
-8.8121996 -90.587997 -46.192001
17.837999 -90.753998 -45.730999
18.583 -90.500999 -45.903
18.632 -89.772003 -45.571999
-8.5490999 -89.778 -45.889999
19.583 -88.500999 -45.428001
21.181 -87.542999 -45.779999
-9.5815001 -87.874001 -45.823002
-10.411 -86.486 -45.743999
21.18 -86.859001 -45.373001
-11.156 -86.595001 -46.224998
22.839001 -86.015999 -45.987
-11.456 -85.050003 -45.673
-12.322 -84.726997 -46.104
-11.948 -84.571999 -45.719002
-12.458 -84.036003 -45.672001
24.653999 -83.398003 -45.918999
-13.321 -83.441002 -45.799999
24.914 -82.987999 -45.876999
-14.904 -82.611 -46.162998
25.107 -82.530998 -45.68
-15.952 -81.260002 -45.740002
-17.111 -79.500999 -45.741001
-17.271 -79.000999 -45.741001
-17.379 -78.727997 -45.32
28.559 -77.913002 -45.775002
-18.799 -76.935997 -45.741001
-18.408001 -77.157997 -45.998001
-19.948999 -76.408997 -45.748001
-19.43 -76.669998 -45.808998
-20.993999 -76.023003 -45.749001
-22.417 -75.348 -45.741001
30.09 -74.650002 -45.346001
-24.051001 -74.593002 -45.749001
-23.375999 -74.833 -45.756001
30.584 -74.031998 -45.763
-24.917 -74.174004 -45.741001
-26.974001 -72.542999 -45.741001
-27.917 -72.114998 -46.241001
-27.417 -72.273003 -45.741001
-29.83 -71.484001 -45.796001
-28.917 -71.653 -45.741001
-28.417 -71.813004 -45.741001
-31.916 -71 -45.742001
-33.952999 -70.595001 -46.194
-33.157001 -70.514 -45.668999
-32.417 -70.791 -45.741001
-35.047001 -70.026001 -46.183998
-34.138 -70.105003 -45.625
-35.421001 -69.503998 -45.731998
-34.917 -69.766998 -45.741001
-35.917 -69.148003 -45.741001
-36.873001 -68.425003 -45.778999
-36.348 -68.981003 -45.823002
-37.407001 -67.997002 -45.757
-38.021999 -67.749001 -45.870998
31.326 -67.985001 -45.743
-39.308998 -66.957001 -45.689999
-41.902 -66.767998 -46.249001
-41.320999 -66.764 -46.16
-40.895 -66.496002 -45.745998
-40.377998 -66.651001 -45.691002
31.083 -66.387001 -45.742001
-42.804001 -65.771004 -45.597
-55.373001 -65.471001 -45.741001
-54.917 -65.693001 -45.741001
-54.417 -65.858002 -45.741001
-53.848999 -65.835999 -45.73
-52.917 -65.889999 -45.741001
-49.884998 -65.603996 -45.786999
-48.918999 -65.689003 -45.737999
-47.666 -65.672997 -45.778999
-46.879002 -65.505997 -45.719002
-46.417 -65.468002 -45.790001
-45.917 -65.460999 -45.793999
-45.160999 -65.516998 -45.743
-43.917 -65.57 -45.669998
-43.424 -65.815002 -45.771
-55.896999 -64.992996 -45.783001
-56.417 -64.703003 -45.741001
-56.417 -65.000999 -46.063999
-25.417 -64.086998 -46.030998
-24.417 -64.473999 -46.277
-23.808001 -64.285004 -45.971001
-23.417 -64.059998 -45.653
-22.827999 -64.093002 -45.696999
-26.917 -63.455002 -45.800999
-26.424 -63.501999 -45.737
-26.042999 -63.863998 -46.042
-20.174 -63.500999 -45.741001
-27.479 -63.217999 -45.752998
-28.554001 -62.547001 -45.723
-29.691 -62.028999 -45.731998
-34.417 -61.487 -45.766998
-35.049 -61.493999 -45.727001
-33.013 -61.495998 -45.785
-32.395 -61.609001 -46.119999
-31.711 -61.491001 -45.689999
-30.607 -61.730999 -45.743999
-19.452 -61.500999 -45.741001
-19.624001 -62.000999 -45.741001
-36.785 -61.040001 -45.740002
-36.333 -61.195 -45.743
-37.417 -60.782001 -45.741001
28.948 -60.731998 -46.158001
-39.401001 -59.993999 -45.75
-38.445 -60.499001 -45.700001
-40.417 -59.917999 -45.741001
-39.917 -59.867001 -45.741001
-43.027 -59.005001 -45.736
-41.912998 -59.367001 -45.743999
-41.428001 -59.372002 -45.743
-18.445 -59.219002 -45.716
28.299999 -59.500999 -45.741001
-44.730999 -58.500999 -45.741001
-43.957001 -58.792999 -45.740002
-43.417 -58.978001 -45.741001
-42.417 -58.500999 -45.997002
-42.417 -58.888 -45.741001
-42.167 -58.500999 -45.741001
-17.937 -57.93 -45.660999
27.584 -58.685001 -46.320999
-44.917 -58.254002 -45.741001
-45.007 -57.944 -45.653999
-44.417 -58.000999 -45.919998
-43.911999 -58.037998 -45.863998
-43.466 -58.000999 -45.741001
-46.129002 -57.521999 -45.740002
-44.917 -57.500999 -45.785999
-44.417 -57.500999 -46.173
-43.917 -57.500999 -46.120998
-17.902 -57.492001 -45.971001
-46.415001 -57.292 -45.738998
-44.917 -57.283001 -45.741001
-17.223 -56.713001 -45.658001
-47.366001 -56.465 -45.992001
-46.917 -56.771 -45.991001
26.055 -56.73 -45.971001
-47.917 -56.215 -45.741001
-48.412998 -55.999001 -45.730999
25.174 -55.908001 -46.199001
-48.917 -55.879002 -45.741001
-16.896 -55.626999 -45.698002
24.664 -55.446999 -45.741001
-50.417 -55.09 -45.741001
-49.881001 -55.300999 -45.786999
-16.768 -55.001999 -45.873001
24.01 -55.007 -45.792999
22.981001 -54.032001 -45.900002
-15.861 -53.625999 -45.703999
22.570999 -53.550999 -45.952
21.982 -53.068001 -46.179001
-15.4 -52.633999 -45.625
-14.921 -51.957001 -45.800999
20.077 -51.470001 -45.987
20.76 -51.964001 -45.869999
-13.959 -50.469002 -45.757
18.580999 -50.509998 -45.859001
18.062 -50.016998 -45.693001
17.620001 -49.494999 -45.587002
-13.026 -49.331001 -45.907001
-12.411 -48.506001 -45.723
-11.925 -47.979 -45.751999
16.150999 -48.056 -45.518002
-11.493 -47.500999 -45.817001
14.798 -47.668999 -46.243
14.465 -46.525002 -45.245998
12.886 -46.473 -46.271
-11.782 -46.176998 -45.201
-10.386 -46.507 -46.256001
12.018 -45.473 -45.465
-9.9854002 -44.469002 -45.768002
10.064 -44.584999 -45.202999
-9.3961 -44.014 -45.710999
7.2322001 -43.995998 -45.723
8.1268997 -44.237 -45.733002
-8.8835001 -44.057999 -46.151001
-8.1920996 -43.548 -45.842999
5.3171 -43.443001 -45.778999
-6.7195001 -42.974998 -45.750999
3.5729001 -42.949001 -45.889
4.3175001 -43.039001 -45.764
-5.9063001 -42.556 -45.659
-4.6788001 -42.415001 -45.783001
-0.20204 -42.771999 -46.229
-3.1050999 -42.439999 -45.986
-2.4168 -42.005001 -45.737999
-1.4168 -42.014999 -45.73
-0.41685 -42.044998 -45.707001
0.44733 -95.010002 -45.645
1.5628999 -95 -45.595001
3.8861001 -95 -45.592999
0.65152001 -94.462997 -45.415001
2.0009999 -94.417999 -45.298
3.3394001 -94.443001 -45.294998
4.6156998 -94.359001 -45.273998
5.7259998 -94.511002 -45.435001
7.3551998 -94.513 -45.511002
8.5032997 -94.482002 -45.601002
-3.0938001 -94.396004 -45.799
-1.2763 -93.725998 -45.221001
-0.59279001 -94.510002 -45.556
0.42423999 -94.124001 -45.255001
7.2747998 -94.055 -45.229
-3.1224999 -93.558998 -45.455002
-2.1259999 -93.475998 -45.233002
9.9850998 -93.656998 -45.27
11.106 -93.065002 -45.055
11.855 -93.161003 -45.207001
12.56 -92.863998 -45.164001
-5.6668 -92.500999 -45.597
-5.0142999 -93.087997 -45.605999
-3.9138999 -92.001999 -45.062
13.624 -92.829002 -45.358002
-6.4168 -91.750999 -45.595001
-5.7293 -91.625999 -45.422001
15.311 -91.769997 -45.332001
-7.1511998 -90.690002 -45.542
-6.6188002 -90.115997 -45.264
-7.6668 -89.750999 -45.527
17.801001 -89.612999 -45.146999
-8.7016001 -88.954002 -45.705002
-7.8151999 -88.440002 -45.257
18.898001 -88.782997 -45.224998
19.865 -88.016998 -45.327999
-8.8687 -88.143997 -45.59
-7.9432001 -87.919998 -45.131001
-8.9412003 -87.032997 -45.217999
-10.832 -85.718002 -45.629002
-9.6561003 -86.137001 -45.259998
22.082001 -86.499001 -45.742001
22.077999 -85.209 -45
23.08 -85.057999 -45.616001
-11.92 -84.002998 -45.236
-12.795 -83.475998 -45.278999
23.576 -83.559998 -45.109001
24.055 -83.836998 -45.679001
24.122 -83.096001 -45.202
-14.464 -82.472 -45.312
-13.251 -82.969002 -44.751999
25.476 -82.150002 -45.623001
-15.435 -81.725998 -45.395
26.120001 -81.397003 -45.384998
-15.988 -81.087997 -45.241001
26.542 -81.061996 -45.584
-16.466999 -80.584 -45.374001
26.997 -80.5 -45.681
-16.909 -79.940002 -45.457001
27.333 -79.337997 -45.233002
-17.698999 -78.014 -45.380001
27.964001 -78.259003 -45.229
-17.966999 -77.569 -45.382999
28.856001 -77.378998 -45.792999
-20.051001 -76.311996 -45.118
29.169001 -76.211998 -45.257
-20.917999 -76.000999 -45.236
-21.417 -75.783997 -45.241001
-23.917 -74.670998 -45.241001
-23.379 -74.821999 -45.249001
-24.975 -74.165001 -45.240002
-24.424999 -74.359001 -45.263
30.177999 -74.009003 -45.026001
-25.413 -73.878998 -45.743999
-26.013 -73.495003 -45.741001
-26.490999 -73.000999 -45.758999
-26.375999 -72.959 -45.241001
-25.848 -73.488998 -45.236
-26.924 -72.507004 -45.215
-28.045 -72.032997 -45.709
-27.452 -72.014999 -45.186001
-29.431 -71.599998 -45.692001
-28.868 -71.403 -45.202999
-27.917 -71.817001 -45.241001
-30.809999 -71.031998 -45.278999
-29.753 -71.328003 -45.262001
-31.48 -71.011002 -45.573002
-33.548 -70.066002 -45.223
-32.811001 -70.403999 -45.368999
-34.455002 -69.577003 -45.159
-35.43 -69.010002 -45.223
-36.037998 -68.552002 -45.191002
-37.395 -67.464996 -45.256001
-37.905998 -67.122002 -45.242001
-41.688999 -65.853996 -45.397999
-40.542999 -66.042999 -45.172001
-54.917 -65.454002 -45.300999
-54.417 -65.481003 -45.272999
-53.910999 -65.497002 -45.243999
-53.028 -65.510002 -44.874001
-52.422001 -65.835999 -45.726002
-51.786999 -65.793999 -45.646999
-50.928001 -65.672997 -45.487999
-50.417 -65.605003 -45.241001
-49.784 -65.491997 -45.250999
-48.917 -65.536003 -45.158001
-47.765999 -65.491997 -45.283001
-42.769001 -65.257004 -45.144001
-55.417 -65.200996 -45.241001
-45.862999 -64.976997 -45.242001
-44.917 -65.036003 -45.206001
-44.384998 -65.223 -45.391998
-55.794998 -64.824997 -45.237999
-56.417 -64.502998 -45.241001
-22.417 -63.950001 -45.341
-21.768 -64.023003 -45.252998
-20.922001 -63.951 -45.307999
-25.482 -63.499001 -45.252998
-24.604 -63.583 -45.140999
-23.917 -63.674 -45.241001
-23.032 -63.93 -45.367001
-20.403999 -63.845001 -45.473999
-20.263 -63.500999 -45.241001
30.549999 -64.092003 -45.651001
-27.341999 -62.946999 -45.275002
-26.417 -63.214001 -45.241001
-19.919001 -63.081001 -45.391998
-28 -62.547001 -45.241001
30.016001 -62.23 -44.828999
-28.934999 -62.081001 -45.223
29.594 -61.575001 -45.455002
-35.624001 -61.192001 -45.262001
-34.917 -61.338001 -45.241001
-34.417 -61.379002 -45.241001
-33.941002 -61.459 -45.610001
-32.952999 -61.367001 -45.271
-32.147999 -61.257999 -45.199001
-31.403999 -61.389 -45.248001
29.194 -60.771999 -45.241001
-38.189999 -60.500999 -45.241001
-37.417 -60.729 -45.241001
-36.869999 -60.945999 -45.182999
-18.923 -60.990002 -45.036999
-38.561001 -60.000999 -45.241001
-38.417 -60.224998 -45.241001
-40.949001 -59.650002 -45.723
-40.417 -59.500999 -45.511002
-39.917 -59.500999 -45.610001
-39.417 -59.500999 -45.533001
-39.146999 -59.500999 -45.241001
-38.921001 -59.842999 -45.25
-18.457001 -60.087002 -44.952
-42.380001 -59.006001 -45.57
-41.417 -59.000999 -45.466999
-44.429001 -58.505001 -45.660999
-43.917 -58.500999 -45.528
-43.417 -58.500999 -45.428001
-42.936001 -58.509998 -45.647999
-45.429001 -58.060001 -45.685001
-45.917 -57.500999 -45.551998
-45.390999 -57.514999 -45.659
-17.409 -57.507 -45.247002
-46.888 -57.001999 -45.250999
-46.417 -57.000999 -45.400002
-45.937 -57.085999 -45.229
-45.417 -57.347 -45.241001
26.542 -57.035 -45.453999
-46.417 -56.702999 -45.241001
-16.816999 -56.507999 -45.007
-48.919998 -56.001999 -45.237999
-48.417 -56.154999 -45.241001
-47.925999 -56.000999 -45.248001
-47.416 -56.001999 -45.367001
25.068001 -55.726002 -45.712002
