# .PCD v0.7 - Point Cloud Data file format
VERSION 0.7
FIELDS x y z
SIZE 4 4 4
TYPE F F F
COUNT 1 1 1
WIDTH 1769
HEIGHT 1
VIEWPOINT 0 0 0 1 0 0 0
POINTS 1769
DATA ascii
39.75 3.46 -597.09998
40.389999 3.47 -598.44
41.02 3.47 -599.59998
41.689999 3.48 -601.29999
42.32 3.49 -602.37
42.98 3.5 -603.79999
43.619999 3.5 -605.10999
44.259998 3.51 -606.15997
44.900002 3.52 -607.29999
45.560001 3.53 -608.71997
46.200001 3.53 -609.77002
46.860001 3.54 -611.06
47.540001 3.55 -612.60999
48.290001 3.5599999 -614.90997
48.98 3.5699999 -616.48999
49.669998 3.5799999 -617.97998
50.360001 3.5899999 -619.5
51.09 3.5999999 -621.39001
51.799999 3.6099999 -623.14001
52.52 3.6199999 -624.82001
53.220001 3.6300001 -626.32001
53.950001 3.6400001 -628.15002
54.68 3.6500001 -629.83002
55.400002 3.6600001 -631.41998
56.110001 3.6700001 -632.87
56.849998 3.6800001 -634.69
57.610001 3.6900001 -636.58002
58.48 3.71 -639.65002
59.349998 3.73 -642.69
60.16 3.74 -644.96002
-162.02 2.9300001 -600.15997
-161.5 2.9300001 -600.26001
-161 2.9300001 -600.46002
-160.49001 2.9300001 -600.60999
-160.00999 2.9300001 -600.88
-159.55 2.9300001 -601.21002
-159.12 2.9300001 -601.65997
-158.74001 2.9400001 -602.28003
-158.36 2.9400001 -602.95001
-157.94 2.9400001 -603.45001
-157.53999 2.95 -604
-157.09 2.95 -604.40002
-156.67999 2.95 -604.96002
-156.27 2.95 -605.51001
-155.82001 2.96 -605.90997
-155.46001 2.96 -606.66998
-155.12 2.96 -607.48999
-154.8 2.97 -608.42999
-154.50999 2.97 -609.46002
-154.21001 2.98 -610.46002
-153.85001 2.98 -611.27002
-153.45 2.99 -611.87
-151.14 3.05 -625.34998
-150.66 3.05 -625.76001
-150.17 3.0599999 -626.09998
-149.74001 3.0599999 -626.69
-107.78 2.8800001 -589.73999
-107.05 2.8699999 -588.71997
-106.42 2.8699999 -588.19
-105.71 2.8599999 -587.29999
-105.1 2.8599999 -586.90997
-104.46 2.8599999 -586.32001
-103.84 2.8599999 -585.85999
-103.22 2.8499999 -585.42999
-102.62 2.8499999 -585.07001
-102 2.8499999 -584.59998
-101.42 2.8499999 -584.32001
-100.81 2.8499999 -583.91998
-100.23 2.8399999 -583.65997
-99.639999 2.8399999 -583.33002
-99.029999 2.8399999 -582.90002
-98.449997 2.8399999 -582.63
-97.870003 2.8399999 -582.39001
-97.290001 2.8399999 -582.13
-96.720001 2.8399999 -581.90002
-96.139999 2.8299999 -581.64001
-95.57 2.8299999 -581.40997
-95 2.8299999 -581.17999
-94.449997 2.8299999 -581.06
-93.889999 2.8299999 -580.94
-93.339996 2.8299999 -580.81
-92.769997 2.8299999 -580.60999
-92.230003 2.8299999 -580.53998
-91.669998 2.8299999 -580.37
-91.120003 2.8299999 -580.28003
-90.589996 2.8299999 -580.25
-90.040001 2.8299999 -580.15002
-89.489998 2.8299999 -580.03998
-88.949997 2.8299999 -580
-88.410004 2.8299999 -579.91998
-87.870003 2.8299999 -579.90002
-87.339996 2.8299999 -579.87
-86.800003 2.8299999 -579.83002
-86.25 2.8299999 -579.75
-85.720001 2.8299999 -579.72998
-85.199997 2.8299999 -579.78998
-84.660004 2.8299999 -579.76001
-84.129997 2.8299999 -579.76001
-83.589996 2.8299999 -579.71997
-83.080002 2.8299999 -579.83002
-82.540001 2.8299999 -579.77002
-82 2.8299999 -579.77002
-81.480003 2.8299999 -579.81
-80.940002 2.8299999 -579.78998
-80.410004 2.8299999 -579.78003
-79.889999 2.8299999 -579.85999
-79.370003 2.8299999 -579.94
-78.839996 2.8299999 -579.95001
-78.309998 2.8299999 -579.98999
-77.779999 2.8299999 -579.98999
-77.260002 2.8299999 -580.06
-76.730003 2.8299999 -580.09998
-76.199997 2.8299999 -580.13
-75.68 2.8299999 -580.19
-75.150002 2.8299999 -580.23999
-74.629997 2.8299999 -580.28998
-74.099998 2.8299999 -580.34003
-73.580002 2.8299999 -580.40997
-73.059998 2.8299999 -580.46997
-72.540001 2.8299999 -580.56
-72.019997 2.8299999 -580.67999
-71.489998 2.8299999 -580.73999
-70.970001 2.8299999 -580.84003
-70.449997 2.8299999 -580.91998
-69.93 2.8299999 -581.03003
-69.410004 2.8299999 -581.12
-68.889999 2.8299999 -581.26001
-68.379997 2.8299999 -581.40997
-67.860001 2.8299999 -581.52002
-67.339996 2.8299999 -581.65997
-66.82 2.8299999 -581.76001
-66.309998 2.8399999 -581.94
-65.790001 2.8399999 -582.09003
-65.269997 2.8399999 -582.21997
-64.75 2.8399999 -582.28998
-64.220001 2.8399999 -582.39001
-63.700001 2.8399999 -582.48999
-63.189999 2.8399999 -582.67999
-62.669998 2.8399999 -582.81
-62.150002 2.8399999 -582.95001
-61.630001 2.8399999 -583.06
-61.110001 2.8399999 -583.17999
-60.580002 2.8399999 -583.31
-60.07 2.8399999 -583.46002
-59.540001 2.8399999 -583.59003
-59.009998 2.8399999 -583.65002
-58.490002 2.8399999 -583.75
-57.959999 2.8399999 -583.84003
-57.439999 2.8499999 -583.98999
-56.919998 2.8499999 -584.09003
-56.400002 2.8499999 -584.26001
-55.880001 2.8499999 -584.37
-55.349998 2.8499999 -584.46997
-54.830002 2.8499999 -584.64001
-54.299999 2.8499999 -584.73999
-53.779999 2.8499999 -584.88
-53.25 2.8499999 -585
-52.73 2.8499999 -585.13
-52.209999 2.8499999 -585.25
-51.689999 2.8499999 -585.44
-51.16 2.8499999 -585.59998
-50.639999 2.8499999 -585.70001
-50.119999 2.8499999 -585.90997
-49.59 2.8599999 -586.06
-49.07 2.8599999 -586.20001
-48.549999 2.8599999 -586.42999
-48.02 2.8599999 -586.57001
-47.5 2.8599999 -586.70001
-46.970001 2.8599999 -586.85999
-46.450001 2.8599999 -587
-45.919998 2.8599999 -587.19
-45.389999 2.8599999 -587.27002
-44.869999 2.8599999 -587.46002
-44.34 2.8599999 -587.59003
-43.810001 2.8599999 -587.65997
-43.279999 2.8599999 -587.78003
-42.75 2.8599999 -587.96002
-42.23 2.8699999 -588.15997
-41.689999 2.8699999 -588.27002
-41.169998 2.8699999 -588.41998
-40.630001 2.8699999 -588.51001
-40.099998 2.8699999 -588.59998
-39.57 2.8699999 -588.77002
-39.040001 2.8699999 -588.87
-38.509998 2.8699999 -589.03998
-37.98 2.8699999 -589.13
-37.450001 2.8699999 -589.25
-36.919998 2.8699999 -589.40997
-36.380001 2.8699999 -589.51001
-35.849998 2.8699999 -589.60999
-35.310001 2.8699999 -589.65997
-34.779999 2.8699999 -589.76001
-34.240002 2.8699999 -589.81
-33.700001 2.8699999 -589.89001
-33.16 2.8699999 -589.94
-32.630001 2.8699999 -590
-32.09 2.8800001 -590.09998
-31.549999 2.8800001 -590.08002
-31.01 2.8800001 -590.13
-30.469999 2.8800001 -590.06
-29.92 2.8699999 -589.98999
-29.379999 2.8699999 -589.95001
-28.84 2.8699999 -589.91998
-28.290001 2.8699999 -589.84998
-27.75 2.8699999 -589.75
-27.200001 2.8699999 -589.52002
-26.639999 2.8699999 -589.19
-26.08 2.8699999 -588.78998
-25.540001 2.8699999 -588.63
-25 2.8699999 -588.62
-24.450001 2.8699999 -588.52002
-23.91 2.8699999 -588.46997
-23.370001 2.8699999 -588.47998
-22.83 2.8699999 -588.44
-22.299999 2.8699999 -588.45001
-21.76 2.8699999 -588.57001
-21.219999 2.8699999 -588.64001
-20.690001 2.8699999 -588.76001
-20.15 2.8699999 -588.89001
-19.620001 2.8699999 -589.12
-19.09 2.8699999 -589.28998
-18.559999 2.8699999 -589.56
-18.02 2.8699999 -589.81
-17.49 2.8800001 -590.09998
-16.959999 2.8800001 -590.34998
-16.43 2.8800001 -590.78998
-15.9 2.8800001 -591.17999
-15.37 2.8800001 -591.54999
-14.83 2.8800001 -591.78003
-14.3 2.8800001 -592.02002
-13.76 2.8900001 -592.13
-13.21 2.8800001 -592.03998
-12.67 2.8900001 -592.22998
-12.14 2.8900001 -592.59003
-11.6 2.8900001 -592.88
-11.06 2.8900001 -593.13
-10.52 2.8900001 -593.31
-9.9799995 2.8900001 -593.33002
-9.4399996 2.8900001 -593.5
-8.8999996 2.8900001 -593.83002
-8.3599997 2.9000001 -594.16998
-7.8200002 2.9000001 -594.73999
-7.29 2.9000001 -595.45001
-6.75 2.9100001 -596.70001
-6.2199998 2.9200001 -598.29999
-5.6799998 2.9200001 -598.96997
-5.1399999 2.9200001 -599.15997
-4.5900002 2.9200001 -599.25
-4.04 2.9200001 -599.21997
-3.49 2.9200001 -599.29999
-2.9400001 2.9200001 -599.41998
-2.3900001 2.9200001 -599.59998
-1.84 2.9200001 -599.72998
-1.29 2.9200001 -599.89001
-0.74000001 2.9200001 -600.03998
-0.19 2.9300001 -600.28998
0.36000001 2.9300001 -600.67999
0.91000003 2.9300001 -601.23999
2.6700001 3.05 -626.13
3.25 3.0599999 -626.78003
3.8199999 3.0599999 -627.07001
4.4000001 3.0599999 -626.94
4.9699998 3.0599999 -626.87
5.54 3.0599999 -626.47998
6.1100001 3.05 -626.19
6.6900001 3.05 -626.09998
7.2600002 3.05 -626.21997
7.8299999 3.05 -626.08002
8.3999996 3.05 -625.67999
8.9700003 3.05 -625.28998
9.54 3.05 -625.23999
10.11 3.05 -625.03998
10.68 3.05 -624.56
11.25 3.04 -624.23999
11.82 3.04 -624.19
12.38 3.04 -623.70001
12.94 3.04 -623.27002
13.51 3.04 -622.90002
14.07 3.04 -622.71997
14.63 3.03 -622.10999
15.19 3.03 -621.77002
15.74 3.03 -620.94
16.280001 3.02 -619.95001
16.82 3.02 -618.84998
17.370001 3.01 -618.31
17.93 3.01 -617.82001
18.469999 3.01 -617.03998
19.030001 3.01 -616.91998
19.59 3.01 -616.78003
20.129999 3 -615.78998
20.66 3 -615.02002
21.190001 2.99 -614.01001
21.73 2.99 -613.28003
22.26 2.99 -612.32001
22.780001 2.98 -611.46002
23.26 2.97 -609.38
23.709999 2.96 -606.42999
23.76 2.9000001 -594.16998
24.27 2.8900001 -593.28998
24.77 2.8900001 -592.29999
25.290001 2.8800001 -591.73999
25.809999 2.8800001 -591.13
26.33 2.8800001 -590.62
26.85 2.8800001 -590.27002
27.379999 2.8699999 -590
27.91 2.8699999 -589.85999
28.450001 2.8699999 -589.77002
28.99 2.8699999 -589.82001
29.540001 2.8699999 -589.90997
30.08 2.8699999 -590
30.6 2.8699999 -589.64001
31.120001 2.8699999 -589.21997
31.66 2.8699999 -589.09998
32.189999 2.8699999 -589.09998
32.740002 2.8699999 -589.23999
33.290001 2.8699999 -589.45001
33.849998 2.8699999 -589.71997
34.41 2.8800001 -590.09998
34.98 2.8800001 -590.52002
35.549999 2.8800001 -591.04999
36.130001 2.8800001 -591.60999
36.73 2.8900001 -592.47998
37.310001 2.8900001 -593.17999
37.919998 2.9000001 -594.15002
38.52 2.9000001 -595.01001
39.139999 2.9000001 -596.04999
39.759998 2.9100001 -597.16998
40.389999 2.9200001 -598.42999
41.040001 2.9200001 -599.87
41.689999 2.9300001 -601.34003
42.330002 2.9400001 -602.54999
42.990002 2.9400001 -604.07001
43.630001 2.95 -605.19
44.27 2.96 -606.40002
44.919998 2.96 -607.59003
45.57 2.97 -608.83002
46.220001 2.97 -610
46.880001 2.98 -611.32001
47.57 2.99 -612.95001
48.310001 3 -615.13
48.98 3.01 -616.44
49.700001 3.02 -618.33002
50.400002 3.02 -619.96002
51.110001 3.03 -621.69
51.810001 3.04 -623.25
52.549999 3.05 -625.14001
53.240002 3.0599999 -626.53003
53.990002 3.0699999 -628.53003
54.720001 3.0699999 -630.28003
55.439999 3.0799999 -631.94
56.150002 3.0899999 -633.35999
56.939999 3.0999999 -635.59998
57.700001 3.1099999 -637.56
58.630001 3.1300001 -641.32001
59.509998 3.1400001 -644.38
60.360001 3.1600001 -647.16998
-161.22 2.3699999 -599.26001
-160.82001 2.3800001 -599.78003
-160.34 2.3800001 -600.06
-159.92999 2.3800001 -600.58002
-159.52 2.3800001 -601.09998
-159.10001 2.3800001 -601.57001
-158.67999 2.3800001 -602.08002
-158.28 2.3900001 -602.62
-157.83 2.3900001 -603.02002
-157.36 2.3900001 -603.33002
-156.89999 2.3900001 -603.69
-156.47 2.3900001 -604.15997
-156.03999 2.3900001 -604.62
-155.69 2.4000001 -605.42999
-155.25 2.4000001 -605.84998
-154.92 2.4000001 -606.71002
-154.59 2.4100001 -607.60999
-154.25999 2.4100001 -608.5
-154 2.4100001 -609.65997
-153.61 2.4200001 -610.31
-153.21001 2.4200001 -610.94
-152.2 2.45 -618.10999
-151.74001 2.45 -618.53998
-151.25999 2.45 -618.90002
-151.03 2.48 -624.92999
-150.59 2.48 -625.44
-150.13 2.48 -625.92999
-149.72 2.48 -626.62
-149.34 2.49 -627.40002
-109.02 2.3399999 -590.59998
-108.31 2.3299999 -589.65002
-107.62 2.3299999 -588.85999
-106.94 2.3299999 -588.13
-106.29 2.3299999 -587.5
-105.64 2.3199999 -586.90002
-105 2.3199999 -586.34003
-104.38 2.3199999 -585.88
-103.76 2.3199999 -585.40997
-103.15 2.3199999 -585
-102.55 2.3099999 -584.65002
-101.93 2.3099999 -584.21002
-101.34 2.3099999 -583.89001
-100.76 2.3099999 -583.60999
-100.16 2.3099999 -583.28003
-99.57 2.3099999 -582.92999
-98.980003 2.3099999 -582.63
-98.389999 2.3 -582.33002
-97.82 2.3 -582.09998
-97.239998 2.3 -581.84003
-96.68 2.3 -581.67999
-96.099998 2.3 -581.38
-95.540001 2.3 -581.20001
-94.959999 2.3 -580.95001
-94.410004 2.3 -580.84003
-93.849998 2.3 -580.65002
-93.300003 2.3 -580.53998
-92.739998 2.3 -580.42999
-92.190002 2.3 -580.31
-91.650002 2.3 -580.26001
-91.089996 2.3 -580.09003
-90.550003 2.3 -580.03998
-90.010002 2.29 -579.95001
-89.459999 2.29 -579.84003
-88.93 2.29 -579.83002
-88.379997 2.29 -579.72998
-87.849998 2.29 -579.73999
-87.32 2.29 -579.73999
-86.779999 2.29 -579.71997
-86.239998 2.29 -579.67999
-85.699997 2.29 -579.62
-85.169998 2.29 -579.59003
-84.629997 2.29 -579.57001
-84.099998 2.29 -579.59003
-83.589996 2.29 -579.67999
-83.050003 2.29 -579.64001
-82.510002 2.29 -579.59998
-81.989998 2.29 -579.66998
-81.459999 2.29 -579.65997
-80.93 2.29 -579.70001
-80.400002 2.29 -579.72998
-79.870003 2.29 -579.73999
-79.349998 2.29 -579.79999
-78.809998 2.29 -579.75
-78.290001 2.29 -579.84998
-77.760002 2.29 -579.84998
-77.239998 2.29 -579.96002
-76.699997 2.29 -579.90002
-76.18 2.29 -579.95001
-75.660004 2.29 -580.02002
-75.129997 2.3 -580.09003
-74.610001 2.3 -580.16998
-74.089996 2.3 -580.21997
-73.559998 2.3 -580.26001
-73.050003 2.3 -580.39001
-72.519997 2.3 -580.42999
-72 2.3 -580.53003
-71.470001 2.3 -580.57001
-70.959999 2.3 -580.75
-70.440002 2.3 -580.83002
-69.919998 2.3 -580.90997
-69.400002 2.3 -581.03998
-68.879997 2.3 -581.13
-68.349998 2.3 -581.20001
-67.839996 2.3 -581.33002
-67.32 2.3 -581.46997
-66.800003 2.3 -581.59003
-66.279999 2.3 -581.72998
-65.769997 2.3 -581.85999
-65.25 2.3 -581.97998
-64.730003 2.3 -582.17999
-64.209999 2.3 -582.27002
-63.68 2.3 -582.32001
-63.169998 2.3 -582.47998
-62.650002 2.3099999 -582.62
-62.130001 2.3099999 -582.73999
-61.599998 2.3099999 -582.83002
-61.09 2.3099999 -583.01001
-60.560001 2.3099999 -583.09998
-60.040001 2.3099999 -583.26001
-59.529999 2.3099999 -583.44
-59 2.3099999 -583.47998
-58.470001 2.3099999 -583.53003
-57.950001 2.3099999 -583.66998
-57.419998 2.3099999 -583.76001
-56.91 2.3099999 -583.95001
-56.389999 2.3099999 -584.12
-55.860001 2.3099999 -584.21002
-55.330002 2.3099999 -584.26001
-54.810001 2.3099999 -584.40002
-54.279999 2.3099999 -584.53003
-53.759998 2.3099999 -584.65997
-53.240002 2.3099999 -584.82001
-52.709999 2.3099999 -584.88
-52.18 2.3099999 -584.94
-51.650002 2.3099999 -585.06
-51.130001 2.3199999 -585.26001
-50.610001 2.3199999 -585.44
-50.09 2.3199999 -585.59003
-49.57 2.3199999 -585.73999
-49.040001 2.3199999 -585.89001
-48.52 2.3199999 -586.03003
-47.990002 2.3199999 -586.15997
-47.459999 2.3199999 -586.31
-46.939999 2.3199999 -586.45001
-46.419998 2.3199999 -586.62
-45.889999 2.3199999 -586.77002
-45.360001 2.3199999 -586.89001
-44.84 2.3199999 -587.06
-44.310001 2.3199999 -587.19
-43.779999 2.3199999 -587.31
-43.25 2.3199999 -587.40002
-42.709999 2.3199999 -587.46997
-42.189999 2.3299999 -587.65997
-41.66 2.3299999 -587.81
-41.130001 2.3299999 -587.96002
-40.610001 2.3299999 -588.10999
-40.07 2.3299999 -588.22998
-39.549999 2.3299999 -588.38
-39.009998 2.3299999 -588.48999
-38.48 2.3299999 -588.62
-37.950001 2.3299999 -588.71997
-37.41 2.3299999 -588.78003
-36.880001 2.3299999 -588.89001
-36.349998 2.3299999 -589.01001
-35.82 2.3299999 -589.13
-35.279999 2.3299999 -589.17999
-34.75 2.3299999 -589.29999
-34.209999 2.3299999 -589.34003
-33.68 2.3299999 -589.46002
-33.139999 2.3299999 -589.45001
-32.599998 2.3299999 -589.52002
-32.07 2.3299999 -589.64001
-31.530001 2.3299999 -589.66998
-30.99 2.3299999 -589.63
-30.450001 2.3299999 -589.63
-29.9 2.3299999 -589.5
-29.360001 2.3299999 -589.52002
-28.809999 2.3299999 -589.35999
-28.27 2.3299999 -589.28003
-27.719999 2.3299999 -589.20001
-27.18 2.3299999 -589.14001
-26.629999 2.3299999 -588.96002
-26.08 2.3299999 -588.65002
-25.530001 2.3299999 -588.44
-24.99 2.3299999 -588.33002
-24.450001 2.3299999 -588.28003
-23.9 2.3299999 -588.25
-23.360001 2.3299999 -588.21002
-22.82 2.3299999 -588.19
-22.290001 2.3299999 -588.21002
-21.75 2.3299999 -588.27002
-21.209999 2.3299999 -588.38
-20.68 2.3299999 -588.52002
-20.15 2.3299999 -588.72998
-19.610001 2.3299999 -588.89001
-19.08 2.3299999 -589.06
-18.549999 2.3299999 -589.33002
-18.02 2.3299999 -589.56
-17.49 2.3299999 -589.90002
-16.950001 2.3299999 -590.14001
-16.42 2.3399999 -590.5
-15.89 2.3399999 -590.92999
-15.36 2.3399999 -591.25
-14.83 2.3399999 -591.53998
-14.29 2.3399999 -591.76001
-13.75 2.3399999 -592.03998
-13.21 2.3399999 -592.09003
-12.67 2.3399999 -592.32001
-12.14 2.3399999 -592.60999
-11.6 2.3499999 -592.71997
-11.06 2.3499999 -593.06
-10.52 2.3499999 -593.04999
-9.9700003 2.3499999 -593.09003
-9.4300003 2.3499999 -593.27002
-8.8900003 2.3499999 -593.54999
-8.3599997 2.3499999 -594
-7.8200002 2.3499999 -594.45001
-7.2800002 2.3499999 -595.13
-6.75 2.3599999 -596.20001
-6.2199998 2.3699999 -597.83002
-5.6799998 2.3699999 -598.71002
-5.1300001 2.3699999 -598.94
-4.5900002 2.3699999 -599.02002
-4.04 2.3699999 -599.01001
-3.49 2.3699999 -599.09003
-2.9400001 2.3699999 -599.20001
-2.3900001 2.3699999 -599.28003
-1.84 2.3699999 -599.52002
-1.29 2.3699999 -599.77002
-0.74000001 2.3699999 -599.79999
-0.19 2.3699999 -600.03003
0.36000001 2.3800001 -600.32001
0.91000003 2.3800001 -600.90997
1.46 2.3800001 -601.77002
3.24 2.48 -626.59003
3.8199999 2.48 -627.28998
4.4000001 2.49 -627.64001
4.98 2.49 -627.72998
5.5500002 2.49 -627.71002
6.1300001 2.48 -627.38
6.6999998 2.48 -626.96002
7.27 2.48 -626.52002
7.8400002 2.48 -626.41998
8.4099998 2.48 -626.44
8.9799995 2.48 -626.15002
9.5600004 2.48 -625.94
10.13 2.48 -625.75
10.7 2.48 -625.54999
11.26 2.47 -624.78998
11.82 2.47 -624.57001
12.4 2.47 -624.64001
12.97 2.47 -624.53003
13.53 2.47 -624.20001
14.1 2.47 -623.73999
14.66 2.47 -623.57001
15.23 2.47 -623.19
15.78 2.47 -622.62
16.35 2.46 -622.25
16.9 2.46 -621.62
17.459999 2.46 -621.27002
18.02 2.46 -620.94
18.58 2.46 -620.58002
19.120001 2.45 -619.79999
19.67 2.45 -619.04999
20.209999 2.45 -618.25
20.75 2.45 -617.59003
21.290001 2.4400001 -616.69
21.799999 2.4400001 -615.25
22.309999 2.4300001 -613.67999
22.82 2.4200001 -612.48999
23.299999 2.4200001 -610.21997
23.790001 2.4100001 -608.62
23.799999 2.3499999 -595.06
24.27 2.3499999 -593.34998
24.780001 2.3399999 -592.38
25.299999 2.3399999 -591.84998
25.809999 2.3399999 -591.28003
26.33 2.3399999 -590.72998
26.85 2.3399999 -590.34003
27.389999 2.3299999 -590.16998
27.92 2.3299999 -589.91998
28.450001 2.3299999 -589.87
28.99 2.3299999 -589.87
29.540001 2.3299999 -590
30.08 2.3299999 -589.97998
30.620001 2.3299999 -589.84998
31.129999 2.3299999 -589.44
31.67 2.3299999 -589.28998
32.200001 2.3299999 -589.19
32.75 2.3299999 -589.32001
33.299999 2.3299999 -589.47998
33.849998 2.3299999 -589.73999
34.419998 2.3299999 -590.16998
34.98 2.3399999 -590.53003
35.560001 2.3399999 -591.10999
36.130001 2.3399999 -591.62
36.720001 2.3399999 -592.41998
37.32 2.3499999 -593.27002
37.919998 2.3499999 -594.21002
38.529999 2.3499999 -595.10999
39.150002 2.3599999 -596.22998
39.77 2.3599999 -597.38
40.41 2.3699999 -598.70001
41.060001 2.3800001 -600.21002
41.720001 2.3800001 -601.65997
42.360001 2.3900001 -602.88
43.02 2.3900001 -604.38
43.669998 2.4000001 -605.66998
44.310001 2.4000001 -606.91998
44.959999 2.4100001 -608.12
45.599998 2.4100001 -609.23999
46.25 2.4200001 -610.44
46.93 2.4200001 -611.90002
47.610001 2.4300001 -613.41998
48.330002 2.4400001 -615.41998
49 2.4400001 -616.78003
49.700001 2.45 -618.40997
50.41 2.46 -620.10999
51.139999 2.46 -622.09998
51.849998 2.47 -623.70001
52.59 2.48 -625.60999
53.290001 2.48 -627.17999
54.060001 2.49 -629.29999
54.779999 2.5 -630.95001
55.509998 2.51 -632.62
56.25 2.51 -634.46002
57 2.52 -636.32001
57.889999 2.53 -639.59003
58.900002 2.55 -644.16998
59.650002 2.5599999 -645.91998
-161.39 1.8200001 -597.84003
-160.92 1.8200001 -598.14001
-160.58 1.8200001 -598.91998
-160.24001 1.8200001 -599.67999
-159.84 1.83 -600.25
-159.42999 1.83 -600.76001
-159.06 1.83 -601.41998
-158.64 1.83 -601.90997
-158.14999 1.83 -602.15997
-157.64999 1.83 -602.35999
-157.2 1.83 -602.71997
-156.69 1.83 -602.90997
-156.24001 1.84 -603.29999
-155.88 1.84 -604.02002
-155.52 1.84 -604.78003
-155.11 1.84 -605.33002
-154.77 1.84 -606.15002
-154.42 1.85 -606.92999
-154.07001 1.85 -607.73999
-152.94 1.86 -609.90002
-151.98 1.88 -617.22998
-151.53 1.88 -617.70001
-151.07001 1.88 -618.15002
-150.64999 1.88 -618.73999
-150.47 1.9 -624.96997
-150.03999 1.9 -625.57001
-149.61 1.91 -626.16998
-149.17 1.91 -626.70001
-109.53 1.8 -590.39001
-108.87 1.79 -589.75
-108.14 1.79 -588.77002
-107.51 1.79 -588.28003
-106.8 1.79 -587.35999
-106.19 1.79 -586.94
-105.52 1.78 -586.25
-104.92 1.78 -585.90002
-104.29 1.78 -585.40002
-103.68 1.78 -584.96002
-103.08 1.78 -584.63
-102.47 1.78 -584.21002
-101.86 1.78 -583.82001
-101.29 1.77 -583.58002
-100.69 1.77 -583.21997
-100.1 1.77 -582.91998
-99.510002 1.77 -582.59998
-98.93 1.77 -582.32001
-98.349998 1.77 -582.06
-97.779999 1.77 -581.87
-97.190002 1.77 -581.54999
-96.620003 1.77 -581.33002
-96.07 1.77 -581.20001
-95.5 1.77 -580.98999
-94.93 1.77 -580.78003
-94.379997 1.77 -580.64001
-93.82 1.77 -580.47998
-93.260002 1.76 -580.34998
-92.720001 1.76 -580.26001
-92.160004 1.76 -580.13
-91.610001 1.76 -580.01001
-91.059998 1.76 -579.89001
-90.519997 1.76 -579.83002
-89.980003 1.76 -579.77002
-89.440002 1.76 -579.71002
-88.889999 1.76 -579.64001
-88.360001 1.76 -579.58002
-87.82 1.76 -579.59003
-87.290001 1.76 -579.57001
-86.760002 1.76 -579.58002
-86.220001 1.76 -579.48999
-85.68 1.76 -579.46997
-85.160004 1.76 -579.52002
-84.620003 1.76 -579.51001
-84.089996 1.76 -579.52002
-83.559998 1.76 -579.51001
-83.019997 1.76 -579.46997
-82.5 1.76 -579.54999
-81.959999 1.76 -579.48999
-81.440002 1.76 -579.53003
-80.919998 1.76 -579.60999
-80.379997 1.76 -579.59003
-79.849998 1.76 -579.59998
-79.32 1.76 -579.56
-78.800003 1.76 -579.65002
-78.269997 1.76 -579.67999
-77.739998 1.76 -579.71997
-77.220001 1.76 -579.78003
-76.690002 1.76 -579.78998
-76.169998 1.76 -579.84998
-75.639999 1.76 -579.85999
-75.110001 1.76 -579.89001
-74.589996 1.76 -580.02002
-74.07 1.76 -580.06
-73.550003 1.76 -580.19
-73.019997 1.76 -580.17999
-72.5 1.76 -580.28003
-71.970001 1.76 -580.33002
-71.459999 1.76 -580.47998
-70.93 1.76 -580.52002
-70.410004 1.77 -580.59998
-69.889999 1.77 -580.70001
-69.379997 1.77 -580.89001
-68.860001 1.77 -580.96997
-68.339996 1.77 -581.04999
-67.82 1.77 -581.15002
-67.300003 1.77 -581.28998
-66.779999 1.77 -581.45001
-66.269997 1.77 -581.57001
-65.75 1.77 -581.70001
-65.230003 1.77 -581.82001
-64.709999 1.77 -581.98999
-64.190002 1.77 -582.12
-63.669998 1.77 -582.21997
-63.150002 1.77 -582.33002
-62.630001 1.77 -582.40997
-62.110001 1.77 -582.59003
-61.59 1.77 -582.70001
-61.060001 1.77 -582.79999
-60.549999 1.77 -582.95001
-60.02 1.77 -583.06
-59.5 1.77 -583.14001
-58.970001 1.77 -583.26001
-58.450001 1.77 -583.35999
-57.93 1.77 -583.51001
-57.400002 1.77 -583.57001
-56.880001 1.77 -583.70001
-56.349998 1.77 -583.78998
-55.830002 1.78 -583.96002
-55.310001 1.78 -584.03003
-54.790001 1.78 -584.21002
-54.259998 1.78 -584.28003
-53.740002 1.78 -584.40002
-53.209999 1.78 -584.53998
-52.689999 1.78 -584.66998
-52.169998 1.78 -584.82001
-51.639999 1.78 -584.96002
-51.110001 1.78 -585.01001
-50.59 1.78 -585.14001
-50.060001 1.78 -585.23999
-49.540001 1.78 -585.5
-49.009998 1.78 -585.58002
-48.490002 1.78 -585.76001
-47.970001 1.78 -585.91998
-47.439999 1.78 -586.03003
-46.91 1.78 -586.15002
-46.380001 1.78 -586.23999
-45.860001 1.78 -586.39001
-45.330002 1.78 -586.53003
-44.799999 1.78 -586.62
-44.279999 1.78 -586.77002
-43.75 1.78 -586.90002
-43.220001 1.78 -587.04999
-42.689999 1.79 -587.21002
-42.169998 1.79 -587.34003
-41.639999 1.79 -587.44
-41.110001 1.79 -587.58002
-40.580002 1.79 -587.71002
-40.049999 1.79 -587.81
-39.509998 1.79 -587.89001
-38.98 1.79 -588
-38.450001 1.79 -588.15997
-37.919998 1.79 -588.31
-37.389999 1.79 -588.38
-36.860001 1.79 -588.5
-36.32 1.79 -588.53003
-35.779999 1.79 -588.59003
-35.25 1.79 -588.67999
-34.720001 1.79 -588.81
-34.18 1.79 -588.87
-33.650002 1.79 -588.97998
-33.110001 1.79 -589.02002
-32.580002 1.79 -589.09003
-32.040001 1.79 -589.20001
-31.5 1.79 -589.20001
-30.959999 1.79 -589.19
-30.42 1.79 -589.17999
-29.879999 1.79 -589.15002
-29.34 1.79 -589.04999
-28.790001 1.79 -589
-28.25 1.79 -588.95001
-27.709999 1.79 -588.85999
-27.16 1.79 -588.72998
-26.610001 1.79 -588.53003
-26.059999 1.79 -588.28998
-25.52 1.79 -588.17999
-24.969999 1.79 -588.06
-24.440001 1.79 -588.07001
-23.889999 1.79 -587.96002
-23.35 1.79 -587.97998
-22.82 1.79 -588
-22.280001 1.79 -588.02002
-21.74 1.79 -588.09998
-21.209999 1.79 -588.20001
-20.67 1.79 -588.29999
-20.139999 1.79 -588.53003
-19.610001 1.79 -588.70001
-19.07 1.79 -588.88
-18.540001 1.79 -589.13
-18.01 1.79 -589.35999
-17.48 1.79 -589.72998
-16.950001 1.79 -589.97998
-16.42 1.79 -590.28003
-15.88 1.8 -590.59003
-15.35 1.8 -590.95001
-14.82 1.8 -591.28003
-14.29 1.8 -591.65002
-13.75 1.8 -591.88
-13.21 1.8 -592.07001
-12.67 1.8 -592.25
-12.13 1.8 -592.34998
-11.59 1.8 -592.58002
-11.06 1.8 -592.77002
-10.51 1.8 -592.78003
-9.9700003 1.8 -592.81
-9.4300003 1.8 -593.01001
-8.8900003 1.8 -593.33002
-8.3500004 1.8099999 -593.72998
-7.8200002 1.8099999 -594.29999
-7.2800002 1.8099999 -594.87
-6.75 1.8099999 -596.01001
-6.2199998 1.8200001 -597.46997
-5.6799998 1.8200001 -598.51001
-5.1300001 1.8200001 -598.73999
-4.5799999 1.8200001 -598.71997
-4.04 1.8200001 -598.82001
-3.49 1.8200001 -598.88
-2.9400001 1.8200001 -599
-2.3900001 1.8200001 -599.15997
-1.84 1.8200001 -599.21002
-1.29 1.8200001 -599.39001
-0.74000001 1.8200001 -599.58002
-0.19 1.8200001 -599.76001
0.36000001 1.8200001 -600.13
0.91000003 1.83 -600.57001
1.46 1.83 -601.15002
3.8199999 1.91 -627.26001
4.4000001 1.91 -627.79999
4.98 1.91 -627.85999
5.5500002 1.91 -627.87
6.1300001 1.91 -627.83002
6.6999998 1.91 -627.57001
7.27 1.91 -627.21002
7.8499999 1.91 -626.90002
8.4200001 1.91 -626.78003
8.9899998 1.91 -626.57001
9.5600004 1.91 -626.40002
10.13 1.91 -626.15997
10.71 1.91 -626.10999
11.28 1.9 -625.87
11.84 1.9 -625.32001
12.41 1.9 -625.09998
12.98 1.9 -625.09998
13.55 1.9 -624.98999
14.12 1.9 -624.64001
14.68 1.9 -624.06
15.24 1.9 -623.88
15.82 1.9 -623.84003
16.370001 1.9 -623.34998
16.93 1.89 -622.76001
17.5 1.89 -622.62
18.049999 1.89 -622.12
18.610001 1.89 -621.53003
19.17 1.89 -621.26001
19.719999 1.89 -620.71997
20.26 1.89 -619.84998
20.799999 1.88 -619.09003
21.34 1.88 -618.38
21.870001 1.88 -617.08002
22.370001 1.87 -615.38
22.870001 1.87 -613.62
23.360001 1.86 -611.75
23.799999 1.85 -608.81
23.879999 1.8200001 -597.09003
24.290001 1.8099999 -593.75
24.790001 1.8 -592.60999
25.299999 1.8 -591.90997
25.809999 1.8 -591.28998
26.34 1.8 -590.84998
26.860001 1.8 -590.44
27.389999 1.79 -590.17999
27.92 1.79 -590.01001
28.459999 1.79 -590.02002
29 1.79 -589.90997
29.540001 1.79 -590.04999
30.09 1.79 -590.06
30.620001 1.79 -589.92999
31.129999 1.79 -589.41998
31.67 1.79 -589.28998
32.200001 1.79 -589.22998
32.75 1.79 -589.35999
33.299999 1.79 -589.48999
33.860001 1.79 -589.81
34.419998 1.79 -590.23999
34.990002 1.8 -590.69
35.560001 1.8 -591.20001
36.139999 1.8 -591.71002
36.73 1.8 -592.53998
37.32 1.8 -593.28998
37.93 1.8099999 -594.29999
38.540001 1.8099999 -595.25
39.16 1.8099999 -596.34998
39.790001 1.8200001 -597.57001
40.450001 1.8200001 -599.21997
41.099998 1.83 -600.77002
41.75 1.83 -602.13
42.389999 1.84 -603.40997
43.060001 1.84 -605.03003
43.700001 1.84 -606.20001
44.34 1.85 -607.34003
44.98 1.85 -608.41998
45.639999 1.85 -609.67999
46.290001 1.86 -610.89001
46.959999 1.86 -612.31
47.639999 1.87 -613.84003
48.349998 1.87 -615.65002
49.040001 1.88 -617.20001
49.759998 1.88 -619.10999
50.459999 1.89 -620.72998
51.189999 1.89 -622.62
51.900002 1.9 -624.26001
52.669998 1.91 -626.53998
53.369999 1.91 -628.06
54.130001 1.92 -630.15997
54.869999 1.92 -631.98999
55.630001 1.9299999 -634.08002
56.360001 1.9299999 -635.67999
-161.55 1.27 -596.42999
-161.14 1.27 -596.94
-160.74001 1.27 -597.5
-160.44 1.27 -598.38
-160.08 1.27 -599.07001
-159.75999 1.28 -599.94
-159.36 1.28 -600.5
-158.92 1.28 -600.91998
-158.46001 1.28 -601.26001
-158 1.28 -601.58002
-157.42999 1.28 -601.53003
-156.95 1.28 -601.79999
-156.49001 1.28 -602.14001
-156.08 1.28 -602.69
-155.72 1.28 -603.40002
-155.34 1.28 -604.07001
-154.97 1.29 -604.78003
-154.63 1.29 -605.60999
-154.24001 1.29 -606.26001
-153.89 1.29 -607.07001
-153.53999 1.29 -607.87
-153.16 1.29 -608.56
-151.86 1.3099999 -616.76001
-151.42999 1.3099999 -617.29999
-150.99001 1.3099999 -617.79999
-150.55 1.3200001 -618.33002
-150.11 1.3200001 -618.85999
-149.95 1.33 -625.17999
-149.58 1.33 -626.03998
-149.17999 1.33 -626.76001
-109.39 1.25 -589.69
-108.68 1.25 -588.77002
-108.02 1.25 -588.14001
-107.36 1.25 -587.48999
-106.71 1.25 -586.84998
-106.08 1.25 -586.39001
-105.44 1.24 -585.81
-104.82 1.24 -585.35999
-104.22 1.24 -584.98999
-103.62 1.24 -584.64001
-103 1.24 -584.19
-102.41 1.24 -583.89001
-101.82 1.24 -583.59998
-101.23 1.24 -583.27002
-100.62 1.24 -582.85999
-100.05 1.24 -582.65997
-99.459999 1.24 -582.31
-98.889999 1.24 -582.09003
-98.300003 1.24 -581.78998
-97.730003 1.24 -581.58002
-97.169998 1.24 -581.40997
-96.589996 1.23 -581.15002
-96.029999 1.23 -580.94
-95.459999 1.23 -580.73999
-94.900002 1.23 -580.59998
-94.349998 1.23 -580.47998
-93.800003 1.23 -580.34998
-93.239998 1.23 -580.21002
-92.690002 1.23 -580.09003
-92.139999 1.23 -579.96002
-91.589996 1.23 -579.88
-91.050003 1.23 -579.79999
-90.5 1.23 -579.71997
-89.959999 1.23 -579.65002
-89.410004 1.23 -579.54999
-88.879997 1.23 -579.56
-88.349998 1.23 -579.54999
-87.809998 1.23 -579.47998
-87.260002 1.23 -579.38
-86.730003 1.23 -579.39001
-86.199997 1.23 -579.41998
-85.669998 1.23 -579.37
-85.129997 1.23 -579.32001
-84.599998 1.23 -579.32001
-84.059998 1.23 -579.28998
-83.540001 1.23 -579.34998
-83.010002 1.23 -579.38
-82.480003 1.23 -579.40997
-81.959999 1.23 -579.44
-81.419998 1.23 -579.40997
-80.889999 1.23 -579.41998
-80.370003 1.23 -579.51001
-79.839996 1.23 -579.47998
-79.300003 1.23 -579.45001
-78.779999 1.23 -579.5
-78.25 1.23 -579.56
-77.720001 1.23 -579.56
-77.199997 1.23 -579.65002
-76.669998 1.23 -579.65002
-76.150002 1.23 -579.73999
-75.629997 1.23 -579.81
-75.099998 1.23 -579.84998
-74.580002 1.23 -579.88
-74.050003 1.23 -579.91998
-73.529999 1.23 -579.97998
-73 1.23 -580.03003
-72.480003 1.23 -580.12
-71.959999 1.23 -580.20001
-71.440002 1.23 -580.33002
-70.919998 1.23 -580.42999
-70.400002 1.23 -580.5
-69.879997 1.23 -580.59003
-69.360001 1.23 -580.70001
-68.839996 1.23 -580.81
-68.330002 1.23 -581
-67.809998 1.23 -581.09003
-67.290001 1.23 -581.21997
-66.769997 1.23 -581.34003
-66.25 1.23 -581.41998
-65.730003 1.24 -581.57001
-65.209999 1.24 -581.71002
-64.690002 1.24 -581.82001
-64.18 1.24 -581.96002
-63.650002 1.24 -582.03998
-63.130001 1.24 -582.19
-62.610001 1.24 -582.28998
-62.09 1.24 -582.40997
-61.57 1.24 -582.51001
-61.049999 1.24 -582.65002
-60.529999 1.24 -582.81
-60.009998 1.24 -582.91998
-59.48 1.24 -582.96997
-58.959999 1.24 -583.08002
-58.43 1.24 -583.17999
-57.91 1.24 -583.33002
-57.389999 1.24 -583.46002
-56.869999 1.24 -583.58002
-56.34 1.24 -583.67999
-55.82 1.24 -583.79999
-55.290001 1.24 -583.85999
-54.77 1.24 -584.04999
-54.25 1.24 -584.15997
-53.720001 1.24 -584.27002
-53.200001 1.24 -584.35999
-52.669998 1.24 -584.51001
-52.150002 1.24 -584.62
-51.619999 1.24 -584.69
-51.099998 1.24 -584.84003
-50.57 1.24 -584.92999
-50.040001 1.24 -585.07001
-49.52 1.24 -585.19
-48.990002 1.24 -585.31
-48.470001 1.24 -585.48999
-47.939999 1.24 -585.59998
-47.419998 1.24 -585.77002
-46.889999 1.24 -585.90002
-46.369999 1.24 -586.01001
-45.84 1.24 -586.14001
-45.310001 1.25 -586.21997
-44.779999 1.25 -586.40002
-44.25 1.25 -586.48999
-43.720001 1.25 -586.54999
-43.189999 1.25 -586.67999
-42.669998 1.25 -586.83002
-42.139999 1.25 -586.98999
-41.610001 1.25 -587.10999
-41.080002 1.25 -587.21997
-40.549999 1.25 -587.34998
-40.02 1.25 -587.41998
-39.490002 1.25 -587.53998
-38.959999 1.25 -587.71997
-38.43 1.25 -587.78998
-37.900002 1.25 -587.90002
-37.369999 1.25 -588.03003
-36.830002 1.25 -588.09003
-36.299999 1.25 -588.17999
-35.77 1.25 -588.28003
-35.23 1.25 -588.34998
-34.700001 1.25 -588.46002
-34.16 1.25 -588.51001
-33.630001 1.25 -588.64001
-33.09 1.25 -588.65997
-32.560001 1.25 -588.76001
-32.02 1.25 -588.82001
-31.49 1.25 -588.88
-30.950001 1.25 -588.90002
-30.4 1.25 -588.84003
-29.860001 1.25 -588.81
-29.32 1.25 -588.78003
-28.780001 1.25 -588.75
-28.24 1.25 -588.65002
-27.690001 1.25 -588.59003
-27.15 1.25 -588.48999
-26.6 1.25 -588.26001
-26.049999 1.25 -588.03003
-25.51 1.25 -587.98999
-24.969999 1.25 -587.89001
-24.43 1.25 -587.82001
-23.889999 1.25 -587.79999
-23.35 1.25 -587.77002
-22.809999 1.25 -587.85999
-22.27 1.25 -587.84998
-21.74 1.25 -587.89001
-21.200001 1.25 -588.07001
-20.67 1.25 -588.20001
-20.139999 1.25 -588.38
-19.6 1.25 -588.54999
-19.07 1.25 -588.78003
-18.540001 1.25 -588.96002
-18 1.25 -589.16998
-17.469999 1.25 -589.45001
-16.940001 1.25 -589.75
-16.41 1.25 -590.04999
-15.88 1.25 -590.35999
-15.35 1.25 -590.83002
-14.81 1.26 -591.10999
-14.28 1.26 -591.45001
-13.74 1.26 -591.64001
-13.21 1.26 -591.79999
-12.67 1.26 -591.91998
-12.13 1.26 -592.23999
-11.59 1.26 -592.35999
-11.05 1.26 -592.40997
-10.51 1.26 -592.5
-9.96 1.26 -592.53998
-9.4300003 1.26 -592.82001
-8.8900003 1.26 -593.12
-8.3500004 1.26 -593.46997
-7.8099999 1.26 -594.09003
-7.2800002 1.26 -594.65002
-6.7399998 1.27 -595.78003
-6.21 1.27 -597.17999
-5.6799998 1.27 -598.28003
-5.1300001 1.27 -598.5
-4.5799999 1.27 -598.53003
-4.0300002 1.27 -598.56
-3.49 1.27 -598.63
-2.9400001 1.27 -598.72998
-2.3900001 1.27 -598.90002
-1.84 1.27 -599.02002
-1.29 1.27 -599.23999
-0.74000001 1.27 -599.39001
-0.19 1.27 -599.63
0.36000001 1.27 -599.88
0.91000003 1.28 -600.23999
1.46 1.28 -600.69
2.01 1.28 -601.28998
4.4099998 1.34 -628.33002
4.98 1.34 -628.47998
5.5599999 1.34 -628.20001
6.1300001 1.34 -628.08002
6.71 1.33 -627.98999
7.2800002 1.33 -627.75
7.8499999 1.33 -627.47998
8.4300003 1.33 -627.39001
9 1.33 -627.08002
9.5699997 1.33 -626.72998
10.14 1.33 -626.67999
10.71 1.33 -626.59998
11.29 1.33 -626.40997
11.86 1.33 -626.15002
12.42 1.33 -625.85999
12.99 1.33 -625.70001
13.56 1.33 -625.41998
14.13 1.33 -625.29999
14.7 1.33 -625.09003
15.26 1.33 -624.53003
15.82 1.33 -624.13
16.4 1.33 -624.15002
16.959999 1.33 -623.78998
17.52 1.3200001 -623.28003
18.08 1.3200001 -623.08002
18.639999 1.3200001 -622.81
19.190001 1.3200001 -621.89001
19.75 1.3200001 -621.64001
20.309999 1.3200001 -621.23999
20.85 1.3200001 -620.40002
21.389999 1.3200001 -619.73999
21.92 1.3099999 -618.59003
22.42 1.3099999 -616.84003
22.93 1.3099999 -615.21997
23.41 1.3 -613.22998
23.879999 1.3 -610.71002
23.85 1.27 -596.22998
24.32 1.26 -594.44
24.799999 1.26 -593
25.309999 1.26 -592.08002
25.82 1.26 -591.41998
26.34 1.26 -590.96997
26.870001 1.25 -590.62
27.4 1.25 -590.37
27.93 1.25 -590.15002
28.459999 1.25 -590.09003
29.01 1.25 -590.20001
29.559999 1.25 -590.34003
30.110001 1.25 -590.51001
30.629999 1.25 -590.12
31.139999 1.25 -589.59003
31.67 1.25 -589.34003
32.209999 1.25 -589.29999
32.75 1.25 -589.41998
33.310001 1.25 -589.66998
33.869999 1.25 -590.08002
34.439999 1.25 -590.46997
35 1.25 -590.85999
35.57 1.26 -591.34003
36.139999 1.26 -591.78998
36.740002 1.26 -592.62
37.330002 1.26 -593.40002
37.950001 1.26 -594.54999
38.549999 1.26 -595.37
39.18 1.27 -596.65002
39.830002 1.27 -598.22998
40.509998 1.28 -600.16998
41.139999 1.28 -601.34998
41.799999 1.28 -602.84003
42.459999 1.28 -604.35999
43.119999 1.29 -605.84998
43.759998 1.29 -606.92999
44.389999 1.29 -607.95001
45.02 1.29 -608.91998
45.669998 1.3 -610.15002
46.32 1.3 -611.34003
47 1.3 -612.82001
47.68 1.3099999 -614.28998
48.389999 1.3099999 -616.13
49.09 1.3099999 -617.88
49.830002 1.3200001 -619.95001
50.52 1.3200001 -621.48999
51.279999 1.33 -623.76001
52 1.33 -625.52002
52.75 1.33 -627.48999
53.450001 1.34 -629
54.209999 1.34 -631.04999
-161.71001 0.72000003 -595.03003
-161.28 0.72000003 -595.47998
-160.91 0.72000003 -596.13
-160.56 0.72000003 -596.84003
-160.28 0.72000003 -597.82001
-159.95 0.72000003 -598.62
-159.62 0.72000003 -599.42999
-159.21001 0.73000002 -599.91998
-158.74001 0.73000002 -600.22998
-158.28 0.73000002 -600.59003
-157.78 0.73000002 -600.75
-157.32001 0.73000002 -601.09998
-156.8 0.73000002 -601.21997
-156.32001 0.73000002 -601.5
-155.94 0.73000002 -602.15997
-155.53999 0.73000002 -602.72998
-155.23 0.73000002 -603.66998
-154.89 0.73000002 -604.47998
-154.50999 0.73000002 -605.15997
-154.14999 0.73000002 -605.89001
-153.75999 0.73000002 -606.53998
-153.36 0.73000002 -607.15997
-152.96001 0.73000002 -607.77002
-152.56 0.74000001 -608.38
-152.14 0.74000001 -608.91998
-151.32001 0.75 -616.87
-150.92 0.75 -617.52002
-150.49001 0.75 -618.08002
-150.09 0.75 -618.76001
-149.60001 0.75999999 -626.10999
-149.19 0.75999999 -626.81
-148.83 0.75999999 -627.69
-125.84 0.73000002 -606.13
-125.25 0.73000002 -605.96997
-124.79 0.73000002 -606.40002
-124.27 0.73000002 -606.59998
-109.93 0.70999998 -589.64001
-109.21 0.70999998 -588.72998
-108.59 0.70999998 -588.29999
-107.88 0.70999998 -587.35999
-107.27 0.70999998 -586.98999
-106.61 0.70999998 -586.29999
-105.98 0.70999998 -585.84003
-105.37 0.70999998 -585.41998
-104.77 0.70999998 -585.04999
-104.15 0.70999998 -584.63
-103.54 0.70999998 -584.19
-102.93 0.70999998 -583.78998
-102.35 0.69999999 -583.57001
-101.76 0.69999999 -583.22998
-101.17 0.69999999 -582.90997
-100.56 0.69999999 -582.52002
-100 0.69999999 -582.34003
-99.410004 0.69999999 -582.02002
-98.830002 0.69999999 -581.78003
-98.260002 0.69999999 -581.54999
-97.690002 0.69999999 -581.34003
-97.110001 0.69999999 -581.04999
-96.559998 0.69999999 -580.94
-96 0.69999999 -580.79999
-95.440002 0.69999999 -580.59998
-94.879997 0.69999999 -580.46002
-94.309998 0.69999999 -580.23999
-93.75 0.69999999 -580.09003
-93.220001 0.69999999 -580.04999
-92.660004 0.69999999 -579.90997
-92.120003 0.69999999 -579.87
-91.57 0.69999999 -579.76001
-91.029999 0.69999999 -579.69
-90.480003 0.69999999 -579.59003
-89.940002 0.69999999 -579.5
-89.389999 0.69999999 -579.41998
-88.860001 0.69999999 -579.40997
-88.309998 0.69999999 -579.31
-87.790001 0.69999999 -579.37
-87.239998 0.69999999 -579.26001
-86.709999 0.69999999 -579.23999
-86.169998 0.69999999 -579.21002
-85.639999 0.69999999 -579.19
-85.110001 0.69999999 -579.20001
-84.580002 0.69999999 -579.19
-84.050003 0.69999999 -579.21997
-83.529999 0.69999999 -579.28003
-82.989998 0.69999999 -579.22998
-82.459999 0.69999999 -579.21997
-81.93 0.69999999 -579.22998
-81.400002 0.69999999 -579.27002
-80.870003 0.69999999 -579.28998
-80.349998 0.69999999 -579.35999
-79.809998 0.69999999 -579.31
-79.290001 0.69999999 -579.38
-78.760002 0.69999999 -579.40997
-78.239998 0.69999999 -579.46997
-77.720001 0.69999999 -579.51001
-77.18 0.69999999 -579.5
-76.660004 0.69999999 -579.59003
-76.129997 0.69999999 -579.60999
-75.610001 0.69999999 -579.64001
-75.080002 0.69999999 -579.71002
-74.559998 0.69999999 -579.75
-74.040001 0.69999999 -579.82001
-73.510002 0.69999999 -579.84998
-72.989998 0.69999999 -579.91998
-72.459999 0.69999999 -580
-71.940002 0.69999999 -580.09003
-71.43 0.69999999 -580.25
-70.910004 0.69999999 -580.32001
-70.389999 0.69999999 -580.40997
-69.870003 0.69999999 -580.48999
-69.349998 0.69999999 -580.62
-68.830002 0.69999999 -580.73999
-68.309998 0.69999999 -580.84998
-67.790001 0.69999999 -580.94
-67.269997 0.69999999 -581.04999
-66.75 0.69999999 -581.15997
-66.239998 0.69999999 -581.34998
-65.720001 0.69999999 -581.42999
-65.190002 0.69999999 -581.51001
-64.68 0.69999999 -581.71002
-64.160004 0.69999999 -581.84003
-63.639999 0.69999999 -581.95001
-63.119999 0.69999999 -582.08002
-62.599998 0.69999999 -582.15002
-62.080002 0.69999999 -582.31
-61.560001 0.69999999 -582.44
-61.040001 0.69999999 -582.54999
-60.509998 0.69999999 -582.65002
-59.990002 0.69999999 -582.77002
-59.470001 0.69999999 -582.87
-58.950001 0.69999999 -582.97998
-58.43 0.69999999 -583.14001
-57.900002 0.69999999 -583.21997
-57.369999 0.69999999 -583.28998
-56.849998 0.69999999 -583.38
-56.330002 0.69999999 -583.56
-55.810001 0.69999999 -583.67999
-55.279999 0.69999999 -583.70001
-54.75 0.69999999 -583.78003
-54.23 0.70999998 -583.96002
-53.700001 0.70999998 -584.03998
-53.18 0.70999998 -584.20001
-52.650002 0.70999998 -584.27002
-52.130001 0.70999998 -584.37
-51.599998 0.70999998 -584.47998
-51.080002 0.70999998 -584.65002
-50.560001 0.70999998 -584.82001
-50.02 0.70999998 -584.84003
-49.5 0.70999998 -585.01001
-48.970001 0.70999998 -585.06
-48.450001 0.70999998 -585.25
-47.919998 0.70999998 -585.34998
-47.400002 0.70999998 -585.47998
-46.869999 0.70999998 -585.62
-46.34 0.70999998 -585.75
-45.810001 0.70999998 -585.84003
-45.290001 0.70999998 -586.03998
-44.759998 0.70999998 -586.06
-44.23 0.70999998 -586.19
-43.700001 0.70999998 -586.23999
-43.18 0.70999998 -586.45001
-42.639999 0.70999998 -586.5
-42.110001 0.70999998 -586.63
-41.580002 0.70999998 -586.71997
-41.060001 0.70999998 -586.90002
-40.529999 0.70999998 -587.02002
-40 0.70999998 -587.12
-39.470001 0.70999998 -587.26001
-38.939999 0.70999998 -587.39001
-38.41 0.70999998 -587.46002
-37.869999 0.70999998 -587.52002
-37.34 0.70999998 -587.60999
-36.810001 0.70999998 -587.73999
-36.279999 0.70999998 -587.82001
-35.740002 0.70999998 -587.90002
-35.200001 0.70999998 -587.92999
-34.669998 0.70999998 -588.04999
-34.139999 0.70999998 -588.15997
-33.610001 0.70999998 -588.21997
-33.07 0.70999998 -588.28998
-32.540001 0.70999998 -588.35999
-32 0.70999998 -588.45001
-31.459999 0.70999998 -588.48999
-30.93 0.70999998 -588.51001
-30.389999 0.70999998 -588.53998
-29.85 0.70999998 -588.53998
-29.309999 0.70999998 -588.5
-28.76 0.70999998 -588.35999
-28.219999 0.70999998 -588.31
-27.68 0.70999998 -588.23999
-27.139999 0.70999998 -588.25
-26.6 0.70999998 -588.21002
-26.049999 0.70999998 -588
-25.51 0.70999998 -587.90997
-24.959999 0.70999998 -587.71997
-24.42 0.70999998 -587.59003
-23.879999 0.70999998 -587.59998
-23.34 0.70999998 -587.64001
-22.799999 0.70999998 -587.67999
-22.27 0.70999998 -587.71997
-21.73 0.70999998 -587.82001
-21.200001 0.70999998 -587.88
-20.66 0.70999998 -588.01001
-20.129999 0.70999998 -588.17999
-19.6 0.70999998 -588.40997
-19.07 0.70999998 -588.64001
-18.530001 0.70999998 -588.83002
-18 0.70999998 -589.02002
-17.469999 0.70999998 -589.25
-16.940001 0.70999998 -589.58002
-16.4 0.70999998 -589.85999
-15.87 0.70999998 -590.10999
-15.34 0.70999998 -590.46997
-14.81 0.70999998 -590.76001
-14.27 0.70999998 -591.09003
-13.74 0.70999998 -591.34998
-13.2 0.70999998 -591.59998
-12.66 0.70999998 -591.75
-12.12 0.70999998 -591.85999
-11.58 0.70999998 -591.90997
-11.04 0.70999998 -592.06
-10.5 0.72000003 -592.15002
-9.96 0.72000003 -592.32001
-9.4200001 0.72000003 -592.57001
-8.8800001 0.72000003 -592.91998
-8.3500004 0.72000003 -593.34998
-7.8099999 0.72000003 -593.91998
-7.2800002 0.72000003 -594.54999
-6.7399998 0.72000003 -595.67999
-6.21 0.72000003 -596.92999
-5.6700001 0.72000003 -598.07001
-5.1300001 0.72000003 -598.29999
-4.5799999 0.72000003 -598.33002
-4.0300002 0.72000003 -598.46002
-3.49 0.72000003 -598.54999
-2.9400001 0.72000003 -598.60999
-2.3900001 0.72000003 -598.64001
-1.84 0.72000003 -598.78003
-1.29 0.72000003 -598.96997
-0.74000001 0.72000003 -599.17999
-0.19 0.72000003 -599.45001
0.36000001 0.72000003 -599.64001
0.91000003 0.72000003 -599.88
1.46 0.73000002 -600.31
2.01 0.73000002 -600.88
2.5599999 0.73000002 -601.37
4.4000001 0.75999999 -628.03998
4.9899998 0.75999999 -628.85999
5.5599999 0.75999999 -628.96002
6.1399999 0.75999999 -628.78003
6.71 0.75999999 -628.65997
7.29 0.75999999 -628.40997
7.8600001 0.75999999 -628.03003
8.4300003 0.75999999 -627.82001
9 0.75999999 -627.53998
9.5699997 0.75999999 -627.19
10.15 0.75999999 -627
10.72 0.75999999 -626.94
11.29 0.75999999 -626.85999
11.86 0.75999999 -626.64001
12.43 0.75999999 -626.38
13.01 0.75999999 -626.28003
13.57 0.75999999 -625.98999
14.14 0.75999999 -625.70001
14.71 0.75999999 -625.59003
15.28 0.75999999 -625.47998
15.84 0.75999999 -624.92999
16.41 0.75 -624.62
16.98 0.75 -624.42999
17.540001 0.75 -624.20001
18.1 0.75 -623.64001
18.66 0.75 -623.35999
19.23 0.75 -623.15002
19.77 0.75 -622.31
20.33 0.75 -622
20.9 0.75 -621.85999
21.43 0.75 -620.66998
21.959999 0.75 -619.71002
22.469999 0.75 -618.19
22.99 0.75 -616.78998
23.469999 0.74000001 -614.66998
23.959999 0.74000001 -612.82001
23.85 0.72000003 -596.39001
24.33 0.72000003 -594.57001
24.82 0.72000003 -593.32001
25.309999 0.72000003 -592.26001
25.82 0.70999998 -591.51001
26.35 0.70999998 -591.09003
26.870001 0.70999998 -590.65002
27.4 0.70999998 -590.41998
27.940001 0.70999998 -590.33002
28.469999 0.70999998 -590.28003
29.02 0.70999998 -590.40002
29.57 0.70999998 -590.62
30.110001 0.70999998 -590.52002
30.629999 0.70999998 -590.20001
31.15 0.70999998 -589.71002
31.67 0.70999998 -589.41998
32.209999 0.70999998 -589.38
32.759998 0.70999998 -589.51001
33.32 0.70999998 -589.81
33.880001 0.70999998 -590.21997
34.439999 0.70999998 -590.59998
35.009998 0.70999998 -590.94
35.580002 0.70999998 -591.40997
36.150002 0.70999998 -591.96002
36.75 0.72000003 -592.81
37.34 0.72000003 -593.65002
37.959999 0.72000003 -594.69
38.57 0.72000003 -595.71002
39.240002 0.72000003 -597.53998
39.889999 0.72000003 -599.09003
40.57 0.73000002 -600.98999
41.209999 0.73000002 -602.31
41.869999 0.73000002 -603.88
42.549999 0.73000002 -605.58002
43.189999 0.73000002 -606.82001
43.810001 0.73000002 -607.66998
44.450001 0.74000001 -608.72998
45.07 0.74000001 -609.62
45.709999 0.74000001 -610.69
46.369999 0.74000001 -611.94
47.040001 0.74000001 -613.32001
47.740002 0.74000001 -615.09998
48.450001 0.75 -616.97998
49.200001 0.75 -619.22998
49.91 0.75 -620.96002
50.700001 0.75 -623.65997
51.43 0.75999999 -625.48999
52.119999 0.75999999 -626.92999
53.389999 0.76999998 -635.06
-163.42 0.17 -593.35999
-162.95 0.17 -593.64001
-162.41 0.17 -593.64001
-161.89 0.17 -593.72998
-161.49001 0.17 -594.25
-161.05 0.17 -594.63
-160.75 0.17 -595.53998
-160.38 0.17 -596.15997
-160.14999 0.17 -597.34003
-159.8 0.17 -598.07001
-159.42 0.17 -598.67999
-159.03 0.17 -599.28003
-158.58 0.17 -599.64001
-158.09 0.17 -599.84998
-157.59 0.17 -600.04999
-157.06 0.18000001 -600.13
-156.63 0.18000001 -600.58002
-156.19 0.18000001 -601
-155.8 0.18000001 -601.62
-155.45 0.18000001 -602.39001
-155.14999 0.18000001 -603.34003
-154.8 0.18000001 -604.12
-154.39999 0.18000001 -604.71002
-154.02 0.18000001 -605.40997
-153.67999 0.18000001 -606.23999
-153.27 0.18000001 -606.78998
-152.86 0.18000001 -607.39001
-152.39999 0.18000001 -607.78003
-152.00999 0.18000001 -608.40997
-151.59 0.18000001 -608.97998
-150.88 0.18000001 -617.34998
-150.45 0.18000001 -617.94
-150.11 0.18000001 -618.87
-149.81 0.18000001 -619.92999
-149.60001 0.18000001 -626.12
-149.16 0.18000001 -626.66998
-148.75 0.18000001 -627.34003
-126.77 0.18000001 -605.22998
-126.19 0.18000001 -605.10999
-125.62 0.18000001 -605.09003
-125.11 0.18000001 -605.26001
-124.61 0.18000001 -605.53998
-124.12 0.18000001 -605.84003
-123.66 0.18000001 -606.31
-123.2 0.18000001 -606.78998
-110.46 0.17 -589.60999
-109.75 0.17 -588.71002
-109.1 0.17 -588.14001
-108.46 0.17 -587.58002
-107.81 0.17 -587
-107.17 0.17 -586.44
-106.53 0.17 -585.87
-105.9 0.17 -585.38
-105.28 0.17 -584.95001
-104.68 0.17 -584.59003
-104.07 0.17 -584.15002
-103.48 0.17 -583.85999
-102.88 0.17 -583.53998
-102.3 0.17 -583.28003
-101.7 0.17 -582.90997
-101.11 0.17 -582.59998
-100.54 0.17 -582.37
-99.959999 0.17 -582.09998
-99.389999 0.17 -581.90997
-98.800003 0.17 -581.58002
-98.220001 0.17 -581.29999
-97.669998 0.17 -581.21997
-97.089996 0.17 -580.95001
-96.519997 0.17 -580.71997
-95.949997 0.17 -580.51001
-95.400002 0.17 -580.39001
-94.849998 0.17 -580.27002
-94.290001 0.17 -580.09998
-93.730003 0.17 -579.95001
-93.190002 0.17 -579.88
-92.639999 0.17 -579.81
-92.099998 0.17 -579.71002
-91.550003 0.17 -579.63
-91.010002 0.17 -579.54999
-90.470001 0.17 -579.47998
-89.93 0.17 -579.45001
-89.389999 0.17 -579.37
-88.839996 0.17 -579.28998
-88.300003 0.17 -579.26001
-87.769997 0.17 -579.21997
-87.220001 0.17 -579.13
-86.699997 0.17 -579.15997
-86.160004 0.17 -579.14001
-85.629997 0.17 -579.12
-85.099998 0.17 -579.10999
-84.559998 0.17 -579.09003
-84.029999 0.17 -579.09998
-83.5 0.17 -579.08002
-82.980003 0.17 -579.17999
-82.440002 0.17 -579.13
-81.919998 0.17 -579.20001
-81.389999 0.17 -579.19
-80.860001 0.17 -579.17999
-80.330002 0.17 -579.23999
-79.809998 0.17 -579.26001
-79.269997 0.17 -579.23999
-78.75 0.17 -579.32001
-78.220001 0.17 -579.33002
-77.699997 0.17 -579.37
