# .PCD v0.7 - Point Cloud Data file format
VERSION 0.7
FIELDS x y z
SIZE 4 4 4
TYPE F F F
COUNT 1 1 1
WIDTH 1712
HEIGHT 1
VIEWPOINT 0 0 0 1 0 0 0
POINTS 1712
DATA ascii
-87.629997 -111.98 -626.77002
-87.010002 -111.92 -626.41998
-86.400002 -111.87 -626.14001
-85.800003 -111.84 -626.01001
-85.199997 -111.81 -625.79999
-84.610001 -111.78 -625.69
-84 -111.74 -625.40997
-83.389999 -111.69 -625.15002
-82.790001 -111.65 -624.94
-82.190002 -111.62 -624.77002
-81.589996 -111.58 -624.53003
-80.970001 -111.52 -624.23999
-80.290001 -111.37 -623.40997
-79.709999 -111.36 -623.37
-79.169998 -111.4 -623.54999
-78.620003 -111.44 -623.79999
-78.050003 -111.43 -623.76001
-77.480003 -111.45 -623.82001
-76.940002 -111.48 -624.03003
-76.410004 -111.55 -624.41998
-75.849998 -111.57 -624.52002
-75.300003 -111.6 -624.65997
-74.709999 -111.58 -624.59998
-74.139999 -111.59 -624.63
-73.580002 -111.61 -624.73999
-72.989998 -111.58 -624.59003
-72.389999 -111.54 -624.34998
-71.790001 -111.49 -624.09003
-71.190002 -111.44 -623.82001
-70.610001 -111.43 -623.77002
-70 -111.38 -623.48999
-69.419998 -111.37 -623.39001
-68.839996 -111.36 -623.34998
-68.260002 -111.34 -623.23999
-67.68 -111.34 -623.22998
-67.120003 -111.34 -623.28003
-66.559998 -111.37 -623.40002
-66 -111.39 -623.52002
-65.410004 -111.36 -623.34998
-64.809998 -111.3 -623.04999
-64.18 -111.2 -622.48999
-63.57 -111.14 -622.14001
-63.02 -111.17 -622.34998
-62.549999 -111.36 -623.40002
-62.200001 -111.76 -625.58002
-61.68 -111.86 -626.14001
-61.150002 -111.94 -626.58002
-60.610001 -112 -626.92999
-60.07 -112.06 -627.22998
-59.5 -112.07 -627.32001
-58.900002 -112.04 -627.13
-58.279999 -111.95 -626.63
-57.700001 -111.94 -626.58002
-57.139999 -111.96 -626.70001
-56.57 -111.98 -626.83002
-56.040001 -112.06 -627.26001
-55.580002 -112.3 -628.56
-55.130001 -112.55 -629.95001
-54.560001 -112.57 -630.08002
-53.990002 -112.59 -630.15002
-53.43 -112.64 -630.45001
-52.880001 -112.69 -630.72998
-52.34 -112.78 -631.22998
-51.810001 -112.89 -631.82001
-51.279999 -112.99 -632.40002
-50.720001 -113.03 -632.63
-50.16 -113.08 -632.89001
-49.66 -113.26 -633.87
-49.259998 -113.69 -636.27002
-48.779999 -113.92 -637.54999
-148.67999 -106.05 -591.15002
-148.14999 -106.06 -591.21002
-147.67 -106.1 -591.45001
-116.35 -117.75 -655.28998
-115.23 -117.22 -652.38
-114.2 -116.78 -649.94
-113.21 -116.38 -647.71997
-112.25 -116 -645.66998
-111.28 -115.61 -643.53003
-110.46 -115.37 -642.17999
-109.71 -115.2 -641.27002
-108.95 -115.02 -640.28003
-108.17 -114.82 -639.16998
-107.42 -114.64 -638.21002
-106.69 -114.48 -637.33002
-106 -114.38 -636.76001
-105.29 -114.24 -636
-104.65 -114.18 -635.67999
-103.97 -114.07 -635.06
-103.31 -113.98 -634.59003
-102.65 -113.9 -634.14001
-102 -113.82 -633.71997
-101.36 -113.75 -633.33002
-100.73 -113.71 -633.08002
-100.07 -113.61 -632.54999
-99.43 -113.55 -632.21002
-98.809998 -113.5 -631.91998
-98.18 -113.45 -631.65002
-97.559998 -113.4 -631.37
-96.940002 -113.35 -631.10999
-96.309998 -113.29 -630.77002
-95.68 -113.23 -630.44
-95.059998 -113.18 -630.21002
-94.449997 -113.14 -629.97998
-93.809998 -113.06 -629.53998
-93.199997 -113.02 -629.33002
-92.57 -112.97 -629.01001
-91.959999 -112.93 -628.81
-91.339996 -112.87 -628.46997
-90.720001 -112.81 -628.15997
-90.099998 -112.77 -627.91998
-89.480003 -112.7 -627.57001
-88.860001 -112.66 -627.31
-88.269997 -112.63 -627.15997
-87.650002 -112.58 -626.89001
-87.040001 -112.53 -626.64001
-86.419998 -112.48 -626.34998
-85.82 -112.44 -626.13
-85.209999 -112.4 -625.90002
-84.629997 -112.39 -625.87
-84.029999 -112.35 -625.63
-83.440002 -112.33 -625.52002
-82.830002 -112.29 -625.28003
-82.230003 -112.25 -625.09003
-81.629997 -112.21 -624.88
-81.019997 -112.16 -624.60999
-80.339996 -112.01 -623.79999
-79.720001 -111.95 -623.45001
-79.169998 -111.98 -623.59998
-78.669998 -112.07 -624.13
-78.110001 -112.09 -624.21997
-77.529999 -112.08 -624.16998
-76.989998 -112.13 -624.42999
-76.459999 -112.2 -624.84003
-75.900002 -112.22 -624.95001
-75.349998 -112.25 -625.08002
-74.760002 -112.22 -624.94
-74.169998 -112.21 -624.87
-73.620003 -112.24 -625.03003
-73.040001 -112.23 -624.97998
-72.470001 -112.24 -625.03003
-71.919998 -112.28 -625.23999
-71.339996 -112.26 -625.13
-70.760002 -112.26 -625.14001
-70.18 -112.24 -625.04999
-69.589996 -112.22 -624.91998
-69.019997 -112.21 -624.90002
-68.459999 -112.23 -625.02002
-67.879997 -112.22 -624.96997
-67.300003 -112.22 -624.91998
-66.699997 -112.17 -624.69
-66.139999 -112.19 -624.79999
-65.599998 -112.26 -625.17999
-65.050003 -112.3 -625.39001
-64.470001 -112.29 -625.34998
-63.919998 -112.32 -625.5
-63.389999 -112.41 -626.01001
-62.919998 -112.6 -627.01001
-62.389999 -112.67 -627.40997
-61.82 -112.68 -627.5
-61.259998 -112.72 -627.71002
-60.73 -112.79 -628.09003
-60.169998 -112.82 -628.26001
-59.619999 -112.88 -628.56
-59.07 -112.93 -628.84998
-58.490002 -112.92 -628.82001
-57.869999 -112.84 -628.38
-57.299999 -112.85 -628.41998
-56.77 -112.96 -629
-56.279999 -113.13 -629.95001
-55.759998 -113.25 -630.60999
-55.189999 -113.25 -630.63
-54.610001 -113.27 -630.71002
-54.060001 -113.31 -630.96002
-53.5 -113.35 -631.17999
-52.970001 -113.47 -631.84998
-52.450001 -113.6 -632.53998
-51.919998 -113.7 -633.08002
-51.380001 -113.8 -633.63
-50.830002 -113.86 -633.98999
-50.32 -114.02 -634.84003
-49.869999 -114.33 -636.58002
-149.03 -106.45 -590.40002
-148.45 -106.43 -590.27002
-147.94 -106.44 -590.34998
-147.47 -106.5 -590.65002
-147.05 -106.58 -591.12
-146.67999 -106.71 -591.79999
-116.36 -118.36 -655.32001
-115.37 -117.97 -653.17999
-114.28 -117.46 -650.40997
-113.29 -117.05 -648.17999
-112.29 -116.64 -645.90002
-111.32 -116.24 -643.73999
-110.5 -116 -642.41998
-109.72 -115.8 -641.33002
-108.98 -115.64 -640.45001
-108.15 -115.38 -639.03003
-107.41 -115.22 -638.16998
-106.66 -115.05 -637.21002
-105.97 -114.92 -636.54999
-105.26 -114.79 -635.81
-104.61 -114.72 -635.44
-103.95 -114.64 -634.96997
-103.29 -114.55 -634.47998
-102.64 -114.47 -634.09003
-101.98 -114.38 -633.58002
-101.34 -114.32 -633.26001
-100.71 -114.26 -632.94
-100.07 -114.19 -632.53998
-99.419998 -114.11 -632.09998
-98.779999 -114.04 -631.72998
-98.18 -114.02 -631.62
-97.540001 -113.95 -631.23999
-96.93 -113.92 -631.04999
-96.279999 -113.84 -630.59998
-95.660004 -113.79 -630.34998
-95.050003 -113.75 -630.13
-94.419998 -113.69 -629.78998
-93.809998 -113.64 -629.53998
-93.169998 -113.57 -629.15002
-92.550003 -113.52 -628.88
-91.959999 -113.5 -628.76001
-91.330002 -113.44 -628.44
-90.699997 -113.37 -628.09003
-90.089996 -113.33 -627.83002
-89.480003 -113.28 -627.58002
-88.870003 -113.24 -627.35999
-88.260002 -113.2 -627.15002
-87.650002 -113.15 -626.89001
-87.050003 -113.12 -626.71002
-86.440002 -113.08 -626.47998
-85.839996 -113.04 -626.27002
-85.25 -113.02 -626.15997
-84.650002 -112.99 -625.98999
-84.040001 -112.94 -625.75
-83.459999 -112.94 -625.70001
-82.900002 -112.94 -625.75
-82.330002 -112.96 -625.81
-81.720001 -112.9 -625.52002
-81.07 -112.81 -625
-80.449997 -112.74 -624.63
-79.779999 -112.6 -623.84998
-79.18 -112.56 -623.65997
-78.650002 -112.62 -624
-78.129997 -112.7 -624.39001
-77.559998 -112.7 -624.40997
-77.019997 -112.76 -624.73999
-76.5 -112.82 -625.09003
-75.949997 -112.86 -625.29999
-75.400002 -112.9 -625.53998
-74.809998 -112.88 -625.39001
-74.230003 -112.87 -625.33002
-73.669998 -112.88 -625.40997
-73.099998 -112.89 -625.47998
-72.540001 -112.91 -625.59998
-71.970001 -112.92 -625.65002
-71.410004 -112.94 -625.72998
-70.839996 -112.95 -625.78003
-70.279999 -112.97 -625.90002
-69.709999 -112.98 -625.97998
-69.139999 -112.99 -626
-68.550003 -112.97 -625.90002
-67.989998 -112.98 -625.97998
-67.389999 -112.95 -625.78998
-66.82 -112.95 -625.83002
-66.269997 -112.99 -626.03998
-65.739998 -113.08 -626.48999
-65.209999 -113.14 -626.84003
-64.669998 -113.21 -627.21002
-64.110001 -113.24 -627.40002
-63.549999 -113.27 -627.53998
-63 -113.31 -627.77002
-62.450001 -113.35 -627.98999
-61.919998 -113.44 -628.46002
-61.349998 -113.46 -628.58002
-60.799999 -113.51 -628.87
-60.25 -113.56 -629.12
-59.700001 -113.6 -629.37
-59.130001 -113.62 -629.46997
-58.599998 -113.71 -629.95001
-58.040001 -113.76 -630.21002
-57.490002 -113.8 -630.46997
-56.93 -113.85 -630.70001
-56.380001 -113.91 -631.03998
-55.82 -113.93 -631.19
-55.259998 -113.98 -631.44
-54.709999 -114.04 -631.78998
-54.169998 -114.12 -632.21002
-53.630001 -114.22 -632.75
-53.09 -114.31 -633.21997
-52.549999 -114.39 -633.67999
-52 -114.46 -634.08002
-51.48 -114.59 -634.78003
-50.950001 -114.73 -635.53003
-50.450001 -114.92 -636.57001
-149.55 -106.97 -590.32001
-148.89999 -106.9 -589.91998
-148.34 -106.89 -589.84003
-147.83 -106.91 -589.92999
-147.37 -106.97 -590.26001
-146.92 -107.03 -590.62
-146.53999 -107.15 -591.25
-146.2 -107.3 -592.06
-126.74 -106.9 -589.82001
-126.17 -106.88 -589.69
-125.67 -106.92 -589.89001
-115.41 -118.61 -653.37
-114.5 -118.28 -651.62
-113.32 -117.69 -648.38
-112.42 -117.37 -646.64001
-111.39 -116.91 -644.16998
-110.52 -116.61 -642.53998
-109.74 -116.41 -641.41998
-109.03 -116.28 -640.71997
-108.19 -116.01 -639.27002
-107.43 -115.82 -638.23999
-106.67 -115.63 -637.22998
-105.97 -115.52 -636.58002
-105.25 -115.37 -635.77002
-104.61 -115.3 -635.41998
-103.94 -115.2 -634.85999
-103.29 -115.13 -634.5
-102.63 -115.05 -634.03998
-101.97 -114.96 -633.56
-101.33 -114.89 -633.20001
-100.7 -114.83 -632.84998
-100.06 -114.76 -632.47998
-99.419998 -114.69 -632.10999
-98.779999 -114.62 -631.71997
-98.150002 -114.57 -631.44
-97.510002 -114.5 -631.07001
-96.900002 -114.46 -630.83002
-96.279999 -114.41 -630.58002
-95.639999 -114.34 -630.21997
-95.019997 -114.28 -629.90002
-94.400002 -114.24 -629.65002
-93.769997 -114.17 -629.28998
-93.150002 -114.12 -629.01001
-92.529999 -114.08 -628.76001
-91.919998 -114.03 -628.52002
-91.309998 -113.99 -628.28998
-90.699997 -113.95 -628.06
-90.080002 -113.9 -627.78998
-89.480003 -113.87 -627.62
-88.870003 -113.81 -627.34003
-88.260002 -113.77 -627.12
-87.660004 -113.74 -626.96002
-87.059998 -113.71 -626.76001
-86.459999 -113.68 -626.60999
-85.860001 -113.65 -626.42999
-85.279999 -113.64 -626.39001
-84.669998 -113.59 -626.15997
-84.07 -113.56 -625.96997
-83.5 -113.55 -625.94
-82.919998 -113.55 -625.94
-82.360001 -113.57 -626.03003
-81.800003 -113.59 -626.13
-81.18 -113.52 -625.78003
-80.580002 -113.49 -625.60999
-79.949997 -113.42 -625.19
-79.300003 -113.31 -624.59003
-78.68 -113.24 -624.25
-78.129997 -113.28 -624.44
-77.589996 -113.32 -624.67999
-77.080002 -113.42 -625.20001
-76.550003 -113.48 -625.56
-76.019997 -113.54 -625.84998
-75.440002 -113.54 -625.84998
-74.889999 -113.57 -626.04999
-74.309998 -113.56 -625.98999
-73.730003 -113.55 -625.95001
-73.150002 -113.55 -625.90997
-72.589996 -113.57 -626.03003
-72.019997 -113.58 -626.09003
-71.470001 -113.61 -626.28003
-70.900002 -113.62 -626.31
-70.330002 -113.63 -626.37
-69.760002 -113.64 -626.41998
-69.160004 -113.6 -626.21997
-68.589996 -113.61 -626.27002
-68.019997 -113.61 -626.27002
-67.480003 -113.67 -626.59998
-66.949997 -113.76 -627.04999
-66.440002 -113.86 -627.60999
-65.889999 -113.9 -627.84998
-65.330002 -113.92 -627.96997
-64.769997 -113.96 -628.15997
-64.18 -113.94 -628.06
-63.619999 -113.96 -628.19
-63.099998 -114.06 -628.71997
-62.549999 -114.11 -628.98999
-62 -114.18 -629.34003
-61.450001 -114.22 -629.59003
-60.880001 -114.24 -629.70001
-60.330002 -114.29 -629.98999
-59.75 -114.29 -629.97998
-59.220001 -114.37 -630.39001
-58.669998 -114.43 -630.73999
-58.110001 -114.47 -630.92999
-57.540001 -114.48 -631.03003
-56.990002 -114.55 -631.37
-56.43 -114.59 -631.59998
-55.880001 -114.64 -631.90002
-55.34 -114.72 -632.33002
-54.810001 -114.83 -632.89001
-54.259998 -114.9 -633.27002
-53.720001 -114.98 -633.75
-53.169998 -115.06 -634.15997
-52.630001 -115.14 -634.59003
-52.080002 -115.22 -635.02002
-51.540001 -115.31 -635.51001
-50.970001 -115.34 -635.67999
-149.48 -107.46 -590.04999
-148.83 -107.39 -589.62
-148.28 -107.38 -589.60999
-147.75999 -107.4 -589.65997
-147.31 -107.47 -590.03998
-146.86 -107.53 -590.37
-146.48 -107.65 -591.03003
-146.10001 -107.77 -591.65997
-145.78999 -107.94 -592.57001
-127.21 -107.39 -589.54999
-126.56 -107.29 -589
-126.01 -107.28 -588.95001
-125.5 -107.32 -589.12
-125.07 -107.41 -589.63
-115.48 -119.28 -653.76001
-114.52 -118.91 -651.76001
-113.36 -118.32 -648.58002
-112.49 -118.04 -647.06
-111.49 -117.61 -644.73999
-110.58 -117.27 -642.89001
-109.78 -117.05 -641.70001
-109.05 -116.89 -640.84003
-108.25 -116.67 -639.65002
-107.49 -116.47 -638.60999
-106.7 -116.26 -637.42999
-105.99 -116.12 -636.66998
-105.24 -115.94 -635.71002
-104.58 -115.85 -635.23999
-103.92 -115.76 -634.76001
-103.26 -115.68 -634.28998
-102.63 -115.62 -633.98999
-101.97 -115.54 -633.54999
-101.32 -115.46 -633.10999
-100.7 -115.41 -632.84998
-100.04 -115.32 -632.35999
-99.389999 -115.24 -631.96002
-98.760002 -115.18 -631.59998
-98.120003 -115.11 -631.21997
-97.489998 -115.06 -630.94
-96.870003 -115.01 -630.67999
-96.239998 -114.95 -630.34998
-95.610001 -114.88 -629.98999
-94.980003 -114.82 -629.69
-94.360001 -114.77 -629.37
-93.730003 -114.71 -629.07001
-93.120003 -114.66 -628.81
-92.489998 -114.6 -628.48999
-91.889999 -114.57 -628.31
-91.279999 -114.53 -628.09003
-90.660004 -114.48 -627.81
-90.050003 -114.43 -627.54999
-89.449997 -114.4 -627.40002
-88.849998 -114.37 -627.21997
-88.25 -114.33 -627.04999
-87.650002 -114.3 -626.84998
-87.050003 -114.27 -626.71997
-86.459999 -114.25 -626.59998
-85.860001 -114.22 -626.41998
-85.269997 -114.2 -626.33002
-84.68 -114.18 -626.21997
-84.07 -114.12 -625.90997
-83.489998 -114.12 -625.87
-82.900002 -114.1 -625.78003
-82.330002 -114.1 -625.81
-81.75 -114.1 -625.81
-81.190002 -114.11 -625.84998
-80.620003 -114.12 -625.91998
-80.029999 -114.11 -625.83002
-79.440002 -114.07 -625.65002
-78.809998 -114 -625.25
-78.209999 -113.96 -625.03998
-77.660004 -113.99 -625.21002
-77.139999 -114.08 -625.66998
-76.610001 -114.13 -625.96997
-76.059998 -114.18 -626.20001
-75.5 -114.21 -626.35999
-74.949997 -114.24 -626.56
-74.360001 -114.22 -626.42999
-73.800003 -114.23 -626.48999
-73.220001 -114.23 -626.48999
-72.650002 -114.24 -626.57001
-72.080002 -114.25 -626.59003
-71.529999 -114.28 -626.79999
-70.959999 -114.3 -626.88
-70.379997 -114.28 -626.78003
-69.790001 -114.27 -626.71002
-69.18 -114.21 -626.38
-68.599998 -114.2 -626.32001
-68.089996 -114.31 -626.92999
-67.610001 -114.46 -627.75
-67.089996 -114.56 -628.28003
-66.529999 -114.6 -628.48999
-65.970001 -114.62 -628.62
-65.410004 -114.65 -628.79999
-64.860001 -114.7 -629.07001
-64.309998 -114.74 -629.27002
-63.720001 -114.73 -629.20001
-63.18 -114.79 -629.52002
-62.610001 -114.81 -629.63
-62.060001 -114.86 -629.90997
-61.52 -114.92 -630.25
-60.950001 -114.94 -630.38
-60.41 -115.01 -630.73999
-59.849998 -115.04 -630.91998
-59.279999 -115.08 -631.10999
-58.720001 -115.11 -631.28003
-58.169998 -115.17 -631.62
-57.610001 -115.21 -631.84003
-57.060001 -115.26 -632.12
-56.509998 -115.32 -632.44
-55.970001 -115.41 -632.92999
-55.43 -115.5 -633.39001
-54.880001 -115.55 -633.67999
-54.349998 -115.66 -634.27002
-53.790001 -115.72 -634.59003
-53.23 -115.78 -634.90002
-52.720001 -115.93 -635.71997
-52.169998 -116.01 -636.13
-51.580002 -115.98 -636.01001
-149.42 -107.97 -589.84003
-148.81 -107.91 -589.54999
-148.25 -107.9 -589.46997
-147.75 -107.93 -589.65002
-147.28999 -107.99 -589.94
-146.84 -108.05 -590.28003
-146.46001 -108.17 -590.92999
-146.06 -108.28 -591.51001
-145.71001 -108.42 -592.28003
-145.39 -108.59 -593.15997
-127.76 -107.94 -589.58002
-127.1 -107.84 -589.03003
-126.49 -107.78 -588.71002
-125.94 -107.77 -588.66998
-125.47 -107.83 -588.97998
-125 -107.89 -589.32001
-124.69 -108.08 -590.34998
-114.6 -119.58 -652.17999
-113.43 -118.99 -648.98999
-112.55 -118.69 -647.39001
-111.56 -118.27 -645.09998
-110.67 -117.95 -643.40997
-109.83 -117.68 -641.96002
-109.08 -117.51 -641.02002
-108.32 -117.33 -640.03998
-107.54 -117.11 -638.88
-106.74 -116.89 -637.65997
-106.02 -116.74 -636.85999
-105.24 -116.52 -635.71002
-104.55 -116.4 -635.07001
-103.92 -116.35 -634.78003
-103.27 -116.28 -634.39001
-102.63 -116.21 -634.02002
-101.96 -116.1 -633.46002
-101.32 -116.04 -633.12
-100.68 -115.97 -632.71997
-100.03 -115.89 -632.28998
-99.379997 -115.81 -631.87
-98.739998 -115.74 -631.5
-98.120003 -115.69 -631.22998
-97.449997 -115.58 -630.65997
-96.830002 -115.53 -630.39001
-96.199997 -115.47 -630.07001
-95.57 -115.42 -629.76001
-94.93 -115.34 -629.33002
-94.309998 -115.28 -629.04999
-93.68 -115.23 -628.73999
-93.07 -115.17 -628.46002
-92.459999 -115.13 -628.25
-91.839996 -115.08 -627.96002
-91.220001 -115.03 -627.67999
-90.620003 -114.99 -627.48999
-90.019997 -114.96 -627.32001
-89.410004 -114.93 -627.13
-88.809998 -114.89 -626.96002
-88.209999 -114.86 -626.78003
-87.620003 -114.83 -626.64001
-87.019997 -114.8 -626.47998
-86.419998 -114.77 -626.28998
-85.830002 -114.75 -626.20001
-85.239998 -114.73 -626.07001
-84.629997 -114.69 -625.85999
-84.029999 -114.66 -625.67999
-83.440002 -114.63 -625.53998
-82.860001 -114.61 -625.46002
-82.279999 -114.61 -625.45001
-81.709999 -114.61 -625.45001
-81.139999 -114.62 -625.5
-80.580002 -114.64 -625.58002
-80.010002 -114.65 -625.65997
-79.449997 -114.68 -625.78998
-78.879997 -114.68 -625.79999
-78.300003 -114.67 -625.78003
-77.730003 -114.68 -625.81
-77.199997 -114.73 -626.10999
-76.650002 -114.77 -626.32001
-76.110001 -114.82 -626.58002
-75.559998 -114.87 -626.84998
-75 -114.9 -626.98999
-74.419998 -114.88 -626.91998
-73.860001 -114.9 -627.02002
-73.290001 -114.91 -627.06
-72.720001 -114.92 -627.10999
-72.129997 -114.91 -627.04999
-71.57 -114.92 -627.14001
-71.010002 -114.96 -627.32001
-70.459999 -115 -627.53003
-69.889999 -115 -627.53998
-69.300003 -114.99 -627.46997
-68.75 -115.03 -627.70001
-68.25 -115.16 -628.40002
-67.720001 -115.22 -628.73999
-67.160004 -115.26 -628.92999
-66.599998 -115.29 -629.10999
-66.029999 -115.31 -629.21002
-65.480003 -115.35 -629.44
-64.910004 -115.35 -629.46002
-64.32 -115.35 -629.41998
-63.75 -115.35 -629.46002
-63.189999 -115.38 -629.63
-62.650002 -115.45 -629.97998
-62.110001 -115.52 -630.37
-61.57 -115.6 -630.78998
-61.029999 -115.67 -631.15002
-60.48 -115.74 -631.53998
-59.91 -115.75 -631.59003
-59.360001 -115.81 -631.92999
-58.799999 -115.84 -632.09003
-58.240002 -115.89 -632.35999
-57.700001 -115.97 -632.78998
-57.16 -116.04 -633.16998
-56.599998 -116.08 -633.40002
-56.07 -116.19 -633.98999
-55.529999 -116.28 -634.45001
-54.990002 -116.37 -634.95001
-54.43 -116.43 -635.28998
-53.880001 -116.49 -635.59003
-53.380001 -116.68 -636.63
-52.900002 -116.91 -637.84003
-52.330002 -116.94 -638.03998
-149.39 -108.48 -589.70001
-148.81 -108.46 -589.57001
-148.25999 -108.45 -589.51001
-147.74001 -108.47 -589.60999
-147.28 -108.52 -589.89001
-146.84 -108.6 -590.29999
-146.42999 -108.7 -590.84003
-146.03999 -108.8 -591.40002
-145.69 -108.95 -592.20001
-145.33 -109.09 -592.91998
-145.06 -109.3 -594.02002
-128.46001 -108.62 -590.31
-127.7 -108.43 -589.28998
-127.05 -108.34 -588.82001
-126.48 -108.31 -588.65002
-125.95 -108.32 -588.71002
-125.47 -108.37 -588.98999
-125.04 -108.47 -589.5
-124.68 -108.62 -590.32001
-113.49 -119.64 -649.29999
-112.6 -119.34 -647.66998
-111.77 -119.09 -646.32001
-110.8 -118.69 -644.17999
-109.92 -118.37 -642.5
-109.15 -118.18 -641.45001
-108.34 -117.94 -640.15002
-107.56 -117.73 -639.06
-106.78 -117.52 -637.90002
-106.05 -117.36 -637.06
-105.32 -117.2 -636.19
-104.56 -117 -635.14001
-103.91 -116.92 -634.72998
-103.28 -116.86 -634.39001
-102.63 -116.79 -634.01001
-101.96 -116.69 -633.48999
-101.31 -116.6 -633.03003
-100.66 -116.52 -632.59998
-100 -116.44 -632.15002
-99.360001 -116.37 -631.78003
-98.699997 -116.27 -631.22998
-98.07 -116.21 -630.90002
-97.410004 -116.12 -630.41998
-96.769997 -116.04 -630.03003
-96.139999 -115.98 -629.67999
-95.5 -115.91 -629.28998
-94.870003 -115.84 -628.96002
-94.25 -115.79 -628.65002
-93.610001 -115.71 -628.26001
-92.989998 -115.65 -627.92999
-92.379997 -115.62 -627.75
-91.769997 -115.57 -627.48999
-91.139999 -115.51 -627.15997
-90.550003 -115.49 -627.04999
-89.949997 -115.45 -626.84998
-89.349998 -115.41 -626.65997
-88.730003 -115.37 -626.40997
-88.139999 -115.34 -626.28003
-87.540001 -115.31 -626.09003
-86.949997 -115.29 -626.01001
-86.349998 -115.26 -625.84003
-85.760002 -115.23 -625.66998
-85.160004 -115.19 -625.48999
-84.559998 -115.16 -625.32001
-83.959999 -115.13 -625.15002
-83.389999 -115.13 -625.13
-82.790001 -115.09 -624.94
-82.190002 -115.05 -624.73999
-81.599998 -115.03 -624.62
-81.050003 -115.07 -624.83002
-80.489998 -115.09 -624.96002
-79.949997 -115.14 -625.17999
-79.400002 -115.17 -625.34998
-78.849998 -115.2 -625.53998
-78.279999 -115.21 -625.59998
-77.739998 -115.25 -625.82001
-77.190002 -115.29 -626.03003
-76.660004 -115.36 -626.40002
-76.120003 -115.41 -626.67999
-75.57 -115.46 -626.90002
-75.019997 -115.49 -627.09003
-74.480003 -115.55 -627.40002
-73.900002 -115.55 -627.40002
-73.330002 -115.55 -627.42999
-72.779999 -115.59 -627.59998
-72.199997 -115.59 -627.60999
-71.629997 -115.6 -627.67999
-71.080002 -115.64 -627.88
-70.510002 -115.65 -627.92999
-69.959999 -115.69 -628.14001
-69.419998 -115.76 -628.53998
-68.870003 -115.79 -628.71997
-68.309998 -115.84 -628.94
-67.75 -115.86 -629.09003
-67.199997 -115.91 -629.33002
-66.650002 -115.95 -629.56
-66.089996 -115.98 -629.69
-65.519997 -116 -629.81
-64.919998 -115.96 -629.63
-64.330002 -115.93 -629.46002
-63.759998 -115.94 -629.53003
-63.200001 -115.99 -629.77002
-62.709999 -116.15 -630.60999
-62.189999 -116.26 -631.22998
-61.650002 -116.32 -631.56
-61.099998 -116.38 -631.85999
-60.52 -116.39 -631.94
-59.970001 -116.45 -632.25
-59.419998 -116.51 -632.56
-58.860001 -116.55 -632.76001
-58.32 -116.62 -633.17999
-57.77 -116.69 -633.53003
-57.240002 -116.8 -634.13
-56.689999 -116.85 -634.39001
-56.150002 -116.96 -634.95001
-55.610001 -117.04 -635.40002
-55.040001 -117.07 -635.57001
-54.48 -117.13 -635.87
-54.07 -117.49 -637.84003
-53.580002 -117.69 -638.90997
-149.41 -109.04 -589.78998
-148.82001 -109 -589.59998
-148.28 -109 -589.58002
-147.77 -109.02 -589.71002
-147.3 -109.08 -590
-146.86 -109.15 -590.38
-146.44 -109.25 -590.88
-146.03999 -109.35 -591.42999
-145.67999 -109.49 -592.15997
-145.31 -109.62 -592.84998
-145.02 -109.81 -593.85999
-144.72 -110 -594.85999
-128.39999 -109.11 -590.03998
-127.7 -108.97 -589.31
-127.07 -108.89 -588.90997
-126.51 -108.88 -588.81
-125.99 -108.89 -588.88
-125.51 -108.94 -589.16998
-125.07 -109.03 -589.64001
-124.71 -109.19 -590.46002
-112.64 -119.98 -647.90002
-111.81 -119.72 -646.52002
-110.93 -119.41 -644.87
-110.04 -119.09 -643.16998
-109.25 -118.87 -642.02002
-108.39 -118.57 -640.42999
-107.63 -118.39 -639.44
-106.84 -118.16 -638.22998
-106.1 -117.99 -637.33002
-105.34 -117.8 -636.28003
-104.62 -117.64 -635.45001
-103.92 -117.51 -634.75
-103.28 -117.45 -634.44
-102.62 -117.36 -633.94
-101.96 -117.27 -633.48999
-101.28 -117.15 -632.85999
-100.63 -117.07 -632.42999
-99.959999 -116.97 -631.89001
-99.309998 -116.88 -631.41998
-98.660004 -116.8 -630.98999
-98.019997 -116.73 -630.63
-97.360001 -116.63 -630.08002
-96.720001 -116.56 -629.69
-96.07 -116.47 -629.21997
-95.440002 -116.4 -628.87
-94.790001 -116.32 -628.44
-94.160004 -116.25 -628.06
-93.540001 -116.19 -627.75
-92.919998 -116.14 -627.45001
-92.290001 -116.08 -627.13
-91.68 -116.03 -626.90002
-91.059998 -115.97 -626.57001
-90.459999 -115.94 -626.41998
-89.860001 -115.91 -626.25
-89.260002 -115.88 -626.06
-88.650002 -115.84 -625.84998
-88.050003 -115.8 -625.64001
-87.449997 -115.76 -625.44
-86.849998 -115.73 -625.28998
-86.25 -115.69 -625.08002
-85.650002 -115.66 -624.90002
-85.059998 -115.64 -624.79999
-84.449997 -115.59 -624.54999
-83.779999 -115.46 -623.84003
-83.25 -115.51 -624.09003
-82.599998 -115.41 -623.57001
-82.029999 -115.41 -623.59998
-81.449997 -115.39 -623.5
-80.910004 -115.44 -623.75
-80.389999 -115.51 -624.12
-79.860001 -115.58 -624.47998
-79.339996 -115.65 -624.87
-78.779999 -115.68 -625.03998
-78.239998 -115.73 -625.28003
-77.690002 -115.77 -625.47998
-77.160004 -115.83 -625.82001
-76.629997 -115.9 -626.17999
-76.089996 -115.95 -626.46002
-75.559998 -116.02 -626.82001
-75.040001 -116.1 -627.27002
-74.489998 -116.15 -627.52002
-73.949997 -116.19 -627.76001
-73.400002 -116.24 -628
-72.830002 -116.25 -628.04999
-72.269997 -116.28 -628.23999
-71.699997 -116.29 -628.26001
-71.129997 -116.3 -628.35999
-70.57 -116.33 -628.48999
-70.019997 -116.37 -628.71997
-69.470001 -116.41 -628.91998
-68.910004 -116.45 -629.14001
-68.370003 -116.5 -629.40002
-67.800003 -116.52 -629.51001
-67.269997 -116.6 -629.96002
-66.709999 -116.64 -630.15002
-66.139999 -116.66 -630.23999
-65.589996 -116.7 -630.48999
-65.010002 -116.69 -630.42999
-64.410004 -116.66 -630.25
-63.860001 -116.71 -630.52002
-63.349998 -116.83 -631.19
-62.84 -116.97 -631.89001
-62.279999 -117 -632.04999
-61.73 -117.06 -632.40997
-61.169998 -117.11 -632.64001
-60.619999 -117.15 -632.89001
-60.049999 -117.18 -633.04999
-59.5 -117.25 -633.40002
-58.939999 -117.28 -633.56
-58.419998 -117.41 -634.28003
-57.869999 -117.48 -634.62
-57.330002 -117.56 -635.07001
-56.779999 -117.62 -635.39001
-56.27 -117.78 -636.27002
-55.73 -117.88 -636.76001
-55.23 -118.06 -637.71997
-54.779999 -118.35 -639.27002
-54.25 -118.47 -639.90997
-149.42999 -109.59 -589.85999
-148.84 -109.56 -589.69
-148.3 -109.56 -589.69
-147.83 -109.61 -589.92999
-147.33 -109.64 -590.13
-146.88 -109.71 -590.45001
-146.46001 -109.8 -590.95001
-146.07001 -109.91 -591.53998
-145.67 -110.02 -592.13
-145.32001 -110.17 -592.89001
-144.98 -110.33 -593.71997
-144.67 -110.5 -594.63
-144.42 -110.73 -595.84003
-129.12 -109.79 -590.83002
-128.38 -109.63 -589.95001
-127.71 -109.52 -589.34998
-127.11 -109.47 -589.09998
-126.55 -109.45 -589
-126.02 -109.45 -589.01001
-125.56 -109.53 -589.41998
-125.12 -109.62 -589.88
-124.76 -109.78 -590.71002
-111.81 -120.31 -646.53003
-110.99 -120.07 -645.23999
-110.1 -119.75 -643.53003
-109.34 -119.56 -642.56
-108.49 -119.27 -641.02002
-107.69 -119.04 -639.79999
-106.89 -118.8 -638.51001
-106.12 -118.6 -637.45001
-105.38 -118.43 -636.53003
-104.67 -118.28 -635.73999
-103.92 -118.1 -634.79999
-103.28 -118.03 -634.40002
-102.61 -117.92 -633.87
-101.94 -117.83 -633.34998
-101.25 -117.7 -632.65997
-100.58 -117.59 -632.12
-99.900002 -117.47 -631.46997
-99.25 -117.39 -631.03998
-98.589996 -117.3 -630.53998
-97.940002 -117.22 -630.12
-97.290001 -117.13 -629.64001
-96.629997 -117.03 -629.10999
-95.989998 -116.95 -628.69
-95.339996 -116.86 -628.22998
-94.690002 -116.77 -627.77002
-94.059998 -116.71 -627.44
-93.419998 -116.63 -627.01001
-92.809998 -116.58 -626.76001
-92.190002 -116.53 -626.46002
-91.580002 -116.48 -626.20001
-90.949997 -116.41 -625.82001
-90.339996 -116.37 -625.63
-89.739998 -116.33 -625.39001
-89.139999 -116.3 -625.27002
-88.529999 -116.25 -624.98999
-87.919998 -116.19 -624.70001
-87.309998 -116.15 -624.44
-86.720001 -116.13 -624.37
-86.139999 -116.12 -624.32001
-85.559998 -116.11 -624.27002
-84.970001 -116.09 -624.13
-84.370003 -116.06 -623.96997
-83.769997 -116.01 -623.75
-83.150002 -115.94 -623.35999
-82.559998 -115.93 -623.28998
-81.980003 -115.91 -623.19
-81.400002 -115.9 -623.15002
-80.830002 -115.91 -623.17999
-80.269997 -115.92 -623.23999
-79.75 -115.99 -623.60999
-79.260002 -116.11 -624.23999
-78.690002 -116.12 -624.33002
-78.160004 -116.19 -624.65997
-77.629997 -116.24 -624.97998
-77.099998 -116.31 -625.33002
-76.580002 -116.4 -625.79999
-76.050003 -116.46 -626.14001
-75.519997 -116.53 -626.5
-75.019997 -116.65 -627.14001
-74.489998 -116.72 -627.47998
-73.970001 -116.81 -627.97998
-73.419998 -116.85 -628.19
-72.879997 -116.9 -628.46997
-72.32 -116.93 -628.62
-71.760002 -116.96 -628.78998
-71.190002 -116.98 -628.88
-70.629997 -116.99 -628.95001
-70.07 -117.02 -629.10999
-69.510002 -117.05 -629.27002
-68.959999 -117.11 -629.54999
-68.419998 -117.17 -629.90997
-67.849998 -117.19 -630
-67.300003 -117.24 -630.26001
-66.75 -117.28 -630.46997
-66.190002 -117.32 -630.71002
-65.650002 -117.38 -631
-65.110001 -117.46 -631.46002
-64.550003 -117.49 -631.57001
-64 -117.55 -631.90002
-63.459999 -117.62 -632.28998
-62.91 -117.67 -632.57001
-62.349998 -117.72 -632.79999
-61.790001 -117.76 -633.03998
-61.240002 -117.81 -633.32001
-60.700001 -117.89 -633.71997
-60.130001 -117.92 -633.90997
-59.57 -117.96 -634.10999
-59.02 -118.02 -634.40002
-58.470001 -118.1 -634.83002
-57.93 -118.18 -635.25
-57.41 -118.3 -635.91998
-56.889999 -118.45 -636.67999
-56.439999 -118.72 -638.15002
-55.93 -118.88 -638.95001
-55.369999 -118.94 -639.31
-54.919998 -119.23 -640.82001
-54.82 -120.3 -646.5
-149.5 -110.19 -590.15997
-148.91 -110.15 -589.95001
-148.37 -110.15 -589.95001
-147.86 -110.17 -590.06
-147.38 -110.22 -590.32001
-146.92 -110.28 -590.65002
-146.5 -110.37 -591.12
-146.10001 -110.48 -591.66998
-145.7 -110.59 -592.25
-145.33 -110.72 -592.94
-144.98 -110.87 -593.71997
-144.64999 -111.03 -594.57001
-144.38 -111.24 -595.67999
-144.07001 -111.42 -596.63
-129.11 -110.33 -590.81
-128.39999 -110.18 -590.03003
-127.74 -110.08 -589.46997
-127.16 -110.05 -589.29999
-126.6 -110.03 -589.20001
-126.09 -110.06 -589.34998
-125.62 -110.12 -589.65997
-125.2 -110.23 -590.26001
-124.85 -110.39 -591.10999
-124.5 -110.57 -592.03003
-111 -120.68 -645.32001
-110.14 -120.38 -643.75
-109.42 -120.23 -642.97998
-108.59 -119.97 -641.59003
-107.78 -119.72 -640.28998
-106.97 -119.48 -639
-106.2 -119.28 -637.92999
-105.44 -119.08 -636.87
-104.7 -118.9 -635.96997
-103.93 -118.69 -634.84998
-103.27 -118.6 -634.37
-102.57 -118.46 -633.63
-101.89 -118.35 -633.03003
-101.2 -118.22 -632.34003
-100.49 -118.08 -631.59003
-99.830002 -117.98 -631.08002
-99.150002 -117.85 -630.41998
-98.5 -117.77 -629.98999
-97.849998 -117.68 -629.53003
-97.169998 -117.57 -628.90997
-96.529999 -117.48 -628.46997
-95.870003 -117.38 -627.95001
-95.230003 -117.31 -627.56
-94.580002 -117.22 -627.06
-93.949997 -117.14 -626.67999
-93.330002 -117.08 -626.35999
-92.699997 -117.01 -625.98999
-92.050003 -116.92 -625.52002
-91.449997 -116.89 -625.32001
-90.839996 -116.84 -625.08002
-90.239998 -116.81 -624.91998
-89.610001 -116.74 -624.54999
-89 -116.69 -624.28998
-88.419998 -116.67 -624.21002
-86.57 -116.5 -623.31
-86.019997 -116.53 -623.44
-85.410004 -116.48 -623.17999
-84.839996 -116.48 -623.19
-84.25 -116.45 -623.03003
-83.660004 -116.43 -622.90002
-83.080002 -116.41 -622.83002
-82.5 -116.41 -622.82001
-81.940002 -116.43 -622.90997
-81.379997 -116.44 -622.98999
-80.830002 -116.47 -623.15002
-80.239998 -116.45 -623.01001
-79.639999 -116.41 -622.79999
-79.080002 -116.42 -622.85999
-78.540001 -116.46 -623.09003
-78.089996 -116.64 -624.04999
-77.510002 -116.63 -624
-77 -116.74 -624.56
-76.470001 -116.81 -624.90997
-75.959999 -116.9 -625.40997
-75.480003 -117.03 -626.12
-74.980003 -117.15 -626.75
-74.459999 -117.25 -627.27002
-73.949997 -117.35 -627.79999
-73.43 -117.45 -628.28998
-72.900002 -117.52 -628.69
-72.349998 -117.56 -628.90002
-71.800003 -117.61 -629.15002
-71.230003 -117.62 -629.21002
-70.68 -117.67 -629.46002
-70.120003 -117.68 -629.56
-69.57 -117.73 -629.81
-69.010002 -117.78 -630.03003
-68.459999 -117.82 -630.26001
-67.900002 -117.85 -630.45001
-67.360001 -117.92 -630.78998
-66.809998 -117.97 -631.07001
-66.269997 -118.03 -631.38
-65.709999 -118.08 -631.65002
-65.150002 -118.1 -631.76001
-64.610001 -118.18 -632.16998
-64.059998 -118.24 -632.47998
-63.5 -118.28 -632.71997
-62.959999 -118.35 -633.06
-62.41 -118.41 -633.40997
-61.860001 -118.48 -633.75
-61.32 -118.55 -634.12
-60.740002 -118.56 -634.15997
-60.16 -118.57 -634.21997
-59.599998 -118.59 -634.35999
-59.040001 -118.65 -634.66998
-58.48 -118.69 -634.89001
-58.029999 -118.96 -636.28998
-57.549999 -119.19 -637.48999
-57.060001 -119.37 -638.46002
-56.5 -119.44 -638.84003
-55.939999 -119.49 -639.08002
-55.43 -119.67 -640.03003
-55.349998 -120.76 -645.78003
-54.990002 -121.28 -648.56
-149.55 -110.77 -590.34998
-148.96001 -110.73 -590.15997
-148.42 -110.73 -590.15997
-147.91 -110.76 -590.28998
-147.44 -110.8 -590.53998
-146.97 -110.86 -590.83002
-146.55 -110.95 -591.32001
-146.16 -111.07 -591.91998
-145.75999 -111.18 -592.48999
-145.36 -111.29 -593.04999
-145 -111.43 -593.79999
-144.66 -111.59 -594.63
-144.35001 -111.77 -595.57001
-144.03 -111.94 -596.47998
-129.89999 -111.08 -591.90997
-129.12 -110.88 -590.83002
-128.42 -110.74 -590.12
-127.78 -110.66 -589.69
-127.22 -110.64 -589.57001
-126.68 -110.64 -589.57001
-126.16 -110.66 -589.67999
-125.68 -110.71 -589.95001
-125.26 -110.82 -590.52002
-124.93 -111 -591.47998
-124.58 -111.18 -592.41998
-110.06 -120.88 -643.28998
-109.36 -120.77 -642.67999
-108.56 -120.53 -641.46002
-107.8 -120.35 -640.46002
-106.99 -120.09 -639.09998
-106.23 -119.89 -638.09003
-105.45 -119.67 -636.91998
-104.71 -119.49 -635.98999
-103.93 -119.27 -634.83002
-103.22 -119.12 -634.06
-102.51 -118.98 -633.31
-101.79 -118.82 -632.45001
-101.07 -118.65 -631.59003
-100.37 -118.5 -630.79999
-99.720001 -118.42 -630.37
-99.040001 -118.3 -629.75
-98.360001 -118.19 -629.14001
-97.699997 -118.08 -628.58002
-97.029999 -117.97 -628.02002
-96.400002 -117.9 -627.63
-95.730003 -117.79 -627.03998
-95.080002 -117.69 -626.53003
-94.470001 -117.65 -626.31
-93.809998 -117.55 -625.78003
-93.169998 -117.46 -625.33002
-92.559998 -117.41 -625.08002
-91.940002 -117.36 -624.78998
-91.309998 -117.29 -624.40997
-90.68 -117.21 -624
-90.080002 -117.18 -623.84003
-89.480003 -117.14 -623.64001
-88.879997 -117.11 -623.46997
-88.269997 -117.05 -623.15002
-86.480003 -116.95 -622.63
-85.879997 -116.91 -622.42999
-85.300003 -116.9 -622.39001
-84.720001 -116.88 -622.29999
-84.139999 -116.87 -622.25
-83.550003 -116.85 -622.10999
-82.959999 -116.83 -622.01001
-82.389999 -116.82 -621.96002
-81.82 -116.82 -621.98999
-81.279999 -116.87 -622.21002
-80.730003 -116.89 -622.34998
-80.18 -116.94 -622.58002
-79.650002 -116.98 -622.83002
-79.110001 -117.03 -623.08002
-78.580002 -117.09 -623.41998
-78.050003 -117.16 -623.78003
-77.489998 -117.18 -623.84003
-76.949997 -117.23 -624.12
-76.400002 -117.27 -624.34998
-75.910004 -117.4 -625.01001
-75.43 -117.53 -625.72998
-74.93 -117.66 -626.39001
-74.419998 -117.76 -626.90997
-73.919998 -117.88 -627.56
-73.419998 -118 -628.19
-72.900002 -118.09 -628.63
-72.370003 -118.17 -629.07001
-71.839996 -118.24 -629.44
-71.300003 -118.3 -629.76001
-70.75 -118.35 -630.01001
-70.18 -118.37 -630.13
-69.610001 -118.39 -630.22998
-69.050003 -118.41 -630.33002
-68.510002 -118.49 -630.72998
-67.959999 -118.53 -630.94
-67.400002 -118.57 -631.16998
-66.860001 -118.64 -631.54999
-66.309998 -118.7 -631.83002
-65.760002 -118.75 -632.09003
-65.199997 -118.79 -632.31
-64.650002 -118.83 -632.56
-64.110001 -118.91 -632.94
-63.57 -118.98 -633.33002
-63.029999 -119.06 -633.76001
-62.48 -119.13 -634.12
-61.93 -119.18 -634.38
-61.360001 -119.21 -634.52002
-60.759998 -119.18 -634.38
-60.18 -119.19 -634.41998
-59.610001 -119.2 -634.48999
-59.029999 -119.21 -634.54999
-58.630001 -119.59 -636.52002
-58.189999 -119.88 -638.06
-57.650002 -119.97 -638.53003
-57.110001 -120.06 -639.03003
-56.560001 -120.14 -639.45001
-56.040001 -120.28 -640.17999
-55.779999 -121.01 -644
-55.529999 -121.76 -647.94
-54.98 -121.84 -648.35999
-150.24001 -111.42 -590.95001
-149.61 -111.35 -590.58002
-149.03999 -111.33 -590.46002
-148.48 -111.31 -590.38
-147.96001 -111.33 -590.47998
-147.5 -111.39 -590.77002
-147.02 -111.44 -591.03998
-146.61 -111.54 -591.57001
-146.17999 -111.62 -591.97998
-145.78 -111.73 -592.56
-145.36 -111.83 -593.04999
-145.03 -112 -593.91998
-144.67 -112.13 -594.64001
-144.35001 -112.32 -595.58002
-144.00999 -112.47 -596.39001
-143.92 -112.83 -598.28998
-143.81 -113.18 -600.07001
-143.39 -113.28 -600.62
-129.92 -111.64 -592.01001
-129.16 -111.45 -591.02002
-128.47 -111.33 -590.37
-127.84 -111.25 -589.95001
-127.27 -111.22 -589.81
-126.73 -111.23 -589.81
-126.21 -111.24 -589.90002
-125.76 -111.33 -590.34003
-125.35 -111.44 -590.94
-124.99 -111.61 -591.79999
-124.65 -111.79 -592.72998
-106.9 -120.58 -638.62
-106.16 -120.4 -637.65997
-105.41 -120.21 -636.69
-104.67 -120.03 -635.76001
-103.9 -119.82 -634.64001
-103.18 -119.66 -633.78998
-102.43 -119.47 -632.79999
-101.66 -119.24 -631.63
-100.93 -119.07 -630.73999
-100.2 -118.89 -629.78998
-99.540001 -118.79 -629.25
-98.889999 -118.7 -628.79999
-98.199997 -118.56 -628.09003
-97.540001 -118.47 -627.58002
-96.870003 -118.35 -626.97998
-96.230003 -118.27 -626.58002
-95.57 -118.16 -626.01001
-94.93 -118.08 -625.58002
-94.309998 -118.02 -625.25
-93.669998 -117.94 -624.84998
-93.059998 -117.89 -624.59003
-92.410004 -117.8 -624.12
-91.790001 -117.74 -623.78003
-91.18 -117.69 -623.51001
-90.57 -117.64 -623.25
-89.949997 -117.58 -622.96002
-89.32 -117.5 -622.54999
-88.730003 -117.47 -622.40002
-88.120003 -117.42 -622.09998
-87.489998 -117.35 -621.72998
-86.879997 -117.29 -621.44
-86.32 -117.31 -621.52002
-85.760002 -117.31 -621.56
-85.169998 -117.29 -621.41998
-84.589996 -117.28 -621.38
-84.019997 -117.27 -621.35999
-83.410004 -117.23 -621.10999
-82.839996 -117.22 -621.09003
-82.269997 -117.22 -621.09998
-81.720001 -117.24 -621.21002
-81.18 -117.29 -621.46002
-80.629997 -117.32 -621.62
-80.089996 -117.37 -621.84003
-79.529999 -117.39 -621.96997
-79.019997 -117.47 -622.40002
-78.489998 -117.53 -622.71997
-77.959999 -117.59 -623.03003
-77.440002 -117.67 -623.45001
-76.900002 -117.73 -623.76001
-76.360001 -117.78 -624.02002
-75.889999 -117.93 -624.81
-75.389999 -118.05 -625.40997
-74.910004 -118.2 -626.19
-74.379997 -118.26 -626.53998
-73.879997 -118.39 -627.21997
-73.379997 -118.52 -627.85999
-72.879997 -118.64 -628.52002
-72.379997 -118.76 -629.13
-71.860001 -118.86 -629.64001
-71.330002 -118.94 -630.09998
-70.790001 -118.99 -630.35999
-70.25 -119.07 -630.72998
-69.68 -119.08 -630.78003
-69.110001 -119.09 -630.85999
-68.559998 -119.15 -631.15002
-68 -119.17 -631.29999
-67.440002 -119.22 -631.52002
-66.900002 -119.28 -631.85999
-66.339996 -119.32 -632.09003
-65.790001 -119.38 -632.38
-65.239998 -119.43 -632.65997
-64.709999 -119.53 -633.15002
-64.169998 -119.61 -633.59003
-63.619999 -119.67 -633.90002
-63.080002 -119.75 -634.29999
-62.560001 -119.85 -634.84998
-61.990002 -119.89 -635.03003
-61.400002 -119.87 -634.92999
-60.790001 -119.82 -634.70001
-60.209999 -119.82 -634.66998
-59.68 -119.93 -635.27002
-59.25 -120.24 -636.87
-58.82 -120.55 -638.5
-58.240002 -120.56 -638.57001
-57.68 -120.63 -638.89001
-57.150002 -120.74 -639.47998
-56.779999 -121.2 -641.87
-56.330002 -121.5 -643.47998
-56.02 -122.12 -646.72998
-55.52 -122.32 -647.76001
-150.36 -112.05 -591.40997
-149.66 -111.93 -590.78998
-149.09 -111.91 -590.67999
-148.55 -111.91 -590.65997
-148.03 -111.92 -590.73999
-147.56 -111.98 -591.04999
-147.10001 -112.04 -591.34003
-146.67 -112.13 -591.78998
-146.24001 -112.21 -592.21997
-145.83 -112.31 -592.73999
-145.42 -112.42 -593.31
-145.03999 -112.55 -593.96997
-144.69 -112.7 -594.73999
-144.33 -112.85 -595.5
-144.00999 -113.02 -596.39001
-143.94 -113.39 -598.34003
-143.64 -113.6 -599.39001
-143.17999 -113.66 -599.72998
-142.72 -113.73 -600.09003
-130.7 -112.39 -593.04999
-129.94 -112.2 -592.09998
-129.19 -112.02 -591.15002
-128.53 -111.92 -590.63
-127.91 -111.85 -590.27002
-127.33 -111.82 -590.09003
-126.8 -111.83 -590.13
-126.3 -111.87 -590.33002
-125.87 -111.96 -590.81
-125.42 -112.04 -591.25
-125.06 -112.21 -592.12
-124.72 -112.39 -593.03003
-95.410004 -118.54 -624.98999
-94.75 -118.43 -624.39001
-94.139999 -118.38 -624.15997
-93.519997 -118.33 -623.84998
-92.889999 -118.26 -623.48999
-92.279999 -118.2 -623.21002
-91.669998 -118.15 -622.96002
-91.040001 -118.07 -622.53998
-90.419998 -118.02 -622.23999
-89.82 -117.98 -622.06
-89.220001 -117.94 -621.88
-88.589996 -117.85 -621.40997
-87.949997 -117.76 -620.92999
-87.339996 -117.71 -620.64001
-86.739998 -117.68 -620.47998
-86.18 -117.68 -620.52002
-85.629997 -117.71 -620.63
-85.059998 -117.72 -620.69
-84.480003 -117.7 -620.59998
-83.889999 -117.67 -620.44
-83.32 -117.66 -620.39001
-82.75 -117.66 -620.40002
-82.190002 -117.68 -620.48999
-81.629997 -117.69 -620.56
-81.080002 -117.72 -620.70001
-80.529999 -117.74 -620.84003
-79.989998 -117.79 -621.07001
-79.449997 -117.83 -621.28998
-78.919998 -117.9 -621.64001
-78.389999 -117.96 -621.97998
-77.879997 -118.06 -622.46002
-77.349998 -118.11 -622.76001
-76.830002 -118.2 -623.19
-76.330002 -118.3 -623.72998
-75.82 -118.4 -624.25
-75.330002 -118.53 -624.94
-74.849998 -118.68 -625.70001
-74.339996 -118.78 -626.23999
-73.830002 -118.89 -626.78003
-73.330002 -119 -627.39001
-72.849998 -119.16 -628.22998
-72.349998 -119.29 -628.87
-71.839996 -119.4 -629.46002
-71.32 -119.5 -629.97998
-70.800003 -119.6 -630.5
-70.260002 -119.67 -630.84003
-69.709999 -119.71 -631.09003
-69.150002 -119.75 -631.29999
-68.599998 -119.8 -631.54999
-68.059998 -119.87 -631.88
-67.489998 -119.89 -632
-66.919998 -119.9 -632.08002
-66.349998 -119.93 -632.20001
-65.800003 -119.98 -632.48999
-65.290001 -120.11 -633.16998
-64.769997 -120.22 -633.75
-64.25 -120.33 -634.28998
-63.700001 -120.4 -634.65997
-63.16 -120.47 -635.01001
-62.610001 -120.54 -635.39001
-62.040001 -120.56 -635.5
-61.459999 -120.57 -635.54999
-60.889999 -120.6 -635.69
-60.369999 -120.72 -636.34003
-59.91 -120.98 -637.71002
-59.41 -121.15 -638.57001
-58.84 -121.19 -638.75
-58.279999 -121.23 -639.01001
-57.75 -121.35 -639.59998
-57.360001 -121.78 -641.82001
-56.959999 -122.18 -643.90997
-56.5 -122.46 -645.37
-150.41 -112.63 -591.60999
-149.74001 -112.53 -591.10999
-149.16 -112.5 -590.96002
-148.62 -112.5 -590.95001
-148.13 -112.54 -591.13
-147.64999 -112.59 -591.38
-147.17 -112.64 -591.64001
-146.74001 -112.72 -592.06
-146.28999 -112.8 -592.45001
-145.88 -112.9 -592.96997
-145.47 -113 -593.5
-145.07001 -113.12 -594.08002
-144.7 -113.25 -594.77002
-144.38 -113.43 -595.67999
-144.07001 -113.61 -596.65002
-143.92 -113.93 -598.26001
-143.49001 -114.02 -598.75
-143.03999 -114.1 -599.15002
-142.57001 -114.16 -599.47998
-142.10001 -114.23 -599.83002
-130.7 -112.93 -593.07001
-129.95 -112.75 -592.12
-129.23 -112.6 -591.34003
-128.59 -112.52 -590.90997
-128 -112.47 -590.66998
-127.44 -112.45 -590.58002
-126.89 -112.45 -590.54999
-126.4 -112.49 -590.77002
-125.93 -112.56 -591.09998
-125.52 -112.68 -591.75
-125.17 -112.85 -592.63
-124.87 -113.07 -593.76001
-96.489998 -119.03 -624.53998
-95.839996 -118.93 -624.03998
-95.230003 -118.89 -623.79999
-94.599998 -118.81 -623.40997
-93.989998 -118.76 -623.15997
-93.379997 -118.73 -622.96002
-92.739998 -118.63 -622.45001
-92.120003 -118.57 -622.13
-91.519997 -118.53 -621.96997
-90.919998 -118.5 -621.78003
-90.300003 -118.43 -621.46002
-89.690002 -118.38 -621.15997
-89.07 -118.31 -620.82001
-88.449997 -118.25 -620.5
-87.839996 -118.19 -620.16998
-87.239998 -118.15 -619.96997
-86.650002 -118.12 -619.85999
-86.089996 -118.13 -619.90002
-85.519997 -118.12 -619.84003
-84.949997 -118.12 -619.84998
-84.370003 -118.11 -619.79999
-83.779999 -118.08 -619.65002
-83.220001 -118.09 -619.65997
-82.650002 -118.09 -619.70001
-82.080002 -118.09 -619.71002
-81.519997 -118.11 -619.77002
-80.980003 -118.15 -619.96997
-80.449997 -118.19 -620.21997
-79.919998 -118.25 -620.52002
-79.370003 -118.29 -620.71002
-78.839996 -118.35 -621.03998
-78.309998 -118.41 -621.34998
-77.800003 -118.5 -621.81
-77.279999 -118.57 -622.19
-76.769997 -118.67 -622.65997
-76.25 -118.75 -623.09998
-75.760002 -118.88 -623.78003
-75.269997 -119.02 -624.47998
-74.800003 -119.17 -625.28998
-74.239998 -119.19 -625.40002
-73.779999 -119.38 -626.37
-73.290001 -119.52 -627.08002
-72.769997 -119.61 -627.56
-72.279999 -119.75 -628.27002
-71.790001 -119.9 -629.07001
-71.300003 -120.04 -629.78998
-70.800003 -120.18 -630.52002
-70.279999 -120.28 -631.02002
-69.769997 -120.39 -631.58002
-69.230003 -120.46 -631.95001
-68.68 -120.51 -632.21997
-68.120003 -120.56 -632.46997
-67.540001 -120.55 -632.41998
-66.959999 -120.56 -632.47998
-66.400002 -120.59 -632.64001
-65.879997 -120.7 -633.21997
-65.379997 -120.85 -633.96002
-64.849998 -120.95 -634.46997
-64.309998 -121.03 -634.90997
-63.75 -121.07 -635.14001
-63.189999 -121.12 -635.40002
-62.610001 -121.12 -635.38
-62.07 -121.21 -635.84998
-61.57 -121.38 -636.72998
-61.07 -121.54 -637.54999
-60.549999 -121.66 -638.19
-60.02 -121.79 -638.82001
-59.509998 -121.95 -639.65997
-58.98 -122.06 -640.26001
-58.419998 -122.12 -640.57001
-57.990002 -122.46 -642.28998
-57.52 -122.71 -643.60999
-57.049999 -122.97 -644.96997
-150.47 -113.21 -591.82001
-149.8 -113.12 -591.32001
-149.23 -113.1 -591.22998
-148.71001 -113.12 -591.31
-148.2 -113.14 -591.44
-147.72 -113.19 -591.67999
-147.25999 -113.25 -591.97998
-146.8 -113.32 -592.33002
-146.36 -113.39 -592.71997
-145.94 -113.49 -593.21002
-145.50999 -113.58 -593.65002
-145.14 -113.72 -594.37
-144.77 -113.85 -595.06
-144.44 -114.03 -595.96002
-144.14999 -114.22 -596.96002
-143.84 -114.41 -597.96002
-143.39 -114.49 -598.35999
-142.91 -114.54 -598.62
-142.42 -114.6 -598.89001
-141.98 -114.68 -599.32001
-141.58 -114.81 -599.95001
-135.31 -115.08 -601.34998
-134.74001 -115.07 -601.27002
-131.62 -113.8 -594.72998
-130.72 -113.5 -593.16998
-129.98 -113.33 -592.28998
-129.28999 -113.2 -591.62
-128.66 -113.12 -591.21997
-128.06 -113.07 -590.95001
-127.52 -113.07 -590.96997
-126.99 -113.08 -590.98999
-126.49 -113.11 -591.17999
-126.06 -113.21 -591.70001
-125.63 -113.32 -592.25
-125.29 -113.51 -593.20001
-124.95 -113.68 -594.10999
-96.32 -119.39 -623.46002
-95.68 -119.31 -623.03003
-95.080002 -119.27 -622.81
-94.449997 -119.2 -622.46002
-93.82 -119.12 -622.07001
-93.209999 -119.07 -621.79999
-92.620003 -119.05 -621.70001
-92.019997 -119.02 -621.51001
-91.400002 -118.95 -621.17999
-90.800003 -118.9 -620.92999
-90.169998 -118.83 -620.58002
-89.580002 -118.81 -620.44
-88.970001 -118.75 -620.15002
-88.360001 -118.7 -619.88
-87.760002 -118.65 -619.60999
-87.160004 -118.61 -619.41998
-86.589996 -118.6 -619.38
-86.029999 -118.61 -619.42999
-85.43 -118.58 -619.27002
-84.849998 -118.56 -619.17999
-84.279999 -118.55 -619.14001
-83.699997 -118.53 -619.02002
-83.110001 -118.51 -618.90997
-82.550003 -118.52 -618.96997
-81.989998 -118.53 -619.03003
-81.449997 -118.56 -619.19
-80.919998 -118.62 -619.48999
-80.360001 -118.64 -619.60999
-79.830002 -118.7 -619.88
-79.300003 -118.75 -620.16998
-78.769997 -118.8 -620.42999
-78.25 -118.88 -620.82001
-77.730003 -118.95 -621.21002
-77.209999 -119.03 -621.60999
-76.709999 -119.14 -622.16998
-76.18 -119.21 -622.51001
-75.690002 -119.35 -623.21997
-75.209999 -119.48 -623.90997
-74.730003 -119.64 -624.73999
-74.220001 -119.74 -625.22998
-73.730003 -119.87 -625.90002
-73.230003 -120 -626.57001
-72.739998 -120.13 -627.25
-72.230003 -120.24 -627.81
-71.730003 -120.38 -628.54999
-71.260002 -120.56 -629.46997
-70.790001 -120.74 -630.41998
-70.300003 -120.9 -631.21997
-69.809998 -121.05 -632.01001
-69.279999 -121.14 -632.45001
-68.760002 -121.24 -633
-68.190002 -121.25 -633.03998
-67.610001 -121.26 -633.07001
-67.050003 -121.3 -633.31
-66.510002 -121.37 -633.66998
-66 -121.5 -634.29999
-65.449997 -121.57 -634.65997
-64.910004 -121.64 -635.03998
-64.349998 -121.69 -635.32001
-63.799999 -121.76 -635.66998
-63.23 -121.78 -635.78003
-62.66 -121.8 -635.89001
-62.169998 -121.99 -636.87
-61.68 -122.18 -637.83002
-61.16 -122.31 -638.5
-60.630001 -122.42 -639.09003
-60.150002 -122.64 -640.19
-59.650002 -122.82 -641.10999
-59.099998 -122.9 -641.54999
-58.549999 -122.99 -641.98999
-58.07 -123.22 -643.19
-57.610001 -123.48 -644.53003
-150.62 -113.87 -592.41998
-149.91 -113.75 -591.78003
-149.34 -113.72 -591.65997
-148.81 -113.73 -591.70001
-148.3 -113.75 -591.81
-147.81 -113.79 -592.01001
-147.34 -113.86 -592.32001
-146.87 -113.91 -592.58002
-146.41 -113.98 -592.92999
-145.99001 -114.07 -593.41998
-145.59 -114.18 -593.98999
-145.22 -114.32 -594.69
-144.84 -114.45 -595.35999
-144.53999 -114.65 -596.35999
-144.24001 -114.84 -597.34003
-143.78999 -114.92 -597.73999
-143.28 -114.95 -597.90997
-142.82001 -115.02 -598.26001
-142.33 -115.07 -598.51001
-141.89 -115.16 -598.95001
-141.48 -115.27 -599.53003
-141.16 -115.46 -600.51001
-140.89999 -115.7 -601.71002
-140.49001 -115.81 -602.29999
-139.96001 -115.83 -602.39001
-139.39999 -115.83 -602.38
-136.34 -115.57 -601.04999
-135.69 -115.5 -600.64001
-135.11 -115.46 -600.47998
-134.52 -115.43 -600.28998
-132.49001 -114.63 -596.19
-131.59 -114.32 -594.60999
-130.77 -114.08 -593.40002
