# .PCD v0.7 - Point Cloud Data file format
VERSION 0.7
FIELDS x y z
SIZE 4 4 4
TYPE F F F
COUNT 1 1 1
WIDTH 1656
HEIGHT 1
VIEWPOINT 0 0 0 1 0 0 0
POINTS 1656
DATA ascii
-92.449997 73.760002 -598.84998
-91.910004 73.769997 -598.88
-91.360001 73.769997 -598.90997
-90.830002 73.779999 -599.01001
-90.279999 73.779999 -599.01001
-89.739998 73.790001 -599.04999
-89.160004 73.769997 -598.88
-88.57 73.730003 -598.59998
-87.970001 73.690002 -598.27002
-87.379997 73.650002 -597.96002
-86.779999 73.610001 -597.64001
-86.18 73.57 -597.28998
-85.519997 73.470001 -596.51001
-84.790001 73.309998 -595.25
-84.110001 73.190002 -594.28998
-83.459999 73.099998 -593.53998
-82.809998 73.010002 -592.82001
-82.190002 72.940002 -592.32001
-81.580002 72.879997 -591.81
-80.989998 72.830002 -591.45001
-80.379997 72.779999 -590.97998
-79.800003 72.739998 -590.71002
-79.239998 72.730003 -590.59998
-78.690002 72.709999 -590.48999
-78.129997 72.699997 -590.40997
-77.559998 72.669998 -590.14001
-76.919998 72.57 -589.38
-76.309998 72.510002 -588.87
-75.720001 72.459999 -588.47998
-75.160004 72.449997 -588.35999
-74.610001 72.43 -588.27002
-74.059998 72.419998 -588.15002
-73.519997 72.419998 -588.15002
-72.970001 72.410004 -588.09998
-72.43 72.410004 -588.09003
-71.900002 72.419998 -588.15002
-71.360001 72.419998 -588.14001
-70.82 72.410004 -588.10999
-70.260002 72.400002 -587.96997
-69.709999 72.389999 -587.91998
-69.169998 72.379997 -587.87
-68.639999 72.389999 -587.94
-68.110001 72.400002 -588.02002
-67.580002 72.410004 -588.09003
-67.040001 72.410004 -588.13
-66.519997 72.43 -588.28998
-66 72.459999 -588.48999
-65.489998 72.489998 -588.71002
-64.980003 72.519997 -589.02002
-64.470001 72.550003 -589.22998
-63.950001 72.580002 -589.42999
-63.43 72.599998 -589.59003
-62.880001 72.589996 -589.59003
-62.360001 72.610001 -589.70001
-61.830002 72.620003 -589.82001
-61.310001 72.650002 -590
-60.779999 72.660004 -590.13
-60.27 72.699997 -590.40002
-59.759998 72.739998 -590.72998
-59.240002 72.769997 -591
-58.75 72.82 -591.41998
-58.259998 72.889999 -592
-39.139999 75.809998 -615.40002
-38.509998 75.669998 -614.26001
-37.889999 75.57 -613.42999
-37.290001 75.489998 -612.84998
-36.740002 75.510002 -612.96002
-36.18 75.519997 -613.06
-35.639999 75.57 -613.42999
-35.099998 75.620003 -613.85999
-34.549999 75.650002 -614.09998
-34.02 75.699997 -614.53003
-33.470001 75.739998 -614.84998
-32.919998 75.760002 -615.02002
-32.360001 75.790001 -615.22998
-31.809999 75.809998 -615.41998
-31.25 75.830002 -615.54999
-30.690001 75.849998 -615.71002
-30.139999 75.870003 -615.85999
-29.58 75.900002 -616.12
-29.030001 75.919998 -616.32001
-28.48 75.970001 -616.71997
-27.93 76.010002 -617.03998
-27.389999 76.089996 -617.62
-26.84 76.139999 -618.03003
-26.299999 76.209999 -618.59998
-25.75 76.260002 -619.03998
-25.200001 76.300003 -619.33002
-24.639999 76.339996 -619.62
-24.08 76.379997 -619.96002
-23.52 76.400002 -620.14001
-22.950001 76.400002 -620.16998
-22.389999 76.419998 -620.27002
-21.809999 76.389999 -620.01001
-21.24 76.360001 -619.82001
-20.67 76.370003 -619.90002
-20.110001 76.389999 -620.08002
-19.549999 76.449997 -620.56
-18.99 76.470001 -620.72998
-18.43 76.519997 -621.12
-17.879999 76.580002 -621.60999
-17.32 76.650002 -622.12
-16.76 76.699997 -622.53998
-16.209999 76.779999 -623.20001
-15.65 76.849998 -623.73999
-15.09 76.93 -624.41998
-14.53 76.989998 -624.89001
-13.97 77.019997 -625.13
-13.4 77.059998 -625.45001
-12.83 77.099998 -625.73999
-12.26 77.120003 -625.94
-11.69 77.150002 -626.10999
-11.12 77.150002 -626.10999
-10.54 77.139999 -626.09998
-9.9700003 77.150002 -626.13
-9.3900003 77.139999 -626.04999
-8.8199997 77.139999 -626.06
-8.2399998 77.129997 -626.02002
-7.6700001 77.120003 -625.91998
-7.0999999 77.150002 -626.17999
-6.52 77.18 -626.35999
-5.9499998 77.18 -626.41998
-5.3800001 77.209999 -626.60999
-4.8000002 77.230003 -626.78998
-4.23 77.260002 -626.98999
-3.6600001 77.279999 -627.17999
-3.0799999 77.269997 -627.08002
-2.5 77.160004 -626.25
-1.92 76.849998 -623.77002
-1.34 76.57 -621.48999
-0.76999998 76.379997 -620.02002
-0.2 76.25 -618.90997
0.37 76.120003 -617.91998
0.93000001 76 -616.90997
1.5 75.910004 -616.20001
2.0599999 75.809998 -615.45001
2.6199999 75.709999 -614.62
3.1800001 75.610001 -613.85999
3.74 75.529999 -613.21997
4.3000002 75.449997 -612.56
4.8499999 75.400002 -612.12
5.4099998 75.330002 -611.62
5.9699998 75.290001 -611.28003
6.52 75.239998 -610.83002
7.0799999 75.190002 -610.45001
7.6300001 75.129997 -610.02002
8.1899996 75.099998 -609.77002
8.7399998 75.059998 -609.41998
9.3000002 75.040001 -609.22998
9.8500004 75.010002 -608.98999
10.41 74.989998 -608.83002
10.96 74.949997 -608.56
11.52 74.940002 -608.48999
12.07 74.919998 -608.32001
12.63 74.919998 -608.29999
13.19 74.900002 -608.12
13.74 74.889999 -608.03998
14.3 74.870003 -607.92999
14.85 74.870003 -607.92999
15.41 74.879997 -607.94
15.97 74.889999 -608.03003
16.530001 74.889999 -608.08002
17.09 74.889999 -608.04999
17.65 74.910004 -608.20001
18.209999 74.910004 -608.19
18.77 74.949997 -608.53003
19.34 74.959999 -608.65002
19.9 74.970001 -608.67999
20.459999 75 -608.92999
21.02 75.010002 -609.04999
21.59 75.050003 -609.34998
22.16 75.089996 -609.65002
22.74 75.139999 -610.02002
23.309999 75.190002 -610.45001
23.889999 75.239998 -610.88
24.469999 75.309998 -611.40002
25.059999 75.389999 -612.03003
25.629999 75.43 -612.37
26.219999 75.510002 -613.03998
26.809999 75.57 -613.47998
27.389999 75.610001 -613.83002
27.969999 75.68 -614.33002
28.549999 75.730003 -614.72998
29.139999 75.769997 -615.09998
29.709999 75.800003 -615.34998
30.299999 75.849998 -615.76001
30.879999 75.889999 -616.03998
31.450001 75.919998 -616.29999
32.029999 75.940002 -616.44
32.610001 75.980003 -616.72998
33.189999 76.010002 -617.02002
33.77 76.050003 -617.28003
34.349998 76.080002 -617.57001
34.93 76.110001 -617.77002
35.5 76.110001 -617.81
36.060001 76.110001 -617.78998
36.639999 76.129997 -617.91998
37.200001 76.120003 -617.90002
37.779999 76.139999 -618
38.349998 76.150002 -618.14001
38.939999 76.190002 -618.39001
39.52 76.220001 -618.65002
40.110001 76.260002 -618.94
40.689999 76.279999 -619.15002
41.259998 76.290001 -619.21997
41.84 76.309998 -619.34998
42.41 76.309998 -619.40997
42.98 76.32 -619.42999
43.560001 76.339996 -619.59003
44.139999 76.360001 -619.78998
44.740002 76.400002 -620.12
45.32 76.419998 -620.26001
45.91 76.470001 -620.64001
46.5 76.5 -620.91998
47.09 76.529999 -621.09003
47.669998 76.550003 -621.32001
48.279999 76.599998 -621.71002
48.889999 76.669998 -622.25
49.540001 76.790001 -623.20001
50.209999 76.940002 -624.41998
50.860001 77.059998 -625.35999
51.509998 77.18 -626.34003
52.18 77.32 -627.46997
81.449997 78.349998 -635.54999
81.650002 77.980003 -632.59003
81.940002 77.699997 -630.35999
82.269997 77.470001 -628.51001
82.589996 77.220001 -626.57001
82.959999 77.040001 -625.09998
83.349998 76.870003 -623.73999
83.75 76.709999 -622.46997
84.110001 76.519997 -620.90997
84.519997 76.379997 -619.78003
84.879997 76.18 -618.21997
85.25 76.010002 -616.82001
85.68 75.889999 -615.88
86.099998 75.760002 -614.88
86.519997 75.629997 -613.84003
86.989998 75.550003 -613.19
87.43 75.449997 -612.34003
87.93 75.400002 -611.92999
88.410004 75.330002 -611.39001
88.919998 75.279999 -611
89.43 75.239998 -610.65997
89.940002 75.199997 -610.38
90.459999 75.160004 -610.04999
91 75.150002 -609.95001
91.550003 75.139999 -609.88
92.110001 75.139999 -609.89001
92.709999 75.18 -610.15997
93.300003 75.199997 -610.34003
93.900002 75.230003 -610.57001
94.580002 75.330002 -611.37
95.32 75.470001 -612.52002
96.07 75.620003 -613.65997
-168.27 72.050003 -589.54999
-167.53 71.970001 -588.87
-166.89 71.919998 -588.5
-166.33 71.919998 -588.46002
-165.77 71.900002 -588.35999
-165.25999 71.919998 -588.47998
-164.72 71.919998 -588.45001
-164.19 71.919998 -588.48999
-163.67999 71.93 -588.59998
-163.14999 71.940002 -588.64001
-162.62 71.940002 -588.65997
-162.12 71.959999 -588.81
-161.63 71.980003 -588.96002
-161.14 72 -589.12
-160.64 72.019997 -589.29999
-160.10001 72.019997 -589.27002
-159.58 72.029999 -589.34998
-159.03999 72.029999 -589.33002
-158.48 72.019997 -589.27002
-157.97 72.040001 -589.38
-157.42 72.029999 -589.35999
-156.88 72.029999 -589.33002
-156.37 72.050003 -589.45001
-155.82001 72.040001 -589.40002
-155.28999 72.040001 -589.42999
-154.75999 72.050003 -589.5
-154.25 72.07 -589.60999
-153.73 72.080002 -589.69
-153.24001 72.099998 -589.84998
-152.73 72.110001 -589.97998
-152.23 72.129997 -590.12
-151.75 72.160004 -590.37
-151.25999 72.190002 -590.54999
-150.77 72.209999 -590.75
-150.3 72.239998 -591.02002
-149.83 72.279999 -591.33002
-149.36 72.32 -591.59998
-148.88 72.349998 -591.84998
-148.42 72.389999 -592.16998
-147.99001 72.440002 -592.59998
-147.52 72.480003 -592.89001
-147.08 72.529999 -593.31
-146.64999 72.580002 -593.73999
-146.23 72.650002 -594.27002
-145.81 72.709999 -594.76001
-145.39 72.769997 -595.25
-144.97 72.839996 -595.78003
-144.58 72.919998 -596.40997
-144.17999 72.989998 -597.01001
-143.81 73.080002 -597.71997
-143.39999 73.150002 -598.27002
-143.06 73.260002 -599.15997
-142.64999 73.330002 -599.71997
-142.32001 73.440002 -600.65002
-141.92999 73.529999 -601.32001
-141.62 73.650002 -602.29999
-141.24001 73.739998 -603.04999
-140.95 73.879997 -604.16998
-140.58 73.980003 -604.94
-140.25 74.089996 -605.89001
-139.86 74.18 -606.58002
-139.46001 74.269997 -607.27002
-139.00999 74.32 -607.71002
-138.57001 74.379997 -608.21002
-138.06 74.410004 -608.42999
-137.53 74.419998 -608.54999
-136.94 74.410004 -608.41998
-136.39 74.410004 -608.45001
-135.86 74.43 -608.56
-135.34 74.449997 -608.76001
-134.82001 74.470001 -608.94
-134.36 74.519997 -609.34998
-133.85001 74.550003 -609.58002
-133.36 74.589996 -609.90997
-132.87 74.629997 -610.19
-132.37 74.669998 -610.5
-131.87 74.699997 -610.76001
-131.37 74.730003 -611.03003
-130.88 74.769997 -611.34003
-130.37 74.800003 -611.59003
-129.81 74.800003 -611.58002
-129.3 74.830002 -611.84998
-128.81 74.870003 -612.15002
-128.28 74.889999 -612.32001
-127.75 74.910004 -612.45001
-127.25 74.949997 -612.76001
-126.71 74.959999 -612.84998
-126.18 74.980003 -613.02002
-125.63 74.989998 -613.10999
-125.09 75 -613.20001
-124.56 75.019997 -613.37
-124.02 75.029999 -613.45001
-123.49 75.050003 -613.62
-122.96 75.07 -613.76001
-122.39 75.07 -613.78003
-121.86 75.089996 -613.90997
-121.3 75.089996 -613.95001
-120.75 75.099998 -614.02002
-120.2 75.110001 -614.04999
-119.66 75.120003 -614.19
-119.08 75.110001 -614.09998
-118.5 75.110001 -614.03998
-117.93 75.099998 -613.98999
-117.29 75.050003 -613.59998
-115.32 74.150002 -606.31
-114.15 73.75 -603.13
-113.35 73.589996 -601.82001
-112.58 73.440002 -600.65002
-111.9 73.360001 -599.98999
-111.26 73.300003 -599.52002
-110.66 73.269997 -599.23999
-110.09 73.25 -599.12
-109.52 73.239998 -599.06
-108.98 73.25 -599.09998
-108.43 73.25 -599.09003
-107.9 73.260002 -599.21997
-107.36 73.269997 -599.27002
-106.81 73.269997 -599.27002
-106.29 73.290001 -599.40997
-105.76 73.300003 -599.53003
-105.22 73.309998 -599.59003
-104.68 73.32 -599.64001
-104.16 73.339996 -599.81
-103.63 73.349998 -599.92999
-103.1 73.360001 -600.01001
-102.55 73.370003 -600.04999
-102.03 73.379997 -600.20001
-101.5 73.400002 -600.34998
-100.96 73.410004 -600.41998
-100.45 73.440002 -600.60999
-99.919998 73.459999 -600.78003
-99.379997 73.459999 -600.84003
-98.849998 73.480003 -600.94
-98.279999 73.459999 -600.84003
-97.720001 73.449997 -600.77002
-97.139999 73.440002 -600.64001
-96.540001 73.389999 -600.28998
-95.940002 73.360001 -600
-95.349998 73.330002 -599.73999
-94.760002 73.300003 -599.54999
-94.190002 73.290001 -599.41998
-93.629997 73.269997 -599.32001
-93.07 73.269997 -599.27002
-92.510002 73.25 -599.16998
-91.949997 73.25 -599.16998
-91.419998 73.269997 -599.28998
-90.879997 73.269997 -599.33002
-90.349998 73.290001 -599.46002
-89.800003 73.290001 -599.46002
-89.239998 73.279999 -599.38
-88.650002 73.25 -599.13
-88.050003 73.209999 -598.81
-87.449997 73.160004 -598.45001
-86.870003 73.129997 -598.21997
-86.279999 73.099998 -597.96997
-85.629997 73.010002 -597.22998
-84.839996 72.800003 -595.54999
-84.120003 72.660004 -594.37
-83.480003 72.57 -593.69
-82.830002 72.480003 -592.97998
-82.199997 72.410004 -592.38
-81.589996 72.349998 -591.90997
-80.989998 72.290001 -591.45001
-80.400002 72.25 -591.09003
-79.82 72.220001 -590.84003
-79.25 72.190002 -590.64001
-78.699997 72.18 -590.59003
-78.139999 72.160004 -590.41998
-77.580002 72.150002 -590.31
-76.940002 72.050003 -589.53998
-76.32 71.980003 -588.95001
-75.739998 71.940002 -588.65002
-75.18 71.919998 -588.46997
-74.620003 71.900002 -588.33002
-74.080002 71.900002 -588.31
-73.519997 71.889999 -588.21002
-72.980003 71.879997 -588.16998
-72.449997 71.889999 -588.23999
-71.900002 71.879997 -588.15997
-71.370003 71.900002 -588.28003
-70.82 71.879997 -588.15997
-70.269997 71.870003 -588.09003
-69.720001 71.860001 -588
-69.18 71.849998 -587.96002
-68.639999 71.849998 -587.92999
-68.120003 71.870003 -588.09998
-67.589996 71.879997 -588.16998
-67.050003 71.889999 -588.22998
-66.540001 71.910004 -588.41998
-66.019997 71.93 -588.59003
-65.489998 71.949997 -588.76001
-64.980003 71.980003 -589.02002
-64.470001 72.019997 -589.28003
-63.959999 72.050003 -589.52002
-63.43 72.059998 -589.63
-62.900002 72.080002 -589.77002
-62.369999 72.080002 -589.79999
-61.830002 72.089996 -589.87
-61.299999 72.099998 -589.97998
-60.790001 72.129997 -590.25
-60.27 72.160004 -590.46997
-59.759998 72.199997 -590.77002
-59.25 72.239998 -591.09003
-58.759998 72.300003 -591.57001
-58.27 72.360001 -592.07001
-39.73 75.300003 -615.78998
-39.099998 75.160004 -614.70001
-38.490002 75.07 -613.94
-37.889999 74.989998 -613.34998
-37.310001 74.959999 -613.07001
-36.759998 74.989998 -613.32001
-36.220001 75.029999 -613.66998
-35.669998 75.07 -613.97998
-35.130001 75.099998 -614.25
-34.580002 75.150002 -614.59003
-34.040001 75.190002 -614.94
-33.490002 75.220001 -615.17999
-32.93 75.25 -615.39001
-32.389999 75.279999 -615.67999
-31.83 75.309998 -615.89001
-31.27 75.32 -615.98999
-30.719999 75.339996 -616.20001
-30.16 75.360001 -616.35999
-29.610001 75.410004 -616.71002
-29.059999 75.440002 -617
-28.51 75.489998 -617.35999
-27.969999 75.550003 -617.87
-27.43 75.620003 -618.46002
-26.879999 75.68 -618.91998
-26.33 75.739998 -619.39001
-25.780001 75.790001 -619.78003
-25.25 75.879997 -620.53998
-24.690001 75.919998 -620.84998
-24.139999 76 -621.46997
-23.59 76.059998 -621.96997
-23.040001 76.110001 -622.37
-22.48 76.139999 -622.62
-21.91 76.150002 -622.69
-21.34 76.160004 -622.78998
-20.77 76.150002 -622.71997
-20.190001 76.129997 -622.52002
-19.610001 76.099998 -622.33002
-19.040001 76.120003 -622.42999
-18.48 76.150002 -622.70001
-17.92 76.190002 -623.07001
-17.360001 76.239998 -623.45001
-16.799999 76.300003 -623.96002
-16.24 76.370003 -624.5
-15.68 76.449997 -625.09998
-15.12 76.489998 -625.46002
-14.55 76.519997 -625.72998
-13.98 76.540001 -625.89001
-13.41 76.559998 -626.03998
-12.84 76.57 -626.10999
-12.26 76.57 -626.10999
-11.69 76.57 -626.07001
-11.12 76.57 -626.10999
-10.54 76.57 -626.09998
-9.9700003 76.57 -626.10999
-9.3900003 76.580002 -626.15997
-8.8199997 76.580002 -626.21997
-8.2399998 76.57 -626.10999
-7.6700001 76.599998 -626.34003
-7.0999999 76.610001 -626.44
-6.5300002 76.629997 -626.58002
-5.9499998 76.650002 -626.71002
-5.3800001 76.650002 -626.76001
-4.8000002 76.68 -626.97998
-4.23 76.709999 -627.21997
-3.6600001 76.75 -627.53003
-3.0799999 76.769997 -627.67999
-2.51 76.75 -627.59003
-1.9299999 76.709999 -627.27002
-1.35 76.43 -624.95001
-0.76999998 76.07 -622.07001
-0.2 75.879997 -620.53003
0.37 75.760002 -619.54999
0.93000001 75.589996 -618.20001
1.5 75.5 -617.46997
2.0599999 75.400002 -616.66998
2.6199999 75.300003 -615.83002
3.1900001 75.209999 -615.13
3.75 75.129997 -614.46002
4.3000002 75.050003 -613.85999
4.8600001 74.989998 -613.33002
5.4200001 74.910004 -612.70001
5.98 74.849998 -612.21997
6.5300002 74.779999 -611.71002
7.0900002 74.760002 -611.51001
7.6500001 74.690002 -610.97998
8.1999998 74.650002 -610.65997
8.7600002 74.620003 -610.38
9.3100004 74.589996 -610.14001
9.8699999 74.559998 -609.87
10.43 74.540001 -609.71997
10.98 74.510002 -609.51001
11.54 74.5 -609.39001
12.09 74.480003 -609.23999
12.65 74.459999 -609.10999
13.21 74.459999 -609.06
13.76 74.449997 -608.97998
14.32 74.449997 -608.98999
14.88 74.440002 -608.96997
15.44 74.449997 -609.01001
16 74.449997 -608.97998
16.559999 74.449997 -609.03998
17.120001 74.480003 -609.26001
17.68 74.470001 -609.15002
18.24 74.489998 -609.34998
18.799999 74.5 -609.42999
19.370001 74.519997 -609.57001
19.93 74.529999 -609.67999
20.49 74.559998 -609.85999
21.059999 74.589996 -610.15002
21.639999 74.639999 -610.51001
22.209999 74.68 -610.84998
22.780001 74.730003 -611.22998
23.370001 74.800003 -611.85999
23.950001 74.860001 -612.26001
24.530001 74.919998 -612.75
25.1 74.959999 -613.15002
25.690001 75.029999 -613.66998
26.27 75.07 -614.03003
26.860001 75.150002 -614.64001
27.43 75.190002 -614.91998
28.02 75.230003 -615.28003
28.59 75.260002 -615.54999
29.18 75.32 -615.97998
29.75 75.349998 -616.23999
30.33 75.379997 -616.51001
30.91 75.400002 -616.67999
31.49 75.43 -616.90002
32.060001 75.449997 -617.03998
32.639999 75.480003 -617.32001
33.220001 75.510002 -617.53003
33.799999 75.550003 -617.83002
34.380001 75.57 -617.97998
34.950001 75.580002 -618.10999
35.52 75.589996 -618.16998
36.09 75.589996 -618.17999
36.66 75.610001 -618.32001
37.240002 75.629997 -618.46002
37.82 75.650002 -618.64001
38.389999 75.660004 -618.76001
38.970001 75.690002 -618.97998
39.560001 75.730003 -619.28003
40.139999 75.75 -619.44
40.720001 75.779999 -619.66998
41.299999 75.790001 -619.78003
41.869999 75.800003 -619.83002
42.450001 75.82 -619.98999
43.040001 75.849998 -620.25
43.630001 75.889999 -620.58002
44.209999 75.910004 -620.72998
44.799999 75.949997 -621.02002
45.389999 75.980003 -621.25
45.970001 75.989998 -621.38
46.549999 76.010002 -621.56
47.139999 76.040001 -621.76001
47.740002 76.089996 -622.15002
48.349998 76.150002 -622.62
49 76.269997 -623.62
49.669998 76.419998 -624.85999
50.34 76.57 -626.02002
50.98 76.669998 -626.85999
51.669998 76.839996 -628.19
82.040001 78.32 -640.02002
81.980003 77.699997 -635.08002
82.139999 77.309998 -631.91998
82.5 77.110001 -630.27002
82.830002 76.870003 -628.38
83.190002 76.669998 -626.78003
83.519997 76.449997 -624.97998
83.93 76.300003 -623.78003
84.290001 76.110001 -622.21997
84.699997 75.970001 -621.06
85.080002 75.800003 -619.71997
85.449997 75.620003 -618.28998
85.839996 75.459999 -617.01001
86.269997 75.349998 -616.09003
86.690002 75.220001 -615.06
87.129997 75.120003 -614.21002
87.599998 75.029999 -613.51001
88.07 74.949997 -612.88
88.529999 74.870003 -612.17999
89.050003 74.830002 -611.90002
89.559998 74.790001 -611.56
90.080002 74.75 -611.27002
90.599998 74.720001 -611.02002
91.139999 74.699997 -610.85999
91.669998 74.68 -610.66998
92.239998 74.690002 -610.76001
92.839996 74.720001 -611
93.449997 74.760002 -611.33002
94.110001 74.839996 -611.95001
94.809998 74.949997 -612.84003
95.57 75.099998 -614.06
-168.28 71.519997 -589.60999
-167.53 71.43 -588.87
-166.89999 71.389999 -588.54999
-166.33 71.379997 -588.45001
-165.78999 71.379997 -588.45001
-165.28999 71.389999 -588.56
-164.75999 71.400002 -588.60999
-164.23 71.400002 -588.62
-163.67 71.389999 -588.53998
-163.17 71.410004 -588.69
-162.64999 71.419998 -588.77002
-162.16 71.440002 -588.90997
-161.64 71.449997 -589
-161.13 71.459999 -589.10999
-160.63 71.480003 -589.26001
-160.11 71.489998 -589.29999
-159.57001 71.489998 -589.31
-159.03 71.489998 -589.33002
-158.50999 71.5 -589.38
-157.96001 71.489998 -589.33002
-157.42 71.489998 -589.33002
-156.88 71.489998 -589.33002
-156.35001 71.5 -589.37
-155.82001 71.5 -589.41998
-155.31 71.519997 -589.52002
-154.78 71.519997 -589.57001
-154.25999 71.529999 -589.63
-153.74001 71.540001 -589.72998
-153.25 71.559998 -589.88
-152.73 71.57 -589.96002
-152.22 71.589996 -590.10999
-151.75 71.620003 -590.38
-151.25 71.639999 -590.51001
-150.78 71.68 -590.81
-150.28 71.690002 -590.94
-149.84 71.75 -591.35999
-149.37 71.779999 -591.64001
-148.89999 71.809998 -591.91998
-148.44 71.849998 -592.23999
-148 71.900002 -592.63
-147.52 71.93 -592.89001
-147.08 71.980003 -593.28998
-146.66 72.050003 -593.78998
-146.22 72.099998 -594.21997
-145.78999 72.160004 -594.67999
-145.36 72.209999 -595.14001
-144.95 72.279999 -595.69
-144.57001 72.360001 -596.35999
-144.16 72.43 -596.90002
-143.78999 72.519997 -597.63
-143.37 72.589996 -598.17999
-143.03 72.690002 -599.02002
-142.64999 72.779999 -599.72998
-142.31 72.889999 -600.59003
-141.92 72.970001 -601.26001
-141.57001 73.07 -602.12
-141.23 73.18 -603.02002
-140.95 73.32 -604.15002
-140.58 73.419998 -604.90997
-140.24001 73.529999 -605.83002
-139.86 73.629997 -606.59003
-139.47 73.720001 -607.32001
-139.05 73.790001 -607.91998
-138.61 73.849998 -608.39001
-138.11 73.879997 -608.64001
-137.59 73.900002 -608.81
-137.02 73.889999 -608.76001
-136.44 73.879997 -608.67999
-135.89999 73.889999 -608.76001
-135.39999 73.919998 -609.01001
-134.89 73.949997 -609.25
-134.38 73.980003 -609.46997
-133.89 74.019997 -609.78003
-133.39 74.050003 -610.02002
-132.88 74.080002 -610.27002
-132.39999 74.120003 -610.63
-131.89999 74.160004 -610.90997
-131.41 74.190002 -611.20001
-130.89999 74.230003 -611.46997
-130.41 74.269997 -611.78998
-129.87 74.279999 -611.85999
-129.36 74.300003 -612.10999
-128.83 74.330002 -612.28998
-128.32001 74.349998 -612.48999
-127.79 74.370003 -612.63
-127.28 74.400002 -612.90997
-126.76 74.43 -613.09003
-126.22 74.440002 -613.19
-125.68 74.449997 -613.32001
-125.16 74.480003 -613.54999
-124.62 74.489998 -613.65002
-124.07 74.5 -613.72998
-123.53 74.519997 -613.82001
-123.01 74.540001 -614.02002
-122.43 74.529999 -613.97998
-121.89 74.550003 -614.07001
-121.35 74.559998 -614.17999
-120.8 74.57 -614.23999
-120.26 74.580002 -614.34998
-119.72 74.599998 -614.47998
-119.15 74.589996 -614.45001
-118.56 74.580002 -614.32001
-118 74.580002 -614.33002
-117.37 74.540001 -614.03003
-116.22 74.160004 -610.94
-114.28 73.279999 -603.78003
-113.48 73.120003 -602.47998
-112.7 72.970001 -601.31
-111.98 72.860001 -600.39001
-111.35 72.809998 -599.96997
-110.75 72.779999 -599.71002
-110.16 72.75 -599.53003
-109.57 72.730003 -599.32001
-109.03 72.730003 -599.34003
-108.5 72.75 -599.47998
-107.94 72.739998 -599.44
-107.42 72.760002 -599.54999
-106.88 72.760002 -599.60999
-106.36 72.779999 -599.78003
-105.81 72.790001 -599.82001
-105.27 72.790001 -599.88
-104.74 72.809998 -599.97998
-104.21 72.82 -600.10999
-103.69 72.839996 -600.25
-103.15 72.849998 -600.34003
-102.64 72.879997 -600.56
-102.1 72.889999 -600.63
-101.58 72.910004 -600.81
-101.03 72.910004 -600.82001
-100.51 72.93 -600.96997
-99.959999 72.93 -601.01001
-99.43 72.949997 -601.15997
-98.900002 72.959999 -601.22998
-98.360001 72.970001 -601.34003
-97.790001 72.959999 -601.21997
-97.220001 72.940002 -601.09998
-96.629997 72.919998 -600.88
-96.040001 72.879997 -600.62
-95.440002 72.849998 -600.34003
-94.849998 72.82 -600.09998
-94.269997 72.800003 -599.91998
-93.699997 72.779999 -599.77002
-93.129997 72.760002 -599.63
-92.580002 72.760002 -599.65002
-92.029999 72.760002 -599.64001
-91.480003 72.769997 -599.67999
-90.93 72.769997 -599.69
-90.400002 72.779999 -599.76001
-89.860001 72.779999 -599.84003
-89.309998 72.779999 -599.83002
-88.75 72.779999 -599.79999
-88.150002 72.739998 -599.45001
-87.550003 72.699997 -599.13
-86.949997 72.660004 -598.81
-86.370003 72.629997 -598.54999
-85.730003 72.559998 -597.97998
-84.940002 72.339996 -596.25
-84.169998 72.150002 -594.70001
-83.510002 72.050003 -593.89001
-82.839996 71.949997 -593.03998
-82.220001 71.879997 -592.48999
-81.610001 71.82 -592
-81.019997 71.769997 -591.65997
-80.419998 71.720001 -591.23999
-79.839996 71.690002 -591.01001
-79.260002 71.660004 -590.71997
-78.699997 71.639999 -590.59998
-78.139999 71.620003 -590.44
-77.589996 71.620003 -590.40002
-77 71.57 -590.01001
-76.360001 71.470001 -589.23999
-75.75 71.419998 -588.77002
-75.209999 71.410004 -588.71997
-74.639999 71.379997 -588.47998
-74.089996 71.379997 -588.46002
-73.540001 71.360001 -588.33002
-73 71.360001 -588.34998
-72.470001 71.370003 -588.38
-71.93 71.370003 -588.39001
-71.379997 71.360001 -588.34998
-70.839996 71.360001 -588.35999
-70.290001 71.349998 -588.25
-69.739998 71.330002 -588.10999
-69.190002 71.330002 -588.09003
-68.660004 71.339996 -588.15997
-68.129997 71.339996 -588.19
-67.599998 71.349998 -588.26001
-67.07 71.360001 -588.34998
-66.550003 71.379997 -588.52002
-66.029999 71.400002 -588.69
-65.519997 71.43 -588.94
-65 71.459999 -589.15997
-64.480003 71.489998 -589.38
-63.98 71.529999 -589.69
-63.459999 71.550003 -589.89001
-62.919998 71.550003 -589.92999
-62.380001 71.559998 -589.96997
-61.860001 71.57 -590.08002
-61.330002 71.589996 -590.21997
-60.799999 71.599998 -590.31
-60.290001 71.639999 -590.59998
-59.77 71.669998 -590.84998
-59.259998 71.709999 -591.20001
-58.759998 71.760002 -591.59998
-58.27 71.82 -592.08002
-40.310001 74.760002 -615.97998
-39.689999 74.650002 -615.12
-39.080002 74.57 -614.45001
-38.48 74.489998 -613.79999
-37.889999 74.440002 -613.44
-37.34 74.449997 -613.53003
-36.779999 74.470001 -613.66998
-36.25 74.529999 -614.13
-35.700001 74.57 -614.48999
-35.16 74.620003 -614.87
-34.619999 74.650002 -615.16998
-34.07 74.690002 -615.47998
-33.52 74.720001 -615.70001
-32.959999 74.75 -615.94
-32.419998 74.790001 -616.27002
-31.860001 74.809998 -616.44
-31.309999 74.839996 -616.66998
-30.75 74.860001 -616.87
-30.190001 74.879997 -617.04999
-29.639999 74.919998 -617.38
-29.09 74.949997 -617.59998
-28.549999 75.019997 -618.15002
-28.01 75.089996 -618.69
-27.469999 75.160004 -619.33002
-26.93 75.25 -620
-26.389999 75.330002 -620.65997
-25.84 75.379997 -621.06
-25.290001 75.440002 -621.60999
-24.74 75.510002 -622.12
-24.200001 75.589996 -622.78998
-23.639999 75.629997 -623.14001
-23.08 75.690002 -623.59998
-22.530001 75.739998 -624.03998
-21.969999 75.790001 -624.45001
-21.4 75.82 -624.67999
-20.84 75.849998 -624.94
-20.280001 75.889999 -625.23999
-19.709999 75.910004 -625.37
-19.129999 75.879997 -625.17999
-18.549999 75.879997 -625.12
-17.98 75.889999 -625.21997
-17.42 75.940002 -625.63
-16.85 75.959999 -625.78003
-16.280001 75.989998 -626.07001
-15.71 75.989998 -626.04999
-15.14 76 -626.13
-14.57 76.019997 -626.27002
-13.99 76.010002 -626.22998
-13.41 76.010002 -626.20001
-12.84 76.010002 -626.20001
-12.27 76 -626.15997
-11.69 75.989998 -626.06
-11.12 76.010002 -626.17999
-10.54 76.010002 -626.17999
-9.9700003 76.010002 -626.25
-9.3999996 76.019997 -626.28003
-8.8199997 76.019997 -626.34003
-8.25 76.019997 -626.31
-7.6700001 76.040001 -626.44
-7.0999999 76.050003 -626.58002
-6.5300002 76.07 -626.70001
-5.9499998 76.099998 -626.91998
-5.3800001 76.110001 -627.04999
-4.8099999 76.129997 -627.21002
-4.23 76.169998 -627.54999
-3.6600001 76.209999 -627.83002
-3.0799999 76.239998 -628.07001
-2.51 76.260002 -628.21997
-1.9299999 76.260002 -628.26001
-1.36 76.209999 -627.85999
-0.77999997 76.029999 -626.37
-0.2 75.629997 -623.15002
0.37 75.43 -621.54999
0.94 75.279999 -620.26001
1.5 75.160004 -619.33002
2.0699999 75.010002 -618.13
2.6300001 74.919998 -617.39001
3.1900001 74.82 -616.53998
3.75 74.730003 -615.81
4.3099999 74.650002 -615.19
4.8699999 74.559998 -614.47998
5.4299998 74.510002 -614.02002
5.9899998 74.440002 -613.46997
6.5500002 74.360001 -612.84003
7.0999999 74.330002 -612.57001
7.6599998 74.279999 -612.17999
8.2200003 74.230003 -611.79999
8.7700005 74.190002 -611.41998
9.3299999 74.160004 -611.21002
9.8900003 74.129997 -610.94
10.44 74.110001 -610.75
11 74.089996 -610.59998
11.56 74.059998 -610.40002
12.11 74.040001 -610.22998
12.67 74.040001 -610.21997
13.23 74.029999 -610.10999
13.79 74.019997 -610.06
14.35 74.019997 -610.04999
14.91 74.019997 -610.03998
15.47 74.019997 -610.03998
16.02 74.010002 -609.96997
16.59 74.040001 -610.19
17.15 74.029999 -610.16998
17.709999 74.050003 -610.26001
18.27 74.059998 -610.40997
18.84 74.080002 -610.5
19.4 74.089996 -610.64001
19.969999 74.120003 -610.83002
20.530001 74.139999 -611.03003
21.110001 74.18 -611.34998
21.68 74.230003 -611.78998
22.25 74.269997 -612.07001
22.83 74.32 -612.46997
23.41 74.389999 -613.08002
24 74.449997 -613.56
24.58 74.510002 -614
25.16 74.550003 -614.37
25.74 74.620003 -614.91998
26.32 74.660004 -615.25
26.9 74.709999 -615.62
27.48 74.739998 -615.90997
28.059999 74.800003 -616.34998
28.639999 74.830002 -616.59998
29.219999 74.860001 -616.82001
29.790001 74.870003 -616.92999
30.370001 74.900002 -617.15002
30.940001 74.910004 -617.29999
31.51 74.93 -617.41998
32.099998 74.970001 -617.75
32.68 75 -618.02002
33.259998 75.029999 -618.26001
33.84 75.059998 -618.47998
34.41 75.07 -618.53003
34.98 75.080002 -618.59998
35.549999 75.080002 -618.66998
36.130001 75.110001 -618.88
36.700001 75.110001 -618.85999
37.279999 75.139999 -619.09998
37.849998 75.150002 -619.20001
38.439999 75.190002 -619.54999
39.029999 75.220001 -619.78003
39.619999 75.260002 -620.13
40.189999 75.279999 -620.22998
40.77 75.300003 -620.38
41.349998 75.32 -620.54999
41.939999 75.360001 -620.85999
42.52 75.379997 -621.02002
43.110001 75.410004 -621.28003
43.689999 75.419998 -621.39001
44.27 75.440002 -621.51001
44.84 75.449997 -621.59003
45.43 75.470001 -621.78003
46.009998 75.489998 -621.94
46.599998 75.519997 -622.21997
47.200001 75.57 -622.58002
47.830002 75.650002 -623.26001
48.450001 75.739998 -623.97998
49.139999 75.919998 -625.44
49.790001 76.040001 -626.40002
50.459999 76.18 -627.52002
82.5 77.059998 -634.62
82.75 76.760002 -632.14001
83.040001 76.489998 -629.92999
83.410004 76.309998 -628.45001
83.760002 76.089996 -626.70001
84.139999 75.919998 -625.28998
84.510002 75.739998 -623.84003
84.93 75.599998 -622.71997
85.309998 75.43 -621.37
85.699997 75.279999 -620.08002
86.050003 75.080002 -618.51001
86.449997 74.940002 -617.33002
86.889999 74.82 -616.40997
87.330002 74.720001 -615.58002
87.779999 74.629997 -614.79999
88.230003 74.519997 -613.96002
88.709999 74.459999 -613.41998
89.230003 74.419998 -613.14001
89.720001 74.360001 -612.62
90.230003 74.32 -612.27002
90.760002 74.290001 -612.09998
91.300003 74.279999 -611.95001
91.849998 74.269997 -611.89001
92.419998 74.269997 -611.90002
93.010002 74.300003 -612.10999
93.629997 74.349998 -612.5
94.330002 74.449997 -613.34003
95.040001 74.57 -614.28998
95.82 74.730003 -615.64001
-168.3 70.980003 -589.66998
-167.53 70.889999 -588.85999
-166.89 70.839996 -588.52002
-166.35001 70.839996 -588.48999
-165.81 70.839996 -588.48999
-165.25 70.830002 -588.41998
-164.75 70.849998 -588.57001
-164.23 70.860001 -588.62
-163.67999 70.860001 -588.59998
-163.17 70.870003 -588.67999
-162.66 70.879997 -588.78003
-162.19 70.910004 -589.03003
-161.67 70.919998 -589.09003
-161.14 70.93 -589.14001
-160.64 70.940002 -589.28003
-160.11 70.949997 -589.31
-159.56 70.940002 -589.28998
-159.02 70.940002 -589.26001
-158.48 70.940002 -589.28003
-157.96001 70.949997 -589.34003
-157.42999 70.959999 -589.39001
-156.89 70.959999 -589.39001
-156.36 70.959999 -589.40002
-155.82001 70.959999 -589.41998
-155.28999 70.970001 -589.46002
-154.75999 70.970001 -589.48999
-154.24001 70.980003 -589.57001
-153.74001 71 -589.71997
-153.22 71.010002 -589.79999
-152.72 71.029999 -589.95001
-152.22 71.050003 -590.09003
-151.75 71.080002 -590.35999
-151.24001 71.099998 -590.48999
-150.77 71.129997 -590.77002
-150.28999 71.160004 -591.01001
-149.82001 71.190002 -591.26001
-149.35001 71.230003 -591.54999
-148.89 71.269997 -591.87
-148.42999 71.300003 -592.17999
-147.98 71.349998 -592.54999
-147.52 71.389999 -592.88
-147.08 71.440002 -593.29999
-146.62 71.480003 -593.65002
-146.22 71.550003 -594.21002
-145.75999 71.589996 -594.54999
-145.34 71.660004 -595.04999
-144.95 71.730003 -595.69
-144.53999 71.800003 -596.25
-144.13 71.870003 -596.79999
-143.78 71.970001 -597.58002
-143.39 72.050003 -598.23999
-143 72.129997 -598.90002
-142.64999 72.230003 -599.71002
-142.27 72.309998 -600.40997
-141.92 72.419998 -601.26001
-141.53999 72.510002 -602
-141.23 72.629997 -602.98999
-140.91 72.75 -603.97998
-140.56 72.849998 -604.82001
-140.25 72.980003 -605.88
-139.86 73.07 -606.59003
-139.5 73.169998 -607.41998
-139.08 73.239998 -608.02002
-138.63 73.300003 -608.46997
-138.13 73.330002 -608.72998
-137.62 73.360001 -608.95001
-137.06 73.360001 -608.96002
-136.48 73.339996 -608.84003
-135.92999 73.349998 -608.89001
-135.39999 73.370003 -609.03998
-134.92 73.410004 -609.35999
-134.41 73.440002 -609.59003
-133.91 73.470001 -609.87
-133.41 73.5 -610.14001
-132.92 73.540001 -610.45001
-132.44 73.589996 -610.82001
-131.92999 73.610001 -611.03003
-131.42999 73.639999 -611.28998
-130.91 73.669998 -611.51001
-130.42999 73.709999 -611.85999
-129.89999 73.730003 -612.03003
-129.41 73.769997 -612.33002
-128.87 73.790001 -612.46002
-128.37 73.82 -612.72998
-127.84 73.839996 -612.90002
-127.31 73.860001 -613.03998
-126.76 73.870003 -613.13
-126.26 73.900002 -613.40002
-125.71 73.910004 -613.46997
-125.19 73.93 -613.66998
-124.66 73.959999 -613.85999
-124.12 73.970001 -613.96997
-123.56 73.970001 -613.97998
-123.05 74 -614.23999
-122.49 74 -614.23999
-121.95 74.019997 -614.35999
-121.4 74.029999 -614.44
-120.85 74.029999 -614.48999
-120.31 74.050003 -614.60999
-119.76 74.059998 -614.69
-119.2 74.059998 -614.71997
-118.63 74.059998 -614.66998
-118.06 74.050003 -614.63
-117.41 74 -614.22998
-116.56 73.82 -612.73999
-114.45 72.839996 -604.69
-113.6 72.639999 -603.10999
-112.8 72.489998 -601.84998
-112.06 72.370003 -600.85999
-111.41 72.300003 -600.32001
-110.8 72.260002 -599.97998
-110.22 72.239998 -599.84003
-109.65 72.230003 -599.71002
-109.1 72.230003 -599.71997
-108.55 72.230003 -599.71997
-108.02 72.239998 -599.83002
-107.46 72.239998 -599.81
-106.92 72.239998 -599.85999
-106.41 72.269997 -600.09003
-105.86 72.269997 -600.09998
-105.33 72.279999 -600.17999
-104.8 72.290001 -600.28003
-104.26 72.309998 -600.39001
-103.72 72.309998 -600.45001
-103.21 72.339996 -600.65002
-102.68 72.360001 -600.78998
-102.15 72.370003 -600.89001
-101.61 72.379997 -600.98999
-101.09 72.400002 -601.15997
-100.55 72.410004 -601.25
-100.02 72.43 -601.38
-99.480003 72.43 -601.41998
-98.940002 72.440002 -601.52002
-98.410004 72.449997 -601.59998
-97.860001 72.459999 -601.65997
-97.290001 72.449997 -601.54999
-96.709999 72.43 -601.38
-96.110001 72.389999 -601.04999
-95.5 72.339996 -600.70001
-94.919998 72.32 -600.52002
-94.349998 72.309998 -600.40997
-93.769997 72.279999 -600.21002
-93.209999 72.269997 -600.13
-92.650002 72.269997 -600.08002
-92.089996 72.260002 -600.02002
-91.540001 72.260002 -600.02002
-91 72.269997 -600.09998
-90.449997 72.269997 -600.14001
-89.919998 72.290001 -600.26001
-89.370003 72.290001 -600.27002
-88.830002 72.290001 -600.31
-88.239998 72.260002 -600.08002
-87.650002 72.230003 -599.78998
-87.029999 72.169998 -599.33002
-86.440002 72.139999 -599.03003
-85.839996 72.099998 -598.73999
-85.080002 71.919998 -597.23999
-84.199997 71.639999 -594.96002
-83.529999 71.519997 -594.03998
-82.870003 71.43 -593.22998
-82.239998 71.349998 -592.65997
-81.629997 71.300003 -592.19
-81.029999 71.239998 -591.73999
-80.440002 71.209999 -591.45001
-79.860001 71.169998 -591.12
-79.269997 71.129997 -590.83002
-78.720001 71.110001 -590.70001
-78.160004 71.110001 -590.63
-77.599998 71.089996 -590.5
-77.019997 71.050003 -590.16998
-76.389999 70.970001 -589.51001
-75.790001 70.910004 -589.02002
-75.220001 70.879997 -588.78003
-74.660004 70.860001 -588.65002
-74.110001 70.860001 -588.62
-73.559998 70.839996 -588.48999
-73.010002 70.830002 -588.42999
-72.470001 70.830002 -588.40997
-71.940002 70.839996 -588.46002
-71.400002 70.839996 -588.51001
-70.860001 70.839996 -588.46002
-70.309998 70.830002 -588.38
-69.75 70.809998 -588.23999
-69.209999 70.809998 -588.21997
-68.669998 70.809998 -588.21002
-68.139999 70.82 -588.28998
-67.610001 70.82 -588.34998
-67.089996 70.849998 -588.58002
-66.559998 70.860001 -588.65997
-66.040001 70.879997 -588.78003
-65.519997 70.900002 -588.96002
-65.010002 70.93 -589.21997
-64.5 70.970001 -589.53003
-63.98 70.989998 -589.75
-63.470001 71.019997 -589.96002
-62.93 71.029999 -590.04999
-62.400002 71.040001 -590.12
-61.860001 71.040001 -590.15997
-61.34 71.059998 -590.27002
-60.82 71.080002 -590.47998
-60.299999 71.110001 -590.71997
-59.779999 71.139999 -590.94
-59.27 71.18 -591.28998
-58.77 71.230003 -591.69
-58.279999 71.290001 -592.22998
-57.810001 71.379997 -592.97998
-40.889999 74.220001 -616.23999
-40.279999 74.139999 -615.53998
-39.650002 74.019997 -614.58002
-39.060001 73.959999 -614.09998
-38.48 73.919998 -613.78003
-37.91 73.910004 -613.73999
-37.360001 73.940002 -613.90002
-36.82 73.980003 -614.23999
-36.27 74.019997 -614.59003
-35.73 74.07 -614.96997
-35.189999 74.110001 -615.29999
-34.639999 74.150002 -615.64001
-34.09 74.18 -615.92999
-33.540001 74.209999 -616.20001
-32.990002 74.25 -616.48999
-32.439999 74.290001 -616.78003
-31.889999 74.309998 -617.01001
-31.34 74.339996 -617.25
-30.780001 74.379997 -617.52002
-30.23 74.410004 -617.79999
-29.690001 74.459999 -618.23999
-29.139999 74.510002 -618.65002
-28.59 74.57 -619.10999
-28.049999 74.639999 -619.67999
-27.52 74.75 -620.59003
-26.98 74.809998 -621.06
-26.43 74.889999 -621.70001
-25.879999 74.940002 -622.19
-25.34 75.010002 -622.72998
-24.780001 75.059998 -623.14001
-24.23 75.120003 -623.63
-23.67 75.169998 -624.03003
-23.110001 75.220001 -624.44
-22.559999 75.269997 -624.88
-22 75.32 -625.29999
-21.440001 75.370003 -625.67999
-20.879999 75.419998 -626.10999
-20.32 75.470001 -626.5
-19.75 75.510002 -626.78998
-19.18 75.519997 -626.95001
-18.610001 75.559998 -627.20001
-18.040001 75.559998 -627.21997
-17.459999 75.550003 -627.19
-16.879999 75.519997 -626.88
-16.299999 75.5 -626.73999
-15.73 75.489998 -626.69
-15.15 75.480003 -626.62
-14.57 75.470001 -626.53003
-13.99 75.449997 -626.38
-13.42 75.459999 -626.40997
-12.84 75.43 -626.21002
-12.27 75.440002 -626.21997
-11.69 75.440002 -626.21997
-11.12 75.440002 -626.26001
-10.54 75.440002 -626.26001
-9.9700003 75.440002 -626.27002
-9.3999996 75.449997 -626.32001
-8.8199997 75.449997 -626.38
-8.25 75.459999 -626.40002
-7.6799998 75.489998 -626.63
-7.0999999 75.5 -626.76001
-6.5300002 75.510002 -626.87
-5.96 75.540001 -627.04999
-5.3800001 75.559998 -627.25
-4.8099999 75.599998 -627.53998
-4.23 75.620003 -627.76001
-3.6600001 75.660004 -628.09998
-3.0899999 75.699997 -628.40002
-2.51 75.739998 -628.69
-1.9299999 75.760002 -628.91998
-1.36 75.779999 -629.03003
-0.77999997 75.769997 -628.96002
-0.2 75.519997 -626.90002
0.37 75.269997 -624.90997
0.94 75.010002 -622.71997
1.51 74.830002 -621.28003
2.0699999 74.669998 -619.91998
2.6400001 74.550003 -618.98999
3.2 74.449997 -618.16998
3.76 74.360001 -617.46002
4.3200002 74.260002 -616.62
4.8800001 74.18 -615.96002
5.4400001 74.089996 -615.19
6 74.019997 -614.65002
6.5599999 73.970001 -614.21997
7.1199999 73.940002 -613.96002
7.6799998 73.870003 -613.39001
8.2299995 73.82 -612.96997
8.79 73.769997 -612.59003
9.3500004 73.75 -612.40002
9.9099998 73.720001 -612.15997
10.46 73.690002 -611.90002
11.02 73.660004 -611.71997
11.58 73.629997 -611.47998
12.14 73.620003 -611.38
12.69 73.610001 -611.29999
13.25 73.610001 -611.26001
13.81 73.599998 -611.21002
14.37 73.589996 -611.08002
14.93 73.589996 -611.09998
15.49 73.580002 -611.04999
16.049999 73.599998 -611.16998
16.610001 73.589996 -611.08002
17.18 73.599998 -611.15997
17.74 73.610001 -611.28003
18.309999 73.629997 -611.46002
18.870001 73.650002 -611.63
19.440001 73.68 -611.88
20.01 73.709999 -612.08002
20.58 73.75 -612.40997
21.15 73.790001 -612.71002
21.719999 73.809998 -612.92999
22.290001 73.830002 -613.09998
22.879999 73.93 -613.85999
23.459999 73.980003 -614.34003
24.049999 74.040001 -614.79999
24.629999 74.099998 -615.23999
25.209999 74.150002 -615.65002
25.780001 74.18 -615.90997
26.360001 74.220001 -616.21997
26.940001 74.260002 -616.59998
27.52 74.290001 -616.84998
28.1 74.330002 -617.16998
28.67 74.349998 -617.28003
29.25 74.370003 -617.44
29.82 74.379997 -617.54999
30.389999 74.400002 -617.73999
30.969999 74.43 -617.96997
31.549999 74.459999 -618.22998
32.139999 74.5 -618.53003
32.720001 74.529999 -618.79999
33.290001 74.550003 -618.94
33.860001 74.550003 -618.96997
34.43 74.559998 -619.02002
35 74.559998 -619.03003
35.580002 74.589996 -619.22998
36.16 74.610001 -619.42999
36.740002 74.629997 -619.59003
37.32 74.650002 -619.78003
37.900002 74.68 -620.01001
38.5 74.730003 -620.40997
39.09 74.769997 -620.77002
39.669998 74.800003 -621.01001
40.25 74.809998 -621.09003
40.84 74.849998 -621.39001
41.41 74.860001 -621.45001
41.990002 74.870003 -621.53998
42.57 74.889999 -621.70001
43.150002 74.900002 -621.78003
43.720001 74.910004 -621.89001
44.310001 74.93 -622.04999
44.889999 74.949997 -622.19
45.470001 74.970001 -622.39001
46.060001 75 -622.59003
46.669998 75.059998 -623.10999
47.290001 75.139999 -623.70001
47.93 75.25 -624.66998
48.610001 75.400002 -625.90997
49.27 75.540001 -627.03998
49.919998 75.660004 -627.97998
83.050003 76.459999 -634.41998
83.269997 76.120003 -631.69
83.610001 75.900002 -629.89001
83.959999 75.699997 -628.25
84.349998 75.540001 -626.88
84.75 75.370003 -625.53998
85.150002 75.220001 -624.28998
85.529999 75.059998 -622.96002
85.919998 74.900002 -621.62
86.290001 74.730003 -620.22998
86.699997 74.580002 -619.06
87.099998 74.440002 -617.90997
87.540001 74.330002 -617.01001
87.970001 74.220001 -616.08002
88.440002 74.139999 -615.42999
88.900002 74.050003 -614.70001
89.360001 73.970001 -614.04999
89.889999 73.940002 -613.78003
90.400002 73.900002 -613.45001
90.919998 73.860001 -613.15997
91.470001 73.849998 -613.03998
92.019997 73.849998 -613.01001
92.620003 73.870003 -613.21997
93.220001 73.900002 -613.45001
93.889999 73.989998 -614.15002
94.610001 74.110001 -615.16998
95.410004 74.290001 -616.65002
-168.28 70.440002 -589.60999
-167.50999 70.339996 -588.78998
-166.89999 70.309998 -588.53998
-166.32001 70.290001 -588.39001
-165.8 70.300003 -588.47998
-165.28 70.309998 -588.53003
-164.78999 70.330002 -588.69
-164.24001 70.32 -588.65002
-163.71001 70.330002 -588.67999
-163.17 70.330002 -588.69
-162.66 70.339996 -588.79999
-162.19 70.370003 -589.03998
-161.64999 70.370003 -589.03998
-161.17 70.400002 -589.23999
-160.63 70.400002 -589.25
-160.11 70.410004 -589.33002
-159.56 70.400002 -589.28998
-159.02 70.400002 -589.28003
-158.5 70.410004 -589.33002
-157.98 70.419998 -589.40997
-157.42999 70.419998 -589.39001
-156.92 70.43 -589.5
-156.37 70.43 -589.46997
-155.83 70.419998 -589.44
-155.31 70.43 -589.5
-154.78999 70.440002 -589.59003
-154.28 70.459999 -589.71002
-153.74001 70.459999 -589.70001
-153.23 70.470001 -589.84003
-152.72 70.489998 -589.95001
-152.25 70.519997 -590.20001
-151.73 70.529999 -590.29999
-151.27 70.57 -590.58002
-150.78 70.589996 -590.78998
-150.3 70.620003 -591.02002
-149.83 70.650002 -591.28998
-149.35001 70.68 -591.54999
-148.91 70.730003 -591.92999
-148.42 70.760002 -592.15002
-147.96001 70.800003 -592.48999
-147.53999 70.860001 -592.97998
-147.08 70.889999 -593.28003
-146.64 70.949997 -593.71002
-146.2 71 -594.13
-145.77 71.059998 -594.59998
-145.34 71.110001 -595.03998
-144.94 71.18 -595.64001
-144.53 71.25 -596.16998
-144.13 71.32 -596.78998
-143.75999 71.410004 -597.52002
-143.37 71.489998 -598.17999
-143.00999 71.580002 -598.91998
-142.61 71.660004 -599.57001
-142.25 71.75 -600.33002
-141.92 71.870003 -601.28003
-141.53999 71.949997 -601.98999
-141.22 72.07 -602.94
-140.91 72.199997 -603.98999
-140.55 72.290001 -604.78998
-140.22 72.410004 -605.76001
-139.85001 72.510002 -606.56
-139.50999 72.620003 -607.5
-139.08 72.690002 -608.03998
-138.64999 72.75 -608.58002
-138.17 72.800003 -608.94
-137.67999 72.830002 -609.22998
-137.10001 72.82 -609.13
-136.53 72.82 -609.09003
-136.00999 72.830002 -609.22998
-135.47 72.849998 -609.34998
-134.95 72.870003 -609.52002
-134.45 72.900002 -609.75
-133.96001 72.940002 -610.07001
-133.47 72.970001 -610.37
-132.96001 73 -610.59003
-132.49001 73.050003 -611.01001
-131.97 73.07 -611.19
-131.48 73.110001 -611.52002
-130.96001 73.139999 -611.72998
-130.45 73.160004 -611.95001
-129.96001 73.199997 -612.28003
-129.44 73.230003 -612.5
-128.92 73.25 -612.67999
-128.41 73.279999 -612.94
-127.87 73.300003 -613.06
-127.37 73.330002 -613.34998
-126.85 73.349998 -613.52002
-126.31 73.370003 -613.65997
-125.78 73.389999 -613.78998
-125.24 73.400002 -613.94
-124.72 73.43 -614.14001
-124.18 73.440002 -614.23999
-123.64 73.449997 -614.34998
-123.09 73.459999 -614.41998
-122.56 73.480003 -614.57001
-122.01 73.489998 -614.64001
-121.45 73.489998 -614.69
-120.9 73.5 -614.77002
-120.37 73.519997 -614.94
-119.82 73.529999 -614.97998
-119.26 73.540001 -615.03998
-118.7 73.529999 -615.02002
-118.12 73.529999 -614.95001
-117.52 73.510002 -614.79999
-116.78 73.389999 -613.87
-114.74 72.459999 -606.15997
-113.72 72.160004 -603.73999
-112.93 72.019997 -602.51001
-112.18 71.889999 -601.48999
-111.49 71.800003 -600.76001
-110.87 71.760002 -600.37
-110.27 71.730003 -600.13
-109.71 71.709999 -600.03998
-109.16 71.720001 -600.06
-108.6 71.709999 -600.02002
-108.06 71.720001 -600.03998
-107.52 71.730003 -600.14001
-107 71.75 -600.31
-106.46 71.75 -600.34003
-105.92 71.760002 -600.40002
-105.4 71.779999 -600.57001
-104.85 71.779999 -600.58002
-104.32 71.790001 -600.70001
-103.79 71.809998 -600.85999
-103.27 71.830002 -601.02002
-102.73 71.839996 -601.10999
-102.19 71.849998 -601.15002
-101.66 71.870003 -601.29999
-101.14 71.889999 -601.46997
-100.61 71.900002 -601.59998
-100.07 71.910004 -601.67999
-99.550003 71.93 -601.85999
-99 71.93 -601.87
-98.459999 71.940002 -601.95001
-97.93 71.959999 -602.06
-97.370003 71.949997 -602.02002
-96.809998 71.940002 -601.96002
-96.230003 71.919998 -601.78998
-95.620003 71.879997 -601.44
-95.010002 71.830002 -601.06
-94.440002 71.82 -600.95001
-93.849998 71.800003 -600.75
-93.290001 71.790001 -600.65997
-92.709999 71.769997 -600.51001
-92.169998 71.779999 -600.59003
-91.599998 71.760002 -600.41998
-91.059998 71.769997 -600.51001
-90.510002 71.769997 -600.5
-89.989998 71.790001 -600.70001
-89.440002 71.790001 -600.71002
-88.900002 71.800003 -600.81
-88.330002 71.790001 -600.69
-87.739998 71.760002 -600.42999
-87.139999 71.709999 -600.09003
-86.540001 71.669998 -599.70001
-85.93 71.620003 -599.28998
-85.239998 71.5 -598.32001
-84.279999 71.160004 -595.48999
-83.57 71.010002 -594.33002
-82.910004 70.919998 -593.54999
-82.269997 70.839996 -592.89001
-81.650002 70.769997 -592.34998
-81.050003 70.720001 -591.94
-80.459999 70.68 -591.58002
-79.879997 70.639999 -591.28003
-79.309998 70.620003 -591.08002
-78.739998 70.599998 -590.90997
-78.18 70.580002 -590.76001
-77.620003 70.559998 -590.59998
-77.059998 70.550003 -590.5
-76.449997 70.480003 -589.94
-75.809998 70.389999 -589.21002
-75.230003 70.360001 -588.92999
-74.68 70.339996 -588.81
-74.129997 70.330002 -588.75
-73.57 70.32 -588.59003
-73.029999 70.309998 -588.56
-72.480003 70.309998 -588.53003
-71.949997 70.309998 -588.56
-71.410004 70.309998 -588.59003
-70.879997 70.32 -588.63
-70.32 70.300003 -588.5
-69.779999 70.300003 -588.5
-69.220001 70.279999 -588.34003
-68.690002 70.290001 -588.41998
-68.160004 70.300003 -588.44
-67.629997 70.309998 -588.53003
-67.099998 70.309998 -588.59998
-66.57 70.330002 -588.73999
-66.059998 70.360001 -588.95001
-65.540001 70.379997 -589.13
-65.029999 70.410004 -589.44
-64.510002 70.440002 -589.66998
-64.010002 70.480003 -589.97998
-63.490002 70.5 -590.15002
-62.950001 70.510002 -590.21002
-62.419998 70.519997 -590.29999
-61.889999 70.529999 -590.38
-61.360001 70.540001 -590.46997
-60.830002 70.550003 -590.60999
-60.310001 70.580002 -590.84998
-59.799999 70.620003 -591.15997
-59.279999 70.650002 -591.40002
-58.779999 70.699997 -591.82001
-58.279999 70.75 -592.25
-57.810001 70.839996 -592.95001
-41.470001 73.669998 -616.34998
-40.84 73.550003 -615.39001
-40.240002 73.489998 -614.87
-39.639999 73.419998 -614.33002
-39.060001 73.389999 -614.04999
-38.490002 73.379997 -614
-37.93 73.389999 -614.02002
-37.400002 73.449997 -614.52002
-36.849998 73.480003 -614.76001
-36.299999 73.519997 -615.10999
-35.759998 73.559998 -615.48999
