# .PCD v0.7 - Point Cloud Data file format
VERSION 0.7
FIELDS x y z
SIZE 4 4 4
TYPE F F F
COUNT 1 1 1
WIDTH 1655
HEIGHT 1
VIEWPOINT 0 0 0 1 0 0 0
POINTS 1655
DATA ascii
83.209999 75.639999 -575.90002
83.790001 75.699997 -576.31
84.400002 75.769997 -576.84003
85.029999 75.860001 -577.5
85.660004 75.940002 -578.15002
86.290001 76.040001 -578.84998
86.949997 76.139999 -579.65002
87.599998 76.25 -580.46997
88.309998 76.400002 -581.59003
88.989998 76.529999 -582.54999
89.790001 76.760002 -584.23999
90.580002 76.980003 -585.90002
91.57 77.360001 -588.75
92.980003 78.089996 -594.22998
93.959999 78.459999 -596.96997
94.739998 78.650002 -598.40997
95.440002 78.769997 -599.33002
96.139999 78.889999 -600.23999
96.870003 79.040001 -601.31
97.559998 79.160004 -602.21002
98.339996 79.330002 -603.53998
99.099998 79.5 -604.81
-168.64 76.589996 -587.14001
-167.97 76.529999 -586.70001
-167.34 76.489998 -586.35999
-166.75 76.470001 -586.19
-166.13 76.43 -585.90002
-165.52 76.400002 -585.65002
-164.99001 76.400002 -585.66998
-164.44 76.389999 -585.59003
-163.89999 76.389999 -585.59998
-163.41 76.410004 -585.73999
-162.88 76.419998 -585.78003
-162.39 76.440002 -585.94
-161.88 76.449997 -586.03998
-161.37 76.459999 -586.13
-160.86 76.480003 -586.22998
-160.32001 76.480003 -586.21002
-159.78 76.470001 -586.19
-159.25999 76.480003 -586.25
-158.71001 76.480003 -586.20001
-158.19 76.480003 -586.27002
-157.64999 76.480003 -586.25
-157.11 76.480003 -586.25
-156.56 76.480003 -586.20001
-156.00999 76.470001 -586.14001
-155.44 76.449997 -586.01001
-154.89 76.449997 -585.96002
-154.34 76.440002 -585.91998
-153.81 76.440002 -585.91998
-153.28999 76.449997 -586.01001
-152.77 76.459999 -586.04999
-152.25999 76.480003 -586.17999
-151.73 76.480003 -586.17999
-151.21001 76.489998 -586.26001
-150.67999 76.489998 -586.27002
-150.14999 76.5 -586.29999
-149.64 76.510002 -586.39001
-149.13 76.519997 -586.5
-148.60001 76.529999 -586.53003
-148.08 76.540001 -586.60999
-147.57001 76.550003 -586.71997
-147.09 76.580002 -586.94
-146.56 76.589996 -586.96997
-146.05 76.599998 -587.09003
-145.55 76.620003 -587.22998
-145.08 76.660004 -587.48999
-144.59 76.68 -587.69
-144.08 76.690002 -587.78998
-143.56 76.709999 -587.90002
-143.07001 76.730003 -588.08002
-142.59 76.760002 -588.31
-142.08 76.779999 -588.41998
-141.59 76.809998 -588.65002
-141.10001 76.830002 -588.82001
-140.62 76.870003 -589.06
-140.12 76.889999 -589.25
-139.64 76.919998 -589.5
-139.14 76.949997 -589.65997
-138.66 76.980003 -589.94
-138.17 77.010002 -590.13
-137.67999 77.029999 -590.33002
-137.22 77.080002 -590.66998
-136.73 77.110001 -590.90997
-136.23 77.139999 -591.09998
-135.75 77.169998 -591.34003
-135.28 77.209999 -591.66998
-134.81 77.25 -591.96997
-134.32001 77.279999 -592.21997
-133.85001 77.330002 -592.53003
-133.35001 77.349998 -592.69
-132.87 77.379997 -592.96997
-132.37 77.410004 -593.17999
-131.89 77.449997 -593.46002
-131.42 77.489998 -593.77002
-130.92 77.519997 -593.98999
-130.41 77.540001 -594.15002
-129.94 77.580002 -594.46002
-129.42999 77.610001 -594.65997
-128.96001 77.650002 -594.97998
-128.45 77.669998 -595.15002
-127.96 77.699997 -595.38
-127.45 77.730003 -595.54999
-126.93 77.75 -595.69
-126.42 77.769997 -595.87
-125.91 77.790001 -596.04999
-125.4 77.809998 -596.17999
-124.88 77.830002 -596.31
-124.36 77.839996 -596.44
-123.85 77.870003 -596.60999
-123.34 77.889999 -596.81
-122.82 77.910004 -596.95001
-122.3 77.93 -597.08002
-121.79 77.949997 -597.22998
-121.24 77.949997 -597.26001
-120.72 77.970001 -597.38
-120.17 77.970001 -597.34998
-119.6 77.949997 -597.27002
-119.02 77.93 -597.10999
-118.42 77.889999 -596.81
-117.78 77.839996 -596.39001
-117.04 77.709999 -595.41998
-116.06 77.419998 -593.23999
-115.12 77.160004 -591.23999
-114.33 76.989998 -589.97998
-113.62 76.870003 -589.08002
-112.96 76.790001 -588.5
-112.34 76.730003 -588.07001
-111.72 76.68 -587.64001
-111.13 76.639999 -587.38
-110.56 76.629997 -587.23999
-109.99 76.599998 -587.04999
-109.43 76.589996 -586.96002
-108.89 76.589996 -586.96002
-108.33 76.57 -586.81
-107.77 76.550003 -586.69
-107.17 76.510002 -586.34998
-106.51 76.419998 -585.71002
-105.7 76.220001 -584.21997
-104.94 76.059998 -583
-104.26 75.959999 -582.20001
-103.63 75.889999 -581.66998
-103.03 75.839996 -581.28998
-102.42 75.779999 -580.88
-101.87 75.769997 -580.76001
-101.3 75.730003 -580.52002
-100.74 75.720001 -580.40997
-100.18 75.699997 -580.25
-99.639999 75.690002 -580.20001
-99.099998 75.68 -580.15997
-98.559998 75.669998 -580.08002
-98 75.650002 -579.90997
-97.470001 75.650002 -579.94
-96.919998 75.639999 -579.84998
-96.370003 75.629997 -579.75
-95.82 75.610001 -579.60999
-95.269997 75.599998 -579.52002
-94.730003 75.589996 -579.46002
-94.18 75.57 -579.32001
-93.620003 75.550003 -579.16998
-93.07 75.529999 -579.02002
-92.5 75.510002 -578.83002
-91.949997 75.489998 -578.71002
-91.389999 75.459999 -578.52002
-90.839996 75.440002 -578.37
-90.269997 75.410004 -578.14001
-89.709999 75.379997 -577.91998
-89.129997 75.349998 -577.63
-88.57 75.32 -577.40002
-88.019997 75.300003 -577.27002
-87.449997 75.269997 -577.04999
-86.879997 75.239998 -576.79999
-86.32 75.209999 -576.57001
-85.760002 75.18 -576.34003
-85.199997 75.150002 -576.17999
-84.639999 75.120003 -575.96002
-84.089996 75.099998 -575.77002
-83.540001 75.080002 -575.64001
-82.980003 75.059998 -575.45001
-82.419998 75.019997 -575.16998
-81.860001 75 -575
-81.309998 74.970001 -574.84003
-80.760002 74.949997 -574.66998
-80.199997 74.919998 -574.42999
-79.660004 74.910004 -574.34003
-79.120003 74.889999 -574.22998
-78.580002 74.879997 -574.15002
-78.040001 74.860001 -574
-77.5 74.849998 -573.89001
-76.959999 74.839996 -573.84998
-76.43 74.830002 -573.76001
-75.889999 74.82 -573.67999
-75.360001 74.82 -573.65997
-74.82 74.809998 -573.59003
-74.300003 74.809998 -573.59998
-73.769997 74.809998 -573.59998
-73.239998 74.800003 -573.53998
-72.730003 74.809998 -573.65002
-72.209999 74.82 -573.67999
-71.690002 74.830002 -573.75
-71.169998 74.830002 -573.78998
-70.669998 74.860001 -574
-70.150002 74.860001 -574.03003
-69.629997 74.870003 -574.08002
-69.110001 74.870003 -574.12
-68.589996 74.889999 -574.22998
-68.089996 74.910004 -574.40002
-67.580002 74.93 -574.53998
-67.07 74.949997 -574.66998
-66.559998 74.980003 -574.89001
-66.059998 75 -575.07001
-65.559998 75.029999 -575.32001
-65.059998 75.059998 -575.52002
-64.559998 75.099998 -575.79999
-64.059998 75.120003 -576.01001
-63.560001 75.160004 -576.28003
-63.07 75.199997 -576.60999
-62.580002 75.25 -576.95001
-62.080002 75.290001 -577.28003
-61.610001 75.360001 -577.81
-61.130001 75.419998 -578.28003
-60.66 75.489998 -578.81
-60.18 75.559998 -579.28998
-59.720001 75.650002 -580
-59.23 75.699997 -580.41998
-58.759998 75.779999 -580.98999
-58.279999 75.849998 -581.47998
-57.799999 75.919998 -582.03003
-57.32 75.989998 -582.53998
-56.84 76.07 -583.15997
-56.360001 76.129997 -583.65997
-55.869999 76.199997 -584.17999
-55.389999 76.269997 -584.69
-54.889999 76.32 -585.08002
-54.389999 76.370003 -585.47998
-53.880001 76.410004 -585.76001
-53.369999 76.449997 -586.04999
-52.849998 76.470001 -586.22998
-52.330002 76.5 -586.46997
-51.799999 76.510002 -586.56
-51.279999 76.529999 -586.70001
-50.75 76.540001 -586.78003
-50.220001 76.559998 -586.88
-49.689999 76.57 -586.98999
-49.16 76.580002 -587.09003
-48.630001 76.599998 -587.21997
-48.110001 76.620003 -587.35999
-47.580002 76.639999 -587.48999
-47.049999 76.650002 -587.58002
-46.509998 76.650002 -587.62
-45.98 76.669998 -587.77002
-45.459999 76.699997 -587.95001
-44.93 76.709999 -588.03998
-44.389999 76.720001 -588.09003
-43.860001 76.739998 -588.25
-43.34 76.760002 -588.40002
-42.799999 76.769997 -588.47998
-42.27 76.779999 -588.62
-41.740002 76.790001 -588.65997
-41.209999 76.82 -588.88
-40.68 76.830002 -588.96002
-40.150002 76.839996 -589.08002
-39.619999 76.860001 -589.21997
-39.09 76.879997 -589.37
-38.549999 76.889999 -589.44
-38.02 76.910004 -589.56
-37.490002 76.93 -589.76001
-36.959999 76.949997 -589.84003
-36.43 76.970001 -590.04999
-35.900002 76.989998 -590.20001
-35.360001 77.010002 -590.33002
-34.830002 77.019997 -590.42999
-34.290001 77.040001 -590.53003
-33.759998 77.050003 -590.65002
-33.23 77.080002 -590.87
-32.700001 77.099998 -591.02002
-32.150002 77.099998 -591.02002
-31.620001 77.110001 -591.09998
-31.08 77.129997 -591.25
-30.549999 77.139999 -591.35999
-30.01 77.169998 -591.52002
-29.48 77.190002 -591.69
-28.950001 77.220001 -591.90002
-28.41 77.239998 -592.06
-27.879999 77.25 -592.19
-27.34 77.269997 -592.31
-26.799999 77.290001 -592.48999
-26.26 77.290001 -592.48999
-25.719999 77.290001 -592.46997
-25.17 77.279999 -592.38
-24.629999 77.279999 -592.37
-24.08 77.269997 -592.34998
-23.540001 77.279999 -592.39001
-23.01 77.32 -592.71002
-22.48 77.379997 -593.10999
-21.950001 77.419998 -593.41998
-21.42 77.480003 -593.87
-20.889999 77.519997 -594.22998
-20.35 77.550003 -594.40002
-19.82 77.580002 -594.67999
-19.280001 77.620003 -595
-18.75 77.690002 -595.46002
-18.23 77.769997 -596.07001
-17.700001 77.860001 -596.81
-17.17 77.93 -597.33002
-16.629999 77.989998 -597.72998
-16.09 78 -597.82001
-15.54 78.010002 -597.90002
-15 78.019997 -597.97998
-14.45 78.029999 -598.03998
-13.9 78.040001 -598.15002
-13.36 78.059998 -598.32001
-12.81 78.080002 -598.41998
-12.27 78.110001 -598.69
-11.72 78.139999 -598.90997
-11.18 78.190002 -599.26001
-10.64 78.209999 -599.46002
-10.09 78.230003 -599.54999
-9.54 78.199997 -599.38
-8.9799995 78.139999 -598.92999
-8.4200001 78.07 -598.34998
-7.8600001 77.940002 -597.39001
-7.3000002 77.830002 -596.58002
-6.75 77.730003 -595.82001
-6.1999998 77.660004 -595.28998
-5.6399999 77.559998 -594.51001
-5.0900002 77.489998 -594
-4.54 77.419998 -593.48999
-4 77.349998 -592.94
-3.45 77.269997 -592.35999
-2.9000001 77.209999 -591.90997
-2.3599999 77.150002 -591.45001
-1.8200001 77.089996 -590.94
-1.27 77.029999 -590.5
-0.73000002 76.989998 -590.21002
-0.19 76.93 -589.77002
0.34999999 76.900002 -589.51001
0.88999999 76.849998 -589.16998
1.4299999 76.809998 -588.83002
1.97 76.769997 -588.54999
2.51 76.730003 -588.26001
3.04 76.68 -587.89001
3.5799999 76.650002 -587.64001
4.1199999 76.620003 -587.42999
4.6500001 76.589996 -587.23999
5.1900001 76.57 -587.03998
5.73 76.540001 -586.84998
6.2600002 76.519997 -586.69
6.8000002 76.5 -586.48999
7.3299999 76.470001 -586.26001
7.8699999 76.449997 -586.12
8.3999996 76.410004 -585.85999
8.9399996 76.400002 -585.78003
9.4700003 76.379997 -585.62
10.01 76.370003 -585.53998
10.54 76.339996 -585.32001
11.07 76.330002 -585.23999
11.61 76.32 -585.15002
12.14 76.309998 -585.06
12.68 76.309998 -585.04999
13.21 76.300003 -585.02002
13.75 76.279999 -584.88
14.28 76.279999 -584.88
14.82 76.290001 -584.90002
15.35 76.269997 -584.78003
15.89 76.260002 -584.72998
16.42 76.260002 -584.70001
16.959999 76.269997 -584.81
17.5 76.269997 -584.78003
18.030001 76.269997 -584.81
18.57 76.279999 -584.83002
19.110001 76.279999 -584.88
19.65 76.300003 -585
20.190001 76.32 -585.13
20.719999 76.32 -585.13
21.26 76.32 -585.16998
21.799999 76.330002 -585.21997
22.34 76.330002 -585.25
22.879999 76.339996 -585.32001
23.42 76.360001 -585.46002
23.959999 76.370003 -585.51001
24.5 76.389999 -585.65997
25.040001 76.400002 -585.75
25.58 76.410004 -585.78998
26.120001 76.419998 -585.90997
26.66 76.43 -586.01001
27.209999 76.449997 -586.14001
27.75 76.459999 -586.20001
28.290001 76.480003 -586.34003
28.83 76.489998 -586.45001
29.379999 76.5 -586.53003
29.92 76.519997 -586.62
30.459999 76.529999 -586.73999
31.01 76.559998 -586.91998
31.549999 76.57 -586.98999
32.09 76.580002 -587.08002
32.639999 76.580002 -587.13
33.18 76.589996 -587.15997
33.720001 76.589996 -587.19
34.259998 76.620003 -587.37
34.810001 76.639999 -587.51001
35.360001 76.650002 -587.59998
35.900002 76.669998 -587.77002
36.450001 76.690002 -587.89001
37 76.699997 -588.01001
37.549999 76.720001 -588.16998
38.099998 76.75 -588.35999
38.650002 76.769997 -588.53003
39.200001 76.790001 -588.70001
39.75 76.82 -588.85999
40.299999 76.839996 -589.03003
40.860001 76.870003 -589.25
41.41 76.889999 -589.40002
41.959999 76.910004 -589.59003
42.52 76.940002 -589.78003
43.07 76.959999 -589.94
43.630001 76.989998 -590.19
44.189999 77.019997 -590.38
44.75 77.059998 -590.67999
45.310001 77.080002 -590.88
45.869999 77.120003 -591.15002
46.43 77.150002 -591.37
46.990002 77.190002 -591.65002
47.560001 77.220001 -591.91998
48.130001 77.260002 -592.21997
48.700001 77.309998 -592.57001
49.27 77.349998 -592.87
49.830002 77.379997 -593.12
50.41 77.43 -593.48999
51 77.5 -593.98999
51.57 77.550003 -594.35999
52.150002 77.589996 -594.66998
52.720001 77.629997 -595.01001
53.310001 77.690002 -595.46002
53.889999 77.739998 -595.84003
54.459999 77.779999 -596.09998
55.02 77.800003 -596.26001
55.59 77.830002 -596.47998
56.139999 77.839996 -596.53003
56.709999 77.870003 -596.78003
57.27 77.889999 -596.92999
57.860001 77.940002 -597.29999
58.439999 77.989998 -597.65997
59.02 78.029999 -598
59.610001 78.080002 -598.38
60.200001 78.139999 -598.84003
60.799999 78.199997 -599.28003
61.41 78.279999 -599.83002
62 78.330002 -600.20001
62.610001 78.410004 -600.82001
63.23 78.489998 -601.40997
63.860001 78.589996 -602.19
64.510002 78.709999 -603.12
65.169998 78.839996 -604.04999
65.830002 78.959999 -605.02002
66.510002 79.110001 -606.15002
69.879997 77.910004 -597.04999
70.029999 77.470001 -593.71997
70.290001 77.160004 -591.37
70.639999 76.949997 -589.78003
70.970001 76.720001 -588.06
71.349998 76.550003 -586.78003
71.410004 76.050003 -582.96002
71.489998 75.559998 -579.31
71.870003 75.410004 -578.14001
72.300003 75.300003 -577.34003
72.739998 75.209999 -576.60999
73.199997 75.129997 -576.07001
73.650002 75.050003 -575.46997
74.129997 75.010002 -575.13
74.620003 74.970001 -574.82001
75.110001 74.940002 -574.56
75.589996 74.889999 -574.25
76.099998 74.870003 -574.09998
76.610001 74.860001 -574
77.120003 74.849998 -573.90002
77.639999 74.839996 -573.84998
78.18 74.849998 -573.92999
78.720001 74.860001 -574.01001
79.260002 74.879997 -574.12
79.809998 74.900002 -574.28003
80.360001 74.919998 -574.46002
80.93 74.959999 -574.72998
81.5 75 -575.04999
82.089996 75.059998 -575.45001
82.660004 75.099998 -575.75
83.260002 75.160004 -576.23999
83.839996 75.209999 -576.60999
84.459999 75.290001 -577.20001
85.080002 75.370003 -577.83002
85.709999 75.459999 -578.51001
86.360001 75.57 -579.31
87.019997 75.669998 -580.10999
87.660004 75.779999 -580.88
88.379997 75.93 -582.03003
89.099998 76.089996 -583.25
89.900002 76.32 -584.98999
90.730003 76.57 -586.84998
91.989998 77.169998 -591.39001
93.220001 77.739998 -595.70001
94.099998 78.019997 -597.81
94.830002 78.169998 -598.94
95.519997 78.290001 -599.81
96.220001 78.410004 -600.76001
96.959999 78.559998 -601.88
97.660004 78.68 -602.79999
98.400002 78.830002 -603.90997
99.199997 79.029999 -605.39001
-168.61 76.040001 -587.03998
-167.98 76 -586.71002
-167.32001 75.949997 -586.32001
-166.69 75.900002 -585.97998
-166.12 75.889999 -585.87
-165.55 75.870003 -585.72998
-164.98 75.860001 -585.64001
-164.46001 75.870003 -585.69
-163.91 75.860001 -585.62
-163.38 75.860001 -585.64001
-162.92 75.900002 -585.90002
-162.41 75.910004 -585.98999
-161.89 75.919998 -586.06
-161.38 75.93 -586.15002
-160.86 75.940002 -586.21002
-160.33 75.940002 -586.25
-159.78999 75.940002 -586.22998
-159.25 75.940002 -586.21997
-158.74001 75.949997 -586.29999
-158.2 75.949997 -586.28998
-157.67 75.959999 -586.33002
-157.12 75.949997 -586.28998
-156.60001 75.959999 -586.31
-156.03 75.940002 -586.19
-155.46001 75.93 -586.09003
-154.92 75.93 -586.09003
-154.39 75.93 -586.09003
-153.84 75.919998 -586.04999
-153.3 75.919998 -586.03998
-152.78999 75.93 -586.13
-152.28 75.940002 -586.21997
-151.75 75.949997 -586.26001
-151.24001 75.970001 -586.38
-150.73 75.980003 -586.45001
-150.17999 75.970001 -586.40997
-149.66 75.980003 -586.46002
-149.13 75.980003 -586.5
-148.64999 76.010002 -586.71002
-148.12 76.019997 -586.78003
-147.61 76.040001 -586.88
-147.09 76.040001 -586.92999
-146.59 76.059998 -587.09003
-146.08 76.080002 -587.20001
-145.58 76.099998 -587.35999
-145.08 76.120003 -587.51001
-144.60001 76.150002 -587.71002
-144.08 76.160004 -587.82001
-143.60001 76.190002 -588.04999
-143.11 76.220001 -588.25
-142.61 76.239998 -588.40997
-142.13 76.269997 -588.62
-141.61 76.279999 -588.72998
-141.14 76.32 -589
-140.67 76.349998 -589.27002
-140.16 76.370003 -589.40997
-139.67 76.400002 -589.60999
-139.17999 76.43 -589.82001
-138.72 76.470001 -590.17999
-138.24001 76.5 -590.40002
-137.74001 76.529999 -590.59998
-137.24001 76.550003 -590.78003
-136.78 76.599998 -591.10999
-136.27 76.610001 -591.22998
-135.8 76.660004 -591.57001
-135.35001 76.709999 -591.96002
-134.87 76.75 -592.25
-134.39 76.779999 -592.51001
-133.89999 76.809998 -592.73999
-133.39999 76.839996 -592.95001
-132.94 76.889999 -593.31
-132.44 76.910004 -593.46997
-131.95 76.940002 -593.73999
-131.47 76.980003 -594.01001
-130.99001 77.019997 -594.31
-130.5 77.050003 -594.53003
-130.00999 77.080002 -594.78003
-129.49001 77.089996 -594.90002
-129.03 77.150002 -595.28998
-128.52 77.169998 -595.48999
-128.03 77.199997 -595.71002
-127.52 77.220001 -595.88
-127.01 77.25 -596.07001
-126.48 77.260002 -596.12
-126 77.300003 -596.42999
-125.47 77.309998 -596.51001
-124.97 77.339996 -596.77002
-124.44 77.349998 -596.84003
-123.94 77.379997 -597.04999
-123.41 77.389999 -597.15997
-122.9 77.410004 -597.32001
-122.39 77.440002 -597.47998
-121.86 77.449997 -597.60999
-121.34 77.470001 -597.71997
-120.81 77.480003 -597.83002
-120.28 77.489998 -597.90002
-119.69 77.459999 -597.71002
-119.14 77.459999 -597.71002
-118.54 77.43 -597.45001
-117.9 77.370003 -597
-117.16 77.239998 -596.02002
-116.2 76.959999 -593.90997
-115.2 76.660004 -591.62
-114.44 76.519997 -590.52002
-113.73 76.400002 -589.65002
-113.04 76.309998 -588.90002
-112.4 76.239998 -588.40002
-111.8 76.190002 -588.06
-111.21 76.160004 -587.82001
-110.64 76.139999 -587.62
-110.06 76.110001 -587.44
-109.5 76.089996 -587.29999
-108.96 76.099998 -587.31
-108.41 76.089996 -587.27002
-107.83 76.059998 -587.03998
-107.26 76.040001 -586.85999
-106.61 75.959999 -586.25
-105.84 75.790001 -584.96997
-105.02 75.589996 -583.45001
-104.37 75.5 -582.79999
-103.71 75.410004 -582.09998
-103.1 75.360001 -581.69
-102.5 75.309998 -581.31
-101.93 75.279999 -581.09998
-101.36 75.25 -580.88
-100.8 75.230003 -580.71997
-100.24 75.209999 -580.59998
-99.690002 75.190002 -580.47998
-99.150002 75.18 -580.40002
-98.599998 75.18 -580.34003
-98.050003 75.160004 -580.23999
-97.510002 75.160004 -580.19
-96.970001 75.150002 -580.15002
-96.419998 75.139999 -580.03998
-95.870003 75.120003 -579.90002
-95.309998 75.099998 -579.76001
-94.760002 75.089996 -579.65997
-94.220001 75.080002 -579.59003
-93.669998 75.059998 -579.46002
-93.120003 75.050003 -579.34998
-92.550003 75.019997 -579.15002
-91.989998 74.989998 -578.96002
-91.440002 74.970001 -578.82001
-90.879997 74.949997 -578.65002
-90.309998 74.919998 -578.41998
-89.760002 74.900002 -578.28003
-89.190002 74.870003 -578.01001
-88.629997 74.839996 -577.78998
-88.050003 74.800003 -577.5
-87.5 74.779999 -577.37
-86.940002 74.75 -577.14001
-86.360001 74.709999 -576.85999
-85.800003 74.690002 -576.64001
-85.239998 74.660004 -576.41998
-84.68 74.629997 -576.19
-84.120003 74.599998 -576
-83.559998 74.57 -575.79999
-83.010002 74.550003 -575.64001
-82.470001 74.540001 -575.51001
-81.919998 74.519997 -575.35999
-81.349998 74.480003 -575.12
-80.800003 74.459999 -574.95001
-80.25 74.43 -574.75
-79.709999 74.419998 -574.66998
-79.150002 74.400002 -574.46997
-78.620003 74.389999 -574.42999
-78.080002 74.379997 -574.31
-77.540001 74.370003 -574.23999
-76.989998 74.339996 -574.07001
-76.459999 74.339996 -574.04999
-75.93 74.330002 -573.96997
-75.400002 74.330002 -573.92999
-74.870003 74.32 -573.91998
-74.339996 74.32 -573.88
-73.809998 74.32 -573.88
-73.279999 74.32 -573.87
-72.75 74.309998 -573.84998
-72.239998 74.32 -573.90002
-71.730003 74.339996 -574.06
-71.199997 74.330002 -574.01001
-70.68 74.339996 -574.08002
-70.169998 74.360001 -574.20001
-69.660004 74.370003 -574.32001
-69.150002 74.389999 -574.46997
-68.629997 74.400002 -574.51001
-68.110001 74.410004 -574.59003
-67.610001 74.43 -574.78003
-67.099998 74.449997 -574.92999
-66.589996 74.470001 -575.09003
-66.080002 74.5 -575.28998
-65.580002 74.529999 -575.47998
-65.080002 74.559998 -575.72998
-64.57 74.580002 -575.91998
-64.080002 74.620003 -576.22998
-63.59 74.660004 -576.53003
-63.099998 74.709999 -576.88
-62.610001 74.75 -577.22998
-62.130001 74.82 -577.71002
-61.66 74.889999 -578.26001
-61.169998 74.940002 -578.65997
-60.700001 75.010002 -579.19
-60.220001 75.080002 -579.72998
-59.740002 75.139999 -580.20001
-59.25 75.199997 -580.60999
-58.779999 75.269997 -581.14001
-58.290001 75.330002 -581.62
-57.810001 75.400002 -582.16998
-57.330002 75.470001 -582.69
-56.849998 75.540001 -583.21997
-56.369999 75.610001 -583.76001
-55.880001 75.68 -584.25
-55.400002 75.739998 -584.77002
-54.900002 75.800003 -585.16998
-54.400002 75.849998 -585.59003
-53.900002 75.900002 -585.95001
-53.389999 75.940002 -586.27002
-52.869999 75.970001 -586.5
-52.349998 75.989998 -586.65002
-51.82 76.010002 -586.79999
-51.299999 76.019997 -586.91998
-50.77 76.040001 -587.06
-50.240002 76.050003 -587.09003
-49.709999 76.07 -587.23999
-49.18 76.089996 -587.39001
-48.650002 76.089996 -587.44
-48.130001 76.120003 -587.63
-47.59 76.120003 -587.69
-47.07 76.150002 -587.85999
-46.540001 76.160004 -587.92999
-46.009998 76.169998 -588.08002
-45.48 76.199997 -588.27002
-44.959999 76.220001 -588.42999
-44.43 76.239998 -588.56
-43.889999 76.239998 -588.60999
-43.369999 76.269997 -588.81
-42.84 76.279999 -588.91998
-42.299999 76.290001 -588.96997
-41.77 76.309998 -589.08002
-41.25 76.339996 -589.34998
-40.709999 76.349998 -589.40997
-40.18 76.370003 -589.54999
-39.639999 76.370003 -589.58002
-39.110001 76.389999 -589.72998
-38.580002 76.400002 -589.84003
-38.049999 76.440002 -590.08002
-37.52 76.449997 -590.15997
-36.98 76.459999 -590.27002
-36.450001 76.480003 -590.41998
-35.919998 76.5 -590.56
-35.389999 76.529999 -590.78998
-34.849998 76.540001 -590.85999
-34.32 76.550003 -590.96002
-33.779999 76.57 -591.09998
-33.25 76.580002 -591.20001
-32.709999 76.599998 -591.33002
-32.18 76.610001 -591.41998
-31.639999 76.629997 -591.56
-31.110001 76.650002 -591.71002
-30.57 76.669998 -591.87
-30.040001 76.68 -591.98999
-29.5 76.699997 -592.10999
-28.969999 76.739998 -592.38
-28.440001 76.760002 -592.56
-27.9 76.779999 -592.75
-27.360001 76.790001 -592.82001
-26.82 76.809998 -592.90997
-26.280001 76.800003 -592.90997
-25.74 76.800003 -592.89001
-25.190001 76.790001 -592.78998
-24.639999 76.790001 -592.78003
-24.1 76.800003 -592.87
-23.57 76.82 -593.06
-23.030001 76.860001 -593.29999
-22.5 76.900002 -593.65997
-21.98 76.959999 -594.09998
-21.450001 77.010002 -594.48999
-20.91 77.050003 -594.76001
-20.370001 77.059998 -594.88
-19.84 77.110001 -595.25
-19.299999 77.160004 -595.60999
-18.780001 77.239998 -596.21002
-18.25 77.330002 -596.94
-17.73 77.419998 -597.60999
-17.190001 77.480003 -598.06
-16.65 77.510002 -598.25
-16.1 77.529999 -598.42999
-15.56 77.550003 -598.59998
-15.01 77.559998 -598.66998
-14.47 77.57 -598.72998
-13.92 77.580002 -598.81
-13.37 77.610001 -599.02002
-12.83 77.639999 -599.23999
-12.28 77.660004 -599.41998
-11.74 77.690002 -599.65002
-11.19 77.720001 -599.91998
-10.65 77.75 -600.15002
-10.1 77.769997 -600.23999
-9.5500002 77.730003 -600
-8.9899998 77.660004 -599.44
-8.4300003 77.57 -598.78003
-7.8699999 77.449997 -597.84003
-7.3099999 77.360001 -597.15997
-6.75 77.260002 -596.38
-6.1999998 77.169998 -595.73999
-5.6500001 77.059998 -594.89001
-5.0900002 76.980003 -594.25
-4.5500002 76.919998 -593.81
-4 76.849998 -593.27002
-3.45 76.779999 -592.71002
-2.9100001 76.709999 -592.22998
-2.3599999 76.650002 -591.75
-1.8200001 76.580002 -591.22998
-1.27 76.519997 -590.73999
-0.73000002 76.470001 -590.40002
-0.19 76.419998 -590.03998
0.34999999 76.379997 -589.67999
0.88999999 76.330002 -589.34003
1.4299999 76.300003 -589.04999
1.97 76.260002 -588.76001
2.51 76.220001 -588.51001
3.04 76.169998 -588.09998
3.5799999 76.150002 -587.91998
4.1199999 76.099998 -587.57001
4.6599998 76.089996 -587.47998
5.1900001 76.059998 -587.22998
5.73 76.029999 -587
6.2600002 76 -586.81
6.8000002 75.980003 -586.64001
7.3299999 75.949997 -586.40997
7.8699999 75.93 -586.27002
8.3999996 75.910004 -586.10999
8.9399996 75.889999 -585.96002
9.4700003 75.870003 -585.78998
10.01 75.849998 -585.67999
10.54 75.839996 -585.59998
11.08 75.830002 -585.51001
11.61 75.82 -585.40997
12.15 75.790001 -585.22998
12.68 75.800003 -585.27002
13.22 75.790001 -585.21997
13.75 75.790001 -585.16998
14.29 75.779999 -585.14001
14.82 75.779999 -585.10999
15.36 75.769997 -585.07001
15.89 75.760002 -584.96997
16.43 75.760002 -584.97998
16.969999 75.760002 -584.97998
17.5 75.769997 -585.03998
18.040001 75.769997 -585.09003
18.58 75.779999 -585.09998
19.120001 75.790001 -585.19
19.65 75.790001 -585.21997
20.190001 75.800003 -585.28003
20.73 75.800003 -585.29999
21.27 75.809998 -585.35999
21.809999 75.82 -585.45001
22.35 75.830002 -585.52002
22.889999 75.839996 -585.59998
23.43 75.860001 -585.76001
23.969999 75.879997 -585.84998
24.51 75.889999 -585.94
25.049999 75.900002 -586.02002
25.6 75.919998 -586.16998
26.139999 75.93 -586.26001
26.68 75.940002 -586.37
27.219999 75.949997 -586.41998
27.76 75.970001 -586.57001
28.309999 75.989998 -586.70001
28.85 76.010002 -586.84003
29.4 76.019997 -586.96997
29.940001 76.029999 -587.01001
30.49 76.050003 -587.17999
31.030001 76.059998 -587.26001
31.57 76.07 -587.29999
32.110001 76.080002 -587.35999
32.650002 76.089996 -587.46997
33.200001 76.110001 -587.65002
33.75 76.129997 -587.78003
34.290001 76.150002 -587.89001
34.84 76.160004 -588.01001
35.389999 76.18 -588.16998
35.939999 76.199997 -588.29999
36.490002 76.220001 -588.45001
37.040001 76.239998 -588.60999
37.580002 76.260002 -588.75
38.139999 76.290001 -588.94
38.68 76.300003 -589.03998
39.23 76.32 -589.21002
39.790001 76.339996 -589.39001
40.330002 76.360001 -589.46997
40.889999 76.389999 -589.71002
41.439999 76.410004 -589.88
42 76.440002 -590.07001
42.549999 76.459999 -590.26001
43.110001 76.489998 -590.5
43.669998 76.529999 -590.78003
44.23 76.550003 -590.94
44.790001 76.580002 -591.15997
45.349998 76.610001 -591.40002
45.900002 76.639999 -591.58002
46.459999 76.660004 -591.79999
47.02 76.690002 -592.02002
47.599998 76.739998 -592.40002
48.169998 76.790001 -592.72998
48.73 76.82 -593.01001
49.299999 76.860001 -593.29999
49.880001 76.910004 -593.65997
50.439999 76.940002 -593.91998
51.029999 77.010002 -594.40002
51.610001 77.059998 -594.81
52.200001 77.120003 -595.23999
52.77 77.169998 -595.59998
53.349998 77.209999 -595.96997
53.939999 77.269997 -596.41998
54.52 77.32 -596.78003
55.09 77.349998 -596.96002
55.650002 77.370003 -597.15997
56.209999 77.389999 -597.28003
56.790001 77.43 -597.57001
57.360001 77.449997 -597.78003
57.939999 77.5 -598.14001
58.509998 77.540001 -598.40997
59.110001 77.599998 -598.84998
59.700001 77.660004 -599.32001
60.299999 77.720001 -599.76001
60.900002 77.790001 -600.28003
61.540001 77.889999 -601.08002
62.139999 77.959999 -601.63
62.77 78.050003 -602.28003
63.43 78.190002 -603.34003
64.120003 78.349998 -604.56
64.769997 78.470001 -605.45001
65.440002 78.610001 -606.53998
70.160004 77.07 -594.83002
70.389999 76.730003 -592.21997
70.699997 76.480003 -590.32001
71.029999 76.25 -588.56
71.410004 76.07 -587.25
71.730003 75.849998 -585.53998
71.889999 75.449997 -582.47998
71.989998 75 -579.03998
72.400002 74.870003 -578.10999
72.809998 74.75 -577.16998
73.269997 74.690002 -576.67999
73.720001 74.599998 -576.03003
74.190002 74.550003 -575.60999
74.669998 74.5 -575.23999
75.169998 74.470001 -575.01001
75.650002 74.43 -574.71002
76.160004 74.410004 -574.53003
76.669998 74.389999 -574.40997
77.190002 74.379997 -574.34998
77.699997 74.370003 -574.27002
78.230003 74.370003 -574.28003
78.769997 74.389999 -574.38
79.32 74.410004 -574.57001
79.870003 74.43 -574.69
80.419998 74.449997 -574.84003
80.980003 74.480003 -575.08002
81.540001 74.510002 -575.29999
82.129997 74.57 -575.73999
82.699997 74.610001 -576.04999
83.309998 74.68 -576.59998
83.900002 74.739998 -577.03003
84.519997 74.82 -577.63
85.139999 74.900002 -578.25
85.75 74.970001 -578.79999
86.400002 75.07 -579.56
87.080002 75.199997 -580.53003
87.760002 75.330002 -581.52002
88.43 75.440002 -582.39001
89.190002 75.629997 -583.83002
90.029999 75.889999 -585.78003
91.010002 76.260002 -588.63
92.43 77 -594.21002
93.419998 77.360001 -596.96002
94.220001 77.57 -598.56
94.919998 77.690002 -599.47998
95.620003 77.82 -600.41998
96.290001 77.919998 -601.17999
97.010002 78.050003 -602.19
97.709999 78.169998 -603.09998
98.470001 78.330002 -604.34998
99.290001 78.540001 -605.91998
-168.66 75.529999 -587.22998
-167.97 75.459999 -586.67999
-167.32001 75.410004 -586.29999
-166.67 75.360001 -585.90997
-166.11 75.339996 -585.81
-165.55 75.330002 -585.71997
-165.00999 75.330002 -585.71997
-164.45 75.32 -585.65002
-163.92 75.330002 -585.66998
-163.42999 75.349998 -585.84003
-162.91 75.360001 -585.88
-162.42999 75.379997 -586.09003
-161.91 75.389999 -586.12
-161.39 75.400002 -586.19
-160.87 75.410004 -586.26001
-160.35001 75.419998 -586.32001
-159.8 75.410004 -586.26001
-159.27 75.410004 -586.28003
-158.77 75.43 -586.42999
-158.21001 75.419998 -586.34003
-157.7 75.43 -586.40997
-157.17 75.43 -586.45001
-156.64 75.440002 -586.46002
-156.10001 75.440002 -586.45001
-155.53 75.419998 -586.33002
-154.97 75.410004 -586.25
-154.42999 75.410004 -586.25
-153.89999 75.410004 -586.28003
-153.38 75.419998 -586.32001
-152.82001 75.410004 -586.26001
-152.31 75.419998 -586.34998
-151.78999 75.43 -586.41998
-151.25 75.43 -586.40997
-150.73 75.440002 -586.46997
-150.21001 75.449997 -586.52002
-149.69 75.459999 -586.59003
-149.17999 75.470001 -586.69
-148.66 75.480003 -586.75
-148.14999 75.489998 -586.85999
-147.64999 75.510002 -587.01001
-147.13 75.529999 -587.09998
-146.62 75.540001 -587.21002
-146.14999 75.580002 -587.48999
-145.61 75.580002 -587.46997
-145.12 75.599998 -587.66998
-144.64999 75.629997 -587.90997
-144.14999 75.650002 -588.07001
-143.64 75.669998 -588.21002
-143.17999 75.709999 -588.53003
-142.67999 75.730003 -588.66998
-142.17 75.75 -588.79999
-141.67 75.769997 -588.96002
-141.19 75.800003 -589.17999
-140.72 75.839996 -589.46997
-140.21001 75.860001 -589.62
-139.73 75.889999 -589.84998
-139.24001 75.919998 -590.09003
-138.78 75.959999 -590.41998
-138.3 76 -590.69
-137.82001 76.029999 -590.92999
-137.33 76.059998 -591.13
-136.83 76.080002 -591.34003
-136.35001 76.120003 -591.59998
-135.88 76.160004 -591.91998
-135.41 76.199997 -592.21002
-134.94 76.239998 -592.53998
-134.46001 76.279999 -592.81
-133.98 76.309998 -593.08002
-133.48 76.339996 -593.28003
-133.00999 76.379997 -593.58002
-132.52 76.410004 -593.85999
-132.03999 76.449997 -594.15002
-131.53999 76.480003 -594.33002
-131.05 76.510002 -594.57001
-130.57001 76.540001 -594.84998
-130.09 76.580002 -595.15002
-129.60001 76.620003 -595.40002
-129.09 76.639999 -595.57001
-128.60001 76.669998 -595.82001
-128.10001 76.699997 -596.02002
-127.6 76.730003 -596.27002
-127.09 76.75 -596.41998
-126.59 76.779999 -596.63
-126.07 76.790001 -596.75
-125.56 76.82 -596.96002
-125.08 76.860001 -597.25
-124.55 76.870003 -597.34998
-124.04 76.889999 -597.51001
-123.51 76.900002 -597.59998
-123.01 76.93 -597.83002
-122.49 76.949997 -597.97998
-121.96 76.970001 -598.09003
-121.46 77 -598.32001
-120.92 77 -598.34003
-120.36 77 -598.31
-119.83 77 -598.38
-119.27 77 -598.34003
-118.66 76.959999 -598.02002
-118.03 76.910004 -597.63
-117.33 76.809998 -596.87
-116.38 76.540001 -594.85999
-115.36 76.230003 -592.45001
-114.58 76.07 -591.21997
-113.81 75.919998 -590.07001
-113.18 75.860001 -589.59003
-112.49 75.760002 -588.84003
-111.89 75.709999 -588.51001
-111.29 75.669998 -588.20001
-110.72 75.650002 -588.03998
-110.14 75.629997 -587.85999
-109.59 75.620003 -587.78003
-109.04 75.610001 -587.75
-108.49 75.599998 -587.66998
-107.93 75.589996 -587.53998
-107.34 75.559998 -587.29999
-106.73 75.5 -586.90002
-106.03 75.389999 -586.01001
-105.13 75.129997 -584.02002
-104.48 75.050003 -583.40997
-103.81 74.949997 -582.65997
-103.2 74.900002 -582.26001
-102.59 74.839996 -581.83002
-102.02 74.809998 -581.59998
-101.44 74.769997 -581.32001
-100.88 74.760002 -581.21002
-100.31 74.730003 -580.96002
-99.760002 74.720001 -580.90997
-99.230003 74.709999 -580.87
-98.68 74.709999 -580.82001
-98.110001 74.669998 -580.58002
-97.57 74.669998 -580.51001
-97.019997 74.660004 -580.46002
-96.489998 74.660004 -580.44
-95.93 74.629997 -580.27002
-95.379997 74.620003 -580.15002
-94.830002 74.610001 -580.09003
-94.300003 74.610001 -580.06
-93.730003 74.580002 -579.87
-93.169998 74.550003 -579.65002
-92.610001 74.529999 -579.51001
-92.059998 74.510002 -579.35999
-91.5 74.489998 -579.20001
-90.93 74.459999 -578.96002
-90.370003 74.440002 -578.78998
-89.82 74.419998 -578.66998
-89.239998 74.379997 -578.31
-88.68 74.349998 -578.10999
-88.110001 74.32 -577.90002
-87.550003 74.300003 -577.71002
-86.980003 74.260002 -577.44
-86.419998 74.230003 -577.21002
-85.860001 74.199997 -577
-85.300003 74.18 -576.79999
-84.730003 74.139999 -576.53003
-84.160004 74.099998 -576.23999
-83.610001 74.089996 -576.13
-83.059998 74.059998 -575.94
-82.510002 74.040001 -575.78998
-81.949997 74.019997 -575.58002
-81.400002 73.989998 -575.40997
-80.839996 73.970001 -575.21002
-80.290001 73.949997 -575.04999
-79.739998 73.93 -574.90997
-79.209999 73.919998 -574.84003
-78.660004 73.900002 -574.67999
-78.110001 73.879997 -574.53998
-77.580002 73.879997 -574.52002
-77.040001 73.860001 -574.40002
-76.510002 73.860001 -574.40002
-75.970001 73.849998 -574.31
-75.440002 73.839996 -574.22998
-74.910004 73.839996 -574.22998
-74.370003 73.830002 -574.15997
-73.839996 73.830002 -574.13
-73.32 73.830002 -574.16998
-72.800003 73.830002 -574.16998
-72.269997 73.830002 -574.15997
-71.760002 73.849998 -574.32001
-71.239998 73.849998 -574.34003
-70.730003 73.870003 -574.45001
-70.209999 73.870003 -574.5
-69.690002 73.879997 -574.58002
-69.18 73.900002 -574.69
-68.660004 73.910004 -574.79999
-68.139999 73.919998 -574.85999
-67.629997 73.93 -574.97998
-67.129997 73.970001 -575.25
-66.610001 73.970001 -575.28998
-66.110001 74 -575.47998
-65.610001 74.029999 -575.76001
-65.099998 74.059998 -575.91998
-64.610001 74.099998 -576.23999
-64.120003 74.139999 -576.54999
-63.619999 74.18 -576.85999
-63.130001 74.220001 -577.20001
-62.650002 74.279999 -577.65997
-62.18 74.349998 -578.16998
-61.700001 74.410004 -578.60999
-61.209999 74.459999 -579.02002
-60.73 74.519997 -579.52002
-60.25 74.580002 -579.96002
-59.75 74.629997 -580.31
-59.27 74.68 -580.75
-58.790001 74.760002 -581.33002
-58.299999 74.809998 -581.69
-57.82 74.879997 -582.23999
-57.34 74.949997 -582.77002
-56.869999 75.029999 -583.39001
-56.380001 75.089996 -583.84998
-55.889999 75.160004 -584.39001
-55.400002 75.220001 -584.84998
-54.919998 75.290001 -585.41998
-54.41 75.330002 -585.72998
-53.91 75.379997 -586.09003
-53.400002 75.410004 -586.35999
-52.889999 75.449997 -586.65997
-52.369999 75.480003 -586.90002
-51.849998 75.510002 -587.09998
-51.32 75.519997 -587.17999
-50.799999 75.540001 -587.34998
-50.27 75.559998 -587.48999
-49.740002 75.57 -587.54999
-49.209999 75.580002 -587.67999
-48.689999 75.610001 -587.89001
-48.16 75.620003 -587.97998
-47.619999 75.629997 -588.04999
-47.099998 75.650002 -588.21002
-46.57 75.68 -588.40002
-46.040001 75.690002 -588.53003
-45.509998 75.699997 -588.58002
-44.98 75.720001 -588.71997
-44.459999 75.75 -588.94
-43.919998 75.760002 -589.03998
-43.389999 75.769997 -589.10999
-42.860001 75.790001 -589.29999
-42.330002 75.809998 -589.46002
-41.799999 75.830002 -589.53998
-41.27 75.839996 -589.64001
-40.740002 75.860001 -589.78003
-40.200001 75.870003 -589.89001
-39.68 75.900002 -590.09003
-39.150002 75.919998 -590.26001
-38.610001 75.93 -590.35999
-38.080002 75.949997 -590.51001
-37.549999 75.970001 -590.64001
-37.009998 75.980003 -590.71997
-36.48 76 -590.91998
-35.959999 76.029999 -591.15002
-35.419998 76.040001 -591.21997
-34.880001 76.059998 -591.32001
-34.34 76.07 -591.41998
-33.82 76.099998 -591.65997
-33.279999 76.110001 -591.75
-32.740002 76.129997 -591.85999
-32.209999 76.150002 -592.06
-31.68 76.169998 -592.20001
-31.129999 76.169998 -592.16998
-30.6 76.190002 -592.33002
-30.059999 76.209999 -592.48999
-29.530001 76.230003 -592.66998
-29 76.260002 -592.89001
-28.459999 76.279999 -593.03998
-27.93 76.309998 -593.28003
-27.389999 76.330002 -593.42999
-26.85 76.330002 -593.46002
-26.299999 76.32 -593.35999
-25.75 76.32 -593.33002
-25.209999 76.309998 -593.27002
-24.66 76.309998 -593.26001
-24.120001 76.32 -593.38
-23.59 76.349998 -593.59003
-23.059999 76.400002 -593.96002
-22.530001 76.440002 -594.32001
-22 76.510002 -594.85999
-21.469999 76.540001 -595.07001
-20.93 76.57 -595.28998
-20.389999 76.610001 -595.59003
-19.860001 76.650002 -595.88
-19.33 76.709999 -596.33002
-18.799999 76.809998 -597.09998
-18.280001 76.900002 -597.82001
-17.75 76.989998 -598.46997
-17.209999 77.029999 -598.78003
-16.67 77.07 -599.14001
-16.129999 77.089996 -599.27002
-15.58 77.089996 -599.29999
-15.03 77.099998 -599.38
-14.48 77.110001 -599.46002
-13.94 77.129997 -599.60999
-13.39 77.150002 -599.72998
-12.84 77.18 -599.92999
-12.3 77.209999 -600.16998
-11.76 77.25 -600.46002
-11.21 77.290001 -600.83002
-10.66 77.309998 -601
-10.11 77.32 -601.04999
-9.5600004 77.279999 -600.76001
-9 77.209999 -600.21997
-8.4399996 77.110001 -599.40002
-7.8800001 76.989998 -598.48999
-7.3200002 76.889999 -597.71997
-6.7600002 76.779999 -596.94
-6.21 76.690002 -596.21002
-5.6500001 76.580002 -595.37
-5.0999999 76.5 -594.76001
-4.5500002 76.419998 -594.15002
-4 76.360001 -593.66998
-3.45 76.279999 -593.04999
-2.9100001 76.220001 -592.58002
-2.3599999 76.139999 -592.03998
-1.8200001 76.089996 -591.60999
-1.27 76.019997 -591.08002
-0.73000002 75.970001 -590.70001
-0.19 75.919998 -590.34003
0.34999999 75.879997 -590.03998
0.88999999 75.830002 -589.64001
1.4299999 75.790001 -589.34998
1.97 75.75 -589.01001
2.51 75.709999 -588.67999
3.04 75.669998 -588.39001
3.5799999 75.639999 -588.17999
4.1199999 75.599998 -587.88
4.6599998 75.580002 -587.67999
5.1900001 75.550003 -587.46002
5.73 75.529999 -587.29999
6.27 75.5 -587.06
6.8000002 75.480003 -586.91998
7.3400002 75.440002 -586.65002
7.8699999 75.419998 -586.5
8.4099998 75.410004 -586.39001
8.9399996 75.379997 -586.20001
9.4799995 75.360001 -586.02002
10.01 75.349998 -585.95001
10.55 75.330002 -585.76001
11.08 75.309998 -585.65002
11.62 75.300003 -585.58002
12.15 75.290001 -585.51001
12.69 75.290001 -585.45001
13.22 75.279999 -585.40002
13.76 75.269997 -585.37
14.29 75.269997 -585.33002
14.83 75.260002 -585.27002
15.36 75.260002 -585.22998
15.9 75.260002 -585.21997
16.440001 75.260002 -585.27002
16.98 75.269997 -585.31
17.51 75.260002 -585.27002
18.049999 75.269997 -585.34003
18.59 75.269997 -585.35999
19.120001 75.279999 -585.37
19.66 75.290001 -585.5
20.200001 75.309998 -585.59998
20.74 75.309998 -585.66998
21.280001 75.330002 -585.76001
21.82 75.32 -585.73999
22.360001 75.330002 -585.78998
22.9 75.349998 -585.92999
23.440001 75.360001 -586.03003
23.99 75.379997 -586.17999
24.530001 75.389999 -586.27002
25.07 75.410004 -586.38
25.610001 75.43 -586.56
26.15 75.43 -586.57001
26.700001 75.459999 -586.76001
27.24 75.470001 -586.84998
27.780001 75.480003 -586.94
28.33 75.5 -587.09003
28.870001 75.529999 -587.27002
29.42 75.540001 -587.34998
29.959999 75.550003 -587.47998
30.51 75.57 -587.60999
31.049999 75.57 -587.60999
31.59 75.589996 -587.78998
32.139999 75.599998 -587.82001
32.68 75.620003 -587.96002
33.23 75.639999 -588.13
33.779999 75.660004 -588.31
34.32 75.669998 -588.34998
34.869999 75.68 -588.46997
35.419998 75.709999 -588.69
35.970001 75.730003 -588.82001
36.52 75.739998 -588.91998
37.060001 75.760002 -589.06
37.619999 75.790001 -589.27002
38.169998 75.809998 -589.41998
38.720001 75.830002 -589.59003
39.279999 75.860001 -589.84003
39.830002 75.879997 -589.97998
40.380001 75.910004 -590.16998
40.93 75.93 -590.33002
41.48 75.940002 -590.41998
42.040001 75.959999 -590.60999
42.59 75.989998 -590.83002
43.16 76.029999 -591.12
43.709999 76.050003 -591.23999
44.27 76.089996 -591.53003
44.830002 76.110001 -591.71002
45.380001 76.129997 -591.87
45.939999 76.160004 -592.06
46.509998 76.190002 -592.34998
47.07 76.220001 -592.56
47.639999 76.269997 -592.92999
48.209999 76.300003 -593.19
48.779999 76.349998 -593.51001
49.34 76.379997 -593.76001
49.919998 76.43 -594.15997
50.509998 76.489998 -594.64001
51.09 76.550003 -595.03003
51.669998 76.599998 -595.41998
52.240002 76.650002 -595.79999
52.830002 76.699997 -596.22998
53.41 76.760002 -596.65002
54 76.809998 -597.08002
54.59 76.870003 -597.47998
55.169998 76.910004 -597.81
55.75 76.970001 -598.23999
56.310001 76.980003 -598.34998
56.880001 77 -598.51001
57.450001 77.029999 -598.73999
58.040001 77.080002 -599.14001
58.610001 77.120003 -599.41998
59.209999 77.190002 -599.91998
59.810001 77.239998 -600.34998
60.439999 77.339996 -601.09998
61.049999 77.419998 -601.71002
61.689999 77.529999 -602.52002
62.330002 77.639999 -603.34998
63.029999 77.82 -604.77002
63.740002 78.010002 -606.22998
64.360001 78.089996 -606.83002
70.349998 76.739998 -596.44
70.510002 76.32 -593.23999
70.790001 76.029999 -591.03998
71.110001 75.790001 -589.17999
71.470001 75.599998 -587.71997
71.82 75.410004 -586.25
72.18 75.220001 -584.81
72.290001 74.779999 -581.47998
72.510002 74.459999 -579
72.900002 74.32 -577.91998
73.339996 74.230003 -577.21997
73.809998 74.169998 -576.73999
74.260002 74.089996 -576.16998
74.75 74.050003 -575.85999
75.230003 74 -575.46997
75.720001 73.970001 -575.20001
76.209999 73.93 -574.96002
76.720001 73.910004 -574.79999
77.239998 73.910004 -574.75
77.760002 73.900002 -574.65997
78.279999 73.900002 -574.67999
78.830002 73.910004 -574.78003
79.360001 73.919998 -574.85999
79.910004 73.940002 -575.03003
80.459999 73.959999 -575.16998
81.029999 74 -575.46002
81.599998 74.040001 -575.72998
82.18 74.080002 -576.09003
82.760002 74.129997 -576.45001
83.360001 74.199997 -576.96002
83.959999 74.260002 -577.44
84.580002 74.339996 -578.03003
85.199997 74.419998 -578.64001
85.830002 74.510002 -579.34003
86.489998 74.620003 -580.15002
87.160004 74.739998 -581.07001
87.82 74.839996 -581.87
88.57 75.019997 -583.28003
89.309998 75.199997 -584.64001
90.209999 75.510002 -586.96002
91.410004 76.059998 -591.16998
92.699997 76.68 -595.90997
93.550003 76.93 -597.82001
94.32 77.099998 -599.19
95 77.209999 -600
95.690002 77.32 -600.84998
96.389999 77.440002 -601.78998
97.089996 77.559998 -602.71002
97.790001 77.68 -603.59998
98.559998 77.849998 -604.90997
99.400002 78.07 -606.59003
-168.60001 74.959999 -586.98999
-167.99001 74.93 -586.75
-167.33 74.870003 -586.33002
-166.66 74.809998 -585.87
-166.08 74.800003 -585.71997
-165.56 74.800003 -585.78003
-165.02 74.800003 -585.76001
-164.49001 74.800003 -585.76001
-163.95 74.800003 -585.77002
-163.42999 74.809998 -585.81
-162.91 74.82 -585.89001
-162.42999 74.839996 -586.06
-161.92 74.860001 -586.15997
-161.42 74.870003 -586.28998
-160.88 74.870003 -586.27002
-160.33 74.870003 -586.25
-159.81 74.870003 -586.28003
-159.28999 74.889999 -586.37
-158.75 74.879997 -586.34998
-158.23 74.889999 -586.40002
-157.7 74.900002 -586.44
-157.19 74.910004 -586.52002
-156.66 74.910004 -586.56
-156.11 74.900002 -586.48999
-155.60001 74.919998 -586.59998
-155.05 74.910004 -586.53998
-154.5 74.910004 -586.52002
-153.94 74.900002 -586.42999
-153.41 74.900002 -586.41998
-152.88 74.900002 -586.46997
-152.35001 74.910004 -586.47998
-151.78999 74.900002 -586.41998
-151.3 74.919998 -586.57001
-150.75999 74.919998 -586.59003
-150.25 74.93 -586.66998
-149.73 74.940002 -586.73999
-149.21001 74.949997 -586.82001
-148.71001 74.970001 -586.96002
-148.17999 74.970001 -586.97998
-147.67 74.989998 -587.08002
-147.16 75 -587.21002
-146.67999 75.029999 -587.41998
-146.14999 75.040001 -587.46997
-145.66 75.059998 -587.66998
-145.17 75.089996 -587.84998
-144.67999 75.110001 -588.07001
-144.17 75.129997 -588.15997
-143.67999 75.150002 -588.37
-143.17999 75.169998 -588.51001
-142.69 75.199997 -588.72998
-142.21001 75.230003 -588.95001
-141.73 75.260002 -589.21002
-141.24001 75.290001 -589.40002
-140.77 75.330002 -589.70001
-140.27 75.349998 -589.87
-139.8 75.389999 -590.15002
-139.28999 75.410004 -590.28998
-138.83 75.449997 -590.60999
-138.34 75.480003 -590.85999
-137.88 75.519997 -591.21002
-137.38 75.540001 -591.35999
-136.89999 75.580002 -591.63
-136.42 75.610001 -591.88
-135.95 75.650002 -592.20001
-135.48 75.690002 -592.52002
-135.00999 75.739998 -592.83002
-134.5 75.760002 -593
-134.03 75.790001 -593.28003
-133.53999 75.82 -593.52002
-133.08 75.879997 -593.91998
-132.58 75.900002 -594.12
-132.10001 75.940002 -594.39001
-131.61 75.970001 -594.63
-131.12 76 -594.88
-130.64 76.040001 -595.16998
-130.16 76.080002 -595.46002
-129.64 76.099998 -595.59998
-129.17 76.139999 -595.91998
-128.64999 76.160004 -596.07001
-128.16 76.190002 -596.31
-127.67 76.220001 -596.58002
-127.18 76.260002 -596.84003
-126.67 76.279999 -597.01001
-126.16 76.300003 -597.17999
-125.66 76.330002 -597.42999
-125.16 76.360001 -597.62
-124.64 76.379997 -597.77002
-124.13 76.400002 -597.96002
-123.64 76.43 -598.21002
-123.1 76.440002 -598.28003
-122.6 76.470001 -598.5
-122.07 76.480003 -598.58002
-121.54 76.5 -598.69
-121.03 76.519997 -598.89001
-120.48 76.519997 -598.88
-119.93 76.519997 -598.89001
-119.37 76.510002 -598.82001
-118.77 76.480003 -598.58002
-118.17 76.449997 -598.34003
-117.47 76.349998 -597.54999
-116.53 76.089996 -595.59003
-115.51 75.790001 -593.21997
-114.7 75.610001 -591.84003
-113.89 75.43 -590.46002
-113.24 75.360001 -589.91998
-112.58 75.269997 -589.28003
-111.95 75.220001 -588.84998
-111.34 75.169998 -588.47998
-110.76 75.150002 -588.28998
-110.21 75.129997 -588.20001
-109.66 75.129997 -588.14001
-109.09 75.110001 -588.01001
-108.55 75.110001 -587.98999
-107.99 75.089996 -587.90002
-107.41 75.059998 -587.65997
-106.81 75.019997 -587.29999
-106.15 74.93 -586.66998
-105.29 74.709999 -584.90002
-104.58 74.580002 -583.95001
-103.92 74.489998 -583.27002
-103.29 74.419998 -582.71002
-102.68 74.370003 -582.33002
-102.1 74.339996 -582.07001
-101.51 74.300003 -581.76001
-100.96 74.279999 -581.62
-100.38 74.25 -581.40997
-99.839996 74.239998 -581.32001
-99.290001 74.230003 -581.22998
-98.75 74.230003 -581.21997
-98.190002 74.209999 -581.06
-97.629997 74.190002 -580.90997
-97.089996 74.18 -580.84003
-96.559998 74.18 -580.85999
-96.010002 74.169998 -580.75
-95.449997 74.150002 -580.62
-94.910004 74.139999 -580.54999
-94.360001 74.120003 -580.44
-93.800003 74.099998 -580.27002
-93.25 74.089996 -580.16998
-92.690002 74.07 -580.01001
-92.139999 74.050003 -579.88
-91.580002 74.029999 -579.70001
-91.010002 74 -579.47998
-90.440002 73.970001 -579.22998
-89.870003 73.93 -578.97998
-89.300003 73.900002 -578.71002
-88.730003 73.870003 -578.48999
-88.150002 73.830002 -578.15997
-87.599998 73.809998 -578.03003
-87.040001 73.779999 -577.83002
-86.459999 73.739998 -577.52002
-85.900002 73.709999 -577.31
-85.339996 73.68 -577.06
-84.779999 73.660004 -576.84998
-84.220001 73.629997 -576.64001
-83.660004 73.599998 -576.41998
-83.099998 73.580002 -576.25
-82.540001 73.550003 -576.03003
-81.980003 73.519997 -575.82001
-81.440002 73.510002 -575.72998
-80.900002 73.489998 -575.60999
-80.339996 73.459999 -575.38
-79.779999 73.43 -575.15997
-79.230003 73.410004 -575
-78.690002 73.400002 -574.92999
-78.160004 73.400002 -574.89001
-77.610001 73.379997 -574.76001
-77.080002 73.370003 -574.67999
-76.540001 73.360001 -574.63
-76 73.339996 -574.47998
-75.459999 73.339996 -574.41998
-74.93 73.330002 -574.39001
-74.400002 73.330002 -574.38
-73.870003 73.330002 -574.34003
-73.349998 73.330002 -574.39001
-72.830002 73.330002 -574.40997
-72.309998 73.339996 -574.47998
-71.790001 73.349998 -574.53003
-71.269997 73.349998 -574.56
-70.739998 73.360001 -574.58002
-70.230003 73.370003 -574.70001
-69.709999 73.379997 -574.78998
-69.199997 73.400002 -574.90997
