# .PCD v0.7 - Point Cloud Data file format
VERSION 0.7
FIELDS x y z
SIZE 4 4 4
TYPE F F F
COUNT 1 1 1
WIDTH 1744
HEIGHT 1
VIEWPOINT 0 0 0 1 0 0 0
POINTS 1744
DATA ascii
-105.91 132.88 -612.94
-105.34 132.87 -612.88
-104.74 132.83 -612.67999
-104.17 132.81 -612.58002
-103.59 132.78999 -612.5
-103 132.75999 -612.34998
-102.42 132.73 -612.21002
-101.88 132.75999 -612.34998
-101.31 132.75 -612.29999
-100.75 132.75 -612.32001
-99.410004 132.47 -611.02002
-98.82 132.42999 -610.84998
-98.209999 132.36 -610.52002
-97.599998 132.28999 -610.21002
-96.989998 132.22 -609.90997
-96.43 132.21001 -609.87
-95.860001 132.2 -609.81
-95.300003 132.2 -609.81
-94.75 132.21001 -609.87
-94.18 132.2 -609.79999
-93.610001 132.17999 -609.71002
-92.919998 132.00999 -608.92999
-92.279999 131.88 -608.37
-91.660004 131.8 -607.96997
-91.029999 131.7 -607.52002
-90.410004 131.59 -607.04999
-89.800003 131.52 -606.71997
-89.209999 131.47 -606.46997
-88.620003 131.42 -606.27002
-88.040001 131.38 -606.08002
-87.459999 131.35001 -605.95001
-86.860001 131.28999 -605.65002
-86.269997 131.23 -605.40997
-85.690002 131.19 -605.21002
-85.120003 131.17 -605.12
-84.550003 131.14999 -605.03998
-84 131.14999 -605.02002
-83.440002 131.14999 -605.02002
-82.879997 131.13 -604.95001
-82.32 131.13 -604.90997
-81.779999 131.14999 -605.03003
-81.239998 131.17999 -605.16998
-80.699997 131.21001 -605.28998
-80.18 131.25999 -605.53998
-79.639999 131.28999 -605.65997
-79.080002 131.28 -605.63
-78.519997 131.27 -605.59003
-77.959999 131.25999 -605.53003
-77.389999 131.23 -605.40997
-76.830002 131.24001 -605.42999
-76.279999 131.23 -605.40997
-75.720001 131.23 -605.40002
-75.169998 131.24001 -605.40997
-74.629997 131.25999 -605.53003
-74.080002 131.27 -605.59003
-73.540001 131.3 -605.72998
-72.989998 131.31 -605.76001
-72.43 131.31 -605.75
-71.860001 131.28999 -605.64001
-71.32 131.31 -605.73999
-70.760002 131.31 -605.76001
-70.220001 131.33 -605.84998
-69.660004 131.33 -605.84003
-69.120003 131.35001 -605.96002
-68.580002 131.39 -606.10999
-68.029999 131.39 -606.09998
-67.480003 131.39999 -606.17999
-66.940002 131.44 -606.32001
-66.389999 131.45 -606.39001
-65.849998 131.49001 -606.57001
-65.309998 131.52 -606.71002
-64.779999 131.56 -606.89001
-64.209999 131.55 -606.84998
-63.700001 131.64999 -607.29999
-63.16 131.67999 -607.41998
-62.630001 131.73 -607.65997
-62.09 131.77 -607.82001
-61.549999 131.8 -607.98999
-61 131.83 -608.13
-60.459999 131.86 -608.27002
-59.939999 131.94 -608.62
-59.400002 131.99001 -608.83002
-58.869999 132.05 -609.13
-58.34 132.11 -609.39001
-57.799999 132.14999 -609.59003
-57.259998 132.21001 -609.83002
-56.709999 132.24001 -609.96002
-56.189999 132.32001 -610.34998
-55.66 132.39 -610.67999
-55.150002 132.5 -611.19
-54.599998 132.55 -611.37
-54.060001 132.59 -611.57001
-53.529999 132.66 -611.88
-53 132.74001 -612.23999
-52.470001 132.82001 -612.62
-51.939999 132.92 -613.06
-51.389999 132.94 -613.17999
-50.849998 133.00999 -613.46997
-50.310001 133.05 -613.65997
-49.779999 133.14999 -614.10999
-49.259998 133.27 -614.67999
-48.709999 133.31 -614.83002
-48.169998 133.37 -615.14001
-47.630001 133.42 -615.37
-47.09 133.5 -615.72998
-46.560001 133.59 -616.14001
-46 133.62 -616.28003
-45.439999 133.64 -616.35999
-44.880001 133.67 -616.46997
-44.330002 133.69 -616.59998
-43.77 133.7 -616.65002
-43.200001 133.72 -616.71997
-42.66 133.78 -616.96997
-42.099998 133.81 -617.12
-41.540001 133.83 -617.21002
-41 133.92 -617.63
-40.459999 134.02 -618.07001
-39.91 134.07001 -618.28998
-39.360001 134.13 -618.58002
-38.810001 134.16 -618.73999
-38.240002 134.19 -618.84003
-37.68 134.2 -618.90002
-37.119999 134.22 -618.98999
-36.549999 134.21001 -618.96997
-35.990002 134.23 -619.03998
-35.43 134.27 -619.22998
-34.869999 134.32001 -619.45001
-34.32 134.38 -619.72998
-33.759998 134.42999 -619.94
-33.209999 134.49001 -620.25
11.76 134.58 -620.63
12.33 134.60001 -620.71997
12.89 134.55 -620.48999
13.46 134.48 -620.20001
14.02 134.42999 -619.96002
14.58 134.37 -619.70001
15.15 134.34 -619.56
15.71 134.28 -619.28998
16.27 134.25 -619.15997
16.84 134.2 -618.92999
18.4 133.22 -614.44
18.940001 133.03 -613.57001
19.49 132.94 -613.19
20.040001 132.85001 -612.78998
20.59 132.8 -612.56
21.15 132.74001 -612.28003
21.700001 132.7 -612.09003
22.25 132.64999 -611.87
22.82 132.64999 -611.85999
23.370001 132.63 -611.77002
23.93 132.62 -611.71997
24.5 132.62 -611.75
25.059999 132.64999 -611.85999
25.629999 132.69 -612.03998
26.200001 132.73 -612.23999
26.780001 132.81 -612.58002
27.35 132.86 -612.79999
27.93 132.94 -613.20001
28.52 133.06 -613.73999
29.110001 133.2 -614.35999
-149.69 136.88 -633.90002
-149.3 137.05 -634.69
-148.8 137.12 -635.02002
-148.28 137.17999 -635.28003
-147.72 137.21001 -635.39001
-147.21001 137.27 -635.66998
-146.66 137.31 -635.84998
-146.16 137.38 -636.17999
-145.63 137.42999 -636.39001
-145.12 137.50999 -636.73999
-144.59 137.55 -636.96002
-144.08 137.63 -637.29999
-143.55 137.67999 -637.53998
-143 137.71001 -637.65997
-142.47 137.75999 -637.90002
-141.88 137.77 -637.90997
-141.34 137.81 -638.09998
-140.75 137.8 -638.07001
-140.19 137.83 -638.16998
-139.62 137.85001 -638.26001
-139.10001 137.89999 -638.52002
-138.53999 137.94 -638.65997
-137.97 137.95 -638.71997
-137.41 137.98 -638.84003
-136.89999 138.05 -639.20001
-136.37 138.11 -639.45001
-135.83 138.16 -639.66998
-135.33 138.25 -640.06
-134.8 138.31 -640.33002
-134.28999 138.39 -640.71002
-133.78999 138.48 -641.12
-133.31 138.59 -641.62
-132.75999 138.63 -641.79999
-132.28999 138.75 -642.37
-131.8 138.86 -642.83002
-131.31 138.96001 -643.31
-130.8 139.05 -643.71997
-130.28999 139.14 -644.10999
-129.89 139.34 -645.02002
-129.38 139.44 -645.46997
-128.91 139.56 -646.03003
-128.42 139.67999 -646.56
-110.93 132.27 -612.69
-110.27 132.16 -612.19
-109.71 132.16 -612.19
-109.17 132.17999 -612.28003
-108.62 132.19 -612.35999
-108.03 132.16 -612.21002
-107.47 132.16 -612.21002
-106.9 132.14999 -612.15997
-106.33 132.14 -612.09003
-105.76 132.13 -612.03998
-105.19 132.12 -612.01001
-104.61 132.10001 -611.91998
-104.05 132.10001 -611.91998
-103.48 132.09 -611.87
-102.91 132.08 -611.83002
-102.34 132.07001 -611.77002
-101.77 132.05 -611.70001
-101.18 132.02 -611.54999
-100.58 131.96001 -611.28998
-99.989998 131.92 -611.09998
-99.309998 131.75999 -610.38
-98.690002 131.69 -610.03998
-98.110001 131.66 -609.89001
-97.510002 131.60001 -609.63
-96.919998 131.56 -609.44
-96.300003 131.48 -609.07001
-95.75 131.49001 -609.12
-95.199997 131.50999 -609.21002
-94.639999 131.50999 -609.21002
-94.080002 131.5 -609.15002
-93.459999 131.42 -608.78998
-92.839996 131.33 -608.40002
-92.209999 131.22 -607.90002
-91.529999 131.06 -607.14001
-90.919998 130.97 -606.77002
-90.339996 130.94 -606.59998
-89.760002 130.89999 -606.44
-89.139999 130.82001 -606.04999
-88.529999 130.73 -605.65997
-87.940002 130.67999 -605.44
-87.349998 130.63 -605.17999
-86.760002 130.58 -604.96997
-86.190002 130.56 -604.87
-85.620003 130.52 -604.71002
-85.050003 130.50999 -604.65002
-84.489998 130.5 -604.59998
-83.919998 130.48 -604.47998
-83.360001 130.47 -604.47998
-82.82 130.48 -604.52002
-82.279999 130.50999 -604.65002
-81.709999 130.49001 -604.54999
-81.18 130.53 -604.72998
-80.639999 130.55 -604.82001
-80.120003 130.61 -605.10999
-79.589996 130.64 -605.25
-79.029999 130.64 -605.23999
-78.470001 130.63 -605.20001
-77.900002 130.61 -605.08002
-77.339996 130.59 -605.01001
-76.769997 130.57001 -604.92999
-76.199997 130.55 -604.82001
-75.660004 130.57001 -604.90002
-75.089996 130.55 -604.84003
-74.559998 130.58 -604.96997
-74.010002 130.59 -605.01001
-73.480003 130.64 -605.25
-72.93 130.64999 -605.27002
-72.349998 130.62 -605.12
-71.800003 130.61 -605.09998
-71.239998 130.60001 -605.06
-70.699997 130.63 -605.19
-70.129997 130.60001 -605.06
-69.589996 130.63 -605.17999
-69.040001 130.64999 -605.29999
-68.510002 130.69 -605.45001
-67.959999 130.71001 -605.54999
-67.419998 130.74001 -605.70001
-66.889999 130.78999 -605.90997
-66.349998 130.81 -606.01001
-65.809998 130.84 -606.14001
-65.260002 130.87 -606.27002
-64.730003 130.91 -606.46997
-64.190002 130.94 -606.59998
-63.639999 130.96001 -606.69
-63.099998 130.99001 -606.84003
-62.560001 131.03 -607.03003
-62.02 131.07001 -607.21002
-61.48 131.11 -607.37
-60.950001 131.16 -607.59003
-60.43 131.24001 -607.96997
-59.869999 131.24001 -607.98999
-59.349998 131.31 -608.28998
-58.799999 131.34 -608.42999
-58.27 131.41 -608.75
-57.73 131.45 -608.94
-57.220001 131.55 -609.37
-56.689999 131.62 -609.70001
-56.150002 131.66 -609.89001
-55.610001 131.71001 -610.13
-55.080002 131.78 -610.42999
-54.549999 131.85001 -610.75
-54.02 131.92 -611.09003
-53.490002 132 -611.44
-52.939999 132.03999 -611.64001
-52.41 132.10001 -611.90997
-51.880001 132.2 -612.34998
-51.34 132.25999 -612.60999
-50.82 132.36 -613.09998
-50.279999 132.41 -613.32001
-49.740002 132.47 -613.60999
-49.189999 132.52 -613.82001
-48.669998 132.63 -614.32001
-48.130001 132.71001 -614.66998
-47.599998 132.78999 -615.07001
-47.049999 132.83 -615.25
-46.5 132.86 -615.39001
-45.950001 132.89999 -615.56
-45.389999 132.92 -615.65997
-44.830002 132.94 -615.73999
-44.279999 132.97 -615.89001
-43.73 133.02 -616.09003
-43.169998 133.06 -616.28003
-42.619999 133.11 -616.52002
-42.07 133.14999 -616.67999
-41.509998 133.17999 -616.83002
-40.959999 133.22 -617
-40.41 133.25999 -617.21997
-39.860001 133.34 -617.54999
-39.330002 133.44 -618.01001
-38.779999 133.52 -618.37
-38.23 133.55 -618.53003
-37.66 133.56 -618.56
-37.09 133.56 -618.59003
-36.529999 133.58 -618.66998
-35.959999 133.58 -618.65997
-35.400002 133.58 -618.66998
-34.830002 133.59 -618.72998
-34.279999 133.64 -618.95001
-33.709999 133.66 -619.02002
-33.16 133.73 -619.34003
-32.619999 133.82001 -619.76001
11.17 133.78 -619.60999
11.75 133.88 -620.03003
12.32 133.91 -620.15997
12.89 133.89999 -620.13
13.45 133.83 -619.84003
14.01 133.77 -619.56
14.57 133.7 -619.21997
15.14 133.67 -619.09003
15.7 133.63 -618.91998
16.26 133.56 -618.59003
16.82 133.48 -618.22998
17.85 132.74001 -614.82001
18.389999 132.53 -613.90002
18.93 132.38 -613.20001
19.48 132.28 -612.75
20.030001 132.21001 -612.42999
20.58 132.13 -612.03998
21.129999 132.07001 -611.79999
21.690001 132.05 -611.67999
22.24 132.00999 -611.51001
22.799999 132 -611.46002
23.360001 131.98 -611.37
23.92 132.00999 -611.51001
24.49 132.00999 -611.51001
25.049999 132.03 -611.59998
25.620001 132.06 -611.72998
26.18 132.08 -611.83002
26.76 132.14 -612.10999
27.33 132.22 -612.48999
27.91 132.3 -612.82001
28.49 132.39 -613.21997
29.09 132.55 -613.96997
29.68 132.67999 -614.56
-149.27 136.44 -634.54999
-148.81 136.55 -635.06
-148.31 136.63 -635.41998
-147.77 136.66 -635.57001
-147.22 136.7 -635.73999
-146.69 136.75 -635.96997
-146.17999 136.81 -636.26001
-145.66 136.88 -636.53003
-145.11 136.91 -636.69
-144.57001 136.95 -636.87
-144.03999 137 -637.09003
-143.46001 137.00999 -637.12
-142.89999 137.03 -637.22998
-142.33 137.05 -637.29999
-141.74001 137.03999 -637.26001
-141.17999 137.06 -637.37
-140.67999 137.14999 -637.73999
-140.10001 137.14999 -637.75
-139.52 137.16 -637.79999
-138.95 137.17 -637.84998
-138.38 137.19 -637.92999
-137.86 137.25 -638.21997
-137.33 137.31 -638.47998
-136.78999 137.36 -638.70001
-136.25999 137.41 -638.94
-135.75999 137.5 -639.34003
-135.24001 137.56 -639.63
-134.72 137.63 -639.94
-134.22 137.72 -640.34998
-133.67999 137.78 -640.59998
-133.19 137.88 -641.07001
-132.72 138 -641.59003
-132.17 138.03999 -641.82001
-131.64999 138.11 -642.12
-131.19 138.25 -642.73999
-130.7 138.35001 -643.22998
-130.21001 138.46001 -643.70001
-129.69 138.53999 -644.08002
-129.24001 138.69 -644.75
-128.81 138.86 -645.53998
-128.31 138.97 -646.02002
-127.87 139.13 -646.77002
-111.33 131.50999 -611.82001
-110.74 131.49001 -611.69
-110.18 131.48 -611.65002
-109.58 131.42999 -611.45001
-109.06 131.48 -611.65997
-108.46 131.44 -611.47998
-107.91 131.45 -611.53998
-107.38 131.49001 -611.71997
-106.82 131.49001 -611.71997
-106.24 131.47 -611.59998
-105.66 131.45 -611.5
-105.07 131.41 -611.33002
-104.51 131.39999 -611.29999
-103.94 131.39999 -611.28003
-103.36 131.38 -611.17999
-102.78 131.35001 -611.06
-102.2 131.32001 -610.92999
-101.62 131.28999 -610.78998
-101.04 131.28 -610.71997
-100.43 131.2 -610.37
-99.82 131.14 -610.08002
-99.209999 131.07001 -609.78003
-98.559998 130.95 -609.21997
-97.970001 130.92 -609.07001
-97.360001 130.85001 -608.76001
-96.800003 130.84 -608.70001
-96.209999 130.8 -608.53998
-95.660004 130.8 -608.53998
-95.110001 130.82001 -608.63
-94.559998 130.83 -608.64001
-93.989998 130.82001 -608.62
-93.419998 130.8 -608.52002
-92.769997 130.67 -607.91998
-92.080002 130.49001 -607.07001
-91.480003 130.42 -606.78003
-90.879997 130.37 -606.53003
-90.260002 130.27 -606.08002
-89.660004 130.2 -605.76001
-89.050003 130.12 -605.40997
-88.459999 130.07001 -605.15997
-87.870003 130.03 -604.96002
-87.290001 129.98 -604.76001
-86.709999 129.94 -604.58002
-86.129997 129.92 -604.46002
-85.550003 129.87 -604.27002
-84.989998 129.86 -604.17999
-84.419998 129.83 -604.09003
-83.860001 129.83 -604.09003
-83.309998 129.83 -604.06
-82.75 129.82001 -604.01001
-82.199997 129.84 -604.09003
-81.650002 129.84 -604.10999
-81.110001 129.87 -604.22998
-80.580002 129.89999 -604.39001
-80.07 129.98 -604.72998
-79.529999 129.99001 -604.79999
-78.980003 130.00999 -604.87
-78.419998 130 -604.83002
-77.849998 129.97 -604.70001
-77.279999 129.94 -604.58002
-76.720001 129.92999 -604.53998
-76.160004 129.92 -604.46997
-75.599998 129.92 -604.46002
-75.029999 129.89 -604.35999
-74.5 129.94 -604.54999
-73.959999 129.95 -604.63
-73.43 130 -604.84003
-72.889999 130.03 -604.96997
-72.309998 129.98 -604.77002
-71.75 129.97 -604.69
-71.18 129.95 -604.62
-70.629997 129.96001 -604.65002
-70.089996 129.98 -604.76001
-69.529999 129.97 -604.71002
-68.989998 130 -604.84998
-68.449997 130.02 -604.94
-67.910004 130.03999 -605.04999
-67.349998 130.05 -605.08002
-66.82 130.09 -605.23999
-66.290001 130.14 -605.46997
-65.739998 130.16 -605.56
-65.199997 130.19 -605.71997
-64.669998 130.24001 -605.95001
-64.129997 130.27 -606.06
-63.59 130.3 -606.23999
-63.060001 130.35001 -606.44
-62.509998 130.38 -606.57001
-61.970001 130.39 -606.65002
-61.43 130.44 -606.88
-60.900002 130.49001 -607.09003
-60.360001 130.53999 -607.31
-59.830002 130.60001 -607.58002
-59.299999 130.64 -607.78003
-58.759998 130.67999 -607.97998
-58.23 130.75 -608.28998
-57.689999 130.8 -608.48999
-57.16 130.85001 -608.75
-56.619999 130.91 -609.01001
-56.099998 130.98 -609.33002
-55.580002 131.07001 -609.76001
-55.040001 131.12 -609.97998
-54.5 131.16 -610.17999
-53.959999 131.22 -610.45001
-53.419998 131.27 -610.66998
-52.889999 131.36 -611.06
-52.369999 131.44 -611.46002
-51.830002 131.5 -611.73999
-51.279999 131.53999 -611.90002
-50.75 131.62 -612.28003
-50.220001 131.7 -612.65002
-49.700001 131.8 -613.09003
-49.169998 131.89 -613.52002
-48.630001 131.94 -613.76001
-48.080002 132 -614.02002
-47.540001 132.06 -614.32001
-47 132.12 -614.58002
-46.470001 132.23 -615.08002
-45.919998 132.25 -615.17999
-45.360001 132.28 -615.28998
-44.799999 132.28999 -615.34003
-44.240002 132.3 -615.41998
-43.68 132.32001 -615.5
-43.130001 132.35001 -615.60999
-42.57 132.39 -615.81
-42.02 132.44 -616.03003
-41.470001 132.48 -616.23999
-40.93 132.56 -616.59003
-40.389999 132.63 -616.90002
-39.84 132.7 -617.25
-39.290001 132.74001 -617.42999
-38.75 132.83 -617.82001
-38.200001 132.88 -618.08002
-37.639999 132.91 -618.17999
-37.07 132.91 -618.21997
-36.490002 132.88 -618.04999
-35.93 132.88 -618.04999
-35.360001 132.89 -618.09998
-34.799999 132.91 -618.20001
-34.25 132.96001 -618.41998
-33.689999 133.00999 -618.65997
-33.130001 133.03999 -618.79999
-32.560001 133.03999 -618.79999
-32.009998 133.10001 -619.07001
-31.459999 133.17999 -619.42999
-30.92 133.28999 -619.96002
8.3000002 132.85001 -617.92999
8.8699999 132.82001 -617.78998
9.4300003 132.78999 -617.67999
10 132.82001 -617.79999
10.58 132.89 -618.13
11.15 133.00999 -618.65997
11.73 133.13 -619.20001
12.31 133.22 -619.64001
12.88 133.22 -619.63
13.44 133.17999 -619.46997
14 133.12 -619.17999
14.56 133.06 -618.88
15.13 133.02 -618.71997
15.69 132.96001 -618.45001
16.24 132.88 -618.06
16.790001 132.72 -617.34003
17.309999 132.31 -615.46002
17.83 132.05 -614.27002
18.379999 131.89 -613.53998
18.92 131.74001 -612.84003
19.469999 131.64999 -612.44
20.02 131.57001 -612.07001
20.57 131.52 -611.85999
21.120001 131.47 -611.58002
21.68 131.42 -611.39001
22.23 131.39 -611.25
22.790001 131.38 -611.16998
23.35 131.37 -611.15002
23.91 131.36 -611.10999
24.469999 131.38 -611.20001
25.040001 131.39999 -611.28003
25.610001 131.46001 -611.54999
26.18 131.49001 -611.71002
26.75 131.53999 -611.92999
27.32 131.59 -612.15997
27.9 131.67 -612.51001
28.48 131.77 -612.96002
29.059999 131.86 -613.40002
29.639999 131.94 -613.76001
30.25 132.13 -614.59998
30.84 132.23 -615.08002
-149.27 135.85001 -634.53998
-148.8 135.96001 -635.03998
-148.31 136.05 -635.42999
-147.78 136.10001 -635.64001
-147.27 136.16 -635.91998
-146.71001 136.17999 -636.02002
-146.17999 136.23 -636.27002
-145.64 136.27 -636.44
-145.07001 136.28999 -636.51001
-144.49001 136.28999 -636.51001
-143.89999 136.28999 -636.51001
-143.33 136.3 -636.53998
-142.74001 136.28999 -636.51001
-142.17 136.3 -636.56
-141.64 136.36 -636.82001
-141.07001 136.38 -636.89001
-140.49001 136.38 -636.90997
-139.96001 136.42999 -637.14001
-139.37 136.42999 -637.12
-138.83 136.47 -637.31
-138.28999 136.50999 -637.5
-137.74001 136.55 -637.67999
-137.25 136.64 -638.10999
-136.7 136.67999 -638.28003
-136.22 136.78999 -638.75
-135.7 136.85001 -639.03998
-135.17 136.89999 -639.28998
-134.64 136.97 -639.58002
-134.14 137.06 -639.98999
-133.61 137.11 -640.22998
-133.08 137.17999 -640.53003
-132.60001 137.28 -641.02002
-132.10001 137.38 -641.46002
-131.59 137.47 -641.85999
-131.08 137.53999 -642.20001
-130.59 137.64 -642.66998
-130.09 137.74001 -643.13
-129.62 137.87 -643.72998
-129.11 137.96001 -644.12
-128.62 138.06 -644.59003
-128.14999 138.2 -645.22998
-127.66 138.31 -645.70001
-127.29 138.56 -646.84998
-111.21 130.81 -611.17999
-110.57 130.72 -610.73999
-109.99 130.69 -610.62
-109.44 130.71001 -610.67999
-108.89 130.72 -610.75
-108.34 130.73 -610.79999
-107.79 130.75 -610.85999
-107.24 130.75 -610.90002
-106.67 130.74001 -610.84998
-106.11 130.75 -610.89001
-105.54 130.73 -610.78998
-104.96 130.71001 -610.70001
-104.4 130.71001 -610.69
-103.82 130.69 -610.58002
-103.27 130.7 -610.65002
-102.7 130.67999 -610.54999
-102.12 130.67 -610.47998
-101.54 130.63 -610.33002
-100.94 130.58 -610.09998
-100.3 130.48 -609.64001
-99.669998 130.39 -609.21002
-99.059998 130.33 -608.90997
-98.480003 130.28 -608.71997
-97.879997 130.24001 -608.51001
-97.290001 130.19 -608.28998
-96.699997 130.14999 -608.09003
-96.129997 130.13 -608.02002
-95.559998 130.11 -607.90997
-95 130.11 -607.92999
-94.459999 130.14 -608.03998
-93.910004 130.14999 -608.08002
-93.32 130.10001 -607.84998
-92.669998 129.97 -607.28003
-92.050003 129.89 -606.89001
-91.410004 129.77 -606.32001
-90.769997 129.64 -605.75
-90.160004 129.58 -605.45001
-89.589996 129.53999 -605.28998
-88.989998 129.48 -604.98999
-88.400002 129.42999 -604.79999
-87.809998 129.37 -604.52002
-87.220001 129.33 -604.31
-86.639999 129.28999 -604.10999
-86.059998 129.25 -603.96002
-85.489998 129.22 -603.82001
-84.910004 129.19 -603.67999
-84.349998 129.17999 -603.62
-83.800003 129.17999 -603.59998
-83.239998 129.17 -603.58002
-82.669998 129.14999 -603.46997
-82.129997 129.17 -603.59998
-81.580002 129.17999 -603.62
-81.050003 129.2 -603.72998
-80.519997 129.25 -603.94
-80 129.3 -604.17999
-79.480003 129.36 -604.42999
-78.919998 129.36 -604.42999
-78.360001 129.34 -604.34003
-77.790001 129.31 -604.23999
-77.230003 129.31 -604.21002
-76.650002 129.25999 -604.01001
-76.080002 129.24001 -603.90002
-75.519997 129.22 -603.82001
-74.959999 129.22 -603.78998
-74.419998 129.23 -603.87
-73.900002 129.28999 -604.15002
-73.370003 129.33 -604.33002
-72.82 129.35001 -604.39001
-72.260002 129.33 -604.33002
-71.68 129.28999 -604.13
-71.110001 129.25999 -603.96997
-70.540001 129.23 -603.84998
-69.980003 129.22 -603.78998
-69.440002 129.24001 -603.90002
-68.900002 129.27 -604.04999
-68.370003 129.32001 -604.26001
-67.830002 129.35001 -604.40997
-67.290001 129.38 -604.53998
-66.769997 129.44 -604.83002
-66.239998 129.49001 -605.03998
-65.690002 129.49001 -605.06
-65.139999 129.52 -605.17999
-64.610001 129.56 -605.37
-64.059998 129.57001 -605.40002
-63.529999 129.62 -605.63
-62.98 129.64 -605.75
-62.459999 129.71001 -606.04999
-61.919998 129.74001 -606.19
-61.389999 129.78999 -606.45001
-60.849998 129.82001 -606.58002
-60.32 129.88 -606.85999
-59.77 129.89999 -606.95001
-59.240002 129.97 -607.25
-58.700001 130 -607.40997
-58.169998 130.07001 -607.71997
-57.650002 130.14 -608.04999
-57.119999 130.21001 -608.34998
-56.580002 130.25 -608.58002
-56.049999 130.31 -608.81
-55.52 130.38 -609.14001
-54.98 130.42999 -609.39001
-54.439999 130.47 -609.54999
-53.919998 130.56 -609.97998
-53.380001 130.61 -610.21002
-52.849998 130.67999 -610.53003
-52.32 130.75 -610.87
-51.790001 130.83 -611.21997
-51.259998 130.91 -611.59998
-50.720001 130.98 -611.90997
-50.18 131.03999 -612.16998
-49.639999 131.09 -612.41998
-49.099998 131.14999 -612.69
-48.580002 131.25999 -613.21002
-48.040001 131.33 -613.53998
-47.5 131.39 -613.82001
-46.959999 131.44 -614.02002
-46.419998 131.5 -614.33002
-45.869999 131.55 -614.56
-45.32 131.61 -614.79999
-44.77 131.63 -614.90997
-44.209999 131.64 -614.97998
-43.650002 131.67 -615.08002
-43.099998 131.69 -615.17999
-42.549999 131.74001 -615.41998
-41.990002 131.77 -615.58002
-41.439999 131.81 -615.73999
-40.889999 131.87 -616
-40.349998 131.92 -616.27002
-39.810001 132.03999 -616.78998
-39.27 132.11 -617.10999
-38.720001 132.17999 -617.46002
-38.169998 132.22 -617.65002
-37.610001 132.24001 -617.72998
-37.049999 132.27 -617.84998
-36.48 132.24001 -617.75
-35.900002 132.23 -617.66998
-35.330002 132.21001 -617.59003
-34.77 132.23 -617.65997
-34.209999 132.25999 -617.82001
-33.650002 132.27 -617.85999
-33.099998 132.33 -618.15002
-32.529999 132.35001 -618.23999
-31.99 132.44 -618.65002
-31.43 132.5 -618.90997
-30.879999 132.55 -619.16998
-30.34 132.67 -619.72998
7.1700001 132.27 -617.88
7.73 132.16 -617.34998
8.29 132.11 -617.13
8.8599997 132.07001 -616.96997
9.4200001 132.08 -617.02002
9.9899998 132.08 -617
10.56 132.14 -617.28998
11.14 132.24001 -617.73999
11.72 132.41 -618.53003
12.29 132.5 -618.94
12.87 132.56 -619.21002
13.43 132.52 -619.03003
13.99 132.45 -618.71997
14.55 132.37 -618.35999
15.11 132.31 -618.04999
15.67 132.23 -617.67999
16.23 132.14999 -617.32001
16.77 131.97 -616.48999
17.299999 131.69 -615.21002
17.82 131.41 -613.90997
18.370001 131.25999 -613.21997
18.91 131.13 -612.59998
19.459999 131.03 -612.15997
20.01 130.95 -611.81
20.559999 130.89 -611.53003
21.110001 130.83 -611.25
21.67 130.8 -611.09998
22.219999 130.78999 -611.06
22.780001 130.75 -610.89001
23.34 130.75 -610.89001
23.9 130.77 -610.95001
24.459999 130.78 -611
25.030001 130.81 -611.15997
25.6 130.84 -611.28003
26.17 130.89 -611.53003
26.74 130.92999 -611.71002
27.309999 130.99001 -612
27.889999 131.05 -612.26001
28.469999 131.14 -612.65002
29.049999 131.22 -613.03998
29.639999 131.34 -613.57001
30.219999 131.45 -614.09003
30.82 131.58 -614.67999
31.42 131.75 -615.47998
-148.74001 135.32001 -634.76001
-148.32001 135.47 -635.42999
-147.78 135.50999 -635.62
-147.24001 135.55 -635.81
-146.67 135.56 -635.84998
-146.11 135.58 -635.95001
-145.52 135.58 -635.94
-144.94 135.58 -635.95001
-144.35001 135.58 -635.91998
-143.78 135.59 -635.95001
-143.28 135.67 -636.33002
-142.67999 135.64999 -636.26001
-142.08 135.64 -636.19
-141.52 135.66 -636.26001
-140.94 135.66 -636.28998
-140.39 135.7 -636.46002
-139.85001 135.74001 -636.63
-139.32001 135.78999 -636.89001
-138.78 135.83 -637.07001
-138.23 135.87 -637.23999
-137.71001 135.94 -637.53003
-137.17 135.98 -637.75
-136.64999 136.05 -638.03998
-136.14999 136.13 -638.40997
-135.62 136.19 -638.69
-135.09 136.24001 -638.94
-134.56 136.3 -639.21002
-134.05 136.38 -639.57001
-133.53 136.44 -639.85999
-133.03 136.53 -640.28003
-132.5 136.59 -640.53998
-132 136.69 -640.96997
-131.48 136.75999 -641.31
-131 136.87 -641.82001
-130.5 136.96001 -642.22998
-129.97 137.03 -642.57001
-129.44 137.09 -642.83002
-129.02 137.27 -643.66998
-128.5 137.35001 -644.02002
-128.02 137.46001 -644.54999
-127.52 137.56 -645
-127.1 137.75 -645.87
-126.63 137.89 -646.51001
-126.17 138.03 -647.19
-125.68 138.14999 -647.71002
-111.69 130.14999 -610.71997
-111.08 130.10001 -610.47998
-110.49 130.06 -610.29999
-109.91 130.05 -610.21002
-109.33 130.02 -610.09998
-108.82 130.07001 -610.34003
-108.26 130.07001 -610.34003
-107.72 130.10001 -610.46002
-107.16 130.10001 -610.47998
-106.61 130.11 -610.5
-106.02 130.07001 -610.34003
-105.46 130.07001 -610.33002
-104.88 130.06 -610.26001
-104.32 130.05 -610.23999
-103.74 130.03 -610.14001
-103.18 130.03 -610.14001
-102.61 130.00999 -610.02002
-102.01 129.96001 -609.82001
-101.42 129.92 -609.63
-100.79 129.83 -609.21997
-100.18 129.75999 -608.87
-99.580002 129.71001 -608.66998
-98.970001 129.64 -608.32001
-98.360001 129.58 -608.03998
-97.739998 129.49001 -607.63
-97.160004 129.46001 -607.48999
-96.580002 129.42999 -607.34003
-96.019997 129.42 -607.31
-95.459999 129.42 -607.29999
-94.910004 129.42999 -607.35999
-94.360001 129.44 -607.40002
-93.800003 129.44 -607.38
-93.230003 129.42999 -607.33002
-92.620003 129.35001 -606.95001
-91.970001 129.21001 -606.34003
-91.339996 129.11 -605.88
-90.720001 129.02 -605.42999
-90.110001 128.94 -605.09003
-89.519997 128.89 -604.84998
-88.919998 128.83 -604.54999
-88.330002 128.77 -604.31
-87.75 128.74001 -604.14001
-87.160004 128.67999 -603.85999
-86.559998 128.62 -603.60999
-86 128.61 -603.53998
-85.419998 128.56 -603.33002
-84.870003 128.57001 -603.34998
-84.300003 128.53999 -603.22998
-83.739998 128.53999 -603.21002
-83.18 128.53 -603.17999
-82.629997 128.53 -603.19
-82.080002 128.53999 -603.21002
-81.540001 128.55 -603.28003
-81.010002 128.59 -603.46002
-80.470001 128.61 -603.56
-79.949997 128.67 -603.83002
-79.419998 128.7 -603.96997
-78.879997 128.74001 -604.13
-78.330002 128.74001 -604.14001
-77.75 128.7 -603.94
-77.169998 128.64999 -603.75
-76.599998 128.63 -603.62
-76.029999 128.60001 -603.52002
-75.449997 128.56 -603.29999
-74.900002 128.56 -603.33002
-74.370003 128.59 -603.46002
-73.82 128.61 -603.54999
-73.290001 128.64999 -603.73999
-72.739998 128.64999 -603.71002
-72.18 128.64999 -603.71002
-71.610001 128.61 -603.53003
-70.970001 128.46001 -602.84998
-67.709999 128.57001 -603.34998
-67.220001 128.67999 -603.85999
-66.690002 128.73 -604.09998
-66.160004 128.78 -604.31
-65.629997 128.83 -604.53998
-65.099998 128.88 -604.78998
-64.559998 128.89999 -604.90997
-64.010002 128.92 -604.96997
-63.48 128.97 -605.21002
-62.939999 128.99001 -605.32001
-62.400002 129.03 -605.5
-61.869999 129.07001 -605.69
-61.330002 129.11 -605.85999
-60.799999 129.17 -606.15002
-60.27 129.23 -606.40997
-59.73 129.27 -606.59003
-59.200001 129.31 -606.78998
-58.66 129.35001 -606.96002
-58.130001 129.39999 -607.21002
-57.59 129.46001 -607.47998
-57.060001 129.52 -607.78003
-56.529999 129.58 -608.02002
-56.009998 129.64999 -608.38
-55.470001 129.71001 -608.64001
-54.939999 129.75999 -608.88
-54.400002 129.81 -609.10999
-53.869999 129.88 -609.42999
-53.34 129.95 -609.77002
-52.810001 130.02 -610.07001
-52.279999 130.10001 -610.41998
-51.73 130.14 -610.63
-51.200001 130.2 -610.89001
-50.66 130.27 -611.22998
-50.139999 130.36 -611.64001
-49.599998 130.42999 -611.96997
-49.07 130.5 -612.32001
-48.540001 130.58 -612.67999
-48 130.64999 -613.01001
-47.459999 130.72 -613.31
-46.93 130.8 -613.65997
-46.389999 130.86 -613.96002
-45.84 130.89 -614.12
-45.290001 130.95 -614.40002
-44.740002 130.98 -614.53003
-44.18 131 -614.63
-43.619999 130.99001 -614.57001
-43.07 131.03999 -614.78998
-42.509998 131.06 -614.90002
-41.959999 131.11 -615.14001
-41.41 131.16 -615.35999
-40.860001 131.2 -615.53003
-40.310001 131.25999 -615.81
-39.77 131.31 -616.06
-39.23 131.39999 -616.47998
-38.689999 131.5 -616.92999
-38.150002 131.59 -617.33002
-37.59 131.62 -617.46997
-37.029999 131.64999 -617.59998
-36.459999 131.61 -617.41998
-35.880001 131.58 -617.28998
-35.310001 131.56 -617.21002
-34.75 131.58 -617.32001
-34.189999 131.59 -617.34003
-33.630001 131.63 -617.53003
-33.07 131.64 -617.59003
-32.509998 131.7 -617.84003
-31.950001 131.73 -618.01001
-31.4 131.78 -618.20001
-30.85 131.86 -618.59003
-30.299999 131.95 -618.98999
-29.75 132.03 -619.40002
-29.23 132.22 -620.23999
6.5999999 131.63 -617.53998
7.1599998 131.56 -617.19
7.7199998 131.45 -616.71997
8.2799997 131.39 -616.41998
8.8500004 131.39 -616.42999
9.4099998 131.36 -616.28003
9.9799995 131.39999 -616.46997
10.55 131.46001 -616.77002
11.12 131.53999 -617.14001
11.7 131.66 -617.69
12.28 131.82001 -618.39001
12.85 131.83 -618.45001
13.42 131.8 -618.34998
13.97 131.69 -617.81
14.53 131.60001 -617.41998
15.09 131.56 -617.21997
15.64 131.45 -616.69
16.200001 131.37 -616.34998
16.74 131.14 -615.27002
17.280001 130.99001 -614.59003
17.82 130.82001 -613.79999
18.360001 130.67 -613.10999
18.91 130.56 -612.59003
19.459999 130.47 -612.15997
20 130.36 -611.66998
20.559999 130.31 -611.41998
21.110001 130.24001 -611.12
21.66 130.21001 -610.95001
22.219999 130.19 -610.85999
22.780001 130.17 -610.79999
23.33 130.17 -610.76001
23.889999 130.16 -610.76001
24.459999 130.17 -610.78998
25.02 130.2 -610.94
25.59 130.25 -611.15002
26.16 130.28 -611.31
26.73 130.35001 -611.59998
27.299999 130.39999 -611.84003
27.879999 130.47 -612.17999
28.459999 130.53 -612.45001
29.040001 130.61 -612.81
29.620001 130.7 -613.22998
30.209999 130.82001 -613.77002
30.799999 130.92999 -614.29999
31.389999 131.06 -614.90997
31.99 131.17999 -615.45001
-164.3 125.7 -593.03003
-163.75999 125.7 -593
-163.22 125.71 -593.03003
-162.67999 125.71 -593.03003
-162.14999 125.72 -593.07001
-161.66 125.76 -593.27002
-161.28999 125.89 -593.88
-160.86 125.99 -594.31
-148.24001 134.81 -635.09998
-147.75 134.89999 -635.47998
-147.17 134.89999 -635.48999
-146.58 134.89 -635.46002
-145.98 134.88 -635.41998
-145.33 134.82001 -635.10999
-144.85001 134.92 -635.57001
-144.22 134.87 -635.34998
-143.67999 134.91 -635.53003
-143.09 134.91 -635.5
-142.53 134.92999 -635.60999
-141.98 134.96001 -635.73999
-141.42999 134.99001 -635.85999
-140.86 135 -635.92999
-140.34 135.06 -636.21997
-139.77 135.08 -636.28998
-139.24001 135.13 -636.53998
-138.71001 135.17999 -636.76001
-138.17999 135.24001 -637.02002
-137.66 135.3 -637.28998
-137.12 135.34 -637.48999
-136.58 135.39 -637.71002
-136.06 135.45 -638
-135.53 135.50999 -638.23999
-135.00999 135.58 -638.56
-134.49001 135.64 -638.87
-134 135.74001 -639.34003
-133.47 135.8 -639.58002
-132.94 135.85001 -639.83002
-132.42 135.92 -640.15002
-131.92999 136.02 -640.62
-131.38 136.06 -640.79999
-130.88 136.16 -641.26001
-130.38 136.24001 -641.65002
-129.89 136.36 -642.16998
-129.37 136.42 -642.46997
-128.82001 136.47 -642.67999
-128.37 136.62 -643.37
-127.89 136.73 -643.90997
-127.41 136.86 -644.47998
-126.94 136.98 -645.06
-126.45 137.10001 -645.60999
-125.98 137.23 -646.19
-125.55 137.41 -647.03998
-125.06 137.52 -647.54999
-111.54 129.42 -609.92999
-110.91 129.34 -609.56
-110.33 129.31 -609.40997
-109.76 129.3 -609.37
-109.22 129.33 -609.48999
-108.67 129.33 -609.51001
-108.12 129.34 -609.54999
-107.57 129.35001 -609.59998
-107.01 129.35001 -609.59998
-106.45 129.36 -609.64001
-105.89 129.36 -609.62
-105.33 129.35001 -609.59003
-104.77 129.35001 -609.58002
-104.2 129.35001 -609.54999
-103.63 129.33 -609.46997
-103.07 129.33 -609.46002
-102.5 129.32001 -609.40997
-101.93 129.3 -609.33002
-101.33 129.25 -609.09003
-100.7 129.16 -608.69
-100.08 129.07001 -608.28998
-99.43 128.96001 -607.77002
-98.849998 128.92999 -607.63
-98.25 128.87 -607.34998
-97.669998 128.85001 -607.22998
-97.089996 128.81 -607.04999
-96.519997 128.78999 -606.96997
-95.93 128.75 -606.78003
-95.360001 128.73 -606.69
-94.830002 128.75999 -606.84003
-94.279999 128.77 -606.88
-93.730003 128.78999 -606.95001
-93.150002 128.75999 -606.81
-92.519997 128.64999 -606.32001
-91.879997 128.53 -605.76001
-91.260002 128.45 -605.37
-90.650002 128.37 -605
-90.029999 128.28 -604.59003
-89.440002 128.22 -604.33002
-88.849998 128.17 -604.08002
-88.25 128.11 -603.78998
-87.68 128.08 -603.64001
-87.089996 128.03 -603.40997
-86.510002 127.98 -603.21002
-85.940002 127.97 -603.15002
-85.370003 127.94 -603
-84.800003 127.92 -602.89001
-84.220001 127.88 -602.71997
-83.669998 127.88 -602.71002
-83.120003 127.88 -602.71002
-82.559998 127.87 -602.69
-82.019997 127.89 -602.76001
-81.470001 127.89 -602.78998
-80.93 127.92 -602.89001
-80.410004 127.97 -603.15997
-79.900002 128.03 -603.44
-79.370003 128.07001 -603.59998
-78.830002 128.09 -603.71997
-78.260002 128.07001 -603.62
-77.690002 128.03999 -603.45001
-77.110001 128 -603.28998
-76.519997 127.94 -602.98999
-75.910004 127.84 -602.56
-75.339996 127.81 -602.40997
-74.790001 127.81 -602.39001
-66.610001 128.03 -603.41998
-66.110001 128.12 -603.85999
-65.57 128.14999 -603.98999
-65.029999 128.17999 -604.14001
-64.489998 128.21001 -604.25
-63.939999 128.23 -604.34003
-63.400002 128.24001 -604.40002
-62.869999 128.3 -604.66998
-62.349998 128.37 -605.01001
-61.82 128.42 -605.21997
-61.279999 128.46001 -605.41998
-60.75 128.5 -605.59998
-60.209999 128.53999 -605.78998
-59.68 128.60001 -606.06
-59.150002 128.64999 -606.31
-58.610001 128.69 -606.51001
-58.080002 128.75 -606.78003
-57.549999 128.81 -607.06
-57.02 128.86 -607.28998
-56.48 128.91 -607.53998
-55.959999 129 -607.91998
-55.419998 129.03 -608.09003
-54.889999 129.10001 -608.38
-54.360001 129.17 -608.72998
-53.84 129.25 -609.09003
-53.290001 129.28 -609.25
-52.759998 129.35001 -609.54999
-52.220001 129.41 -609.82001
-51.700001 129.49001 -610.20001
-51.16 129.55 -610.5
-50.619999 129.60001 -610.73999
-50.09 129.67 -611.04999
-49.560001 129.75999 -611.47998
-49.029999 129.84 -611.84003
-48.5 129.91 -612.17999
-47.959999 129.97 -612.46002
-47.419998 130.03999 -612.76001
-46.880001 130.11 -613.08002
-46.349998 130.17999 -613.40997
-45.810001 130.25999 -613.78003
-45.259998 130.28999 -613.92999
-44.709999 130.32001 -614.06
-44.150002 130.33 -614.10999
-43.59 130.35001 -614.21002
-43.040001 130.39 -614.40997
-42.470001 130.39 -614.38
-41.919998 130.41 -614.51001
-41.369999 130.46001 -614.71002
-40.82 130.52 -614.97998
-40.279999 130.59 -615.31
-39.740002 130.67 -615.70001
-39.200001 130.75 -616.06
-38.669998 130.86 -616.59998
-38.119999 130.94 -616.94
-37.57 130.97 -617.09003
-37.009998 130.99001 -617.17999
-36.439999 130.99001 -617.16998
-35.869999 130.95 -617.02002
-35.290001 130.92999 -616.89001
-34.73 130.94 -616.96002
-34.169998 130.96001 -617.06
-33.610001 130.98 -617.13
-33.049999 131.00999 -617.28998
-32.490002 131.02 -617.34003
-31.93 131.06 -617.52002
-31.370001 131.10001 -617.71002
-30.82 131.14999 -617.91998
-30.26 131.19 -618.13
-29.719999 131.33 -618.76001
-29.18 131.42999 -619.22998
-28.629999 131.52 -619.63
4.3499999 131.46001 -619.39001
4.9099998 131.45 -619.34003
5.48 131.32001 -618.72998
6.0300002 131.12 -617.79999
6.5900002 130.97 -617.12
7.1500001 130.87 -616.62
7.71 130.77 -616.16998
8.2799997 130.74001 -616.03003
8.8400002 130.71001 -615.89001
9.4099998 130.7 -615.87
9.9700003 130.73 -615.97998
10.54 130.75 -616.08002
11.12 130.87 -616.65997
11.69 130.99001 -617.17999
12.26 131.03999 -617.42999
16.709999 130.41 -614.51001
17.27 130.32001 -614.08002
17.809999 130.17999 -613.44
18.360001 130.09 -613.02002
18.91 129.98 -612.48999
19.450001 129.87 -611.97998
20 129.77 -611.54999
20.549999 129.71001 -611.26001
21.1 129.67 -611.04999
21.66 129.63 -610.89001
22.209999 129.60001 -610.76001
22.77 129.58 -610.65997
23.33 129.58 -610.64001
23.889999 129.58 -610.63
24.450001 129.58 -610.64001
25.01 129.60001 -610.76001
25.58 129.64999 -610.97998
26.16 129.71001 -611.25
26.73 129.75999 -611.5
27.299999 129.82001 -611.73999
27.870001 129.88 -612.02002
28.450001 129.95 -612.34998
29.030001 130.02 -612.67999
29.610001 130.11 -613.08002
30.190001 130.19 -613.47998
30.780001 130.27 -613.85999
31.370001 130.39999 -614.45001
31.959999 130.5 -614.92999
32.57 130.67999 -615.77002
81.900002 133.75 -629.97998
82.379997 133.58 -629.21002
82.839996 133.39999 -628.35999
83.339996 133.28 -627.78998
83.860001 133.17999 -627.34998
84.379997 133.10001 -626.96997
84.870003 132.96001 -626.31
-166.05 124.84 -591.57001
-165.52 124.84 -591.57001
-165.03999 124.89 -591.78003
-164.50999 124.9 -591.84003
-163.97 124.9 -591.84003
-163.47 124.94 -591.97998
-162.98 124.97 -592.15002
-162.48 125.01 -592.33002
-161.98 125.04 -592.44
-161.48 125.08 -592.60999
-161.06 125.17 -593.04999
-160.59 125.23 -593.28998
-148.14999 134.14999 -634.71997
-147.64 134.22 -635.03003
-147.00999 134.17 -634.82001
-146.49001 134.23 -635.08002
-145.92 134.25 -635.15997
-145.33 134.24001 -635.12
-144.75 134.24001 -635.09998
-144.14 134.22 -635.01001
-143.58 134.23 -635.08002
-143.03999 134.27 -635.25
-142.45 134.27 -635.23999
-141.91 134.31 -635.44
-141.37 134.35001 -635.59998
-140.81 134.37 -635.71002
-140.28 134.42 -635.92999
-139.75 134.47 -636.15997
-139.2 134.50999 -636.33002
-138.66 134.55 -636.53003
-138.14 134.61 -636.81
-137.61 134.67 -637.06
-137.09 134.73 -637.34003
-136.55 134.78 -637.57001
-136.02 134.83 -637.84003
-135.5 134.89 -638.10999
-134.96001 134.94 -638.32001
-134.42999 134.99001 -638.56
-133.92999 135.08 -638.96997
-133.41 135.14999 -639.31
-132.86 135.19 -639.46002
-132.32001 135.23 -639.69
-131.83 135.33 -640.13
-131.28999 135.38 -640.38
-130.78999 135.48 -640.83002
-130.27 135.55 -641.15002
-129.78 135.64999 -641.63
-129.25999 135.72 -641.92999
-128.78999 135.85001 -642.53003
-128.25 135.89999 -642.76001
-127.75 136 -643.22998
-127.29 136.14 -643.87
-126.81 136.25999 -644.44
-126.3 136.35001 -644.85999
-125.82 136.46001 -645.38
-125.38 136.63 -646.15002
-124.92 136.78 -646.84998
-124.47 136.94 -647.59998
-112.02 128.78 -609.53003
-111.39 128.69 -609.13
-110.81 128.66 -608.98999
-110.24 128.64999 -608.92999
-109.67 128.64999 -608.90997
-109.11 128.64 -608.89001
-108.57 128.66 -608.96002
-108.06 128.72 -609.26001
-107.5 128.72 -609.25
-106.95 128.73 -609.29999
-106.38 128.72 -609.22998
-105.82 128.71001 -609.20001
-105.25 128.7 -609.14001
-104.69 128.7 -609.15002
-104.13 128.69 -609.12
-103.57 128.69 -609.10999
-103.01 128.7 -609.13
-102.42 128.64999 -608.90997
-101.83 128.62 -608.76001
-101.22 128.55 -608.45001
-100.59 128.45 -607.98999
-99.989998 128.41 -607.78003
-99.379997 128.33 -607.44
-98.779999 128.28 -607.15997
-98.150002 128.19 -606.76001
-97.57 128.14999 -606.59003
-96.980003 128.11 -606.40997
-96.389999 128.07001 -606.17999
-95.82 128.05 -606.10999
-95.269997 128.06 -606.14001
-94.75 128.10001 -606.33002
-94.190002 128.10001 -606.33002
-93.639999 128.11 -606.37
-93.07 128.09 -606.28998
-92.470001 128.03 -606
-91.849998 127.94 -605.58002
-91.190002 127.79 -604.89001
-90.580002 127.71 -604.53003
-89.980003 127.65 -604.21997
-89.389999 127.59 -603.96002
-88.790001 127.53 -603.69
-88.199997 127.47 -603.41998
-87.620003 127.44 -603.26001
-87.040001 127.4 -603.04999
-86.459999 127.36 -602.90002
-85.889999 127.33 -602.76001
-85.309998 127.3 -602.59003
-84.739998 127.27 -602.46997
-84.18 127.25 -602.39001
-83.610001 127.24 -602.29999
-83.059998 127.24 -602.33002
-82.5 127.22 -602.21997
-81.949997 127.23 -602.28998
-81.419998 127.26 -602.41998
-80.879997 127.28 -602.53003
-80.360001 127.33 -602.75
-79.839996 127.39 -603.02002
-79.32 127.44 -603.26001
-78.769997 127.45 -603.29999
-78.209999 127.43 -603.21997
-77.620003 127.38 -602.95001
-77.019997 127.29 -602.54999
-65.510002 127.48 -603.46002
-64.980003 127.53 -603.65997
-64.440002 127.55 -603.78003
-63.880001 127.54 -603.73999
-63.299999 127.48 -603.46002
-62.720001 127.44 -603.26001
-62.25 127.62 -604.08002
-61.73 127.69 -604.40997
-61.209999 127.75 -604.69
-60.700001 127.84 -605.09998
-60.169998 127.89 -605.37
-59.639999 127.95 -605.62
-59.099998 128 -605.84998
-58.580002 128.05 -606.12
-58.040001 128.10001 -606.35999
-57.509998 128.14999 -606.59003
-56.98 128.21001 -606.87
-56.450001 128.27 -607.12
-55.919998 128.33 -607.42999
-55.389999 128.39 -607.71002
-54.849998 128.44 -607.94
-54.310001 128.5 -608.17999
-53.790001 128.57001 -608.54999
-53.259998 128.64 -608.84998
-52.73 128.71001 -609.19
-52.189999 128.75999 -609.41998
-51.66 128.82001 -609.71997
-51.119999 128.89 -610.01001
-50.59 128.97 -610.39001
-50.060001 129.03999 -610.70001
-49.52 129.10001 -611.01001
-48.990002 129.16 -611.29999
-48.459999 129.25 -611.71997
-47.919998 129.31 -612.01001
-47.389999 129.39 -612.35999
-46.849998 129.46001 -612.69
-46.310001 129.5 -612.89001
-45.759998 129.55 -613.12
-45.23 129.64999 -613.58002
-44.669998 129.66 -613.63
-44.119999 129.69 -613.73999
-43.560001 129.7 -613.81
-43 129.72 -613.90997
-42.450001 129.74001 -614.02002
-41.889999 129.77 -614.14001
-41.349998 129.82001 -614.35999
-40.799999 129.87 -614.62
-40.25 129.92999 -614.87
-39.709999 130 -615.21002
-39.169998 130.09 -615.62
-38.639999 130.17999 -616.07001
-38.099998 130.27 -616.46002
-37.549999 130.35001 -616.84003
-37 130.38 -616.98999
-36.419998 130.36 -616.87
-35.849998 130.34 -616.78998
-35.279999 130.31 -616.67999
-34.720001 130.33 -616.75
-34.150002 130.33 -616.76001
-33.59 130.34 -616.79999
-33.029999 130.36 -616.87
-32.459999 130.37 -616.92999
-31.91 130.41 -617.15002
-31.35 130.42999 -617.23999
-30.799999 130.49001 -617.52002
-30.24 130.56 -617.81
-29.690001 130.61 -618.06
-29.139999 130.69 -618.44
-28.6 130.83 -619.08002
-28.059999 130.97 -619.71997
-27.530001 131.14 -620.53003
-26.98 131.24001 -620.98999
-26.42 131.27 -621.15997
-25.860001 131.32001 -621.37
2.0699999 130.89999 -619.41998
2.6400001 130.87 -619.31
3.21 130.82001 -619.03998
3.77 130.75999 -618.75
4.3400002 130.73 -618.64001
4.9099998 130.7 -618.48999
5.4699998 130.63 -618.15997
6.0300002 130.48 -617.47998
6.5900002 130.33 -616.75
7.1500001 130.25 -616.38
7.71 130.16 -615.95001
8.2700005 130.10001 -615.71002
8.8400002 130.07001 -615.53003
9.3999996 130.06 -615.51001
9.9700003 130.08 -615.62
10.53 130.11 -615.72998
11.1 130.16 -615.96997
11.67 130.24001 -616.33002
16.139999 129.77 -614.16998
16.700001 129.74001 -614.03003
17.25 129.64999 -613.60999
17.799999 129.58 -613.25
18.35 129.49001 -612.84003
18.9 129.39 -612.38
19.450001 129.31 -611.98999
20 129.23 -611.62
20.549999 129.14999 -611.27002
21.1 129.10001 -611.03003
21.66 129.06 -610.82001
22.209999 129.00999 -610.59998
22.77 129.00999 -610.59998
23.32 128.98 -610.46002
23.879999 128.97 -610.40002
24.440001 128.97 -610.41998
25.01 129 -610.57001
25.58 129.06 -610.85999
26.15 129.13 -611.14001
26.73 129.19 -611.41998
27.299999 129.25 -611.70001
27.870001 129.31 -612.02002
28.450001 129.38 -612.31
29.030001 129.44 -612.60999
29.610001 129.52 -612.98999
30.190001 129.59 -613.33002
30.77 129.67999 -613.72998
31.360001 129.78999 -614.26001
31.950001 129.89999 -614.75
32.540001 130.03 -615.34003
33.150002 130.17999 -616.04999
33.759998 130.36 -616.90997
80.849998 133.34 -630.78998
81.339996 133.2 -630.09998
81.779999 132.98 -629.09998
82.269997 132.84 -628.41998
82.760002 132.7 -627.77002
83.209999 132.5 -626.85999
83.720001 132.39999 -626.35999
84.239998 132.31 -625.96997
84.720001 132.16 -625.28003
85.230003 132.06 -624.78998
85.75 131.98 -624.41998
86.290001 131.92999 -624.17999
86.790001 131.82001 -623.69
87.300003 131.73 -623.25
-166.39999 124.15 -590.89001
-165.83 124.13 -590.78003
-165.3 124.14 -590.78998
-164.81 124.18 -590.97998
-164.27 124.18 -590.96002
-163.77 124.21 -591.12
-163.25999 124.23 -591.21997
-162.75 124.26 -591.32001
-162.25 124.29 -591.46997
-161.74001 124.32 -591.59003
-161.34 124.42 -592.08002
-160.89 124.49 -592.40997
-160.39999 124.53 -592.59003
-159.96001 124.62 -593
-159.53999 124.72 -593.44
-157.39 124.74 -593.51001
-147.52 133.53 -634.53003
-146.97 133.55 -634.65002
-146.37 133.53999 -634.57001
-145.78 133.53 -634.52002
-145.2 133.53 -634.53998
-144.63 133.53999 -634.58002
-144.05 133.55 -634.59998
-143.5 133.58 -634.72998
-142.95 133.61 -634.88
-142.39999 133.64 -635.01001
-141.85001 133.67 -635.16998
-141.3 133.7 -635.31
-140.75999 133.74001 -635.5
-140.21001 133.78 -635.65002
-139.72 133.86 -636.03003
-139.14999 133.88 -636.10999
-138.62 133.92 -636.32001
-138.07001 133.96001 -636.48999
-137.53 134 -636.70001
-137.00999 134.07001 -636.98999
-136.48 134.12 -637.21997
-135.97 134.2 -637.59998
-135.42999 134.23 -637.77002
-134.88 134.27 -637.94
-134.36 134.34 -638.27002
-133.82001 134.38 -638.46002
-133.31 134.46001 -638.79999
-132.78 134.52 -639.09998
-132.28 134.61 -639.51001
-131.75999 134.67 -639.81
-131.23 134.73 -640.07001
-130.71001 134.8 -640.40997
-130.19 134.87 -640.73999
-129.67999 134.96001 -641.15002
-129.14 135 -641.34003
-128.64 135.10001 -641.77002
-128.14999 135.21001 -642.29999
-127.66 135.31 -642.75
-127.11 135.36 -642.98999
-126.65 135.49001 -643.60999
-126.16 135.61 -644.15002
-125.7 135.74001 -644.79999
-125.2 135.85001 -645.27002
-124.73 135.97 -645.87
-124.2 136.03999 -646.19
-123.79 136.25 -647.14001
-111.88 128.05 -608.73999
-111.26 127.99 -608.45001
-110.66 127.93 -608.19
-110.08 127.91 -608.07001
-109.53 127.92 -608.12
-108.98 127.92 -608.14001
-108.44 127.95 -608.26001
-107.92 127.99 -608.46002
-107.36 128 -608.46997
-106.82 128.02 -608.56
-106.26 128.00999 -608.53998
-105.72 128.03999 -608.65002
-105.14 128.00999 -608.53003
-104.58 128.00999 -608.52002
-104.02 128 -608.46997
-103.47 128.00999 -608.52002
-102.9 128 -608.46997
-102.33 127.98 -608.40002
-101.72 127.91 -608.07001
-101.14 127.88 -607.94
-100.52 127.81 -607.58002
-99.900002 127.73 -607.23999
-99.269997 127.64 -606.77002
-98.669998 127.58 -606.48999
-98.080002 127.53 -606.28998
-97.5 127.5 -606.14001
-96.919998 127.47 -606.01001
-96.360001 127.46 -605.96002
-95.769997 127.42 -605.75
-95.209999 127.41 -605.71002
-94.660004 127.42 -605.78003
-94.110001 127.43 -605.81
-93.589996 127.48 -606.03003
-93.029999 127.47 -605.98999
-92.400002 127.37 -605.52002
-91.769997 127.27 -605.04999
-91.120003 127.14 -604.44
-90.519997 127.08 -604.15997
-89.900002 126.98 -603.71002
-89.309998 126.93 -603.46997
-88.720001 126.87 -603.19
-88.139999 126.84 -603.04999
-87.559998 126.79 -602.82001
-86.970001 126.75 -602.62
-86.389999 126.71 -602.40997
-85.82 126.68 -602.31
-85.260002 126.66 -602.21002
-84.699997 126.65 -602.15002
-84.129997 126.63 -602.03998
-83.559998 126.6 -601.92999
-83.010002 126.6 -601.90997
-82.449997 126.6 -601.90002
-81.900002 126.59 -601.88
-81.370003 126.63 -602.03998
-80.830002 126.65 -602.15002
-80.300003 126.68 -602.28998
-79.779999 126.74 -602.59003
-79.260002 126.79 -602.78998
-78.709999 126.8 -602.84003
-78.150002 126.78 -602.76001
-77.559998 126.72 -602.47998
-60.619999 127.13 -604.39001
-60.110001 127.21 -604.76001
-59.580002 127.27 -605.06
-59.060001 127.35 -605.40997
-58.529999 127.4 -605.67999
-58.009998 127.47 -606.01001
-57.459999 127.5 -606.12
-56.939999 127.57 -606.46997
-56.41 127.62 -606.69
-55.880001 127.69 -607.01001
-55.34 127.73 -607.22998
-54.82 127.81 -607.59998
-54.279999 127.85 -607.77002
-53.75 127.93 -608.15002
-53.220001 127.99 -608.41998
-52.689999 128.06 -608.73999
-52.150002 128.11 -608.98999
-51.619999 128.17 -609.27002
-51.09 128.25 -609.64001
-50.560001 128.31 -609.94
-50.02 128.37 -610.20001
-49.490002 128.45 -610.58002
-48.950001 128.50999 -610.89001
-48.419998 128.58 -611.21997
-47.880001 128.64999 -611.51001
-47.34 128.7 -611.75
-46.810001 128.78999 -612.15997
-46.27 128.83 -612.39001
-45.740002 128.92999 -612.84998
-45.189999 128.97 -613.01001
-44.650002 129.02 -613.28003
-44.09 129.03999 -613.37
-43.540001 129.08 -613.53003
-42.98 129.09 -613.59003
-42.43 129.11 -613.69
-41.869999 129.14 -613.84998
-41.32 129.17999 -614
-40.77 129.22 -614.20001
-40.23 129.28 -614.48999
-39.68 129.33 -614.71997
-39.130001 129.39 -614.97998
-38.599998 129.5 -615.53003
-38.07 129.61 -616.03003
-37.52 129.67999 -616.34998
-36.970001 129.74001 -616.64001
-36.41 129.75 -616.66998
-35.84 129.73 -616.57001
-35.27 129.71001 -616.52002
-34.700001 129.69 -616.40997
-34.139999 129.7 -616.47998
-33.57 129.71001 -616.48999
