# .PCD v0.7 - Point Cloud Data file format
VERSION 0.7
FIELDS x y z
SIZE 4 4 4
TYPE F F F
COUNT 1 1 1
WIDTH 1685
HEIGHT 1
VIEWPOINT 0 0 0 1 0 0 0
POINTS 1685
DATA ascii
-90.760002 -28.27 -574.69
-90.300003 -28.290001 -575.10999
-89.860001 -28.32 -575.66998
-89.410004 -28.34 -576.15002
-88.970001 -28.370001 -576.71002
-88.540001 -28.4 -577.31
-88.120003 -28.440001 -578.04999
-87.690002 -28.469999 -578.69
-87.260002 -28.5 -579.38
-86.809998 -28.530001 -579.90997
-86.389999 -28.57 -580.65002
-85.949997 -28.6 -581.26001
-85.529999 -28.629999 -581.97998
-85.089996 -28.67 -582.65997
-84.650002 -28.700001 -583.27002
-84.209999 -28.73 -583.92999
-83.790001 -28.77 -584.71002
-83.830002 -28.969999 -588.72998
-88.169998 -30.67 -622.70001
-87.620003 -30.67 -622.81
-87.059998 -30.68 -622.90997
-86.489998 -30.68 -622.94
-85.940002 -30.690001 -623.09998
-85.379997 -30.690001 -623.15002
-84.830002 -30.700001 -623.31
-84.260002 -30.700001 -623.34003
-83.699997 -30.700001 -623.46002
-83.150002 -30.709999 -623.59003
-82.580002 -30.709999 -623.57001
-82.019997 -30.719999 -623.71997
-81.470001 -30.719999 -623.88
-80.910004 -30.73 -623.98999
-80.349998 -30.73 -624.03003
-79.779999 -30.73 -624.12
-79.220001 -30.74 -624.16998
-78.660004 -30.74 -624.25
-78.080002 -30.74 -624.23999
-77.519997 -30.74 -624.32001
-76.93 -30.74 -624.19
-76.379997 -30.75 -624.37
-75.790001 -30.74 -624.26001
-75.220001 -30.74 -624.25
-74.660004 -30.75 -624.34998
-74.089996 -30.75 -624.39001
-73.32 -30.67 -622.78003
-71.800003 -30.26 -614.72998
-71 -30.16 -612.71002
-70.370003 -30.139999 -612.16998
-69.720001 -30.1 -611.37
-69.089996 -30.07 -610.78998
-68.489998 -30.049999 -610.40997
-67.889999 -30.030001 -610.09003
-67.300003 -30.02 -609.78003
-66.730003 -30.01 -609.70001
-66.139999 -30 -609.45001
-65.57 -29.99 -609.29999
-64.989998 -29.98 -609.15002
-64.419998 -29.98 -609.09003
-63.860001 -29.98 -609.01001
-63.299999 -29.98 -609.03998
-62.740002 -29.98 -608.98999
-62.18 -29.969999 -608.96997
-61.610001 -29.969999 -608.90002
-61.049999 -29.969999 -608.83002
-60.490002 -29.969999 -608.88
-59.93 -29.969999 -608.84998
-59.369999 -29.969999 -608.83002
-58.810001 -29.969999 -608.85999
-58.27 -29.969999 -608.96997
-57.709999 -29.969999 -608.98999
-57.16 -29.98 -609.08002
-56.599998 -29.98 -609.08002
-56.040001 -29.98 -609.07001
-55.490002 -29.98 -609.17999
-54.939999 -29.99 -609.22998
-54.380001 -29.99 -609.26001
-53.84 -29.99 -609.40002
-53.290001 -30 -609.53003
-52.73 -30 -609.57001
-52.189999 -30.01 -609.69
-51.639999 -30.01 -609.81
-51.09 -30.02 -609.91998
-50.529999 -30.02 -609.98999
-49.990002 -30.040001 -610.23999
-49.439999 -30.040001 -610.27002
-48.880001 -30.040001 -610.28003
-48.34 -30.049999 -610.5
-47.779999 -30.049999 -610.59003
-47.23 -30.049999 -610.62
-46.669998 -30.059999 -610.71997
-46.130001 -30.07 -610.88
-45.560001 -30.07 -610.87
-45.009998 -30.07 -610.97998
-44.459999 -30.08 -611.09003
-43.91 -30.08 -611.21997
-43.349998 -30.08 -611.22998
-42.790001 -30.09 -611.31
-42.240002 -30.09 -611.33002
-41.68 -30.09 -611.42999
-41.130001 -30.1 -611.51001
-40.57 -30.1 -611.60999
-40.02 -30.110001 -611.73999
-39.459999 -30.110001 -611.71002
-38.91 -30.110001 -611.84003
-38.349998 -30.120001 -611.92999
-37.790001 -30.120001 -611.95001
-37.240002 -30.129999 -612.15997
-36.68 -30.129999 -612.20001
-36.130001 -30.139999 -612.31
-35.57 -30.139999 -612.42999
-35.02 -30.15 -612.54999
-34.470001 -30.16 -612.76001
-33.91 -30.17 -612.89001
-33.360001 -30.17 -613
-32.799999 -30.17 -613.04999
-32.240002 -30.18 -613.15002
-31.690001 -30.190001 -613.37
-31.139999 -30.200001 -613.5
-30.58 -30.200001 -613.60999
-30.02 -30.209999 -613.76001
-29.469999 -30.219999 -613.91998
-28.91 -30.219999 -614.03998
-28.360001 -30.23 -614.20001
-27.799999 -30.24 -614.38
-27.24 -30.24 -614.48999
-26.68 -30.25 -614.57001
-26.129999 -30.26 -614.77002
-25.57 -30.27 -614.95001
-25.01 -30.280001 -615.10999
-24.459999 -30.280001 -615.25
-23.9 -30.290001 -615.46002
-23.34 -30.299999 -615.58002
-22.780001 -30.309999 -615.71997
-22.219999 -30.309999 -615.77002
-21.66 -30.309999 -615.85999
-21.1 -30.32 -616.08002
-20.52 -30.299999 -615.59998
-19.83 -30.110001 -611.89001
-19.200001 -30 -609.58002
-18.610001 -29.950001 -608.66998
-18.040001 -29.93 -608.14001
-17.469999 -29.91 -607.77002
-16.91 -29.9 -607.60999
-16.34 -29.889999 -607.42999
-15.79 -29.889999 -607.45001
-15.23 -29.889999 -607.42999
-14.68 -29.9 -607.53998
-14.12 -29.9 -607.60999
-13.57 -29.91 -607.76001
-13.02 -29.92 -608.03998
-12.46 -29.93 -608.29999
-11.91 -29.950001 -608.62
-11.36 -29.969999 -609.03003
-10.81 -29.99 -609.48999
-10.26 -30.02 -610.08002
-9.71 -30.040001 -610.5
-9.1599998 -30.07 -611.06
-8.6099997 -30.110001 -611.72998
-8.0600004 -30.15 -612.54999
-7.5100002 -30.209999 -613.72998
-6.9699998 -30.27 -615.09003
-6.4699998 -30.59 -621.34003
-5.9400001 -30.799999 -625.65002
-5.3699999 -30.83 -626.32001
-4.8000002 -30.860001 -626.90997
-4.23 -30.889999 -627.46997
-3.6600001 -30.92 -628.09998
-3.0899999 -30.950001 -628.71997
-2.51 -31 -629.57001
-1.9400001 -31.02 -630.04999
-1.36 -31.049999 -630.64001
-0.77999997 -31.07 -630.96002
-0.2 -31.08 -631.21002
0.37 -31.09 -631.39001
0.94999999 -31.09 -631.35999
1.53 -31.08 -631.28003
2.1099999 -31.07 -631.10999
2.6900001 -31.07 -631.07001
3.27 -31.07 -630.95001
3.8499999 -31.059999 -630.82001
4.4200001 -31.049999 -630.71997
5 -31.049999 -630.58002
5.5799999 -31.040001 -630.38
6.1599998 -31.040001 -630.38
6.73 -31.02 -630.13
7.3099999 -31.02 -629.98999
7.8800001 -31.01 -629.82001
8.46 -31 -629.71002
9.0299997 -31 -629.57001
9.6099997 -30.99 -629.39001
10.18 -30.98 -629.25
10.76 -30.98 -629.14001
11.33 -30.969999 -628.96002
11.91 -30.959999 -628.82001
12.48 -30.950001 -628.71997
13.05 -30.940001 -628.46997
13.63 -30.93 -628.33002
14.2 -30.93 -628.15002
14.77 -30.92 -627.96002
15.34 -30.91 -627.83002
15.91 -30.9 -627.65002
16.49 -30.889999 -627.52002
17.049999 -30.879999 -627.26001
17.629999 -30.879999 -627.15997
18.200001 -30.870001 -627.12
18.77 -30.870001 -627.03998
19.35 -30.870001 -626.95001
19.92 -30.870001 -626.98999
20.49 -30.860001 -626.79999
21.059999 -30.85 -626.65997
21.639999 -30.85 -626.65002
22.209999 -30.85 -626.58002
22.780001 -30.84 -626.46997
23.35 -30.84 -626.33002
23.92 -30.83 -626.20001
24.49 -30.83 -626.14001
25.059999 -30.82 -626.03998
25.629999 -30.82 -626.07001
26.200001 -30.809999 -625.90002
26.77 -30.809999 -625.73999
27.34 -30.799999 -625.63
27.91 -30.799999 -625.57001
28.48 -30.799999 -625.52002
29.049999 -30.799999 -625.52002
29.629999 -30.790001 -625.48999
30.200001 -30.790001 -625.46002
30.77 -30.790001 -625.46002
31.34 -30.790001 -625.42999
31.93 -30.799999 -625.59003
32.5 -30.799999 -625.52002
33.07 -30.799999 -625.54999
33.650002 -30.799999 -625.58002
34.23 -30.799999 -625.65997
34.799999 -30.809999 -625.69
35.380001 -30.809999 -625.76001
35.959999 -30.809999 -625.78998
36.529999 -30.82 -625.89001
37.119999 -30.83 -626.12
37.700001 -30.83 -626.21002
38.290001 -30.84 -626.35999
38.869999 -30.84 -626.44
39.450001 -30.85 -626.65002
40.040001 -30.860001 -626.77002
40.630001 -30.870001 -627.02002
41.220001 -30.879999 -627.26001
41.799999 -30.889999 -627.37
42.400002 -30.9 -627.64001
42.990002 -30.92 -627.90997
43.580002 -30.93 -628.10999
44.16 -30.93 -628.17999
44.75 -30.940001 -628.37
45.349998 -30.950001 -628.59998
45.93 -30.959999 -628.75
46.52 -30.959999 -628.83002
47.110001 -30.969999 -629.04999
47.709999 -30.99 -629.32001
48.299999 -31 -629.53003
48.900002 -31.01 -629.75
49.509998 -31.030001 -630.14001
50.099998 -31.040001 -630.40002
50.700001 -31.059999 -630.65997
51.310001 -31.07 -630.94
51.91 -31.09 -631.26001
52.509998 -31.1 -631.52002
53.110001 -31.110001 -631.73999
53.720001 -31.129999 -632.12
54.34 -31.15 -632.56
54.939999 -31.16 -632.78998
55.560001 -31.18 -633.15997
56.169998 -31.200001 -633.53998
56.790001 -31.219999 -633.98999
57.41 -31.24 -634.34003
58.02 -31.26 -634.69
58.630001 -31.27 -634.98999
59.25 -31.290001 -635.33002
59.84 -31.299999 -635.45001
60.439999 -31.309999 -635.63
61.040001 -31.309999 -635.79999
61.650002 -31.33 -636.03998
62.240002 -31.33 -636.07001
62.849998 -31.34 -636.38
63.470001 -31.360001 -636.71002
64.080002 -31.370001 -637.01001
64.690002 -31.379999 -637.17999
65.300003 -31.4 -637.45001
65.900002 -31.4 -637.57001
66.519997 -31.42 -637.94
67.129997 -31.43 -638.13
67.730003 -31.440001 -638.29999
68.349998 -31.459999 -638.63
68.970001 -31.469999 -638.91998
69.580002 -31.48 -639.12
70.190002 -31.49 -639.34003
70.809998 -31.5 -639.59003
71.410004 -31.51 -639.73999
72.019997 -31.52 -639.94
72.629997 -31.530001 -640.15997
73.239998 -31.540001 -640.31
73.839996 -31.549999 -640.44
74.43 -31.549999 -640.45001
74.980003 -31.530001 -640.09003
75.519997 -31.51 -639.69
75.970001 -31.450001 -638.56
76.43 -31.41 -637.57001
76.900002 -31.360001 -636.62
77.389999 -31.32 -635.83002
77.849998 -31.27 -634.89001
78.349998 -31.24 -634.15997
78.809998 -31.190001 -633.25
79.309998 -31.16 -632.58002
79.790001 -31.120001 -631.79999
80.279999 -31.08 -631.09003
80.75 -31.040001 -630.26001
81.230003 -31.01 -629.53003
81.720001 -30.969999 -628.83002
82.220001 -30.940001 -628.23999
82.690002 -30.9 -627.46002
83.18 -30.870001 -626.84998
83.660004 -30.84 -626.12
84.160004 -30.809999 -625.59998
84.620003 -30.77 -624.71002
85.120003 -30.74 -624.16998
85.589996 -30.700001 -623.47998
86.089996 -30.68 -622.96997
86.559998 -30.639999 -622.22998
87.050003 -30.610001 -621.66998
87.550003 -30.59 -621.17999
88.040001 -30.559999 -620.57001
88.540001 -30.540001 -620.12
89.059998 -30.52 -619.77002
89.550003 -30.49 -619.22998
90.080002 -30.48 -619.02002
90.589996 -30.459999 -618.59003
91.120003 -30.450001 -618.33002
91.629997 -30.43 -617.97998
92.18 -30.42 -617.81
92.709999 -30.41 -617.59998
93.269997 -30.41 -617.53003
93.830002 -30.41 -617.51001
94.419998 -30.41 -617.64001
95 -30.42 -617.76001
95.599998 -30.43 -617.97998
96.220001 -30.450001 -618.28003
96.870003 -30.469999 -618.78003
97.540001 -30.51 -619.46997
98.260002 -30.549999 -620.38
98.989998 -30.6 -621.37
99.849998 -30.690001 -623.16998
100.83 -30.82 -625.63
101.89 -30.959999 -628.62
-167.3 -29.200001 -582.46997
-166.75 -29.190001 -582.40002
-166.17999 -29.190001 -582.27002
-165.62 -29.18 -582.15997
-165.05 -29.17 -582.03998
-164.53 -29.18 -582.09003
-164.02 -29.18 -582.15997
-163.44 -29.17 -582.01001
-162.89 -29.17 -581.92999
-162.41 -29.18 -582.13
-161.89999 -29.18 -582.20001
-161.34 -29.18 -582.10999
-160.78 -29.17 -582.02002
-160.27 -29.18 -582.10999
-159.71001 -29.17 -582.02002
-159.17 -29.17 -582
-158.64 -29.17 -581.97998
-158.10001 -29.17 -581.96002
-157.55 -29.17 -581.90002
-156.99001 -29.16 -581.82001
-156.44 -29.16 -581.75
-155.89999 -29.16 -581.71997
-155.36 -29.16 -581.69
-154.83 -29.16 -581.70001
-154.25 -29.15 -581.53998
-153.73 -29.15 -581.57001
-153.2 -29.15 -581.58002
-152.64999 -29.15 -581.52002
-152.13 -29.15 -581.57001
-151.60001 -29.15 -581.59998
-151.09 -29.16 -581.65997
-150.53 -29.15 -581.58002
-150 -29.15 -581.57001
-149.44 -29.15 -581.47998
-148.89 -29.139999 -581.40002
-148.34 -29.139999 -581.34003
-147.78 -29.139999 -581.21997
-147.23 -29.129999 -581.15002
-146.67 -29.129999 -581.06
-146.10001 -29.120001 -580.92999
-145.57001 -29.120001 -580.90997
-145.00999 -29.110001 -580.79999
-144.45 -29.110001 -580.71997
-143.92 -29.110001 -580.71997
-143.38 -29.110001 -580.70001
-142.84 -29.110001 -580.65997
-142.32001 -29.110001 -580.69
-141.77 -29.110001 -580.65002
-141.21001 -29.1 -580.53003
-140.64999 -29.09 -580.40997
-140.08 -29.09 -580.26001
-139.50999 -29.08 -580.09998
-138.96001 -29.07 -580.03003
-138.42 -29.07 -580
-137.86 -29.07 -579.88
-137.31 -29.059999 -579.78998
-136.75 -29.059999 -579.67999
-136.19 -29.049999 -579.57001
-135.61 -29.040001 -579.37
-135 -29.02 -579
-134.32001 -28.99 -578.39001
-133.58 -28.950001 -577.51001
-132.92999 -28.92 -576.98999
-132.37 -28.91 -576.84998
-131.74001 -28.889999 -576.40997
-131.14 -28.870001 -576.08002
-130.55 -28.860001 -575.83002
-129.98 -28.85 -575.64001
-129.41 -28.84 -575.46997
-128.84 -28.83 -575.28003
-128.28 -28.83 -575.15002
-127.73 -28.82 -575.01001
-127.14 -28.809999 -574.77002
-126.61 -28.799999 -574.71997
-126.06 -28.799999 -574.65002
-125.5 -28.790001 -574.48999
-124.93 -28.780001 -574.28998
-124.34 -28.77 -574
-123.8 -28.76 -573.94
-123.19 -28.74 -573.57001
-122.61 -28.73 -573.28998
-122.04 -28.719999 -573.08002
-121.45 -28.709999 -572.82001
-120.89 -28.700001 -572.65997
-120.31 -28.690001 -572.40002
-119.75 -28.68 -572.23999
-119.19 -28.67 -572.07001
-118.61 -28.65 -571.77002
-118.08 -28.65 -571.78003
-117.51 -28.639999 -571.54999
-116.96 -28.629999 -571.41998
-116.4 -28.629999 -571.25
-115.87 -28.620001 -571.21997
-115.32 -28.620001 -571.09003
-114.78 -28.610001 -570.98999
-114.24 -28.610001 -570.94
-113.7 -28.6 -570.82001
-113.18 -28.6 -570.84003
-112.64 -28.6 -570.75
-112.07 -28.59 -570.53998
-111.55 -28.59 -570.54999
-111 -28.58 -570.41998
-110.48 -28.58 -570.46002
-109.94 -28.58 -570.38
-109.42 -28.58 -570.35999
-108.89 -28.58 -570.34003
-108.36 -28.58 -570.31
-107.84 -28.58 -570.28003
-107.31 -28.57 -570.28003
-106.78 -28.57 -570.25
-106.24 -28.57 -570.15002
-105.71 -28.57 -570.13
-105.17 -28.559999 -570.02002
-104.66 -28.559999 -570.07001
-104.14 -28.559999 -570.09003
-103.62 -28.57 -570.13
-103.12 -28.57 -570.26001
-102.6 -28.57 -570.26001
-102.1 -28.58 -570.37
-101.6 -28.59 -570.53003
-101.1 -28.59 -570.60999
-100.54 -28.58 -570.40997
-99.980003 -28.57 -570.20001
-99.459999 -28.57 -570.21997
-98.949997 -28.57 -570.29999
-98.440002 -28.58 -570.38
-97.93 -28.58 -570.42999
-97.43 -28.59 -570.59998
-96.919998 -28.59 -570.67999
-96.43 -28.6 -570.87
-95.940002 -28.610001 -571.04999
-95.440002 -28.620001 -571.21997
-94.959999 -28.629999 -571.45001
-94.470001 -28.639999 -571.65997
-93.989998 -28.66 -571.90997
-93.510002 -28.67 -572.21002
-93.059998 -28.690001 -572.62
-92.599998 -28.709999 -573.01001
-92.139999 -28.73 -573.44
-91.690002 -28.76 -573.90002
-91.220001 -28.77 -574.27002
-90.779999 -28.799999 -574.77002
-90.32 -28.82 -575.21002
-89.870003 -28.85 -575.70001
-89.410004 -28.870001 -576.15997
-88.980003 -28.9 -576.76001
-88.559998 -28.940001 -577.47998
-88.129997 -28.969999 -578.12
-87.690002 -29 -578.71002
-87.269997 -29.040001 -579.42999
-86.839996 -29.07 -580.06
-86.410004 -29.1 -580.73999
-85.980003 -29.139999 -581.42999
-85.559998 -29.18 -582.16998
-85.099998 -29.200001 -582.70001
-84.669998 -29.24 -583.41998
-84.239998 -29.27 -584.09998
-83.809998 -29.309999 -584.82001
-84.169998 -29.629999 -591.03003
-88.129997 -31.219999 -622.39001
-87.629997 -31.25 -622.89001
-87.07 -31.25 -622.96997
-86.510002 -31.25 -623.04999
-85.949997 -31.26 -623.14001
-85.379997 -31.26 -623.19
-84.830002 -31.27 -623.34998
-84.269997 -31.27 -623.38
-83.709999 -31.27 -623.46002
-83.160004 -31.280001 -623.65002
-82.589996 -31.290001 -623.71002
-82.040001 -31.290001 -623.84003
-81.480003 -31.299999 -623.95001
-80.919998 -31.299999 -624.02002
-80.360001 -31.309999 -624.12
-79.800003 -31.309999 -624.21002
-79.230003 -31.309999 -624.22998
-78.669998 -31.32 -624.33002
-78.099998 -31.32 -624.38
-77.529999 -31.32 -624.38
-76.959999 -31.32 -624.41998
-76.379997 -31.32 -624.40997
-75.82 -31.32 -624.46997
-75.239998 -31.32 -624.41998
-74.669998 -31.32 -624.46002
-74.089996 -31.32 -624.38
-73.510002 -31.32 -624.31
-72.139999 -30.969999 -617.59003
-71.029999 -30.74 -612.96997
-70.400002 -30.709999 -612.39001
-69.739998 -30.67 -611.58002
-69.120003 -30.639999 -611.02002
-68.489998 -30.610001 -610.46002
-67.910004 -30.6 -610.23999
-67.32 -30.59 -609.97998
-66.730003 -30.57 -609.77002
-66.150002 -30.559999 -609.56
-65.580002 -30.559999 -609.46002
-65.010002 -30.549999 -609.34998
-64.440002 -30.549999 -609.21002
-63.869999 -30.540001 -609.16998
-63.310001 -30.540001 -609.15997
-62.740002 -30.540001 -609.06
-62.18 -30.530001 -609.01001
-61.619999 -30.540001 -609.02002
-61.060001 -30.530001 -608.96002
-60.5 -30.530001 -608.98999
-59.950001 -30.530001 -609
-59.389999 -30.530001 -609
-58.830002 -30.540001 -609.03003
-58.27 -30.530001 -609.01001
-57.720001 -30.540001 -609.04999
-57.169998 -30.540001 -609.19
-56.610001 -30.540001 -609.19
-56.049999 -30.540001 -609.17999
-55.5 -30.549999 -609.27002
-54.939999 -30.549999 -609.28003
-54.389999 -30.549999 -609.35999
-53.84 -30.559999 -609.47998
-53.290001 -30.559999 -609.57001
-52.75 -30.57 -609.73999
-52.189999 -30.57 -609.70001
-51.650002 -30.58 -609.91998
-51.09 -30.58 -609.96997
-50.549999 -30.59 -610.14001
-50 -30.6 -610.25
-49.439999 -30.6 -610.28998
-48.889999 -30.610001 -610.47998
-48.34 -30.610001 -610.53003
-47.790001 -30.620001 -610.65002
-47.240002 -30.620001 -610.76001
-46.68 -30.620001 -610.78998
-46.119999 -30.620001 -610.82001
-45.57 -30.629999 -610.95001
-45.02 -30.629999 -611.02002
-44.459999 -30.639999 -611.13
-43.91 -30.639999 -611.23999
-43.349998 -30.65 -611.25
-42.799999 -30.65 -611.34998
-42.240002 -30.66 -611.45001
-41.68 -30.66 -611.46997
-41.130001 -30.66 -611.51001
-40.580002 -30.67 -611.71002
-40.02 -30.67 -611.81
-39.459999 -30.67 -611.82001
-38.91 -30.68 -611.91998
-38.349998 -30.68 -612
-37.799999 -30.690001 -612.10999
-37.25 -30.700001 -612.28998
-36.689999 -30.700001 -612.31
-36.139999 -30.709999 -612.53003
-35.580002 -30.709999 -612.53003
-35.029999 -30.719999 -612.65997
-34.48 -30.73 -612.88
-33.919998 -30.73 -613
-33.360001 -30.74 -613.09998
-32.810001 -30.74 -613.22998
-32.259998 -30.76 -613.44
-31.700001 -30.76 -613.59003
-31.15 -30.77 -613.70001
-30.59 -30.77 -613.73999
-30.030001 -30.780001 -613.94
-29.469999 -30.790001 -614.03998
-28.92 -30.790001 -614.14001
-28.360001 -30.799999 -614.38
-27.809999 -30.809999 -614.48999
-27.25 -30.82 -614.64001
-26.690001 -30.82 -614.78003
-26.129999 -30.83 -614.92999
-25.58 -30.84 -615.09998
-25.02 -30.85 -615.34003
-24.459999 -30.860001 -615.44
-23.9 -30.860001 -615.58002
-23.34 -30.870001 -615.67999
-22.790001 -30.879999 -615.83002
-22.219999 -30.879999 -615.94
-21.66 -30.889999 -616.03998
-21.1 -30.889999 -616.20001
-20.540001 -30.9 -616.31
-19.940001 -30.84 -615.16998
-19.23 -30.610001 -610.69
-18.639999 -30.559999 -609.65997
-18.049999 -30.51 -608.59003
-17.48 -30.48 -608.12
-16.91 -30.469999 -607.84998
-16.35 -30.469999 -607.78003
-15.79 -30.459999 -607.64001
-15.24 -30.459999 -607.63
-14.68 -30.459999 -607.71997
-14.13 -30.469999 -607.91998
-13.58 -30.48 -608.10999
-13.02 -30.49 -608.33002
-12.47 -30.51 -608.62
-11.92 -30.530001 -608.96002
-11.37 -30.549999 -609.41998
-10.82 -30.57 -609.85999
-10.27 -30.6 -610.40002
-9.7200003 -30.620001 -610.87
-9.1700001 -30.66 -611.60999
-8.6199999 -30.690001 -612.27002
-8.0699997 -30.75 -613.35999
-7.5300002 -30.84 -615.19
-7.0599999 -31.24 -623.01001
-6.5100002 -31.360001 -625.40997
-5.9400001 -31.389999 -626.04999
-5.3800001 -31.42 -626.63
-4.8000002 -31.450001 -627.19
-4.23 -31.48 -627.66998
-3.6600001 -31.51 -628.35999
-3.0899999 -31.540001 -628.96002
-2.51 -31.59 -629.87
-1.9400001 -31.610001 -630.28998
-1.36 -31.629999 -630.67999
-0.77999997 -31.639999 -630.96002
-0.2 -31.66 -631.33002
0.37 -31.67 -631.37
0.94999999 -31.66 -631.29999
1.53 -31.66 -631.25
2.1099999 -31.65 -631.13
2.6900001 -31.65 -631.03003
3.27 -31.639999 -630.91998
3.8499999 -31.639999 -630.78003
4.4200001 -31.629999 -630.64001
5 -31.620001 -630.54999
5.5799999 -31.620001 -630.41998
6.1500001 -31.610001 -630.27002
6.73 -31.6 -630.14001
7.3099999 -31.6 -630.04999
7.8800001 -31.59 -629.89001
8.46 -31.58 -629.75
9.0299997 -31.58 -629.59003
9.6099997 -31.57 -629.5
10.19 -31.559999 -629.37
10.76 -31.549999 -629.14001
11.33 -31.540001 -628.97998
11.91 -31.540001 -628.84998
12.48 -31.530001 -628.66998
13.05 -31.52 -628.53003
13.63 -31.52 -628.44
14.2 -31.51 -628.25
14.77 -31.5 -628.04999
15.34 -31.49 -627.88
15.91 -31.48 -627.64001
16.49 -31.48 -627.63
17.059999 -31.469999 -627.47998
17.629999 -31.459999 -627.34003
18.209999 -31.459999 -627.28003
18.780001 -31.450001 -627.15997
19.35 -31.450001 -627.03003
19.92 -31.440001 -626.90997
20.5 -31.440001 -626.95001
21.07 -31.440001 -626.90002
21.639999 -31.43 -626.66998
22.209999 -31.43 -626.65997
22.790001 -31.43 -626.66998
23.360001 -31.42 -626.53998
23.93 -31.42 -626.46997
24.5 -31.41 -626.40997
25.07 -31.41 -626.23999
25.639999 -31.4 -626.20001
26.209999 -31.4 -626.17999
26.780001 -31.4 -626.04999
27.35 -31.389999 -625.92999
27.92 -31.389999 -625.85999
28.49 -31.379999 -625.76001
29.059999 -31.379999 -625.73999
29.639999 -31.379999 -625.71997
30.209999 -31.379999 -625.70001
30.790001 -31.379999 -625.78003
31.360001 -31.379999 -625.71997
31.940001 -31.379999 -625.79999
32.509998 -31.379999 -625.71002
33.09 -31.379999 -625.81
33.66 -31.379999 -625.81
34.240002 -31.389999 -625.84998
34.810001 -31.389999 -625.89001
35.389999 -31.389999 -625.90997
35.970001 -31.389999 -625.97998
36.549999 -31.4 -626.15997
37.130001 -31.41 -626.29999
37.720001 -31.42 -626.40997
38.299999 -31.42 -626.54999
38.880001 -31.43 -626.70001
39.459999 -31.440001 -626.78998
40.049999 -31.450001 -627.03998
40.639999 -31.450001 -627.15997
41.23 -31.469999 -627.42999
41.830002 -31.49 -627.78998
42.41 -31.49 -627.84998
43 -31.5 -627.98999
43.580002 -31.5 -628.12
44.169998 -31.51 -628.28998
44.75 -31.52 -628.37
45.34 -31.530001 -628.58002
45.93 -31.530001 -628.71002
46.52 -31.549999 -628.94
47.119999 -31.559999 -629.21997
47.720001 -31.57 -629.46002
48.32 -31.58 -629.70001
48.91 -31.6 -629.96997
49.509998 -31.610001 -630.21997
50.110001 -31.620001 -630.45001
50.709999 -31.639999 -630.71997
51.310001 -31.65 -630.98999
51.919998 -31.67 -631.34003
52.52 -31.68 -631.58002
53.119999 -31.700001 -631.90002
53.740002 -31.719999 -632.26001
54.349998 -31.74 -632.67999
54.959999 -31.76 -633.03003
55.580002 -31.780001 -633.42999
56.189999 -31.790001 -633.71002
56.799999 -31.809999 -634.03003
57.419998 -31.83 -634.48999
58.029999 -31.85 -634.82001
58.650002 -31.870001 -635.19
59.259998 -31.879999 -635.51001
59.860001 -31.889999 -635.66998
60.459999 -31.9 -635.77002
61.040001 -31.9 -635.77002
61.650002 -31.91 -636.03998
62.25 -31.92 -636.23999
62.869999 -31.93 -636.52002
63.48 -31.950001 -636.77002
64.080002 -31.959999 -636.97998
64.690002 -31.969999 -637.22998
65.309998 -31.99 -637.51001
65.919998 -32 -637.78998
66.519997 -32.009998 -637.95001
67.129997 -32.02 -638.15002
67.739998 -32.029999 -638.40997
68.370003 -32.049999 -638.79999
68.980003 -32.060001 -638.97998
69.589996 -32.07 -639.21002
70.220001 -32.09 -639.64001
70.830002 -32.099998 -639.78998
71.419998 -32.110001 -639.85999
72.040001 -32.119999 -640.09998
72.660004 -32.130001 -640.35999
73.269997 -32.139999 -640.58002
73.849998 -32.139999 -640.48999
74.440002 -32.139999 -640.53998
74.989998 -32.119999 -640.20001
75.510002 -32.099998 -639.66998
75.980003 -32.049999 -638.70001
76.449997 -32 -637.70001
76.919998 -31.950001 -636.78003
77.400002 -31.91 -635.90997
77.860001 -31.860001 -634.90002
78.349998 -31.82 -634.22998
78.82 -31.77 -633.29999
79.32 -31.74 -632.65002
79.790001 -31.700001 -631.76001
80.260002 -31.66 -630.96997
80.739998 -31.620001 -630.20001
81.230003 -31.58 -629.52002
81.699997 -31.540001 -628.69
82.209999 -31.52 -628.21002
82.68 -31.469999 -627.40002
83.18 -31.440001 -626.78998
83.650002 -31.41 -626.03003
84.150002 -31.379999 -625.52002
84.620003 -31.34 -624.75
85.110001 -31.309999 -624.10999
85.57 -31.27 -623.34003
86.080002 -31.25 -622.90002
86.559998 -31.209999 -622.21997
87.050003 -31.18 -621.67999
87.550003 -31.16 -621.17999
88.040001 -31.129999 -620.60999
88.529999 -31.1 -620.08002
89.050003 -31.09 -619.72998
89.550003 -31.059999 -619.28003
90.059998 -31.040001 -618.87
90.580002 -31.030001 -618.53003
91.110001 -31.01 -618.31
91.639999 -31 -618.01001
92.169998 -30.99 -617.77002
92.699997 -30.98 -617.53998
93.25 -30.969999 -617.44
93.82 -30.969999 -617.42999
94.389999 -30.969999 -617.46002
94.980003 -30.98 -617.62
95.599998 -31 -617.92999
96.190002 -31.01 -618.13
96.830002 -31.030001 -618.57001
97.510002 -31.059999 -619.22998
98.199997 -31.1 -620.03003
98.989998 -31.17 -621.35999
99.809998 -31.25 -622.94
100.8 -31.379999 -625.46997
101.83 -31.52 -628.27002
-166.85001 -29.74 -582.75
-166.34 -29.75 -582.83002
-165.82001 -29.75 -582.85999
-165.25 -29.74 -582.73999
-164.69 -29.74 -582.65997
-164.14 -29.74 -582.59998
-163.55 -29.73 -582.40997
-162.99001 -29.719999 -582.31
-162.57001 -29.74 -582.69
-162.07001 -29.75 -582.81
-161.49001 -29.74 -582.64001
-160.95 -29.74 -582.64001
-160.39999 -29.74 -582.56
-159.83 -29.73 -582.45001
-159.28 -29.73 -582.40002
-158.73 -29.719999 -582.31
-158.13 -29.709999 -582.08002
-157.62 -29.719999 -582.15002
-157.05 -29.709999 -582.01001
-156.5 -29.700001 -581.95001
-155.94 -29.700001 -581.87
-155.37 -29.690001 -581.71997
-154.82001 -29.690001 -581.67999
-154.28 -29.690001 -581.64001
-153.74001 -29.690001 -581.63
-153.17999 -29.68 -581.52002
-152.64 -29.68 -581.46997
-152.11 -29.68 -581.48999
-151.57001 -29.68 -581.48999
-151.05 -29.68 -581.51001
-150.5 -29.68 -581.44
-149.95 -29.68 -581.39001
-149.41 -29.67 -581.34998
-148.85001 -29.67 -581.25
-148.28999 -29.66 -581.15002
-147.72 -29.66 -580.98999
-147.14999 -29.65 -580.84998
-146.58 -29.639999 -580.72998
-146.02 -29.639999 -580.60999
-145.49001 -29.639999 -580.59998
-144.92 -29.629999 -580.45001
-144.37 -29.620001 -580.38
-143.83 -29.620001 -580.35999
-143.28999 -29.620001 -580.33002
-142.75999 -29.620001 -580.34003
-142.23 -29.620001 -580.34003
-141.69 -29.620001 -580.31
-141.14999 -29.620001 -580.28003
-140.60001 -29.610001 -580.19
-140.03 -29.610001 -580.04999
-139.46001 -29.6 -579.88
-138.92 -29.6 -579.85999
-138.36 -29.59 -579.75
-137.82001 -29.59 -579.69
-137.27 -29.58 -579.62
-136.73 -29.58 -579.60999
-136.16 -29.58 -579.44
-135.58 -29.57 -579.23999
-135.02 -29.559999 -579.09003
-134.33 -29.52 -578.42999
-133.56 -29.469999 -577.39001
-132.95 -29.450001 -577.04999
-132.37 -29.440001 -576.83002
-131.75999 -29.42 -576.51001
-131.13 -29.4 -576.07001
-130.57001 -29.389999 -575.92999
-129.99001 -29.379999 -575.67999
-129.39999 -29.370001 -575.44
-128.84 -29.360001 -575.27002
-128.27 -29.35 -575.08002
-127.74 -29.35 -575.08002
-127.15 -29.33 -574.81
-126.59 -29.33 -574.64001
-126.05 -29.32 -574.60999
-125.5 -29.32 -574.5
-124.94 -29.309999 -574.32001
-124.36 -29.299999 -574.08002
-123.8 -29.290001 -573.94
-123.19 -29.27 -573.57001
-122.63 -29.26 -573.40002
-122.05 -29.25 -573.13
-121.46 -29.23 -572.84003
-120.89 -29.219999 -572.65002
-120.31 -29.209999 -572.40002
-119.74 -29.200001 -572.17999
-119.18 -29.190001 -572.01001
-118.63 -29.18 -571.90002
-118.08 -29.17 -571.73999
-117.53 -29.17 -571.62
-116.96 -29.16 -571.41998
-116.43 -29.16 -571.38
-115.86 -29.15 -571.16998
-115.31 -29.139999 -571.04999
-114.76 -29.129999 -570.91998
-114.24 -29.129999 -570.94
-113.69 -29.129999 -570.81
-113.18 -29.129999 -570.85999
-112.64 -29.129999 -570.78998
-112.08 -29.110001 -570.59003
-111.56 -29.120001 -570.62
-111.01 -29.110001 -570.5
-110.47 -29.1 -570.35999
-109.95 -29.1 -570.40997
-109.42 -29.1 -570.39001
-108.89 -29.1 -570.31
-108.37 -29.1 -570.35999
-107.83 -29.1 -570.26001
-107.3 -29.09 -570.21997
-106.77 -29.09 -570.15997
-106.23 -29.09 -570.10999
-105.72 -29.09 -570.15997
-105.18 -29.09 -570.08002
-104.66 -29.09 -570.06
-104.14 -29.09 -570.10999
-103.63 -29.09 -570.16998
-103.1 -29.09 -570.14001
-102.6 -29.1 -570.28003
-102.1 -29.1 -570.37
-101.59 -29.1 -570.42999
-101.08 -29.110001 -570.53998
-100.54 -29.1 -570.41998
-99.980003 -29.09 -570.20001
-99.449997 -29.09 -570.16998
-98.940002 -29.09 -570.22998
-98.43 -29.1 -570.32001
-97.93 -29.110001 -570.47998
-97.440002 -29.110001 -570.63
-96.93 -29.120001 -570.71002
-96.43 -29.129999 -570.87
-95.93 -29.129999 -570.96997
-95.440002 -29.139999 -571.20001
-94.970001 -29.16 -571.48999
-94.470001 -29.17 -571.64001
-93.980003 -29.18 -571.89001
-93.540001 -29.200001 -572.34003
-93.07 -29.219999 -572.66998
-92.629997 -29.25 -573.21997
-92.18 -29.27 -573.69
-91.720001 -29.290001 -574.10999
-91.25 -29.309999 -574.45001
-90.800003 -29.33 -574.90002
-90.339996 -29.360001 -575.34003
-89.900002 -29.379999 -575.87
-89.440002 -29.41 -576.29999
-89 -29.440001 -576.90997
-88.580002 -29.469999 -577.57001
-88.160004 -29.51 -578.28003
-87.720001 -29.540001 -578.89001
-87.290001 -29.57 -579.53003
-86.849998 -29.6 -580.12
-86.410004 -29.639999 -580.77002
-85.980003 -29.67 -581.45001
-85.559998 -29.709999 -582.16998
-85.120003 -29.74 -582.82001
-84.690002 -29.780001 -583.53998
-84.260002 -29.82 -584.25
-83.849998 -29.860001 -585.09003
-88.190002 -31.809999 -622.82001
-87.639999 -31.82 -622.95001
-87.080002 -31.83 -623.03003
-86.519997 -31.83 -623.15997
-85.959999 -31.83 -623.19
-85.400002 -31.84 -623.28003
-84.849998 -31.85 -623.46002
-84.290001 -31.85 -623.53998
-83.730003 -31.860001 -623.64001
-83.169998 -31.860001 -623.70001
-82.610001 -31.870001 -623.84003
-82.059998 -31.870001 -623.97998
-81.5 -31.879999 -624.07001
-80.940002 -31.879999 -624.19
-80.379997 -31.889999 -624.26001
-79.82 -31.9 -624.42999
-79.239998 -31.889999 -624.34998
-78.669998 -31.889999 -624.37
-78.110001 -31.9 -624.46002
-77.550003 -31.9 -624.53003
-76.970001 -31.9 -624.5
-76.400002 -31.9 -624.57001
-75.830002 -31.9 -624.56
-75.25 -31.9 -624.53998
-74.68 -31.9 -624.58002
-74.110001 -31.9 -624.54999
-73.540001 -31.9 -624.59998
-72.620003 -31.75 -621.67999
-71.080002 -31.32 -613.41998
-70.43 -31.280001 -612.64001
-69.790001 -31.25 -611.96997
-69.150002 -31.209999 -611.32001
-68.519997 -31.18 -610.66998
-67.919998 -31.17 -610.39001
-67.330002 -31.15 -610.13
-66.75 -31.139999 -609.92999
-66.169998 -31.129999 -609.69
-65.599998 -31.129999 -609.64001
-65.019997 -31.120001 -609.44
-64.459999 -31.110001 -609.40002
-63.880001 -31.110001 -609.25
-63.310001 -31.1 -609.15002
-62.75 -31.1 -609.15002
-62.189999 -31.1 -609.12
-61.639999 -31.1 -609.14001
-61.07 -31.1 -609.03998
-60.509998 -31.1 -609.06
-59.959999 -31.1 -609.10999
-59.400002 -31.1 -609.14001
-58.84 -31.1 -609.09003
-58.290001 -31.1 -609.17999
-57.73 -31.1 -609.20001
-57.169998 -31.1 -609.21002
-56.619999 -31.110001 -609.28003
-56.060001 -31.110001 -609.31
-55.509998 -31.110001 -609.35999
-54.959999 -31.120001 -609.51001
-54.41 -31.120001 -609.58002
-53.860001 -31.120001 -609.60999
-53.310001 -31.129999 -609.81
-52.75 -31.129999 -609.79999
-52.200001 -31.139999 -609.90997
-51.650002 -31.139999 -609.96997
-51.099998 -31.15 -610.12
-50.549999 -31.15 -610.21002
-50 -31.16 -610.34998
-49.439999 -31.16 -610.34998
-48.900002 -31.17 -610.5
-48.349998 -31.18 -610.70001
-47.790001 -31.18 -610.71997
-47.240002 -31.18 -610.79999
-46.689999 -31.190001 -610.91998
-46.139999 -31.200001 -611.03003
-45.580002 -31.200001 -611.08002
-45.029999 -31.200001 -611.17999
-44.470001 -31.200001 -611.16998
-43.919998 -31.209999 -611.29999
-43.360001 -31.209999 -611.37
-42.810001 -31.219999 -611.46997
-42.25 -31.219999 -611.5
-41.689999 -31.219999 -611.57001
-41.139999 -31.23 -611.65002
-40.59 -31.23 -611.82001
-40.029999 -31.24 -611.88
-39.48 -31.25 -612.04999
-38.919998 -31.25 -612.03003
-38.360001 -31.25 -612.15002
-37.810001 -31.26 -612.21002
-37.259998 -31.27 -612.42999
-36.700001 -31.27 -612.51001
-36.139999 -31.27 -612.57001
-35.59 -31.280001 -612.73999
-35.040001 -31.290001 -612.88
-34.48 -31.299999 -613.01001
-33.93 -31.299999 -613.12
-33.369999 -31.309999 -613.26001
-32.82 -31.309999 -613.38
-32.259998 -31.32 -613.53003
-31.700001 -31.33 -613.60999
-31.15 -31.34 -613.83002
-30.6 -31.35 -614
-30.040001 -31.360001 -614.16998
-29.48 -31.360001 -614.22998
-28.93 -31.370001 -614.37
-28.370001 -31.370001 -614.53003
-27.809999 -31.379999 -614.64001
-27.25 -31.379999 -614.71002
-26.700001 -31.389999 -614.94
-26.139999 -31.4 -615.09998
-25.58 -31.41 -615.26001
-25.030001 -31.42 -615.38
-24.469999 -31.43 -615.54999
-23.91 -31.43 -615.71997
-23.35 -31.440001 -615.88
-22.790001 -31.450001 -615.96997
-22.23 -31.459999 -616.20001
-21.67 -31.459999 -616.25
-21.110001 -31.469999 -616.39001
-20.549999 -31.48 -616.51001
-19.98 -31.469999 -616.34998
-19.34 -31.35 -614.15997
-18.68 -31.18 -610.90002
-18.09 -31.129999 -609.87
-17.5 -31.08 -608.94
-16.93 -31.059999 -608.48999
-16.370001 -31.049999 -608.22998
-15.81 -31.040001 -608.13
-15.25 -31.040001 -608.09998
-14.69 -31.049999 -608.21002
-14.14 -31.049999 -608.29999
-13.59 -31.059999 -608.53998
-13.03 -31.07 -608.71002
-12.48 -31.09 -609.06
-11.93 -31.110001 -609.38
-11.38 -31.129999 -609.84998
-10.83 -31.15 -610.21002
-10.28 -31.18 -610.89001
-9.7299995 -31.209999 -611.47998
-9.1800003 -31.25 -612.21002
-8.6300001 -31.299999 -613.09003
-8.1199999 -31.51 -617.15997
-7.6399999 -31.84 -623.54999
-7.0799999 -31.92 -625.17999
-6.52 -31.950001 -625.76001
-5.9499998 -31.99 -626.53998
-5.3800001 -32.02 -627.08002
-4.8099999 -32.040001 -627.47998
-4.2399998 -32.07 -628
-3.6600001 -32.099998 -628.58002
-3.0899999 -32.139999 -629.28998
-2.52 -32.169998 -629.91998
-1.9400001 -32.189999 -630.40002
-1.36 -32.220001 -630.85999
-0.77999997 -32.23 -631.14001
-0.2 -32.240002 -631.34998
0.37 -32.25 -631.40002
0.94999999 -32.25 -631.47998
1.53 -32.240002 -631.31
2.1099999 -32.23 -631.14001
2.6900001 -32.23 -631.09003
3.27 -32.220001 -630.92999
3.8499999 -32.220001 -630.83002
4.4200001 -32.209999 -630.65997
5 -32.209999 -630.60999
5.5799999 -32.200001 -630.46002
6.1500001 -32.189999 -630.27002
6.73 -32.18 -630.15997
7.3099999 -32.18 -630.08002
7.8800001 -32.169998 -629.92999
8.46 -32.16 -629.76001
9.04 -32.16 -629.65002
9.6099997 -32.150002 -629.52002
10.19 -32.150002 -629.45001
10.76 -32.139999 -629.27002
11.34 -32.130001 -629.12
11.91 -32.119999 -628.97998
12.48 -32.110001 -628.82001
13.06 -32.110001 -628.67999
13.63 -32.099998 -628.52002
14.2 -32.09 -628.40002
14.78 -32.080002 -628.17999
15.35 -32.07 -628.03003
15.92 -32.060001 -627.87
16.49 -32.060001 -627.73999
17.059999 -32.049999 -627.59998
17.639999 -32.049999 -627.52002
18.209999 -32.040001 -627.34003
18.780001 -32.029999 -627.28998
19.360001 -32.029999 -627.31
19.93 -32.029999 -627.19
20.5 -32.02 -627.07001
21.08 -32.02 -627.08002
21.65 -32.02 -627
22.219999 -32.02 -626.96997
22.790001 -32.009998 -626.73999
23.360001 -32 -626.65997
23.940001 -32 -626.71002
24.51 -32 -626.58002
25.08 -31.99 -626.44
25.65 -31.98 -626.32001
26.209999 -31.98 -626.20001
26.790001 -31.98 -626.21002
27.360001 -31.98 -626.15002
27.93 -31.969999 -626.04999
28.51 -31.969999 -626.08002
29.08 -31.969999 -626.02002
29.65 -31.969999 -625.96997
30.23 -31.969999 -626.01001
30.799999 -31.969999 -626
31.370001 -31.969999 -625.96002
31.940001 -31.959999 -625.92999
32.52 -31.969999 -625.98999
33.09 -31.969999 -625.95001
33.68 -31.969999 -626.12
34.25 -31.969999 -626.03003
34.830002 -31.98 -626.16998
35.41 -31.98 -626.21997
35.990002 -31.99 -626.33002
36.57 -31.99 -626.45001
37.150002 -32 -626.52002
37.73 -32.009998 -626.71002
38.32 -32.02 -626.95001
38.900002 -32.02 -626.98999
39.490002 -32.029999 -627.22998
40.080002 -32.040001 -627.37
40.66 -32.049999 -627.56
41.25 -32.060001 -627.71997
41.84 -32.07 -627.89001
42.419998 -32.07 -628.01001
43 -32.07 -627.96997
43.580002 -32.080002 -628.13
44.169998 -32.09 -628.28003
44.759998 -32.099998 -628.53003
45.349998 -32.110001 -628.69
45.950001 -32.119999 -628.91998
46.529999 -32.130001 -629.03003
47.130001 -32.139999 -629.27002
47.73 -32.16 -629.58002
48.32 -32.169998 -629.82001
48.919998 -32.18 -630.03998
49.529999 -32.200001 -630.39001
50.130001 -32.209999 -630.69
50.720001 -32.220001 -630.87
51.32 -32.240002 -631.15997
51.93 -32.259998 -631.48999
52.529999 -32.27 -631.77002
53.139999 -32.290001 -632.06
53.75 -32.299999 -632.41998
54.369999 -32.330002 -632.84003
54.970001 -32.34 -633.13
55.59 -32.360001 -633.51001
56.200001 -32.380001 -633.87
56.810001 -32.400002 -634.17999
57.43 -32.419998 -634.56
58.049999 -32.439999 -635.03003
58.669998 -32.459999 -635.39001
59.27 -32.470001 -635.60999
59.880001 -32.48 -635.83002
60.459999 -32.48 -635.84003
61.049999 -32.490002 -635.90997
61.650002 -32.490002 -636.01001
62.259998 -32.509998 -636.31
62.880001 -32.529999 -636.66998
63.48 -32.529999 -636.78998
64.089996 -32.549999 -637.06
64.699997 -32.560001 -637.34998
65.309998 -32.57 -637.57001
65.93 -32.59 -637.84998
66.550003 -32.610001 -638.17999
67.160004 -32.619999 -638.40997
67.769997 -32.630001 -638.63
68.379997 -32.639999 -638.88
68.989998 -32.650002 -639.10999
69.610001 -32.669998 -639.37
70.230003 -32.689999 -639.71997
70.839996 -32.689999 -639.88
71.459999 -32.709999 -640.19
72.059998 -32.720001 -640.33002
72.669998 -32.73 -640.48999
73.279999 -32.73 -640.64001
73.860001 -32.73 -640.59003
74.449997 -32.73 -640.63
75.010002 -32.720001 -640.34003
75.519997 -32.689999 -639.77002
75.989998 -32.639999 -638.78998
76.489998 -32.599998 -638.03998
76.949997 -32.549999 -637.03998
77.410004 -32.5 -636.03998
77.879997 -32.450001 -635.06
78.360001 -32.400002 -634.25
78.82 -32.349998 -633.26001
79.309998 -32.32 -632.56
79.769997 -32.27 -631.65997
80.279999 -32.240002 -631.09998
80.75 -32.200001 -630.21997
81.239998 -32.16 -629.57001
81.720001 -32.119999 -628.79999
82.220001 -32.099998 -628.27002
82.690002 -32.049999 -627.41998
83.169998 -32.02 -626.76001
83.650002 -31.98 -626.01001
84.139999 -31.950001 -625.42999
84.610001 -31.91 -624.64001
85.110001 -31.879999 -624.10999
85.589996 -31.85 -623.42999
86.089996 -31.82 -622.95001
86.57 -31.790001 -622.26001
87.059998 -31.76 -621.71997
87.540001 -31.719999 -621.04999
88.040001 -31.700001 -620.63
88.540001 -31.67 -620.10999
89.050003 -31.65 -619.72998
89.550003 -31.629999 -619.27002
90.07 -31.610001 -618.92999
90.599998 -31.6 -618.64001
91.120003 -31.58 -618.31
91.650002 -31.57 -618.07001
92.169998 -31.549999 -617.78003
92.709999 -31.540001 -617.59003
93.25 -31.540001 -617.45001
93.809998 -31.530001 -617.37
94.379997 -31.530001 -617.39001
94.959999 -31.540001 -617.5
95.57 -31.549999 -617.72998
96.169998 -31.57 -617.98999
96.790001 -31.58 -618.33002
97.459999 -31.620001 -618.94
98.150002 -31.65 -619.66998
98.93 -31.719999 -620.97998
99.75 -31.799999 -622.54999
100.77 -31.950001 -625.32001
101.8 -32.09 -628.09003
-165.82001 -30.280001 -582.85999
-165.37 -30.299999 -583.16998
-164.77 -30.290001 -582.91998
-164.2 -30.280001 -582.81
-163.67999 -30.280001 -582.84998
-163.16 -30.290001 -582.90002
-162.7 -30.299999 -583.16998
-162.17999 -30.299999 -583.21002
-161.67 -30.309999 -583.29999
-161.14999 -30.309999 -583.34003
-160.56 -30.299999 -583.14001
-159.98 -30.290001 -582.98999
-159.41 -30.280001 -582.84003
-158.82001 -30.280001 -582.65997
-158.2 -30.26 -582.34998
-157.69 -30.26 -582.41998
-157.11 -30.25 -582.23999
-156.57001 -30.25 -582.21997
-155.99001 -30.24 -582.04999
-155.42999 -30.24 -581.96997
-154.88 -30.23 -581.88
-154.3 -30.23 -581.71997
-153.77 -30.23 -581.71997
-153.19 -30.219999 -581.54999
-152.62 -30.209999 -581.40997
-152.06 -30.209999 -581.31
-151.53999 -30.209999 -581.37
-151 -30.209999 -581.32001
-150.45 -30.200001 -581.25
-149.89999 -30.200001 -581.20001
-149.36 -30.200001 -581.16998
-148.8 -30.190001 -581.06
-148.23 -30.18 -580.92999
-147.69 -30.18 -580.87
-147.07001 -30.16 -580.53003
-146.52 -30.16 -580.46997
-145.95 -30.15 -580.31
-145.39999 -30.15 -580.23999
-144.84 -30.139999 -580.15002
-144.3 -30.139999 -580.09998
-143.77 -30.139999 -580.12
-143.24001 -30.139999 -580.10999
-142.7 -30.139999 -580.10999
-142.17999 -30.139999 -580.15002
-141.64 -30.139999 -580.10999
-141.11 -30.139999 -580.10999
-140.56 -30.139999 -580.04999
-140.00999 -30.129999 -579.95001
-139.44 -30.129999 -579.81
-138.88 -30.120001 -579.69
-138.33 -30.120001 -579.59998
-137.75999 -30.110001 -579.47998
-137.23 -30.110001 -579.46002
-136.7 -30.110001 -579.46002
-136.14999 -30.1 -579.38
-135.58 -30.09 -579.21997
-135 -30.08 -579.01001
-134.28999 -30.049999 -578.27002
-133.55 -30 -577.35999
-132.95 -29.98 -577.07001
-132.35001 -29.959999 -576.75
-131.74001 -29.950001 -576.41998
-131.12 -29.93 -576.02002
-130.56 -29.92 -575.88
-129.99001 -29.91 -575.67999
-129.39999 -29.889999 -575.41998
-128.85001 -29.889999 -575.32001
-128.27 -29.879999 -575.09998
-127.73 -29.870001 -575.03003
-127.15 -29.860001 -574.79999
-126.6 -29.860001 -574.69
-126.04 -29.85 -574.57001
-125.49 -29.84 -574.45001
-124.93 -29.83 -574.28003
-124.36 -29.82 -574.09003
-123.78 -29.809999 -573.85999
-123.22 -29.799999 -573.71002
-122.64 -29.790001 -573.45001
-122.05 -29.77 -573.13
-121.47 -29.76 -572.88
-120.89 -29.75 -572.65002
-120.31 -29.73 -572.39001
-119.76 -29.73 -572.23999
-119.18 -29.709999 -572
-118.61 -29.700001 -571.77002
-118.08 -29.700001 -571.73999
-117.54 -29.700001 -571.70001
-116.96 -29.68 -571.44
-116.42 -29.68 -571.34003
-115.88 -29.67 -571.23999
-115.31 -29.66 -571.03998
-114.77 -29.66 -570.96997
-114.24 -29.66 -570.92999
-113.69 -29.65 -570.79999
-113.17 -29.65 -570.81
-112.63 -29.639999 -570.71002
-112.09 -29.639999 -570.65002
-111.55 -29.639999 -570.57001
-111.02 -29.629999 -570.53003
-110.47 -29.629999 -570.38
-109.95 -29.629999 -570.40997
-109.42 -29.620001 -570.34998
-108.88 -29.620001 -570.28003
-108.37 -29.629999 -570.37
-107.83 -29.620001 -570.26001
-107.3 -29.620001 -570.21002
-106.76 -29.610001 -570.13
-106.25 -29.610001 -570.16998
-105.71 -29.610001 -570.10999
-105.2 -29.610001 -570.15997
-104.67 -29.610001 -570.10999
-104.15 -29.610001 -570.15002
-103.62 -29.610001 -570.10999
-103.11 -29.610001 -570.17999
-102.6 -29.620001 -570.22998
-102.07 -29.620001 -570.22998
-101.58 -29.620001 -570.37
-101.07 -29.629999 -570.45001
-100.53 -29.620001 -570.37
-99.980003 -29.620001 -570.21002
-99.449997 -29.610001 -570.16998
-98.940002 -29.620001 -570.26001
-98.43 -29.620001 -570.34003
-97.93 -29.629999 -570.46997
-97.43 -29.629999 -570.58002
-96.940002 -29.639999 -570.77002
-96.440002 -29.65 -570.91998
-95.940002 -29.66 -571.04999
-95.449997 -29.67 -571.27002
-94.959999 -29.68 -571.46997
-94.489998 -29.700001 -571.79999
-94.010002 -29.709999 -572.02002
-93.550003 -29.73 -572.42999
-93.099998 -29.75 -572.84998
-92.650002 -29.780001 -573.34003
-92.18 -29.799999 -573.69
-91.720001 -29.82 -574.09998
-91.269997 -29.84 -574.53998
-90.82 -29.870001 -575.03003
-90.349998 -29.889999 -575.40002
-89.910004 -29.92 -575.96002
-89.459999 -29.940001 -576.44
-89.029999 -29.969999 -577.07001
-88.589996 -30.01 -577.69
-88.18 -30.049999 -578.42999
-87.730003 -30.07 -578.94
-87.300003 -30.110001 -579.58002
-86.860001 -30.139999 -580.21997
-86.43 -30.17 -580.89001
-86.010002 -30.209999 -581.64001
-85.589996 -30.26 -582.40997
-85.139999 -30.280001 -582.95001
-84.720001 -30.32 -583.71997
-84.279999 -30.360001 -584.40997
-83.860001 -30.4 -585.17999
-88.199997 -32.389999 -622.88
-87.650002 -32.400002 -623.03003
-87.080002 -32.400002 -623.07001
-86.540001 -32.41 -623.26001
-85.980003 -32.41 -623.34003
-85.410004 -32.419998 -623.39001
-84.849998 -32.419998 -623.47998
-84.300003 -32.43 -623.64001
-83.720001 -32.419998 -623.58002
-83.169998 -32.43 -623.77002
-82.620003 -32.439999 -623.92999
-82.059998 -32.450001 -624.01001
-81.5 -32.450001 -624.06
-80.93 -32.450001 -624.08002
-80.370003 -32.459999 -624.21997
-79.809998 -32.459999 -624.34003
-79.239998 -32.459999 -624.34998
-78.68 -32.470001 -624.40002
-78.120003 -32.48 -624.54999
-77.559998 -32.48 -624.62
-76.989998 -32.48 -624.65002
-76.419998 -32.48 -624.69
-75.839996 -32.48 -624.67999
-75.269997 -32.48 -624.64001
-74.690002 -32.48 -624.63
-74.120003 -32.48 -624.65997
-73.550003 -32.48 -624.66998
-72.949997 -32.470001 -624.41998
-71.370003 -32.02 -615.88
-70.470001 -31.870001 -613.02002
-69.82 -31.82 -612.23999
-69.18 -31.790001 -611.59003
-68.540001 -31.75 -610.85999
-67.949997 -31.74 -610.59003
-67.360001 -31.719999 -610.32001
-66.769997 -31.709999 -610.06
-66.190002 -31.700001 -609.90002
-65.620003 -31.690001 -609.77002
-65.050003 -31.690001 -609.70001
-64.470001 -31.68 -609.51001
-63.900002 -31.67 -609.39001
-63.34 -31.67 -609.35999
-62.77 -31.67 -609.28003
-62.200001 -31.66 -609.21002
-61.650002 -31.67 -609.29999
-61.09 -31.66 -609.22998
-60.529999 -31.66 -609.21997
-59.970001 -31.66 -609.26001
-59.41 -31.66 -609.17999
-58.860001 -31.67 -609.28998
-58.310001 -31.67 -609.37
-57.740002 -31.67 -609.31
-57.189999 -31.67 -609.35999
-56.630001 -31.67 -609.34998
-56.080002 -31.67 -609.42999
-55.509998 -31.67 -609.37
-54.970001 -31.68 -609.60999
-54.419998 -31.68 -609.63
-53.869999 -31.690001 -609.78003
-53.32 -31.700001 -609.85999
-52.77 -31.700001 -609.96997
-52.220001 -31.709999 -610.06
-51.66 -31.709999 -610.10999
-51.110001 -31.709999 -610.23999
-50.560001 -31.719999 -610.35999
-50.009998 -31.719999 -610.40997
-49.459999 -31.73 -610.56
-48.91 -31.74 -610.66998
-48.349998 -31.74 -610.69
-47.799999 -31.74 -610.81
-47.240002 -31.75 -610.85999
-46.700001 -31.75 -611.01001
-46.139999 -31.76 -611.03998
-45.59 -31.76 -611.15002
-45.029999 -31.77 -611.25
-44.470001 -31.77 -611.28003
-43.919998 -31.77 -611.34003
-43.360001 -31.77 -611.37
-42.810001 -31.780001 -611.47998
-42.259998 -31.790001 -611.63
-41.700001 -31.790001 -611.70001
-41.139999 -31.790001 -611.70001
-40.599998 -31.799999 -611.94
-40.040001 -31.799999 -611.96002
-39.48 -31.809999 -612.02002
-38.93 -31.82 -612.19
-38.369999 -31.82 -612.25
-37.810001 -31.82 -612.34003
-37.27 -31.83 -612.53998
-36.709999 -31.84 -612.69
-36.16 -31.85 -612.81
-35.599998 -31.85 -612.92999
-35.040001 -31.85 -612.91998
-34.490002 -31.860001 -613.13
-33.939999 -31.870001 -613.31
-33.380001 -31.870001 -613.32001
-32.830002 -31.889999 -613.53998
-32.27 -31.889999 -613.63
-31.719999 -31.9 -613.88
-31.16 -31.91 -613.96002
-30.6 -31.91 -614.09998
-30.049999 -31.92 -614.25
-29.49 -31.93 -614.35999
-28.93 -31.93 -614.47998
-28.379999 -31.940001 -614.66998
-27.82 -31.959999 -614.89001
-27.27 -31.959999 -615.02002
-26.709999 -31.969999 -615.17999
-26.15 -31.98 -615.33002
-25.59 -31.99 -615.44
-25.030001 -31.99 -615.53003
-24.48 -32 -615.73999
-23.92 -32.009998 -615.89001
-23.360001 -32.02 -616.02002
-22.799999 -32.02 -616.17999
-22.24 -32.040001 -616.44
-21.68 -32.040001 -616.52002
-21.120001 -32.040001 -616.53998
-20.559999 -32.049999 -616.71002
-20 -32.060001 -616.88
-19.42 -32.040001 -616.5
-18.77 -31.9 -613.87
-18.139999 -31.77 -611.45001
-17.530001 -31.700001 -610.03003
-16.950001 -31.66 -609.27002
-16.379999 -31.639999 -608.82001
-15.82 -31.629999 -608.71002
-15.26 -31.629999 -608.65002
-14.7 -31.629999 -608.65002
-14.15 -31.629999 -608.82001
-13.6 -31.639999 -608.98999
-13.04 -31.66 -609.22998
-12.49 -31.68 -609.59003
-11.94 -31.690001 -609.88
-11.39 -31.709999 -610.28998
-10.84 -31.74 -610.88
-10.29 -31.780001 -611.47998
-9.7399998 -31.809999 -612.07001
-9.1899996 -31.870001 -613.25
-8.6999998 -32.130001 -618.20001
-8.2200003 -32.459999 -624.45001
-7.6500001 -32.48 -624.87
-7.0900002 -32.52 -625.57001
-6.52 -32.549999 -626.15002
-5.9499998 -32.580002 -626.81
-5.3800001 -32.610001 -627.25
-4.8099999 -32.630001 -627.71002
-4.2399998 -32.66 -628.21002
-3.6600001 -32.689999 -628.79999
-3.0899999 -32.720001 -629.46997
-2.52 -32.759998 -630.17999
-1.9400001 -32.779999 -630.58002
-1.36 -32.799999 -630.91998
-0.77999997 -32.82 -631.22998
-0.2 -32.830002 -631.42999
0.37 -32.830002 -631.42999
0.94999999 -32.830002 -631.46002
1.53 -32.82 -631.34003
2.1099999 -32.810001 -631.12
2.6900001 -32.810001 -631.08002
3.27 -32.799999 -630.96997
3.8499999 -32.790001 -630.79999
4.4200001 -32.790001 -630.70001
5 -32.779999 -630.52002
5.5799999 -32.77 -630.44
6.1599998 -32.77 -630.34998
6.73 -32.759998 -630.22998
7.3099999 -32.759998 -630.19
7.8800001 -32.75 -629.91998
8.46 -32.75 -629.88
9.04 -32.740002 -629.71002
9.6099997 -32.73 -629.62
10.19 -32.720001 -629.39001
10.76 -32.720001 -629.35999
11.34 -32.700001 -629.09998
11.91 -32.700001 -628.96997
12.48 -32.689999 -628.78998
13.06 -32.68 -628.69
13.63 -32.68 -628.62
14.2 -32.66 -628.33002
14.78 -32.66 -628.16998
15.35 -32.650002 -628.15002
15.92 -32.639999 -627.95001
16.5 -32.639999 -627.89001
17.07 -32.630001 -627.73999
17.639999 -32.630001 -627.66998
18.219999 -32.630001 -627.59003
18.790001 -32.619999 -627.46997
19.360001 -32.610001 -627.34003
19.93 -32.610001 -627.26001
20.5 -32.599998 -627.20001
21.08 -32.599998 -627.13
21.65 -32.599998 -627.07001
22.219999 -32.59 -626.90002
22.790001 -32.59 -626.90002
23.370001 -32.59 -626.87
23.940001 -32.580002 -626.82001
24.51 -32.580002 -626.71997
25.08 -32.57 -626.63
25.65 -32.57 -626.54999
