# .PCD v0.7 - Point Cloud Data file format
VERSION 0.7
FIELDS x y z
SIZE 4 4 4
TYPE F F F
COUNT 1 1 1
WIDTH 1688
HEIGHT 1
VIEWPOINT 0 0 0 1 0 0 0
POINTS 1688
DATA ascii
-55.09 68.190002 -649.89001
-54.48 68.169998 -649.67999
-53.869999 68.160004 -649.62
-53.279999 68.169998 -649.69
-52.700001 68.190002 -649.90002
-52.150002 68.239998 -650.37
-51.560001 68.260002 -650.5
-50.959999 68.25 -650.41998
-50.330002 68.209999 -650.04999
-49.709999 68.18 -649.78998
-49.110001 68.169998 -649.69
-48.540001 68.209999 -650.09998
-47.98 68.260002 -650.57001
-47.400002 68.290001 -650.79999
-46.830002 68.330002 -651.17999
-46.27 68.370003 -651.63
-45.709999 68.43 -652.16998
-45.169998 68.519997 -653.02002
-44.610001 68.580002 -653.59998
-44.02 68.599998 -653.81
-43.419998 68.610001 -653.85999
-42.830002 68.629997 -654.02002
-42.25 68.650002 -654.22998
-41.650002 68.660004 -654.34003
-41.07 68.690002 -654.59003
-40.490002 68.709999 -654.84998
-39.91 68.760002 -655.22998
-39.32 68.779999 -655.48999
-38.73 68.800003 -655.69
-38.130001 68.809998 -655.75
-37.540001 68.830002 -655.94
-36.950001 68.849998 -656.14001
-36.360001 68.860001 -656.23999
-35.77 68.889999 -656.48999
-35.169998 68.900002 -656.64001
-34.57 68.910004 -656.69
-33.970001 68.919998 -656.79999
-33.360001 68.910004 -656.65002
-32.759998 68.910004 -656.70001
-32.169998 68.919998 -656.81
-31.58 68.959999 -657.20001
-31 69 -657.59003
-30.4 69.010002 -657.65002
-29.799999 69.019997 -657.71002
-29.190001 69.019997 -657.76001
-28.59 69.029999 -657.85999
-27.99 69.040001 -657.94
-27.4 69.07 -658.22998
-26.809999 69.089996 -658.44
-26.200001 69.099998 -658.46002
-25.610001 69.110001 -658.63
-25.01 69.139999 -658.88
-24.42 69.18 -659.28003
-23.83 69.220001 -659.59003
-23.209999 69.169998 -659.17999
-22.57 69.089996 -658.38
-20.610001 68.57 -653.53003
-19.99 68.5 -652.89001
-19.379999 68.480003 -652.65997
-18.780001 68.480003 -652.71997
-18.18 68.459999 -652.52002
-17.58 68.459999 -652.45001
-16.98 68.459999 -652.5
-16.389999 68.489998 -652.82001
-15.8 68.540001 -653.28998
-15.21 68.57 -653.53003
-14.62 68.629997 -654.06
-14.03 68.68 -654.53998
-13.44 68.730003 -655.02002
-12.85 68.769997 -655.41998
-12.26 68.830002 -656
-11.66 68.879997 -656.40997
-11.07 68.93 -656.96002
-10.47 69 -657.58002
-9.8800001 69.059998 -658.09998
-9.2799997 69.089996 -658.46002
-8.6800003 69.139999 -658.85999
-8.0799999 69.190002 -659.32001
-7.48 69.25 -659.94
-6.8800001 69.32 -660.60999
-6.2800002 69.379997 -661.10999
-5.6799998 69.43 -661.64001
-5.0799999 69.510002 -662.40997
-4.4699998 69.57 -662.92999
-3.8699999 69.599998 -663.22998
-3.26 69.650002 -663.72998
-2.6500001 69.709999 -664.28998
-2.05 69.739998 -664.51001
-1.4400001 69.800003 -665.09003
-0.82999998 69.860001 -665.63
-0.22 69.93 -666.33002
0.40000001 69.970001 -666.73999
1.01 70.080002 -667.71997
1.62 70.120003 -668.15002
2.24 70.239998 -669.19
2.8599999 70.300003 -669.78003
3.48 70.419998 -670.96997
4.0999999 70.519997 -671.89001
4.73 70.699997 -673.57001
5.3499999 70.769997 -674.21002
5.9899998 70.970001 -676.10999
6.6399999 71.300003 -679.22998
7.3499999 72.18 -687.48999
7.9899998 72.199997 -687.64001
8.6199999 72.239998 -688
9.2600002 72.300003 -688.63
9.8999996 72.360001 -689.16998
10.54 72.389999 -689.41998
11.18 72.410004 -689.66998
11.83 72.510002 -690.60999
12.48 72.629997 -691.70001
13.12 72.660004 -691.97998
13.77 72.709999 -692.40997
14.42 72.769997 -693.03003
15.06 72.809998 -693.39001
15.72 72.900002 -694.23999
16.370001 72.970001 -694.85999
17.02 73.010002 -695.29999
17.67 73.07 -695.79999
18.32 73.129997 -696.35999
18.99 73.230003 -697.31
19.65 73.300003 -697.96002
20.32 73.400002 -698.96002
20.98 73.459999 -699.47998
21.65 73.540001 -700.28003
22.32 73.629997 -701.09998
22.969999 73.68 -701.53003
23.65 73.760002 -702.34998
28.41 74.400002 -708.34003
29.07 74.419998 -708.54999
30.379999 74.459999 -708.89001
31.040001 74.489998 -709.12
31.719999 74.540001 -709.59998
32.380001 74.559998 -709.78998
33.029999 74.57 -709.87
33.709999 74.610001 -710.25
34.389999 74.669998 -710.84003
35.080002 74.75 -711.58002
35.740002 74.769997 -711.76001
47.720001 76.139999 -724.60999
48.43 76.209999 -725.27002
49.139999 76.279999 -725.96002
49.849998 76.339996 -726.5
50.560001 76.410004 -727.17999
51.290001 76.510002 -728.06
52 76.550003 -728.52002
52.700001 76.599998 -728.90997
53.41 76.650002 -729.46002
-168.07001 61.169998 -588.83002
-167.7 61.23 -589.40997
-167.33 61.290001 -590
-166.92999 61.34 -590.48999
-166.49001 61.380001 -590.87
-165.97 61.389999 -590.94
-165.45 61.400002 -591
-165.03 61.439999 -591.41998
-164.60001 61.490002 -591.81
-164.16 61.529999 -592.20001
-163.73 61.57 -592.59003
-163.33 61.619999 -593.10999
-162.88 61.66 -593.41998
-162.44 61.700001 -593.81
-161.97 61.73 -594.07001
-161.55 61.77 -594.52002
-161.32001 61.889999 -595.65002
-143.92 61.689999 -593.71997
-143.46001 61.73 -594.03998
-142.75 61.66 -593.38
-142.14 61.630001 -593.08002
-141.52 61.59 -592.77002
-140.92999 61.580002 -592.59003
-140.32001 61.549999 -592.31
-139.75999 61.540001 -592.22998
-139.16 61.509998 -591.98999
-138.59 61.5 -591.87
-137.99001 61.48 -591.63
-137.39 61.450001 -591.41998
-136.85001 61.450001 -591.40002
-136.27 61.439999 -591.26001
-135.7 61.419998 -591.15002
-135.14999 61.419998 -591.07001
-134.60001 61.419998 -591.08002
-134.05 61.41 -591.01001
-133.53 61.419998 -591.12
-133.00999 61.43 -591.22998
-132.50999 61.450001 -591.40002
-132.00999 61.470001 -591.57001
-131.47 61.470001 -591.59003
-130.88 61.450001 -591.38
-130.13 61.349998 -590.45001
-129.52 61.32 -590.14001
-128.92999 61.299999 -589.92999
-128.39 61.299999 -589.95001
-127.82 61.279999 -589.79999
-127.23 61.259998 -589.56
-126.66 61.240002 -589.44
-126.09 61.23 -589.32001
-125.51 61.209999 -589.13
-124.96 61.209999 -589.08002
-124.39 61.189999 -588.95001
-123.84 61.18 -588.88
-123.28 61.18 -588.79999
-122.71 61.16 -588.65002
-122.14 61.150002 -588.53998
-121.57 61.130001 -588.34998
-120.99 61.110001 -588.19
-120.43 61.099998 -588.09998
-119.86 61.080002 -587.92999
-119.3 61.07 -587.84003
-118.75 61.07 -587.77002
-118.2 61.060001 -587.73999
-117.66 61.060001 -587.71997
-117.12 61.060001 -587.72998
-116.55 61.040001 -587.56
-115.99 61.040001 -587.47998
-115.45 61.029999 -587.42999
-114.92 61.040001 -587.5
-114.35 61.02 -587.32001
-113.78 61 -587.17999
-113.21 60.990002 -587.02002
-112.65 60.98 -586.92999
-112.11 60.970001 -586.88
-111.56 60.970001 -586.84998
-111 60.959999 -586.73999
-110.45 60.950001 -586.65997
-109.9 60.939999 -586.62
-109.35 60.93 -586.51001
-108.8 60.93 -586.45001
-108.26 60.93 -586.46002
-107.73 60.93 -586.5
-107.18 60.919998 -586.42999
-106.64 60.919998 -586.40997
-106.11 60.93 -586.47998
-105.56 60.919998 -586.38
-105.03 60.919998 -586.41998
-104.49 60.919998 -586.45001
-103.96 60.93 -586.48999
-103.44 60.939999 -586.56
-102.92 60.950001 -586.65997
-102.41 60.970001 -586.84998
-101.9 60.98 -587
-101.42 61.02 -587.32001
-100.93 61.049999 -587.62
-100.46 61.09 -588
-100 61.139999 -588.48999
-99.519997 61.18 -588.84003
-99.050003 61.209999 -589.20001
-98.519997 61.220001 -589.28998
-98.029999 61.25 -589.57001
-97.559998 61.299999 -590
-97.099998 61.349998 -590.52002
-96.690002 61.43 -591.28998
-96.220001 61.48 -591.71002
-95.830002 61.580002 -592.65002
-95.360001 61.630001 -593.13
-94.980003 61.73 -594.13
-71.889999 68.830002 -661.57001
-71.120003 68.68 -660.09003
-70.389999 68.559998 -658.96002
-69.739998 68.510002 -658.47998
-68.980003 68.349998 -657.02002
-68.290001 68.269997 -656.23999
-67.68 68.269997 -656.21002
-67.040001 68.220001 -655.82001
-66.349998 68.139999 -654.97998
-65.690002 68.07 -654.39001
-65.019997 68 -653.71997
-64.389999 67.970001 -653.38
-63.75 67.919998 -652.98999
-63.150002 67.919998 -652.95001
-62.52 67.889999 -652.63
-61.869999 67.839996 -652.15002
-61.23 67.790001 -651.73999
-60.599998 67.75 -651.33002
-60 67.75 -651.33002
-59.389999 67.739998 -651.23999
-58.77 67.709999 -650.98999
-58.16 67.699997 -650.85999
-57.560001 67.690002 -650.81
-56.98 67.720001 -651.07001
-56.369999 67.699997 -650.90997
-55.75 67.68 -650.65002
-55.130001 67.650002 -650.38
-54.509998 67.620003 -650.10999
-53.919998 67.620003 -650.14001
-53.34 67.650002 -650.39001
-52.779999 67.699997 -650.85999
-52.189999 67.699997 -650.87
-51.57 67.68 -650.70001
-50.959999 67.660004 -650.48999
-50.349998 67.639999 -650.32001
-49.75 67.639999 -650.34003
-49.169998 67.660004 -650.53998
-48.599998 67.690002 -650.82001
-48.02 67.730003 -651.15997
-47.439999 67.75 -651.35999
-46.880001 67.800003 -651.84003
-46.34 67.879997 -652.60999
-45.810001 67.989998 -653.64001
-45.240002 68.029999 -654.04999
-44.650002 68.040001 -654.17999
-44.060001 68.059998 -654.32001
-43.470001 68.080002 -654.53998
-42.880001 68.099998 -654.66998
-42.279999 68.089996 -654.65997
-41.689999 68.110001 -654.84003
-41.110001 68.150002 -655.15997
-40.52 68.169998 -655.40997
-39.93 68.199997 -655.65002
-39.34 68.220001 -655.84003
-38.740002 68.220001 -655.90002
-38.150002 68.230003 -655.95001
-37.549999 68.239998 -656.08002
-36.959999 68.260002 -656.27002
-36.369999 68.279999 -656.46002
-35.77 68.300003 -656.60999
-35.18 68.32 -656.84998
-34.59 68.339996 -657.01001
-33.990002 68.349998 -657.08002
-33.389999 68.349998 -657.07001
-32.790001 68.370003 -657.28998
-32.200001 68.379997 -657.42999
-31.620001 68.440002 -657.91998
-31.02 68.440002 -658
-30.41 68.440002 -658.01001
-29.809999 68.449997 -658.02002
-29.209999 68.449997 -658.08002
-28.610001 68.470001 -658.28998
-28.02 68.510002 -658.59998
-27.43 68.540001 -658.96997
-26.83 68.550003 -659.06
-26.23 68.57 -659.17999
-25.629999 68.580002 -659.32001
-25.030001 68.580002 -659.28998
-24.42 68.589996 -659.38
-23.82 68.589996 -659.35999
-23.18 68.489998 -658.46002
-21.190001 67.910004 -652.95001
-20.57 67.839996 -652.26001
-19.959999 67.800003 -651.91998
-19.35 67.760002 -651.57001
-18.75 67.760002 -651.5
-18.15 67.75 -651.46997
-17.549999 67.760002 -651.51001
-16.959999 67.800003 -651.87
-16.370001 67.82 -652.09998
-15.78 67.860001 -652.46002
-15.19 67.900002 -652.89001
-14.6 67.949997 -653.33002
-14.01 67.989998 -653.75
-13.43 68.07 -654.44
-12.84 68.120003 -654.96002
-12.24 68.160004 -655.34003
-11.65 68.199997 -655.73999
-11.06 68.279999 -656.42999
-10.47 68.339996 -657.04999
-9.8699999 68.379997 -657.46002
-9.2700005 68.440002 -657.95001
-8.6800003 68.489998 -658.47998
-8.0799999 68.529999 -658.79999
-7.48 68.589996 -659.40997
-6.8800001 68.650002 -660.03003
-6.2800002 68.730003 -660.71997
-5.6799998 68.779999 -661.22998
-5.0799999 68.849998 -661.84998
-4.4699998 68.910004 -662.47998
-3.8699999 68.959999 -662.91998
-3.26 69.010002 -663.37
-2.6500001 69.059998 -663.90997
-2.05 69.120003 -664.41998
-1.4400001 69.160004 -664.82001
-0.82999998 69.220001 -665.37
-0.22 69.300003 -666.13
0.40000001 69.330002 -666.46997
1.01 69.449997 -667.53998
1.62 69.489998 -667.94
2.24 69.580002 -668.82001
2.8599999 69.669998 -669.63
3.48 69.790001 -670.77002
4.0999999 69.900002 -671.82001
4.73 70.07 -673.45001
5.3499999 70.150002 -674.25
5.9899998 70.410004 -676.70001
6.6799998 71.07 -682.95001
7.3499999 71.519997 -687.21002
7.98 71.540001 -687.44
8.6199999 71.589996 -687.84998
9.2600002 71.650002 -688.46997
9.8999996 71.68 -688.70001
10.53 71.709999 -689.01001
11.17 71.75 -689.40002
11.83 71.879997 -690.65997
12.47 71.919998 -691.03998
13.11 71.959999 -691.34998
13.76 72.019997 -691.97998
14.4 72.080002 -692.5
15.05 72.129997 -692.97998
15.71 72.230003 -693.91998
16.35 72.260002 -694.20001
17 72.309998 -694.64001
17.66 72.370003 -695.21997
18.309999 72.410004 -695.67999
18.98 72.529999 -696.81
19.629999 72.599998 -697.41998
20.280001 72.629997 -697.72998
20.940001 72.699997 -698.39001
21.620001 72.809998 -699.41998
22.27 72.849998 -699.84003
22.950001 72.959999 -700.87
23.610001 73.019997 -701.37
24.290001 73.120003 -702.39001
24.940001 73.139999 -702.54999
26.969999 73.389999 -704.96002
27.66 73.480003 -705.82001
28.34 73.57 -706.59998
29.01 73.620003 -707.09003
29.66 73.639999 -707.27002
30.33 73.68 -707.62
30.99 73.709999 -707.98999
31.690001 73.809998 -708.88
32.349998 73.839996 -709.14001
33.009998 73.849998 -709.27002
33.669998 73.870003 -709.47998
34.330002 73.900002 -709.73999
35.009998 73.940002 -710.16998
35.68 73.980003 -710.47998
36.349998 74.019997 -710.90997
37.009998 74.040001 -711.03003
37.669998 74.050003 -711.21002
38.34 74.080002 -711.44
39.029999 74.150002 -712.10999
49.099998 75.540001 -725.28998
49.799999 75.610001 -725.89001
50.529999 75.699997 -726.75
51.279999 75.82 -727.89001
51.98 75.860001 -728.32001
52.68 75.900002 -728.69
53.400002 75.980003 -729.42999
-168.10001 60.84 -590.81
-167.72 60.900002 -591.38
-167.22 60.91 -591.5
-166.67999 60.91 -591.51001
-166.16 60.919998 -591.58002
-165.67999 60.939999 -591.78998
-165.22 60.970001 -592.10999
-164.7 60.98 -592.16998
-164.28 61.029999 -592.60999
-163.85001 61.07 -593.02002
-163.41 61.110001 -593.37
-162.97 61.150002 -593.76001
-162.56 61.200001 -594.22998
-162.12 61.240002 -594.60999
-162.11 61.439999 -596.54999
-142.89 61.169998 -593.94
-142.23 61.130001 -593.47998
-141.56 61.07 -592.94
-140.96001 61.049999 -592.71002
-140.38 61.029999 -592.56
-139.78999 61.009998 -592.37
-139.17999 60.98 -592.08002
-138.58 60.959999 -591.85999
-138 60.939999 -591.66998
-137.42 60.919998 -591.52002
-136.82001 60.900002 -591.28998
-136.25 60.889999 -591.17999
-135.67999 60.869999 -591.06
-135.13 60.869999 -591.01001
-134.56 60.849998 -590.88
-134.00999 60.849998 -590.84998
-133.48 60.860001 -590.90997
-132.96001 60.869999 -591.01001
-132.44 60.869999 -591.08002
-131.92 60.889999 -591.21002
-131.41 60.900002 -591.33002
-130.78 60.860001 -590.96002
-130.03 60.759998 -590.01001
-129.44 60.740002 -589.81
-128.89 60.740002 -589.77002
-128.33 60.73 -589.66998
-127.74 60.709999 -589.46002
-127.16 60.689999 -589.28003
-126.57 60.66 -589.03003
-126.01 60.650002 -588.95001
-125.44 60.639999 -588.79999
-124.89 60.630001 -588.73999
-124.31 60.610001 -588.59003
-123.76 60.610001 -588.53003
-123.2 60.599998 -588.40997
-122.62 60.580002 -588.23999
-122.06 60.57 -588.15997
-121.5 60.560001 -588.03003
-120.93 60.540001 -587.87
-120.37 60.529999 -587.79999
-119.8 60.509998 -587.64001
-119.27 60.52 -587.66998
-118.7 60.5 -587.54999
-118.16 60.5 -587.52002
-117.61 60.5 -587.47998
-117.07 60.5 -587.47998
-116.5 60.48 -587.34003
-115.96 60.48 -587.31
-115.41 60.470001 -587.25
-114.87 60.470001 -587.23999
-114.28 60.450001 -587
-113.74 60.439999 -586.96002
-113.17 60.43 -586.83002
-112.61 60.419998 -586.71997
-112.06 60.41 -586.65997
-111.51 60.400002 -586.56
-110.95 60.389999 -586.46002
-110.4 60.389999 -586.41998
-109.85 60.380001 -586.34003
-109.3 60.369999 -586.28003
-108.76 60.369999 -586.27002
-108.22 60.369999 -586.23999
-107.67 60.360001 -586.19
-107.12 60.349998 -586.12
-106.59 60.360001 -586.15002
-106.05 60.360001 -586.15997
-105.51 60.349998 -586.10999
-104.97 60.349998 -586.14001
-104.44 60.360001 -586.16998
-103.91 60.360001 -586.20001
-103.38 60.369999 -586.27002
-102.87 60.380001 -586.40997
-102.37 60.400002 -586.62
-101.86 60.419998 -586.75
-101.37 60.450001 -587.03003
-100.89 60.48 -587.38
-100.41 60.52 -587.72998
-99.940002 60.560001 -588.09998
-99.459999 60.59 -588.45001
-98.949997 60.619999 -588.66998
-98.440002 60.630001 -588.78998
-97.93 60.650002 -588.98999
-97.480003 60.709999 -589.54999
-97.010002 60.75 -589.96002
-96.589996 60.830002 -590.69
-96.150002 60.889999 -591.31
-95.699997 60.950001 -591.87
-95.290001 61.040001 -592.69
-94.839996 61.09 -593.23999
-94.43 61.18 -594.09998
-94.07 61.299999 -595.26001
-71.230003 68.169998 -661.08002
-70.489998 68.040001 -659.81
-69.849998 68.010002 -659.56
-69.269997 68.040001 -659.83002
-68.550003 67.919998 -658.67999
-67.790001 67.769997 -657.27002
-67.120003 67.699997 -656.58002
-66.449997 67.629997 -655.94
-65.779999 67.559998 -655.26001
-65.120003 67.5 -654.65002
-64.470001 67.449997 -654.15002
-63.84 67.419998 -653.87
-63.220001 67.400002 -653.73999
-62.580002 67.349998 -653.26001
-61.950001 67.32 -652.95001
-61.299999 67.269997 -652.47998
-60.669998 67.239998 -652.15997
-60.060001 67.220001 -651.98999
-59.439999 67.199997 -651.77002
-58.830002 67.18 -651.60999
-58.240002 67.190002 -651.71002
-57.639999 67.190002 -651.70001
-57.029999 67.18 -651.58002
-56.41 67.150002 -651.38
-55.799999 67.129997 -651.15997
-55.18 67.110001 -650.96002
-54.57 67.089996 -650.78003
-53.990002 67.110001 -650.97998
-53.419998 67.139999 -651.28998
-52.84 67.169998 -651.53998
-52.220001 67.150002 -651.34003
-51.59 67.110001 -650.95001
-50.990002 67.099998 -650.87
-50.389999 67.089996 -650.79999
-49.790001 67.089996 -650.83002
-49.23 67.139999 -651.29999
-48.650002 67.169998 -651.53003
-48.080002 67.199997 -651.84998
-47.52 67.260002 -652.37
-47.02 67.400002 -653.71997
-46.48 67.480003 -654.54999
-45.889999 67.5 -654.71997
-45.299999 67.519997 -654.89001
-44.700001 67.519997 -654.90997
-44.099998 67.529999 -655.01001
-43.5 67.529999 -655.02002
-42.889999 67.519997 -654.91998
-42.299999 67.540001 -655.09003
-41.73 67.57 -655.44
-41.139999 67.610001 -655.75
-40.549999 67.620003 -655.87
-39.950001 67.629997 -655.95001
-39.34 67.599998 -655.73999
-38.740002 67.620003 -655.84998
-38.16 67.650002 -656.15002
-37.57 67.68 -656.46997
-36.98 67.699997 -656.65997
-36.389999 67.720001 -656.82001
-35.799999 67.739998 -657.03003
-35.209999 67.760002 -657.27002
-34.610001 67.769997 -657.33002
-34.009998 67.779999 -657.45001
-33.41 67.800003 -657.63
-32.82 67.830002 -657.90997
-32.240002 67.860001 -658.21997
-31.639999 67.879997 -658.41998
-31.030001 67.870003 -658.32001
-30.43 67.879997 -658.41998
-29.83 67.879997 -658.38
-29.24 67.910004 -658.72998
-28.639999 67.940002 -658.97998
-28.049999 67.970001 -659.27002
-27.450001 67.980003 -659.40002
-26.860001 68.010002 -659.62
-26.26 68.029999 -659.84998
-25.67 68.089996 -660.35999
-25.08 68.110001 -660.57001
-24.450001 68.050003 -660.06
-23.790001 67.910004 -658.65002
-21.799999 67.349998 -653.28003
-21.17 67.260002 -652.42999
-20.549999 67.190002 -651.78998
-19.93 67.129997 -651.23999
-19.33 67.110001 -651.07001
-18.73 67.110001 -651.04999
-18.129999 67.099998 -650.90997
-17.540001 67.099998 -650.96002
-16.940001 67.120003 -651.15997
-16.360001 67.160004 -651.48999
-15.77 67.199997 -651.90002
-15.18 67.239998 -652.28998
-14.59 67.300003 -652.89001
-14 67.349998 -653.35999
-13.42 67.410004 -653.90997
-12.83 67.459999 -654.40002
-12.24 67.529999 -655.06
-11.64 67.57 -655.44
-11.05 67.620003 -655.95001
-10.46 67.709999 -656.79999
-9.8699999 67.760002 -657.22998
-9.2700005 67.779999 -657.47998
-8.6700001 67.839996 -658.01001
-8.0699997 67.900002 -658.59003
-7.4699998 67.949997 -659.12
-6.8800001 68.010002 -659.70001
-6.2800002 68.080002 -660.29999
-5.6700001 68.120003 -660.71997
-5.0700002 68.199997 -661.47998
-4.4699998 68.260002 -662.01001
-3.8699999 68.330002 -662.70001
-3.26 68.379997 -663.17999
-2.6500001 68.419998 -663.56
-2.05 68.5 -664.33002
-1.4400001 68.529999 -664.66998
-0.82999998 68.589996 -665.16998
-0.22 68.68 -666.03998
0.40000001 68.709999 -666.38
1.01 68.82 -667.40997
1.62 68.860001 -667.77002
2.24 68.959999 -668.79999
2.8599999 69.040001 -669.57001
3.48 69.160004 -670.70001
4.0999999 69.290001 -671.88
4.73 69.449997 -673.46002
5.3600001 69.57 -674.59003
5.9899998 69.790001 -676.71997
6.71 70.790001 -686.27002
7.3499999 70.860001 -686.95001
7.98 70.910004 -687.44
8.6199999 70.970001 -687.96997
9.2600002 71 -688.29999
9.8900003 71.029999 -688.53003
10.53 71.059998 -688.82001
11.17 71.120003 -689.42999
11.82 71.209999 -690.29999
12.46 71.239998 -690.60999
13.1 71.279999 -690.94
13.75 71.339996 -691.52002
14.39 71.389999 -692
15.04 71.459999 -692.65002
15.7 71.529999 -693.35999
16.34 71.57 -693.71002
16.99 71.620003 -694.19
17.639999 71.669998 -694.69
18.299999 71.739998 -695.35999
18.959999 71.830002 -696.19
19.610001 71.879997 -696.65002
20.27 71.940002 -697.23999
20.92 71.980003 -697.67999
21.59 72.080002 -698.57001
22.26 72.160004 -699.33002
22.91 72.190002 -699.67999
23.58 72.260002 -700.31
24.25 72.349998 -701.20001
24.91 72.389999 -701.58002
25.59 72.480003 -702.44
26.27 72.589996 -703.48999
26.93 72.629997 -703.83002
27.6 72.699997 -704.54999
28.290001 72.809998 -705.59003
28.959999 72.849998 -705.96997
29.629999 72.900002 -706.39001
30.299999 72.959999 -707.01001
30.969999 73.010002 -707.48999
31.639999 73.050003 -707.88
32.299999 73.089996 -708.19
32.959999 73.099998 -708.37
33.630001 73.139999 -708.67999
34.310001 73.190002 -709.21002
34.970001 73.220001 -709.46997
35.619999 73.209999 -709.41998
36.279999 73.230003 -709.59998
36.939999 73.25 -709.79999
37.610001 73.279999 -710.09003
38.27 73.300003 -710.25
38.959999 73.360001 -710.84998
39.639999 73.410004 -711.23999
40.299999 73.43 -711.44
40.990002 73.489998 -712.03998
41.700001 73.580002 -712.94
42.419998 73.709999 -714.13
49.07 74.830002 -724.84998
49.779999 74.900002 -725.47998
50.509998 75 -726.5
51.240002 75.089996 -727.35999
51.950001 75.150002 -727.90002
52.650002 75.190002 -728.28998
53.380001 75.279999 -729.15997
-168.32001 60.369999 -591.57001
-167.78 60.369999 -591.58002
-167.25 60.380001 -591.62
-166.78 60.400002 -591.85999
-166.3 60.43 -592.07001
-165.86 60.470001 -592.45001
-165.42999 60.509998 -592.84003
-164.99001 60.540001 -593.20001
-164.55 60.580002 -593.58002
-164.00999 60.580002 -593.58002
-163.49001 60.59 -593.65997
-163.07001 60.639999 -594.10999
-162.62 60.68 -594.45001
-162.5 60.84 -595.98999
-141.7 60.59 -593.53003
-141.03 60.529999 -592.98999
-140.38 60.490002 -592.57001
-139.78999 60.459999 -592.34998
-139.19 60.439999 -592.10999
-138.59 60.419998 -591.88
-137.99001 60.389999 -591.63
-137.42 60.380001 -591.51001
-136.84 60.360001 -591.35999
-136.25999 60.34 -591.19
-135.67 60.330002 -591.02002
-135.10001 60.310001 -590.89001
-134.55 60.310001 -590.84998
-134 60.310001 -590.81
-133.45 60.299999 -590.78998
-132.92 60.310001 -590.83002
-132.39 60.310001 -590.88
-131.87 60.32 -590.96997
-131.33 60.32 -590.97998
-130.73 60.299999 -590.71997
-129.96001 60.189999 -589.71002
-129.39 60.169998 -589.54999
-128.83 60.169998 -589.47998
-128.27 60.16 -589.39001
-127.68 60.130001 -589.15997
-127.12 60.130001 -589.08002
-126.5 60.09 -588.71997
-125.92 60.07 -588.54999
-125.37 60.060001 -588.48999
-124.79 60.049999 -588.31
-124.23 60.029999 -588.21002
-123.69 60.040001 -588.21002
-123.14 60.029999 -588.15002
-122.56 60.009998 -587.96997
-122 60 -587.84998
-121.44 59.990002 -587.76001
-120.88 59.98 -587.65002
-120.32 59.959999 -587.53998
-119.75 59.950001 -587.40997
-119.2 59.939999 -587.34003
-118.65 59.939999 -587.27002
-118.09 59.93 -587.19
-117.55 59.93 -587.20001
-117.01 59.93 -587.19
-116.45 59.91 -587.04999
-115.88 59.900002 -586.92999
-115.34 59.900002 -586.90997
-114.8 59.889999 -586.87
-114.22 59.880001 -586.69
-113.67 59.869999 -586.64001
-113.12 59.860001 -586.53998
-112.56 59.849998 -586.45001
-112.01 59.84 -586.37
-111.47 59.84 -586.37
-110.91 59.830002 -586.23999
-110.36 59.830002 -586.20001
-109.81 59.82 -586.14001
-109.26 59.810001 -586.03998
-108.72 59.810001 -586.03998
-108.19 59.810001 -586.09003
-107.64 59.799999 -586
-107.09 59.799999 -585.95001
-106.55 59.799999 -585.96997
-106.02 59.799999 -586
-105.47 59.799999 -585.92999
-104.93 59.790001 -585.91998
-104.4 59.799999 -585.95001
-103.88 59.799999 -586.03003
-103.34 59.799999 -586.01001
-102.82 59.82 -586.14001
-102.33 59.84 -586.37
-101.81 59.849998 -586.46997
-101.34 59.889999 -586.87
-100.85 59.919998 -587.16998
-100.37 59.959999 -587.5
-99.879997 59.990002 -587.78998
-99.400002 60.02 -588.12
-98.889999 60.040001 -588.28998
-98.349998 60.040001 -588.28998
-97.860001 60.07 -588.58002
-97.389999 60.110001 -589.02002
-96.93 60.16 -589.51001
-96.489998 60.220001 -590.09003
-96.050003 60.290001 -590.70001
-95.610001 60.349998 -591.32001
-95.150002 60.400002 -591.82001
-94.760002 60.5 -592.79999
-94.300003 60.560001 -593.29999
-93.919998 60.66 -594.31
-93.519997 60.75 -595.22998
-93.080002 60.82 -595.88
-70.150002 67.690002 -662.31
-69.400002 67.559998 -661.03998
-68.709999 67.470001 -660.17999
-67.949997 67.330002 -658.79999
-67.239998 67.220001 -657.78003
-66.540001 67.120003 -656.82001
-65.860001 67.040001 -656.02002
-65.190002 66.980003 -655.41998
-64.550003 66.940002 -655.03003
-63.919998 66.910004 -654.76001
-63.299999 66.889999 -654.54999
-62.66 66.839996 -654.12
-62.009998 66.779999 -653.56
-61.369999 66.739998 -653.15997
-60.73 66.699997 -652.79999
-60.110001 66.68 -652.58002
-59.5 66.669998 -652.44
-58.900002 66.660004 -652.39001
-58.299999 66.660004 -652.41998
-57.689999 66.650002 -652.31
-57.07 66.629997 -652.04999
-56.459999 66.610001 -651.88
-55.84 66.589996 -651.69
-55.23 66.580002 -651.57001
-54.630001 66.57 -651.47998
-54.080002 66.620003 -652.02002
-53.48 66.629997 -652.08002
-52.860001 66.599998 -651.78003
-52.240002 66.57 -651.48999
-51.630001 66.550003 -651.35999
-51.029999 66.559998 -651.39001
-50.439999 66.559998 -651.40997
-49.849998 66.580002 -651.59003
-49.279999 66.610001 -651.96002
-48.709999 66.650002 -652.28003
-48.18 66.739998 -653.19
-47.68 66.889999 -654.59998
-47.119999 66.949997 -655.21997
-46.529999 66.949997 -655.26001
-45.939999 66.970001 -655.45001
-45.349998 66.989998 -655.64001
-44.75 66.989998 -655.63
-44.139999 66.980003 -655.53003
-43.529999 66.970001 -655.45001
-42.93 66.980003 -655.46997
-42.349998 67.010002 -655.84003
-41.75 67.010002 -655.83002
-41.16 67.029999 -656
-40.560001 67.029999 -656.01001
-39.959999 67.029999 -656.03998
-39.369999 67.050003 -656.23999
-38.779999 67.080002 -656.45001
-38.18 67.089996 -656.60999
-37.59 67.110001 -656.75
-37 67.129997 -656.94
-36.419998 67.169998 -657.33002
-35.82 67.18 -657.40997
-35.220001 67.190002 -657.54999
-34.619999 67.199997 -657.67999
-34.029999 67.220001 -657.85999
-33.450001 67.269997 -658.33002
-32.860001 67.300003 -658.63
-32.259998 67.309998 -658.67999
-31.65 67.300003 -658.60999
-31.049999 67.309998 -658.75
-30.450001 67.32 -658.79999
-29.860001 67.339996 -659.06
-29.27 67.389999 -659.5
-28.67 67.400002 -659.59003
-28.07 67.400002 -659.60999
-27.469999 67.419998 -659.77002
-26.879999 67.459999 -660.15997
-26.290001 67.5 -660.53998
-25.690001 67.510002 -660.65997
-25.09 67.529999 -660.85999
-24.51 67.610001 -661.59003
-23.93 67.68 -662.28003
-22.41 66.790001 -653.69
-21.790001 66.709999 -652.94
-21.16 66.620003 -652.03998
-20.530001 66.529999 -651.21002
-19.92 66.480003 -650.71997
-19.309999 66.449997 -650.45001
-18.719999 66.449997 -650.40997
-18.120001 66.440002 -650.39001
-17.52 66.449997 -650.46997
-16.93 66.470001 -650.59998
-16.34 66.5 -650.88
-15.76 66.559998 -651.54999
-15.17 66.599998 -651.90002
-14.58 66.650002 -652.34998
-13.99 66.699997 -652.90002
-13.41 66.769997 -653.5
-12.82 66.82 -654
-12.23 66.900002 -654.77002
-11.64 66.959999 -655.34003
-11.05 66.989998 -655.70001
-10.46 67.080002 -656.47998
-9.8599997 67.139999 -657.12
-9.2600002 67.169998 -657.40997
-8.6700001 67.209999 -657.73999
-8.0699997 67.269997 -658.34998
-7.4699998 67.309998 -658.76001
-6.8699999 67.360001 -659.21997
-6.27 67.419998 -659.78998
-5.6700001 67.480003 -660.38
-5.0700002 67.559998 -661.16998
-4.4699998 67.610001 -661.69
-3.8599999 67.690002 -662.38
-3.26 67.739998 -662.87
-2.6500001 67.800003 -663.44
-2.04 67.860001 -664.09998
-1.4400001 67.910004 -664.54999
-0.82999998 67.959999 -665.04999
-0.22 68.040001 -665.82001
0.40000001 68.089996 -666.28998
1.01 68.190002 -667.26001
1.62 68.239998 -667.73999
2.24 68.349998 -668.83002
2.8599999 68.419998 -669.47998
3.48 68.540001 -670.60999
4.0999999 68.690002 -672.03998
4.73 68.849998 -673.65002
5.3600001 68.989998 -674.98999
6 69.230003 -677.33002
6.71 70.190002 -686.52002
7.3499999 70.209999 -686.71002
7.9899998 70.300003 -687.60999
8.6199999 70.300003 -687.65997
9.25 70.330002 -687.85999
9.8900003 70.370003 -688.27002
10.53 70.410004 -688.65002
11.17 70.489998 -689.48999
11.82 70.550003 -690.07001
12.46 70.580002 -690.28998
13.1 70.610001 -690.59003
13.74 70.669998 -691.19
14.39 70.720001 -691.66998
15.04 70.809998 -692.48999
15.69 70.839996 -692.84998
16.33 70.879997 -693.20001
16.98 70.93 -693.65997
17.629999 71 -694.33002
18.290001 71.059998 -694.94
18.950001 71.139999 -695.72998
19.59 71.18 -696.06
20.25 71.220001 -696.53998
20.91 71.290001 -697.15997
21.57 71.349998 -697.71002
22.23 71.43 -698.47998
22.9 71.5 -699.19
23.549999 71.550003 -699.63
24.209999 71.599998 -700.15002
24.879999 71.660004 -700.73999
25.559999 71.760002 -701.67999
26.23 71.82 -702.32001
26.91 71.919998 -703.21002
27.58 71.980003 -703.82001
28.27 72.110001 -705.07001
28.93 72.129997 -705.28003
29.58 72.150002 -705.42999
30.25 72.18 -705.73999
30.93 72.269997 -706.60999
31.610001 72.339996 -707.28998
32.27 72.360001 -707.44
32.93 72.370003 -707.58002
33.59 72.400002 -707.89001
34.27 72.449997 -708.38
34.93 72.480003 -708.63
35.580002 72.480003 -708.59003
36.240002 72.5 -708.84003
36.900002 72.519997 -709.02002
37.57 72.550003 -709.31
38.240002 72.580002 -709.60999
38.91 72.620003 -710.02002
39.580002 72.650002 -710.26001
40.25 72.68 -710.58002
40.939999 72.739998 -711.17999
41.639999 72.82 -711.90002
42.330002 72.889999 -712.56
43.040001 72.989998 -713.54999
43.73 73.050003 -714.07001
49.73 74.160004 -724.82001
50.470001 74.279999 -725.94
51.220001 74.389999 -727.04999
51.919998 74.43 -727.44
52.610001 74.470001 -727.77002
53.32 74.519997 -728.27002
-168.37 59.849998 -591.76001
-167.84 59.849998 -591.77002
-167.32001 59.860001 -591.87
-166.83 59.880001 -592.04999
-166.39999 59.919998 -592.42999
-165.97 59.959999 -592.83002
-165.55 60.009998 -593.27002
-165.10001 60.040001 -593.59003
-164.72 60.099998 -594.16998
-164.25999 60.130001 -594.45001
-163.67999 60.119999 -594.34998
-163.14999 60.119999 -594.38
-163.13 60.32 -596.28003
-141.12 60.029999 -593.37
-140.47 59.98 -592.90997
-139.84 59.950001 -592.59003
-139.24001 59.919998 -592.32001
-138.62 59.889999 -592.02002
-138.02 59.860001 -591.77002
-137.42999 59.84 -591.57001
-136.82001 59.810001 -591.28003
-136.25 59.799999 -591.15997
-135.66 59.779999 -590.96997
-135.11 59.77 -590.90997
-134.53 59.759998 -590.76001
-133.99001 59.759998 -590.73999
-133.42999 59.75 -590.67999
-132.89 59.75 -590.67999
-132.35001 59.75 -590.70001
-131.83 59.759998 -590.78998
-131.3 59.77 -590.83002
-130.66 59.720001 -590.41998
-129.92 59.630001 -589.53003
-129.34 59.610001 -589.32001
-128.78999 59.610001 -589.28003
-128.21001 59.59 -589.13
-127.63 59.57 -588.91998
-127.03 59.540001 -588.65002
-126.43 59.509998 -588.39001
-125.87 59.5 -588.28003
-125.3 59.490002 -588.15997
-124.74 59.48 -588.06
-124.17 59.470001 -587.90997
-123.63 59.470001 -587.90997
-123.08 59.459999 -587.85999
-122.51 59.450001 -587.71997
-121.95 59.439999 -587.63
-121.39 59.43 -587.53003
-120.81 59.400002 -587.32001
-120.26 59.400002 -587.27002
-119.72 59.400002 -587.23999
-119.16 59.389999 -587.14001
-118.6 59.369999 -587.03003
-118.05 59.369999 -587.01001
-117.51 59.369999 -586.98999
-116.98 59.369999 -587.02002
-116.4 59.349998 -586.81
-115.84 59.34 -586.72998
-115.29 59.34 -586.66998
-114.75 59.330002 -586.64001
-114.19 59.32 -586.52002
-113.62 59.310001 -586.39001
-113.07 59.299999 -586.32001
-112.52 59.290001 -586.23999
-111.97 59.290001 -586.20001
-111.43 59.279999 -586.15002
-110.88 59.279999 -586.08002
-110.32 59.27 -586.01001
-109.78 59.259998 -585.96997
-109.21 59.25 -585.79999
-108.66 59.240002 -585.73999
-108.15 59.25 -585.89001
-107.6 59.25 -585.81
-107.04 59.23 -585.66998
-106.51 59.240002 -585.71002
-105.96 59.23 -585.65997
-105.42 59.23 -585.65002
-104.89 59.23 -585.65997
-104.37 59.240002 -585.76001
-103.83 59.240002 -585.75
-103.3 59.240002 -585.78003
-102.78 59.259998 -585.92999
-102.29 59.279999 -586.15997
-101.77 59.290001 -586.25
-101.29 59.32 -586.57001
-100.8 59.349998 -586.85999
-100.34 59.400002 -587.32001
-99.839996 59.419998 -587.52002
-99.349998 59.450001 -587.82001
-98.809998 59.450001 -587.79999
-98.279999 59.459999 -587.87
-97.779999 59.48 -588.13
-97.32 59.529999 -588.57001
-96.849998 59.57 -589.01001
-96.43 59.639999 -589.70001
-95.970001 59.689999 -590.21002
-95.519997 59.75 -590.79999
-95.080002 59.82 -591.40997
-94.660004 59.889999 -592.15002
-94.239998 59.970001 -592.90002
-93.790001 60.029999 -593.47998
-93.400002 60.130001 -594.47998
-93.019997 60.240002 -595.52002
-92.589996 60.310001 -596.25
-92.199997 60.419998 -597.28003
-69.519997 67.07 -662.14001
-68.849998 67.010002 -661.56
-68.129997 66.889999 -660.45001
-67.419998 66.790001 -659.47998
-66.709999 66.690002 -658.45001
-65.980003 66.57 -657.27002
-65.330002 66.519997 -656.81
-64.699997 66.480003 -656.46997
-64.029999 66.410004 -655.78998
-63.369999 66.360001 -655.28003
-62.740002 66.32 -654.90002
-62.09 66.269997 -654.40002
-61.439999 66.220001 -653.96002
-60.82 66.190002 -653.66998
-60.189999 66.160004 -653.38
-59.59 66.169998 -653.40002
-58.98 66.150002 -653.27002
-58.360001 66.139999 -653.09998
-57.740002 66.099998 -652.78998
-57.119999 66.080002 -652.59998
-56.509998 66.07 -652.46002
-55.900002 66.059998 -652.39001
-55.310001 66.07 -652.48999
-54.75 66.120003 -652.95001
-54.150002 66.110001 -652.87
-53.529999 66.089996 -652.63
-52.91 66.07 -652.46997
-52.299999 66.050003 -652.27002
-51.700001 66.040001 -652.22998
-51.09 66.040001 -652.15997
-50.5 66.040001 -652.16998
-49.919998 66.07 -652.52002
-49.369999 66.139999 -653.17999
-48.84 66.230003 -654.07001
-48.349998 66.389999 -655.57001
-47.779999 66.419998 -655.92999
-47.18 66.43 -655.97998
-46.580002 66.43 -655.98999
-45.98 66.43 -656.03003
-45.380001 66.440002 -656.10999
-44.779999 66.43 -656.03998
-44.18 66.440002 -656.09998
-43.57 66.440002 -656.07001
-42.98 66.449997 -656.16998
-42.380001 66.459999 -656.31
-41.779999 66.470001 -656.35999
-41.200001 66.5 -656.67999
-40.619999 66.529999 -656.97998
-40.029999 66.550003 -657.15002
-39.419998 66.540001 -657.08002
-38.82 66.540001 -657.13
-38.23 66.57 -657.34998
-37.630001 66.580002 -657.46997
-37.040001 66.610001 -657.75
-36.450001 66.620003 -657.91998
-35.849998 66.629997 -657.97998
-35.25 66.650002 -658.15997
-34.66 66.660004 -658.29999
-34.07 66.699997 -658.66998
-33.490002 66.739998 -659.06
-32.880001 66.739998 -659.03003
-32.279999 66.739998 -659.09998
-31.67 66.739998 -659.03998
-31.07 66.75 -659.15997
-30.48 66.790001 -659.51001
-29.889999 66.82 -659.87
-29.290001 66.82 -659.87
-28.690001 66.830002 -659.91998
-28.09 66.849998 -660.15997
-27.5 66.900002 -660.63
-26.91 66.940002 -660.98999
-26.299999 66.93 -660.94
-25.700001 66.940002 -661.04999
-25.09 66.949997 -661.07001
-24.5 66.970001 -661.27002
-23.91 67.029999 -661.85999
-23.01 66.169998 -653.57001
-22.389999 66.129997 -653.15002
-21.76 66.040001 -652.25
-21.139999 65.949997 -651.42999
-20.52 65.900002 -650.89001
-19.92 65.870003 -650.59998
-19.299999 65.82 -650.14001
-18.700001 65.800003 -649.92999
-18.110001 65.809998 -650
-17.51 65.809998 -650.03003
-16.92 65.830002 -650.23999
-16.33 65.870003 -650.59003
-15.74 65.900002 -650.91998
-15.16 65.949997 -651.44
-14.57 66.019997 -652.03003
-13.99 66.07 -652.57001
-13.4 66.139999 -653.27002
-12.82 66.209999 -653.90997
-12.23 66.269997 -654.53003
-11.64 66.330002 -655.13
-11.05 66.389999 -655.66998
-10.45 66.459999 -656.33002
-9.8599997 66.519997 -656.97998
-9.2600002 66.559998 -657.28998
-8.6599998 66.589996 -657.59998
-8.0699997 66.639999 -658.15997
-7.4699998 66.690002 -658.60999
-6.8699999 66.739998 -659.06
-6.27 66.809998 -659.78003
-5.6700001 66.860001 -660.23999
-5.0700002 66.93 -660.97998
-4.46 66.970001 -661.29999
-3.8599999 67.059998 -662.20001
-3.26 67.120003 -662.76001
-2.6500001 67.160004 -663.15997
-2.04 67.239998 -663.96997
-1.4400001 67.309998 -664.69
-0.82999998 67.349998 -665.07001
-0.22 67.419998 -665.76001
0.40000001 67.480003 -666.32001
1.01 67.57 -667.17999
1.62 67.620003 -667.66998
2.24 67.75 -668.94
2.8599999 67.82 -669.58002
3.48 67.940002 -670.73999
4.0999999 68.089996 -672.20001
4.73 68.25 -673.81
5.3600001 68.419998 -675.41998
6.0100002 68.720001 -678.34998
6.71 69.510002 -686.10999
7.3499999 69.610001 -687.09003
7.9899998 69.660004 -687.53003
8.6199999 69.660004 -687.52002
9.25 69.690002 -687.82001
9.8900003 69.730003 -688.21002
10.53 69.769997 -688.58002
11.18 69.860001 -689.53003
11.81 69.879997 -689.65002
12.45 69.910004 -689.98999
13.1 69.970001 -690.57001
13.74 70.010002 -690.90997
14.39 70.099998 -691.78998
15.04 70.139999 -692.23999
15.67 70.160004 -692.40002
16.32 70.209999 -692.89001
16.98 70.279999 -693.59003
17.629999 70.349998 -694.26001
18.280001 70.410004 -694.79999
18.93 70.440002 -695.10999
19.58 70.480003 -695.52002
20.23 70.529999 -696.01001
20.889999 70.599998 -696.64001
21.559999 70.669998 -697.40997
22.209999 70.730003 -697.91998
22.870001 70.779999 -698.45001
23.530001 70.839996 -699.02002
24.190001 70.889999 -699.54999
24.84 70.919998 -699.77002
25.530001 71.029999 -700.83002
26.200001 71.120003 -701.76001
26.879999 71.199997 -702.56
27.57 71.309998 -703.56
28.23 71.349998 -703.94
28.879999 71.370003 -704.13
29.559999 71.440002 -704.85999
30.23 71.480003 -705.27002
30.889999 71.529999 -705.71002
31.58 71.610001 -706.47998
32.240002 71.639999 -706.79999
32.900002 71.660004 -707.03003
33.57 71.699997 -707.35999
34.240002 71.760002 -707.95001
34.900002 71.760002 -707.98999
35.549999 71.769997 -708.02002
36.209999 71.779999 -708.19
36.869999 71.809998 -708.46997
37.540001 71.839996 -708.69
38.209999 71.870003 -709.03003
38.869999 71.900002 -709.31
39.549999 71.940002 -709.70001
40.23 71.989998 -710.23999
40.919998 72.050003 -710.78998
41.610001 72.120003 -711.46997
42.290001 72.169998 -711.92999
42.98 72.230003 -712.53998
43.68 72.300003 -713.23999
44.360001 72.349998 -713.69
45.049999 72.400002 -714.13
45.759998 72.480003 -714.90997
46.439999 72.519997 -715.32001
50.450001 73.580002 -725.64001
51.200001 73.690002 -726.69
51.889999 73.730003 -727.13
52.59 73.760002 -727.45001
53.299999 73.830002 -728.10999
-168.42 59.330002 -591.92999
-167.89999 59.330002 -591.97998
-167.38 59.34 -592.07001
-166.89999 59.360001 -592.28998
-166.5 59.41 -592.76001
-166.05 59.450001 -593.12
-165.61 59.490002 -593.48999
-165.21001 59.540001 -593.98999
-164.7 59.549999 -594.10999
-164.32001 59.610001 -594.66998
-140.59 59.490002 -593.44
-139.94 59.439999 -592.98999
-139.3 59.400002 -592.57001
-138.64 59.349998 -592.09003
-138.03 59.32 -591.81
-137.42999 59.299999 -591.58002
-136.82001 59.27 -591.27002
-136.24001 59.25 -591.09998
-135.66 59.240002 -590.96997
-135.09 59.23 -590.84998
-134.53 59.209999 -590.73999
-133.97 59.209999 -590.65997
-133.41 59.200001 -590.58002
-132.87 59.200001 -590.59998
-132.32001 59.200001 -590.58002
-131.81 59.209999 -590.69
-131.24001 59.200001 -590.59003
-130.62 59.16 -590.22998
-129.88 59.07 -589.34998
-129.28999 59.049999 -589.09998
-128.73 59.040001 -589.02002
-128.14 59.02 -588.82001
-127.54 58.990002 -588.54999
-126.96 58.970001 -588.33002
-126.38 58.950001 -588.15002
-125.81 58.939999 -588.01001
-125.25 58.93 -587.92999
-124.68 58.91 -587.78998
-124.13 58.91 -587.73999
-123.57 58.900002 -587.65002
-123.03 58.900002 -587.64001
-122.46 58.880001 -587.46002
-121.89 58.869999 -587.31
-121.35 58.860001 -587.31
-120.76 58.84 -587.07001
-120.2 58.830002 -587
-119.67 58.830002 -587
-119.1 58.82 -586.85999
-118.55 58.810001 -586.82001
-118 58.810001 -586.73999
-117.46 58.810001 -586.72998
-116.92 58.799999 -586.72998
-116.34 58.790001 -586.53998
-115.8 58.779999 -586.52002
-115.24 58.77 -586.40002
-114.69 58.77 -586.34998
-114.14 58.759998 -586.28998
-113.59 58.75 -586.21002
-113.03 58.740002 -586.08002
-112.47 58.73 -586.01001
-111.94 58.73 -586.03998
-111.4 58.73 -585.98999
-110.82 58.709999 -585.79999
-110.27 58.700001 -585.72998
-109.73 58.700001 -585.71997
-109.17 58.689999 -585.59998
-108.63 58.68 -585.57001
-108.09 58.68 -585.56
-107.55 58.68 -585.54999
-106.99 58.669998 -585.44
-106.47 58.68 -585.47998
-105.93 58.68 -585.51001
-105.38 58.669998 -585.44
-104.84 58.669998 -585.40997
-104.32 58.68 -585.48999
-103.79 58.68 -585.54999
-103.26 58.68 -585.57001
-102.75 58.700001 -585.73999
-102.24 58.720001 -585.89001
-101.75 58.740002 -586.15002
-101.26 58.77 -586.40002
-100.76 58.790001 -586.65002
-100.29 58.830002 -587.02002
-99.779999 58.849998 -587.21997
-99.279999 58.869999 -587.40997
-98.739998 58.869999 -587.44
-98.220001 58.880001 -587.53003
-97.730003 58.91 -587.81
-97.260002 58.950001 -588.22998
-96.790001 59 -588.65997
-96.349998 59.060001 -589.25
-95.889999 59.110001 -589.73999
-95.449997 59.169998 -590.38
-95.010002 59.23 -591
-94.580002 59.299999 -591.69
-94.120003 59.349998 -592.17999
-93.730003 59.450001 -593.09998
-93.269997 59.5 -593.65997
-92.889999 59.610001 -594.71997
-92.489998 59.700001 -595.63
-92.080002 59.790001 -596.51001
-91.669998 59.880001 -597.38
-91.309998 60 -598.56
-68.940002 66.480003 -662.38
-68.290001 66.449997 -662.02002
-67.580002 66.339996 -661
-66.860001 66.230003 -659.94
-66.209999 66.18 -659.46002
-65.489998 66.07 -658.34003
-64.790001 65.970001 -657.40002
-64.099998 65.889999 -656.58002
-63.450001 65.839996 -656.07001
-62.779999 65.769997 -655.40002
-62.169998 65.75 -655.22998
-61.52 65.709999 -654.78003
-60.880001 65.669998 -654.38
-60.299999 65.68 -654.53998
-59.689999 65.669998 -654.46997
-59.029999 65.610001 -653.88
-58.419998 65.589996 -653.67999
-57.790001 65.57 -653.41998
-57.169998 65.540001 -653.16998
-56.57 65.550003 -653.20001
-55.990002 65.57 -653.41998
-55.419998 65.599998 -653.75
-54.830002 65.610001 -653.87
-54.189999 65.57 -653.42999
-53.580002 65.550003 -653.31
-52.98 65.550003 -653.25
-52.360001 65.519997 -653.01001
-51.759998 65.519997 -652.98999
-51.16 65.529999 -653.06
-50.580002 65.550003 -653.23999
-50.040001 65.629997 -654.04999
-49.57 65.800003 -655.75
-49.040001 65.900002 -656.66998
-48.43 65.889999 -656.62
-47.84 65.910004 -656.78003
-47.240002 65.900002 -656.76001
-46.639999 65.910004 -656.84003
-46.029999 65.900002 -656.71002
-45.43 65.910004 -656.84998
-44.82 65.900002 -656.70001
-44.220001 65.900002 -656.70001
-43.619999 65.910004 -656.84003
-43.009998 65.900002 -656.70001
-42.419998 65.919998 -656.90002
-41.84 65.949997 -657.27002
-41.25 65.980003 -657.51001
-40.66 65.989998 -657.63
-40.049999 65.980003 -657.56
-39.450001 65.980003 -657.53003
-38.860001 66 -657.77002
-38.27 66.029999 -658.02002
-37.68 66.059998 -658.27002
-37.080002 66.07 -658.46002
-36.48 66.080002 -658.51001
-35.889999 66.099998 -658.69
-35.290001 66.110001 -658.84003
-34.700001 66.150002 -659.15997
-34.110001 66.169998 -659.42999
-33.509998 66.18 -659.47998
-32.900002 66.169998 -659.37
-32.290001 66.169998 -659.35999
-31.690001 66.18 -659.47998
-31.1 66.209999 -659.84003
-30.52 66.260002 -660.32001
-29.92 66.269997 -660.37
-29.309999 66.260002 -660.27002
-28.709999 66.279999 -660.51001
-28.129999 66.330002 -660.97998
-27.530001 66.360001 -661.27002
-26.93 66.360001 -661.32001
-26.32 66.370003 -661.37
-25.709999 66.360001 -661.32001
-25.1 66.339996 -661.12
-24.450001 66.239998 -660.14001
-23.73 65.93 -657.03003
-22.98 65.510002 -652.92999
-22.370001 65.470001 -652.5
-21.74 65.379997 -651.69
-21.120001 65.32 -651.02002
-20.51 65.260002 -650.5
-19.9 65.220001 -650.12
-19.299999 65.199997 -649.91998
-18.690001 65.169998 -649.60999
-18.1 65.169998 -649.60999
-17.5 65.18 -649.72998
-16.91 65.190002 -649.83002
-16.32 65.220001 -650.14001
-15.73 65.269997 -650.54999
-15.15 65.32 -651.04999
-14.56 65.379997 -651.65997
-13.98 65.440002 -652.26001
-13.4 65.510002 -652.91998
-12.81 65.589996 -653.70001
-12.23 65.660004 -654.45001
-11.64 65.730003 -655.07001
-11.04 65.779999 -655.56
-10.45 65.839996 -656.20001
-9.8599997 65.910004 -656.85999
-9.2600002 65.940002 -657.16998
-8.6599998 65.959999 -657.40002
-8.0600004 66.019997 -657.96997
-7.4699998 66.089996 -658.63
-6.8699999 66.120003 -658.96002
-6.27 66.18 -659.57001
-5.6700001 66.239998 -660.10999
-5.0700002 66.32 -660.92999
-4.46 66.360001 -661.28998
-3.8599999 66.440002 -662.08002
-3.26 66.489998 -662.59003
-2.6500001 66.580002 -663.44
-2.04 66.639999 -664.02002
-1.4400001 66.699997 -664.70001
-0.82999998 66.730003 -664.96997
-0.22 66.82 -665.84003
0.40000001 66.860001 -666.23999
1.01 66.959999 -667.20001
1.62 67.010002 -667.65997
2.24 67.160004 -669.15997
2.8599999 67.199997 -669.54999
3.48 67.339996 -670.94
4.0999999 67.510002 -672.62
4.73 67.669998 -674.22998
5.3699999 67.860001 -676.07001
6.0599999 68.669998 -684.04999
6.71 68.900002 -686.26001
7.3499999 68.989998 -687.21002
7.98 69 -687.31
8.6199999 69.010002 -687.38
9.25 69.050003 -687.72998
9.8900003 69.080002 -688.02002
10.53 69.150002 -688.69
11.17 69.209999 -689.34003
11.81 69.220001 -689.44
12.45 69.269997 -689.94
13.09 69.309998 -690.34998
13.74 69.389999 -691.09003
14.39 69.459999 -691.77002
15.03 69.470001 -691.88
15.67 69.5 -692.16998
16.32 69.559998 -692.72998
16.98 69.639999 -693.59003
17.629999 69.699997 -694.12
18.27 69.720001 -694.34003
18.92 69.75 -694.64001
19.57 69.800003 -695.13
20.219999 69.860001 -695.66998
20.879999 69.919998 -696.32001
21.540001 69.989998 -697
22.190001 70.010002 -697.21002
22.85 70.07 -697.78998
23.51 70.139999 -698.5
24.17 70.18 -698.83002
24.83 70.220001 -699.28998
25.51 70.339996 -700.40002
26.190001 70.440002 -701.34998
26.860001 70.489998 -701.90997
27.52 70.550003 -702.47998
28.190001 70.610001 -703.07001
28.85 70.629997 -703.28998
29.51 70.68 -703.78003
30.17 70.709999 -704.09003
30.870001 70.82 -705.10999
31.540001 70.870003 -705.63
32.209999 70.919998 -706.12
32.880001 70.959999 -706.48999
33.540001 71 -706.84998
34.200001 71.019997 -707.09003
34.860001 71.040001 -707.25
35.509998 71.040001 -707.28998
36.18 71.07 -707.57001
36.84 71.099998 -707.87
37.509998 71.129997 -708.15002
38.18 71.160004 -708.48999
38.860001 71.220001 -709.08002
39.529999 71.260002 -709.46997
40.220001 71.32 -709.98999
40.900002 71.370003 -710.47998
41.57 71.389999 -710.72998
42.25 71.449997 -711.25
42.919998 71.480003 -711.59998
43.599998 71.510002 -711.91998
44.330002 71.639999 -713.15002
45 71.660004 -713.32001
45.66 71.669998 -713.45001
46.360001 71.739998 -714.13
47.099998 71.860001 -715.32001
51.169998 72.980003 -726.27002
51.869999 73.029999 -726.77002
52.560001 73.059998 -727.07001
53.290001 73.150002 -727.96997
-167.82001 58.759998 -591.71997
-167.52 58.849998 -592.54999
-167.06 58.880001 -592.84998
-166.59 58.900002 -593.09998
-166.09 58.919998 -593.26001
-165.64 58.950001 -593.59003
-165.06 58.939999 -593.46002
-140.09 58.959999 -593.60999
-139.34 58.880001 -592.77002
-138.73 58.849998 -592.46997
-138.09 58.810001 -592.08002
-137.48 58.779999 -591.78003
-136.87 58.75 -591.47998
-136.28 58.73 -591.28003
-135.66 58.700001 -590.96997
-135.09 58.68 -590.84998
-134.50999 58.669998 -590.66998
-133.97 58.669998 -590.69
-133.41 58.66 -590.58002
-132.85001 58.650002 -590.52002
-132.3 58.650002 -590.46002
-131.77 58.650002 -590.52002
-131.2 58.639999 -590.41998
-130.60001 58.610001 -590.13
-129.84 58.52 -589.17999
-129.25 58.490002 -588.91998
-128.67 58.48 -588.78003
-128.07001 58.450001 -588.47998
-127.49 58.43 -588.28003
-126.91 58.41 -588.13
-126.32 58.380001 -587.88
-125.76 58.380001 -587.79999
-125.2 58.369999 -587.70001
-124.62 58.349998 -587.5
-124.07 58.34 -587.42999
-123.53 58.34 -587.46002
-122.96 58.32 -587.28003
-122.4 58.310001 -587.17999
-121.84 58.310001 -587.12
-121.28 58.290001 -586.98999
-120.71 58.279999 -586.84003
-120.17 58.279999 -586.83002
-119.62 58.27 -586.78998
-119.06 58.259998 -586.66998
-118.51 58.259998 -586.63
-117.96 58.25 -586.57001
-117.44 58.259998 -586.63
-116.88 58.25 -586.54999
-116.32 58.23 -586.40997
-115.76 58.220001 -586.29999
-115.2 58.209999 -586.20001
-114.65 58.209999 -586.15997
-114.1 58.200001 -586.07001
-113.53 58.18 -585.90997
-112.98 58.169998 -585.82001
-112.44 58.18 -585.83002
-111.88 58.16 -585.70001
-111.33 58.16 -585.66998
-110.79 58.16 -585.63
-110.25 58.150002 -585.59003
-109.7 58.139999 -585.53003
-109.14 58.139999 -585.45001
-108.59 58.130001 -585.38
-108.06 58.130001 -585.40997
-107.51 58.130001 -585.34998
-106.96 58.119999 -585.27002
-106.42 58.119999 -585.25
-105.89 58.119999 -585.29999
-105.34 58.110001 -585.22998
-104.81 58.110001 -585.22998
-104.28 58.119999 -585.28998
-103.75 58.119999 -585.32001
-103.23 58.130001 -585.39001
-102.72 58.139999 -585.54999
