# .PCD v0.7 - Point Cloud Data file format
VERSION 0.7
FIELDS x y z
SIZE 4 4 4
TYPE F F F
COUNT 1 1 1
WIDTH 1702
HEIGHT 1
VIEWPOINT 0 0 0 1 0 0 0
POINTS 1702
DATA ascii
-73.699997 -21.93 -602.77002
-73.169998 -21.940001 -602.95001
-72.629997 -21.940001 -603.08002
-72.080002 -21.940001 -603.12
-71.529999 -21.940001 -603.13
-70.980003 -21.950001 -603.19
-70.410004 -21.940001 -603.04999
-69.860001 -21.940001 -603.02002
-69.290001 -21.940001 -602.94
-68.730003 -21.93 -602.90002
-68.190002 -21.940001 -602.94
-67.629997 -21.940001 -602.95001
-67.080002 -21.940001 -602.96997
-66.540001 -21.940001 -603.06
-65.989998 -21.940001 -603.09998
-65.440002 -21.940001 -603.12
-64.889999 -21.940001 -603.16998
-64.330002 -21.940001 -603.09003
-63.77 -21.940001 -603.06
-63.220001 -21.940001 -603.03998
-62.66 -21.940001 -603
-62.110001 -21.940001 -603
-61.560001 -21.940001 -603.04999
-61.009998 -21.940001 -603.09003
-60.470001 -21.940001 -603.22998
-59.939999 -21.950001 -603.41998
-59.419998 -21.959999 -603.71002
-58.880001 -21.969999 -603.85999
-58.349998 -21.98 -604.17999
-57.84 -21.99 -604.57001
-57.330002 -22.01 -605.03003
-56.810001 -22.030001 -605.44
-56.290001 -22.040001 -605.78998
-55.75 -22.040001 -605.90997
-34.259998 -22.530001 -619.14001
-33.650002 -22.5 -618.29999
-33.040001 -22.469999 -617.57001
-32.459999 -22.459999 -617.31
-31.9 -22.459999 -617.28998
-31.34 -22.469999 -617.47998
-30.780001 -22.469999 -617.63
-30.219999 -22.48 -617.83002
-29.66 -22.48 -617.90997
-29.110001 -22.49 -618.12
-28.549999 -22.5 -618.31
-27.99 -22.5 -618.46997
-27.43 -22.51 -618.75
-26.879999 -22.530001 -619.09003
-26.32 -22.530001 -619.28998
-25.77 -22.540001 -619.59003
-25.200001 -22.549999 -619.71997
-24.639999 -22.559999 -619.95001
-24.09 -22.57 -620.31
-23.530001 -22.58 -620.56
-22.969999 -22.59 -620.73999
-22.4 -22.59 -620.81
-21.83 -22.59 -620.83002
-21.27 -22.59 -620.87
-20.700001 -22.6 -620.96002
-20.129999 -22.6 -621.07001
-19.57 -22.6 -621.19
-19 -22.610001 -621.40002
-18.440001 -22.620001 -621.63
-17.879999 -22.629999 -621.84998
-17.309999 -22.639999 -622.08002
-16.75 -22.639999 -622.23999
-16.18 -22.65 -622.5
-15.62 -22.66 -622.84003
-15.06 -22.67 -623.09003
-14.5 -22.690001 -623.54999
-13.94 -22.709999 -624.03003
-13.37 -22.719999 -624.46002
-12.82 -22.75 -625.23999
-12.25 -22.77 -625.81
-11.69 -22.799999 -626.42999
-11.13 -22.809999 -626.91998
-10.56 -22.83 -627.39001
-9.9899998 -22.85 -627.76001
-9.4200001 -22.85 -627.94
-8.8400002 -22.860001 -628.10999
-8.2700005 -22.860001 -628.27002
-7.6999998 -22.870001 -628.48999
-7.1199999 -22.879999 -628.73999
-6.5500002 -22.889999 -628.88
-5.9699998 -22.879999 -628.71002
-5.3899999 -22.860001 -628.07001
-4.8000002 -22.799999 -626.65002
-4.2199998 -22.77 -625.59998
-3.6400001 -22.73 -624.63
-3.0599999 -22.700001 -623.73999
-2.49 -22.66 -622.75
-1.91 -22.629999 -621.88
-1.34 -22.6 -621.03003
-0.76999998 -22.57 -620.40997
-0.2 -22.540001 -619.53003
0.37 -22.52 -618.90997
0.93000001 -22.49 -618.17999
1.5 -22.469999 -617.71997
2.0599999 -22.450001 -617.02002
2.6300001 -22.43 -616.58002
3.1900001 -22.41 -616.04999
3.75 -22.4 -615.59003
4.3099999 -22.379999 -615.26001
4.8699999 -22.370001 -614.90997
5.4400001 -22.360001 -614.56
6 -22.35 -614.28998
6.5599999 -22.34 -614.02002
7.1199999 -22.33 -613.79999
7.6799998 -22.32 -613.57001
8.2399998 -22.309999 -613.38
8.8000002 -22.309999 -613.21997
9.3599997 -22.299999 -613
9.9099998 -22.280001 -612.47998
10.45 -22.24 -611.46002
11 -22.219999 -610.72998
11.55 -22.200001 -610.38
12.11 -22.190001 -610.06
12.66 -22.18 -609.84003
13.21 -22.17 -609.52002
13.77 -22.17 -609.38
14.32 -22.16 -609.21002
14.88 -22.16 -609.13
15.43 -22.15 -609.03003
15.99 -22.15 -608.95001
16.549999 -22.15 -608.94
17.110001 -22.15 -608.90002
17.67 -22.15 -609
18.23 -22.16 -609.16998
18.790001 -22.17 -609.33002
19.360001 -22.17 -609.51001
19.93 -22.18 -609.79999
20.5 -22.190001 -610.08002
21.07 -22.209999 -610.44
21.629999 -22.209999 -610.57001
22.209999 -22.23 -610.95001
22.77 -22.23 -611.13
23.34 -22.24 -611.39001
23.91 -22.25 -611.67999
24.49 -22.26 -611.97998
25.059999 -22.27 -612.27002
25.639999 -22.290001 -612.60999
26.209999 -22.299999 -612.92999
26.790001 -22.309999 -613.31
27.370001 -22.32 -613.57001
27.950001 -22.34 -614
28.530001 -22.35 -614.38
29.110001 -22.370001 -614.84998
29.700001 -22.389999 -615.38
30.290001 -22.41 -615.82001
30.879999 -22.42 -616.34003
31.48 -22.450001 -616.95001
32.080002 -22.469999 -617.62
32.68 -22.5 -618.31
33.290001 -22.52 -618.96997
33.880001 -22.540001 -619.44
34.470001 -22.549999 -619.75
35.049999 -22.559999 -620.03998
35.630001 -22.57 -620.28003
36.209999 -22.58 -620.48999
36.790001 -22.58 -620.60999
37.360001 -22.58 -620.65002
37.950001 -22.59 -620.88
38.509998 -22.59 -620.79999
39.09 -22.6 -620.92999
39.669998 -22.6 -621.10999
40.240002 -22.6 -621.14001
40.82 -22.610001 -621.29999
41.400002 -22.620001 -621.46002
41.970001 -22.620001 -621.46997
42.560001 -22.620001 -621.65002
43.130001 -22.629999 -621.72998
43.709999 -22.629999 -621.85999
44.290001 -22.629999 -621.96997
44.869999 -22.639999 -622.14001
45.450001 -22.65 -622.29999
46.049999 -22.66 -622.57001
46.630001 -22.67 -622.79999
47.220001 -22.67 -623.04999
47.82 -22.68 -623.29999
48.41 -22.690001 -623.53003
49 -22.700001 -623.85999
49.619999 -22.719999 -624.34003
50.240002 -22.75 -625.01001
50.860001 -22.77 -625.52002
51.48 -22.790001 -626.09998
52.080002 -22.799999 -626.40997
52.669998 -22.809999 -626.63
53.27 -22.82 -626.87
53.860001 -22.82 -627.09998
54.470001 -22.84 -627.39001
55.09 -22.85 -627.88
55.700001 -22.870001 -628.31
56.34 -22.9 -629.04999
57.029999 -22.940001 -630.28003
57.82 -23.02 -632.48999
58.509998 -23.07 -633.65002
59.200001 -23.110001 -634.79999
59.869999 -23.15 -635.77002
60.599998 -23.200001 -637.22998
61.389999 -23.280001 -639.38
62.07 -23.309999 -640.28003
62.720001 -23.34 -640.92999
63.400002 -23.370001 -641.82001
79.82 -23.35 -641.25
80.099998 -23.26 -638.81
80.449997 -23.190001 -636.97998
80.800003 -23.120001 -635.10999
81.150002 -23.059999 -633.33002
81.580002 -23.02 -632.16998
82 -22.969999 -630.95001
82.389999 -22.92 -629.53998
82.779999 -22.870001 -628.14001
83.139999 -22.809999 -626.52002
83.489998 -22.75 -624.87
83.849998 -22.690001 -623.28998
84.230003 -22.639999 -621.90002
84.669998 -22.6 -620.95001
85.099998 -22.57 -619.97998
85.599998 -22.549999 -619.45001
86.07 -22.52 -618.78998
86.550003 -22.5 -618.15002
87.050003 -22.48 -617.67999
87.57 -22.469999 -617.33002
88.059998 -22.450001 -616.78003
88.57 -22.440001 -616.40997
89.089996 -22.43 -616.12
89.620003 -22.42 -615.89001
90.139999 -22.41 -615.59998
90.669998 -22.4 -615.31
91.199997 -22.389999 -615.13
91.75 -22.379999 -615
92.290001 -22.379999 -614.83002
92.860001 -22.379999 -614.85999
93.419998 -22.379999 -614.88
94 -22.379999 -614.98999
94.580002 -22.389999 -615.08002
95.190002 -22.4 -615.38
95.82 -22.41 -615.78998
96.449997 -22.43 -616.17999
97.150002 -22.459999 -616.97998
97.82 -22.48 -617.64001
98.540001 -22.52 -618.62
99.32 -22.57 -619.89001
100.2 -22.639999 -621.83002
-164.67999 -20.98 -562.88
-164.23 -20.99 -563.10999
-163.75 -20.99 -563.22998
-163.27 -21 -563.34003
-162.78999 -21 -563.46002
-162.35001 -21.01 -563.71997
-161.86 -21.01 -563.79999
-161.38 -21.02 -563.91998
-160.91 -21.02 -564.08002
-160.42999 -21.030001 -564.19
-159.92999 -21.030001 -564.25
-159.45 -21.040001 -564.39001
-158.98 -21.040001 -564.54999
-158.46001 -21.040001 -564.54999
-157.92 -21.040001 -564.44
-157.44 -21.040001 -564.57001
-156.91 -21.040001 -564.53998
-156.39999 -21.040001 -564.56
-155.89999 -21.049999 -564.63
-155.39 -21.049999 -564.63
-154.87 -21.049999 -564.63
-154.35001 -21.049999 -564.60999
-153.81 -21.040001 -564.53998
-153.28999 -21.040001 -564.53003
-152.75999 -21.040001 -564.48999
-152.24001 -21.040001 -564.46997
-151.69 -21.040001 -564.34003
-151.08 -21.02 -564.02002
-150.5 -21.01 -563.76001
-149.96001 -21.01 -563.67999
-149.44 -21.01 -563.67999
-148.92 -21.01 -563.65997
-148.37 -21.01 -563.53003
-147.84 -21 -563.46997
-147.32001 -21 -563.47998
-146.8 -21 -563.45001
-146.25999 -21 -563.37
-145.78 -21 -563.51001
-145.28999 -21.01 -563.60999
-144.86 -21.02 -563.91998
-144.35001 -21.02 -563.96002
-143.81 -21.02 -563.87
-143.3 -21.02 -563.90002
-142.77 -21.02 -563.82001
-142.24001 -21.01 -563.77002
-141.69 -21.01 -563.65997
-141.14999 -21.01 -563.56
-140.62 -21.01 -563.51001
-140.09 -21 -563.45001
-139.53 -21 -563.28003
-139.00999 -21 -563.26001
-138.48 -20.99 -563.21997
-137.97 -20.99 -563.21997
-137.39 -20.98 -562.95001
-136.87 -20.98 -562.94
-136.35001 -20.98 -562.92999
-135.83 -20.98 -562.90002
-135.28999 -20.98 -562.84003
-134.78 -20.98 -562.85999
-134.22 -20.969999 -562.66998
-133.72 -20.969999 -562.71002
-133.19 -20.969999 -562.65002
-132.67 -20.969999 -562.64001
-132.14 -20.969999 -562.57001
-131.58 -20.959999 -562.38
-130.96001 -20.950001 -561.95001
-130.25999 -20.92 -561.17999
-129.69 -20.91 -560.94
-129.16 -20.9 -560.87
-128.61 -20.9 -560.71002
-128.09 -20.9 -560.69
-127.55 -20.889999 -560.56
-127.01 -20.889999 -560.46997
-126.47 -20.889999 -560.35999
-125.92 -20.879999 -560.20001
-125.38 -20.870001 -560.06
-124.86 -20.870001 -560.04999
-124.31 -20.870001 -559.87
-123.8 -20.870001 -559.89001
-123.28 -20.870001 -559.88
-122.76 -20.860001 -559.81
-122.24 -20.860001 -559.78003
-121.71 -20.860001 -559.72998
-121.2 -20.860001 -559.73999
-120.68 -20.860001 -559.69
-120.16 -20.860001 -559.69
-119.66 -20.860001 -559.75
-119.16 -20.860001 -559.79999
-118.64 -20.860001 -559.75
-118.11 -20.860001 -559.70001
-117.58 -20.860001 -559.60999
-117.07 -20.860001 -559.62
-116.58 -20.860001 -559.71002
-116.06 -20.860001 -559.69
-115.55 -20.860001 -559.67999
-115.03 -20.860001 -559.66998
-114.53 -20.860001 -559.72998
-114.01 -20.860001 -559.71997
-113.51 -20.860001 -559.77002
-113 -20.860001 -559.79999
-112.51 -20.870001 -559.89001
-112.02 -20.870001 -559.98999
-111.5 -20.870001 -559.98999
-111.02 -20.870001 -560.12
-110.52 -20.879999 -560.20001
-110.03 -20.879999 -560.29999
-109.53 -20.879999 -560.38
-109.04 -20.889999 -560.51001
-108.55 -20.889999 -560.60999
-108.05 -20.9 -560.67999
-107.54 -20.9 -560.75
-107.06 -20.9 -560.90002
-106.57 -20.91 -561
-106.07 -20.91 -561.12
-105.59 -20.92 -561.28998
-105.11 -20.92 -561.46002
-104.62 -20.93 -561.59003
-104.12 -20.93 -561.67999
-103.64 -20.940001 -561.87
-103.17 -20.950001 -562.09998
-102.68 -20.950001 -562.21997
-102.22 -20.969999 -562.56
-101.73 -20.969999 -562.66998
-101.26 -20.98 -562.94
-100.77 -20.99 -563.09998
-100.3 -20.99 -563.31
-99.82 -21 -563.53003
-99.349998 -21.01 -563.81
-98.879997 -21.02 -564.04999
-98.410004 -21.030001 -564.29999
-97.940002 -21.040001 -564.57001
-97.459999 -21.049999 -564.79999
-96.980003 -21.059999 -565.03998
-96.510002 -21.07 -565.28998
-96.040001 -21.08 -565.58002
-95.580002 -21.09 -565.91998
-95.089996 -21.1 -566.07001
-94.620003 -21.110001 -566.37
-94.150002 -21.120001 -566.67999
-93.690002 -21.129999 -567.01001
-93.209999 -21.139999 -567.23999
-92.739998 -21.15 -567.53998
-92.269997 -21.17 -567.88
-91.809998 -21.18 -568.21002
-91.330002 -21.190001 -568.5
-90.879997 -21.209999 -568.96002
-90.410004 -21.219999 -569.26001
-89.959999 -21.23 -569.71002
-89.5 -21.25 -570.10999
-89.059998 -21.27 -570.62
-88.610001 -21.290001 -571.08002
-88.169998 -21.309999 -571.58002
-87.720001 -21.32 -572.07001
-87.279999 -21.34 -572.63
-86.849998 -21.370001 -573.21997
-86.449997 -21.4 -574.04999
-86.050003 -21.43 -574.90002
-85.669998 -21.469999 -575.89001
-88.989998 -22.440001 -601.46002
-88.849998 -22.540001 -604.23999
-88.269997 -22.530001 -604.07001
-87.690002 -22.530001 -603.90997
-87.120003 -22.52 -603.78998
-86.529999 -22.52 -603.58002
-85.970001 -22.51 -603.47998
-85.389999 -22.51 -603.33002
-84.82 -22.5 -603.21997
-84.25 -22.5 -603.12
-83.690002 -22.49 -603.03003
-83.120003 -22.49 -602.96002
-82.57 -22.49 -602.92999
-82.010002 -22.49 -602.90997
-81.459999 -22.49 -602.96002
-80.919998 -22.49 -603
-80.379997 -22.5 -603.12
-79.839996 -22.5 -603.23999
-79.309998 -22.51 -603.40002
-78.769997 -22.51 -603.53003
-78.230003 -22.52 -603.62
-77.68 -22.51 -603.59998
-77.120003 -22.51 -603.57001
-76.529999 -22.5 -603.29999
-75.949997 -22.5 -603.09003
-75.389999 -22.49 -603.01001
-74.82 -22.49 -602.90997
-74.269997 -22.49 -602.90002
-73.709999 -22.49 -602.90997
-73.169998 -22.49 -602.94
-72.639999 -22.5 -603.15002
-72.089996 -22.5 -603.19
-71.540001 -22.5 -603.20001
-70.980003 -22.5 -603.19
-70.410004 -22.49 -603.03998
-69.849998 -22.49 -602.95001
-69.290001 -22.49 -602.90997
-68.730003 -22.49 -602.88
-68.169998 -22.48 -602.83002
-67.620003 -22.48 -602.78003
-67.07 -22.48 -602.84003
-66.529999 -22.49 -602.94
-65.980003 -22.49 -603.02002
-65.43 -22.49 -603.03003
-64.889999 -22.49 -603.13
-64.339996 -22.49 -603.12
-63.77 -22.49 -603.03998
-63.200001 -22.49 -602.89001
-62.639999 -22.48 -602.78998
-62.09 -22.48 -602.77002
-61.540001 -22.48 -602.82001
-61 -22.49 -602.90997
-60.450001 -22.49 -603
-59.919998 -22.5 -603.19
-59.389999 -22.51 -603.47998
-58.860001 -22.51 -603.66998
-58.34 -22.530001 -604.01001
-57.82 -22.540001 -604.40002
-57.32 -22.559999 -604.90997
-56.810001 -22.58 -605.46997
-56.299999 -22.6 -605.94
-55.75 -22.6 -605.97998
-34.299999 -23.120001 -619.76001
-33.700001 -23.1 -619.15997
-33.09 -23.07 -618.34003
-32.5 -23.049999 -618.03998
-31.940001 -23.049999 -618.03998
-31.370001 -23.049999 -618
-30.799999 -23.059999 -618.09003
-30.25 -23.059999 -618.28003
-29.68 -23.07 -618.34003
-29.120001 -23.07 -618.46002
-28.559999 -23.08 -618.60999
-28 -23.08 -618.79999
-27.450001 -23.09 -619.10999
-26.889999 -23.110001 -619.38
-26.33 -23.110001 -619.53998
-25.780001 -23.120001 -619.82001
-25.219999 -23.129999 -620.08002
-24.66 -23.139999 -620.35999
-24.1 -23.15 -620.63
-23.540001 -23.16 -620.83002
-22.98 -23.17 -621.12
-22.42 -23.18 -621.32001
-21.85 -23.18 -621.38
-21.280001 -23.18 -621.40002
-20.719999 -23.18 -621.51001
-20.15 -23.190001 -621.56
-19.59 -23.190001 -621.73999
-19.02 -23.200001 -621.85999
-18.459999 -23.209999 -622.09998
-17.889999 -23.209999 -622.21997
-17.32 -23.219999 -622.40002
-16.76 -23.23 -622.64001
-16.200001 -23.24 -622.90002
-15.63 -23.25 -623.25
-15.07 -23.26 -623.48999
-14.5 -23.27 -623.85999
-13.94 -23.290001 -624.29999
-13.38 -23.309999 -624.88
-12.82 -23.33 -625.46997
-12.26 -23.360001 -626.01001
-11.7 -23.379999 -626.72998
-11.13 -23.4 -627.26001
-10.57 -23.42 -627.83002
-10 -23.440001 -628.16998
-9.4300003 -23.450001 -628.46997
-8.8500004 -23.459999 -628.71002
-8.2799997 -23.469999 -628.96997
-7.71 -23.48 -629.22998
-7.1300001 -23.49 -629.51001
-6.5599999 -23.49 -629.62
-5.98 -23.49 -629.57001
-5.4000001 -23.469999 -629.14001
-4.8099999 -23.42 -627.60999
-4.2199998 -23.370001 -626.45001
-3.6400001 -23.33 -625.22998
-3.0699999 -23.290001 -624.35999
-2.49 -23.25 -623.32001
-1.91 -23.219999 -622.41998
-1.34 -23.190001 -621.65997
-0.76999998 -23.16 -620.90002
-0.2 -23.129999 -620.14001
0.37 -23.1 -619.34998
0.93000001 -23.08 -618.71002
1.5 -23.049999 -618.08002
2.0599999 -23.030001 -617.46997
2.6300001 -23.01 -616.91998
3.1900001 -22.99 -616.41998
3.75 -22.969999 -615.96997
4.3200002 -22.959999 -615.58002
4.8800001 -22.950001 -615.28003
5.4400001 -22.93 -614.89001
6 -22.93 -614.66998
6.5599999 -22.91 -614.31
7.1199999 -22.9 -614.07001
7.6799998 -22.9 -613.87
8.2399998 -22.889999 -613.73999
8.8000002 -22.879999 -613.51001
9.3599997 -22.879999 -613.38
9.9200001 -22.860001 -613.02002
10.47 -22.84 -612.37
11.01 -22.799999 -611.40002
11.56 -22.780001 -610.83002
12.11 -22.77 -610.42999
12.67 -22.76 -610.20001
13.22 -22.75 -609.90997
13.78 -22.74 -609.70001
14.33 -22.73 -609.56
14.89 -22.73 -609.48999
15.44 -22.719999 -609.33002
16 -22.719999 -609.33002
16.559999 -22.719999 -609.17999
17.120001 -22.719999 -609.25
17.68 -22.719999 -609.34003
18.24 -22.73 -609.46002
18.799999 -22.73 -609.59003
19.370001 -22.74 -609.76001
19.93 -22.75 -609.88
20.5 -22.76 -610.21997
21.07 -22.77 -610.58002
21.639999 -22.780001 -610.71997
22.209999 -22.790001 -611.04999
22.780001 -22.799999 -611.32001
23.35 -22.809999 -611.53003
23.92 -22.82 -611.85999
24.5 -22.84 -612.28003
25.07 -22.85 -612.53998
25.65 -22.860001 -612.90002
26.23 -22.870001 -613.27002
26.799999 -22.879999 -613.57001
27.379999 -22.9 -613.96997
27.959999 -22.91 -614.28003
28.549999 -22.93 -614.73999
29.129999 -22.950001 -615.17999
29.719999 -22.959999 -615.64001
30.309999 -22.99 -616.26001
30.9 -23.01 -616.75
31.51 -23.030001 -617.48999
32.099998 -23.049999 -618.03003
32.709999 -23.09 -618.84003
33.310001 -23.110001 -619.39001
33.900002 -23.120001 -619.89001
34.490002 -23.139999 -620.25
35.07 -23.139999 -620.39001
35.650002 -23.15 -620.53003
36.23 -23.16 -620.77002
36.810001 -23.16 -620.90002
37.380001 -23.17 -620.96002
37.950001 -23.17 -621
38.540001 -23.18 -621.27002
39.119999 -23.18 -621.40002
39.689999 -23.190001 -621.48999
40.27 -23.190001 -621.64001
40.849998 -23.200001 -621.75
41.43 -23.200001 -621.90002
42 -23.200001 -621.88
42.59 -23.209999 -622.14001
43.169998 -23.209999 -622.23999
43.75 -23.219999 -622.34998
44.32 -23.219999 -622.44
44.91 -23.23 -622.66998
45.5 -23.24 -622.84998
46.09 -23.25 -623.15997
46.68 -23.26 -623.37
47.27 -23.27 -623.62
47.860001 -23.280001 -623.85999
48.459999 -23.290001 -624.27002
49.080002 -23.309999 -624.76001
49.68 -23.33 -625.20001
50.310001 -23.35 -625.85999
50.919998 -23.370001 -626.33002
51.529999 -23.389999 -626.71002
52.130001 -23.389999 -626.96997
52.720001 -23.4 -627.16998
53.310001 -23.41 -627.32001
53.91 -23.42 -627.57001
54.52 -23.43 -627.96002
55.139999 -23.450001 -628.46997
55.779999 -23.48 -629.20001
56.48 -23.530001 -630.51001
57.27 -23.620001 -632.81
57.959999 -23.66 -634.01001
58.619999 -23.690001 -634.82001
59.279999 -23.73 -635.67999
60 -23.780001 -637.08002
60.889999 -23.9 -640.28998
61.619999 -23.959999 -641.78998
80.080002 -24.02 -643.32001
80.370003 -23.93 -640.91998
80.599998 -23.82 -638.10999
80.959999 -23.76 -636.37
81.290001 -23.68 -634.41998
81.660004 -23.620001 -632.78003
82.080002 -23.57 -631.58002
82.480003 -23.52 -630.25
82.870003 -23.469999 -628.84003
83.260002 -23.42 -627.45001
83.620003 -23.360001 -625.84003
83.970001 -23.290001 -624.15997
84.339996 -23.24 -622.69
84.760002 -23.200001 -621.58002
85.169998 -23.15 -620.47998
85.639999 -23.129999 -619.77002
86.129997 -23.110001 -619.19
86.610001 -23.08 -618.54999
87.099998 -23.059999 -618
87.599998 -23.040001 -617.53998
88.099998 -23.030001 -617.09998
88.610001 -23.01 -616.71002
89.120003 -23 -616.34003
89.650002 -22.99 -616.07001
90.18 -22.98 -615.85999
90.709999 -22.969999 -615.58002
91.25 -22.959999 -615.44
91.790001 -22.959999 -615.28003
92.339996 -22.959999 -615.16998
92.900002 -22.959999 -615.17999
93.459999 -22.950001 -615.13
94.050003 -22.959999 -615.28998
94.639999 -22.969999 -615.46002
95.25 -22.98 -615.73999
95.889999 -22.99 -616.19
96.529999 -23.01 -616.65997
97.190002 -23.030001 -617.22998
97.889999 -23.07 -618.09998
98.599998 -23.1 -618.97998
99.379997 -23.15 -620.31
-164.67 -21.49 -562.84998
-164.22 -21.5 -563.08002
-163.75 -21.51 -563.22998
-163.31 -21.52 -563.46002
-162.85001 -21.530001 -563.66998
-162.36 -21.530001 -563.75
-161.89 -21.530001 -563.89001
-161.39 -21.540001 -563.96002
-160.92 -21.540001 -564.12
-160.42999 -21.549999 -564.21997
-159.94 -21.549999 -564.31
-159.45 -21.549999 -564.38
-158.96001 -21.559999 -564.47998
-158.48 -21.559999 -564.62
-157.94 -21.559999 -564.53003
-157.42999 -21.559999 -564.53998
-156.92 -21.559999 -564.59003
-156.42999 -21.57 -564.67999
-155.92999 -21.57 -564.71997
-155.42 -21.57 -564.75
-154.92 -21.57 -564.83002
-154.38 -21.57 -564.75
-153.84 -21.559999 -564.64001
-153.31 -21.559999 -564.59998
-152.78 -21.559999 -564.56
-152.27 -21.559999 -564.58002
-151.69 -21.549999 -564.35999
-151.14 -21.549999 -564.21997
-150.56 -21.540001 -564
-150.00999 -21.530001 -563.85999
-149.49001 -21.530001 -563.84003
-148.94 -21.530001 -563.71997
-148.39999 -21.530001 -563.63
-147.88 -21.530001 -563.63
-147.36 -21.52 -563.59998
-146.83 -21.52 -563.53998
-146.3 -21.52 -563.52002
-145.78 -21.52 -563.51001
-145.34 -21.530001 -563.77002
-144.85001 -21.540001 -563.87
-144.38 -21.540001 -564.06
-143.82001 -21.540001 -563.88
-143.31 -21.540001 -563.90997
-142.77 -21.530001 -563.84998
-142.22 -21.530001 -563.71997
-141.67999 -21.530001 -563.63
-141.14 -21.52 -563.53003
-140.60001 -21.52 -563.44
-140.08 -21.52 -563.40997
-139.52 -21.51 -563.22998
-139.02 -21.51 -563.28998
-138.47 -21.51 -563.17999
-137.96001 -21.51 -563.20001
-137.39999 -21.5 -563
-136.85001 -21.5 -562.88
-136.32001 -21.49 -562.81
-135.81 -21.5 -562.83002
-135.3 -21.5 -562.84003
-134.78 -21.49 -562.83002
-134.23 -21.49 -562.71002
-133.71001 -21.49 -562.66998
-133.19 -21.49 -562.67999
-132.67999 -21.49 -562.69
-132.12 -21.48 -562.51001
-131.56 -21.469999 -562.31
-130.97 -21.459999 -562
-130.28 -21.43 -561.26001
-129.69 -21.42 -560.94
-129.17 -21.42 -560.89001
-128.63 -21.42 -560.78003
-128.11 -21.41 -560.76001
-127.56 -21.41 -560.60999
-127.02 -21.4 -560.48999
-126.49 -21.4 -560.42999
-125.92 -21.389999 -560.19
-125.39 -21.389999 -560.13
-124.88 -21.389999 -560.13
-124.34 -21.389999 -560.02002
-123.82 -21.379999 -559.97998
-123.31 -21.379999 -559.97998
-122.78 -21.379999 -559.91998
-122.26 -21.379999 -559.90997
-121.75 -21.379999 -559.90002
-121.21 -21.379999 -559.79999
-120.69 -21.379999 -559.76001
-120.18 -21.379999 -559.76001
-119.68 -21.379999 -559.81
-119.16 -21.379999 -559.79999
-118.65 -21.379999 -559.81
-118.13 -21.370001 -559.76001
-117.6 -21.370001 -559.69
-117.09 -21.370001 -559.71002
-116.59 -21.370001 -559.75
-116.08 -21.370001 -559.76001
-115.56 -21.370001 -559.76001
-115.05 -21.370001 -559.77002
-114.54 -21.379999 -559.79999
-114.04 -21.379999 -559.82001
-113.53 -21.379999 -559.84998
-113.02 -21.379999 -559.85999
-112.52 -21.379999 -559.94
-112.02 -21.379999 -560.01001
-111.52 -21.389999 -560.08002
-111.01 -21.389999 -560.08002
-110.52 -21.389999 -560.21002
-110.04 -21.4 -560.34998
-109.54 -21.4 -560.44
-109.04 -21.4 -560.52002
-108.56 -21.41 -560.66998
-108.06 -21.41 -560.75
-107.55 -21.41 -560.76001
-107.07 -21.42 -560.95001
-106.58 -21.42 -561.06
-106.1 -21.43 -561.25
-105.59 -21.43 -561.29999
-105.1 -21.440001 -561.40997
-104.62 -21.440001 -561.57001
-104.13 -21.450001 -561.75
-103.66 -21.459999 -561.94
-103.17 -21.459999 -562.12
-102.7 -21.469999 -562.33002
-102.22 -21.48 -562.53003
-101.74 -21.49 -562.72998
-101.27 -21.5 -563
-100.78 -21.5 -563.13
-100.31 -21.51 -563.35999
-99.830002 -21.52 -563.59003
-99.360001 -21.530001 -563.85999
-98.879997 -21.540001 -564.06
-98.419998 -21.549999 -564.37
-97.940002 -21.559999 -564.59003
-97.470001 -21.57 -564.87
-97 -21.58 -565.10999
-96.529999 -21.59 -565.38
-96.040001 -21.6 -565.56
-95.559998 -21.610001 -565.79999
-95.080002 -21.610001 -566.03003
-94.620003 -21.629999 -566.38
-94.150002 -21.639999 -566.66998
-93.68 -21.65 -566.97998
-93.199997 -21.66 -567.21002
-92.739998 -21.67 -567.58002
-92.260002 -21.68 -567.82001
-91.790001 -21.700001 -568.14001
-91.330002 -21.709999 -568.48999
-90.879997 -21.73 -568.90002
-90.410004 -21.74 -569.23999
-89.959999 -21.76 -569.71002
-89.510002 -21.77 -570.13
-89.050003 -21.790001 -570.53003
-88.599998 -21.809999 -571
-88.160004 -21.83 -571.54999
-87.730003 -21.85 -572.12
-87.279999 -21.870001 -572.63
-86.839996 -21.889999 -573.19
-86.43 -21.92 -573.91998
-86.040001 -21.950001 -574.79999
-85.690002 -22 -576
-89.029999 -23 -601.75
-88.889999 -23.110001 -604.53003
-88.309998 -23.1 -604.38
-87.730003 -23.09 -604.19
-87.150002 -23.09 -604.03003
-86.57 -23.08 -603.81
-85.980003 -23.07 -603.59998
-85.419998 -23.07 -603.52002
-84.849998 -23.059999 -603.41998
-84.279999 -23.059999 -603.28003
-83.720001 -23.059999 -603.23999
-83.160004 -23.049999 -603.21997
-82.610001 -23.049999 -603.21002
-82.019997 -23.049999 -603
-81.480003 -23.049999 -603.04999
-80.93 -23.049999 -603.13
-80.389999 -23.049999 -603.21997
-79.849998 -23.059999 -603.31
-79.32 -23.059999 -603.5
-78.800003 -23.07 -603.69
-78.260002 -23.08 -603.81
-77.709999 -23.08 -603.89001
-77.139999 -23.07 -603.76001
-76.559998 -23.07 -603.57001
-75.980003 -23.059999 -603.34003
-75.400002 -23.049999 -603.14001
-74.839996 -23.049999 -603.08002
-74.279999 -23.040001 -602.98999
-73.730003 -23.049999 -603.02002
-73.169998 -23.040001 -603.02002
-72.639999 -23.049999 -603.17999
-72.089996 -23.049999 -603.20001
-71.529999 -23.049999 -603.16998
-70.970001 -23.049999 -603.10999
-70.400002 -23.040001 -602.95001
-69.830002 -23.040001 -602.78998
-69.269997 -23.030001 -602.76001
-68.699997 -23.030001 -602.63
-68.150002 -23.030001 -602.64001
-67.589996 -23.030001 -602.59003
-67.040001 -23.030001 -602.59003
-66.5 -23.030001 -602.69
-65.959999 -23.040001 -602.79999
-65.419998 -23.040001 -602.94
-64.879997 -23.040001 -603.03003
-64.32 -23.040001 -602.94
-63.75 -23.040001 -602.87
-63.189999 -23.030001 -602.73999
-62.619999 -23.030001 -602.63
-62.07 -23.030001 -602.58002
-61.52 -23.030001 -602.60999
-60.970001 -23.030001 -602.67999
-60.43 -23.030001 -602.79999
-59.889999 -23.040001 -602.95001
-59.360001 -23.049999 -603.17999
-58.84 -23.059999 -603.44
-58.32 -23.07 -603.83002
-57.810001 -23.09 -604.31
-57.310001 -23.110001 -604.82001
-56.810001 -23.139999 -605.45001
-56.310001 -23.16 -606.01001
-34.34 -23.719999 -620.53998
-33.73 -23.690001 -619.81
-33.139999 -23.67 -619.28003
-32.560001 -23.66 -619.08002
-31.98 -23.65 -618.90002
-31.41 -23.65 -618.82001
-30.84 -23.65 -618.76001
-30.27 -23.65 -618.79999
-29.709999 -23.65 -618.82001
-29.139999 -23.65 -618.90997
-28.59 -23.66 -619.14001
-28.02 -23.67 -619.26001
-27.469999 -23.68 -619.5
-26.91 -23.68 -619.64001
-26.35 -23.690001 -619.89001
-25.790001 -23.700001 -620.03998
-25.23 -23.709999 -620.45001
-24.68 -23.719999 -620.70001
-24.120001 -23.74 -621.01001
-23.559999 -23.74 -621.23999
-23 -23.76 -621.59998
-22.440001 -23.77 -621.78003
-21.879999 -23.780001 -622.10999
-21.309999 -23.780001 -622.25
-20.74 -23.780001 -622.23999
-20.17 -23.790001 -622.29999
-19.6 -23.790001 -622.29999
-19.040001 -23.790001 -622.38
-18.469999 -23.790001 -622.53003
-17.91 -23.799999 -622.78003
-17.34 -23.809999 -622.90002
-16.77 -23.82 -623.16998
-16.209999 -23.83 -623.34998
-15.64 -23.83 -623.53998
-15.08 -23.85 -623.95001
-14.51 -23.860001 -624.29999
-13.95 -23.879999 -624.84998
-13.39 -23.9 -625.26001
-12.83 -23.92 -625.78998
-12.27 -23.940001 -626.37
-11.7 -23.969999 -626.95001
-11.14 -23.99 -627.64001
-10.58 -24.02 -628.34003
-10.01 -24.040001 -628.82001
-9.4399996 -24.049999 -629.21997
-8.8599997 -24.059999 -629.41998
-8.29 -24.07 -629.77002
-7.7199998 -24.08 -629.98999
-7.1399999 -24.09 -630.20001
-6.5700002 -24.1 -630.48999
-5.9899998 -24.1 -630.40997
-5.4099998 -24.09 -630.13
-4.8200002 -24.040001 -629
-4.23 -23.99 -627.52002
-3.6500001 -23.940001 -626.22998
-3.0699999 -23.9 -625.20001
-2.49 -23.860001 -624.15997
-1.92 -23.82 -623.26001
-1.34 -23.780001 -622.28998
-0.76999998 -23.76 -621.65002
-0.2 -23.719999 -620.71997
0.37 -23.700001 -620.04999
0.93000001 -23.67 -619.27002
1.5 -23.65 -618.73999
2.0699999 -23.620001 -618.02002
2.6300001 -23.6 -617.42999
3.1900001 -23.57 -616.84998
3.76 -23.559999 -616.46997
4.3200002 -23.540001 -616.06
4.8800001 -23.530001 -615.72998
5.4400001 -23.52 -615.38
6 -23.5 -615.07001
6.5599999 -23.49 -614.70001
7.1300001 -23.49 -614.57001
7.6900001 -23.48 -614.32001
8.25 -23.469999 -614.06
8.8100004 -23.459999 -613.85999
9.3699999 -23.450001 -613.72998
9.9300003 -23.450001 -613.54999
10.48 -23.43 -613.23999
11.03 -23.389999 -612.12
11.57 -23.370001 -611.47998
12.12 -23.35 -610.97998
12.68 -23.34 -610.75
13.23 -23.33 -610.45001
13.79 -23.32 -610.17999
14.34 -23.309999 -610.03003
14.9 -23.299999 -609.85999
15.45 -23.299999 -609.73999
16.01 -23.290001 -609.65002
16.57 -23.290001 -609.60999
17.129999 -23.299999 -609.67999
17.690001 -23.299999 -609.67999
18.25 -23.299999 -609.69
18.809999 -23.299999 -609.85999
19.370001 -23.309999 -610.01001
19.950001 -23.32 -610.34998
20.51 -23.33 -610.58002
21.08 -23.34 -610.81
21.65 -23.35 -611.03998
22.219999 -23.360001 -611.35999
22.790001 -23.370001 -611.63
23.360001 -23.379999 -611.90002
23.940001 -23.4 -612.26001
24.51 -23.41 -612.54999
25.09 -23.43 -612.98999
25.67 -23.440001 -613.32001
26.24 -23.450001 -613.65997
26.82 -23.459999 -613.92999
27.4 -23.48 -614.28998
27.98 -23.49 -614.77002
28.57 -23.51 -615.21002
29.16 -23.530001 -615.70001
29.74 -23.549999 -616.19
30.34 -23.57 -616.79999
30.93 -23.6 -617.37
31.540001 -23.620001 -618.06
32.139999 -23.65 -618.69
32.740002 -23.68 -619.41998
33.34 -23.700001 -619.95001
33.93 -23.709999 -620.40002
34.52 -23.719999 -620.66998
35.099998 -23.74 -620.97998
35.68 -23.74 -621.04999
36.25 -23.74 -621.14001
36.84 -23.75 -621.39001
37.41 -23.75 -621.45001
38 -23.77 -621.73999
38.57 -23.77 -621.79999
39.150002 -23.77 -621.87
39.73 -23.780001 -622
40.299999 -23.780001 -622.06
40.880001 -23.780001 -622.15002
41.450001 -23.780001 -622.22998
42.040001 -23.790001 -622.44
42.619999 -23.799999 -622.52002
43.200001 -23.799999 -622.66998
43.779999 -23.809999 -622.85999
44.369999 -23.82 -623.10999
44.959999 -23.83 -623.28998
45.549999 -23.84 -623.53003
46.130001 -23.84 -623.67999
46.720001 -23.85 -623.96997
47.310001 -23.860001 -624.17999
47.919998 -23.879999 -624.64001
48.529999 -23.9 -625.06
49.139999 -23.92 -625.62
49.759998 -23.940001 -626.10999
50.369999 -23.950001 -626.58002
50.98 -23.969999 -626.97998
51.580002 -23.98 -627.31
52.169998 -23.99 -627.53003
52.759998 -23.99 -627.60999
53.349998 -24 -627.83002
53.959999 -24.02 -628.16998
54.580002 -24.030001 -628.63
55.209999 -24.059999 -629.31
55.889999 -24.1 -630.38
56.73 -24.219999 -633.28003
57.41 -24.26 -634.38
58.049999 -24.280001 -635.04999
58.700001 -24.309999 -635.73999
59.419998 -24.360001 -637.13
80.599998 -24.59 -642.73999
80.830002 -24.48 -639.96002
81.150002 -24.4 -637.85999
81.480003 -24.32 -635.87
81.830002 -24.25 -634.12
82.190002 -24.190001 -632.40002
82.589996 -24.129999 -631.09003
82.989998 -24.08 -629.69
83.389999 -24.030001 -628.38
83.779999 -23.98 -626.97998
84.110001 -23.91 -625.21002
84.459999 -23.84 -623.54999
84.860001 -23.790001 -622.32001
85.269997 -23.75 -621.16998
85.720001 -23.719999 -620.28998
86.199997 -23.690001 -619.67999
86.669998 -23.67 -618.96997
87.160004 -23.65 -618.44
87.660004 -23.629999 -617.94
88.150002 -23.610001 -617.42999
88.669998 -23.6 -617.15002
89.18 -23.58 -616.76001
89.699997 -23.57 -616.40002
90.220001 -23.559999 -616.10999
90.760002 -23.549999 -615.94
91.309998 -23.540001 -615.81
91.839996 -23.540001 -615.64001
92.400002 -23.530001 -615.57001
92.959999 -23.530001 -615.52002
93.529999 -23.530001 -615.54999
94.110001 -23.540001 -615.70001
94.699997 -23.540001 -615.82001
95.300003 -23.549999 -616.03998
95.919998 -23.57 -616.39001
96.580002 -23.59 -616.96997
97.260002 -23.620001 -617.69
97.940002 -23.65 -618.41998
98.690002 -23.690001 -619.53003
99.519997 -23.75 -621.15997
-164.67999 -22.01 -562.87
-164.22 -22.02 -563.08002
-163.78 -22.030001 -563.33002
-163.33 -22.040001 -563.54999
-162.86 -22.040001 -563.67999
-162.39 -22.049999 -563.83002
-161.89 -22.049999 -563.90997
-161.41 -22.059999 -564.03003
-160.92999 -22.059999 -564.14001
-160.45 -22.07 -564.27002
-159.95 -22.07 -564.32001
-159.47 -22.07 -564.46997
-158.98 -22.08 -564.53998
-158.49001 -22.08 -564.65997
-157.98 -22.08 -564.66998
-157.45 -22.08 -564.63
-156.94 -22.08 -564.65997
-156.42999 -22.08 -564.65997
-155.92999 -22.08 -564.71997
-155.42 -22.09 -564.77002
-154.95 -22.09 -564.91998
-154.42999 -22.09 -564.90997
-153.86 -22.09 -564.72998
-153.36 -22.09 -564.77002
-152.83 -22.09 -564.72998
-152.28 -22.08 -564.62
-151.71001 -22.07 -564.44
-151.2 -22.07 -564.42999
-150.60001 -22.059999 -564.14001
-150.05 -22.059999 -564.03003
-149.53 -22.059999 -564.01001
-148.99001 -22.049999 -563.90997
-148.44 -22.049999 -563.78998
-147.92 -22.049999 -563.77002
-147.41 -22.049999 -563.81
-146.86 -22.040001 -563.65997
-146.32001 -22.040001 -563.59003
-145.83 -22.040001 -563.69
-145.36 -22.049999 -563.85999
-144.87 -22.059999 -563.96997
-144.38 -22.059999 -564.08002
-143.83 -22.059999 -563.95001
-143.28 -22.049999 -563.79999
-142.77 -22.049999 -563.84998
-142.21001 -22.040001 -563.65002
-141.67 -22.040001 -563.59003
-141.12 -22.030001 -563.42999
-140.60001 -22.030001 -563.40997
-140.08 -22.030001 -563.40997
-139.52 -22.030001 -563.23999
-139 -22.030001 -563.21997
-138.48 -22.02 -563.17999
-137.96001 -22.02 -563.16998
-137.41 -22.02 -563.04999
-136.87 -22.01 -562.92999
-136.31 -22.01 -562.78998
-135.81 -22.01 -562.83002
-135.3 -22.01 -562.84003
-134.75999 -22.01 -562.73999
-134.23 -22.01 -562.71002
-133.7 -22 -562.64001
-133.19 -22 -562.67999
-132.67999 -22 -562.67999
-132.13 -22 -562.53998
-131.56 -21.99 -562.33002
-130.99001 -21.98 -562.07001
-130.3 -21.950001 -561.33002
-129.71001 -21.940001 -561.03998
-129.17999 -21.940001 -560.96997
-128.64999 -21.93 -560.87
-128.12 -21.93 -560.81
-127.56 -21.92 -560.59998
-127.01 -21.92 -560.45001
-126.5 -21.92 -560.46002
-125.93 -21.91 -560.23999
-125.4 -21.9 -560.15997
-124.88 -21.9 -560.10999
-124.37 -21.9 -560.13
-123.83 -21.9 -560.02002
-123.32 -21.9 -560.04999
-122.77 -21.889999 -559.89001
-122.27 -21.9 -559.95001
-121.76 -21.9 -559.94
-121.22 -21.889999 -559.81
-120.71 -21.889999 -559.83002
-120.19 -21.889999 -559.79999
-119.68 -21.889999 -559.82001
-119.17 -21.889999 -559.84998
-118.66 -21.889999 -559.85999
-118.14 -21.889999 -559.79999
-117.6 -21.889999 -559.71002
-117.1 -21.889999 -559.76001
-116.58 -21.889999 -559.73999
-116.07 -21.889999 -559.71997
-115.56 -21.889999 -559.73999
-115.05 -21.889999 -559.77002
-114.54 -21.889999 -559.78003
-114.03 -21.889999 -559.79999
-113.52 -21.889999 -559.84003
-113.02 -21.889999 -559.87
-112.52 -21.889999 -559.92999
-112.02 -21.9 -559.97998
-111.52 -21.9 -560.08002
-111.03 -21.9 -560.19
-110.54 -21.91 -560.28998
-110.04 -21.91 -560.34998
-109.54 -21.91 -560.44
-109.04 -21.92 -560.53003
-108.55 -21.92 -560.65002
-108.05 -21.92 -560.70001
-107.55 -21.93 -560.78998
-107.07 -21.93 -560.96997
-106.58 -21.940001 -561.08002
-106.1 -21.950001 -561.23999
-105.59 -21.950001 -561.28998
-105.11 -21.950001 -561.46002
-104.62 -21.959999 -561.59998
-104.14 -21.969999 -561.78003
-103.65 -21.969999 -561.90997
-103.19 -21.98 -562.21997
-102.7 -21.99 -562.33002
-102.23 -22 -562.59998
-101.75 -22.01 -562.78003
-101.27 -22.01 -562.98999
-100.78 -22.02 -563.14001
-100.31 -22.030001 -563.39001
-99.839996 -22.040001 -563.65002
-99.370003 -22.049999 -563.91998
-98.889999 -22.059999 -564.09003
-98.419998 -22.07 -564.40002
-97.949997 -22.08 -564.65002
-97.480003 -22.09 -564.90997
-97 -22.1 -565.10999
-96.510002 -22.1 -565.27002
-96.040001 -22.110001 -565.54999
-95.559998 -22.129999 -565.82001
-95.089996 -22.139999 -566.09998
-94.620003 -22.15 -566.39001
-94.150002 -22.16 -566.67999
-93.669998 -22.17 -566.90002
-93.199997 -22.18 -567.21002
-92.730003 -22.190001 -567.53003
-92.260002 -22.200001 -567.81
-91.800003 -22.219999 -568.15002
-91.339996 -22.23 -568.56
-90.870003 -22.25 -568.88
-90.410004 -22.26 -569.22998
-89.959999 -22.280001 -569.66998
-89.489998 -22.290001 -570.01001
-89.040001 -22.309999 -570.47998
-88.599998 -22.33 -571
-88.160004 -22.35 -571.53998
-87.699997 -22.370001 -571.96002
-87.269997 -22.389999 -572.58002
-86.839996 -22.42 -573.17999
-86.440002 -22.450001 -573.96997
-86.050003 -22.49 -574.92999
-85.68 -22.52 -575.91998
-88.919998 -23.52 -601
-88.93 -23.67 -604.82001
-88.339996 -23.66 -604.58002
-87.760002 -23.65 -604.35999
-87.169998 -23.65 -604.15997
-86.599998 -23.639999 -604.02002
-86.029999 -23.639999 -603.91998
-85.449997 -23.629999 -603.73999
-84.879997 -23.620001 -603.65002
-84.309998 -23.620001 -603.51001
-83.739998 -23.620001 -603.42999
-83.18 -23.610001 -603.33002
-82.620003 -23.610001 -603.34003
-82.059998 -23.610001 -603.27002
-81.510002 -23.610001 -603.27002
-80.959999 -23.610001 -603.34998
-80.419998 -23.620001 -603.42999
-79.870003 -23.620001 -603.46002
-79.349998 -23.629999 -603.71002
-78.809998 -23.629999 -603.81
-78.279999 -23.639999 -603.98999
-77.730003 -23.639999 -603.97998
-77.160004 -23.629999 -603.90997
-76.57 -23.620001 -603.64001
-75.989998 -23.610001 -603.40997
-75.419998 -23.610001 -603.29999
-74.849998 -23.6 -603.17999
-74.290001 -23.6 -603.06
-73.739998 -23.6 -603.08002
-73.18 -23.6 -603.09003
-72.639999 -23.6 -603.13
-72.080002 -23.6 -603.09003
-71.519997 -23.6 -603.07001
-70.949997 -23.59 -602.92999
-70.379997 -23.59 -602.75
-69.800003 -23.58 -602.57001
-69.239998 -23.57 -602.46002
-68.669998 -23.57 -602.32001
-68.110001 -23.57 -602.29999
-67.559998 -23.57 -602.25
-67.019997 -23.57 -602.37
-66.480003 -23.58 -602.47998
-65.940002 -23.58 -602.58002
-65.400002 -23.58 -602.71002
-64.849998 -23.59 -602.81
-64.309998 -23.59 -602.90002
-63.75 -23.59 -602.81
-63.16 -23.58 -602.48999
-62.59 -23.57 -602.33002
-62.040001 -23.57 -602.33002
-61.490002 -23.57 -602.37
-60.950001 -23.57 -602.48999
-60.400002 -23.58 -602.53998
-59.869999 -23.58 -602.75
-59.330002 -23.59 -602.89001
-58.810001 -23.6 -603.20001
-58.299999 -23.620001 -603.59998
-57.790001 -23.639999 -604.07001
-57.290001 -23.66 -604.67999
-56.810001 -23.690001 -605.45001
-56.34 -23.73 -606.31
-34.41 -24.33 -621.67999
-33.77 -24.280001 -620.44
-33.169998 -24.26 -619.94
-32.599998 -24.26 -619.84003
-32.02 -24.25 -619.65002
-31.440001 -24.25 -619.51001
-30.870001 -24.24 -619.42999
-30.309999 -24.24 -619.44
-29.73 -24.24 -619.37
-29.17 -24.25 -619.5
-28.610001 -24.25 -619.53998
-28.049999 -24.25 -619.72998
-27.49 -24.26 -619.96997
-26.93 -24.27 -620.10999
-26.370001 -24.280001 -620.28998
-25.799999 -24.280001 -620.42999
-25.25 -24.299999 -620.75
-24.690001 -24.309999 -621.03998
-24.129999 -24.32 -621.29999
-23.57 -24.33 -621.59998
-23.01 -24.34 -621.92999
-22.450001 -24.35 -622.07001
-21.889999 -24.360001 -622.41998
-21.33 -24.370001 -622.62
-20.77 -24.379999 -622.94
-20.200001 -24.389999 -623.03998
-19.629999 -24.389999 -623.13
-19.059999 -24.389999 -623.07001
-18.49 -24.4 -623.29999
-17.92 -24.4 -623.39001
-17.360001 -24.41 -623.53998
-16.790001 -24.41 -623.75
-16.219999 -24.42 -623.92999
-15.65 -24.43 -624.10999
-15.09 -24.440001 -624.51001
-14.53 -24.459999 -624.84003
-13.96 -24.469999 -625.21997
-13.4 -24.49 -625.65002
-12.84 -24.51 -626.27002
-12.27 -24.530001 -626.70001
-11.71 -24.559999 -627.42999
-11.15 -24.58 -627.95001
-10.58 -24.610001 -628.71002
-10.02 -24.629999 -629.28998
-9.4499998 -24.65 -629.77002
-8.8699999 -24.66 -630.07001
-8.3000002 -24.68 -630.47998
-7.7199998 -24.690001 -630.71002
-7.1500001 -24.700001 -631.06
-6.5700002 -24.709999 -631.16998
-5.9899998 -24.709999 -631.32001
-5.4200001 -24.709999 -631.32001
-4.8299999 -24.690001 -630.67999
-4.2399998 -24.620001 -628.91998
-3.6500001 -24.549999 -627.19
-3.0699999 -24.5 -626.04999
-2.49 -24.459999 -624.89001
-1.92 -24.42 -624.02002
-1.34 -24.379999 -622.96002
-0.76999998 -24.35 -622.22998
-0.2 -24.32 -621.45001
0.37 -24.290001 -620.59003
0.94 -24.26 -619.94
1.5 -24.24 -619.33002
2.0699999 -24.209999 -618.60999
2.6300001 -24.18 -617.98999
3.2 -24.16 -617.34998
3.76 -24.139999 -616.87
4.3200002 -24.120001 -616.42999
4.8800001 -24.110001 -616.15002
5.4499998 -24.1 -615.76001
6.0100002 -24.08 -615.39001
6.5700002 -24.07 -615.08002
7.1300001 -24.059999 -614.91998
7.6900001 -24.049999 -614.63
8.25 -24.049999 -614.52002
8.8100004 -24.030001 -614.21997
9.3699999 -24.030001 -614.10999
9.9300003 -24.02 -613.83002
10.49 -24.02 -613.75
11.04 -23.99 -613.13
11.59 -23.959999 -612.28998
12.14 -23.93 -611.54999
12.69 -23.91 -611.16998
13.24 -23.9 -610.91998
13.8 -23.9 -610.72998
14.35 -23.889999 -610.53998
14.91 -23.879999 -610.38
15.46 -23.870001 -610.15002
16.02 -23.870001 -610.10999
16.58 -23.870001 -609.96997
17.139999 -23.870001 -610.03998
17.700001 -23.870001 -610.16998
18.26 -23.870001 -610.15002
18.83 -23.879999 -610.33002
19.389999 -23.889999 -610.44
19.950001 -23.889999 -610.62
20.52 -23.9 -610.83002
21.09 -23.91 -611.15002
21.66 -23.92 -611.28998
22.23 -23.93 -611.67999
22.799999 -23.950001 -611.95001
23.379999 -23.959999 -612.34003
23.950001 -23.969999 -612.64001
24.530001 -23.99 -613.12
25.110001 -24.01 -613.45001
25.68 -24.02 -613.72998
26.26 -24.030001 -614.03998
26.84 -24.040001 -614.41998
27.42 -24.059999 -614.75
28 -24.07 -615.10999
28.59 -24.09 -615.64001
29.18 -24.120001 -616.23999
29.77 -24.129999 -616.65002
30.370001 -24.16 -617.34003
30.959999 -24.18 -617.89001
31.57 -24.219999 -618.75
32.169998 -24.24 -619.32001
32.779999 -24.27 -620.09003
33.369999 -24.290001 -620.53998
33.959999 -24.299999 -620.92999
34.549999 -24.309999 -621.21997
35.119999 -24.32 -621.33002
35.700001 -24.33 -621.47998
36.290001 -24.34 -621.78003
36.860001 -24.34 -621.83002
37.439999 -24.34 -621.94
38.02 -24.35 -622.01001
38.599998 -24.35 -622.16998
39.18 -24.360001 -622.33002
39.75 -24.360001 -622.35999
40.330002 -24.360001 -622.46997
40.91 -24.370001 -622.70001
41.490002 -24.370001 -622.70001
42.07 -24.379999 -622.89001
42.66 -24.389999 -623.10999
43.23 -24.389999 -623.20001
43.830002 -24.41 -623.47998
44.41 -24.41 -623.59998
44.990002 -24.42 -623.79999
45.59 -24.43 -624.09998
46.189999 -24.440001 -624.46002
46.779999 -24.450001 -624.66998
47.369999 -24.459999 -624.96997
47.98 -24.48 -625.46002
48.59 -24.5 -625.84998
49.200001 -24.52 -626.29999
49.82 -24.540001 -626.89001
50.439999 -24.559999 -627.46002
51.029999 -24.57 -627.60999
51.619999 -24.58 -627.75
52.209999 -24.58 -627.91998
52.799999 -24.59 -628.15002
53.400002 -24.6 -628.40997
54 -24.610001 -628.69
54.66 -24.65 -629.54999
55.34 -24.700001 -630.76001
56.16 -24.799999 -633.46997
56.849998 -24.85 -634.65002
57.490002 -24.879999 -635.26001
58.130001 -24.9 -635.90002
58.84 -24.950001 -637.21002
81.129997 -25.16 -642.27002
81.410004 -25.059999 -639.84998
81.669998 -24.959999 -637.34998
82.019997 -24.889999 -635.52002
82.330002 -24.809999 -633.5
82.739998 -24.76 -632.15002
83.110001 -24.700001 -630.62
83.510002 -24.639999 -629.31
83.889999 -24.58 -627.84003
84.290001 -24.530001 -626.5
84.589996 -24.450001 -624.51001
84.980003 -24.4 -623.21002
85.360001 -24.35 -621.84998
85.790001 -24.309999 -620.84003
86.25 -24.280001 -620.04999
86.75 -24.26 -619.57001
87.220001 -24.23 -618.88
87.720001 -24.209999 -618.38
88.209999 -24.190001 -617.88
88.720001 -24.17 -617.46002
89.239998 -24.16 -617.12
89.760002 -24.15 -616.78998
90.279999 -24.139999 -616.51001
90.82 -24.129999 -616.35999
91.370003 -24.129999 -616.21997
91.900002 -24.120001 -615.98999
92.440002 -24.110001 -615.87
93.019997 -24.110001 -615.92999
93.580002 -24.110001 -615.91998
94.169998 -24.120001 -616.04999
94.760002 -24.129999 -616.21002
95.370003 -24.139999 -616.47998
96 -24.15 -616.92999
96.650002 -24.17 -617.41998
97.32 -24.200001 -618.08002
98.040001 -24.24 -619.03003
98.809998 -24.290001 -620.28998
99.629997 -24.35 -621.82001
-164.72 -22.530001 -563.01001
-164.25 -22.540001 -563.15997
-163.83 -22.549999 -563.46997
-163.38 -22.559999 -563.71997
-162.89999 -22.559999 -563.84003
-162.42999 -22.57 -563.97998
-161.97 -22.58 -564.16998
-161.45 -22.58 -564.15002
-160.96001 -22.58 -564.23999
-160.46001 -22.58 -564.32001
-159.97 -22.59 -564.40997
-159.53 -22.6 -564.66998
-159.02 -22.6 -564.67999
-158.53 -22.6 -564.78998
-158.03999 -22.610001 -564.87
-157.53 -22.610001 -564.90002
-157.02 -22.610001 -564.95001
-156.49001 -22.610001 -564.87
-155.98 -22.610001 -564.90997
-155.47 -22.610001 -564.95001
-154.96001 -22.610001 -564.96997
-154.49001 -22.620001 -565.10999
-153.96001 -22.620001 -565.07001
-153.46001 -22.620001 -565.15002
-152.89999 -22.610001 -564.97998
-152.37 -22.610001 -564.96002
-151.78999 -22.6 -564.71997
-151.2 -22.59 -564.44
-150.64999 -22.59 -564.32001
-150.10001 -22.58 -564.21997
-149.57001 -22.58 -564.15997
-149.00999 -22.57 -563.97998
-148.5 -22.57 -564.03003
-147.97 -22.57 -563.95001
-147.45 -22.57 -563.95001
-146.91 -22.57 -563.87
-146.38 -22.57 -563.79999
-145.87 -22.57 -563.84998
-145.37 -22.57 -563.91998
-144.89999 -22.58 -564.09003
-144.41 -22.58 -564.17999
-143.86 -22.58 -564.06
-143.35001 -22.58 -564.07001
-142.81 -22.57 -564
-142.25 -22.57 -563.83002
-141.69 -22.559999 -563.63
-141.16 -22.559999 -563.59003
-140.62 -22.549999 -563.52002
-140.11 -22.549999 -563.53003
-139.58 -22.549999 -563.46002
-139.02 -22.549999 -563.29999
-138.50999 -22.549999 -563.31
-137.97 -22.540001 -563.21002
-137.42999 -22.540001 -563.12
-136.87 -22.530001 -562.92999
-136.35001 -22.530001 -562.91998
-135.85001 -22.530001 -563.01001
-135.31 -22.530001 -562.89001
-134.78 -22.530001 -562.83002
-134.24001 -22.52 -562.76001
-133.72 -22.52 -562.73999
-133.19 -22.52 -562.65002
-132.69 -22.52 -562.72998
-132.17 -22.52 -562.71002
-131.60001 -22.51 -562.47998
-131 -22.5 -562.14001
-130.35001 -22.469999 -561.56
-129.74001 -22.459999 -561.15997
-129.2 -22.450001 -561.03998
-128.67999 -22.450001 -560.98999
-128.14 -22.450001 -560.89001
-127.56 -22.440001 -560.63
-127.02 -22.43 -560.51001
-126.49 -22.43 -560.44
-125.96 -22.43 -560.37
-125.42 -22.42 -560.26001
-124.9 -22.42 -560.22998
-124.39 -22.42 -560.21997
-123.85 -22.41 -560.09998
-123.33 -22.41 -560.09998
-122.81 -22.41 -560.06
-122.29 -22.41 -560
-121.77 -22.41 -559.98999
-121.25 -22.41 -559.95001
-120.74 -22.41 -559.95001
-120.22 -22.41 -559.95001
-119.7 -22.41 -559.91998
-119.19 -22.41 -559.90997
-118.66 -22.4 -559.87
-118.15 -22.4 -559.87
-117.64 -22.4 -559.87
-117.11 -22.4 -559.78998
-116.6 -22.4 -559.81
-116.09 -22.4 -559.81
-115.57 -22.4 -559.81
-115.06 -22.4 -559.82001
-114.55 -22.4 -559.83002
-114.05 -22.41 -559.90002
-113.53 -22.41 -559.88
-113.02 -22.4 -559.87
-112.54 -22.41 -560.02002
-112.03 -22.41 -560.07001
-111.54 -22.42 -560.17999
-111.03 -22.42 -560.20001
-110.55 -22.42 -560.33002
-110.05 -22.43 -560.44
-109.55 -22.43 -560.5
-109.05 -22.43 -560.57001
-108.55 -22.440001 -560.65997
-108.05 -22.440001 -560.71002
-107.56 -22.440001 -560.83002
-107.07 -22.450001 -560.96997
-106.58 -22.450001 -561.09998
-106.1 -22.459999 -561.26001
-105.6 -22.459999 -561.33002
-105.12 -22.469999 -561.52002
-104.63 -22.48 -561.65002
-104.16 -22.49 -561.90002
-103.68 -22.49 -562.06
-103.2 -22.5 -562.27002
-102.72 -22.51 -562.46002
-102.24 -22.52 -562.65997
-101.76 -22.52 -562.84003
-101.28 -22.530001 -563.03998
-100.8 -22.540001 -563.23999
-100.33 -22.549999 -563.47998
-99.860001 -22.559999 -563.72998
-99.389999 -22.57 -564
-98.900002 -22.58 -564.19
-98.43 -22.59 -564.44
-97.959999 -22.6 -564.69
-97.489998 -22.610001 -564.96002
-97.010002 -22.620001 -565.17999
-96.519997 -22.620001 -565.34998
-96.040001 -22.629999 -565.56
-95.57 -22.65 -565.89001
-95.089996 -22.65 -566.09003
-94.629997 -22.67 -566.41998
-94.139999 -22.68 -566.63
-93.68 -22.690001 -566.95001
-93.199997 -22.700001 -567.21997
-92.730003 -22.709999 -567.51001
-92.260002 -22.719999 -567.78998
-91.800003 -22.74 -568.14001
-91.330002 -22.75 -568.46002
-90.870003 -22.77 -568.88
-90.400002 -22.780001 -569.21002
-89.949997 -22.799999 -569.60999
-89.480003 -22.809999 -569.97998
-89.050003 -22.83 -570.52002
-88.599998 -22.85 -571.03003
-88.160004 -22.870001 -571.53998
-87.699997 -22.889999 -571.96997
-87.269997 -22.92 -572.53998
-86.839996 -22.940001 -573.19
-86.440002 -22.969999 -574.01001
-86.059998 -23.01 -574.96997
-85.68 -23.049999 -575.95001
-88.879997 -24.059999 -600.73999
-88.980003 -24.24 -605.13
-88.389999 -24.23 -604.87
-87.800003 -24.219999 -604.65002
-87.220001 -24.209999 -604.46997
-86.639999 -24.200001 -604.28998
-86.059998 -24.200001 -604.15997
-85.480003 -24.190001 -603.96997
-84.910004 -24.190001 -603.84003
-84.339996 -24.18 -603.71997
-83.790001 -24.18 -603.72998
-83.220001 -24.18 -603.65997
-82.660004 -24.18 -603.59003
-82.089996 -24.17 -603.46997
-81.529999 -24.17 -603.42999
-80.989998 -24.17 -603.53003
-80.43 -24.17 -603.52002
-79.900002 -24.18 -603.65002
-79.360001 -24.18 -603.76001
-78.839996 -24.190001 -603.98999
-78.290001 -24.190001 -604.07001
-77.739998 -24.190001 -604.06
-77.18 -24.190001 -604.01001
-76.599998 -24.190001 -603.85999
-76.010002 -24.17 -603.59998
-75.43 -24.16 -603.32001
-74.860001 -24.16 -603.20001
-74.290001 -24.15 -603.10999
-73.739998 -24.15 -603.09003
-73.18 -24.15 -603.06
-72.620003 -24.15 -603.03003
-72.07 -24.15 -603.03003
-71.510002 -24.15 -602.95001
-70.93 -24.139999 -602.76001
