# .PCD v0.7 - Point Cloud Data file format
VERSION 0.7
FIELDS x y z
SIZE 4 4 4
TYPE F F F
COUNT 1 1 1
WIDTH 1626
HEIGHT 1
VIEWPOINT 0 0 0 1 0 0 0
POINTS 1626
DATA ascii
-130.08 -6.7800002 -631.77002
-129.53 -6.7800002 -631.96002
-129.03 -6.7800002 -632.32001
-128.45 -6.7800002 -632.33002
-127.9 -6.7800002 -632.47998
-127.36 -6.79 -632.70001
-126.84 -6.79 -632.96002
-126.28 -6.79 -633.07001
-125.73 -6.79 -633.23999
-125.19 -6.79 -633.45001
-124.64 -6.8000002 -633.59003
-124.07 -6.8000002 -633.65002
-123.5 -6.8000002 -633.75
-122.94 -6.8000002 -633.84003
-122.37 -6.8000002 -633.90002
-121.8 -6.8000002 -633.96997
-121.25 -6.8000002 -634.10999
-120.68 -6.8000002 -634.19
-120.11 -6.8000002 -634.26001
-119.55 -6.8000002 -634.40002
-118.96 -6.8000002 -634.34003
-118.4 -6.8000002 -634.46002
-117.81 -6.8000002 -634.42999
-117.21 -6.8000002 -634.34998
-116.63 -6.8000002 -634.34003
-116.06 -6.8000002 -634.40002
-115.44 -6.8000002 -634.19
-114.8 -6.8000002 -633.90997
-114.13 -6.79 -633.41998
-113.44 -6.79 -632.81
-112.57 -6.77 -631.25
-111.7 -6.75 -629.60999
-110.88 -6.7399998 -628.28003
-110.17 -6.73 -627.48999
-109.43 -6.7199998 -626.60999
-108.77 -6.71 -626.10999
-108.1 -6.71 -625.57001
-107.5 -6.71 -625.41998
-106.87 -6.6999998 -625.09003
-106.26 -6.6999998 -624.87
-105.65 -6.6999998 -624.66998
-105.04 -6.6999998 -624.44
-104.4 -6.6900001 -624.06
-103.71 -6.6799998 -623.38
-102.87 -6.6700001 -621.78003
-102.14 -6.6599998 -620.82001
-101.47 -6.6500001 -620.21002
-100.82 -6.6399999 -619.75
-100.18 -6.6399999 -619.31
-99.57 -6.6399999 -619.03003
-98.980003 -6.6399999 -618.95001
-98.400002 -6.6300001 -618.82001
-97.790001 -6.6300001 -618.59998
-97.209999 -6.6300001 -618.47998
-96.620003 -6.6300001 -618.38
-96.050003 -6.6300001 -618.33002
-95.470001 -6.6300001 -618.25
-94.879997 -6.6300001 -618.15002
-94.309998 -6.6300001 -618.13
-93.739998 -6.6300001 -618.09998
-93.139999 -6.6199999 -617.89001
-92.559998 -6.6199999 -617.78003
-91.959999 -6.6199999 -617.57001
-91.379997 -6.6199999 -617.51001
-90.800003 -6.6199999 -617.41998
-90.199997 -6.6199999 -617.15002
-89.610001 -6.6100001 -616.98999
-89.019997 -6.6100001 -616.84003
-88.419998 -6.6100001 -616.65002
-87.849998 -6.6100001 -616.57001
-87.239998 -6.6100001 -616.29999
-86.669998 -6.5999999 -616.22998
-86.059998 -6.5999999 -615.91998
-85.449997 -6.5999999 -615.65997
-84.870003 -6.5999999 -615.5
-84.269997 -6.5900002 -615.28998
-83.669998 -6.5900002 -615.03998
-83.07 -6.5900002 -614.76001
-82.470001 -6.5900002 -614.51001
-81.879997 -6.5799999 -614.28998
-81.290001 -6.5799999 -614.10999
-80.699997 -6.5799999 -613.89001
-80.110001 -6.5799999 -613.69
-79.519997 -6.5700002 -613.5
-78.93 -6.5700002 -613.32001
-78.349998 -6.5700002 -613.17999
-77.760002 -6.5700002 -612.97998
-77.18 -6.5700002 -612.78998
-76.589996 -6.5700002 -612.62
-76.019997 -6.5599999 -612.48999
-75.440002 -6.5599999 -612.34003
-74.860001 -6.5599999 -612.26001
-74.279999 -6.5599999 -612.10999
-73.709999 -6.5599999 -612
-73.150002 -6.5599999 -612.04999
-72.580002 -6.5599999 -611.96002
-72.010002 -6.5599999 -611.91998
-71.449997 -6.5599999 -611.87
-70.879997 -6.5599999 -611.85999
-70.32 -6.5599999 -611.81
-69.760002 -6.5599999 -611.83002
-69.209999 -6.5599999 -611.90997
-68.650002 -6.5599999 -611.91998
-68.099998 -6.5599999 -612.02002
-67.540001 -6.5599999 -612.06
-66.989998 -6.5599999 -612.17999
-66.440002 -6.5599999 -612.32001
-65.889999 -6.5599999 -612.37
-65.339996 -6.5599999 -612.47998
-64.790001 -6.5599999 -612.62
-64.239998 -6.5700002 -612.73999
-63.700001 -6.5700002 -612.90002
-63.150002 -6.5700002 -613.06
-62.610001 -6.5700002 -613.29999
-62.060001 -6.5700002 -613.40997
-61.52 -6.5799999 -613.63
-60.98 -6.5799999 -613.88
-60.450001 -6.5799999 -614.15997
-59.91 -6.5799999 -614.42999
-59.389999 -6.5900002 -614.85999
-58.869999 -6.5900002 -615.28003
-58.349998 -6.5999999 -615.75
-57.84 -6.5999999 -616.31
-57.32 -6.6100001 -616.81
-56.799999 -6.6199999 -617.34003
-56.290001 -6.6199999 -617.88
-55.790001 -6.6300001 -618.65997
-55.290001 -6.6399999 -619.40997
-54.790001 -6.6500001 -620.10999
-54.27 -6.6500001 -620.75
-53.779999 -6.6599998 -621.65002
-53.27 -6.6700001 -622.28003
-52.759998 -6.6799998 -623.03003
-52.220001 -6.6799998 -623.44
-51.68 -6.6900001 -623.81
-51.130001 -6.6900001 -624.09003
-50.57 -6.6900001 -624.19
-50.02 -6.6900001 -624.41998
-49.450001 -6.6900001 -624.53003
-48.880001 -6.6900001 -624.56
-48.32 -6.6999998 -624.71002
-47.75 -6.6999998 -624.75
-47.18 -6.6999998 -624.82001
-46.619999 -6.6999998 -624.91998
-46.049999 -6.6999998 -624.96997
-45.48 -6.6999998 -624.98999
-44.91 -6.6999998 -625.13
-44.34 -6.6999998 -625.13
-43.779999 -6.6999998 -625.26001
-43.209999 -6.6999998 -625.35999
-42.639999 -6.6999998 -625.39001
-42.07 -6.6999998 -625.44
-41.5 -6.6999998 -625.59003
-40.93 -6.71 -625.64001
-40.369999 -6.71 -625.73999
-39.790001 -6.71 -625.73999
-39.220001 -6.71 -625.73999
-38.650002 -6.71 -625.83002
-38.080002 -6.71 -625.90997
-37.509998 -6.71 -625.91998
-36.939999 -6.71 -626.03998
-36.369999 -6.71 -626.16998
-35.799999 -6.71 -626.15997
-35.23 -6.71 -626.17999
-34.66 -6.71 -626.29999
-34.09 -6.71 -626.37
-33.509998 -6.71 -626.33002
-32.93 -6.71 -626.28998
-32.360001 -6.71 -626.38
-31.790001 -6.71 -626.42999
-31.219999 -6.71 -626.53998
-30.65 -6.7199998 -626.58002
-30.08 -6.7199998 -626.65997
-29.51 -6.7199998 -626.71002
-28.940001 -6.7199998 -626.82001
-28.370001 -6.7199998 -626.90002
-27.790001 -6.7199998 -626.87
-27.219999 -6.7199998 -626.97998
-26.65 -6.7199998 -627.04999
-26.08 -6.7199998 -627.19
-25.51 -6.7199998 -627.29999
-24.940001 -6.7199998 -627.44
-24.370001 -6.73 -627.53003
-23.799999 -6.73 -627.77002
-23.23 -6.73 -627.79999
-22.65 -6.73 -627.91998
-22.09 -6.73 -628.09998
-21.51 -6.73 -628.21997
-20.93 -6.73 -628.08002
-20.34 -6.73 -627.65002
-14.06 -6.75 -629.65002
-13.5 -6.7600002 -630.53998
-12.93 -6.7600002 -631.09998
-12.36 -6.77 -631.59003
-11.79 -6.77 -631.84998
-11.21 -6.77 -632.08002
-10.63 -6.7800002 -632.21002
-10.06 -6.7800002 -632.27002
-9.4799995 -6.7800002 -632.34003
-8.8999996 -6.7800002 -632.37
-8.3199997 -6.7800002 -632.53998
-7.7399998 -6.7800002 -632.65002
-7.1599998 -6.7800002 -632.77002
-6.5799999 -6.7800002 -632.84003
-6.0100002 -6.79 -633.10999
-5.4299998 -6.79 -633.20001
-4.8400002 -6.7800002 -633.01001
-4.2600002 -6.7800002 -632.84998
-3.6800001 -6.7800002 -632.40002
-3.0999999 -6.77 -631.95001
-2.51 -6.77 -631.48999
-1.9299999 -6.7600002 -631.09003
-1.35 -6.7600002 -630.64001
-0.77999997 -6.75 -630.23999
-0.2 -6.75 -629.87
0.38 -6.75 -629.56
0.95999998 -6.7399998 -629.06
1.53 -6.7399998 -628.78003
2.1099999 -6.73 -628.41998
2.6800001 -6.73 -628.07001
3.26 -6.73 -627.72998
3.8299999 -6.7199998 -627.46002
4.4000001 -6.7199998 -627.09003
4.98 -6.7199998 -626.81
5.5500002 -6.71 -626.51001
6.1199999 -6.71 -626.32001
6.6900001 -6.71 -626.03998
7.2600002 -6.71 -625.78998
7.8299999 -6.6999998 -625.5
8.4099998 -6.6999998 -625.34003
8.9700003 -6.6999998 -625.03003
9.54 -6.6999998 -624.87
10.12 -6.6900001 -624.70001
10.68 -6.6900001 -624.52002
11.25 -6.6900001 -624.23999
11.82 -6.6900001 -624.15997
12.39 -6.6900001 -623.88
12.96 -6.6799998 -623.78003
13.53 -6.6799998 -623.65002
14.1 -6.6799998 -623.46997
14.67 -6.6799998 -623.39001
15.24 -6.6799998 -623.28998
15.8 -6.6799998 -623.15002
16.370001 -6.6799998 -623.03998
16.940001 -6.6799998 -623.01001
17.51 -6.6799998 -622.96002
18.08 -6.6700001 -622.78998
18.65 -6.6700001 -622.64001
19.209999 -6.6700001 -622.57001
19.780001 -6.6700001 -622.46002
20.35 -6.6700001 -622.28003
20.91 -6.6700001 -622.12
21.48 -6.6700001 -622.01001
22.049999 -6.6599998 -621.94
22.610001 -6.6599998 -621.81
23.18 -6.6599998 -621.75
23.75 -6.6599998 -621.75
24.32 -6.6599998 -621.67999
24.889999 -6.6599998 -621.65997
25.450001 -6.6599998 -621.60999
26.02 -6.6599998 -621.57001
26.59 -6.6599998 -621.53998
27.16 -6.6599998 -621.53998
27.73 -6.6599998 -621.53998
28.299999 -6.6599998 -621.60999
28.879999 -6.6599998 -621.65002
29.450001 -6.6599998 -621.71002
30.02 -6.6599998 -621.73999
30.59 -6.6599998 -621.76001
31.16 -6.6599998 -621.65997
31.719999 -6.6599998 -621.5
32.290001 -6.6599998 -621.46997
32.860001 -6.6599998 -621.45001
33.43 -6.6599998 -621.51001
34 -6.6599998 -621.60999
34.580002 -6.6599998 -621.66998
35.16 -6.6599998 -621.81
35.73 -6.6599998 -621.95001
36.310001 -6.6700001 -622.02002
36.889999 -6.6700001 -622.21002
37.470001 -6.6700001 -622.28003
38.049999 -6.6700001 -622.45001
38.610001 -6.6700001 -622.40002
39.189999 -6.6700001 -622.44
39.759998 -6.6700001 -622.47998
40.330002 -6.6700001 -622.52002
40.91 -6.6700001 -622.58002
41.490002 -6.6700001 -622.77002
42.080002 -6.6799998 -622.96997
42.66 -6.6799998 -623.08002
43.25 -6.6799998 -623.34998
43.830002 -6.6799998 -623.52002
44.419998 -6.6799998 -623.71997
45 -6.6900001 -623.89001
45.599998 -6.6900001 -624.21997
46.200001 -6.6900001 -624.53003
46.790001 -6.6999998 -624.77002
47.389999 -6.6999998 -625.13
47.98 -6.6999998 -625.35999
48.57 -6.71 -625.64001
49.18 -6.71 -625.97998
49.779999 -6.71 -626.39001
50.380001 -6.7199998 -626.71002
50.990002 -6.7199998 -627.06
51.59 -6.7199998 -627.40997
52.200001 -6.73 -627.83002
52.810001 -6.73 -628.21002
53.419998 -6.7399998 -628.56
54.040001 -6.7399998 -629.04999
54.650002 -6.75 -629.45001
55.259998 -6.75 -629.84998
55.869999 -6.7600002 -630.17999
56.470001 -6.7600002 -630.40002
57.049999 -6.7600002 -630.46997
57.639999 -6.7600002 -630.59998
58.23 -6.7600002 -630.65997
58.82 -6.7600002 -630.78003
59.41 -6.7600002 -630.90997
60 -6.7600002 -631.07001
60.599998 -6.77 -631.25
61.200001 -6.77 -631.45001
61.799999 -6.77 -631.63
62.41 -6.77 -631.91998
63 -6.7800002 -632.06
63.599998 -6.7800002 -632.22998
64.199997 -6.7800002 -632.41998
64.800003 -6.7800002 -632.67999
65.400002 -6.7800002 -632.79999
66 -6.79 -633.03003
66.610001 -6.79 -633.28998
67.199997 -6.79 -633.33002
67.800003 -6.79 -633.53003
68.400002 -6.79 -633.73999
69 -6.8000002 -633.84003
69.580002 -6.8000002 -633.87
70.160004 -6.8000002 -633.79999
70.690002 -6.79 -633.35999
71.199997 -6.7800002 -632.75
71.540001 -6.7600002 -630.66998
71.279999 -6.6799998 -623.40997
71.480003 -6.6500001 -620.28998
71.860001 -6.6300001 -618.64001
72.239998 -6.6100001 -617.02002
72.68 -6.5999999 -615.98999
73.139999 -6.5900002 -615.14001
73.610001 -6.5799999 -614.37
74.080002 -6.5799999 -613.57001
74.589996 -6.5700002 -613.17999
75.080002 -6.5700002 -612.60999
75.589996 -6.5599999 -612.15997
76.089996 -6.5500002 -611.65002
76.610001 -6.5500002 -611.39001
77.129997 -6.5500002 -611.06
77.669998 -6.5500002 -610.84998
78.199997 -6.54 -610.59998
78.739998 -6.54 -610.48999
79.290001 -6.54 -610.42999
79.860001 -6.54 -610.51001
80.419998 -6.54 -610.48999
81 -6.54 -610.59998
81.580002 -6.5500002 -610.75
82.169998 -6.5500002 -610.95001
82.760002 -6.5500002 -611.22998
83.370003 -6.5500002 -611.52002
83.970001 -6.5599999 -611.84003
84.580002 -6.5599999 -612.21002
85.220001 -6.5700002 -612.71002
85.839996 -6.5700002 -613.10999
86.459999 -6.5799999 -613.56
87.110001 -6.5799999 -614.13
87.769997 -6.5900002 -614.78998
88.410004 -6.5999999 -615.31
89.080002 -6.5999999 -616.04999
89.730003 -6.6100001 -616.62
90.419998 -6.6199999 -617.47998
91.099998 -6.6300001 -618.21002
91.800003 -6.6399999 -619.08002
92.5 -6.6500001 -619.96002
93.220001 -6.6599998 -620.94
93.959999 -6.6700001 -622.06
94.760002 -6.6799998 -623.52002
95.529999 -6.6999998 -624.84998
96.440002 -6.7199998 -626.96997
97.620003 -6.7600002 -630.79999
98.800003 -6.8099999 -634.64001
99.68 -6.8299999 -636.47998
100.51 -6.8400002 -638.02002
101.3 -6.8600001 -639.31
102.12 -6.8699999 -640.73999
102.98 -6.8899999 -642.45001
-164.39 -7.3299999 -629.92999
-163.67999 -7.3299999 -629.45001
-162.97 -7.3200002 -628.91998
-162.28 -7.3200002 -628.5
-161.59 -7.3099999 -628.07001
-160.98 -7.3099999 -627.96002
-160.39 -7.3099999 -627.90997
-159.81 -7.3099999 -627.88
-159.25 -7.3099999 -627.91998
-158.67999 -7.3099999 -627.96997
-158.09 -7.3099999 -627.89001
-157.52 -7.3099999 -627.92999
-156.92 -7.3099999 -627.84003
-156.35001 -7.3099999 -627.87
-155.77 -7.3099999 -627.84003
-155.2 -7.3099999 -627.85999
-154.60001 -7.3099999 -627.76001
-154 -7.3099999 -627.70001
-153.42 -7.3099999 -627.65002
-152.83 -7.3099999 -627.62
-152.25 -7.3099999 -627.60999
-151.66 -7.3099999 -627.56
-151.08 -7.3099999 -627.52002
-150.5 -7.3099999 -627.48999
-149.95 -7.3099999 -627.62
-149.37 -7.3099999 -627.58002
-148.8 -7.3099999 -627.60999
-148.24001 -7.3099999 -627.66998
-147.66 -7.3099999 -627.69
-147.08 -7.3099999 -627.65997
-146.52 -7.3099999 -627.71002
-145.96001 -7.3099999 -627.81
-145.42 -7.3099999 -627.94
-144.84 -7.3099999 -627.95001
-144.25999 -7.3099999 -627.91998
-143.73 -7.3099999 -628.09998
-143.17 -7.3099999 -628.20001
-142.61 -7.3099999 -628.28003
-142.07001 -7.3200002 -628.40997
-141.52 -7.3200002 -628.56
-140.95 -7.3200002 -628.54999
-140.39999 -7.3200002 -628.69
-139.86 -7.3200002 -628.84003
-139.31 -7.3200002 -628.98999
-138.75999 -7.3200002 -629.09003
-138.19 -7.3200002 -629.15002
-137.64 -7.3299999 -629.25
-137.09 -7.3299999 -629.40002
-136.56 -7.3299999 -629.60999
-136.02 -7.3299999 -629.78003
-135.49001 -7.3299999 -629.98999
-134.94 -7.3400002 -630.13
-134.39999 -7.3400002 -630.31
-133.86 -7.3400002 -630.47998
-133.32001 -7.3400002 -630.65997
-132.8 -7.3499999 -630.94
-132.24001 -7.3499999 -631.02002
-131.71001 -7.3499999 -631.28003
-131.17 -7.3499999 -631.45001
-130.62 -7.3499999 -631.59003
-130.10001 -7.3600001 -631.90997
-129.53999 -7.3600001 -631.98999
-129.02 -7.3600001 -632.28003
-128.47 -7.3600001 -632.44
-127.92 -7.3699999 -632.57001
-127.38 -7.3699999 -632.77002
-126.86 -7.3699999 -633.08002
-126.31 -7.3699999 -633.21002
-125.75 -7.3699999 -633.34998
-125.21 -7.3800001 -633.53003
-124.66 -7.3800001 -633.69
-124.11 -7.3800001 -633.84998
-123.54 -7.3800001 -633.92999
-122.96 -7.3800001 -633.95001
-122.4 -7.3800001 -634.07001
-121.86 -7.3800001 -634.28003
-121.29 -7.3899999 -634.34003
-120.71 -7.3899999 -634.38
-120.13 -7.3899999 -634.39001
-119.57 -7.3899999 -634.46997
-119 -7.3899999 -634.53998
-118.43 -7.3899999 -634.60999
-117.85 -7.3899999 -634.65002
-117.27 -7.3899999 -634.64001
-116.68 -7.3899999 -634.64001
-116.08 -7.3899999 -634.52002
-115.48 -7.3899999 -634.40997
-114.85 -7.3800001 -634.15997
-114.18 -7.3800001 -633.71002
-113.49 -7.3699999 -633.10999
-112.64 -7.3499999 -631.58002
-111.74 -7.3299999 -629.82001
-110.94 -7.3200002 -628.59003
-110.2 -7.3099999 -627.66998
-109.47 -7.3000002 -626.81
-108.82 -7.29 -626.40002
-108.16 -7.29 -625.92999
-107.55 -7.2800002 -625.67999
-106.9 -7.2800002 -625.28003
-106.3 -7.2800002 -625.09998
-105.69 -7.27 -624.92999
-105.07 -7.27 -624.65002
-104.46 -7.27 -624.41998
-103.79 -7.2600002 -623.83002
-102.97 -7.2399998 -622.37
-102.2 -7.23 -621.17999
-101.51 -7.2199998 -620.46997
-100.86 -7.2199998 -620
-100.21 -7.21 -619.46002
-99.610001 -7.21 -619.31
-99.010002 -7.1999998 -619.09998
-98.410004 -7.1999998 -618.92999
-97.830002 -7.1999998 -618.82001
-97.239998 -7.1999998 -618.67999
-96.660004 -7.1999998 -618.63
-96.07 -7.1999998 -618.48999
-95.489998 -7.1999998 -618.38
-94.910004 -7.1999998 -618.34998
-94.339996 -7.1999998 -618.31
-93.760002 -7.1900001 -618.21002
-93.169998 -7.1900001 -618.10999
-92.599998 -7.1900001 -618.09003
-91.989998 -7.1900001 -617.81
-91.400002 -7.1900001 -617.62
-90.809998 -7.1799998 -617.44
-90.209999 -7.1799998 -617.21002
-89.629997 -7.1799998 -617.15997
-89.040001 -7.1799998 -616.96997
-88.440002 -7.1799998 -616.77002
-87.849998 -7.1700001 -616.60999
-87.269997 -7.1700001 -616.48999
-86.669998 -7.1700001 -616.26001
-86.080002 -7.1700001 -616.08002
-85.489998 -7.1700001 -615.90997
-84.889999 -7.1599998 -615.69
-84.290001 -7.1599998 -615.40002
-83.690002 -7.1599998 -615.15002
-83.099998 -7.1500001 -614.96002
-82.489998 -7.1500001 -614.64001
-81.900002 -7.1500001 -614.46997
-81.309998 -7.1500001 -614.28003
-80.720001 -7.1399999 -614.03003
-80.129997 -7.1399999 -613.83002
-79.540001 -7.1399999 -613.65002
-78.959999 -7.1399999 -613.47998
-78.370003 -7.1300001 -613.28003
-77.779999 -7.1300001 -613.12
-77.199997 -7.1300001 -612.96997
-76.610001 -7.1300001 -612.78003
-76.040001 -7.1300001 -612.70001
-75.449997 -7.1300001 -612.5
-74.879997 -7.1199999 -612.40997
-74.309998 -7.1199999 -612.33002
-73.730003 -7.1199999 -612.20001
-73.160004 -7.1199999 -612.08002
-72.589996 -7.1199999 -612.03998
-72.029999 -7.1199999 -612.03998
-71.470001 -7.1199999 -612.03003
-70.900002 -7.1199999 -612
-70.349998 -7.1199999 -612.09998
-69.779999 -7.1199999 -612
-69.220001 -7.1199999 -612.08002
-68.660004 -7.1199999 -612.03998
-68.099998 -7.1199999 -612.09998
-67.57 -7.1199999 -612.31
-67.010002 -7.1199999 -612.40002
-66.459999 -7.1199999 -612.42999
-65.900002 -7.1300001 -612.52002
-65.360001 -7.1300001 -612.66998
-64.800003 -7.1300001 -612.72998
-64.25 -7.1300001 -612.85999
-63.709999 -7.1300001 -612.98999
-63.16 -7.1300001 -613.17999
-62.619999 -7.1399999 -613.37
-62.07 -7.1399999 -613.5
-61.529999 -7.1399999 -613.76001
-61.009998 -7.1399999 -614.12
-60.470001 -7.1500001 -614.38
-59.939999 -7.1500001 -614.71002
-59.41 -7.1500001 -615.03003
-58.889999 -7.1599998 -615.5
-58.360001 -7.1599998 -615.90997
-57.849998 -7.1700001 -616.42999
-57.330002 -7.1799998 -616.92999
-56.82 -7.1799998 -617.52002
-56.299999 -7.1900001 -618.04999
-55.810001 -7.1999998 -618.83002
-55.299999 -7.21 -619.47998
-54.799999 -7.2199998 -620.28998
-54.290001 -7.2199998 -620.94
-53.799999 -7.23 -621.84003
-53.279999 -7.2399998 -622.46002
-52.77 -7.25 -623.17999
-52.240002 -7.2600002 -623.64001
-51.700001 -7.2600002 -624
-51.150002 -7.2600002 -624.22998
-50.59 -7.27 -624.48999
-50.029999 -7.27 -624.59998
-49.459999 -7.27 -624.66998
-48.900002 -7.27 -624.79999
-48.34 -7.27 -624.96997
-47.77 -7.27 -625.01001
-47.200001 -7.27 -625.03003
-46.630001 -7.27 -625.07001
-46.07 -7.27 -625.25
-45.5 -7.27 -625.28003
-44.93 -7.2800002 -625.31
-44.360001 -7.2800002 -625.40997
-43.790001 -7.2800002 -625.53998
-43.23 -7.2800002 -625.65002
-42.650002 -7.2800002 -625.58002
-42.080002 -7.2800002 -625.65997
-41.509998 -7.2800002 -625.76001
-40.950001 -7.2800002 -625.90997
-40.380001 -7.2800002 -625.89001
-39.810001 -7.2800002 -626.01001
-39.240002 -7.2800002 -626.06
-38.669998 -7.2800002 -626.15002
-38.099998 -7.2800002 -626.15997
-37.52 -7.29 -626.19
-36.959999 -7.29 -626.32001
-36.389999 -7.29 -626.41998
-35.810001 -7.29 -626.39001
-35.240002 -7.29 -626.40997
-34.66 -7.29 -626.41998
-34.099998 -7.29 -626.57001
-33.529999 -7.29 -626.64001
-32.950001 -7.29 -626.65997
-32.380001 -7.29 -626.75
-31.809999 -7.29 -626.83002
-31.24 -7.29 -626.84998
-30.67 -7.29 -626.92999
-30.09 -7.29 -626.96002
-29.52 -7.3000002 -627.04999
-28.950001 -7.3000002 -627.16998
-28.379999 -7.3000002 -627.26001
-27.809999 -7.3000002 -627.35999
-27.24 -7.3000002 -627.44
-26.67 -7.3000002 -627.58002
-26.09 -7.3000002 -627.54999
-25.52 -7.3000002 -627.70001
-24.950001 -7.3000002 -627.81
-24.379999 -7.3099999 -627.91998
-23.809999 -7.3099999 -628.03003
-23.24 -7.3099999 -628.17999
-22.67 -7.3099999 -628.31
-22.1 -7.3099999 -628.46997
-21.52 -7.3099999 -628.53998
-20.940001 -7.3099999 -628.21002
-13.5 -7.3400002 -630.72998
-12.94 -7.3499999 -631.54999
-12.37 -7.3499999 -632
-11.8 -7.3600001 -632.32001
-11.22 -7.3600001 -632.48999
-10.64 -7.3600001 -632.65997
-10.06 -7.3600001 -632.75
-9.4799995 -7.3600001 -632.76001
-8.9099998 -7.3600001 -632.89001
-8.3299999 -7.3600001 -632.92999
-7.75 -7.3699999 -633.04999
-7.1700001 -7.3699999 -633.15002
-6.5900002 -7.3699999 -633.45001
-6.0100002 -7.3699999 -633.52002
-5.4299998 -7.3699999 -633.71997
-4.8499999 -7.3699999 -633.52002
-4.2600002 -7.3699999 -633.29999
-3.6800001 -7.3600001 -632.77002
-3.0999999 -7.3600001 -632.23999
-2.52 -7.3499999 -631.76001
-1.9400001 -7.3499999 -631.40997
-1.36 -7.3400002 -630.90002
-0.77999997 -7.3400002 -630.52002
-0.2 -7.3299999 -630.03003
0.38 -7.3299999 -629.73999
0.95999998 -7.3200002 -629.27002
1.53 -7.3200002 -628.96997
2.1099999 -7.3099999 -628.57001
2.6800001 -7.3099999 -628.22998
3.26 -7.3000002 -627.84998
3.8299999 -7.3000002 -627.56
4.4000001 -7.3000002 -627.15002
4.98 -7.29 -626.96002
5.5500002 -7.29 -626.59998
6.1199999 -7.29 -626.34003
6.6900001 -7.2800002 -626.15002
7.27 -7.2800002 -625.96002
7.8400002 -7.2800002 -625.65997
8.4099998 -7.2800002 -625.46997
8.9799995 -7.27 -625.21002
9.5500002 -7.27 -624.94
10.12 -7.27 -624.78003
10.69 -7.27 -624.62
11.26 -7.2600002 -624.39001
11.83 -7.2600002 -624.28998
12.39 -7.2600002 -624.03998
12.96 -7.2600002 -623.92999
13.53 -7.2600002 -623.76001
14.1 -7.25 -623.65997
14.67 -7.25 -623.45001
15.24 -7.25 -623.37
15.81 -7.25 -623.33002
16.379999 -7.25 -623.25
16.950001 -7.25 -623.14001
17.52 -7.25 -623.09998
18.09 -7.25 -623.02002
18.65 -7.25 -622.91998
19.219999 -7.2399998 -622.77002
19.790001 -7.2399998 -622.76001
20.360001 -7.2399998 -622.60999
20.92 -7.2399998 -622.41998
21.49 -7.2399998 -622.31
22.059999 -7.2399998 -622.20001
22.620001 -7.2399998 -622.16998
23.190001 -7.2399998 -622.12
23.76 -7.2399998 -622.03003
24.33 -7.2399998 -621.97998
24.9 -7.23 -621.92999
25.469999 -7.23 -621.92999
26.030001 -7.23 -621.84003
26.610001 -7.23 -621.94
27.18 -7.23 -621.91998
27.75 -7.23 -621.90997
28.32 -7.23 -621.90997
28.889999 -7.2399998 -621.96002
29.459999 -7.2399998 -622.03998
30.040001 -7.2399998 -622.09998
30.620001 -7.2399998 -622.23999
31.18 -7.2399998 -622.13
31.75 -7.2399998 -622.15997
32.32 -7.2399998 -622.08002
32.880001 -7.23 -621.90997
33.450001 -7.2399998 -621.95001
34.02 -7.2399998 -621.96997
34.599998 -7.2399998 -622.02002
35.169998 -7.2399998 -622.06
35.75 -7.2399998 -622.19
36.330002 -7.2399998 -622.38
36.91 -7.2399998 -622.48999
37.490002 -7.2399998 -622.62
38.060001 -7.2399998 -622.71997
38.639999 -7.25 -622.81
39.220001 -7.25 -622.98999
39.810001 -7.25 -623.15997
40.389999 -7.25 -623.28998
40.959999 -7.25 -623.28003
41.529999 -7.25 -623.34003
42.119999 -7.25 -623.53998
42.700001 -7.2600002 -623.69
43.279999 -7.2600002 -623.84003
43.860001 -7.2600002 -623.96002
44.450001 -7.2600002 -624.14001
45.040001 -7.2600002 -624.34998
45.630001 -7.27 -624.63
46.23 -7.27 -624.95001
46.82 -7.27 -625.15997
47.419998 -7.2800002 -625.48999
48.009998 -7.2800002 -625.79999
48.610001 -7.2800002 -626.08002
49.209999 -7.29 -626.39001
49.810001 -7.29 -626.72998
50.419998 -7.3000002 -627.20001
51.02 -7.3000002 -627.46997
51.630001 -7.3099999 -627.84998
52.23 -7.3099999 -628.17999
52.849998 -7.3099999 -628.64001
53.459999 -7.3200002 -629.03998
54.07 -7.3200002 -629.42999
54.68 -7.3299999 -629.79999
55.290001 -7.3299999 -630.15002
55.900002 -7.3400002 -630.5
56.5 -7.3400002 -630.75
57.099998 -7.3400002 -630.96002
57.68 -7.3400002 -631.01001
58.259998 -7.3400002 -631.01001
58.849998 -7.3400002 -631.08002
59.439999 -7.3499999 -631.26001
60.029999 -7.3499999 -631.38
60.630001 -7.3499999 -631.58002
61.23 -7.3499999 -631.79999
61.830002 -7.3499999 -632
62.43 -7.3600001 -632.20001
63.040001 -7.3600001 -632.48999
63.639999 -7.3600001 -632.63
64.239998 -7.3600001 -632.84003
64.849998 -7.3699999 -633.07001
65.440002 -7.3699999 -633.23999
66.050003 -7.3699999 -633.51001
66.650002 -7.3699999 -633.66998
67.239998 -7.3800001 -633.75
67.839996 -7.3800001 -633.90997
68.449997 -7.3800001 -634.10999
69.040001 -7.3800001 -634.21002
69.629997 -7.3800001 -634.32001
70.199997 -7.3800001 -634.22998
70.75 -7.3800001 -633.88
71.25 -7.3699999 -633.21997
71.699997 -7.3600001 -632.01001
71.989998 -7.3299999 -629.53003
71.580002 -7.23 -621.06
71.949997 -7.21 -619.41998
72.330002 -7.1900001 -617.82001
72.760002 -7.1700001 -616.65997
73.190002 -7.1599998 -615.52002
73.669998 -7.1500001 -614.81
74.139999 -7.1399999 -614.06
74.620003 -7.1399999 -613.42999
75.120003 -7.1300001 -612.88
75.620003 -7.1199999 -612.39001
76.129997 -7.1199999 -611.97998
76.660004 -7.1199999 -611.72998
77.169998 -7.1100001 -611.32001
77.699997 -7.1100001 -611.07001
78.230003 -7.1100001 -610.89001
78.769997 -7.0999999 -610.72998
79.32 -7.0999999 -610.60999
79.889999 -7.0999999 -610.66998
80.459999 -7.1100001 -610.75
81.029999 -7.1100001 -610.83002
81.599998 -7.1100001 -610.94
82.190002 -7.1100001 -611.13
82.779999 -7.1100001 -611.38
83.379997 -7.1199999 -611.65002
83.989998 -7.1199999 -611.96002
84.589996 -7.1199999 -612.26001
85.220001 -7.1300001 -612.72998
85.839996 -7.1300001 -613.15002
86.480003 -7.1399999 -613.67999
87.120003 -7.1500001 -614.17999
87.779999 -7.1500001 -614.85999
88.419998 -7.1599998 -615.40002
89.07 -7.1700001 -615.98999
89.75 -7.1799998 -616.75
90.43 -7.1900001 -617.54999
91.120003 -7.1999998 -618.34998
91.82 -7.21 -619.21997
92.519997 -7.2199998 -620.09998
93.279999 -7.23 -621.34003
94 -7.2399998 -622.32001
94.800003 -7.2600002 -623.81
95.620003 -7.2800002 -625.39001
96.559998 -7.3099999 -627.75
97.82 -7.3600001 -632.12
98.900002 -7.4000001 -635.28003
99.739998 -7.4099998 -636.87
100.57 -7.4299998 -638.44
101.37 -7.4499998 -639.73999
102.18 -7.46 -641.13
102.99 -7.48 -642.46997
-164.33 -7.9099998 -629.71002
-163.67 -7.9099998 -629.39001
-162.95 -7.9000001 -628.88
-162.23 -7.8899999 -628.33002
-161.58 -7.8899999 -628.03003
-160.96001 -7.8899999 -627.88
-160.37 -7.8899999 -627.81
-159.81 -7.8899999 -627.89001
-159.24001 -7.8899999 -627.90002
-158.64999 -7.8899999 -627.84003
-158.07001 -7.8899999 -627.83002
-157.50999 -7.8899999 -627.89001
-156.91 -7.8899999 -627.82001
-156.34 -7.8899999 -627.81
-155.75 -7.8899999 -627.77002
-155.17999 -7.8899999 -627.77002
-154.58 -7.8800001 -627.71002
-154.02 -7.8800001 -627.75
-153.42999 -7.8800001 -627.71002
-152.83 -7.8800001 -627.62
-152.24001 -7.8800001 -627.53998
-151.67999 -7.8800001 -627.62
-151.09 -7.8800001 -627.54999
-150.5 -7.8800001 -627.5
-149.94 -7.8800001 -627.57001
-149.38 -7.8800001 -627.65002
-148.8 -7.8800001 -627.62
-148.22 -7.8800001 -627.59003
-147.64 -7.8800001 -627.57001
-147.11 -7.8800001 -627.76001
-146.53 -7.8899999 -627.78003
-145.99001 -7.8899999 -627.90997
-145.42 -7.8899999 -627.92999
-144.84 -7.8899999 -627.94
-144.25999 -7.8899999 -627.91998
-143.71001 -7.8899999 -628.02002
-143.16 -7.8899999 -628.15997
-142.59 -7.8899999 -628.19
-142.06 -7.8899999 -628.35999
-141.5 -7.8899999 -628.46002
-140.95 -7.9000001 -628.59003
-140.41 -7.9000001 -628.71997
-139.86 -7.9000001 -628.84998
-139.3 -7.9000001 -628.91998
-138.75 -7.9000001 -629.06
-138.2 -7.9000001 -629.16998
-137.64 -7.9000001 -629.25
-137.09 -7.9099998 -629.40002
-136.56 -7.9099998 -629.60999
-136 -7.9099998 -629.69
-135.47 -7.9099998 -629.92999
-134.96001 -7.9200001 -630.21997
-134.39 -7.9200001 -630.25
-133.86 -7.9200001 -630.5
-133.33 -7.9200001 -630.70001
-132.8 -7.9299998 -630.96997
-132.25 -7.9299998 -631.08002
-131.73 -7.9299998 -631.39001
-131.19 -7.9299998 -631.54999
-130.64 -7.9299998 -631.71002
-130.12 -7.9400001 -632
-129.56 -7.9400001 -632.09003
-129.03999 -7.9400001 -632.37
-128.50999 -7.9499998 -632.59998
-127.96 -7.9499998 -632.78003
-127.42 -7.9499998 -632.98999
-126.88 -7.9499998 -633.15997
-126.34 -7.96 -633.40002
-125.8 -7.96 -633.60999
-125.24 -7.96 -633.71002
-124.7 -7.96 -633.91998
-124.14 -7.96 -634.03998
-123.59 -7.9699998 -634.19
-123.02 -7.9699998 -634.23999
-122.46 -7.9699998 -634.34003
-121.9 -7.9699998 -634.46002
-121.33 -7.9699998 -634.53998
-120.76 -7.9699998 -634.64001
-120.2 -7.9699998 -634.73999
-119.63 -7.9699998 -634.81
-119.05 -7.9699998 -634.81
-118.49 -7.98 -634.92999
-117.9 -7.9699998 -634.89001
-117.33 -7.98 -634.95001
-116.73 -7.9699998 -634.88
-116.14 -7.9699998 -634.83002
-115.54 -7.9699998 -634.73999
-114.91 -7.9699998 -634.48999
-114.26 -7.96 -634.10999
-113.55 -7.96 -633.44
-112.74 -7.9400001 -632.15002
-111.85 -7.9200001 -630.41998
-111.01 -7.9000001 -629
-110.27 -7.8899999 -628.04999
-109.53 -7.8800001 -627.15002
-108.87 -7.8699999 -626.65002
-108.21 -7.8600001 -626.17999
-107.58 -7.8600001 -625.90002
-106.97 -7.8600001 -625.65002
-106.35 -7.8499999 -625.42999
-105.73 -7.8499999 -625.15997
-105.13 -7.8499999 -624.97998
-104.5 -7.8400002 -624.66998
-103.86 -7.8400002 -624.23999
-103.08 -7.8200002 -623.03003
-102.29 -7.8099999 -621.73999
-101.58 -7.8000002 -620.88
-100.92 -7.79 -620.35999
-100.28 -7.7800002 -619.90002
-99.660004 -7.7800002 -619.58002
-99.059998 -7.7800002 -619.39001
-98.459999 -7.77 -619.20001
-97.860001 -7.77 -619.02002
-97.269997 -7.77 -618.84998
-96.68 -7.77 -618.76001
-96.099998 -7.77 -618.65002
-95.510002 -7.77 -618.54999
-94.940002 -7.7600002 -618.48999
-94.360001 -7.7600002 -618.46997
-93.779999 -7.7600002 -618.34003
-93.18 -7.7600002 -618.14001
-92.610001 -7.7600002 -618.09003
-92.019997 -7.7600002 -617.98999
-91.43 -7.7600002 -617.84003
-90.839996 -7.75 -617.65002
-90.25 -7.75 -617.48999
-89.660004 -7.75 -617.34998
-89.080002 -7.75 -617.23999
-88.470001 -7.75 -617
-87.879997 -7.7399998 -616.78998
-87.290001 -7.7399998 -616.66998
-86.699997 -7.7399998 -616.47998
-86.099998 -7.7399998 -616.25
-85.510002 -7.73 -616.03998
-84.910004 -7.73 -615.84003
-84.32 -7.73 -615.60999
-83.720001 -7.7199998 -615.34003
-83.129997 -7.7199998 -615.16998
-82.540001 -7.7199998 -614.96997
-81.93 -7.7199998 -614.66998
-81.339996 -7.71 -614.45001
-80.760002 -7.71 -614.33002
-80.160004 -7.71 -614.04999
-79.559998 -7.6999998 -613.84003
-78.980003 -7.6999998 -613.69
-78.400002 -7.6999998 -613.52002
-77.809998 -7.6999998 -613.34998
-77.239998 -7.6999998 -613.28003
-76.629997 -7.6900001 -612.94
-76.07 -7.6900001 -612.90002
-75.489998 -7.6900001 -612.76001
-74.919998 -7.6900001 -612.69
-74.339996 -7.6900001 -612.54999
-73.760002 -7.6900001 -612.45001
-73.190002 -7.6900001 -612.34998
-72.620003 -7.6799998 -612.27002
-72.050003 -7.6799998 -612.21002
-71.489998 -7.6799998 -612.22998
-70.919998 -7.6799998 -612.19
-70.360001 -7.6799998 -612.21002
-69.790001 -7.6799998 -612.12
-69.239998 -7.6799998 -612.16998
-68.68 -7.6799998 -612.21997
-68.129997 -7.6799998 -612.34998
-67.580002 -7.6900001 -612.45001
-67.019997 -7.6900001 -612.41998
-66.470001 -7.6900001 -612.54999
-65.919998 -7.6900001 -612.69
-65.370003 -7.6900001 -612.73999
-64.809998 -7.6900001 -612.78998
-64.260002 -7.6900001 -612.96002
-63.73 -7.6999998 -613.17999
-63.18 -7.6999998 -613.33002
-62.639999 -7.6999998 -613.51001
-62.09 -7.6999998 -613.70001
-61.560001 -7.71 -614.04999
-61.02 -7.71 -614.26001
-60.490002 -7.71 -614.58002
-59.959999 -7.7199998 -614.89001
-59.43 -7.7199998 -615.26001
-58.91 -7.73 -615.69
-58.389999 -7.73 -616.15997
-57.869999 -7.7399998 -616.69
-57.349998 -7.75 -617.13
-56.830002 -7.75 -617.65997
-56.32 -7.7600002 -618.28998
-55.830002 -7.77 -619.08002
-55.32 -7.7800002 -619.73999
-54.810001 -7.79 -620.34998
-54.310001 -7.8000002 -621.19
-53.810001 -7.8099999 -621.98999
-53.299999 -7.8099999 -622.59998
-52.790001 -7.8200002 -623.34998
-52.259998 -7.8299999 -623.84003
-51.709999 -7.8299999 -624.15997
-51.169998 -7.8400002 -624.46997
-50.610001 -7.8400002 -624.65002
-50.040001 -7.8400002 -624.73999
-49.48 -7.8400002 -624.92999
-48.919998 -7.8499999 -625.06
-48.349998 -7.8499999 -625.13
-47.779999 -7.8499999 -625.15002
-47.209999 -7.8499999 -625.21002
-46.639999 -7.8499999 -625.26001
-46.07 -7.8499999 -625.32001
-45.509998 -7.8499999 -625.5
-44.950001 -7.8499999 -625.59998
-44.380001 -7.8499999 -625.63
-43.810001 -7.8499999 -625.71997
-43.240002 -7.8499999 -625.77002
-42.66 -7.8499999 -625.78998
-42.099998 -7.8600001 -625.96002
-41.529999 -7.8600001 -625.98999
-40.970001 -7.8600001 -626.14001
-40.400002 -7.8600001 -626.21997
-39.82 -7.8600001 -626.21002
-39.25 -7.8600001 -626.28003
-38.689999 -7.8600001 -626.44
-38.110001 -7.8600001 -626.45001
-37.540001 -7.8600001 -626.41998
-36.970001 -7.8600001 -626.54999
-36.389999 -7.8600001 -626.53003
-35.830002 -7.8699999 -626.73999
-35.259998 -7.8699999 -626.72998
-34.689999 -7.8699999 -626.84998
-34.119999 -7.8699999 -626.94
-33.549999 -7.8699999 -626.96997
-32.970001 -7.8699999 -627.06
-32.400002 -7.8699999 -627.13
-31.83 -7.8699999 -627.13
-31.26 -7.8699999 -627.29999
-30.690001 -7.8699999 -627.34003
-30.120001 -7.8699999 -627.39001
-29.549999 -7.8800001 -627.52002
-28.98 -7.8800001 -627.62
-28.4 -7.8800001 -627.67999
-27.83 -7.8800001 -627.81
-27.26 -7.8800001 -627.85999
-26.690001 -7.8800001 -627.92999
-26.120001 -7.8800001 -628.06
-25.540001 -7.8800001 -628.13
-24.969999 -7.8899999 -628.21997
-24.4 -7.8899999 -628.28003
-23.83 -7.8899999 -628.42999
-23.26 -7.8899999 -628.60999
-22.68 -7.8899999 -628.70001
-22.110001 -7.8899999 -628.78003
-21.530001 -7.8899999 -628.59003
-20.93 -7.8800001 -628.09998
-13.5 -7.9200001 -630.66998
-12.95 -7.9299998 -631.89001
-12.38 -7.9400001 -632.32001
-11.8 -7.9400001 -632.73999
-11.23 -7.9400001 -632.90997
-10.65 -7.9499998 -633.13
-10.07 -7.9499998 -633.15997
-9.4899998 -7.9499998 -633.17999
-8.9099998 -7.9499998 -633.34003
-8.3299999 -7.9499998 -633.51001
-7.75 -7.9499998 -633.65997
-7.1700001 -7.96 -633.79999
-6.5900002 -7.96 -633.97998
-6.0100002 -7.96 -634.09998
-5.4299998 -7.96 -634.17999
-4.8499999 -7.96 -634
-4.27 -7.96 -633.77002
-3.6800001 -7.9499998 -633.15997
-3.0999999 -7.9400001 -632.64001
-2.52 -7.9400001 -632.20001
-1.9400001 -7.9299998 -631.59998
-1.36 -7.9200001 -631.15002
-0.77999997 -7.9200001 -630.82001
-0.2 -7.9099998 -630.37
0.38 -7.9099998 -630
0.95999998 -7.9000001 -629.56
1.53 -7.9000001 -629.15002
2.1099999 -7.8899999 -628.67999
2.6800001 -7.8899999 -628.44
3.26 -7.8800001 -628.02002
3.8299999 -7.8800001 -627.67999
4.4099998 -7.8699999 -627.34003
4.98 -7.8699999 -627.09998
5.5500002 -7.8699999 -626.90002
6.1199999 -7.8600001 -626.59003
6.6999998 -7.8600001 -626.28003
7.27 -7.8600001 -626.04999
7.8400002 -7.8499999 -625.78998
8.4099998 -7.8499999 -625.59998
8.9799995 -7.8499999 -625.32001
9.5500002 -7.8400002 -625.08002
10.12 -7.8400002 -624.92999
10.69 -7.8400002 -624.77002
11.26 -7.8400002 -624.59003
11.83 -7.8299999 -624.28998
12.4 -7.8299999 -624.21997
12.97 -7.8299999 -624.08002
13.53 -7.8299999 -623.84998
14.1 -7.8299999 -623.76001
14.67 -7.8299999 -623.72998
15.24 -7.8299999 -623.53003
15.81 -7.8200002 -623.46002
16.379999 -7.8200002 -623.34998
16.950001 -7.8200002 -623.40002
17.52 -7.8200002 -623.29999
18.09 -7.8200002 -623.21997
18.66 -7.8200002 -623.16998
19.23 -7.8200002 -623.07001
19.799999 -7.8200002 -623
20.370001 -7.8200002 -622.90002
20.93 -7.8200002 -622.78998
21.5 -7.8099999 -622.71002
22.07 -7.8099999 -622.57001
22.639999 -7.8099999 -622.46002
23.200001 -7.8099999 -622.40002
23.77 -7.8099999 -622.34998
24.34 -7.8099999 -622.31
24.91 -7.8099999 -622.22998
25.48 -7.8099999 -622.19
26.049999 -7.8099999 -622.20001
26.620001 -7.8099999 -622.19
27.190001 -7.8099999 -622.19
27.76 -7.8099999 -622.21997
28.33 -7.8099999 -622.26001
28.9 -7.8099999 -622.26001
29.48 -7.8099999 -622.33002
30.049999 -7.8099999 -622.29999
30.629999 -7.8099999 -622.47998
31.200001 -7.8099999 -622.47998
31.77 -7.8099999 -622.54999
32.34 -7.8099999 -622.51001
32.91 -7.8099999 -622.5
33.48 -7.8099999 -622.48999
34.049999 -7.8099999 -622.38
34.619999 -7.8099999 -622.42999
35.189999 -7.8099999 -622.40997
35.77 -7.8099999 -622.51001
36.34 -7.8099999 -622.57001
36.919998 -7.8099999 -622.65997
37.5 -7.8200002 -622.84998
38.080002 -7.8200002 -622.95001
38.66 -7.8200002 -623.04999
39.240002 -7.8200002 -623.27002
39.82 -7.8200002 -623.41998
40.41 -7.8299999 -623.59003
40.990002 -7.8299999 -623.73999
41.57 -7.8299999 -623.94
42.150002 -7.8299999 -624.08002
42.740002 -7.8299999 -624.22998
43.310001 -7.8400002 -624.28003
43.900002 -7.8400002 -624.42999
44.490002 -7.8400002 -624.67999
45.07 -7.8400002 -624.84998
45.66 -7.8499999 -625.09003
46.259998 -7.8499999 -625.33002
46.849998 -7.8499999 -625.63
47.439999 -7.8600001 -625.82001
48.049999 -7.8600001 -626.21002
48.639999 -7.8600001 -626.45001
49.240002 -7.8699999 -626.78998
49.849998 -7.8699999 -627.21997
50.450001 -7.8800001 -627.5
51.049999 -7.8800001 -627.87
51.66 -7.8899999 -628.26001
52.27 -7.8899999 -628.65997
52.880001 -7.9000001 -629.02002
53.490002 -7.9000001 -629.41998
54.099998 -7.9099998 -629.82001
54.709999 -7.9099998 -630.19
55.330002 -7.9200001 -630.56
55.919998 -7.9200001 -630.77002
56.540001 -7.9200001 -631.14001
57.130001 -7.9299998 -631.33002
57.720001 -7.9299998 -631.38
58.299999 -7.9299998 -631.45001
58.900002 -7.9299998 -631.59003
59.48 -7.9299998 -631.65997
60.080002 -7.9299998 -631.90002
60.669998 -7.9299998 -631.90997
61.279999 -7.9400001 -632.25
61.880001 -7.9400001 -632.42999
62.48 -7.9400001 -632.60999
63.080002 -7.9499998 -632.83002
63.689999 -7.9499998 -633.17999
64.290001 -7.9499998 -633.32001
64.889999 -7.9499998 -633.52002
65.489998 -7.96 -633.70001
66.089996 -7.96 -633.89001
66.690002 -7.96 -634.03003
67.300003 -7.96 -634.23999
67.889999 -7.9699998 -634.37
68.510002 -7.9699998 -634.70001
69.110001 -7.9699998 -634.90002
69.709999 -7.9699998 -634.98999
70.279999 -7.9699998 -634.88
70.809998 -7.9699998 -634.47998
71.339996 -7.96 -633.98999
71.760002 -7.9400001 -632.60999
72.220001 -7.9299998 -631.52002
72.209999 -7.8600001 -626.46002
72.07 -7.79 -620.39001
72.43 -7.77 -618.66998
72.830002 -7.75 -617.27002
73.269997 -7.73 -616.16998
73.720001 -7.7199998 -615.27002
74.18 -7.71 -614.42999
74.68 -7.6999998 -613.88
75.160004 -7.6999998 -613.25
75.68 -7.6900001 -612.84998
76.18 -7.6900001 -612.37
76.68 -7.6799998 -611.92999
77.199997 -7.6799998 -611.60999
77.739998 -7.6700001 -611.41998
78.269997 -7.6700001 -611.15002
78.809998 -7.6700001 -611.04999
79.370003 -7.6700001 -611.03998
79.919998 -7.6700001 -610.95001
80.489998 -7.6700001 -610.98999
81.059998 -7.6700001 -611.07001
81.620003 -7.6700001 -611.09998
82.220001 -7.6700001 -611.35999
82.800003 -7.6799998 -611.52002
83.400002 -7.6799998 -611.78003
83.989998 -7.6799998 -612.01001
84.620003 -7.6900001 -612.42999
85.25 -7.6900001 -612.90997
85.860001 -7.6999998 -613.28003
86.5 -7.6999998 -613.84003
87.139999 -7.71 -614.34998
87.779999 -7.7199998 -614.88
88.419998 -7.73 -615.41998
89.099998 -7.7399998 -616.20001
89.769997 -7.7399998 -616.87
90.459999 -7.75 -617.71002
91.139999 -7.7600002 -618.48999
91.830002 -7.77 -619.32001
92.550003 -7.79 -620.26001
93.290001 -7.8000002 -621.42999
94.040001 -7.8200002 -622.59003
94.849998 -7.8400002 -624.15002
95.699997 -7.8600001 -625.89001
96.720001 -7.9000001 -628.73999
98.010002 -7.9499998 -633.29999
98.989998 -7.9899998 -635.85999
99.82 -8.0100002 -637.39001
100.61 -8.0200005 -638.63
101.38 -8.04 -639.81
102.19 -8.0500002 -641.19
103.04 -8.0699997 -642.76001
-164.27 -8.4799995 -629.48999
-163.59 -8.4799995 -629.10999
-162.92 -8.4700003 -628.72998
-162.2 -8.4700003 -628.20001
-161.55 -8.46 -627.91998
-160.92 -8.46 -627.71997
-160.35001 -8.46 -627.73999
-159.77 -8.46 -627.71002
-159.21001 -8.46 -627.79999
-158.64 -8.46 -627.78998
-158.05 -8.46 -627.73999
-157.47 -8.46 -627.72998
-156.91 -8.46 -627.78998
-156.31 -8.46 -627.71997
-155.73 -8.46 -627.70001
-155.16 -8.46 -627.71997
-154.58 -8.46 -627.71002
-153.99001 -8.46 -627.65997
-153.39999 -8.46 -627.58002
-152.82001 -8.46 -627.54999
-152.24001 -8.46 -627.56
-151.66 -8.46 -627.52002
-151.08 -8.46 -627.53003
-150.5 -8.46 -627.47998
-149.92 -8.46 -627.46997
-149.36 -8.46 -627.57001
-148.77 -8.46 -627.48999
-148.2 -8.46 -627.53998
-147.64999 -8.46 -627.63
-147.07001 -8.46 -627.60999
-146.50999 -8.46 -627.66998
-145.95 -8.46 -627.73999
-145.41 -8.46 -627.90002
-144.81 -8.46 -627.82001
-144.27 -8.46 -627.95001
-143.71001 -8.46 -628.01001
-143.16 -8.4700003 -628.13
-142.60001 -8.4700003 -628.20001
-142.03999 -8.4700003 -628.27002
-141.5 -8.4700003 -628.42999
-140.96001 -8.4700003 -628.59998
-140.42 -8.4700003 -628.76001
-139.84 -8.4700003 -628.76001
-139.3 -8.4799995 -628.94
-138.75 -8.4799995 -629.04999
-138.2 -8.4799995 -629.19
-137.64999 -8.4799995 -629.29999
-137.09 -8.4799995 -629.40002
-136.58 -8.4899998 -629.70001
-136.03 -8.4899998 -629.84998
-135.48 -8.4899998 -629.96002
-134.95 -8.4899998 -630.15002
-134.41 -8.5 -630.34998
-133.87 -8.5 -630.53003
-133.35001 -8.5 -630.79999
-132.81 -8.5 -630.97998
-132.25999 -8.5100002 -631.13
-131.72 -8.5100002 -631.34003
-131.21001 -8.5100002 -631.65997
-130.67 -8.5200005 -631.83002
-130.13 -8.5200005 -632.03998
-129.59 -8.5200005 -632.23999
-129.05 -8.5200005 -632.44
-128.50999 -8.5299997 -632.64001
-127.99 -8.5299997 -632.94
-127.46 -8.5299997 -633.15002
-126.91 -8.54 -633.33002
-126.38 -8.54 -633.59003
-125.83 -8.54 -633.71997
-125.27 -8.54 -633.85999
-124.73 -8.5500002 -634.07001
-124.16 -8.5500002 -634.14001
-123.61 -8.5500002 -634.28003
-123.06 -8.5500002 -634.44
-122.49 -8.5500002 -634.53003
-121.92 -8.5500002 -634.58002
-121.37 -8.5600004 -634.75
-120.8 -8.5600004 -634.84003
-120.22 -8.5600004 -634.83002
-119.65 -8.5600004 -634.90997
-119.1 -8.5600004 -635.06
-118.52 -8.5600004 -635.09003
-117.94 -8.5600004 -635.13
-117.38 -8.5600004 -635.25
-116.79 -8.5600004 -635.21002
-116.19 -8.5600004 -635.12
-115.58 -8.5600004 -634.98999
-114.97 -8.5600004 -634.84003
-114.31 -8.5500002 -634.41998
-113.62 -8.54 -633.82001
-112.79 -8.5200005 -632.46002
-111.89 -8.5 -630.65002
-111.04 -8.4799995 -629.15002
-110.3 -8.4700003 -628.27002
-109.57 -8.4499998 -627.40997
-108.9 -8.4499998 -626.83002
-108.25 -8.4399996 -626.40997
-107.63 -8.4399996 -626.15997
-107 -8.4300003 -625.87
-106.4 -8.4300003 -625.71997
-105.79 -8.4300003 -625.48999
-105.19 -8.4300003 -625.32001
-104.56 -8.4200001 -624.98999
-103.91 -8.4200001 -624.56
-103.18 -8.3999996 -623.65002
-102.39 -8.3800001 -622.31
-101.64 -8.3699999 -621.21997
-100.96 -8.3599997 -620.57001
-100.31 -8.3500004 -620.09003
-99.690002 -8.3500004 -619.78003
-99.080002 -8.3500004 -619.53003
-98.489998 -8.3400002 -619.37
-97.900002 -8.3400002 -619.26001
-97.300003 -8.3400002 -619.03998
-96.720001 -8.3400002 -618.97998
-96.120003 -8.3400002 -618.79999
-95.529999 -8.3299999 -618.67999
-94.959999 -8.3299999 -618.65002
-94.379997 -8.3299999 -618.56
-93.809998 -8.3299999 -618.57001
-93.220001 -8.3299999 -618.40002
-92.629997 -8.3299999 -618.23999
-92.040001 -8.3299999 -618.12
-91.459999 -8.3299999 -618.02002
-90.879997 -8.3199997 -617.92999
-90.290001 -8.3199997 -617.76001
-89.699997 -8.3199997 -617.63
-89.099998 -8.3199997 -617.40997
-88.510002 -8.3100004 -617.21997
-87.910004 -8.3100004 -617.03003
-87.32 -8.3100004 -616.82001
-86.739998 -8.3100004 -616.77002
-86.129997 -8.3000002 -616.46997
-85.540001 -8.3000002 -616.27002
-84.93 -8.3000002 -615.96997
-84.349998 -8.29 -615.84003
-83.75 -8.29 -615.59003
-83.160004 -8.29 -615.41998
-82.559998 -8.29 -615.12
-81.959999 -8.2799997 -614.89001
-81.360001 -8.2799997 -614.62
-80.779999 -8.2799997 -614.47998
-80.169998 -8.2700005 -614.17999
-79.589996 -8.2700005 -614.01001
-79 -8.2700005 -613.84003
-78.419998 -8.2700005 -613.67999
-77.839996 -8.2600002 -613.54999
-77.25 -8.2600002 -613.32001
-76.660004 -8.2600002 -613.16998
-76.080002 -8.2600002 -613.02002
-75.5 -8.25 -612.89001
-74.93 -8.25 -612.76001
-74.360001 -8.25 -612.72998
-73.790001 -8.25 -612.67999
-73.209999 -8.25 -612.54999
-72.639999 -8.25 -612.46997
-72.080002 -8.25 -612.46002
-71.5 -8.25 -612.35999
-70.940002 -8.25 -612.31
-70.379997 -8.25 -612.38
-69.82 -8.25 -612.40997
-69.260002 -8.25 -612.37
-68.699997 -8.25 -612.38
-68.160004 -8.25 -612.59998
-67.589996 -8.25 -612.54999
-67.050003 -8.25 -612.69
-66.480003 -8.25 -612.69
-65.93 -8.25 -612.78998
-65.389999 -8.25 -612.91998
-64.830002 -8.25 -612.98999
-64.279999 -8.2600002 -613.10999
-63.75 -8.2600002 -613.38
-63.200001 -8.2600002 -613.53003
-62.66 -8.2600002 -613.70001
-62.110001 -8.2700005 -613.90997
-61.57 -8.2700005 -614.13
-61.040001 -8.2700005 -614.47998
-60.509998 -8.2799997 -614.79999
-59.990002 -8.2799997 -615.16998
-59.459999 -8.29 -615.54999
-58.93 -8.29 -615.94
-58.41 -8.3000002 -616.37
-57.880001 -8.3100004 -616.77002
-57.360001 -8.3100004 -617.26001
-56.849998 -8.3199997 -617.82001
-56.330002 -8.3299999 -618.39001
-55.84 -8.3400002 -619.15997
-55.330002 -8.3500004 -619.81
-54.830002 -8.3599997 -620.60999
-54.32 -8.3699999 -621.29999
-53.830002 -8.3800001 -622.15997
-53.32 -8.3900003 -622.84003
-52.799999 -8.3999996 -623.51001
-52.259998 -8.3999996 -623.90002
-51.720001 -8.4099998 -624.21002
-51.16 -8.4099998 -624.45001
-50.630001 -8.4200001 -624.85999
-50.060001 -8.4200001 -624.96997
-49.5 -8.4200001 -625.09003
-48.93 -8.4200001 -625.15997
-48.360001 -8.4200001 -625.25
-47.799999 -8.4200001 -625.34998
-47.23 -8.4200001 -625.42999
-46.66 -8.4200001 -625.46002
-46.099998 -8.4300003 -625.64001
-45.52 -8.4300003 -625.63
-44.950001 -8.4300003 -625.66998
-44.389999 -8.4300003 -625.78003
-43.82 -8.4300003 -625.89001
-43.240002 -8.4300003 -625.87
-42.68 -8.4300003 -626.01001
-42.110001 -8.4300003 -626.03998
-41.549999 -8.4399996 -626.28003
-40.98 -8.4399996 -626.29999
-40.41 -8.4399996 -626.41998
-39.830002 -8.4399996 -626.37
-39.259998 -8.4399996 -626.47998
-38.700001 -8.4399996 -626.57001
-38.130001 -8.4399996 -626.66998
-37.549999 -8.4399996 -626.67999
-36.98 -8.4399996 -626.71997
-36.41 -8.4399996 -626.84998
-35.84 -8.4399996 -626.87
-35.27 -8.4399996 -627.01001
-34.700001 -8.4499998 -627.09998
-34.130001 -8.4499998 -627.14001
-33.560001 -8.4499998 -627.17999
-32.98 -8.4499998 -627.23999
-32.419998 -8.4499998 -627.35999
-31.85 -8.4499998 -627.48999
-31.27 -8.4499998 -627.48999
-30.709999 -8.4499998 -627.69
-30.129999 -8.4499998 -627.76001
-29.57 -8.46 -627.96002
-28.99 -8.46 -628.01001
-28.42 -8.46 -628.04999
-27.85 -8.46 -628.19
-27.280001 -8.46 -628.22998
-26.700001 -8.46 -628.27002
-26.129999 -8.46 -628.37
-25.559999 -8.4700003 -628.53998
-24.99 -8.4700003 -628.62
-24.41 -8.4700003 -628.67999
-23.84 -8.4700003 -628.89001
-23.27 -8.4700003 -629.06
-22.700001 -8.4700003 -629.20001
-22.120001 -8.4700003 -629.09998
-21.530001 -8.4700003 -628.66998
-12.95 -8.5100002 -632.09998
-12.39 -8.5200005 -632.87
-11.81 -8.5299997 -633.21002
-11.24 -8.5299997 -633.46002
-10.66 -8.5299997 -633.59998
-10.08 -8.54 -633.66998
-9.5 -8.54 -633.81
-8.9200001 -8.54 -633.85999
-8.3400002 -8.54 -633.96997
-7.7600002 -8.54 -634.08002
-7.1799998 -8.54 -634.23999
-6.5999999 -8.5500002 -634.40997
-6.02 -8.5500002 -634.54999
-5.4400001 -8.5500002 -634.5
-4.8499999 -8.5500002 -634.41998
-4.27 -8.54 -634.14001
-3.6800001 -8.5299997 -633.48999
-3.0999999 -8.5299997 -632.96002
-2.52 -8.5200005 -632.45001
-1.9400001 -8.5100002 -632.03003
-1.36 -8.5 -631.37
-0.77999997 -8.5 -630.96002
-0.2 -8.4899998 -630.52002
0.38 -8.4899998 -630.13
0.95999998 -8.4799995 -629.75
1.53 -8.4799995 -629.40002
2.1099999 -8.4700003 -628.91998
2.6900001 -8.4700003 -628.59003
3.26 -8.46 -628.20001
3.8299999 -8.46 -627.92999
4.4099998 -8.4499998 -627.51001
4.98 -8.4499998 -627.19
5.5500002 -8.4399996 -626.95001
6.1199999 -8.4399996 -626.67999
6.6999998 -8.4399996 -626.35999
7.27 -8.4300003 -626.15997
7.8400002 -8.4300003 -625.87
8.4099998 -8.4300003 -625.71997
8.9799995 -8.4200001 -625.46002
9.5500002 -8.4200001 -625.31
10.12 -8.4200001 -625.04999
10.69 -8.4200001 -624.90002
11.26 -8.4099998 -624.66998
11.83 -8.4099998 -624.53998
12.4 -8.4099998 -624.34998
12.97 -8.4099998 -624.19
13.54 -8.3999996 -624
14.11 -8.3999996 -623.91998
14.68 -8.3999996 -623.77002
15.25 -8.3999996 -623.77002
15.82 -8.3999996 -623.62
16.389999 -8.3999996 -623.56
16.959999 -8.3999996 -623.51001
17.52 -8.3999996 -623.39001
18.09 -8.3900003 -623.31
18.66 -8.3900003 -623.22998
19.23 -8.3900003 -623.15002
19.799999 -8.3900003 -623.15997
20.370001 -8.3900003 -623.03998
20.940001 -8.3900003 -622.91998
21.51 -8.3900003 -622.85999
22.08 -8.3900003 -622.85999
22.65 -8.3900003 -622.81
23.219999 -8.3900003 -622.71002
23.790001 -8.3900003 -622.75
24.360001 -8.3900003 -622.69
24.93 -8.3900003 -622.67999
25.5 -8.3800001 -622.63
26.07 -8.3800001 -622.62
26.639999 -8.3800001 -622.60999
27.209999 -8.3800001 -622.60999
27.780001 -8.3800001 -622.63
28.35 -8.3900003 -622.70001
28.92 -8.3900003 -622.69
29.5 -8.3900003 -622.75
30.07 -8.3900003 -622.78003
30.639999 -8.3900003 -622.82001
31.219999 -8.3900003 -622.90002
31.790001 -8.3900003 -622.95001
32.369999 -8.3900003 -623.13
32.939999 -8.3900003 -623.09998
33.52 -8.3900003 -623.12
34.09 -8.3900003 -623.09998
34.66 -8.3900003 -623.03998
35.220001 -8.3900003 -622.90002
35.790001 -8.3900003 -622.96002
36.369999 -8.3900003 -623.04999
36.939999 -8.3900003 -623.08002
37.52 -8.3900003 -623.16998
38.099998 -8.3900003 -623.22998
38.68 -8.3999996 -623.41998
39.259998 -8.3999996 -623.54999
