# .PCD v0.7 - Point Cloud Data file format
VERSION 0.7
FIELDS x y z
SIZE 4 4 4
TYPE F F F
COUNT 1 1 1
WIDTH 1826
HEIGHT 1
VIEWPOINT 0 0 0 1 0 0 0
POINTS 1826
DATA ascii
55.669998 -11.83 -654.64001
56.299999 -11.83 -655.04999
56.93 -11.84 -655.34998
57.560001 -11.85 -655.69
58.189999 -11.85 -656.02002
58.860001 -11.86 -656.65997
59.490002 -11.87 -656.96997
60.150002 -11.88 -657.59003
60.790001 -11.89 -657.96997
61.439999 -11.9 -658.52002
62.060001 -11.9 -658.65997
62.669998 -11.9 -658.75
63.299999 -11.91 -658.96997
63.939999 -11.91 -659.34003
64.580002 -11.92 -659.66998
65.209999 -11.92 -659.91998
65.839996 -11.93 -660.17999
66.489998 -11.94 -660.53998
67.139999 -11.94 -661
67.779999 -11.95 -661.27002
68.400002 -11.95 -661.46002
69.040001 -11.96 -661.78998
69.68 -11.96 -662.09003
70.330002 -11.97 -662.47998
70.970001 -11.98 -662.77002
71.620003 -11.98 -663.15002
72.269997 -11.99 -663.51001
72.919998 -12 -663.88
73.580002 -12.01 -664.28003
74.209999 -12.01 -664.46002
74.849998 -12.01 -664.76001
75.480003 -12.02 -664.85999
76.080002 -12.02 -664.82001
76.639999 -12.01 -664.38
77.18 -12 -663.76001
77.620003 -11.97 -662.34003
78.099998 -11.95 -661.28003
78.559998 -11.93 -660.04999
79.080002 -11.92 -659.35999
79.57 -11.9 -658.35999
80.059998 -11.88 -657.46997
80.529999 -11.86 -656.40997
81.050003 -11.85 -655.72998
81.519997 -11.83 -654.69
82.040001 -11.82 -654.03998
82.519997 -11.8 -653.13
83.019997 -11.79 -652.33002
83.510002 -11.77 -651.46002
84.019997 -11.76 -650.84003
84.5 -11.74 -649.89001
85.010002 -11.73 -649.26001
85.480003 -11.71 -648.28998
85.989998 -11.7 -647.67999
86.470001 -11.69 -646.88
86.989998 -11.68 -646.27002
87.480003 -11.66 -645.53003
88 -11.65 -645.03998
88.529999 -11.65 -644.57001
89.059998 -11.64 -644.12
89.599998 -11.63 -643.75
90.120003 -11.62 -643.22998
90.650002 -11.61 -642.84003
91.199997 -11.61 -642.58002
91.75 -11.6 -642.28003
92.32 -11.6 -642.13
92.870003 -11.6 -641.89001
93.449997 -11.6 -641.81
94.019997 -11.59 -641.66998
94.620003 -11.59 -641.76001
95.209999 -11.59 -641.75
95.830002 -11.6 -641.97998
96.449997 -11.6 -642.16998
97.089996 -11.61 -642.51001
97.75 -11.62 -642.96997
98.43 -11.63 -643.51001
99.139999 -11.64 -644.29999
99.860001 -11.66 -645.09003
100.62 -11.68 -646.15002
101.4 -11.7 -647.34003
102.36 -11.74 -649.63
103.36 -11.79 -652.15997
-163.37 -10.58 -558.52002
-162.92999 -10.59 -558.76001
-162.45 -10.59 -558.85999
-161.94 -10.59 -558.84998
-161.5 -10.59 -559.09003
-161.08 -10.6 -559.40002
-160.63 -10.6 -559.63
-160.28 -10.62 -560.16998
-159.91 -10.62 -560.66998
-159.55 -10.64 -561.21002
-159.21001 -10.65 -561.81
-158.89 -10.66 -562.5
-158.57001 -10.67 -563.15997
-158.14999 -10.68 -563.48999
-157.66 -10.68 -563.59003
-157.14 -10.68 -563.54999
-156.60001 -10.68 -563.48999
-156.09 -10.68 -563.52002
-155.60001 -10.68 -563.59998
-155.14 -10.69 -563.79999
-154.72 -10.69 -564.14001
-154.32001 -10.7 -564.56
-153.98 -10.71 -565.21002
-155.78999 -10.87 -573.62
-155.38 -10.88 -574.07001
-155.12 -10.9 -575.01001
-154.71001 -10.91 -575.46997
-154.41 -10.93 -576.29999
-154.03999 -10.94 -576.85999
-153.75 -10.95 -577.76001
-153.46001 -10.97 -578.64001
-153.32001 -11 -580.09998
-153.22 -11.03 -581.71997
-153.17999 -11.07 -583.56
-153.14 -11.1 -585.44
-152.85001 -11.12 -586.34003
-152.53 -11.14 -587.16998
-152.3 -11.16 -588.34003
-152.39999 -11.21 -590.79999
-152.17999 -11.23 -592
-151.83 -11.24 -592.77002
-151.59 -11.27 -593.95001
-162.59 -12.17 -640.90997
-161.88 -12.16 -640.44
-161.16 -12.15 -639.94
-160.49001 -12.15 -639.59003
-159.78999 -12.14 -639.14001
-159.14999 -12.13 -638.92999
-158.50999 -12.13 -638.75
-157.92 -12.13 -638.72998
-157.38 -12.13 -638.89001
-156.72 -12.13 -638.59998
-154.39999 -11.99 -631.63
-141.71001 -11.13 -586.96002
-139.42 -10.99 -579.78003
-138.69 -10.98 -578.96002
-137.75 -10.95 -577.28003
-136.92 -10.92 -576.03003
-135.45 -10.85 -572.10999
-134.34 -10.8 -569.65002
-133.77 -10.8 -569.46997
-133.25 -10.8 -569.46997
-132.75999 -10.8 -569.62
-132.3 -10.8 -569.87
-131.88 -10.81 -570.32001
-131.44 -10.82 -570.66998
-131.07001 -10.83 -571.29999
-130.67 -10.84 -571.87
-130.28 -10.85 -572.41998
-129.56 -10.84 -571.59003
-127.53 -10.71 -565
-126.62 -10.68 -563.32001
-125.89 -10.66 -562.37
-125.24 -10.65 -561.75
-124.57 -10.63 -561.09003
-123.92 -10.62 -560.5
-123.28 -10.61 -559.90002
-122.68 -10.6 -559.53003
-122.05 -10.59 -559
-121.49 -10.59 -558.76001
-120.9 -10.58 -558.44
-120.33 -10.58 -558.17999
-119.76 -10.57 -557.90002
-119.19 -10.57 -557.62
-118.65 -10.56 -557.47998
-118.08 -10.56 -557.20001
-117.54 -10.56 -557.08002
-116.99 -10.55 -556.87
-116.43 -10.55 -556.65002
-115.9 -10.55 -556.56
-115.35 -10.54 -556.38
-114.83 -10.54 -556.29999
-114.27 -10.54 -556.09998
-113.6 -10.52 -555.31
-112.84 -10.5 -554.09998
-112.21 -10.49 -553.52002
-111.67 -10.48 -553.35999
-111.13 -10.48 -553.17999
-110.59 -10.48 -553.01001
-110.07 -10.48 -552.96002
-109.53 -10.47 -552.82001
-109.02 -10.47 -552.78998
-108.49 -10.47 -552.65997
-107.98 -10.47 -552.65002
-107.45 -10.47 -552.53003
-106.92 -10.47 -552.39001
-106.4 -10.46 -552.32001
-105.88 -10.46 -552.27002
-105.37 -10.46 -552.25
-104.87 -10.46 -552.26001
-104.36 -10.46 -552.28003
-103.86 -10.46 -552.29999
-103.36 -10.46 -552.29999
-102.88 -10.47 -552.45001
-102.37 -10.47 -552.46002
-101.87 -10.47 -552.5
-101.38 -10.47 -552.53998
-100.89 -10.47 -552.63
-100.39 -10.47 -552.71002
-99.910004 -10.47 -552.82001
-99.419998 -10.47 -552.92999
-98.940002 -10.48 -553.09003
-98.440002 -10.48 -553.12
-97.93 -10.48 -553.10999
-97.459999 -10.48 -553.28003
-96.970001 -10.48 -553.38
-96.480003 -10.49 -553.46997
-95.980003 -10.49 -553.52002
-95.489998 -10.49 -553.65002
-95 -10.49 -553.76001
-94.529999 -10.49 -553.91998
-94.040001 -10.5 -554.07001
-93.559998 -10.5 -554.20001
-93.059998 -10.5 -554.27002
-92.589996 -10.5 -554.46997
-92.099998 -10.51 -554.58002
-91.610001 -10.51 -554.70001
-91.139999 -10.51 -554.91998
-90.650002 -10.51 -555.02002
-90.18 -10.52 -555.27002
-89.699997 -10.52 -555.42999
-89.220001 -10.53 -555.64001
-88.739998 -10.53 -555.82001
-88.269997 -10.53 -556.02002
-87.790001 -10.54 -556.26001
-87.32 -10.54 -556.45001
-86.839996 -10.55 -556.69
-86.370003 -10.55 -556.90997
-85.900002 -10.56 -557.15997
-85.419998 -10.56 -557.40997
-84.949997 -10.56 -557.65997
-84.480003 -10.57 -557.90002
-84.010002 -10.58 -558.21002
-83.529999 -10.58 -558.38
-83.059998 -10.58 -558.64001
-82.589996 -10.59 -558.92999
-82.120003 -10.59 -559.20001
-81.650002 -10.6 -559.53003
-81.18 -10.61 -559.83002
-80.720001 -10.61 -560.14001
-80.25 -10.62 -560.48999
-79.779999 -10.62 -560.78003
-79.32 -10.63 -561.15002
-78.870003 -10.64 -561.59998
-78.410004 -10.65 -561.98999
-77.959999 -10.66 -562.46997
-77.519997 -10.67 -563.02002
-77.059998 -10.67 -563.40002
-76.620003 -10.69 -563.96002
-76.190002 -10.7 -564.58002
-75.760002 -10.71 -565.19
-75.32 -10.72 -565.77002
-74.889999 -10.73 -566.46002
-74.459999 -10.75 -567.09003
-74.040001 -10.76 -567.88
-73.610001 -10.77 -568.54999
-73.209999 -10.79 -569.46997
-72.779999 -10.81 -570.22998
-72.400002 -10.83 -571.29999
-72 -10.85 -572.31
-71.629997 -10.87 -573.48999
-71.260002 -10.89 -574.69
-70.919998 -10.92 -576.26001
-70.559998 -10.95 -577.59003
-70.190002 -10.97 -578.90997
-69.800003 -10.99 -580.03003
-69.5 -11.03 -581.96002
-66.440002 -11.92 -627.98999
-65.910004 -11.92 -628.44
-65.360001 -11.93 -628.64001
-64.790001 -11.93 -628.69
-64.199997 -11.93 -628.62
-63.619999 -11.93 -628.57001
-63.040001 -11.93 -628.51001
-62.459999 -11.92 -628.46997
-61.869999 -11.92 -628.38
-61.310001 -11.93 -628.51001
-60.720001 -11.92 -628.40002
-60.139999 -11.92 -628.40002
-59.57 -11.93 -628.5
-58.990002 -11.92 -628.42999
-58.419998 -11.93 -628.5
-57.860001 -11.93 -628.65002
-57.279999 -11.93 -628.64001
-56.709999 -11.93 -628.72998
-56.150002 -11.93 -628.85999
-55.580002 -11.93 -629
-55.02 -11.94 -629.14001
-54.450001 -11.94 -629.22998
-53.889999 -11.94 -629.40997
-53.330002 -11.95 -629.59998
-52.759998 -11.95 -629.78998
-52.200001 -11.95 -629.96997
-51.639999 -11.96 -630.19
-51.09 -11.96 -630.5
-50.52 -11.97 -630.65002
-49.959999 -11.97 -630.90997
-49.41 -11.98 -631.19
-48.860001 -11.98 -631.58002
-48.310001 -11.99 -631.97998
-47.77 -12 -632.44
-47.23 -12.01 -633.03003
-46.689999 -12.02 -633.54999
-46.150002 -12.03 -634.14001
-45.599998 -12.04 -634.52002
-45.040001 -12.05 -634.89001
-44.490002 -12.05 -635.26001
-43.919998 -12.06 -635.53003
-43.349998 -12.06 -635.71997
-42.77 -12.06 -635.75
-42.18 -12.06 -635.65997
-41.599998 -12.06 -635.66998
-41.009998 -12.06 -635.57001
-40.43 -12.06 -635.56
-39.84 -12.06 -635.52002
-39.259998 -12.06 -635.54999
-38.669998 -12.06 -635.47998
-38.09 -12.06 -635.42999
-37.5 -12.06 -635.45001
-36.919998 -12.06 -635.46002
-36.34 -12.06 -635.44
-35.75 -12.06 -635.40002
-35.169998 -12.06 -635.42999
-34.59 -12.06 -635.47998
-34 -12.06 -635.40997
-33.419998 -12.06 -635.40997
-32.84 -12.06 -635.42999
-32.25 -12.06 -635.39001
-31.68 -12.06 -635.47998
-31.09 -12.06 -635.52002
-30.51 -12.06 -635.52002
-29.93 -12.06 -635.53003
-29.34 -12.06 -635.40002
-28.74 -12.05 -635.13
-28.15 -12.04 -634.76001
-27.540001 -12.03 -634.26001
-26.950001 -12.03 -633.95001
-26.360001 -12.03 -633.83002
-25.780001 -12.03 -633.83002
-25.200001 -12.03 -633.82001
-24.620001 -12.03 -633.85999
-24.040001 -12.03 -633.96997
-23.469999 -12.03 -634.20001
-22.889999 -12.04 -634.44
-22.32 -12.04 -634.59003
-21.74 -12.05 -634.84998
-21.17 -12.05 -635.13
-20.59 -12.05 -635.31
-20.030001 -12.06 -635.76001
-19.450001 -12.07 -636.04999
-18.879999 -12.08 -636.46002
-18.309999 -12.08 -636.77002
-17.73 -12.09 -637.14001
-17.16 -12.1 -637.66998
-16.59 -12.11 -638.10999
-16.01 -12.12 -638.56
-15.44 -12.13 -639.03998
-14.86 -12.13 -639.44
-14.28 -12.14 -639.71002
-13.7 -12.14 -639.84998
-13.11 -12.14 -639.82001
-12.53 -12.14 -639.96997
-11.94 -12.15 -640.12
-11.36 -12.15 -640.17999
-10.77 -12.15 -640.34998
-10.19 -12.16 -640.60999
-9.6099997 -12.16 -640.96997
-9.0200005 -12.17 -641.19
-8.4399996 -12.17 -641.56
-7.8600001 -12.18 -642.02002
-7.2800002 -12.19 -642.57001
-6.6900001 -12.2 -643.03003
-6.0999999 -12.21 -643.45001
-5.52 -12.22 -643.78003
-4.9299998 -12.22 -643.89001
-4.3400002 -12.22 -644.03003
-3.75 -12.23 -644.28003
-3.1600001 -12.23 -644.63
-2.5699999 -12.24 -645.03003
-1.98 -12.25 -645.5
-1.39 -12.26 -646.06
-0.80000001 -12.27 -646.65997
-0.2 -12.29 -647.47998
0.38999999 -12.3 -648.32001
0.99000001 -12.32 -649.33002
1.59 -12.36 -651.25
2.1900001 -12.39 -652.59998
2.79 -12.4 -653.23999
3.3900001 -12.4 -653.29999
3.99 -12.4 -653.21002
4.5900002 -12.4 -653.19
5.1900001 -12.4 -653.12
5.79 -12.39 -652.90997
6.3800001 -12.39 -652.66998
6.98 -12.38 -652.5
7.5799999 -12.38 -652.40002
8.1700001 -12.38 -652.27002
8.7700005 -12.38 -652.06
9.3699999 -12.37 -651.85999
9.96 -12.37 -651.72998
10.56 -12.37 -651.53003
11.15 -12.36 -651.37
11.74 -12.36 -651.16998
12.34 -12.35 -650.91998
12.93 -12.35 -650.78003
13.52 -12.35 -650.58002
14.12 -12.34 -650.33002
14.71 -12.34 -650.06
15.3 -12.33 -649.84998
15.89 -12.33 -649.53998
16.48 -12.32 -649.35999
17.07 -12.32 -649.12
17.66 -12.31 -648.84998
18.24 -12.31 -648.57001
18.83 -12.31 -648.34998
19.41 -12.3 -647.92999
20 -12.29 -647.56
20.58 -12.29 -647.31
21.16 -12.28 -646.96002
21.73 -12.26 -646.19
22.23 -12.21 -643.53998
22.780001 -12.19 -642.29999
23.34 -12.18 -641.65997
23.91 -12.17 -641.17999
24.48 -12.16 -640.62
25.049999 -12.15 -640.23999
25.620001 -12.14 -639.84998
26.200001 -12.14 -639.65002
26.77 -12.13 -639.28998
27.360001 -12.13 -639.15997
27.93 -12.12 -638.84003
28.51 -12.12 -638.78003
29.1 -12.12 -638.73999
29.68 -12.12 -638.73999
30.27 -12.12 -638.73999
30.85 -12.12 -638.71997
31.43 -12.12 -638.63
32.009998 -12.12 -638.52002
32.59 -12.11 -638.40997
33.18 -12.12 -638.46002
33.759998 -12.11 -638.37
34.360001 -12.12 -638.51001
34.959999 -12.12 -638.76001
35.560001 -12.13 -638.97998
36.150002 -12.13 -639.15997
36.75 -12.13 -639.28998
37.34 -12.13 -639.44
37.939999 -12.14 -639.69
38.540001 -12.14 -639.87
39.139999 -12.15 -640.12
39.75 -12.15 -640.45001
40.360001 -12.16 -640.83002
40.98 -12.17 -641.25
41.599998 -12.18 -641.72998
42.220001 -12.19 -642.25
42.849998 -12.2 -642.84003
43.5 -12.22 -643.77002
44.23 -12.25 -645.69
44.970001 -12.3 -647.82001
45.619999 -12.31 -648.53003
46.23 -12.32 -648.84003
46.849998 -12.32 -649.17999
47.490002 -12.33 -649.75
48.119999 -12.34 -650.10999
48.75 -12.35 -650.56
49.360001 -12.35 -650.83002
50 -12.36 -651.33002
50.619999 -12.37 -651.62
51.25 -12.38 -652.02002
51.869999 -12.38 -652.28998
52.509998 -12.39 -652.75
53.139999 -12.4 -653.09998
53.779999 -12.41 -653.60999
54.41 -12.42 -654.03003
55.060001 -12.43 -654.56
55.689999 -12.43 -654.88
56.330002 -12.44 -655.34003
56.959999 -12.45 -655.65002
57.599998 -12.46 -656.15002
58.25 -12.47 -656.62
58.900002 -12.48 -657.17999
59.529999 -12.48 -657.47998
60.18 -12.49 -657.98999
60.82 -12.5 -658.34003
61.470001 -12.51 -658.82001
62.099998 -12.51 -659.03998
62.720001 -12.52 -659.28003
63.360001 -12.52 -659.59003
63.990002 -12.53 -659.79999
64.620003 -12.53 -660.06
65.260002 -12.54 -660.44
65.889999 -12.54 -660.62
66.540001 -12.55 -661.04999
67.18 -12.56 -661.42999
67.82 -12.57 -661.73999
68.470001 -12.57 -662.09003
69.099998 -12.58 -662.33002
69.760002 -12.59 -662.78998
70.400002 -12.59 -663.09998
71.029999 -12.6 -663.33002
71.68 -12.6 -663.63
72.330002 -12.61 -664.03003
72.989998 -12.62 -664.51001
73.629997 -12.62 -664.71997
74.279999 -12.63 -665.04999
74.900002 -12.63 -665.17999
75.550003 -12.64 -665.51001
76.150002 -12.64 -665.38
76.709999 -12.63 -664.94
77.239998 -12.62 -664.31
77.68 -12.59 -662.83002
78.139999 -12.56 -661.63
78.620003 -12.54 -660.51001
79.110001 -12.53 -659.59998
79.599998 -12.51 -658.64001
80.089996 -12.49 -657.71002
80.57 -12.47 -656.73999
81.080002 -12.46 -655.98999
81.57 -12.44 -655.08002
82.07 -12.42 -654.28003
82.559998 -12.41 -653.44
83.059998 -12.39 -652.64001
83.540001 -12.37 -651.75
84.029999 -12.36 -650.91998
84.540001 -12.35 -650.26001
85.040001 -12.33 -649.47998
85.510002 -12.31 -648.56
86.010002 -12.3 -647.82001
86.489998 -12.28 -647.02002
87.010002 -12.27 -646.41998
87.510002 -12.26 -645.78998
88.019997 -12.25 -645.19
88.540001 -12.24 -644.63
89.080002 -12.23 -644.26001
89.599998 -12.22 -643.75
90.129997 -12.21 -643.34998
90.660004 -12.21 -642.94
91.220001 -12.2 -642.71002
91.779999 -12.2 -642.48999
92.339996 -12.19 -642.28998
92.900002 -12.19 -642.04999
93.459999 -12.19 -641.85999
94.040001 -12.18 -641.82001
94.629997 -12.18 -641.79999
95.239998 -12.19 -641.96997
95.860001 -12.19 -642.14001
96.480003 -12.19 -642.34003
97.110001 -12.2 -642.59998
97.769997 -12.21 -643.04999
98.43 -12.22 -643.51001
99.169998 -12.24 -644.46002
99.879997 -12.25 -645.20001
100.62 -12.27 -646.14001
101.43 -12.3 -647.53998
102.34 -12.33 -649.48999
103.38 -12.39 -652.28003
-163.41 -11.1 -558.63
-163 -11.1 -558.97998
-162.5 -11.1 -559.02002
-162.02 -11.11 -559.10999
-161.55 -11.11 -559.28998
-161.13 -11.12 -559.59003
-160.71001 -11.12 -559.90002
-160.32001 -11.13 -560.32001
-159.96001 -11.14 -560.84003
-159.58 -11.15 -561.29999
-159.24001 -11.16 -561.90002
-158.91 -11.18 -562.54999
-158.57001 -11.19 -563.16998
-158.17999 -11.2 -563.59003
-157.72 -11.2 -563.78998
-157.17999 -11.2 -563.71002
-156.64 -11.2 -563.63
-156.14 -11.2 -563.67999
-155.64999 -11.2 -563.78003
-155.17999 -11.21 -563.96002
-154.75 -11.21 -564.22998
-154.36 -11.22 -564.71002
-154.41 -11.26 -566.73999
-155.8 -11.4 -573.65997
-155.42 -11.41 -574.20001
-155.12 -11.43 -575.02002
-154.73 -11.44 -575.51001
-154.42 -11.46 -576.33002
-154.06 -11.47 -576.94
-153.75999 -11.48 -577.78003
-153.55 -11.51 -578.96002
-153.45 -11.54 -580.59003
-153.33 -11.57 -582.13
-153.32001 -11.61 -584.08002
-153.45 -11.66 -586.59003
-153.14999 -11.68 -587.46002
-152.83 -11.7 -588.32001
-152.81 -11.74 -590.28003
-152.61 -11.76 -591.59998
-152.39 -11.79 -592.82001
-152.07001 -11.81 -593.69
-151.81 -11.83 -594.78003
-163.32001 -12.77 -641.46002
-162.57001 -12.76 -640.84003
-161.92999 -12.75 -640.65002
-161.25 -12.75 -640.29999
-160.59 -12.74 -640
-159.92 -12.73 -639.66998
-159.28 -12.73 -639.45001
-158.62 -12.72 -639.15997
-158.00999 -12.72 -639.08002
-157.39999 -12.72 -639
-156.84 -12.72 -639.09003
-156.28 -12.72 -639.17999
-155.71001 -12.73 -639.28998
-155.16 -12.73 -639.40997
-154.61 -12.73 -639.56
-139.92 -11.61 -584.03003
-138.23 -11.51 -579.27002
-137.36 -11.49 -577.83002
-136.57001 -11.46 -576.77002
-135.56 -11.42 -574.78003
-134.10001 -11.34 -570.85999
-133.33 -11.32 -569.82001
-132.86 -11.33 -570.02002
-132.39 -11.33 -570.26001
-131.95 -11.34 -570.60999
-131.64 -11.36 -571.5
-131.34 -11.38 -572.48999
-130.87 -11.38 -572.71997
-130.38 -11.39 -572.87
-129.92999 -11.39 -573.19
-128.77 -11.34 -570.44
-126.87 -11.21 -564.38
-126.07 -11.19 -563.16998
-125.37 -11.17 -562.35999
-124.72 -11.16 -561.73999
-124.04 -11.15 -561.02002
-123.39 -11.13 -560.41998
-122.77 -11.12 -559.95001
-122.16 -11.11 -559.47998
-121.55 -11.11 -559.03998
-120.97 -11.1 -558.75
-120.4 -11.09 -558.47998
-119.81 -11.09 -558.12
-119.26 -11.08 -557.94
-118.68 -11.08 -557.60999
-118.13 -11.07 -557.44
-117.56 -11.07 -557.17999
-117.02 -11.06 -557.01001
-116.46 -11.06 -556.79999
-115.92 -11.06 -556.66998
-115.39 -11.06 -556.54999
-114.85 -11.05 -556.40997
-114.32 -11.05 -556.31
-113.8 -11.05 -556.29999
-113.19 -11.04 -555.78003
-112.46 -11.02 -554.73999
-111.74 -11 -553.70001
-111.17 -10.99 -553.38
-110.62 -10.99 -553.15997
-110.09 -10.98 -553.06
-109.55 -10.98 -552.87
-109.03 -10.98 -552.81
-108.5 -10.98 -552.73999
-108 -10.98 -552.75
-107.46 -10.97 -552.56
-106.94 -10.97 -552.51001
-106.42 -10.97 -552.42999
-105.9 -10.97 -552.37
-105.41 -10.97 -552.42999
-104.91 -10.97 -552.48999
-104.39 -10.97 -552.44
-103.9 -10.97 -552.48999
-103.39 -10.97 -552.47998
-102.88 -10.97 -552.46997
-102.4 -10.97 -552.59003
-101.9 -10.98 -552.62
-101.41 -10.98 -552.75
-100.92 -10.98 -552.82001
-100.43 -10.98 -552.88
-99.919998 -10.98 -552.90002
-99.449997 -10.98 -553.07001
-98.959999 -10.99 -553.16998
-98.459999 -10.99 -553.21997
-97.959999 -10.99 -553.26001
-97.489998 -10.99 -553.44
-96.989998 -10.99 -553.52002
-96.5 -10.99 -553.62
-96 -11 -553.65997
-95.519997 -11 -553.82001
-95.029999 -11 -553.91998
-94.550003 -11 -554.03998
-94.059998 -11.01 -554.16998
-93.580002 -11.01 -554.33002
-93.089996 -11.01 -554.40997
-92.610001 -11.01 -554.59998
-92.110001 -11.02 -554.67999
-91.639999 -11.02 -554.89001
-91.169998 -11.02 -555.12
-90.690002 -11.03 -555.29999
-90.209999 -11.03 -555.45001
-89.720001 -11.03 -555.58002
-89.25 -11.04 -555.81
-88.769997 -11.04 -556.01001
-88.300003 -11.05 -556.21002
-87.830002 -11.05 -556.46997
-87.339996 -11.05 -556.63
-86.860001 -11.06 -556.81
-86.389999 -11.06 -557.08002
-85.919998 -11.07 -557.32001
-85.449997 -11.07 -557.59003
-84.970001 -11.08 -557.81
-84.5 -11.08 -558.07001
-84.029999 -11.09 -558.34003
-83.550003 -11.09 -558.54999
-83.089996 -11.1 -558.84003
-82.620003 -11.11 -559.15002
-82.150002 -11.11 -559.40002
-81.669998 -11.12 -559.65002
-81.209999 -11.12 -560.01001
-80.739998 -11.13 -560.28003
-80.279999 -11.14 -560.64001
-79.809998 -11.14 -560.96002
-79.349998 -11.15 -561.37
-78.900002 -11.16 -561.77002
-78.440002 -11.17 -562.16998
-77.980003 -11.17 -562.59998
-77.540001 -11.19 -563.14001
-77.089996 -11.19 -563.62
-76.660004 -11.21 -564.25
-76.230003 -11.22 -564.84003
-75.809998 -11.23 -565.58002
-75.360001 -11.24 -566.08002
-74.940002 -11.26 -566.83002
-74.5 -11.27 -567.38
-74.089996 -11.29 -568.26001
-73.669998 -11.3 -568.98999
-73.260002 -11.32 -569.90002
-72.860001 -11.34 -570.84998
-72.480003 -11.36 -571.95001
-72.080002 -11.38 -572.92999
-71.730003 -11.41 -574.28003
-71.339996 -11.43 -575.40002
-71.050003 -11.47 -577.28998
-70.650002 -11.49 -578.29999
-70.269997 -11.52 -579.53003
-69.900002 -11.54 -580.84003
-69.660004 -11.59 -583.25
-65.889999 -12.5 -628.21997
-65.349998 -12.5 -628.59003
-64.800003 -12.51 -628.79999
-64.220001 -12.51 -628.79999
-63.639999 -12.51 -628.78003
-63.07 -12.51 -628.81
-62.470001 -12.5 -628.64001
-61.889999 -12.5 -628.62
-61.32 -12.5 -628.60999
-60.740002 -12.51 -628.65997
-60.16 -12.5 -628.62
-59.580002 -12.5 -628.59003
-59.02 -12.51 -628.67999
-58.439999 -12.51 -628.73999
-57.869999 -12.51 -628.75
-57.299999 -12.51 -628.85999
-56.740002 -12.51 -629.03003
-56.169998 -12.51 -629.06
-55.599998 -12.51 -629.15997
-55.029999 -12.52 -629.28998
-54.470001 -12.52 -629.45001
-53.900002 -12.52 -629.56
-53.34 -12.53 -629.75
-52.77 -12.53 -629.87
-52.209999 -12.53 -630.07001
-51.650002 -12.54 -630.29999
-51.080002 -12.54 -630.42999
-50.529999 -12.55 -630.77002
-49.98 -12.55 -631.09998
-49.419998 -12.56 -631.28003
-48.860001 -12.56 -631.59998
-48.32 -12.57 -632.06
-47.779999 -12.58 -632.57001
-47.23 -12.59 -633
-46.689999 -12.6 -633.58002
-46.139999 -12.61 -633.94
-45.580002 -12.62 -634.25
-45.02 -12.62 -634.53998
-44.459999 -12.63 -634.91998
-43.900002 -12.64 -635.26001
-43.330002 -12.64 -635.46002
-42.759998 -12.64 -635.53003
-42.169998 -12.64 -635.47998
-41.580002 -12.64 -635.45001
-41 -12.64 -635.37
-40.41 -12.64 -635.31
-39.830002 -12.64 -635.32001
-39.240002 -12.64 -635.28998
-38.66 -12.64 -635.26001
-38.080002 -12.64 -635.32001
-37.490002 -12.64 -635.28998
-36.91 -12.64 -635.27002
-36.32 -12.64 -635.22998
-35.740002 -12.64 -635.27002
-35.16 -12.64 -635.26001
-34.580002 -12.64 -635.29999
-33.990002 -12.64 -635.25
-33.41 -12.64 -635.26001
-32.830002 -12.64 -635.20001
-32.25 -12.64 -635.32001
-31.67 -12.64 -635.37
-31.09 -12.64 -635.37
-30.5 -12.64 -635.37
-29.91 -12.64 -635.21997
-29.32 -12.63 -634.96997
-28.719999 -12.62 -634.58002
-28.110001 -12.61 -633.91998
-27.51 -12.6 -633.65997
-26.93 -12.6 -633.5
-26.34 -12.6 -633.44
-25.76 -12.6 -633.45001
-25.18 -12.6 -633.53998
-24.610001 -12.6 -633.62
-24.030001 -12.61 -633.72998
-23.450001 -12.61 -633.89001
-22.879999 -12.61 -634.14001
-22.309999 -12.62 -634.37
-21.74 -12.62 -634.60999
-21.16 -12.63 -634.85999
-20.59 -12.63 -635.19
-20.02 -12.64 -635.59003
-19.450001 -12.65 -635.90002
-18.879999 -12.66 -636.33002
-18.309999 -12.67 -636.73999
-17.73 -12.67 -637.13
-17.16 -12.68 -637.59998
-16.59 -12.69 -638.01001
-16.01 -12.7 -638.5
-15.44 -12.71 -639.09998
-14.86 -12.72 -639.45001
-14.28 -12.72 -639.51001
-13.69 -12.72 -639.60999
-13.11 -12.72 -639.64001
-12.52 -12.73 -639.70001
-11.94 -12.73 -639.75
-11.35 -12.73 -639.82001
-10.77 -12.73 -639.98999
-10.19 -12.74 -640.28003
-9.6000004 -12.74 -640.64001
-9.0200005 -12.75 -640.95001
-8.4399996 -12.76 -641.28003
-7.8499999 -12.77 -641.75
-7.27 -12.78 -642.25
-6.6900001 -12.79 -642.78998
-6.0999999 -12.8 -643.23999
-5.5100002 -12.8 -643.41998
-4.9200001 -12.8 -643.46997
-4.3299999 -12.8 -643.60999
-3.75 -12.81 -643.96002
-3.1600001 -12.82 -644.21002
-2.5699999 -12.83 -644.65997
-1.98 -12.83 -645.09003
-1.39 -12.85 -645.76001
-0.80000001 -12.86 -646.5
-0.2 -12.89 -647.65997
0.38999999 -12.91 -648.63
0.99000001 -12.94 -650.21997
1.59 -12.98 -652.15997
2.1900001 -13 -653.20001
2.79 -13.01 -653.59003
3.3900001 -13.01 -653.65997
3.99 -13.01 -653.65002
4.5900002 -13 -653.5
5.1900001 -13 -653.38
5.79 -13 -653.21997
6.3899999 -13 -653.09003
6.98 -12.99 -652.92999
7.5799999 -12.99 -652.78003
8.1800003 -12.99 -652.65002
8.7700005 -12.98 -652.39001
9.3699999 -12.98 -652.16998
9.96 -12.97 -651.96997
10.56 -12.97 -651.82001
11.16 -12.97 -651.66998
11.75 -12.96 -651.40002
12.34 -12.96 -651.23999
12.94 -12.95 -650.96997
13.53 -12.95 -650.79999
14.12 -12.95 -650.64001
14.71 -12.94 -650.38
15.31 -12.94 -650.14001
15.9 -12.93 -650
16.49 -12.93 -649.67999
17.08 -12.92 -649.42999
17.66 -12.91 -649.09003
18.25 -12.91 -648.90002
18.84 -12.9 -648.56
19.42 -12.9 -648.26001
20.01 -12.89 -647.84998
20.59 -12.89 -647.62
21.17 -12.88 -647.21002
21.76 -12.87 -646.90997
22.309999 -12.85 -645.77002
22.83 -12.81 -643.70001
23.360001 -12.77 -642.15002
23.93 -12.77 -641.70001
24.5 -12.75 -641.13
25.07 -12.75 -640.72998
25.639999 -12.74 -640.26001
26.209999 -12.73 -639.88
26.790001 -12.72 -639.64001
27.370001 -12.72 -639.48999
27.950001 -12.72 -639.27002
28.52 -12.71 -639.06
29.110001 -12.71 -638.96002
29.690001 -12.71 -638.89001
30.27 -12.71 -638.84998
30.85 -12.71 -638.71997
31.42 -12.7 -638.38
31.99 -12.69 -638.09998
32.549999 -12.68 -637.56
33.119999 -12.68 -637.34003
33.700001 -12.68 -637.17999
34.299999 -12.68 -637.39001
34.919998 -12.69 -638.04999
35.529999 -12.7 -638.46997
36.130001 -12.71 -638.84998
36.740002 -12.72 -639.22998
37.349998 -12.72 -639.63
37.959999 -12.73 -639.91998
38.560001 -12.74 -640.16998
39.169998 -12.74 -640.52002
39.779999 -12.75 -640.85999
40.389999 -12.76 -641.22998
41.009998 -12.77 -641.73999
41.630001 -12.78 -642.25
42.279999 -12.79 -643.04999
42.93 -12.81 -643.95001
43.689999 -12.86 -646.52002
44.41 -12.9 -648.29999
45.040001 -12.91 -648.83002
45.650002 -12.92 -649.07001
46.279999 -12.92 -649.47998
46.900002 -12.93 -649.78998
47.529999 -12.94 -650.31
48.16 -12.95 -650.66998
48.799999 -12.96 -651.22998
49.41 -12.96 -651.46997
50.029999 -12.97 -651.71997
50.650002 -12.98 -652.02002
51.279999 -12.98 -652.44
51.919998 -12.99 -652.89001
52.560001 -13 -653.34998
53.18 -13.01 -653.63
53.82 -13.02 -654.08002
54.450001 -13.02 -654.44
55.09 -13.03 -654.94
55.720001 -13.04 -655.28003
56.360001 -13.05 -655.65002
56.990002 -13.06 -655.98999
57.630001 -13.07 -656.42999
58.27 -13.07 -656.90002
58.939999 -13.09 -657.56
59.580002 -13.1 -657.95001
60.23 -13.11 -658.5
60.880001 -13.12 -658.96997
61.52 -13.12 -659.28003
62.139999 -13.13 -659.53003
62.759998 -13.13 -659.63
63.389999 -13.14 -659.90997
64.019997 -13.14 -660.16998
64.660004 -13.15 -660.48999
65.300003 -13.15 -660.81
65.940002 -13.16 -661.17999
66.589996 -13.17 -661.58002
67.230003 -13.18 -661.89001
67.879997 -13.18 -662.28998
68.519997 -13.19 -662.56
69.160004 -13.2 -662.90002
69.809998 -13.2 -663.27002
70.449997 -13.21 -663.56
71.110001 -13.22 -664.01001
71.75 -13.23 -664.34003
72.400002 -13.23 -664.63
73.059998 -13.24 -665.10999
73.709999 -13.25 -665.41998
74.349998 -13.25 -665.70001
74.989998 -13.26 -665.91998
75.620003 -13.26 -666.09998
76.220001 -13.26 -666.02002
76.769997 -13.25 -665.5
77.300003 -13.24 -664.83002
77.75 -13.21 -663.46002
78.190002 -13.18 -662.06
78.660004 -13.16 -660.84998
79.150002 -13.14 -659.90002
79.650002 -13.12 -659.03003
80.139999 -13.1 -658.10999
80.629997 -13.08 -657.20001
81.110001 -13.06 -656.23999
81.620003 -13.05 -655.5
82.120003 -13.03 -654.66998
82.599998 -13.01 -653.76001
83.080002 -12.99 -652.82001
83.580002 -12.98 -652.06
84.080002 -12.96 -651.31
84.57 -12.95 -650.45001
85.059998 -12.93 -649.65002
85.559998 -12.92 -648.95001
86.050003 -12.9 -648.16998
86.550003 -12.89 -647.45001
87.050003 -12.87 -646.72998
87.540001 -12.86 -645.97998
88.059998 -12.85 -645.46002
88.559998 -12.83 -644.78003
89.089996 -12.82 -644.34003
89.620003 -12.82 -643.90997
90.169998 -12.81 -643.58002
90.709999 -12.8 -643.27002
91.25 -12.8 -642.92999
91.800003 -12.79 -642.60999
92.349998 -12.78 -642.37
92.900002 -12.78 -642.10999
93.480003 -12.78 -642.03003
94.050003 -12.78 -641.90002
94.639999 -12.77 -641.88
95.239998 -12.78 -641.96997
95.860001 -12.78 -642.13
96.480003 -12.78 -642.35999
97.120003 -12.79 -642.71002
97.790001 -12.8 -643.17999
98.459999 -12.81 -643.71002
99.150002 -12.83 -644.37
99.870003 -12.84 -645.15997
100.64 -12.86 -646.29999
101.45 -12.89 -647.62
102.38 -12.93 -649.77002
103.33 -12.98 -651.91998
-163.45 -11.61 -558.78003
-163.06 -11.62 -559.17999
-162.56 -11.62 -559.23999
-162.05 -11.62 -559.21997
-161.61 -11.63 -559.46002
-161.17 -11.63 -559.71002
-160.75 -11.64 -560.02002
-160.39 -11.65 -560.56
-159.97 -11.66 -560.87
-159.60001 -11.67 -561.35999
-159.23 -11.68 -561.87
-158.91 -11.69 -562.54999
-158.60001 -11.71 -563.27002
-158.21001 -11.72 -563.71002
-157.75 -11.72 -563.90002
-157.23 -11.72 -563.88
-156.69 -11.72 -563.78998
-156.17999 -11.72 -563.81
-155.69 -11.72 -563.90002
-155.25 -11.73 -564.20001
-154.82001 -11.73 -564.51001
-154.45 -11.74 -565.02002
-155.89999 -11.89 -572.13
-155.77 -11.93 -573.58002
-155.42 -11.94 -574.20001
-155.11 -11.96 -574.98999
-154.74001 -11.97 -575.58002
-154.47 -11.99 -576.5
-154.10001 -12 -577.09998
-153.75999 -12.01 -577.78998
-153.67999 -12.05 -579.46002
-153.52 -12.08 -580.82001
-153.35001 -12.11 -582.21002
-153.64 -12.17 -585.28003
-153.7 -12.22 -587.53998
-153.39999 -12.24 -588.41998
-153.16 -12.26 -589.54999
-153.05 -12.3 -591.17999
-152.82001 -12.32 -592.39001
-152.59 -12.35 -593.57001
-152.23 -12.36 -594.31
-163.34 -13.36 -641.54999
-162.64999 -13.35 -641.15997
-162.02 -13.35 -640.98999
-161.33 -13.34 -640.59998
-160.64999 -13.33 -640.22998
-159.97 -13.33 -639.88
-159.35001 -13.32 -639.71997
-158.71001 -13.32 -639.54999
-158.11 -13.32 -639.47998
-157.5 -13.32 -639.38
-156.91 -13.31 -639.35999
-156.32001 -13.32 -639.37
-155.77 -13.32 -639.51001
-155.2 -13.32 -639.59003
-154.62 -13.32 -639.62
-154.08 -13.32 -639.78998
-140.57001 -12.25 -588.90002
-137.75999 -12.05 -579.53003
-136.82001 -12.02 -577.82001
-136.05 -11.99 -576.78003
-135.33 -11.98 -575.97998
-134.08 -11.91 -572.98999
-133.05 -11.87 -570.82001
-132.56 -11.87 -570.96997
-132.48 -11.91 -572.88
-132.19 -11.93 -573.88
-131.57001 -11.92 -573.45001
-130.97 -11.92 -573.14001
-130.38 -11.91 -572.89001
-129.91 -11.92 -573.12
-129.42 -11.92 -573.27002
-127.45 -11.78 -566.92999
-126.26 -11.72 -563.98999
-125.53 -11.7 -563.03998
-124.82 -11.68 -562.16998
-124.16 -11.67 -561.56
-123.5 -11.66 -560.90002
-122.87 -11.65 -560.34998
-122.23 -11.63 -559.82001
-121.65 -11.63 -559.48999
-121.04 -11.62 -559.06
-120.45 -11.61 -558.71002
-119.86 -11.6 -558.34003
-119.3 -11.6 -558.15002
-118.72 -11.59 -557.78998
-118.14 -11.59 -557.47998
-117.57 -11.58 -557.21997
-117.03 -11.58 -557.08002
-116.46 -11.57 -556.79999
-115.93 -11.57 -556.69
-115.38 -11.56 -556.53003
-114.86 -11.56 -556.46002
-114.33 -11.56 -556.37
-113.81 -11.56 -556.32001
-113.27 -11.56 -556.15997
-112.72 -11.55 -555.98999
-111.99 -11.53 -554.92999
-111.28 -11.51 -553.94
-110.66 -11.5 -553.37
-110.11 -11.49 -553.14001
-109.58 -11.49 -553.07001
-109.07 -11.49 -553.02002
-108.53 -11.49 -552.84998
-108.01 -11.49 -552.79999
-107.49 -11.48 -552.73999
-106.97 -11.48 -552.66998
-106.46 -11.48 -552.64001
-105.95 -11.48 -552.64001
-105.44 -11.48 -552.60999
-104.92 -11.48 -552.53998
-104.44 -11.48 -552.66998
-103.92 -11.48 -552.60999
-103.43 -11.48 -552.69
-102.93 -11.48 -552.71997
-102.43 -11.48 -552.77002
-101.92 -11.48 -552.77002
-101.43 -11.49 -552.83002
-100.93 -11.49 -552.88
-100.44 -11.49 -552.96002
-99.949997 -11.49 -553.03003
-99.470001 -11.49 -553.19
-98.970001 -11.49 -553.22998
-98.470001 -11.5 -553.29999
-97.989998 -11.5 -553.41998
-97.5 -11.5 -553.51001
-97.010002 -11.5 -553.62
-96.519997 -11.5 -553.70001
-96.029999 -11.51 -553.78998
-95.550003 -11.51 -553.95001
-95.059998 -11.51 -554.09998
-94.57 -11.51 -554.15002
-94.089996 -11.52 -554.33002
-93.599998 -11.52 -554.41998
-93.110001 -11.52 -554.54999
-92.629997 -11.52 -554.71002
-92.139999 -11.53 -554.83002
-91.68 -11.53 -555.09998
-91.190002 -11.54 -555.25
-90.709999 -11.54 -555.40997
-90.220001 -11.54 -555.52002
-89.75 -11.55 -555.78003
-89.269997 -11.55 -555.96002
-88.800003 -11.55 -556.15997
-88.330002 -11.56 -556.40002
-87.860001 -11.57 -556.65002
-87.370003 -11.57 -556.81
-86.900002 -11.57 -557.03003
-86.419998 -11.58 -557.27002
-85.940002 -11.58 -557.46997
-85.470001 -11.59 -557.72998
-85 -11.59 -557.96997
-84.519997 -11.6 -558.16998
-84.059998 -11.6 -558.48999
-83.580002 -11.61 -558.71002
-83.110001 -11.61 -558.98999
-82.639999 -11.62 -559.26001
-82.169998 -11.63 -559.57001
-81.699997 -11.63 -559.84003
-81.230003 -11.64 -560.15997
-80.760002 -11.64 -560.46002
-80.290001 -11.65 -560.71002
-79.82 -11.66 -561.04999
-79.360001 -11.67 -561.45001
-78.910004 -11.67 -561.84998
-78.459999 -11.68 -562.35999
-78.010002 -11.69 -562.79999
-77.57 -11.71 -563.35999
-77.120003 -11.72 -563.81
-76.699997 -11.73 -564.51001
-76.25 -11.74 -565.03998
-75.830002 -11.76 -565.76001
-75.400002 -11.77 -566.37
-74.970001 -11.78 -567.02002
-74.540001 -11.8 -567.71002
-74.120003 -11.81 -568.51001
-73.730003 -11.83 -569.46002
-73.339996 -11.86 -570.46002
-72.940002 -11.88 -571.45001
-72.550003 -11.9 -572.46997
-72.190002 -11.92 -573.77002
-71.830002 -11.95 -575.09003
-71.519997 -11.99 -576.78003
-71.150002 -12.01 -578.04999
-70.720001 -12.03 -578.89001
-70.339996 -12.06 -580.09998
-69.980003 -12.09 -581.47998
-69.709999 -12.13 -583.65002
-65.32 -13.07 -628.28003
-64.800003 -13.08 -628.78998
-64.239998 -13.09 -628.96997
-63.66 -13.09 -628.96997
-63.07 -13.09 -628.88
-62.5 -13.09 -628.90997
-61.919998 -13.09 -628.87
-61.34 -13.09 -628.82001
-60.759998 -13.08 -628.78003
-60.16 -13.08 -628.63
-59.599998 -13.08 -628.72998
-59.02 -13.08 -628.76001
-58.450001 -13.08 -628.78998
-57.880001 -13.09 -628.89001
-57.310001 -13.09 -628.94
-56.740002 -13.09 -629.08002
-56.169998 -13.09 -629.10999
-55.610001 -13.1 -629.33002
-55.040001 -13.1 -629.35999
-54.470001 -13.1 -629.51001
-53.91 -13.1 -629.64001
-53.34 -13.1 -629.78003
-52.779999 -13.11 -629.95001
-52.220001 -13.11 -630.19
-51.66 -13.12 -630.39001
-51.099998 -13.12 -630.65997
-50.540001 -13.13 -630.79999
-49.98 -13.13 -631.13
-49.43 -13.14 -631.45001
-48.880001 -13.15 -631.81
-48.32 -13.15 -632.12
-47.77 -13.16 -632.46002
-47.220001 -13.17 -632.90997
-46.68 -13.18 -633.38
-46.119999 -13.19 -633.77002
-45.560001 -13.19 -634.03003
-45 -13.2 -634.34998
-44.450001 -13.21 -634.71997
-43.889999 -13.22 -635.09003
-43.32 -13.22 -635.28003
-42.740002 -13.22 -635.29999
-42.150002 -13.22 -635.25
-41.57 -13.22 -635.19
-40.98 -13.22 -635.16998
-40.400002 -13.22 -635.14001
-39.810001 -13.22 -635.13
-39.23 -13.22 -635.08002
-38.650002 -13.22 -635.09998
-38.07 -13.22 -635.19
-37.48 -13.22 -635.14001
-36.900002 -13.22 -635.13
-36.32 -13.22 -635.16998
-35.740002 -13.22 -635.16998
-35.16 -13.22 -635.19
-34.580002 -13.22 -635.21997
-33.990002 -13.22 -635.17999
-33.41 -13.22 -635.22998
-32.830002 -13.22 -635.19
-32.240002 -13.22 -635.13
-31.66 -13.22 -635.15997
-31.08 -13.22 -635.21997
-30.49 -13.22 -635.15997
-29.9 -13.21 -635
-29.299999 -13.2 -634.46997
-28.690001 -13.19 -633.85999
-28.08 -13.18 -633.40002
-27.49 -13.18 -633.21002
-26.91 -13.17 -633.03998
-26.33 -13.17 -633.09003
-25.75 -13.17 -633.12
-25.17 -13.17 -633.17999
-24.6 -13.18 -633.33002
-24.02 -13.18 -633.51001
-23.450001 -13.19 -633.66998
-22.870001 -13.19 -633.87
-22.299999 -13.19 -634.10999
-21.73 -13.2 -634.40002
-21.16 -13.21 -634.72998
-20.58 -13.21 -635.01001
-20.01 -13.22 -635.37
-19.440001 -13.23 -635.81
-18.870001 -13.24 -636.22998
-18.299999 -13.25 -636.63
-17.73 -13.26 -637.06
-17.16 -13.27 -637.47998
-16.59 -13.28 -638.09003
-16.01 -13.29 -638.5
-15.44 -13.3 -639.01001
-14.86 -13.3 -639.16998
-14.27 -13.3 -639.26001
-13.69 -13.3 -639.33002
-13.1 -13.3 -639.26001
-12.52 -13.3 -639.28998
-11.93 -13.31 -639.44
-11.35 -13.31 -639.56
-10.76 -13.31 -639.73999
-10.18 -13.32 -639.96002
-9.6000004 -13.32 -640.26001
-9.0200005 -13.33 -640.62
-8.4300003 -13.34 -641.07001
-7.8499999 -13.35 -641.51001
-7.27 -13.36 -642.16998
-6.6799998 -13.37 -642.51001
-6.0999999 -13.38 -642.79999
-5.5100002 -13.38 -642.96002
-4.9200001 -13.38 -643
-4.3299999 -13.38 -643.12
-3.74 -13.39 -643.33002
-3.1500001 -13.4 -643.73999
-2.5699999 -13.41 -644.23999
-1.98 -13.42 -644.73999
-1.39 -13.43 -645.52002
-0.80000001 -13.45 -646.44
-0.2 -13.48 -647.83002
0.38999999 -13.5 -648.83002
0.99000001 -13.56 -651.31
1.59 -13.59 -652.92999
2.1900001 -13.61 -653.63
2.79 -13.61 -653.90997
3.4000001 -13.61 -653.96002
3.99 -13.61 -653.85999
4.5900002 -13.61 -653.70001
5.1900001 -13.6 -653.57001
5.79 -13.6 -653.52002
6.3899999 -13.6 -653.31
6.9899998 -13.6 -653.15997
7.5799999 -13.59 -652.95001
8.1800003 -13.59 -652.84998
8.7799997 -13.59 -652.73999
9.3699999 -13.58 -652.44
9.9700003 -13.58 -652.28998
10.57 -13.57 -652.09998
11.16 -13.57 -651.85999
11.75 -13.57 -651.70001
12.35 -13.56 -651.5
12.94 -13.56 -651.22998
13.53 -13.55 -651.03998
14.13 -13.55 -650.88
14.72 -13.54 -650.69
15.31 -13.54 -650.42999
15.91 -13.54 -650.28998
16.49 -13.53 -649.97998
17.08 -13.52 -649.78003
17.67 -13.52 -649.46997
18.26 -13.51 -649.13
18.85 -13.51 -648.90997
19.43 -13.5 -648.60999
20.02 -13.49 -648.16998
20.6 -13.49 -647.91998
21.18 -13.48 -647.51001
21.77 -13.47 -647.21002
22.35 -13.46 -646.84998
22.9 -13.44 -645.83002
23.41 -13.39 -643.42999
23.950001 -13.37 -642.20001
24.52 -13.35 -641.65002
25.09 -13.34 -641.15002
25.66 -13.34 -640.78998
26.23 -13.33 -640.38
26.809999 -13.32 -640.03003
27.379999 -13.31 -639.77002
27.959999 -13.31 -639.56
28.530001 -13.3 -639.27002
29.110001 -13.3 -639.09003
29.690001 -13.3 -638.95001
30.27 -13.29 -638.82001
30.85 -13.29 -638.65997
31.389999 -13.27 -637.78998
36.099998 -13.28 -638.20001
36.73 -13.3 -639.01001
37.349998 -13.31 -639.60999
37.970001 -13.32 -640.12
38.580002 -13.33 -640.54999
39.189999 -13.34 -640.89001
39.810001 -13.35 -641.38
40.43 -13.36 -641.82001
41.049999 -13.37 -642.41998
41.68 -13.38 -643.02002
42.400002 -13.42 -644.91998
43.16 -13.48 -647.39001
43.84 -13.5 -648.65997
44.459999 -13.51 -648.95001
45.07 -13.51 -649.21997
45.700001 -13.52 -649.65997
46.310001 -13.53 -649.91998
46.939999 -13.54 -650.39001
47.580002 -13.55 -650.97998
48.209999 -13.56 -651.35999
48.830002 -13.56 -651.59998
49.450001 -13.57 -651.90997
50.07 -13.58 -652.16998
50.700001 -13.59 -652.59998
51.330002 -13.59 -653
51.959999 -13.6 -653.37
52.580002 -13.61 -653.69
53.220001 -13.62 -654.13
53.849998 -13.63 -654.45001
54.48 -13.63 -654.84998
55.119999 -13.64 -655.28003
55.75 -13.65 -655.59998
56.389999 -13.66 -656.07001
57.029999 -13.67 -656.48999
57.68 -13.68 -656.97998
58.32 -13.69 -657.42999
58.970001 -13.7 -657.92999
59.619999 -13.71 -658.44
60.279999 -13.72 -659.01001
60.919998 -13.73 -659.40002
61.549999 -13.74 -659.62
62.18 -13.74 -659.87
62.799999 -13.74 -660.03998
63.43 -13.75 -660.28003
64.080002 -13.76 -660.73999
64.709999 -13.76 -660.96997
65.360001 -13.77 -661.39001
65.989998 -13.78 -661.62
66.629997 -13.78 -661.95001
67.269997 -13.79 -662.28003
67.919998 -13.8 -662.62
68.559998 -13.81 -662.96002
69.209999 -13.82 -663.40002
69.849998 -13.82 -663.69
70.519997 -13.83 -664.16998
71.169998 -13.84 -664.57001
71.809998 -13.85 -664.85999
72.449997 -13.85 -665.13
73.120003 -13.86 -665.65002
73.779999 -13.87 -666.08002
74.410004 -13.88 -666.27002
75.07 -13.88 -666.62
75.68 -13.89 -666.66998
76.269997 -13.88 -666.45001
76.809998 -13.87 -665.83002
77.360001 -13.86 -665.26001
77.809998 -13.83 -663.97998
78.269997 -13.8 -662.66998
78.699997 -13.77 -661.21002
79.190002 -13.75 -660.22998
79.660004 -13.73 -659.15002
80.18 -13.71 -658.42999
80.669998 -13.69 -657.48999
81.18 -13.68 -656.73999
81.650002 -13.65 -655.67999
82.150002 -13.64 -654.92999
82.639999 -13.62 -654
83.129997 -13.6 -653.15002
83.610001 -13.58 -652.21997
84.120003 -13.57 -651.60999
84.620003 -13.55 -650.79999
85.110001 -13.54 -650.04999
85.599998 -13.52 -649.22998
86.089996 -13.5 -648.42999
86.580002 -13.48 -647.63
87.07 -13.47 -646.84998
87.559998 -13.45 -646.15002
88.080002 -13.44 -645.57001
88.589996 -13.43 -645.02002
89.120003 -13.42 -644.54999
89.629997 -13.41 -644.01001
90.18 -13.4 -643.70001
90.720001 -13.39 -643.29999
91.269997 -13.39 -643.01001
91.82 -13.38 -642.76001
92.379997 -13.38 -642.53003
92.919998 -13.37 -642.20001
93.5 -13.37 -642.17999
94.059998 -13.37 -641.96997
94.660004 -13.37 -642.01001
95.25 -13.37 -642.04999
95.860001 -13.37 -642.17999
96.489998 -13.38 -642.44
97.110001 -13.38 -642.60999
97.790001 -13.39 -643.16998
98.449997 -13.4 -643.65002
99.150002 -13.42 -644.35999
99.889999 -13.44 -645.27002
100.66 -13.46 -646.38
101.46 -13.49 -647.71997
102.39 -13.53 -649.78003
103.36 -13.58 -652.15002
-163.46001 -12.12 -558.83002
-163.08 -12.13 -559.26001
-162.63 -12.14 -559.46997
-162.14999 -12.14 -559.57001
-161.66 -12.14 -559.65997
-161.23 -12.15 -559.94
-160.8 -12.16 -560.21997
-160.42 -12.17 -560.66998
-160.00999 -12.17 -561.02002
-159.62 -12.18 -561.44
-159.25 -12.19 -561.96002
-158.92999 -12.21 -562.64001
-158.64 -12.23 -563.40997
-158.25999 -12.24 -563.87
-157.78999 -12.24 -564.03998
-157.25999 -12.24 -564.01001
-156.73 -12.24 -563.94
-156.24001 -12.24 -564.04999
-155.78999 -12.25 -564.27002
-155.37 -12.25 -564.64001
-154.97 -12.26 -565.03003
-155.42 -12.34 -568.51001
-156.16 -12.44 -573.07001
-155.77 -12.45 -573.56
-155.48 -12.47 -574.42999
-155.14 -12.48 -575.09003
-154.78999 -12.5 -575.73999
-154.5 -12.52 -576.60999
-154.12 -12.53 -577.17999
-153.83 -12.55 -578.03998
-153.64999 -12.58 -579.35999
-153.46001 -12.61 -580.62
-153.47 -12.65 -582.65002
-153.85001 -12.73 -586.06
-153.95 -12.78 -588.47998
-153.67999 -12.8 -589.48999
-153.49001 -12.83 -590.78998
-153.3 -12.86 -592.15002
-153.03999 -12.88 -593.23999
-163.46001 -13.96 -642.03003
-162.74001 -13.95 -641.52002
-162.16 -13.95 -641.53003
-161.5 -13.94 -641.26001
-160.78 -13.93 -640.76001
-160.06 -13.92 -640.20001
-159.42999 -13.92 -640.07001
-158.81 -13.91 -639.91998
-158.23 -13.91 -639.94
-157.62 -13.91 -639.87
-157.00999 -13.91 -639.78998
-156.44 -13.91 -639.83002
-155.84 -13.91 -639.81
-155.28999 -13.91 -639.92999
-154.71001 -13.92 -639.97998
-154.13 -13.92 -640
-153.59 -13.92 -640.21997
-151.16 -13.75 -632.62
-137.23 -12.58 -579.52002
-136.36 -12.55 -578.09003
-135.53999 -12.52 -576.90002
-134.85001 -12.51 -576.17999
-134.06 -12.48 -575.08002
-133.49001 -12.48 -574.90002
-133.11 -12.49 -575.53998
-132.5 -12.49 -575.16998
-131.72 -12.46 -574.09003
-131.11 -12.45 -573.73999
-130.49001 -12.45 -573.34003
-129.95 -12.44 -573.26001
-129.49001 -12.45 -573.58002
-128.82001 -12.44 -572.95001
-126.5 -12.26 -565.03003
-125.73 -12.24 -563.91998
-124.98 -12.22 -562.91998
-124.3 -12.2 -562.16998
-123.6 -12.18 -561.35999
-122.96 -12.17 -560.79999
-122.31 -12.15 -560.15002
-121.72 -12.15 -559.82001
-121.1 -12.14 -559.33002
-120.51 -12.13 -558.96002
-119.91 -12.12 -558.58002
-119.34 -12.11 -558.31
-118.75 -12.11 -557.92999
-118.16 -12.1 -557.59998
-117.58 -12.09 -557.26001
-117.06 -12.09 -557.21002
-116.48 -12.08 -556.90002
-115.94 -12.08 -556.76001
-115.4 -12.08 -556.64001
-114.86 -12.07 -556.48999
-114.33 -12.07 -556.39001
-113.81 -12.07 -556.32001
-113.28 -12.07 -556.23999
-112.75 -12.07 -556.12
-112.2 -12.06 -555.92999
-111.54 -12.04 -555.17999
-110.8 -12.02 -554.08002
-110.18 -12.01 -553.52002
-109.64 -12 -553.34998
-109.13 -12 -553.31
-108.59 -12 -553.19
-108.09 -12 -553.20001
-107.54 -12 -552.97998
-107.03 -12 -552.96002
-106.51 -11.99 -552.90997
-106 -11.99 -552.85999
-105.49 -11.99 -552.89001
-104.99 -11.99 -552.90002
-104.49 -11.99 -552.90997
-103.98 -11.99 -552.92999
-103.47 -11.99 -552.89001
-102.97 -11.99 -552.90997
-102.46 -11.99 -552.92999
-101.96 -11.99 -552.94
-101.46 -12 -552.97998
-100.97 -12 -553.08002
-100.47 -12 -553.09998
-99.980003 -12 -553.21002
-99.480003 -12 -553.28003
-99 -12 -553.38
-98.5 -12 -553.41998
-98 -12.01 -553.5
-97.510002 -12.01 -553.59003
-97.029999 -12.01 -553.71002
-96.529999 -12.01 -553.79999
-96.050003 -12.02 -553.91998
-95.559998 -12.02 -554.04999
-95.07 -12.02 -554.14001
-94.589996 -12.02 -554.28998
-94.099998 -12.03 -554.39001
-93.620003 -12.03 -554.54999
-93.120003 -12.03 -554.63
-92.660004 -12.04 -554.87
-92.18 -12.04 -555.08002
-91.699997 -12.04 -555.22998
-91.220001 -12.05 -555.38
-90.739998 -12.05 -555.56
-90.25 -12.05 -555.71997
-89.790001 -12.06 -555.96997
-89.300003 -12.06 -556.13
-88.830002 -12.07 -556.35999
-88.360001 -12.07 -556.59003
-87.879997 -12.08 -556.78998
-87.400002 -12.08 -556.96997
-86.940002 -12.09 -557.29999
-86.459999 -12.09 -557.47998
-85.980003 -12.1 -557.66998
-85.5 -12.1 -557.90997
-85.029999 -12.11 -558.19
-84.550003 -12.11 -558.34998
-84.089996 -12.12 -558.69
-83.610001 -12.12 -558.89001
-83.139999 -12.13 -559.20001
-82.660004 -12.14 -559.42999
-82.190002 -12.14 -559.71002
-81.720001 -12.15 -560.01001
-81.260002 -12.16 -560.34998
-80.790001 -12.16 -560.65997
-80.32 -12.17 -560.96997
-79.849998 -12.18 -561.23999
-79.400002 -12.18 -561.66998
-78.93 -12.19 -562.03998
-78.489998 -12.2 -562.53998
-78.040001 -12.21 -563
-77.589996 -12.22 -563.5
-77.160004 -12.24 -564.09998
-76.730003 -12.25 -564.72998
-76.300003 -12.27 -565.34998
-75.870003 -12.28 -565.98999
-75.43 -12.29 -566.60999
-75.010002 -12.31 -567.34998
-74.589996 -12.32 -568.06
-74.18 -12.34 -568.95001
-73.769997 -12.36 -569.79999
-73.410004 -12.39 -571.03998
-73.029999 -12.41 -572.13
-72.669998 -12.44 -573.41998
-72.290001 -12.47 -574.51001
-72.019997 -12.51 -576.59998
-71.650002 -12.54 -577.84003
-71.230003 -12.56 -578.67999
-70.82 -12.58 -579.65997
-70.43 -12.61 -580.82001
-70.080002 -12.64 -582.31
-69.760002 -12.68 -584.06
-64.75 -13.65 -628.34003
-64.220001 -13.66 -628.79999
-63.66 -13.67 -628.96997
-63.09 -13.67 -629.03998
-62.52 -13.67 -629.09003
-61.93 -13.67 -628.98999
-61.360001 -13.67 -629.01001
-60.779999 -13.67 -629.03003
-60.189999 -13.66 -628.94
-59.619999 -13.66 -628.91998
-59.040001 -13.66 -628.95001
-58.459999 -13.66 -628.96002
-57.900002 -13.67 -629.04999
-57.32 -13.67 -629.09003
-56.75 -13.67 -629.13
-56.18 -13.67 -629.26001
-55.610001 -13.67 -629.35999
-55.049999 -13.68 -629.46997
-54.5 -13.68 -629.76001
-53.919998 -13.68 -629.81
-53.360001 -13.69 -630.02002
-52.799999 -13.69 -630.22998
-52.240002 -13.7 -630.41998
-51.669998 -13.7 -630.53003
-51.110001 -13.7 -630.72998
-50.549999 -13.71 -630.96002
-49.990002 -13.71 -631.21997
-49.43 -13.72 -631.45001
-48.880001 -13.73 -631.78003
-48.32 -13.73 -632.15002
-47.779999 -13.74 -632.60999
-47.23 -13.75 -632.95001
-46.669998 -13.76 -633.29999
-46.110001 -13.77 -633.59998
-45.540001 -13.77 -633.76001
-44.98 -13.78 -634.09998
-44.43 -13.78 -634.46002
-43.869999 -13.79 -634.72998
-43.299999 -13.8 -635.03998
-42.73 -13.8 -635.14001
-42.139999 -13.8 -635.02002
-41.560001 -13.8 -635.03998
-40.970001 -13.8 -634.98999
-40.389999 -13.8 -634.96997
-39.799999 -13.79 -634.89001
-39.220001 -13.79 -634.90002
-38.639999 -13.8 -634.96997
-38.060001 -13.8 -634.96002
-37.48 -13.8 -635
-36.889999 -13.8 -634.97998
-36.310001 -13.8 -634.96002
-35.73 -13.8 -635.06
-35.150002 -13.8 -635.02002
-34.560001 -13.8 -635
-33.98 -13.8 -634.96002
-33.400002 -13.8 -635
-32.82 -13.8 -635.09003
-32.240002 -13.8 -635.12
-31.65 -13.8 -635.07001
-31.07 -13.8 -635.04999
-30.48 -13.79 -634.91998
-29.879999 -13.79 -634.57001
-29.26 -13.77 -633.78998
-28.66 -13.76 -633.27002
-28.07 -13.75 -632.97998
-27.48 -13.75 -632.78003
-26.9 -13.75 -632.77002
-26.309999 -13.75 -632.72998
-25.74 -13.75 -632.81
-25.16 -13.75 -632.90997
-24.58 -13.75 -633.03998
-24.01 -13.76 -633.21997
-23.440001 -13.76 -633.45001
-22.860001 -13.77 -633.64001
-22.290001 -13.77 -633.87
-21.719999 -13.78 -634.13
-21.15 -13.78 -634.48999
-20.58 -13.79 -634.83002
-20.01 -13.8 -635.29999
-19.440001 -13.81 -635.70001
-18.870001 -13.82 -636.17999
-18.299999 -13.83 -636.60999
-17.73 -13.84 -637.09003
-17.16 -13.85 -637.58002
-16.59 -13.86 -638.12
-16.01 -13.87 -638.51001
-15.44 -13.88 -638.89001
-14.85 -13.88 -638.96997
-14.27 -13.88 -639
-13.68 -13.88 -638.95001
-13.09 -13.88 -638.95001
-12.51 -13.88 -639.03998
-11.93 -13.89 -639.09998
-11.34 -13.89 -639.23999
-10.76 -13.89 -639.47998
-10.18 -13.9 -639.71997
-9.5900002 -13.9 -639.96002
-9.0100002 -13.91 -640.37
-8.4300003 -13.92 -640.85999
-7.8499999 -13.93 -641.16998
-7.27 -13.95 -641.79999
-6.6799998 -13.95 -642.21997
-6.0999999 -13.96 -642.46002
-5.5100002 -13.96 -642.46997
-4.9200001 -13.96 -642.52002
-4.3299999 -13.96 -642.62
-3.74 -13.97 -642.91998
-3.1500001 -13.98 -643.27002
-2.5599999 -13.99 -643.78003
-1.98 -14 -644.33002
-1.39 -14.02 -645.26001
-0.80000001 -14.05 -646.35999
-0.2 -14.08 -647.78998
0.38999999 -14.12 -649.84998
0.99000001 -14.18 -652.34998
1.59 -14.2 -653.53003
2.2 -14.21 -653.96997
2.8 -14.22 -654.19
3.4000001 -14.22 -654.28003
4 -14.22 -654.21002
4.5999999 -14.22 -654.07001
5.1900001 -14.21 -653.91998
5.79 -14.21 -653.72998
6.3899999 -14.2 -653.58002
6.9899998 -14.2 -653.38
7.5900002 -14.2 -653.29999
8.1899996 -14.2 -653.15002
8.7799997 -14.19 -652.94
9.3800001 -14.19 -652.71997
9.9799995 -14.18 -652.64001
10.57 -14.18 -652.39001
11.17 -14.18 -652.23999
11.76 -14.17 -652.03003
12.35 -14.17 -651.82001
12.95 -14.16 -651.57001
13.54 -14.16 -651.46002
14.14 -14.15 -651.21997
14.73 -14.15 -651.04999
