# .PCD v0.7 - Point Cloud Data file format
VERSION 0.7
FIELDS x y z
SIZE 4 4 4
TYPE F F F
COUNT 1 1 1
WIDTH 1685
HEIGHT 1
VIEWPOINT 0 0 0 1 0 0 0
POINTS 1685
DATA ascii
-99.93 -25.66 -686.77002
-99.349998 -25.67 -687.09003
-98.739998 -25.68 -687.25
-98.139999 -25.690001 -687.51001
-97.559998 -25.700001 -687.83002
-96.970001 -25.709999 -688.09998
-96.370003 -25.719999 -688.34998
-95.769997 -25.73 -688.59003
-95.230003 -25.75 -689.22998
-94.639999 -25.77 -689.59003
-94.099998 -25.790001 -690.22998
-93.550003 -25.809999 -690.87
-92.970001 -25.83 -691.27002
-92.379997 -25.84 -691.63
-91.809998 -25.860001 -692.12
-91.25 -25.879999 -692.70001
-90.690002 -25.9 -693.21997
-90.150002 -25.93 -693.96997
-89.599998 -25.959999 -694.65997
-89.029999 -25.98 -695.21997
-88.550003 -26.02 -696.42999
-88.050003 -26.07 -697.53003
-87.550003 -26.110001 -698.65997
-86.980003 -26.129999 -699.23999
-86.459999 -26.17 -700.17999
-85.900002 -26.190001 -700.87
-85.32 -26.209999 -701.41998
-84.809998 -26.25 -702.46002
-84.220001 -26.27 -702.95001
-83.709999 -26.309999 -704.04999
-83.160004 -26.34 -704.90002
-82.599998 -26.370001 -705.63
-82.010002 -26.389999 -706.12
-81.410004 -26.41 -706.56
-80.82 -26.43 -707.09003
-80.25 -26.450001 -707.77002
-79.669998 -26.48 -708.40002
-79.089996 -26.5 -708.98999
-75 -25.549999 -683.98999
-74.230003 -25.5 -682.66998
-73.510002 -25.469999 -681.78003
-72.800003 -25.440001 -681.07001
-72.129997 -25.42 -680.62
-71.449997 -25.4 -680.13
-70.730003 -25.370001 -679.27002
-69.919998 -25.299999 -677.46997
-69.110001 -25.23 -675.63
-68.32 -25.17 -674.03003
-67.610001 -25.139999 -673.07001
-66.889999 -25.1 -672.13
-66.239998 -25.09 -671.71997
-65.550003 -25.059999 -671.07001
-64.919998 -25.049999 -670.84003
-64.260002 -25.040001 -670.40997
-63.619999 -25.030001 -670.14001
-62.970001 -25.01 -669.84998
-62.360001 -25.01 -669.84003
-61.73 -25.01 -669.77002
-61.130001 -25.01 -669.87
-60.509998 -25.01 -669.82001
-59.900002 -25.02 -669.88
-59.299999 -25.02 -670.03003
-58.709999 -25.030001 -670.40002
-54.220001 -23.610001 -632.88
-53.490002 -23.549999 -631.15997
-52.849998 -23.52 -630.34003
-52.23 -23.5 -629.89001
-51.650002 -23.5 -629.84998
-51.080002 -23.5 -629.91998
-50.509998 -23.51 -630.04999
-49.950001 -23.52 -630.33002
-49.389999 -23.52 -630.52002
-48.849998 -23.549999 -631.07001
-48.330002 -23.57 -631.76001
-47.810001 -23.6 -632.53998
-47.290001 -23.629999 -633.34998
-46.790001 -23.68 -634.51001
-46.349998 -23.75 -636.42999
26.52 -22.190001 -595.23999
27.040001 -22.17 -594.65002
27.559999 -22.15 -594.21997
28.09 -22.129999 -593.84003
28.629999 -22.129999 -593.81
29.18 -22.129999 -593.84003
29.719999 -22.129999 -593.71002
30.23 -22.1 -593.03003
30.75 -22.09 -592.59998
31.280001 -22.08 -592.34998
31.82 -22.08 -592.28998
32.360001 -22.08 -592.27002
32.91 -22.08 -592.41998
33.48 -22.1 -592.94
34.060001 -22.120001 -593.53998
34.650002 -22.15 -594.26001
35.220001 -22.17 -594.78003
101.26 -25.959999 -694.78003
101.72 -25.92 -693.56
102.33 -25.91 -693.40997
102.96 -25.91 -693.31
103.62 -25.92 -693.48999
104.34 -25.940001 -694.03998
105.07 -25.959999 -694.60999
105.85 -25.99 -695.57001
106.56 -26.01 -696.02002
-163.61 -25.4 -663.62
-163.16 -25.43 -664.29999
-161.97 -25.43 -664.39001
-161.41 -25.440001 -664.60999
-160.84 -25.450001 -664.76001
-160.17 -25.440001 -664.53003
-159.57001 -25.440001 -664.59003
-158.99001 -25.440001 -664.67999
-158.42999 -25.450001 -664.90997
-157.78 -25.450001 -664.76001
-157.17999 -25.450001 -664.79999
-156.60001 -25.450001 -664.92999
-156.00999 -25.459999 -665
-155.48 -25.469999 -665.37
-154.92 -25.48 -665.57001
-154.39999 -25.49 -665.94
-153.83 -25.5 -666.13
-153.2 -25.5 -666.08002
-152.57001 -25.49 -665.98999
-151.92 -25.49 -665.83002
-151.35001 -25.49 -665.98999
-150.75999 -25.5 -666.10999
-150.16 -25.5 -666.15002
-149.59 -25.51 -666.32001
-148.96001 -25.5 -666.27002
-148.39 -25.51 -666.44
-147.82001 -25.52 -666.65002
-147.23 -25.52 -666.71997
-146.67999 -25.530001 -667
-146.13 -25.540001 -667.28998
-145.59 -25.559999 -667.62
-145 -25.559999 -667.72998
-144.48 -25.58 -668.19
-143.99001 -25.6 -668.71997
-143.47 -25.620001 -669.17999
-142.95 -25.629999 -669.59998
-142.45 -25.65 -670.13
-141.97 -25.68 -670.79999
-141.5 -25.709999 -671.48999
-141.07001 -25.74 -672.34003
-140.56 -25.76 -672.85999
-140.11 -25.790001 -673.65002
-139.64999 -25.82 -674.44
-139.22 -25.85 -675.34003
-138.81 -25.889999 -676.33002
-138.42 -25.940001 -677.47998
-138.00999 -25.98 -678.48999
-137.67999 -26.030001 -679.94
-137.33 -26.08 -681.27002
-137.06 -26.15 -683.03003
-136.7 -26.200001 -684.35999
-136.42 -26.27 -686.07001
-135.97 -26.309999 -686.98999
-135.39 -26.32 -687.26001
-134.78 -26.32 -687.33002
-134.17 -26.32 -687.46997
-133.60001 -26.34 -687.78003
-133.03 -26.35 -688.12
-132.50999 -26.370001 -688.66998
-132 -26.4 -689.33002
-131.46001 -26.41 -689.81
-130.95 -26.440001 -690.42999
-130.41 -26.459999 -690.96997
-129.92 -26.49 -691.70001
-129.42999 -26.52 -692.47998
-129.02 -26.559999 -693.69
-128.56 -26.6 -694.65002
-128.11 -26.639999 -695.66998
-127.65 -26.68 -696.60999
-127.17 -26.709999 -697.51001
-126.75 -26.76 -698.67999
-126.31 -26.799999 -699.78998
-125.83 -26.84 -700.72998
-125.37 -26.879999 -701.71997
-124.95 -26.92 -702.97998
-124.5 -26.969999 -704.04999
-124.06 -27.01 -705.26001
-123.61 -27.049999 -706.35999
-123.02 -27.07 -706.66998
-107.25 -26.540001 -693.16998
-106.66 -26.549999 -693.48999
-106.01 -26.549999 -693.37
-105.16 -26.49 -692
-104.2 -26.41 -689.90002
-103.36 -26.360001 -688.57001
-102.65 -26.34 -688.03003
-101.98 -26.33 -687.78003
-101.33 -26.33 -687.64001
-100.71 -26.33 -687.76001
-100.1 -26.34 -687.91998
-99.5 -26.34 -688.12
-98.900002 -26.35 -688.32001
-98.309998 -26.360001 -688.63
-97.709999 -26.370001 -688.88
-97.129997 -26.389999 -689.27002
-96.559998 -26.4 -689.69
-96.010002 -26.43 -690.28003
-95.480003 -26.459999 -691.03998
-94.900002 -26.469999 -691.45001
-94.360001 -26.5 -692.10999
-93.779999 -26.51 -692.53998
-93.199997 -26.530001 -692.96997
-92.639999 -26.549999 -693.54999
-92.110001 -26.58 -694.31
-91.550003 -26.610001 -694.94
-91.050003 -26.65 -695.95001
-90.529999 -26.68 -696.85999
-90.010002 -26.719999 -697.77002
-89.5 -26.76 -698.78003
-88.989998 -26.799999 -699.82001
-88.43 -26.82 -700.53003
-87.900002 -26.860001 -701.41998
-87.309998 -26.870001 -701.81
-86.790001 -26.91 -702.83002
-86.220001 -26.940001 -703.46002
-85.699997 -26.969999 -704.45001
-85.120003 -27 -705.01001
-84.610001 -27.040001 -706.14001
-84.029999 -27.059999 -706.71997
-83.489998 -27.1 -707.64001
-82.910004 -27.120001 -708.28003
-82.339996 -27.15 -708.97998
-81.720001 -27.16 -709.25
-81.169998 -27.190001 -710.12
-80.550003 -27.200001 -710.37
-80.019997 -27.24 -711.44
-79.480003 -27.280001 -712.46997
-75.080002 -26.200001 -684.63
-74.290001 -26.15 -683.22998
-73.559998 -26.110001 -682.28003
-72.849998 -26.08 -681.51001
-72.150002 -26.059999 -680.81
-71.470001 -26.040001 -680.28998
-70.790001 -26.02 -679.83002
-70.089996 -25.99 -679.09003
-69.379997 -25.959999 -678.27002
-68.650002 -25.91 -677.15002
-67.910004 -25.870001 -676.08002
-67.18 -25.83 -675.01001
-66.480003 -25.799999 -674.21002
-65.809998 -25.780001 -673.64001
-65.160004 -25.77 -673.37
-64.470001 -25.74 -672.62
-63.830002 -25.73 -672.40002
-63.189999 -25.719999 -672.09998
-62.549999 -25.709999 -671.85999
-61.91 -25.700001 -671.67999
-61.310001 -25.700001 -671.78998
-60.689999 -25.700001 -671.81
-60.07 -25.709999 -671.82001
-59.470001 -25.709999 -671.94
-58.860001 -25.709999 -672.03998
-57.919998 -25.57 -668.39001
-54.529999 -24.33 -636.41998
-53.549999 -24.16 -631.85999
-52.900002 -24.120001 -630.96002
-52.279999 -24.1 -630.46002
-51.700001 -24.1 -630.44
-51.110001 -24.1 -630.35999
-50.529999 -24.09 -630.29999
-49.959999 -24.1 -630.41998
-49.400002 -24.110001 -630.64001
-48.869999 -24.129999 -631.28003
-48.34 -24.16 -631.92999
-47.810001 -24.18 -632.53003
-47.290001 -24.209999 -633.37
-46.82 -24.27 -634.81
-46.330002 -24.32 -636.15002
-45.830002 -24.370001 -637.29999
25.98 -22.74 -595.31
26.49 -22.700001 -594.44
27 -22.67 -593.71002
27.52 -22.66 -593.29999
28.059999 -22.65 -593.09003
28.59 -22.65 -593
29.129999 -22.639999 -592.87
29.690001 -22.65 -593.09003
30.209999 -22.639999 -592.72998
30.719999 -22.610001 -592.16998
31.26 -22.610001 -591.96997
31.790001 -22.6 -591.87
32.330002 -22.6 -591.73999
32.880001 -22.6 -591.87
33.439999 -22.620001 -592.27002
34.009998 -22.639999 -592.73999
34.599998 -22.66 -593.44
35.18 -22.690001 -594
35.75 -22.709999 -594.52002
100.69 -26.620001 -695.25
101.16 -26.58 -694.09003
101.66 -26.540001 -693.17999
102.27 -26.530001 -692.98999
102.89 -26.530001 -692.88
103.57 -26.540001 -693.14001
104.28 -26.559999 -693.62
105 -26.58 -694.20001
105.77 -26.610001 -695.03003
106.52 -26.639999 -695.75
-161.57001 -26.08 -665.23999
-161 -26.08 -665.42999
-160.36 -26.08 -665.31
-159.75 -26.08 -665.31
-159.10001 -26.07 -665.14001
-158.52 -26.08 -665.29999
-157.94 -26.08 -665.42999
-157.35001 -26.09 -665.52002
-156.75999 -26.09 -665.59998
-156.17 -26.09 -665.67999
-155.63 -26.110001 -665.98999
-155.09 -26.120001 -666.28998
-154.58 -26.129999 -666.72998
-154 -26.139999 -666.88
-153.39999 -26.139999 -666.91998
-152.78 -26.139999 -666.88
-152.16 -26.139999 -666.84003
-151.56 -26.139999 -666.90002
-150.95 -26.139999 -666.91998
-150.36 -26.15 -667.04999
-149.75999 -26.15 -667.09998
-149.17999 -26.15 -667.21997
-148.53999 -26.15 -667.10999
-148.00999 -26.16 -667.47998
-147.42999 -26.17 -667.62
-146.87 -26.18 -667.85999
-146.28999 -26.18 -668.02002
-145.73 -26.200001 -668.28003
-145.24001 -26.219999 -668.81
-144.69 -26.23 -669.12
-144.17 -26.25 -669.54999
-143.64 -26.26 -669.92999
-143.11 -26.280001 -670.35999
-142.63 -26.299999 -671
-142.17999 -26.33 -671.73999
-141.7 -26.360001 -672.40997
-141.23 -26.389999 -673.10999
-140.74001 -26.41 -673.71002
-140.27 -26.440001 -674.44
-139.82001 -26.469999 -675.21002
-139.42 -26.51 -676.28998
-139.00999 -26.549999 -677.29999
-138.63 -26.6 -678.46997
-138.23 -26.639999 -679.53998
-137.92999 -26.700001 -681.13
-137.58 -26.76 -682.47998
-137.3 -26.83 -684.19
-136.96001 -26.879999 -685.65997
-136.67999 -26.950001 -687.37
-136.10001 -26.959999 -687.65002
-135.5 -26.969999 -687.81
-134.88 -26.969999 -687.85999
-134.33 -26.99 -688.28998
-133.75999 -27 -688.58002
-133.2 -27.02 -688.96997
-132.67 -27.040001 -689.48999
-132.17999 -27.07 -690.22998
-131.64999 -27.09 -690.76001
-131.14999 -27.110001 -691.47998
-130.64999 -27.139999 -692.17999
-130.24001 -27.190001 -693.40997
-129.83 -27.24 -694.59003
-129.36 -27.27 -695.51001
-128.91 -27.309999 -696.48999
-128.45 -27.35 -697.47998
-128.05 -27.4 -698.77002
-127.65 -27.459999 -700.09998
-127.16 -27.49 -700.90997
-126.66 -27.52 -701.71997
-126.28 -27.58 -703.16998
-125.93 -27.639999 -704.81
-125.48 -27.690001 -705.92999
-124.92 -27.709999 -706.40997
-106.62 -27.18 -693.23999
-106.01 -27.190001 -693.41998
-105.29 -27.17 -692.88
-104.48 -27.120001 -691.71997
-103.63 -27.07 -690.34998
-102.83 -27.02 -689.23999
-102.14 -27.01 -688.88
-101.5 -27 -688.81
-100.86 -27 -688.78003
-100.26 -27.01 -689.02002
-99.639999 -27.01 -689.09998
-99.059998 -27.030001 -689.46002
-98.480003 -27.040001 -689.84003
-97.910004 -27.059999 -690.26001
-97.339996 -27.08 -690.75
-96.860001 -27.120001 -691.81
-96.269997 -27.139999 -692.16998
-95.690002 -27.15 -692.56
-95.129997 -27.17 -693.09998
-94.599998 -27.200001 -693.84998
-94.029999 -27.219999 -694.38
-93.5 -27.25 -695.17999
-92.970001 -27.290001 -695.97998
-92.5 -27.34 -697.21002
-91.980003 -27.370001 -698.10999
-91.440002 -27.4 -698.88
-90.870003 -27.43 -699.48999
-90.370003 -27.469999 -700.54999
-89.860001 -27.51 -701.59998
-89.300003 -27.540001 -702.28998
-88.75 -27.559999 -703.01001
-88.220001 -27.6 -703.94
-87.660004 -27.629999 -704.58002
-87.099998 -27.65 -705.28003
-86.550003 -27.690001 -706.09998
-86.040001 -27.73 -707.27002
-85.480003 -27.76 -707.95001
-84.93 -27.790001 -708.82001
-84.330002 -27.809999 -709.21997
-83.790001 -27.85 -710.15002
-83.160004 -27.85 -710.34998
-82.589996 -27.879999 -711.06
-81.949997 -27.889999 -711.21002
-81.339996 -27.9 -711.57001
-75.110001 -26.85 -684.96997
-74.349998 -26.799999 -683.73999
-73.599998 -26.75 -682.63
-72.879997 -26.719999 -681.82001
-72.190002 -26.700001 -681.19
-71.489998 -26.67 -680.52002
-70.82 -26.65 -680.04999
-70.129997 -26.629999 -679.46002
-69.459999 -26.610001 -679.03003
-68.790001 -26.59 -678.53003
-68.099998 -26.559999 -677.90997
-67.400002 -26.540001 -677.17999
-66.739998 -26.52 -676.77002
-66.059998 -26.49 -676.14001
-65.389999 -26.48 -675.70001
-64.730003 -26.459999 -675.21997
-64.089996 -26.450001 -675.10999
-63.439999 -26.440001 -674.79999
-62.799999 -26.43 -674.54999
-62.16 -26.42 -674.33002
-61.549999 -26.42 -674.38
-60.91 -26.42 -674.20001
-60.290001 -26.42 -674.19
-59.689999 -26.42 -674.37
-59.02 -26.4 -673.78998
-58.169998 -26.299999 -671.15997
-54.630001 -24.959999 -637.53003
-53.59 -24.75 -632.29999
-52.939999 -24.719999 -631.42999
-52.310001 -24.690001 -630.84003
-51.709999 -24.690001 -630.62
-51.130001 -24.68 -630.58002
-50.560001 -24.690001 -630.65002
-49.990002 -24.690001 -630.82001
-49.450001 -24.709999 -631.22998
-48.889999 -24.719999 -631.53998
-48.330002 -24.73 -631.84003
-47.810001 -24.76 -632.53003
-47.299999 -24.799999 -633.52002
-46.799999 -24.84 -634.64001
-46.299999 -24.889999 -635.72998
-45.779999 -24.92 -636.62
25.43 -23.280001 -595.28998
25.940001 -23.25 -594.40002
26.450001 -23.219999 -593.70001
26.959999 -23.190001 -593.02002
27.49 -23.18 -592.66998
28.02 -23.17 -592.39001
28.559999 -23.16 -592.28998
29.1 -23.16 -592.25
29.65 -23.17 -592.40997
30.200001 -23.17 -592.41998
30.709999 -23.15 -591.92999
31.23 -23.129999 -591.53003
31.77 -23.129999 -591.42999
32.310001 -23.120001 -591.34998
32.849998 -23.120001 -591.35999
33.41 -23.139999 -591.69
33.98 -23.15 -592.08002
34.560001 -23.18 -592.77002
35.139999 -23.200001 -593.34998
35.720001 -23.23 -594.04999
100.58 -27.23 -694.47998
101.04 -27.18 -693.31
101.59 -27.16 -692.70001
102.21 -27.15 -692.58002
102.84 -27.15 -692.57001
103.52 -27.16 -692.81
104.23 -27.18 -693.28998
104.96 -27.209999 -693.89001
105.71 -27.23 -694.60999
106.47 -27.27 -695.45001
-161.78999 -26.719999 -666.14001
-161.21001 -26.73 -666.28003
-160.57001 -26.719999 -666.17999
-159.97 -26.73 -666.21002
-159.33 -26.719999 -666.09003
-158.74001 -26.73 -666.20001
-158.14 -26.73 -666.23999
-157.56 -26.73 -666.35999
-156.97 -26.74 -666.46997
-156.36 -26.74 -666.5
-155.83 -26.75 -666.84003
-155.28999 -26.76 -667.12
-154.75 -26.780001 -667.46002
-154.23 -26.790001 -667.84998
-153.64 -26.799999 -667.96002
-153.02 -26.790001 -667.90002
-152.37 -26.790001 -667.75
-151.75999 -26.790001 -667.79999
-151.17999 -26.799999 -667.94
-150.57001 -26.799999 -667.95001
-149.99001 -26.799999 -668.08002
-149.38 -26.799999 -668.10999
-148.78 -26.809999 -668.19
-148.19 -26.809999 -668.27002
-147.64 -26.82 -668.57001
-147.08 -26.83 -668.79999
-146.5 -26.84 -668.96997
-145.96001 -26.85 -669.32001
-145.41 -26.860001 -669.59003
-144.89999 -26.879999 -670.07001
-144.37 -26.9 -670.48999
-143.84 -26.92 -670.90002
-143.32001 -26.93 -671.32001
-142.82001 -26.959999 -671.88
-142.37 -26.99 -672.65002
-141.89 -27.01 -673.29999
-141.41 -27.040001 -673.92999
-140.89999 -27.059999 -674.46997
-140.49001 -27.1 -675.45001
-140.03 -27.129999 -676.21997
-139.63 -27.17 -677.28003
-139.25 -27.219999 -678.45001
-138.89 -27.27 -679.73999
-138.55 -27.33 -681.09998
-138.21001 -27.389999 -682.48999
-137.86 -27.440001 -683.84998
-137.58 -27.51 -685.58002
-137.27 -27.58 -687.16998
-136.82001 -27.610001 -688.07001
-136.21001 -27.620001 -688.16998
-135.64999 -27.629999 -688.56
-135.02 -27.629999 -688.54999
-134.46001 -27.65 -688.95001
-133.92 -27.67 -689.41998
-133.42 -27.690001 -690.07001
-132.89999 -27.719999 -690.67999
-132.39999 -27.75 -691.40002
-131.89999 -27.780001 -692.09003
-131.47 -27.82 -693.17999
-131.06 -27.870001 -694.34003
-130.64 -27.91 -695.48999
-130.14999 -27.940001 -696.26001
-129.75999 -28 -697.59003
-129.35001 -28.049999 -698.83002
-128.88 -28.09 -699.79999
-128.49001 -28.139999 -701.12
-127.97 -28.17 -701.83002
-127.64 -28.24 -703.53003
-127.12 -28.27 -704.25
-126.63 -28.299999 -705.09998
-105.96 -27.809999 -693.07001
-105.32 -27.809999 -693.04999
-104.63 -27.799999 -692.72998
-103.89 -27.77 -692.03003
-103.1 -27.73 -691.03003
-102.36 -27.700001 -690.32001
-101.68 -27.690001 -690
-101.05 -27.690001 -690.01001
-100.43 -27.690001 -690.10999
-99.839996 -27.700001 -690.44
-99.269997 -27.719999 -690.91998
-98.709999 -27.74 -691.42999
-98.230003 -27.790001 -692.5
-97.620003 -27.790001 -692.66998
-97.089996 -27.82 -693.46002
-96.519997 -27.84 -693.94
-96 -27.879999 -694.76001
-95.459999 -27.91 -695.46997
-94.93 -27.940001 -696.27002
-94.400002 -27.969999 -697.04999
-93.910004 -28.02 -698.15997
-93.389999 -28.049999 -699.06
-92.879997 -28.09 -700.03003
-92.309998 -28.120001 -700.65002
-91.82 -28.16 -701.75
-91.239998 -28.18 -702.26001
-90.75 -28.23 -703.46997
-90.190002 -28.26 -704.09998
-89.660004 -28.290001 -705.06
-89.120003 -28.33 -705.90997
-88.57 -28.360001 -706.71002
-88.040001 -28.4 -707.59998
-87.489998 -28.43 -708.41998
-86.93 -28.459999 -709.13
-86.389999 -28.5 -710.08002
-85.75 -28.5 -710.21997
-85.160004 -28.52 -710.72998
-84.510002 -28.52 -710.76001
-83.900002 -28.540001 -711.09003
-74.419998 -27.450001 -684.42999
-73.68 -27.41 -683.34003
-72.910004 -27.360001 -682.09998
-72.239998 -27.34 -681.64001
-71.529999 -27.309999 -680.84998
-70.839996 -27.280001 -680.26001
-70.160004 -27.26 -679.70001
-69.5 -27.25 -679.40997
-68.830002 -27.23 -678.97998
-68.169998 -27.219999 -678.59003
-67.5 -27.200001 -678.09998
-66.839996 -27.18 -677.76001
-66.190002 -27.17 -677.53998
-65.550003 -27.16 -677.29999
-64.879997 -27.139999 -676.85999
-64.25 -27.139999 -676.75
-63.619999 -27.139999 -676.64001
-62.98 -27.129999 -676.46997
-62.349998 -27.120001 -676.33002
-61.73 -27.120001 -676.35999
-61.099998 -27.120001 -676.26001
-60.48 -27.120001 -676.29999
-59.860001 -27.120001 -676.35999
-59.240002 -27.120001 -676.32001
-58.41 -27.030001 -673.95001
-54.32 -25.4 -634.01001
-53.66 -25.370001 -633.09998
-52.990002 -25.32 -632.01001
-52.349998 -25.299999 -631.38
-51.75 -25.280001 -631.09998
-51.169998 -25.280001 -631.03998
-50.59 -25.280001 -631.03003
-50.029999 -25.290001 -631.28998
-49.459999 -25.299999 -631.44
-48.889999 -25.299999 -631.58002
-48.330002 -25.309999 -631.77002
-47.810001 -25.34 -632.56
-47.299999 -25.379999 -633.46002
-46.779999 -25.42 -634.38
-46.279999 -25.459999 -635.46997
-45.799999 -25.51 -636.77002
-45.290001 -25.559999 -637.88
25.41 -23.799999 -594.72998
25.91 -23.76 -593.78003
26.42 -23.73 -593.01001
26.940001 -23.709999 -592.45001
27.469999 -23.700001 -592.10999
28 -23.690001 -591.90002
28.530001 -23.68 -591.77002
29.08 -23.68 -591.75
29.620001 -23.68 -591.77002
30.17 -23.690001 -591.89001
30.700001 -23.68 -591.65002
31.209999 -23.66 -591.15997
31.74 -23.65 -590.94
32.279999 -23.65 -590.82001
32.82 -23.65 -590.90997
33.380001 -23.66 -591.17999
33.950001 -23.68 -591.56
34.52 -23.690001 -592.03003
35.09 -23.719999 -592.62
35.689999 -23.75 -593.46997
36.27 -23.780001 -594.13
100.08 -27.91 -695.44
100.47 -27.84 -693.73999
100.96 -27.799999 -692.76001
101.52 -27.780001 -692.25
102.15 -27.77 -692.17999
102.79 -27.77 -692.17999
103.47 -27.790001 -692.47998
104.18 -27.809999 -692.97998
104.9 -27.83 -693.54999
105.66 -27.860001 -694.34998
106.39 -27.889999 -694.90997
107.2 -27.93 -695.97998
-161.36 -27.370001 -666.90997
-160.82001 -27.379999 -667.17999
-160.19 -27.379999 -667.13
-159.50999 -27.360001 -666.84003
-158.92 -27.370001 -666.95001
-158.31 -27.370001 -666.96002
-157.78999 -27.379999 -667.33002
-157.21001 -27.389999 -667.46997
-156.58 -27.389999 -667.41998
-156.02 -27.4 -667.65002
-155.5 -27.41 -668.03003
-154.99001 -27.43 -668.47998
-154.46001 -27.450001 -668.82001
-153.88 -27.450001 -668.96002
-153.23 -27.450001 -668.81
-152.59 -27.440001 -668.71002
-151.99001 -27.440001 -668.76001
-151.39 -27.450001 -668.84003
-150.82001 -27.450001 -669.02002
-150.2 -27.450001 -669
-149.64 -27.459999 -669.23999
-149.03999 -27.469999 -669.29999
-148.42999 -27.469999 -669.37
-147.86 -27.48 -669.57001
-147.27 -27.48 -669.65002
-146.71001 -27.49 -669.90002
-146.19 -27.51 -670.34003
-145.66 -27.530001 -670.75
-145.12 -27.540001 -671.07001
-144.61 -27.559999 -671.58002
-144.05 -27.57 -671.84998
-143.55 -27.59 -672.38
-143.05 -27.620001 -672.90997
-142.56 -27.639999 -673.51001
-142.06 -27.66 -674.08002
-141.58 -27.690001 -674.73999
-141.13 -27.719999 -675.54999
-140.73 -27.77 -676.59003
-140.28999 -27.799999 -677.44
-139.92999 -27.860001 -678.72998
-139.56 -27.91 -679.95001
-139.17999 -27.959999 -681.14001
-138.81 -28.01 -682.37
-138.48 -28.07 -683.84003
-138.14 -28.129999 -685.25
-137.86 -28.200001 -686.95001
-137.47 -28.25 -688.15002
-136.97 -28.280001 -688.81
-136.42 -28.290001 -689.23999
-135.77 -28.290001 -689.15997
-135.19 -28.299999 -689.40997
-134.62 -28.309999 -689.73999
-134.09 -28.34 -690.28998
-133.62 -28.370001 -691.12
-133.16 -28.41 -692
-132.74001 -28.450001 -693.13
-132.32001 -28.5 -694.27002
-131.97 -28.559999 -695.73999
-131.45 -28.59 -696.40997
-131.00999 -28.629999 -697.42999
-130.57001 -28.68 -698.47998
-130.19 -28.74 -699.90002
-129.71001 -28.77 -700.78003
-129.23 -28.809999 -701.67999
-128.78 -28.85 -702.70001
-128.23 -28.870001 -703.23999
-105.27 -28.43 -692.72998
-104.63 -28.43 -692.71002
-103.96 -28.42 -692.5
-103.27 -28.41 -692.14001
-102.55 -28.389999 -691.60999
-101.87 -28.370001 -691.26001
-101.22 -28.370001 -691.15997
-100.66 -28.389999 -691.66998
-100.11 -28.41 -692.27002
-99.57 -28.440001 -692.92999
-99.010002 -28.459999 -693.5
-98.480003 -28.49 -694.21997
-97.940002 -28.52 -694.90997
-97.389999 -28.549999 -695.56
-96.860001 -28.58 -696.31
-96.389999 -28.629999 -697.56
-95.860001 -28.66 -698.33002
-95.330002 -28.700001 -699.13
-94.779999 -28.73 -699.85999
-94.25 -28.76 -700.65002
-93.730003 -28.799999 -701.60999
-93.160004 -28.82 -702.17999
-92.629997 -28.860001 -702.98999
-92.099998 -28.889999 -703.87
-91.589996 -28.940001 -704.96997
-91.080002 -28.98 -706.02002
-90.589996 -29.030001 -707.22998
-90.07 -29.07 -708.25
-89.550003 -29.120001 -709.22998
-89.040001 -29.16 -710.35999
-88.480003 -29.190001 -711.09998
-87.870003 -29.209999 -711.46002
-87.260002 -29.219999 -711.84003
-86.440002 -29.17 -710.47998
-73.709999 -28.049999 -683.62
-72.980003 -28.01 -682.73999
-72.260002 -27.98 -681.87
-71.559998 -27.940001 -681.10999
-70.879997 -27.93 -680.67999
-70.169998 -27.889999 -679.85999
-69.510002 -27.879999 -679.5
-68.849998 -27.860001 -679.16998
-68.199997 -27.85 -678.90002
-67.550003 -27.84 -678.58002
-66.889999 -27.82 -678.21997
-66.239998 -27.809999 -677.96002
-65.599998 -27.809999 -677.84998
-64.940002 -27.790001 -677.46997
-64.309998 -27.780001 -677.31
-63.669998 -27.780001 -677.17999
-63.040001 -27.780001 -677.09998
-62.419998 -27.77 -677.07001
-61.790001 -27.77 -677.02002
-61.169998 -27.77 -676.98999
-60.540001 -27.77 -676.90002
-59.91 -27.77 -676.90002
-59.360001 -27.799999 -677.65002
-58.779999 -27.82 -678.20001
-54.580002 -26.110001 -636.92999
-53.689999 -25.959999 -633.44
-53.040001 -25.93 -632.65002
-52.41 -25.9 -632.06
-51.790001 -25.879999 -631.57001
-51.200001 -25.879999 -631.46002
-50.619999 -25.879999 -631.46997
-50.049999 -25.879999 -631.51001
-49.470001 -25.879999 -631.53998
-48.900002 -25.889999 -631.71002
-48.349998 -25.9 -632.04999
-47.82 -25.93 -632.65002
-47.299999 -25.959999 -633.5
-46.790001 -26 -634.39001
-46.290001 -26.049999 -635.62
-45.779999 -26.09 -636.51001
-45.27 -26.129999 -637.59998
24.870001 -24.360001 -594.96997
25.370001 -24.32 -593.94
25.879999 -24.280001 -593.14001
26.4 -24.26 -592.52002
26.91 -24.23 -591.90002
27.440001 -24.219999 -591.59998
27.98 -24.209999 -591.47998
28.51 -24.209999 -591.34003
29.049999 -24.200001 -591.27002
29.6 -24.209999 -591.32001
30.139999 -24.209999 -591.42999
30.690001 -24.209999 -591.41998
31.200001 -24.190001 -590.85999
31.73 -24.18 -590.60999
32.259998 -24.17 -590.40997
32.799999 -24.17 -590.5
33.360001 -24.190001 -590.78998
33.919998 -24.200001 -591.09998
34.490002 -24.219999 -591.59998
35.060001 -24.24 -592.07001
35.650002 -24.27 -592.79999
36.240002 -24.299999 -593.53998
36.830002 -24.33 -594.22998
99.93 -28.5 -694.40997
100.39 -28.450001 -693.20001
100.89 -28.41 -692.27002
101.48 -28.4 -691.98999
102.11 -28.4 -691.95001
102.73 -28.389999 -691.82001
103.42 -28.41 -692.19
104.13 -28.43 -692.65997
104.85 -28.450001 -693.21002
105.6 -28.48 -693.94
106.35 -28.51 -694.63
107.17 -28.559999 -695.78003
-161.75 -28.049999 -668.47998
-161.03 -28.030001 -668.07001
-160.41 -28.030001 -668.03003
-159.75999 -28.02 -667.88
-159.19 -28.030001 -668.04999
-158.59 -28.030001 -668.12
-158.02 -28.040001 -668.31
-157.45 -28.049999 -668.46002
-156.89 -28.059999 -668.71997
-156.33 -28.07 -668.96002
-155.78 -28.08 -669.20001
-155.22 -28.09 -669.42999
-154.67 -28.1 -669.71997
-154.11 -28.110001 -669.97998
-153.53 -28.120001 -670.12
-152.89 -28.110001 -670
-152.25999 -28.110001 -669.96002
-151.62 -28.1 -669.84003
-151.03999 -28.110001 -670.02002
-150.45 -28.110001 -670.09998
-149.86 -28.120001 -670.25
-149.28999 -28.129999 -670.41998
-148.71001 -28.139999 -670.59998
-148.10001 -28.139999 -670.62
-147.52 -28.139999 -670.79999
-146.97 -28.16 -671.09998
-146.45 -28.18 -671.53998
-145.89999 -28.190001 -671.84003
-145.34 -28.200001 -672.07001
-144.86 -28.23 -672.71997
-144.33 -28.24 -673.12
-143.82001 -28.26 -673.64001
-143.28 -28.280001 -674
-142.8 -28.309999 -674.66998
-142.3 -28.33 -675.21002
-141.85001 -28.370001 -676.03003
-141.39999 -28.4 -676.81
-141.06 -28.459999 -678.16998
-140.63 -28.5 -679.07001
-140.22 -28.540001 -680.10999
-139.83 -28.59 -681.21997
-139.5 -28.65 -682.65997
-139.14999 -28.709999 -684.03998
-138.78999 -28.76 -685.34998
-138.48 -28.83 -686.90002
-138.16 -28.889999 -688.41998
-137.67999 -28.92 -689.19
-137.14999 -28.950001 -689.71002
-136.52 -28.950001 -689.72998
-135.95 -28.959999 -690.03998
-135.38 -28.98 -690.39001
-134.91 -29.01 -691.19
-134.42 -29.040001 -691.96002
-134.00999 -29.09 -693.09998
-133.64 -29.15 -694.48999
-133.2 -29.190001 -695.47998
-132.75999 -29.24 -696.52002
-132.33 -29.280001 -697.63
-131.82001 -29.309999 -698.32001
-131.39 -29.360001 -699.42999
-130.94 -29.4 -700.44
-130.53 -29.459999 -701.70001
-130.14 -29.51 -703.07001
-104.54 -29.040001 -692.12
-103.94 -29.049999 -692.35999
-103.3 -29.049999 -692.34998
-102.74 -29.07 -692.84998
-102.1 -29.07 -692.82001
-101.55 -29.1 -693.45001
-101.08 -29.15 -694.53003
-100.52 -29.17 -695.07001
-99.949997 -29.190001 -695.58002
-99.389999 -29.209999 -696.09003
-98.860001 -29.24 -696.85999
-98.309998 -29.27 -697.52002
-97.839996 -29.32 -698.75
-97.349998 -29.370001 -699.77002
-96.790001 -29.389999 -700.37
-96.239998 -29.42 -701.07001
-95.68 -29.450001 -701.65997
-95.129997 -29.48 -702.37
-94.629997 -29.52 -703.45001
-94.07 -29.549999 -704.09998
-93.589996 -29.6 -705.34003
-93.029999 -29.629999 -706
-92.540001 -29.68 -707.21997
-92.07 -29.74 -708.54999
-91.510002 -29.77 -709.28003
-90.959999 -29.799999 -710.03003
-90.389999 -29.83 -710.71002
-89.809998 -29.860001 -711.31
-89.190002 -29.870001 -711.53998
-88.589996 -29.879999 -711.98999
-73.029999 -28.66 -683.20001
-72.32 -28.629999 -682.42999
-71.610001 -28.59 -681.59998
-70.919998 -28.559999 -680.96997
-70.220001 -28.540001 -680.34003
-69.550003 -28.52 -679.89001
-68.879997 -28.5 -679.44
-68.230003 -28.49 -679.22998
-67.580002 -28.48 -678.95001
-66.919998 -28.459999 -678.59998
-66.279999 -28.450001 -678.34998
-65.629997 -28.440001 -678.13
-64.989998 -28.43 -677.90997
-64.349998 -28.43 -677.82001
-63.720001 -28.42 -677.67999
-63.080002 -28.42 -677.54999
-62.450001 -28.41 -677.44
-61.830002 -28.41 -677.42999
-61.200001 -28.41 -677.34003
-60.57 -28.41 -677.28998
-59.959999 -28.41 -677.35999
-59.349998 -28.42 -677.59003
-58.810001 -28.459999 -678.47998
-53.720001 -26.549999 -633.75
-53.080002 -26.530001 -633.14001
-52.43 -26.49 -632.25
-51.830002 -26.48 -631.97998
-51.23 -26.469999 -631.76001
-50.639999 -26.469999 -631.65997
-50.060001 -26.469999 -631.67999
-49.5 -26.469999 -631.89001
-48.939999 -26.49 -632.17999
-48.380001 -26.5 -632.41998
-47.830002 -26.51 -632.79999
-47.290001 -26.540001 -633.33002
-46.779999 -26.58 -634.37
-46.279999 -26.620001 -635.35999
-45.77 -26.67 -636.38
-45.259998 -26.709999 -637.46002
-44.830002 -26.799999 -639.66998
24.360001 -24.940001 -595.78003
24.85 -24.879999 -594.39001
25.35 -24.84 -593.41998
25.860001 -24.809999 -592.67999
26.379999 -24.780001 -592.04999
26.9 -24.76 -591.52002
27.42 -24.74 -591.17999
27.959999 -24.74 -591.02002
28.49 -24.73 -590.91998
29.040001 -24.74 -591.03003
29.58 -24.74 -591.06
30.139999 -24.75 -591.28998
30.67 -24.74 -591.20001
31.18 -24.709999 -590.45001
31.700001 -24.700001 -590.14001
32.23 -24.690001 -590.03003
32.779999 -24.700001 -590.13
33.34 -24.709999 -590.40997
33.900002 -24.719999 -590.71002
34.470001 -24.75 -591.21997
35.040001 -24.76 -591.64001
35.619999 -24.790001 -592.32001
36.200001 -24.82 -592.97998
36.810001 -24.860001 -593.95001
99.389999 -29.17 -695.09998
99.82 -29.110001 -693.69
100.3 -29.059999 -692.56
100.83 -29.030001 -691.84998
101.44 -29.02 -691.65997
102.06 -29.02 -691.58002
102.69 -29.02 -691.56
103.38 -29.030001 -691.90997
104.08 -29.049999 -692.34003
104.79 -29.07 -692.81
105.56 -29.110001 -693.64001
106.29 -29.129999 -694.26001
107.1 -29.18 -695.34998
107.82 -29.200001 -695.84998
-161.21001 -28.67 -668.81
-160.61 -28.68 -668.87
-160.02 -28.68 -668.95001
-159.42 -28.68 -669
-158.86 -28.690001 -669.25
-158.28 -28.700001 -669.39001
-157.71001 -28.709999 -669.57001
-157.16 -28.719999 -669.83002
-156.59 -28.73 -670.02002
-156.03 -28.74 -670.26001
-155.46001 -28.75 -670.46997
-154.92 -28.76 -670.81
-154.38 -28.780001 -671.13
-153.86 -28.790001 -671.54999
-153.22 -28.790001 -671.41998
-152.56 -28.780001 -671.26001
-151.92 -28.780001 -671.14001
-151.33 -28.780001 -671.28998
-150.75999 -28.790001 -671.47998
-150.13 -28.790001 -671.44
-149.57001 -28.799999 -671.65997
-148.95 -28.799999 -671.65002
-148.39 -28.809999 -671.91998
-147.78 -28.809999 -671.96002
-147.25999 -28.83 -672.38
-146.69 -28.84 -672.59998
-146.16 -28.860001 -673.02002
-145.63 -28.870001 -673.39001
-145.09 -28.889999 -673.78003
-144.59 -28.91 -674.34003
-144.10001 -28.940001 -674.94
-143.53999 -28.950001 -675.21997
-143.07001 -28.98 -675.90002
-142.60001 -29.01 -676.64001
-142.17999 -29.049999 -677.56
-141.78 -29.1 -678.62
-141.38 -29.15 -679.66998
-140.92999 -29.18 -680.52002
-140.58 -29.24 -681.84998
-140.21001 -29.290001 -683.04999
-139.85001 -29.35 -684.38
-139.47 -29.4 -685.59003
-139.14999 -29.469999 -687.08002
-138.75 -29.52 -688.23999
-138.39999 -29.58 -689.62
-137.87 -29.6 -690.15002
-137.28999 -29.610001 -690.41998
-136.74001 -29.629999 -690.79999
-136.22 -29.65 -691.40002
-135.77 -29.700001 -692.34998
-135.44 -29.76 -693.88
-134.95 -29.799999 -694.65997
-134.5 -29.84 -695.60999
-133.97 -29.860001 -696.15997
-133.53 -29.91 -697.21002
-133.05 -29.940001 -698.02002
-132.63 -29.99 -699.17999
-132.21001 -30.040001 -700.33002
-131.72 -30.08 -701.16998
-131.05 -30.07 -701.04999
-103.18 -29.65 -691.53998
-103.34 -29.879999 -696.84998
-102.75 -29.9 -697.15997
-102.19 -29.92 -697.71002
-101.56 -29.92 -697.78003
-101.02 -29.950001 -698.46997
-100.41 -29.969999 -698.72998
-99.879997 -30 -699.48999
-99.360001 -30.040001 -700.35999
-98.779999 -30.059999 -700.84003
-98.260002 -30.09 -701.66998
-97.639999 -30.1 -701.88
-97.080002 -30.129999 -702.5
-96.57 -30.17 -703.42999
-96.169998 -30.25 -705.23999
-95.599998 -30.27 -705.79999
-95.099998 -30.32 -706.90002
-94.550003 -30.35 -707.63
-94.080002 -30.41 -709
-93.57 -30.459999 -710.04999
-93.040001 -30.5 -710.98999
-92.410004 -30.5 -711.15997
-91.839996 -30.530001 -711.82001
-91.199997 -30.540001 -711.95001
-73.029999 -29.280001 -683.15997
-72.389999 -29.280001 -683.04999
-71.660004 -29.24 -682.09003
-70.959999 -29.209999 -681.35999
-70.260002 -29.18 -680.69
-69.589996 -29.16 -680.28998
-68.900002 -29.129999 -679.65002
-68.260002 -29.120001 -679.44
-67.599998 -29.110001 -679.15002
-66.959999 -29.1 -678.91998
-66.309998 -29.09 -678.71002
-65.669998 -29.08 -678.53003
-65.029999 -29.08 -678.38
-64.389999 -29.07 -678.20001
-63.740002 -29.059999 -677.95001
-63.110001 -29.049999 -677.79999
-62.48 -29.049999 -677.70001
-61.849998 -29.049999 -677.71002
-61.209999 -29.040001 -677.52002
-60.59 -29.040001 -677.5
-59.98 -29.040001 -677.65002
-59.360001 -29.040001 -677.62
-58.759998 -29.059999 -677.95001
-57.279999 -28.620001 -668.02002
-53.759998 -27.16 -634.25
-53.119999 -27.129999 -633.59998
-52.459999 -27.09 -632.65997
-51.84 -27.07 -632.20001
-51.259998 -27.07 -632.15002
-50.689999 -27.07 -632.25
-50.099998 -27.07 -632.19
-49.540001 -27.07 -632.34998
-48.970001 -27.08 -632.5
-48.400002 -27.09 -632.63
-47.82 -27.09 -632.71002
-47.27 -27.110001 -633.10999
-46.779999 -27.16 -634.34003
-46.259998 -27.190001 -635.12
-45.75 -27.24 -636.13
-45.25 -27.290001 -637.34998
-44.810001 -27.379999 -639.34003
24.33 -25.459999 -595.10999
24.83 -25.4 -593.92999
25.34 -25.370001 -593.09998
25.85 -25.33 -592.29999
26.360001 -25.309999 -591.70001
26.879999 -25.290001 -591.19
27.41 -25.27 -590.85999
27.940001 -25.26 -590.62
28.469999 -25.26 -590.54999
29.02 -25.26 -590.58002
29.559999 -25.26 -590.67999
30.120001 -25.27 -590.90002
30.639999 -25.26 -590.60999
31.15 -25.23 -589.96997
31.68 -25.219999 -589.71002
32.209999 -25.219999 -589.63
32.759998 -25.219999 -589.71002
33.310001 -25.23 -589.97998
33.880001 -25.25 -590.37
34.439999 -25.27 -590.82001
35.009998 -25.290001 -591.21002
35.59 -25.32 -591.90002
36.18 -25.35 -592.57001
36.779999 -25.389999 -593.53003
37.400002 -25.440001 -594.77002
38.029999 -25.5 -596.08002
99.260002 -29.77 -694.22998
99.720001 -29.719999 -693.01001
100.21 -29.67 -691.96997
100.79 -29.66 -691.58002
101.39 -29.65 -691.38
102.01 -29.639999 -691.25
102.64 -29.639999 -691.19
103.32 -29.65 -691.46997
104.04 -29.68 -692.06
104.76 -29.700001 -692.58002
105.49 -29.73 -693.21997
106.24 -29.76 -693.92999
107 -29.790001 -694.70001
107.74 -29.82 -695.37
-160.8 -29.33 -669.63
-160.27 -29.34 -669.97998
-159.69 -29.35 -670.10999
-159.13 -29.360001 -670.35999
-158.57001 -29.370001 -670.59003
-157.99001 -29.370001 -670.72998
-157.44 -29.389999 -671.01001
-156.91 -29.4 -671.38
-156.32001 -29.41 -671.52002
-155.75999 -29.42 -671.73999
-155.21001 -29.43 -672.03003
-154.69 -29.450001 -672.44
-154.14999 -29.469999 -672.79999
-153.59 -29.48 -673.03003
-152.97 -29.48 -673.02002
-152.3 -29.469999 -672.79999
-151.7 -29.469999 -672.89001
-151.08 -29.469999 -672.90002
-150.48 -29.469999 -672.95001
-149.86 -29.469999 -672.95001
-149.3 -29.49 -673.23999
-148.72 -29.49 -673.40002
-148.14 -29.5 -673.59003
-147.59 -29.51 -673.85999
-147.02 -29.52 -674.10999
-146.49001 -29.540001 -674.5
-145.97 -29.559999 -674.96002
-145.45 -29.58 -675.44
-144.91 -29.6 -675.78998
-144.42 -29.629999 -676.40997
-143.91 -29.65 -676.92999
-143.45 -29.68 -677.67999
-143 -29.719999 -678.5
-142.60001 -29.76 -679.52002
-142.14999 -29.799999 -680.37
-141.73 -29.84 -681.34003
-141.34 -29.889999 -682.47998
-140.95 -29.940001 -683.62
-140.60001 -30 -684.92999
-140.23 -30.059999 -686.21997
-139.8 -30.1 -687.19
-139.39 -30.15 -688.28003
-139.06 -30.219999 -689.71997
-138.69 -30.27 -691.04999
-138.25 -30.32 -692.02002
-137.78999 -30.35 -692.87
-137.28999 -30.379999 -693.54999
-136.8 -30.42 -694.29999
-136.28 -30.440001 -694.89001
-135.8 -30.48 -695.71002
-135.25999 -30.5 -696.21002
-134.8 -30.540001 -697.12
-134.28 -30.57 -697.76001
-133.89 -30.629999 -699.04999
-133.41 -30.67 -699.90997
-132.94 -30.709999 -700.79999
-103.22 -30.68 -700.29999
-102.59 -30.68 -700.44
-102.01 -30.700001 -700.87
-101.45 -30.73 -701.41998
-100.92 -30.76 -702.20001
-100.37 -30.790001 -702.90997
-99.75 -30.799999 -703.03998
-99.169998 -30.82 -703.56
-98.690002 -30.870001 -704.75
-98.110001 -30.889999 -705.16998
-97.589996 -30.93 -706.09003
-97.160004 -31.01 -707.71997
-96.610001 -31.040001 -708.46002
-96.07 -31.07 -709.22998
-95.519997 -31.110001 -709.97998
-94.949997 -31.129999 -710.57001
-94.400002 -31.17 -711.34998
-93.900002 -31.219999 -712.52002
-72.370003 -29.9 -682.85999
-71.75 -29.9 -682.90997
-71.019997 -29.860001 -682
-70.32 -29.83 -681.25
-69.660004 -29.809999 -680.90997
-68.959999 -29.780001 -680.21997
-68.290001 -29.76 -679.81
-67.639999 -29.75 -679.5
-66.989998 -29.74 -679.28003
-66.349998 -29.73 -679.07001
-65.709999 -29.719999 -678.94
-65.059998 -29.709999 -678.69
-64.419998 -29.700001 -678.5
-63.779999 -29.700001 -678.35999
-63.150002 -29.690001 -678.28003
-62.529999 -29.690001 -678.23999
-61.880001 -29.68 -678.02002
-61.259998 -29.68 -677.97998
-60.610001 -29.67 -677.75
-59.970001 -29.66 -677.5
-59.330002 -29.65 -677.29999
-58.700001 -29.65 -677.23999
-57.869999 -29.540001 -674.85999
-53.779999 -27.75 -634.53003
-53.16 -27.73 -634.04999
-52.529999 -27.700001 -633.42999
-51.91 -27.68 -632.95001
-51.290001 -27.66 -632.56
-50.709999 -27.66 -632.47998
-50.119999 -27.66 -632.46002
-49.549999 -27.66 -632.5
-48.970001 -27.66 -632.53003
-48.400002 -27.67 -632.71002
-47.849998 -27.690001 -633.06
-47.310001 -27.709999 -633.59003
-46.779999 -27.74 -634.28003
-46.23 -27.76 -634.79999
-45.720001 -27.809999 -635.79999
-45.240002 -27.870001 -637.22998
-44.75 -27.93 -638.52002
-44.27 -27.99 -639.96002
23.82 -26.030001 -595.83002
24.32 -25.98 -594.72998
24.82 -25.940001 -593.65002
25.33 -25.9 -592.79999
25.82 -25.85 -591.82001
26.34 -25.83 -591.23999
26.860001 -25.809999 -590.84998
27.389999 -25.799999 -590.53003
27.92 -25.790001 -590.29999
28.459999 -25.790001 -590.26001
29 -25.790001 -590.29999
29.549999 -25.799999 -590.48999
30.1 -25.799999 -590.62
30.620001 -25.780001 -590.14001
31.129999 -25.76 -589.58002
31.66 -25.75 -589.34998
32.189999 -25.74 -589.31
32.740002 -25.75 -589.42999
33.299999 -25.76 -589.77002
33.860001 -25.780001 -590.13
34.43 -25.799999 -590.5
34.990002 -25.82 -590.95001
35.57 -25.84 -591.46002
36.150002 -25.870001 -592.04999
36.75 -25.91 -592.98999
37.360001 -25.959999 -594.09998
37.990002 -26.02 -595.42999
38.599998 -26.059999 -596.40002
98.650002 -30.42 -694.40002
99.129997 -30.370001 -693.28998
99.620003 -30.32 -692.28003
100.13 -30.280001 -691.44
100.73 -30.27 -691.15997
101.36 -30.27 -691.12
101.97 -30.26 -690.96997
102.6 -30.26 -690.94
103.28 -30.280001 -691.21997
103.99 -30.299999 -691.73999
104.72 -30.32 -692.33002
105.45 -30.35 -692.94
106.18 -30.379999 -693.58002
106.94 -30.41 -694.31
107.69 -30.440001 -695.02002
-160.49001 -30 -670.88
-159.98 -30.02 -671.34998
-159.33 -30.01 -671.19
-158.8 -30.030001 -671.56
-158.25999 -30.040001 -671.88
-157.74001 -30.059999 -672.28998
-157.2 -30.08 -672.60999
-156.64999 -30.09 -672.90002
-156.05 -30.09 -672.98999
-155.45 -30.1 -673.08002
-154.96001 -30.120001 -673.59003
-154.47 -30.15 -674.16998
-153.97 -30.17 -674.69
-153.38 -30.18 -674.83002
-152.75999 -30.18 -674.81
-152.13 -30.17 -674.77002
-151.49001 -30.17 -674.70001
-150.88 -30.17 -674.72998
-150.32001 -30.18 -674.98999
-149.69 -30.18 -674.96002
-149.07001 -30.18 -674.94
-148.53 -30.200001 -675.33002
-147.94 -30.200001 -675.44
-147.42 -30.23 -675.91998
-146.94 -30.25 -676.56
-146.36 -30.26 -676.75
-145.82001 -30.280001 -677.13
-145.24001 -30.290001 -677.33002
-144.77 -30.32 -678.03003
-144.32001 -30.360001 -678.83002
-143.87 -30.389999 -679.64001
-143.44 -30.440001 -680.57001
-143.00999 -30.48 -681.48999
-142.60001 -30.52 -682.51001
-142.19 -30.57 -683.54999
-141.71001 -30.6 -684.23999
-141.35001 -30.66 -685.54999
-141.16 -30.76 -687.64001
-140.67999 -30.790001 -688.38
-140.53 -30.889999 -690.72998
-140.17999 -30.959999 -692.10999
-139.74001 -31 -693.06
-139.3 -31.040001 -694.03998
-138.77 -31.07 -694.59003
-138.27 -31.1 -695.26001
-137.74001 -31.120001 -695.79999
-137.16 -31.139999 -696.09998
-136.59 -31.15 -696.46997
-136.12 -31.190001 -697.31
-135.56 -31.209999 -697.75
-135.03 -31.24 -698.31
-134.42 -31.24 -698.47998
-102.16 -31.389999 -701.88
-101.79 -31.48 -703.78003
-101.32 -31.530001 -704.98999
-100.72 -31.549999 -705.32001
-100.21 -31.59 -706.27002
-99.68 -31.629999 -707.10999
-99.199997 -31.68 -708.28998
-98.730003 -31.74 -709.57001
-98.160004 -31.77 -710.15002
-97.57 -31.790001 -710.65997
-96.970001 -31.809999 -711.04999
-96.330002 -31.809999 -711.10999
-71.75 -30.530001 -682.94
-71.110001 -30.52 -682.81
-70.410004 -30.49 -682.14001
-69.709999 -30.459999 -681.39001
-69.019997 -30.43 -680.82001
-68.349998 -30.41 -680.34998
-67.690002 -30.4 -680.04999
-67.040001 -30.389999 -679.78998
-66.379997 -30.370001 -679.40997
-65.730003 -30.360001 -679.14001
-65.089996 -30.35 -678.98999
-64.459999 -30.35 -678.94
-63.82 -30.34 -678.73999
-63.189999 -30.33 -678.65002
-62.560001 -30.33 -678.54999
-61.93 -30.33 -678.52002
-61.310001 -30.33 -678.53003
-60.619999 -30.299999 -677.81
-59.889999 -30.24 -676.66998
-59.240002 -30.23 -676.28003
-58.580002 -30.209999 -675.91998
-53.869999 -28.379999 -635.53003
-53.200001 -28.34 -634.56
-52.560001 -28.299999 -633.84003
-51.939999 -28.280001 -633.39001
-51.32 -28.26 -632.91998
-50.73 -28.25 -632.76001
-50.139999 -28.25 -632.62
-49.57 -28.25 -632.72998
-49 -28.26 -632.95001
-48.439999 -28.27 -633.20001
-47.880001 -28.290001 -633.47998
-47.32 -28.299999 -633.76001
-46.759998 -28.309999 -634.09998
-46.23 -28.34 -634.78003
-45.73 -28.389999 -635.82001
-45.209999 -28.440001 -636.82001
-44.720001 -28.49 -638.06
-44.290001 -28.59 -640.27002
23.809999 -26.57 -595.71002
24.309999 -26.52 -594.5
24.799999 -26.469999 -593.34003
25.309999 -26.43 -592.56
25.809999 -26.389999 -591.54999
26.33 -26.360001 -590.95001
26.85 -26.34 -590.60999
27.379999 -26.33 -590.31
27.91 -26.32 -590.03998
28.450001 -26.309999 -589.96997
28.99 -26.32 -590.06
29.549999 -26.33 -590.39001
30.09 -26.33 -590.28998
30.59 -26.299999 -589.66998
31.110001 -26.280001 -589.19
31.639999 -26.27 -589.04999
32.18 -26.27 -589.07001
32.73 -26.280001 -589.21002
33.290001 -26.290001 -589.51001
33.84 -26.309999 -589.81
34.41 -26.33 -590.25
34.970001 -26.34 -590.58002
35.549999 -26.370001 -591.12
36.119999 -26.389999 -591.67999
36.720001 -26.43 -592.57001
37.330002 -26.48 -593.56
37.950001 -26.530001 -594.81
38.580002 -26.59 -596.08002
39.200001 -26.639999 -597.13
84.470001 -31 -693.28003
85.080002 -30.99 -693.04999
85.709999 -30.99 -693
86.349998 -30.99 -693.02002
87.010002 -31 -693.23999
98.550003 -31.02 -693.70001
99 -30.959999 -692.40997
99.519997 -30.93 -691.62
100.06 -30.9 -690.97998
100.67 -30.889999 -690.75
101.31 -30.889999 -690.79999
101.91 -30.879999 -690.59998
102.53 -30.879999 -690.5
103.22 -30.889999 -690.84998
103.94 -30.92 -691.38
104.66 -30.940001 -691.95001
105.39 -30.969999 -692.56
106.12 -31 -693.15002
106.88 -31.030001 -693.95001
107.64 -31.07 -694.75
-160.10001 -30.66 -671.84003
-159.69 -30.700001 -672.69
-159.07001 -30.700001 -672.65997
-158.56 -30.719999 -673.10999
-158.02 -30.73 -673.47998
-157.50999 -30.75 -673.91998
-156.95 -30.77 -674.17999
-156.33 -30.77 -674.17999
-155.78999 -30.780001 -674.5
-155.28999 -30.809999 -675.02002
-154.81 -30.83 -675.62
-154.3 -30.860001 -676.10999
-153.82001 -30.879999 -676.73999
-153.2 -30.879999 -676.71997
-152.60001 -30.889999 -676.84003
-151.95 -30.879999 -676.70001
-151.34 -30.879999 -676.75
-150.74001 -30.889999 -676.87
-150.14 -30.889999 -676.96002
-149.56 -30.9 -677.13
-149.02 -30.92 -677.53003
-148.47 -30.93 -677.83002
-147.88 -30.940001 -677.97998
-147.3 -30.950001 -678.17999
-146.71001 -30.959999 -678.35999
-146.19 -30.98 -678.81
-145.72 -31.01 -679.53998
-145.27 -31.049999 -680.33002
-144.78999 -31.08 -681
-144.35001 -31.120001 -681.88
-143.84 -31.15 -682.42999
-143.49001 -31.209999 -683.73999
-143.17999 -31.280001 -685.21997
-142.82001 -31.34 -686.51001
-142.56 -31.42 -688.28003
-142.31 -31.5 -690.13
-142.2 -31.620001 -692.62
-141.85001 -31.68 -694.01001
-141.50999 -31.75 -695.48999
-140.94 -31.76 -695.81
-140.36 -31.780001 -696.09003
-139.74001 -31.780001 -696.20001
-139.17 -31.799999 -696.56
-138.53 -31.799999 -696.57001
-137.97 -31.82 -696.96002
-137.60001 -31.879999 -698.29999
-136.94 -31.879999 -698.21997
-101.06 -32.299999 -707.65002
-100.55 -32.349998 -708.63
-100.01 -32.389999 -709.42999
-99.519997 -32.439999 -710.59003
-71.169998 -31.18 -683.34003
-70.540001 -31.18 -683.34998
-69.809998 -31.129999 -682.34003
-69.129997 -31.1 -681.82001
-68.449997 -31.08 -681.31
-67.769997 -31.059999 -680.84003
-67.120003 -31.040001 -680.51001
-66.440002 -31.02 -680.03998
-65.800003 -31.01 -679.87
-65.160004 -31 -679.67999
-64.510002 -30.99 -679.41998
-63.880001 -30.99 -679.34003
-63.240002 -30.98 -679.16998
-62.610001 -30.98 -679.08002
-61.970001 -30.969999 -678.97998
-61.380001 -30.99 -679.37
-60.84 -31.030001 -680.21997
-60.360001 -31.110001 -681.90002
-59.689999 -31.08 -681.35999
-53.91 -28.98 -635.98999
-53.279999 -28.959999 -635.46002
-52.619999 -28.92 -634.51001
-51.990002 -28.889999 -633.90002
-51.360001 -28.860001 -633.34003
-50.77 -28.860001 -633.28003
-50.18 -28.85 -633.09003
-49.599998 -28.85 -633.20001
-49.029999 -28.860001 -633.23999
-48.450001 -28.860001 -633.27002
-47.900002 -28.879999 -633.71002
-47.330002 -28.889999 -633.90002
-46.77 -28.9 -634.17999
-46.23 -28.92 -634.70001
-45.709999 -28.959999 -635.54999
-45.200001 -29.01 -636.54999
-44.720001 -29.08 -638.02002
-44.240002 -29.15 -639.65002
-43.75 -29.209999 -640.97998
23.809999 -27.110001 -595.58002
24.299999 -27.059999 -594.34998
24.799999 -27 -593.15997
25.299999 -26.959999 -592.21997
25.799999 -26.91 -591.23999
26.32 -26.889999 -590.71002
26.84 -26.870001 -590.26001
27.370001 -26.860001 -590.06
27.9 -26.85 -589.82001
28.440001 -26.85 -589.84003
28.99 -26.85 -589.94
29.540001 -26.870001 -590.25
30.059999 -26.85 -589.89001
30.57 -26.82 -589.23999
31.09 -26.809999 -588.91998
31.629999 -26.799999 -588.88
32.169998 -26.809999 -588.89001
32.720001 -26.809999 -589.01001
33.27 -26.82 -589.26001
33.830002 -26.83 -589.51001
34.389999 -26.85 -589.91998
34.959999 -26.870001 -590.29999
35.529999 -26.9 -590.90002
36.110001 -26.92 -591.40002
36.700001 -26.959999 -592.21002
37.299999 -27 -593.09003
37.919998 -27.059999 -594.29999
38.529999 -27.110001 -595.37
39.16 -27.16 -596.63
39.790001 -27.219999 -597.79999
82.57 -31.639999 -693.39001
83.129997 -31.610001 -692.77002
83.690002 -31.58 -692.14001
84.290001 -31.57 -691.88
84.910004 -31.559999 -691.67999
85.540001 -31.559999 -691.65002
86.190002 -31.57 -691.77002
86.849998 -31.58 -691.96997
87.559998 -31.6 -692.56
88.25 -31.620001 -692.94
88.980003 -31.66 -693.69
97.970001 -31.68 -694.10999
98.440002 -31.629999 -692.96002
98.910004 -31.57 -691.77002
99.449997 -31.540001 -691.12
100.03 -31.52 -690.71997
100.63 -31.51 -690.53998
101.24 -31.5 -690.34003
101.86 -31.5 -690.22998
102.5 -31.5 -690.28003
103.19 -31.52 -690.63
103.89 -31.540001 -691.03998
104.63 -31.57 -691.71997
105.36 -31.6 -692.39001
106.08 -31.620001 -692.90997
106.81 -31.65 -693.5
107.6 -31.700001 -694.44
108.38 -31.74 -695.34003
-159.86 -31.35 -673.40997
-159.28 -31.360001 -673.56
-158.78 -31.379999 -674.04999
-158.25999 -31.4 -674.46002
-157.75 -31.42 -674.94
-157.21001 -31.440001 -675.28998
-156.77 -31.469999 -676.04999
-156.17999 -31.48 -676.20001
-155.64999 -31.5 -676.57001
-155.09 -31.51 -676.85999
-154.62 -31.540001 -677.48999
-154.08 -31.559999 -677.84998
-153.59 -31.59 -678.45001
-153.03999 -31.6 -678.72998
-152.47 -31.610001 -679.01001
-151.91 -31.620001 -679.25
-151.36 -31.639999 -679.62
-150.77 -31.65 -679.75
-150.24001 -31.67 -680.20001
-149.57001 -31.66 -679.96997
-148.94 -31.66 -679.96997
-148.25999 -31.65 -679.71002
-147.74001 -31.67 -680.16998
-147.28999 -31.709999 -680.96997
-146.96001 -31.77 -682.33002
-146.31 -31.77 -682.25
-145.75 -31.780001 -682.53998
-145.49001 -31.860001 -684.26001
-145.35001 -31.969999 -686.52002
-145.31 -32.099998 -689.33002
-145.27 -32.23 -692.08002
-144.98 -32.310001 -693.72998
-144.61 -32.369999 -695.03003
-144.27 -32.43 -696.45001
-143.75999 -32.459999 -697.07001
-143.11 -32.459999 -697.02002
-142.57001 -32.48 -697.51001
-141.95 -32.490002 -697.59003
-141.25 -32.48 -697.32001
-140.58 -32.470001 -697.16998
-139.89999 -32.459999 -696.98999
