# .PCD v0.7 - Point Cloud Data file format
VERSION 0.7
FIELDS x y z
SIZE 4 4 4
TYPE F F F
COUNT 1 1 1
WIDTH 1765
HEIGHT 1
VIEWPOINT 0 0 0 1 0 0 0
POINTS 1765
DATA ascii
-159.78999 25.92 -623.37
-159.25 25.93 -623.5
-158.71001 25.93 -623.62
-158.17999 25.940001 -623.78998
-157.63 25.940001 -623.87
-157.06 25.940001 -623.87
-156.48 25.940001 -623.84003
-155.87 25.940001 -623.71002
-155.31 25.940001 -623.72998
-154.75 25.940001 -623.81
-154.17 25.940001 -623.76001
-153.62 25.940001 -623.84003
-153.06 25.940001 -623.90002
-152.48 25.940001 -623.88
-151.92999 25.950001 -623.96997
-151.38 25.950001 -624.03998
-150.82001 25.950001 -624.09998
-150.25 25.950001 -624.13
-149.75 25.969999 -624.42999
-149.2 25.969999 -624.52002
-148.67 25.98 -624.70001
-148.14 25.98 -624.87
-147.61 25.99 -625.04999
-147.10001 26 -625.34003
-146.59 26.01 -625.59998
-146.09 26.030001 -625.90002
-145.60001 26.040001 -626.28003
-145.10001 26.059999 -626.59003
-144.59 26.07 -626.85999
-144.13 26.09 -627.34998
-143.64999 26.110001 -627.75
-143.17999 26.129999 -628.23999
-142.78999 26.16 -629.03998
-136.83 25.17 -605.58002
-134.42999 24.83 -597.47998
-133.75 24.799999 -596.92999
-133.12 24.790001 -596.57001
-132.5 24.780001 -596.22998
-131.89 24.76 -595.92999
-131.28 24.75 -595.67999
-130.71001 24.75 -595.58002
-130.14 24.74 -595.44
-129.55 24.73 -595.25
-129 24.73 -595.22998
-128.42999 24.73 -595.13
-127.85 24.719999 -594.96002
-127.29 24.719999 -594.91998
-126.72 24.709999 -594.81
-126.15 24.709999 -594.70001
-125.59 24.709999 -594.59998
-125.05 24.709999 -594.63
-124.48 24.700001 -594.51001
-123.92 24.700001 -594.46002
-123.38 24.700001 -594.46002
-122.83 24.700001 -594.45001
-122.29 24.700001 -594.47998
-121.75 24.700001 -594.53003
-121.22 24.700001 -594.58002
-120.67 24.700001 -594.54999
-120.13 24.700001 -594.59003
-119.6 24.709999 -594.65002
-119.07 24.709999 -594.71997
-118.55 24.719999 -594.84998
-118.02 24.719999 -594.96997
-117.51 24.73 -595.10999
-116.97 24.73 -595.16998
-116.44 24.73 -595.23999
-115.92 24.74 -595.35999
-115.4 24.74 -595.53003
-114.86 24.74 -595.53998
-114.31 24.74 -595.52002
-113.74 24.74 -595.40997
-113.21 24.74 -595.48999
-112.68 24.75 -595.57001
-112.11 24.74 -595.46997
-111.56 24.74 -595.44
-111.02 24.74 -595.47998
-110.48 24.74 -595.5
-109.94 24.74 -595.51001
-109.42 24.75 -595.67999
-108.9 24.76 -595.83002
-108.35 24.75 -595.82001
-107.84 24.76 -596.02002
-107.4 24.790001 -596.59003
-106.93 24.799999 -596.97998
-106.44 24.82 -597.34998
-105.98 24.84 -597.81
-105.52 24.860001 -598.32001
-105.05 24.879999 -598.76001
-104.59 24.9 -599.25
-104.12 24.92 -599.69
-103.72 24.950001 -600.54999
-103.29 24.98 -601.27002
-102.92 25.030001 -602.32001
-99.599998 26.5 -637.16998
-99.080002 26.51 -637.59003
-98.540001 26.530001 -637.87
-97.989998 26.530001 -638.06
-97.410004 26.540001 -638.15002
-96.849998 26.540001 -638.28003
-96.279999 26.549999 -638.39001
-95.690002 26.549999 -638.39001
-95.129997 26.549999 -638.56
-94.559998 26.559999 -638.62
-93.980003 26.559999 -638.67999
-93.400002 26.559999 -638.75
-92.809998 26.559999 -638.67999
-92.209999 26.559999 -638.60999
-91.580002 26.540001 -638.31
-90.959999 26.530001 -638.07001
-90.349998 26.530001 -637.92999
-89.730003 26.52 -637.71002
-89.120003 26.51 -637.53998
-88.529999 26.51 -637.46002
-87.93 26.5 -637.40997
-87.339996 26.5 -637.35999
-86.760002 26.5 -637.40997
-86.169998 26.5 -637.34998
-85.599998 26.5 -637.42999
-85.040001 26.51 -637.60999
-84.440002 26.51 -637.5
-83.849998 26.51 -637.47998
-83.220001 26.49 -637.19
-82.599998 26.48 -636.89001
-81.970001 26.469999 -636.57001
-81.309998 26.440001 -635.92999
-80.379997 26.33 -633.28003
-79.580002 26.26 -631.57001
-78.839996 26.200001 -630.27002
-78.129997 26.16 -629.26001
-77.440002 26.120001 -628.34003
-76.779999 26.09 -627.72998
-76.139999 26.07 -627.19
-75.5 26.049999 -626.65002
-74.870003 26.030001 -626.20001
-74.260002 26.02 -625.87
-73.629997 26 -625.46002
-73.029999 25.99 -625.25
-72.419998 25.969999 -624.89001
-71.82 25.969999 -624.71002
-71.220001 25.950001 -624.44
-70.620003 25.940001 -624.21997
-70.019997 25.93 -623.97998
-69.43 25.93 -623.81
-68.839996 25.92 -623.69
-68.25 25.91 -623.48999
-67.660004 25.91 -623.33002
-67.080002 25.9 -623.27002
-66.489998 25.9 -623.09998
-65.919998 25.9 -623.09998
-65.349998 25.9 -623.13
-64.769997 25.889999 -623.03003
-64.190002 25.889999 -623.01001
-63.619999 25.889999 -623
-63.049999 25.889999 -623
-62.48 25.889999 -623.03003
-61.919998 25.9 -623.10999
-61.34 25.9 -623.10999
-60.779999 25.9 -623.13
-60.220001 25.9 -623.25
-59.66 25.91 -623.41998
-59.099998 25.91 -623.53998
-58.529999 25.92 -623.58002
-57.98 25.92 -623.77002
-57.43 25.93 -624
-56.869999 25.940001 -624.13
-56.32 25.950001 -624.38
-55.77 25.959999 -624.65002
-55.240002 25.98 -625.10999
-54.689999 25.99 -625.44
-54.16 26.01 -625.92999
-53.630001 26.040001 -626.46997
-53.130001 26.07 -627.28003
-52.619999 26.1 -628.06
-33.07 27.08 -651.22998
-32.43 27.040001 -650.35999
-31.799999 27.01 -649.65002
-31.18 26.99 -649.17999
-30.57 26.98 -649.02002
-29.98 26.98 -648.96002
-29.379999 26.98 -648.98999
-28.790001 26.98 -649.02002
-28.190001 26.99 -649.04999
-27.6 26.99 -649.15002
-27.01 26.99 -649.25
-26.42 27 -649.46002
-25.83 27.01 -649.62
-25.25 27.02 -649.82001
-24.66 27.030001 -650.03998
-24.07 27.040001 -650.28003
-23.48 27.049999 -650.52002
-22.889999 27.049999 -650.67999
-22.299999 27.059999 -650.81
-21.700001 27.059999 -650.83002
-21.110001 27.059999 -650.87
-20.51 27.059999 -650.89001
-19.92 27.07 -650.98999
-19.32 27.08 -651.20001
-18.73 27.08 -651.33002
-18.139999 27.09 -651.54999
-17.549999 27.110001 -651.96997
-16.959999 27.120001 -652.28003
-16.370001 27.129999 -652.59998
-15.78 27.15 -652.90997
-15.19 27.16 -653.15002
-14.59 27.17 -653.35999
-14 27.190001 -653.82001
-13.42 27.209999 -654.45001
-12.83 27.25 -655.23999
-12.25 27.280001 -656.15997
-11.65 27.299999 -656.56
-11.06 27.32 -656.94
-10.45 27.309999 -656.89001
-9.8500004 27.309999 -656.81
-9.25 27.32 -656.91998
-8.6499996 27.32 -657.03998
-8.0500002 27.33 -657.27002
-7.4499998 27.34 -657.54999
-6.8499999 27.360001 -657.87
-6.25 27.370001 -658.28003
-5.6399999 27.379999 -658.34998
-5.04 27.370001 -658.13
-4.4299998 27.35 -657.72998
-3.8199999 27.309999 -656.89001
-3.22 27.280001 -656.08002
-2.6099999 27.24 -655.14001
-2.01 27.200001 -654.22998
-1.4 27.17 -653.48999
-0.80000001 27.129999 -652.51001
-0.2 27.1 -651.72998
0.38999999 27.07 -650.98999
0.99000001 27.040001 -650.28998
1.58 27.01 -649.60999
2.1800001 26.98 -648.98999
2.77 26.950001 -648.35999
3.3599999 26.93 -647.71002
3.95 26.91 -647.21997
4.54 26.879999 -646.60999
5.1300001 26.860001 -646.09998
5.7199998 26.84 -645.66998
6.3099999 26.83 -645.29999
6.9000001 26.809999 -644.88
7.4899998 26.799999 -644.57001
8.0699997 26.780001 -644.21002
8.6599998 26.77 -644.04999
9.25 26.76 -643.75
9.8299999 26.75 -643.57001
10.42 26.74 -643.28998
11.01 26.73 -643.08002
11.59 26.73 -642.90997
12.18 26.719999 -642.79999
12.77 26.709999 -642.47998
13.35 26.700001 -642.26001
13.93 26.690001 -642
14.51 26.67 -641.66998
15.09 26.66 -641.27002
15.68 26.65 -641.07001
16.26 26.639999 -640.83002
16.84 26.629999 -640.65997
17.42 26.620001 -640.45001
18.01 26.620001 -640.35999
18.6 26.620001 -640.31
19.18 26.620001 -640.32001
19.77 26.610001 -640.23999
20.360001 26.620001 -640.32001
20.950001 26.620001 -640.35999
21.540001 26.620001 -640.44
22.129999 26.629999 -640.60999
22.719999 26.639999 -640.78003
23.32 26.639999 -640.87
23.91 26.65 -641.03998
24.5 26.65 -641.16998
25.1 26.67 -641.48999
25.700001 26.68 -641.73999
26.299999 26.690001 -641.98999
26.9 26.700001 -642.27002
27.5 26.709999 -642.47998
28.1 26.719999 -642.73999
28.709999 26.73 -643.04999
29.309999 26.75 -643.44
29.92 26.76 -643.79999
30.52 26.780001 -644.07001
31.139999 26.799999 -644.59998
31.75 26.82 -645.03003
32.380001 26.84 -645.66998
33 26.860001 -646.14001
33.619999 26.889999 -646.78998
34.25 26.92 -647.46997
34.880001 26.950001 -648.13
35.52 26.98 -648.90002
36.139999 27 -649.39001
36.75 27.01 -649.60999
37.349998 27.01 -649.70001
37.959999 27.02 -649.81
38.560001 27.02 -649.96997
39.169998 27.040001 -650.21997
39.77 27.040001 -650.26001
40.380001 27.049999 -650.44
40.990002 27.049999 -650.60999
41.599998 27.059999 -650.78003
42.200001 27.07 -650.94
42.810001 27.07 -651.13
43.419998 27.08 -651.28003
44.049999 27.1 -651.65002
44.66 27.110001 -651.90002
45.290001 27.129999 -652.37
45.91 27.139999 -652.59003
46.52 27.15 -652.79999
47.119999 27.139999 -652.73999
47.709999 27.139999 -652.67999
48.310001 27.139999 -652.70001
48.919998 27.15 -652.82001
49.52 27.15 -652.90002
50.139999 27.16 -653.06
50.75 27.16 -653.20001
51.360001 27.17 -653.39001
51.970001 27.18 -653.48999
52.580002 27.18 -653.65997
53.200001 27.190001 -653.84998
53.82 27.200001 -654.03998
54.43 27.200001 -654.17999
55.040001 27.209999 -654.33002
55.650002 27.219999 -654.46002
56.27 27.219999 -654.59998
56.880001 27.23 -654.78998
57.509998 27.24 -655.03003
58.130001 27.25 -655.28998
58.759998 27.26 -655.59003
59.41 27.280001 -656.06
60.09 27.32 -656.97998
60.77 27.360001 -657.75
61.450001 27.389999 -658.54999
62.110001 27.42 -659.14001
62.77 27.440001 -659.75
63.43 27.459999 -660.22998
64.07 27.48 -660.59998
64.699997 27.49 -660.81
65.349998 27.51 -661.28003
65.989998 27.52 -661.65997
66.639999 27.540001 -662.02002
67.290001 27.559999 -662.46002
67.949997 27.58 -662.94
68.580002 27.59 -663.17999
69.220001 27.6 -663.45001
69.889999 27.620001 -663.98999
70.559998 27.639999 -664.53998
71.209999 27.66 -664.89001
71.860001 27.68 -665.28003
72.510002 27.690001 -665.65997
73.209999 27.73 -666.46997
73.860001 27.74 -666.78998
74.510002 27.75 -667.09003
75.160004 27.77 -667.46002
75.839996 27.790001 -668
76.480003 27.799999 -668.21002
77.089996 27.799999 -668.19
77.660004 27.780001 -667.84998
78.209999 27.76 -667.32001
79.970001 27.52 -661.66998
80.43 27.469999 -660.46002
80.900002 27.43 -659.39001
81.400002 27.389999 -658.52002
81.889999 27.35 -657.59998
82.419998 27.33 -657.01001
82.910004 27.290001 -656.10999
83.43 27.26 -655.45001
83.949997 27.24 -654.82001
84.459999 27.209999 -654.15997
84.980003 27.18 -653.53998
85.480003 27.15 -652.78998
86 27.129999 -652.15997
86.519997 27.1 -651.60999
87.010002 27.07 -650.81
87.519997 27.040001 -650.15997
88.010002 27.01 -649.39001
88.519997 26.98 -648.78998
89.010002 26.950001 -648.01001
89.529999 26.93 -647.44
90.029999 26.9 -646.79999
90.57 26.879999 -646.39001
91.059998 26.85 -645.71002
91.589996 26.83 -645.23999
92.120003 26.82 -644.81
92.669998 26.799999 -644.53003
93.199997 26.790001 -644.12
93.75 26.780001 -643.84998
94.349998 26.780001 -643.85999
94.940002 26.780001 -643.84003
95.519997 26.780001 -643.82001
96.160004 26.790001 -644.10999
96.800003 26.799999 -644.44
97.470001 26.82 -644.94
98.209999 26.860001 -645.89001
98.910004 26.889999 -646.62
99.720001 26.950001 -648
100.65 27.040001 -650.09998
102.67 27.26 -655.28003
103.72 27.379999 -658.09003
-165.64999 25.370001 -623.90002
-165 25.360001 -623.62
-164.37 25.35 -623.39001
-163.72 25.34 -623.09998
-163.12 25.33 -622.98999
-162.58 25.34 -623.12
-162 25.34 -623.08002
-161.46001 25.34 -623.19
-160.91 25.34 -623.27002
-160.34 25.34 -623.27002
-159.78999 25.35 -623.38
-159.24001 25.35 -623.45001
-158.7 25.360001 -623.59003
-158.19 25.370001 -623.82001
-157.61 25.370001 -623.79999
-157.05 25.370001 -623.83002
-156.47 25.370001 -623.79999
-155.88 25.360001 -623.72998
-155.31 25.360001 -623.72998
-154.74001 25.360001 -623.75
-154.17 25.360001 -623.76001
-153.61 25.370001 -623.83002
-153.03 25.370001 -623.79999
-152.47 25.370001 -623.84003
-151.92 25.370001 -623.91998
-151.36 25.370001 -623.96002
-150.8 25.379999 -624.03003
-150.25999 25.379999 -624.15002
-149.73 25.389999 -624.33002
-149.21001 25.4 -624.54999
-148.66 25.4 -624.65997
-148.13 25.41 -624.83002
-147.61 25.42 -625.07001
-147.09 25.43 -625.28003
-146.58 25.440001 -625.54999
-146.08 25.450001 -625.85999
-145.58 25.459999 -626.15997
-145.09 25.48 -626.53998
-144.58 25.49 -626.82001
-144.11 25.51 -627.25
-143.64 25.530001 -627.73999
-143.17 25.549999 -628.20001
-142.73 25.57 -628.77002
-141.24001 25.41 -624.81
-135.05 24.389999 -600.21997
-133.8 24.27 -597.15002
-133.17 24.25 -596.78003
-132.57001 24.24 -596.53003
-131.96001 24.23 -596.27002
-131.36 24.219999 -596.03998
-130.75999 24.209999 -595.78998
-130.17999 24.200001 -595.63
-129.61 24.200001 -595.51001
-129.03 24.190001 -595.38
-128.46001 24.190001 -595.27002
-127.89 24.18 -595.16998
-127.32 24.18 -595.03003
-126.75 24.17 -594.91998
-126.19 24.17 -594.89001
-125.63 24.17 -594.81
-125.08 24.17 -594.77002
-124.5 24.16 -594.63
-123.94 24.16 -594.57001
-123.41 24.16 -594.60999
-122.85 24.16 -594.53003
-122.3 24.16 -594.54999
-121.77 24.16 -594.59003
-121.25 24.17 -594.75
-120.71 24.17 -594.78003
-120.18 24.17 -594.83002
-119.65 24.17 -594.90002
-119.11 24.17 -594.96997
-118.58 24.18 -595.02002
-118.06 24.18 -595.13
-117.53 24.190001 -595.23999
-117.01 24.190001 -595.35999
-116.51 24.200001 -595.58002
-115.99 24.209999 -595.73999
-115.47 24.209999 -595.84998
-114.92 24.209999 -595.83002
-114.37 24.209999 -595.81
-113.81 24.209999 -595.73999
-113.27 24.209999 -595.78998
-112.72 24.209999 -595.78998
-112.19 24.209999 -595.84998
-111.62 24.209999 -595.75
-111.09 24.209999 -595.79999
-110.53 24.209999 -595.78003
-109.99 24.209999 -595.81
-109.46 24.209999 -595.88
-108.91 24.209999 -595.85999
-108.39 24.219999 -596
-107.87 24.219999 -596.17999
-107.39 24.24 -596.5
-106.89 24.25 -596.77002
-106.42 24.26 -597.19
-105.94 24.280001 -597.59998
-105.46 24.299999 -598
-105 24.32 -598.46997
-104.53 24.34 -598.94
-104.06 24.35 -599.34998
-103.64 24.389999 -600.14001
-103.2 24.41 -600.71997
-102.8 24.450001 -601.64001
-102.46 24.5 -602.83002
-99.519997 25.889999 -636.64001
-99.019997 25.91 -637.17999
-98.489998 25.93 -637.53003
-97.93 25.93 -637.70001
-97.360001 25.940001 -637.83002
-96.790001 25.940001 -637.91998
-96.230003 25.950001 -638.08002
-95.660004 25.950001 -638.15997
-95.080002 25.950001 -638.22998
-94.519997 25.959999 -638.37
-93.940002 25.959999 -638.46002
-93.370003 25.969999 -638.53003
-92.779999 25.959999 -638.5
-92.190002 25.969999 -638.51001
-91.580002 25.959999 -638.31
-90.959999 25.950001 -638.06
-90.32 25.93 -637.73999
-89.720001 25.93 -637.59003
-89.099998 25.92 -637.40002
-88.5 25.91 -637.29999
-87.910004 25.91 -637.20001
-87.32 25.91 -637.16998
-86.730003 25.91 -637.14001
-86.150002 25.91 -637.16998
-85.580002 25.91 -637.28998
-85 25.92 -637.33002
-84.419998 25.92 -637.34998
-83.830002 25.92 -637.34003
-83.209999 25.91 -637.12
-82.580002 25.889999 -636.77002
-81.959999 25.879999 -636.46997
-81.300003 25.85 -635.87
-80.400002 25.75 -633.40002
-79.580002 25.68 -631.57001
-78.830002 25.620001 -630.20001
-78.139999 25.59 -629.35999
-77.440002 25.540001 -628.33002
-76.790001 25.52 -627.78998
-76.129997 25.49 -627.09003
-75.5 25.469999 -626.65002
-74.860001 25.450001 -626.14001
-74.25 25.440001 -625.78998
-73.629997 25.42 -625.42999
-73.019997 25.41 -625.13
-72.410004 25.4 -624.84998
-71.809998 25.389999 -624.59998
-71.220001 25.379999 -624.41998
-70.620003 25.370001 -624.17999
-70.019997 25.360001 -623.96997
-69.43 25.35 -623.78003
-68.830002 25.35 -623.59998
-68.25 25.34 -623.51001
-67.660004 25.34 -623.34998
-67.080002 25.33 -623.26001
-66.489998 25.33 -623.15002
-65.910004 25.32 -623.07001
-65.339996 25.32 -623.03003
-64.769997 25.32 -623.03003
-64.18 25.32 -622.88
-63.619999 25.32 -622.95001
-63.040001 25.32 -622.95001
-62.470001 25.32 -622.96997
-61.900002 25.32 -622.97998
-61.349998 25.33 -623.15997
-60.779999 25.33 -623.17999
-60.220001 25.33 -623.26001
-59.650002 25.33 -623.28003
-59.080002 25.34 -623.38
-58.529999 25.34 -623.58002
-57.970001 25.35 -623.69
-57.419998 25.360001 -623.97998
-56.860001 25.360001 -624.04999
-56.310001 25.370001 -624.32001
-55.77 25.389999 -624.63
-55.220001 25.4 -624.90997
-54.68 25.42 -625.34003
-54.150002 25.43 -625.81
-53.619999 25.450001 -626.28003
-53.099998 25.48 -627
-52.59 25.51 -627.72998
-33.049999 26.459999 -650.76001
-32.41 26.43 -650
-31.790001 26.41 -649.44
-31.17 26.389999 -649.09003
-30.57 26.389999 -648.96997
-29.969999 26.379999 -648.84003
-29.379999 26.379999 -648.84998
-28.780001 26.379999 -648.84998
-28.18 26.379999 -648.81
-27.59 26.379999 -648.87
-27 26.389999 -648.97998
-26.41 26.389999 -649.12
-25.82 26.4 -649.28003
-25.23 26.41 -649.42999
-24.639999 26.41 -649.65997
-24.059999 26.43 -650.01001
-23.469999 26.440001 -650.22998
-22.879999 26.440001 -650.38
-22.290001 26.450001 -650.51001
-21.690001 26.450001 -650.51001
-21.1 26.450001 -650.58002
-20.5 26.459999 -650.67999
-19.91 26.459999 -650.77002
-19.309999 26.459999 -650.84003
-18.719999 26.469999 -650.96997
-18.129999 26.48 -651.20001
-17.540001 26.49 -651.51001
-16.950001 26.51 -651.91998
-16.360001 26.52 -652.17999
-15.77 26.530001 -652.47998
-15.18 26.540001 -652.71002
-14.59 26.549999 -653.01001
-13.99 26.559999 -653.27002
-13.4 26.59 -653.87
-12.82 26.620001 -654.60999
-12.24 26.66 -655.69
-11.65 26.68 -656.15997
-11.05 26.690001 -656.40002
-10.45 26.690001 -656.39001
-9.8400002 26.690001 -656.35999
-9.2399998 26.690001 -656.46002
-8.6400003 26.700001 -656.58002
-8.04 26.709999 -656.73999
-7.4400001 26.719999 -657.16998
-6.8400002 26.73 -657.41998
-6.2399998 26.75 -657.75
-5.6399999 26.75 -657.83002
-5.0300002 26.74 -657.66998
-4.4299998 26.73 -657.28003
-3.8199999 26.690001 -656.35999
-3.21 26.66 -655.65997
-2.6099999 26.620001 -654.60999
-2 26.58 -653.71997
-1.4 26.540001 -652.83002
-0.80000001 26.52 -652.14001
-0.2 26.48 -651.19
0.38999999 26.450001 -650.59003
0.99000001 26.42 -649.88
1.58 26.4 -649.22998
2.1800001 26.370001 -648.53003
2.77 26.34 -647.95001
3.3599999 26.32 -647.45001
3.95 26.299999 -646.91998
4.54 26.27 -646.23999
5.1300001 26.25 -645.78003
5.7199998 26.24 -645.37
6.3099999 26.219999 -645.01001
6.8899999 26.209999 -644.59998
7.48 26.200001 -644.37
8.0699997 26.18 -644.09003
8.6599998 26.17 -643.78003
9.2399998 26.16 -643.47998
9.8299999 26.15 -643.22998
10.42 26.139999 -642.96997
11 26.129999 -642.87
11.59 26.129999 -642.67999
12.18 26.120001 -642.53998
12.76 26.110001 -642.29999
13.35 26.1 -642.10999
13.93 26.09 -641.89001
14.51 26.08 -641.58002
15.09 26.07 -641.29999
15.68 26.059999 -641.04999
16.25 26.040001 -640.66998
16.84 26.040001 -640.54999
17.42 26.030001 -640.38
18.01 26.030001 -640.28003
18.59 26.02 -640.17999
19.18 26.02 -640.16998
19.77 26.030001 -640.21997
20.35 26.02 -640.15002
20.940001 26.030001 -640.21997
21.530001 26.030001 -640.37
22.120001 26.030001 -640.45001
22.719999 26.040001 -640.59998
23.309999 26.049999 -640.76001
23.9 26.049999 -640.90002
24.5 26.059999 -641.07001
25.1 26.07 -641.31
25.690001 26.08 -641.53998
26.290001 26.09 -641.73999
26.889999 26.1 -642.04999
27.49 26.110001 -642.31
28.09 26.120001 -642.48999
28.690001 26.129999 -642.72998
29.299999 26.139999 -643.09998
29.9 26.16 -643.46002
30.52 26.18 -643.88
31.120001 26.190001 -644.26001
31.74 26.209999 -644.77002
32.360001 26.24 -645.28998
32.98 26.26 -645.85999
33.599998 26.280001 -646.34003
34.23 26.309999 -647.08002
34.860001 26.33 -647.65997
35.490002 26.360001 -648.39001
36.110001 26.379999 -648.88
36.73 26.4 -649.23999
37.34 26.41 -649.41998
37.939999 26.41 -649.46002
38.540001 26.41 -649.56
39.139999 26.41 -649.64001
39.75 26.43 -649.90002
40.349998 26.43 -650.02002
40.959999 26.43 -650.09998
41.560001 26.440001 -650.27002
42.16 26.440001 -650.33002
42.77 26.450001 -650.48999
43.380001 26.459999 -650.70001
44 26.469999 -651.03003
44.619999 26.49 -651.34998
45.25 26.51 -651.83002
45.860001 26.51 -652
46.48 26.52 -652.25
47.080002 26.52 -652.19
47.669998 26.52 -652.15997
48.279999 26.530001 -652.28003
48.880001 26.530001 -652.28998
49.490002 26.530001 -652.46002
50.099998 26.540001 -652.59998
50.720001 26.549999 -652.81
51.32 26.549999 -652.90002
51.93 26.559999 -653
52.549999 26.57 -653.26001
53.16 26.57 -653.40002
53.790001 26.58 -653.70001
54.400002 26.59 -653.87
55.02 26.6 -654.03998
55.630001 26.610001 -654.21997
56.240002 26.610001 -654.34998
56.860001 26.620001 -654.53998
57.490002 26.629999 -654.90002
58.119999 26.639999 -655.14001
58.75 26.66 -655.5
59.389999 26.67 -655.88
60.060001 26.709999 -656.65002
60.75 26.75 -657.58002
61.439999 26.780001 -658.46997
62.09 26.799999 -658.98999
62.75 26.82 -659.47998
63.389999 26.84 -659.85999
64.029999 26.85 -660.19
64.660004 26.860001 -660.42999
65.290001 26.870001 -660.70001
65.940002 26.889999 -661.08002
66.580002 26.9 -661.42999
67.209999 26.92 -661.69
67.860001 26.93 -662.06
68.5 26.940001 -662.37
69.160004 26.959999 -662.83002
69.82 26.98 -663.31
70.459999 27 -663.60999
71.099998 27.01 -663.92999
71.779999 27.030001 -664.52002
72.440002 27.049999 -664.96002
73.080002 27.07 -665.28998
73.75 27.09 -665.77002
74.419998 27.110001 -666.29999
75.07 27.120001 -666.59998
75.709999 27.129999 -666.89001
76.339996 27.139999 -667.06
76.949997 27.139999 -667.03003
77.559998 27.139999 -666.96997
78.099998 27.110001 -666.34998
78.580002 27.059999 -665.23999
79 27 -663.65997
79.470001 26.950001 -662.53003
79.879997 26.889999 -660.90002
80.389999 26.85 -660.12
80.849998 26.809999 -658.97998
81.370003 26.780001 -658.28998
81.849998 26.74 -657.31
82.370003 26.709999 -656.64001
82.870003 26.68 -655.82001
83.400002 26.65 -655.27002
83.900002 26.620001 -654.51001
84.419998 26.6 -653.89001
84.949997 26.57 -653.31
85.449997 26.540001 -652.56
85.949997 26.51 -651.81
86.449997 26.48 -651.08002
86.949997 26.450001 -650.38
87.440002 26.42 -649.62
87.949997 26.389999 -648.91998
88.440002 26.360001 -648.21997
88.949997 26.34 -647.58002
89.449997 26.309999 -646.92999
89.959999 26.290001 -646.28998
90.470001 26.26 -645.70001
90.980003 26.24 -645.13
91.5 26.219999 -644.65997
92.040001 26.200001 -644.27002
92.580002 26.190001 -643.95001
93.129997 26.18 -643.65002
93.709999 26.17 -643.53003
94.269997 26.17 -643.35999
94.860001 26.17 -643.35999
95.470001 26.17 -643.45001
96.07 26.17 -643.53998
96.730003 26.190001 -643.98999
97.410004 26.209999 -644.53998
98.099998 26.24 -645.21002
98.849998 26.280001 -646.21997
99.68 26.35 -647.70001
100.47 26.4 -648.96997
102.66 26.66 -655.27002
103.71 26.77 -658.03003
-165.63 24.790001 -623.83002
-164.98 24.780001 -623.53998
-164.35001 24.77 -623.32001
-163.71001 24.76 -623.07001
-163.12 24.76 -623
-162.57001 24.76 -623.06
-162.03 24.77 -623.19
-161.45 24.77 -623.16998
-160.91 24.77 -623.27002
-160.32001 24.77 -623.21002
-159.78 24.77 -623.32001
-159.25999 24.780001 -623.52002
-158.72 24.790001 -623.64001
-158.19 24.790001 -623.82001
-157.62 24.799999 -623.83002
-157.02 24.790001 -623.73999
-156.45 24.790001 -623.75
-155.87 24.790001 -623.69
-155.3 24.790001 -623.69
-154.72 24.790001 -623.69
-154.16 24.790001 -623.71002
-153.62 24.799999 -623.84003
-153.03999 24.790001 -623.81
-152.47 24.799999 -623.84003
-151.92 24.799999 -623.92999
-151.36 24.799999 -623.96997
-150.82001 24.809999 -624.10999
-150.25999 24.809999 -624.16998
-149.72 24.809999 -624.29999
-149.19 24.82 -624.48999
-148.64 24.83 -624.58002
-148.12 24.83 -624.79999
-147.58 24.84 -624.95001
-147.10001 24.85 -625.29999
-146.56 24.860001 -625.45001
-146.06 24.870001 -625.79999
-145.55 24.889999 -626.07001
-145.07001 24.9 -626.46002
-144.58 24.92 -626.82001
-144.09 24.93 -627.17999
-143.62 24.950001 -627.65002
-143.17 24.969999 -628.19
-142.71001 24.99 -628.69
-142.25999 25.01 -629.25
-140.14999 24.74 -622.54999
-134 23.75 -598.02002
-133.24001 23.719999 -597.09003
-132.61 23.700001 -596.71002
-132.03 23.700001 -596.57001
-131.39999 23.68 -596.21997
-130.8 23.67 -595.96002
-130.21001 23.66 -595.77002
-129.63 23.66 -595.63
-129.05 23.65 -595.46002
-128.47 23.65 -595.33002
-127.91 23.639999 -595.25
-127.34 23.639999 -595.10999
-126.77 23.629999 -595.03998
-126.21 23.629999 -594.97998
-125.64 23.620001 -594.83002
-125.09 23.629999 -594.84998
-124.55 23.629999 -594.84998
-123.98 23.620001 -594.76001
-123.43 23.620001 -594.73999
-122.88 23.620001 -594.71997
-122.33 23.620001 -594.67999
-121.79 23.620001 -594.70001
-121.26 23.620001 -594.78998
-120.74 23.629999 -594.91998
-120.22 23.629999 -595.04999
-119.68 23.629999 -595.08002
-119.15 23.639999 -595.15002
-118.6 23.639999 -595.13
-118.1 23.639999 -595.34998
-117.57 23.65 -595.41998
-117.06 23.66 -595.63
-116.54 23.66 -595.75
-116.02 23.67 -595.88
-115.49 23.67 -595.96002
-114.94 23.67 -595.92999
-114.41 23.67 -596.06
-113.87 23.67 -596.04999
-113.3 23.67 -595.92999
-112.75 23.67 -595.90997
-112.2 23.67 -595.92999
-111.65 23.67 -595.91998
-111.1 23.67 -595.88
-110.55 23.66 -595.84998
-110.01 23.67 -595.88
-109.47 23.67 -595.92999
-108.92 23.67 -595.91998
-108.4 23.67 -596.08002
-107.88 23.68 -596.19
-107.38 23.690001 -596.46002
-106.88 23.700001 -596.73999
-106.37 23.709999 -596.96002
-105.9 23.719999 -597.37
-105.42 23.74 -597.75
-104.94 23.75 -598.13
-104.47 23.77 -598.57001
-104.01 23.790001 -599.06
-103.56 23.82 -599.65997
-103.12 23.84 -600.31
-102.73 23.879999 -601.20001
-102.33 23.91 -602.09003
-98.940002 25.309999 -636.69
-98.449997 25.33 -637.26001
-97.889999 25.34 -637.41998
-97.330002 25.34 -637.59003
-96.760002 25.35 -637.71997
-96.199997 25.35 -637.84998
-95.629997 25.360001 -637.96002
-95.059998 25.360001 -638.08002
-94.480003 25.360001 -638.14001
-93.910004 25.370001 -638.22998
-93.349998 25.379999 -638.40997
-92.75 25.370001 -638.34003
-92.160004 25.370001 -638.32001
-91.559998 25.370001 -638.15997
-90.949997 25.360001 -638.04999
-90.32 25.35 -637.70001
-89.699997 25.34 -637.45001
-89.089996 25.33 -637.32001
-88.5 25.33 -637.25
-87.889999 25.32 -637.08002
-87.300003 25.32 -637.02002
-86.709999 25.32 -637.01001
-86.120003 25.32 -636.98999
-85.559998 25.32 -637.13
-84.980003 25.32 -637.16998
-84.400002 25.33 -637.23999
-83.800003 25.32 -637.09003
-83.190002 25.32 -636.96997
-82.559998 25.299999 -636.63
-81.940002 25.290001 -636.34003
-81.309998 25.27 -635.95001
-80.43 25.18 -633.69
-79.589996 25.1 -631.63
-78.830002 25.040001 -630.25
-78.139999 25.01 -629.33002
-77.440002 24.969999 -628.34998
-76.790001 24.940001 -627.73999
-76.120003 24.91 -627.02002
-75.5 24.9 -626.66998
-74.860001 24.879999 -626.15002
-74.25 24.860001 -625.81
-73.620003 24.85 -625.37
-73.019997 24.84 -625.12
-72.400002 24.82 -624.76001
-71.800003 24.809999 -624.54999
-71.209999 24.799999 -624.32001
-70.610001 24.799999 -624.14001
-70 24.780001 -623.84003
-69.410004 24.780001 -623.69
-68.82 24.77 -623.45001
-68.239998 24.77 -623.40997
-67.650002 24.76 -623.25
-67.059998 24.75 -623.13
-66.489998 24.75 -623.07001
-65.910004 24.75 -622.98999
-65.330002 24.75 -622.97998
-64.75 24.74 -622.84003
-64.18 24.75 -622.90997
-63.610001 24.75 -622.94
-63.040001 24.74 -622.87
-62.470001 24.74 -622.90002
-61.900002 24.75 -622.94
-61.330002 24.75 -622.97998
-60.77 24.75 -623.03998
-60.209999 24.76 -623.15997
-59.639999 24.76 -623.25
-59.080002 24.76 -623.33002
-58.52 24.77 -623.46997
-57.959999 24.77 -623.59003
-57.400002 24.780001 -623.72998
-56.849998 24.790001 -623.98999
-56.299999 24.799999 -624.16998
-55.75 24.809999 -624.51001
-55.209999 24.82 -624.84998
-54.669998 24.84 -625.22998
-54.130001 24.85 -625.63
-53.610001 24.879999 -626.17999
-53.09 24.9 -626.82001
-52.57 24.93 -627.5
-52.080002 24.969999 -628.53998
-33.040001 25.860001 -650.72998
-32.400002 25.83 -649.84003
-31.780001 25.799999 -649.21997
-31.17 25.790001 -648.94
-30.57 25.790001 -648.84998
-29.969999 25.780001 -648.72998
-29.370001 25.780001 -648.67999
-28.77 25.780001 -648.69
-28.17 25.780001 -648.63
-27.58 25.780001 -648.71002
-26.99 25.780001 -648.69
-26.4 25.790001 -648.85999
-25.809999 25.790001 -648.95001
-25.219999 25.799999 -649.16998
-24.629999 25.799999 -649.28998
-24.040001 25.82 -649.58002
-23.459999 25.82 -649.82001
-22.870001 25.83 -650.03998
-22.280001 25.84 -650.16998
-21.690001 25.85 -650.38
-21.09 25.85 -650.40997
-20.49 25.85 -650.37
-19.9 25.85 -650.42999
-19.309999 25.860001 -650.58002
-18.709999 25.860001 -650.77002
-18.120001 25.870001 -650.94
-17.530001 25.879999 -651.14001
-16.940001 25.889999 -651.40997
-16.35 25.9 -651.77002
-15.76 25.91 -652.04999
-15.17 25.92 -652.26001
-14.57 25.93 -652.46002
-13.98 25.940001 -652.76001
-13.39 25.969999 -653.34998
-12.81 26 -654.07001
-12.23 26.030001 -655.01001
-11.64 26.059999 -655.64001
-11.04 26.07 -655.88
-10.44 26.07 -655.96997
-9.8400002 26.07 -656.03003
-9.2299995 26.07 -655.94
-8.6400003 26.08 -656.13
-8.0299997 26.08 -656.27002
-7.4400001 26.1 -656.60999
-6.8400002 26.110001 -657.01001
-6.2399998 26.129999 -657.28998
-5.6399999 26.129999 -657.40002
-5.0300002 26.120001 -657.22998
-4.4200001 26.1 -656.70001
-3.8199999 26.07 -655.88
-3.21 26.030001 -654.98999
-2.6099999 26 -654.10999
-2 25.959999 -653.29999
-1.4 25.92 -652.33002
-0.80000001 25.889999 -651.53003
-0.2 25.870001 -650.87
0.38999999 25.84 -650.20001
0.99000001 25.809999 -649.48999
1.58 25.790001 -649.01001
2.1800001 25.76 -648.17999
2.77 25.73 -647.58002
3.3599999 25.709999 -647.10999
3.95 25.690001 -646.45001
4.54 25.66 -645.83002
5.1300001 25.65 -645.53003
5.71 25.629999 -644.96997
6.3000002 25.620001 -644.64001
6.8899999 25.6 -644.23999
7.48 25.59 -644.06
8.0699997 25.58 -643.71002
8.6499996 25.57 -643.45001
9.2399998 25.559999 -643.19
9.8299999 25.549999 -642.94
10.41 25.540001 -642.78003
11 25.530001 -642.58002
11.58 25.530001 -642.40997
12.17 25.52 -642.19
12.76 25.51 -642
13.34 25.5 -641.84003
13.93 25.5 -641.65997
14.51 25.49 -641.45001
15.09 25.48 -641.16998
15.67 25.459999 -640.90002
16.25 25.450001 -640.65002
16.84 25.450001 -640.46002
17.42 25.440001 -640.32001
18.01 25.440001 -640.28003
18.59 25.43 -640.12
19.18 25.43 -640.12
19.76 25.43 -640.07001
20.35 25.43 -640.08002
20.940001 25.440001 -640.20001
21.530001 25.440001 -640.17999
22.120001 25.440001 -640.27002
22.709999 25.450001 -640.5
23.309999 25.459999 -640.65997
23.9 25.459999 -640.84003
24.5 25.469999 -641
25.09 25.469999 -641.09003
25.690001 25.49 -641.44
26.280001 25.49 -641.53998
26.879999 25.5 -641.78003
27.48 25.51 -642.03003
28.08 25.52 -642.26001
28.68 25.530001 -642.52002
29.290001 25.540001 -642.84998
29.889999 25.549999 -643.09003
30.5 25.57 -643.59003
31.110001 25.59 -643.98999
31.719999 25.610001 -644.42999
32.34 25.629999 -644.95001
32.959999 25.65 -645.5
33.580002 25.67 -645.96002
34.209999 25.700001 -646.65002
34.830002 25.719999 -647.25
35.470001 25.75 -647.95001
36.09 25.77 -648.48999
36.709999 25.790001 -648.90997
37.310001 25.790001 -649.02002
37.919998 25.799999 -649.15997
38.52 25.799999 -649.21002
39.110001 25.799999 -649.23999
39.720001 25.809999 -649.34998
40.32 25.809999 -649.40997
40.919998 25.809999 -649.48999
41.52 25.82 -649.64001
42.139999 25.83 -649.89001
42.740002 25.84 -650.07001
43.360001 25.85 -650.32001
43.970001 25.860001 -650.53998
44.59 25.870001 -650.95001
45.209999 25.879999 -651.21997
45.830002 25.889999 -651.51001
46.439999 25.9 -651.70001
47.029999 25.9 -651.62
47.639999 25.9 -651.65997
48.240002 25.9 -651.70001
48.84 25.9 -651.73999
49.450001 25.91 -651.92999
50.060001 25.92 -652.02002
50.669998 25.92 -652.19
51.279999 25.93 -652.34998
51.889999 25.940001 -652.52002
52.509998 25.950001 -652.77002
53.130001 25.959999 -652.98999
53.75 25.969999 -653.27002
54.369999 25.98 -653.47998
54.990002 25.99 -653.78003
55.610001 26 -653.96997
56.23 26 -654.15002
56.849998 26.01 -654.41998
57.48 26.030001 -654.76001
58.110001 26.040001 -655.07001
58.75 26.059999 -655.44
59.380001 26.07 -655.78003
60.060001 26.1 -656.65997
60.720001 26.129999 -657.28998
61.41 26.17 -658.16998
62.07 26.190001 -658.76001
62.73 26.209999 -659.26001
63.360001 26.219999 -659.54999
63.98 26.23 -659.73999
64.610001 26.24 -659.98999
65.230003 26.24 -660.09998
65.870003 26.26 -660.40002
66.510002 26.27 -660.72998
67.139999 26.280001 -660.96002
67.800003 26.299999 -661.44
68.440002 26.309999 -661.82001
69.080002 26.32 -662.09003
69.730003 26.34 -662.5
70.389999 26.360001 -662.96997
71.019997 26.370001 -663.16998
71.669998 26.379999 -663.53998
72.349998 26.41 -664.15002
73.010002 26.43 -664.60999
73.650002 26.440001 -664.91998
74.309998 26.459999 -665.32001
74.970001 26.469999 -665.72998
75.620003 26.49 -666.13
76.269997 26.5 -666.40002
76.879997 26.5 -666.37
77.440002 26.48 -665.92999
77.949997 26.450001 -665.09003
78.470001 26.42 -664.37
78.910004 26.360001 -662.94
79.370003 26.309999 -661.69
79.809998 26.26 -660.37
80.32 26.23 -659.57001
80.82 26.190001 -658.71997
81.32 26.16 -657.84003
81.82 26.129999 -657.08002
82.339996 26.1 -656.34998
82.839996 26.07 -655.58002
83.360001 26.040001 -654.96002
83.860001 26.01 -654.13
84.389999 25.99 -653.63
84.889999 25.959999 -652.84998
85.379997 25.92 -652.07001
85.870003 25.889999 -651.25
86.379997 25.860001 -650.58002
86.860001 25.83 -649.72998
87.370003 25.799999 -649.09003
87.830002 25.77 -648.10999
88.370003 25.75 -647.65997
88.830002 25.709999 -646.71002
89.370003 25.690001 -646.29999
89.849998 25.66 -645.51001
90.360001 25.639999 -644.96997
90.889999 25.620001 -644.51001
91.410004 25.6 -644.01001
91.949997 25.59 -643.63
92.5 25.57 -643.34998
93.050003 25.559999 -643.07001
93.620003 25.559999 -642.91998
94.190002 25.549999 -642.81
94.769997 25.549999 -642.77002
95.379997 25.549999 -642.84998
95.989998 25.559999 -643.02002
96.629997 25.57 -643.29999
97.290001 25.59 -643.78003
98.010002 25.629999 -644.60999
98.730003 25.66 -645.41998
99.510002 25.709999 -646.65997
100.31 25.76 -647.95001
103.77 26.18 -658.42999
-165.62 24.219999 -623.78998
-165 24.209999 -623.60999
-164.34 24.200001 -623.29999
-163.74001 24.200001 -623.19
-163.14999 24.190001 -623.10999
-162.58 24.190001 -623.12
-162.00999 24.190001 -623.13
-161.46001 24.200001 -623.21002
-160.89 24.200001 -623.21997
-160.35001 24.200001 -623.32001
-159.78 24.200001 -623.34003
-159.25999 24.209999 -623.53998
-158.72 24.219999 -623.65997
-158.17 24.219999 -623.75
-157.61 24.219999 -623.79999
-157.03 24.219999 -623.76001
-156.47 24.219999 -623.81
-155.87 24.219999 -623.67999
-155.28999 24.219999 -623.65997
-154.74001 24.219999 -623.73999
-154.19 24.219999 -623.83002
-153.59 24.219999 -623.72998
-153.03 24.219999 -623.79999
-152.48 24.219999 -623.89001
-151.91 24.23 -623.89001
-151.36 24.23 -623.98999
-150.81 24.23 -624.06
-150.25999 24.24 -624.16998
-149.72 24.24 -624.28998
-149.17999 24.25 -624.44
-148.64999 24.25 -624.62
-148.14 24.26 -624.89001
-147.60001 24.27 -625.02002
-147.08 24.280001 -625.23999
-146.55 24.290001 -625.44
-146.07001 24.299999 -625.84003
-145.57001 24.309999 -626.12
-145.09 24.33 -626.53998
-144.56 24.34 -626.75
-144.09 24.360001 -627.20001
-143.63 24.370001 -627.67999
-143.16 24.389999 -628.14001
-142.67999 24.41 -628.58002
-142.24001 24.43 -629.17999
-141.8 24.459999 -629.73999
-139 24.07 -620.01001
-133.44 23.200001 -597.97998
-132.67 23.16 -596.97998
-132.07001 23.16 -596.76001
-131.47 23.15 -596.52002
-130.87 23.139999 -596.28998
-130.25999 23.120001 -595.96997
-129.69 23.120001 -595.88
-129.10001 23.110001 -595.70001
-128.50999 23.110001 -595.51001
-127.97 23.110001 -595.51001
-127.39 23.1 -595.34998
-126.81 23.09 -595.21997
-126.25 23.09 -595.14001
-125.69 23.09 -595.09003
-125.13 23.09 -595.01001
-124.56 23.08 -594.89001
-124.01 23.08 -594.88
-123.47 23.08 -594.90002
-122.93 23.08 -594.94
-122.37 23.08 -594.87
-121.82 23.08 -594.85999
-121.31 23.09 -595.01001
-120.78 23.09 -595.12
-120.26 23.09 -595.22998
-119.75 23.1 -595.39001
-119.22 23.1 -595.46002
-118.69 23.110001 -595.58002
-118.17 23.110001 -595.70001
-117.64 23.120001 -595.79999
-117.11 23.120001 -595.87
-116.58 23.120001 -595.96002
-116.07 23.129999 -596.14001
-115.53 23.129999 -596.16998
-114.99 23.129999 -596.19
-114.47 23.139999 -596.33002
-113.94 23.139999 -596.41998
-113.36 23.129999 -596.27002
-112.78 23.129999 -596.07001
-112.22 23.129999 -596.04999
-111.67 23.120001 -596.01001
-111.13 23.120001 -596.03003
-110.57 23.120001 -595.98999
-110.03 23.120001 -596.01001
-109.49 23.120001 -596.03998
-108.94 23.120001 -596.03003
-108.4 23.129999 -596.08002
-107.87 23.129999 -596.15002
-107.35 23.139999 -596.32001
-106.85 23.15 -596.56
-106.36 23.16 -596.87
-105.87 23.17 -597.19
-105.38 23.18 -597.53003
-104.89 23.200001 -597.84998
-104.43 23.209999 -598.34003
-103.96 23.23 -598.82001
-103.51 23.25 -599.34998
-103.06 23.280001 -599.95001
-102.66 23.309999 -600.78998
-102.22 23.34 -601.46002
-101.85 23.379999 -602.53998
-98.900002 24.709999 -636.44
-98.400002 24.73 -636.95001
-97.839996 24.74 -637.13
-97.300003 24.75 -637.39001
-96.730003 24.75 -637.47998
-96.160004 24.76 -637.63
-95.589996 24.76 -637.75
-95.019997 24.77 -637.84003
-94.459999 24.77 -637.96002
-93.879997 24.77 -638.03003
-93.309998 24.780001 -638.16998
-92.739998 24.780001 -638.22998
-92.150002 24.780001 -638.21997
-91.529999 24.77 -638
-90.93 24.77 -637.88
-90.309998 24.76 -637.67999
-89.699997 24.75 -637.45001
-89.080002 24.74 -637.23999
-88.470001 24.74 -637.08002
-87.870003 24.73 -636.91998
-87.279999 24.73 -636.90002
-86.690002 24.73 -636.84998
-86.099998 24.73 -636.83002
-85.529999 24.73 -636.95001
-84.940002 24.73 -636.94
-84.360001 24.73 -636.96002
-83.779999 24.73 -636.96002
-83.169998 24.719999 -636.82001
-82.559998 24.719999 -636.59003
-81.93 24.700001 -636.26001
-81.300003 24.690001 -635.84998
-80.470001 24.610001 -634
-79.629997 24.530001 -631.98999
-78.879997 24.48 -630.59003
-78.150002 24.43 -629.39001
-77.449997 24.4 -628.46997
-76.790001 24.370001 -627.79999
-76.120003 24.34 -627.01001
-75.489998 24.32 -626.58002
-74.860001 24.299999 -626.08002
-74.239998 24.290001 -625.75
-73.620003 24.27 -625.38
-73.010002 24.26 -625.04999
-72.400002 24.25 -624.72998
-71.790001 24.24 -624.46997
-71.199997 24.23 -624.25
-70.599998 24.219999 -624
-70 24.209999 -623.77002
-69.410004 24.200001 -623.62
-68.82 24.200001 -623.47998
-68.230003 24.190001 -623.32001
-67.639999 24.190001 -623.16998
-67.059998 24.18 -623.13
-66.480003 24.18 -623
-65.900002 24.17 -622.89001
-65.330002 24.18 -622.92999
-64.760002 24.18 -622.94
-64.18 24.17 -622.92999
-63.610001 24.17 -622.91998
-63.040001 24.17 -622.88
-62.470001 24.17 -622.90997
-61.900002 24.17 -622.90997
-61.34 24.18 -623.03998
-60.77 24.18 -623.04999
-60.189999 24.18 -623.03003
-59.639999 24.18 -623.20001
-59.080002 24.190001 -623.29999
-58.52 24.190001 -623.42999
-57.959999 24.200001 -623.59003
-57.400002 24.209999 -623.73999
-56.849998 24.209999 -623.95001
-56.299999 24.219999 -624.17999
-55.740002 24.23 -624.38
-55.200001 24.24 -624.73999
-54.66 24.26 -625.08002
-54.119999 24.27 -625.5
-53.580002 24.290001 -625.87
-53.060001 24.309999 -626.52002
-52.540001 24.34 -627.16998
-52.040001 24.370001 -628.03003
-33.040001 25.26 -650.60999
-32.389999 25.219999 -649.54999
-31.76 25.200001 -648.96997
-31.16 25.190001 -648.81
-30.559999 25.18 -648.67999
-29.959999 25.18 -648.65002
-29.360001 25.18 -648.59003
-28.76 25.18 -648.47998
-28.17 25.17 -648.41998
-27.57 25.17 -648.37
-26.98 25.17 -648.41998
-26.389999 25.18 -648.53003
-25.799999 25.190001 -648.71002
-25.209999 25.190001 -648.82001
-24.620001 25.200001 -649.03003
-24.030001 25.209999 -649.27002
-23.440001 25.209999 -649.45001
-22.860001 25.23 -649.75
-22.27 25.23 -649.87
-21.68 25.24 -650.09003
-21.08 25.24 -650.13
-20.49 25.24 -650.19
-19.889999 25.24 -650.21997
-19.299999 25.25 -650.28003
-18.700001 25.25 -650.44
-18.110001 25.26 -650.65997
-17.52 25.27 -650.83002
-16.93 25.280001 -651.03998
-16.34 25.290001 -651.34998
-15.75 25.299999 -651.54999
-15.16 25.309999 -651.85999
-14.57 25.32 -652.12
-13.97 25.33 -652.34998
-13.39 25.35 -652.94
-12.8 25.379999 -653.62
-12.22 25.41 -654.45001
-11.63 25.440001 -655.13
-11.03 25.450001 -655.54999
-10.43 25.459999 -655.65997
-9.8299999 25.459999 -655.63
-9.2299995 25.459999 -655.64001
-8.6300001 25.459999 -655.76001
-8.0299997 25.469999 -655.84998
-7.4299998 25.48 -656.26001
-6.8299999 25.49 -656.54999
-6.23 25.5 -656.84998
-5.6300001 25.51 -656.91998
-5.0300002 25.5 -656.66998
-4.4200001 25.48 -656.25
-3.8099999 25.450001 -655.42999
-3.21 25.42 -654.64001
-2.5999999 25.379999 -653.72998
-2 25.34 -652.78998
-1.4 25.309999 -652
-0.80000001 25.280001 -651.13
-0.2 25.26 -650.52002
0.38999999 25.23 -649.83002
0.99000001 25.200001 -649.20001
1.58 25.18 -648.48999
2.1700001 25.15 -647.82001
2.77 25.129999 -647.32001
3.3599999 25.110001 -646.78003
3.95 25.08 -646.14001
4.54 25.07 -645.70001
5.1300001 25.049999 -645.23999
5.71 25.02 -644.65997
6.3000002 25.01 -644.37
6.8899999 25 -644.02002
7.48 24.99 -643.75
8.0600004 24.98 -643.41998
8.6499996 24.969999 -643.23999
9.2299995 24.950001 -642.81
9.8199997 24.950001 -642.71002
10.41 24.940001 -642.47998
10.99 24.93 -642.28998
11.58 24.93 -642.17999
12.17 24.92 -642.02002
12.75 24.91 -641.79999
13.34 24.91 -641.67999
13.92 24.9 -641.46997
14.51 24.889999 -641.28998
15.09 24.879999 -641.09998
15.67 24.870001 -640.79999
16.25 24.860001 -640.54999
16.84 24.860001 -640.40002
17.42 24.85 -640.26001
18 24.85 -640.16998
18.59 24.85 -640.12
19.17 24.84 -639.96002
19.76 24.84 -640.03003
20.35 24.84 -640.06
20.940001 24.84 -640.03998
21.530001 24.85 -640.15997
22.120001 24.85 -640.27002
22.709999 24.860001 -640.37
23.299999 24.860001 -640.51001
23.889999 24.870001 -640.60999
24.49 24.879999 -640.87
25.08 24.879999 -640.97998
25.68 24.889999 -641.15997
26.27 24.889999 -641.32001
26.870001 24.9 -641.51001
27.469999 24.91 -641.82001
28.07 24.92 -642.08002
28.67 24.93 -642.28003
29.280001 24.950001 -642.63
29.879999 24.959999 -642.90002
30.49 24.969999 -643.28998
31.1 24.99 -643.81
31.709999 25.01 -644.17999
32.32 25.02 -644.59998
32.939999 25.049999 -645.15002
33.560001 25.07 -645.65997
34.189999 25.09 -646.28998
34.82 25.120001 -646.96002
35.439999 25.139999 -647.53003
36.060001 25.16 -647.98999
36.689999 25.18 -648.51001
37.299999 25.190001 -648.75
37.900002 25.190001 -648.87
38.5 25.200001 -649
39.099998 25.200001 -648.98999
39.700001 25.200001 -649.07001
40.299999 25.200001 -649.14001
40.900002 25.200001 -649.16998
41.5 25.209999 -649.34998
42.110001 25.219999 -649.52002
42.720001 25.219999 -649.65002
43.330002 25.23 -649.89001
43.950001 25.25 -650.29999
44.560001 25.26 -650.48999
45.18 25.27 -650.77002
45.790001 25.27 -650.90997
46.389999 25.280001 -651.03003
46.990002 25.280001 -651
47.59 25.280001 -651.04999
48.189999 25.280001 -651.04999
48.799999 25.290001 -651.21002
49.400002 25.290001 -651.33002
50.029999 25.299999 -651.64001
50.630001 25.309999 -651.76001
51.25 25.309999 -651.94
51.860001 25.32 -652.12
52.48 25.33 -652.34998
53.099998 25.34 -652.59998
53.720001 25.35 -652.88
54.330002 25.360001 -653.06
54.959999 25.370001 -653.34998
55.580002 25.379999 -653.65002
56.220001 25.4 -654.03998
56.830002 25.4 -654.20001
57.459999 25.42 -654.46997
58.09 25.43 -654.83002
58.73 25.450001 -655.29999
59.360001 25.459999 -655.58002
60.029999 25.49 -656.33002
60.709999 25.52 -657.13
61.380001 25.549999 -657.87
62.049999 25.57 -658.51001
62.689999 25.59 -658.90002
63.32 25.6 -659.20001
63.939999 25.610001 -659.28003
64.559998 25.610001 -659.44
65.18 25.620001 -659.59003
65.82 25.629999 -659.91998
66.440002 25.639999 -660.08002
67.080002 25.65 -660.38
67.720001 25.66 -660.76001
68.370003 25.68 -661.13
69.019997 25.690001 -661.52002
69.639999 25.700001 -661.70001
70.309998 25.719999 -662.20001
70.959999 25.74 -662.59003
71.599998 25.75 -662.92999
72.260002 25.77 -663.33002
72.919998 25.780001 -663.78998
73.580002 25.799999 -664.23999
74.220001 25.82 -664.57001
74.879997 25.83 -664.94
75.510002 25.84 -665.16998
76.150002 25.85 -665.40002
76.75 25.84 -665.28003
77.330002 25.83 -665
77.870003 25.809999 -664.46002
78.330002 25.76 -663.15997
78.809998 25.719999 -662.09998
79.279999 25.68 -661
79.769997 25.639999 -660.02002
80.269997 25.6 -659.17999
80.769997 25.57 -658.31
81.269997 25.540001 -657.48999
81.809998 25.52 -656.92999
82.290001 25.48 -655.97998
82.82 25.459999 -655.42999
83.32 25.43 -654.65997
83.82 25.4 -653.87
84.339996 25.370001 -653.25
84.830002 25.34 -652.40997
85.330002 25.309999 -651.65997
85.800003 25.27 -650.67999
86.290001 25.24 -649.91998
86.800003 25.219999 -649.28998
87.260002 25.18 -648.29999
87.769997 25.15 -647.63
88.260002 25.120001 -646.89001
88.769997 25.1 -646.28998
89.260002 25.07 -645.56
89.760002 25.040001 -644.90997
90.300003 25.030001 -644.48999
90.809998 25.01 -643.96002
91.360001 25 -643.65997
91.889999 24.98 -643.20001
92.410004 24.959999 -642.78003
92.970001 24.950001 -642.54999
93.540001 24.950001 -642.42999
94.099998 24.940001 -642.22998
94.699997 24.940001 -642.26001
95.290001 24.940001 -642.26001
95.900002 24.950001 -642.41998
96.550003 24.959999 -642.78003
97.209999 24.98 -643.22998
97.93 25.01 -644.10999
98.650002 25.049999 -644.90997
99.43 25.1 -646.15002
-165.64 23.65 -623.88
-164.98 23.639999 -623.53998
-164.35001 23.629999 -623.33002
-163.71001 23.620001 -623.04999
-163.14999 23.620001 -623.09003
-162.57001 23.620001 -623.06
-162.02 23.620001 -623.15997
-161.47 23.629999 -623.25
-160.91 23.629999 -623.29999
-160.34 23.629999 -623.28003
-159.8 23.629999 -623.39001
-159.28 23.639999 -623.63
-158.73 23.639999 -623.69
-158.17999 23.65 -623.77002
-157.61 23.65 -623.81
-157.03 23.65 -623.76001
-156.46001 23.65 -623.77002
-155.88 23.65 -623.73999
-155.31 23.65 -623.75
-154.74001 23.65 -623.76001
-154.16 23.65 -623.71997
-153.59 23.65 -623.72998
-153.05 23.65 -623.85999
-152.47 23.65 -623.84003
-151.92999 23.66 -623.96997
-151.35001 23.65 -623.94
-150.81 23.66 -624.08002
-150.25 23.66 -624.12
-149.72 23.67 -624.29999
-149.17999 23.67 -624.41998
-148.63 23.68 -624.53998
-148.11 23.690001 -624.76001
-147.60001 23.700001 -625
-147.08 23.700001 -625.25
-146.56 23.709999 -625.45001
-146.07001 23.73 -625.82001
-145.55 23.74 -626.06
-145.06 23.75 -626.41998
-144.57001 23.76 -626.78998
-144.09 23.780001 -627.16998
-143.61 23.790001 -627.59998
-143.17 23.82 -628.16998
-142.67999 23.83 -628.58002
-142.21001 23.85 -629.03998
-141.78 23.870001 -629.67999
-141.39 23.91 -630.5
-138.52 23.52 -620.39001
-132.89 22.65 -597.94
-132.2 22.629999 -597.34003
-131.58 22.620001 -596.98999
-130.97 22.610001 -596.71997
-130.35001 22.59 -596.39001
-129.74001 22.58 -596.12
-129.16 22.58 -595.97998
-128.62 22.58 -595.97998
-128.02 22.57 -595.76001
-127.45 22.559999 -595.63
-126.88 22.559999 -595.52002
-126.3 22.559999 -595.40002
-125.73 22.549999 -595.27002
-125.16 22.549999 -595.15002
-124.61 22.549999 -595.15002
-124.08 22.549999 -595.22998
-123.52 22.549999 -595.14001
-122.97 22.549999 -595.14001
-122.45 22.549999 -595.27002
-121.93 22.549999 -595.37
-121.38 22.549999 -595.34998
-120.83 22.549999 -595.33002
-120.32 22.559999 -595.53998
-119.8 22.559999 -595.64001
-119.29 22.57 -595.82001
-118.77 22.58 -595.95001
-118.23 22.58 -596.01001
-117.7 22.58 -596.09998
-117.17 22.58 -596.15002
-116.64 22.59 -596.26001
-116.12 22.59 -596.38
-115.58 22.59 -596.40002
-115.04 22.59 -596.44
-114.47 22.59 -596.34003
-113.89 22.58 -596.19
-113.34 22.58 -596.14001
-112.76 22.58 -595.96002
-112.21 22.58 -595.96002
-111.67 22.58 -596.02002
-111.12 22.58 -595.97998
-110.56 22.57 -595.94
-110.02 22.57 -595.94
-109.48 22.58 -595.97998
-108.94 22.58 -596.01001
-108.39 22.58 -596.03003
-107.87 22.58 -596.15997
-107.34 22.59 -596.26001
-106.82 22.59 -596.40997
-106.33 22.6 -596.71002
-105.83 22.610001 -596.97998
-105.34 22.629999 -597.32001
-104.85 22.639999 -597.60999
-104.38 22.66 -598.09998
-103.92 22.68 -598.59998
-103.46 22.690001 -599.09998
-103.01 22.719999 -599.65997
-102.58 22.74 -600.37
-102.15 22.77 -601.04999
-101.79 22.809999 -602.19
-98.379997 24.139999 -636.84003
-97.82 24.15 -636.97998
-97.25 24.15 -637.10999
-96.690002 24.16 -637.27002
-96.129997 24.16 -637.38
-95.550003 24.17 -637.44
-94.980003 24.17 -637.56
-94.410004 24.18 -637.66998
-93.839996 24.18 -637.77002
-93.290001 24.190001 -638
-92.709999 24.190001 -638.04999
-92.139999 24.190001 -638.15002
-91.540001 24.190001 -638.03998
-90.93 24.18 -637.89001
-90.309998 24.17 -637.67999
-89.690002 24.16 -637.38
-89.07 24.15 -637.13
-88.459999 24.15 -637.01001
-87.849998 24.139999 -636.81
-87.25 24.139999 -636.71002
-86.660004 24.129999 -636.63
-86.07 24.129999 -636.65002
-85.5 24.139999 -636.71002
-84.919998 24.139999 -636.76001
-84.339996 24.139999 -636.81
-83.760002 24.139999 -636.79999
-83.160004 24.139999 -636.67999
-82.540001 24.129999 -636.46002
