# .PCD v0.7 - Point Cloud Data file format
VERSION 0.7
FIELDS x y z
SIZE 4 4 4
TYPE F F F
COUNT 1 1 1
WIDTH 1596
HEIGHT 1
VIEWPOINT 0 0 0 1 0 0 0
POINTS 1596
DATA ascii
-57.32 -87.839996 -635.20001
-56.73 -87.809998 -635.04999
-56.139999 -87.809998 -635.03003
-55.52 -87.75 -634.59998
-54.91 -87.699997 -634.22998
-22.129999 -86.970001 -629.09003
-20.950001 -86.849998 -628.26001
-20.370001 -86.870003 -628.39001
-19.780001 -86.809998 -627.96997
-17.49 -86.839996 -628.16998
-16.92 -86.879997 -628.48999
-16.35 -86.93 -628.82001
55.799999 -91.730003 -663
56.23 -91.440002 -660.95001
56.689999 -91.209999 -659.27002
57.189999 -91.050003 -658.12
57.68 -90.870003 -656.83002
58.23 -90.769997 -656.15002
58.759998 -90.660004 -655.34003
59.32 -90.599998 -654.90002
59.900002 -90.57 -654.65997
60.48 -90.540001 -654.51001
61.09 -90.559998 -654.59998
61.700001 -90.57 -654.66998
62.349998 -90.629997 -655.14001
63.009998 -90.720001 -655.72998
-127.78 -85.25 -612.65002
-126.95 -85.080002 -611.40002
-126.19 -84.940002 -610.45001
-125.46 -84.830002 -609.62
-124.79 -84.75 -609.09998
-124.14 -84.690002 -608.67999
-123.5 -84.629997 -608.25
-122.84 -84.559998 -607.76001
-122.26 -84.550003 -607.63
-121.64 -84.5 -607.32001
-121.03 -84.470001 -607.08002
-120.4 -84.419998 -606.73999
-119.79 -84.379997 -606.44
-119.19 -84.349998 -606.23999
-118.6 -84.330002 -606.08002
-118.02 -84.309998 -605.94
-117.43 -84.279999 -605.78003
-116.84 -84.260002 -605.58002
-116.27 -84.25 -605.53003
-115.7 -84.239998 -605.46002
-115.1 -84.209999 -605.23999
-114.54 -84.199997 -605.20001
-113.98 -84.199997 -605.15002
-113.4 -84.18 -605.06
-112.84 -84.169998 -605.01001
-112.28 -84.169998 -604.97998
-111.73 -84.18 -605.02002
-111.15 -84.150002 -604.84998
-110.59 -84.150002 -604.83002
-110.03 -84.150002 -604.81
-109.48 -84.150002 -604.85999
-108.91 -84.139999 -604.78998
-108.36 -84.150002 -604.82001
-107.84 -84.169998 -604.96997
-107.28 -84.169998 -604.97998
-106.74 -84.18 -605.03998
-106.2 -84.190002 -605.14001
-105.66 -84.199997 -605.19
-105.13 -84.220001 -605.35999
-104.58 -84.230003 -605.38
-104.05 -84.239998 -605.51001
-103.51 -84.260002 -605.59998
-102.98 -84.279999 -605.78003
-102.47 -84.32 -606.03998
-101.95 -84.349998 -606.25
-101.45 -84.400002 -606.59003
-100.92 -84.410004 -606.71997
-100.38 -84.43 -606.82001
-99.839996 -84.440002 -606.94
-99.32 -84.480003 -607.19
-98.809998 -84.510002 -607.42999
-98.309998 -84.57 -607.79999
-97.809998 -84.620003 -608.15002
-97.309998 -84.669998 -608.53003
-96.82 -84.720001 -608.91998
-96.32 -84.779999 -609.32001
-95.809998 -84.82 -609.63
-95.360001 -84.919998 -610.28003
-94.839996 -84.949997 -610.54999
-94.379997 -85.040001 -611.20001
-93.900002 -85.120003 -611.71997
-93.470001 -85.230003 -612.53998
-93.040001 -85.349998 -613.40002
-98.970001 -92.480003 -663.84998
-98.260002 -92.379997 -663.13
-97.519997 -92.260002 -662.31
-96.809998 -92.160004 -661.59998
-96.029999 -91.989998 -660.40002
-95.279999 -91.849998 -659.44
-94.540001 -91.730003 -658.54999
-93.809998 -91.599998 -657.64001
-92.959999 -91.360001 -655.94
-92.269997 -91.269997 -655.33002
-91.550003 -91.160004 -654.51001
-90.809998 -91.019997 -653.53998
-90.150002 -90.949997 -653.07001
-89.459999 -90.860001 -652.42999
-88.75 -90.75 -651.64001
-88.029999 -90.629997 -650.76001
-87.379997 -90.57 -650.38
-86.730003 -90.519997 -650
-86.019997 -90.400002 -649.14001
-85.330002 -90.300003 -648.42999
-84.660004 -90.220001 -647.85999
-84.029999 -90.18 -647.59003
-83.379997 -90.120003 -647.15002
-82.739998 -90.080002 -646.87
-82.099998 -90.019997 -646.51001
-81.449997 -89.959999 -646.07001
-80.730003 -89.809998 -645.02002
-80.050003 -89.720001 -644.34003
-79.400002 -89.650002 -643.87
-78.760002 -89.589996 -643.45001
-78.099998 -89.510002 -642.88
-77.449997 -89.440002 -642.39001
-76.800003 -89.379997 -641.92999
-76.120003 -89.269997 -641.21002
-75.480003 -89.209999 -640.78998
-74.849998 -89.160004 -640.41998
-74.169998 -89.050003 -639.60999
-73.550003 -89 -639.29999
-72.919998 -88.959999 -638.98999
-72.32 -88.940002 -638.85999
-71.720001 -88.919998 -638.71997
-71.089996 -88.870003 -638.38
-70.459999 -88.809998 -637.91998
-69.849998 -88.779999 -637.75
-69.220001 -88.730003 -637.37
-68.610001 -88.690002 -637.12
-67.980003 -88.639999 -636.71997
-67.370003 -88.599998 -636.48999
-66.779999 -88.589996 -636.37
-66.18 -88.57 -636.27002
-65.589996 -88.559998 -636.15997
-65 -88.550003 -636.14001
-64.419998 -88.559998 -636.21002
-63.84 -88.57 -636.23999
-63.259998 -88.57 -636.28998
-62.669998 -88.559998 -636.21997
-62.07 -88.529999 -636.01001
-61.470001 -88.519997 -635.90002
-60.869999 -88.489998 -635.67999
-60.27 -88.459999 -635.48999
-59.68 -88.449997 -635.44
-59.09 -88.440002 -635.34003
-58.490002 -88.419998 -635.20001
-57.900002 -88.410004 -635.14001
-57.310001 -88.389999 -635.01001
-56.709999 -88.379997 -634.90997
-56.09 -88.309998 -634.45001
-55.48 -88.269997 -634.16998
-22.08 -87.349998 -627.71997
-21.49 -87.309998 -627.40002
-20.92 -87.300003 -627.32001
-20.34 -87.290001 -627.26001
-19.76 -87.279999 -627.22998
-18.6 -87.209999 -626.73999
-18.02 -87.239998 -626.89001
-17.459999 -87.260002 -627.09998
-16.879999 -87.290001 -627.26001
-16.33 -87.389999 -627.97998
-15.76 -87.410004 -628.12
-15.18 -87.440002 -628.34003
-14.62 -87.489998 -628.71997
55.84 -92.400002 -663.44
56.209999 -92.029999 -660.76001
56.650002 -91.739998 -658.76001
57.130001 -91.559998 -657.42999
57.630001 -91.389999 -656.22998
58.150002 -91.260002 -655.32001
58.689999 -91.160004 -654.64001
59.220001 -91.059998 -653.88
59.799999 -91.010002 -653.58002
60.380001 -91 -653.46002
61 -91.010002 -653.58002
61.599998 -91.019997 -653.59003
62.25 -91.089996 -654.09003
62.849998 -91.089996 -654.09003
-127.75 -85.800003 -612.52002
-126.97 -85.650002 -611.47998
-126.22 -85.519997 -610.58002
-125.46 -85.389999 -609.65002
-124.8 -85.32 -609.15002
-124.14 -85.25 -608.65002
-123.51 -85.199997 -608.28998
-122.86 -85.139999 -607.88
-122.25 -85.099998 -607.60999
-121.64 -85.059998 -607.34003
-121.04 -85.029999 -607.13
-120.42 -84.989998 -606.84003
-119.82 -84.949997 -606.58002
-119.21 -84.919998 -606.34003
-118.62 -84.889999 -606.15997
-118.04 -84.870003 -606.02002
-117.46 -84.860001 -605.90002
-116.85 -84.82 -605.65997
-116.28 -84.809998 -605.58002
-115.72 -84.809998 -605.54999
-115.13 -84.779999 -605.35999
-114.55 -84.760002 -605.23999
-114.01 -84.769997 -605.32001
-113.42 -84.75 -605.14001
-112.87 -84.75 -605.15997
-112.31 -84.75 -605.13
-111.75 -84.75 -605.13
-111.19 -84.739998 -605.09003
-110.65 -84.75 -605.17999
-110.09 -84.75 -605.12
-109.56 -84.769997 -605.27002
-109.01 -84.769997 -605.33002
-108.49 -84.800003 -605.5
-107.92 -84.790001 -605.44
-107.39 -84.809998 -605.57001
-106.85 -84.82 -605.64001
-106.29 -84.82 -605.62
-105.74 -84.82 -605.65997
-105.19 -84.830002 -605.71997
-104.65 -84.839996 -605.78998
-104.13 -84.860001 -605.96997
-103.57 -84.860001 -605.96002
-103.02 -84.870003 -606.01001
-102.52 -84.910004 -606.31
-101.98 -84.919998 -606.39001
-101.45 -84.949997 -606.59998
-100.91 -84.959999 -606.65002
-100.38 -84.989998 -606.83002
-99.860001 -85.019997 -607.07001
-99.349998 -85.059998 -607.37
-98.839996 -85.099998 -607.65002
-98.330002 -85.139999 -607.90002
-97.809998 -85.169998 -608.14001
-97.309998 -85.220001 -608.47998
-96.790001 -85.260002 -608.75
-96.290001 -85.309998 -609.10999
-95.830002 -85.400002 -609.72998
-95.370003 -85.480003 -610.34003
-94.879997 -85.550003 -610.81
-94.419998 -85.639999 -611.45001
-93.93 -85.699997 -611.90002
-93.5 -85.82 -612.73999
-98.150002 -92.879997 -662.41998
-97.489998 -92.830002 -662.04999
-96.790001 -92.75 -661.45001
-95.989998 -92.57 -660.17999
-95.279999 -92.459999 -659.42999
-94.57 -92.360001 -658.71002
-93.779999 -92.18 -657.46997
-92.959999 -91.959999 -655.92999
-92.25 -91.860001 -655.21002
-91.5 -91.709999 -654.17999
-90.779999 -91.589996 -653.31
-90.150002 -91.559998 -653.09003
-89.459999 -91.470001 -652.46997
-88.709999 -91.300003 -651.33002
-88.029999 -91.220001 -650.72998
-87.370003 -91.160004 -650.31
-86.709999 -91.089996 -649.82001
-86 -90.970001 -648.95001
-85.32 -90.889999 -648.38
-84.639999 -90.800003 -647.75
-84.010002 -90.760002 -647.48999
-83.360001 -90.690002 -647.03998
-82.709999 -90.629997 -646.62
-82.080002 -90.589996 -646.28003
-81.419998 -90.519997 -645.82001
-80.690002 -90.370003 -644.75
-80.010002 -90.269997 -644.03003
-79.370003 -90.199997 -643.60999
-78.730003 -90.150002 -643.25
-78.07 -90.07 -642.67999
-77.43 -90.019997 -642.29999
-76.769997 -89.93 -641.66998
-76.110001 -89.839996 -641.08002
-75.470001 -89.790001 -640.69
-74.809998 -89.699997 -640.03998
-74.139999 -89.599998 -639.34003
-73.519997 -89.559998 -639.06
-72.900002 -89.519997 -638.83002
-72.300003 -89.510002 -638.71002
-71.68 -89.459999 -638.35999
-71.059998 -89.410004 -638.03003
-70.440002 -89.370003 -637.78003
-69.830002 -89.339996 -637.51001
-69.190002 -89.269997 -637.03003
-68.57 -89.220001 -636.71002
-67.949997 -89.18 -636.41998
-67.370003 -89.18 -636.46002
-66.769997 -89.160004 -636.26001
-66.169998 -89.139999 -636.14001
-65.57 -89.120003 -636.01001
-64.980003 -89.110001 -635.91998
-64.400002 -89.110001 -635.95001
-63.82 -89.120003 -636.04999
-63.240002 -89.120003 -636.02002
-62.639999 -89.110001 -635.91998
-62.029999 -89.07 -635.64001
-61.439999 -89.050003 -635.53003
-60.84 -89.019997 -635.34003
-60.25 -89.010002 -635.27002
-59.650002 -88.989998 -635.09003
-59.060001 -88.989998 -635.09003
-58.459999 -88.959999 -634.91998
-57.880001 -88.949997 -634.85999
-57.279999 -88.940002 -634.73999
-56.669998 -88.889999 -634.38
-56.029999 -88.809998 -633.82001
-55.439999 -88.790001 -633.67999
-21.450001 -87.720001 -626.23999
-20.879999 -87.720001 -626.22998
-20.299999 -87.709999 -626.21002
-19.719999 -87.690002 -626.04999
-19.139999 -87.629997 -625.60999
-18.559999 -87.629997 -625.62
-18 -87.669998 -625.87
-17.43 -87.709999 -626.19
-16.870001 -87.769997 -626.59003
-16.299999 -87.790001 -626.77002
-15.72 -87.809998 -626.90002
-15.15 -87.839996 -627.09003
-14.59 -87.919998 -627.65002
-14.02 -87.970001 -627.98999
-13.46 -88.029999 -628.40997
-12.89 -88.099998 -628.91998
-12.32 -88.120003 -629.06
-11.76 -88.25 -629.97998
56.599998 -92.269997 -658.21002
57.09 -92.089996 -656.94
57.560001 -91.870003 -655.40002
58.07 -91.739998 -654.46002
58.59 -91.599998 -653.5
59.150002 -91.540001 -653.06
59.720001 -91.489998 -652.71997
60.290001 -91.449997 -652.45001
60.91 -91.480003 -652.62
61.490002 -91.459999 -652.46002
62.119999 -91.5 -652.75
-128.67 -86.599998 -614.20001
-127.82 -86.410004 -612.85999
-127.01 -86.239998 -611.67999
-126.32 -86.150002 -611.06
-125.55 -86.010002 -610.03998
-124.89 -85.940002 -609.56
-124.22 -85.860001 -609.03998
-123.59 -85.82 -608.71002
-122.93 -85.739998 -608.20001
-122.32 -85.699997 -607.92999
-121.69 -85.650002 -607.57001
-121.07 -85.610001 -607.29999
-120.46 -85.57 -607.02002
-119.86 -85.540001 -606.82001
-119.27 -85.519997 -606.63
-118.67 -85.489998 -606.41998
-118.06 -85.449997 -606.15002
-117.48 -85.43 -606.04999
-116.9 -85.419998 -605.90997
-116.32 -85.389999 -605.77002
-115.75 -85.379997 -605.67999
-115.17 -85.370003 -605.57001
-114.6 -85.360001 -605.52002
-114.05 -85.360001 -605.53003
-113.49 -85.349998 -605.48999
-112.93 -85.349998 -605.48999
-112.36 -85.339996 -605.40997
-111.83 -85.360001 -605.53003
-111.27 -85.360001 -605.52002
-110.71 -85.360001 -605.51001
-110.16 -85.360001 -605.53003
-109.62 -85.370003 -605.60999
-109.06 -85.360001 -605.57001
-108.5 -85.370003 -605.58002
-107.97 -85.379997 -605.67999
-107.43 -85.389999 -605.77002
-106.88 -85.400002 -605.81
-106.32 -85.400002 -605.78998
-105.78 -85.410004 -605.87
-105.23 -85.410004 -605.89001
-104.67 -85.410004 -605.89001
-104.13 -85.419998 -605.96997
-103.61 -85.449997 -606.19
-103.06 -85.459999 -606.22998
-102.51 -85.470001 -606.28998
-101.98 -85.480003 -606.41998
-101.45 -85.510002 -606.57001
-100.92 -85.529999 -606.75
-100.39 -85.550003 -606.90002
-99.879997 -85.589996 -607.15002
-99.370003 -85.629997 -607.46002
-98.849998 -85.660004 -607.66998
-98.339996 -85.709999 -607.98999
-97.82 -85.739998 -608.20001
-97.330002 -85.800003 -608.59998
-96.830002 -85.849998 -608.96997
-96.330002 -85.910004 -609.38
-95.830002 -85.949997 -609.71997
-95.360001 -86.040001 -610.32001
-94.889999 -86.120003 -610.88
-94.419998 -86.199997 -611.44
-93.970001 -86.309998 -612.17999
-93.5 -86.379997 -612.71997
-98.190002 -93.529999 -662.65997
-97.510002 -93.459999 -662.21997
-96.800003 -93.360001 -661.53003
-96 -93.18 -660.21997
-95.269997 -93.050003 -659.35999
-94.580002 -92.970001 -658.77002
-93.730003 -92.730003 -657.07001
-92.980003 -92.580002 -656.06
-92.279999 -92.480003 -655.37
-91.480003 -92.290001 -654.03998
-90.739998 -92.150002 -653.03003
-90.129997 -92.139999 -652.96002
-89.459999 -92.059998 -652.42999
-88.68 -91.879997 -651.13
-87.989998 -91.779999 -650.47998
-87.349998 -91.739998 -650.16998
-86.669998 -91.650002 -649.54999
-85.970001 -91.529999 -648.73999
-85.290001 -91.449997 -648.13
-84.629997 -91.379997 -647.65997
-84 -91.339996 -647.38
-83.339996 -91.269997 -646.90997
-82.709999 -91.220001 -646.56
-82.059998 -91.169998 -646.19
-81.410004 -91.099998 -645.72998
-80.669998 -90.940002 -644.58002
-80.010002 -90.849998 -643.97998
-79.370003 -90.800003 -643.65002
-78.730003 -90.739998 -643.23999
-78.050003 -90.639999 -642.54999
-77.410004 -90.580002 -642.13
-76.739998 -90.489998 -641.47998
-76.099998 -90.43 -641.03998
-75.449997 -90.349998 -640.51001
-74.779999 -90.25 -639.83002
-74.139999 -90.18 -639.33002
-73.510002 -90.129997 -638.98999
-72.900002 -90.110001 -638.79999
-72.290001 -90.080002 -638.60999
-71.669998 -90.029999 -638.28998
-71.040001 -89.970001 -637.88
-70.43 -89.949997 -637.70001
-69.809998 -89.900002 -637.38
-69.160004 -89.82 -636.78003
-68.519997 -89.75 -636.29999
-67.910004 -89.709999 -636.08002
-67.32 -89.699997 -635.98999
-66.720001 -89.68 -635.82001
-66.120003 -89.660004 -635.69
-65.519997 -89.629997 -635.5
-64.940002 -89.629997 -635.51001
-64.360001 -89.639999 -635.59003
-63.779999 -89.639999 -635.59003
-63.189999 -89.629997 -635.51001
-62.59 -89.610001 -635.39001
-61.990002 -89.589996 -635.19
-61.389999 -89.559998 -635.04999
-60.779999 -89.529999 -634.79999
-60.189999 -89.510002 -634.64001
-59.599998 -89.5 -634.56
-59.009998 -89.489998 -634.53003
-58.419998 -89.480003 -634.48999
-57.84 -89.470001 -634.41998
-57.23 -89.440002 -634.16998
-56.610001 -89.370003 -633.71997
-21.41 -88.120003 -625.04999
-20.85 -88.160004 -625.32001
-20.27 -88.150002 -625.22998
-19.68 -88.080002 -624.71997
-19.110001 -88.080002 -624.72998
-18.540001 -88.099998 -624.85999
-17.98 -88.150002 -625.22998
-17.41 -88.18 -625.40997
-16.84 -88.199997 -625.56
-16.27 -88.230003 -625.82001
-15.7 -88.25 -625.96997
-15.14 -88.309998 -626.37
-14.57 -88.349998 -626.66998
-14 -88.379997 -626.84998
-13.43 -88.449997 -627.31
-12.87 -88.529999 -627.88
-12.3 -88.57 -628.17999
-11.74 -88.669998 -628.90002
-11.17 -88.75 -629.41998
-10.6 -88.849998 -630.12
-10.03 -88.849998 -630.12
-9.46 -89 -631.15997
-8.8900003 -89.080002 -631.75
56.57 -92.830002 -657.90997
57.029999 -92.589996 -656.23999
57.490002 -92.370003 -654.69
57.990002 -92.199997 -653.5
58.52 -92.099998 -652.78003
59.049999 -91.989998 -652.01001
59.619999 -91.940002 -651.65002
60.200001 -91.919998 -651.53003
60.799999 -91.919998 -651.51001
61.389999 -91.910004 -651.46002
62.02 -91.949997 -651.71002
62.66 -92.010002 -652.13
63.32 -92.099998 -652.75
-127.86 -87 -613.04999
-127.03 -86.82 -611.78003
-126.31 -86.699997 -610.98999
-125.58 -86.589996 -610.21002
-124.9 -86.5 -609.60999
-124.21 -86.410004 -608.97998
-123.57 -86.360001 -608.59998
-122.96 -86.32 -608.33002
-122.32 -86.269997 -607.96002
-121.68 -86.209999 -607.54999
-121.07 -86.169998 -607.28998
-120.47 -86.139999 -607.07001
-119.87 -86.110001 -606.87
-119.25 -86.059998 -606.53998
-118.67 -86.040001 -606.40002
-118.07 -86.010002 -606.20001
-117.48 -85.989998 -606.03003
-116.89 -85.959999 -605.84998
-116.33 -85.959999 -605.84998
-115.76 -85.949997 -605.75
-115.2 -85.940002 -605.71002
-114.6 -85.910004 -605.52002
-114.06 -85.919998 -605.56
-113.49 -85.910004 -605.5
-112.95 -85.919998 -605.58002
-112.37 -85.900002 -605.46002
-111.82 -85.910004 -605.47998
-111.26 -85.900002 -605.45001
-110.7 -85.900002 -605.46002
-110.13 -85.889999 -605.37
-109.58 -85.889999 -605.38
-109.04 -85.910004 -605.47998
-108.5 -85.919998 -605.53003
-107.96 -85.93 -605.64001
-107.4 -85.93 -605.65002
-106.85 -85.93 -605.66998
-106.32 -85.949997 -605.78003
-105.77 -85.959999 -605.83002
-105.22 -85.959999 -605.87
-104.69 -85.980003 -605.97998
-104.16 -86 -606.15002
-103.61 -86.010002 -606.21997
-103.08 -86.029999 -606.32001
-102.54 -86.050003 -606.45001
-101.99 -86.050003 -606.46997
-101.46 -86.07 -606.62
-100.94 -86.099998 -606.82001
-100.42 -86.129997 -607.07001
-99.900002 -86.169998 -607.28003
-99.379997 -86.190002 -607.48999
-98.849998 -86.220001 -607.67999
-98.339996 -86.260002 -607.96997
-97.839996 -86.32 -608.34998
-97.360001 -86.379997 -608.81
-96.839996 -86.419998 -609.04999
-96.360001 -86.489998 -609.53998
-95.870003 -86.550003 -609.96997
-95.410004 -86.639999 -610.63
-94.919998 -86.709999 -611.07001
-94.459999 -86.790001 -611.65997
-94.040001 -86.93 -612.58002
-98.269997 -94.220001 -663.21002
-97.5 -94.059998 -662.15002
-96.800003 -93.980003 -661.54999
-96 -93.779999 -660.21997
-95.269997 -93.669998 -659.40997
-94.559998 -93.559998 -658.64001
-93.730003 -93.330002 -657.09998
-92.959999 -93.169998 -655.96002
-92.260002 -93.07 -655.29999
-91.480003 -92.889999 -653.98999
-90.720001 -92.730003 -652.90002
-90.110001 -92.709999 -652.78998
-89.43 -92.639999 -652.26001
-88.639999 -92.43 -650.82001
-87.980003 -92.370003 -650.40997
-87.330002 -92.309998 -649.98999
-86.639999 -92.209999 -649.34003
-85.949997 -92.110001 -648.63
-85.279999 -92.029999 -648.03998
-84.620003 -91.959999 -647.57001
-83.989998 -91.919998 -647.27002
-83.330002 -91.839996 -646.76001
-82.68 -91.790001 -646.39001
-82.050003 -91.739998 -646.04999
-81.370003 -91.650002 -645.41998
-80.629997 -91.480003 -644.25
-79.980003 -91.410004 -643.78003
-79.330002 -91.339996 -643.32001
-78.709999 -91.309998 -643.04999
-78.040001 -91.209999 -642.39001
-77.389999 -91.139999 -641.92999
-76.720001 -91.050003 -641.28998
-76.089996 -91 -640.92999
-75.43 -90.910004 -640.31
-74.760002 -90.809998 -639.60999
-74.120003 -90.75 -639.19
-73.5 -90.709999 -638.94
-72.900002 -90.690002 -638.78003
-72.279999 -90.650002 -638.5
-71.650002 -90.589996 -638.08002
-71.019997 -90.540001 -637.71997
-70.410004 -90.510002 -637.52002
-69.779999 -90.449997 -637.14001
-69.099998 -90.32 -636.21997
-68.470001 -90.260002 -635.78998
-67.860001 -90.220001 -635.53003
-67.239998 -90.18 -635.23999
-66.639999 -90.160004 -635.09003
-66.040001 -90.129997 -634.88
-65.449997 -90.120003 -634.83002
-64.860001 -90.110001 -634.77002
-64.279999 -90.120003 -634.84003
-63.689999 -90.110001 -634.77002
-63.099998 -90.089996 -634.66998
-62.509998 -90.080002 -634.58002
-61.900002 -90.050003 -634.34003
-61.310001 -90.029999 -634.21997
-60.68 -89.959999 -633.76001
-60.099998 -89.959999 -633.73999
-59.5 -89.940002 -633.59003
-58.93 -89.949997 -633.69
-58.349998 -89.949997 -633.70001
-57.759998 -89.940002 -633.64001
-57.150002 -89.889999 -633.28003
-21.379999 -88.580002 -624.23999
-20.82 -88.610001 -624.42999
-20.24 -88.589996 -624.33002
-19.65 -88.529999 -623.85999
-19.08 -88.529999 -623.88
-18.52 -88.589996 -624.28998
-17.950001 -88.610001 -624.45001
-17.389999 -88.629997 -624.59998
-16.82 -88.669998 -624.84998
-16.25 -88.699997 -625.08002
-15.68 -88.720001 -625.21002
-15.11 -88.739998 -625.34998
-14.55 -88.790001 -625.71997
-13.98 -88.860001 -626.20001
-13.42 -88.900002 -626.5
-12.85 -88.949997 -626.82001
-12.29 -89.050003 -627.52002
-11.72 -89.110001 -627.89001
-11.15 -89.139999 -628.13
-10.58 -89.209999 -628.60999
-10.01 -89.290001 -629.15997
-9.4399996 -89.379997 -629.82001
56.52 -93.349998 -657.33002
56.990002 -93.120003 -655.73999
57.439999 -92.889999 -654.09998
57.919998 -92.690002 -652.71002
58.41 -92.510002 -651.5
58.98 -92.470001 -651.17999
59.529999 -92.400002 -650.67999
60.110001 -92.379997 -650.56
60.700001 -92.360001 -650.42999
61.290001 -92.360001 -650.40002
61.919998 -92.400002 -650.66998
62.549999 -92.449997 -651.01001
63.200001 -92.529999 -651.57001
-127.84 -87.540001 -612.92999
-127.01 -87.360001 -611.65997
-126.24 -87.220001 -610.70001
-125.52 -87.110001 -609.90997
-124.86 -87.040001 -609.44
-124.18 -86.949997 -608.84003
-123.56 -86.910004 -608.57001
-122.95 -86.870003 -608.28998
-122.3 -86.800003 -607.83002
-121.67 -86.75 -607.47998
-121.06 -86.720001 -607.23999
-120.45 -86.68 -606.98999
-119.85 -86.650002 -606.75
-119.25 -86.620003 -606.53003
-118.66 -86.589996 -606.34998
-118.06 -86.559998 -606.14001
-117.49 -86.550003 -606.07001
-116.9 -86.519997 -605.88
-116.33 -86.519997 -605.84003
-115.75 -86.5 -605.70001
-115.19 -86.489998 -605.69
-114.62 -86.480003 -605.62
-114.06 -86.470001 -605.56
-113.49 -86.470001 -605.53003
-112.95 -86.480003 -605.56
-112.38 -86.470001 -605.52002
-111.82 -86.470001 -605.5
-111.27 -86.470001 -605.53003
-110.71 -86.470001 -605.52002
-110.17 -86.470001 -605.56
-109.62 -86.480003 -605.60999
-109.06 -86.480003 -605.59003
-108.51 -86.480003 -605.63
-107.98 -86.510002 -605.78003
-107.44 -86.510002 -605.83002
-106.89 -86.519997 -605.90002
-106.31 -86.5 -605.72998
-105.78 -86.519997 -605.90002
-105.24 -86.529999 -605.96997
-104.7 -86.540001 -606.04999
-104.15 -86.550003 -606.12
-103.61 -86.559998 -606.17999
-103.07 -86.580002 -606.27002
-102.55 -86.610001 -606.47998
-102.01 -86.620003 -606.57001
-101.48 -86.650002 -606.77002
-100.95 -86.669998 -606.90002
-100.44 -86.709999 -607.16998
-99.900002 -86.720001 -607.29999
-99.370003 -86.75 -607.46997
-98.870003 -86.800003 -607.79999
-98.370003 -86.849998 -608.15002
-97.879997 -86.910004 -608.58002
-97.389999 -86.970001 -609
-96.889999 -87.019997 -609.34998
-96.410004 -87.089996 -609.82001
-95.919998 -87.160004 -610.31
-95.480003 -87.260002 -611.03998
-95 -87.339996 -611.53003
-94.480003 -87.370003 -611.79999
-98.230003 -94.790001 -662.94
-97.540001 -94.699997 -662.38
-96.800003 -94.580002 -661.54999
-95.989998 -94.379997 -660.15002
-95.279999 -94.279999 -659.44
-94.550003 -94.150002 -658.56
-93.720001 -93.93 -657.03003
-92.959999 -93.769997 -655.97998
-92.260002 -93.669998 -655.25
-91.489998 -93.5 -654.06
-90.730003 -93.330002 -652.92999
-90.099998 -93.300003 -652.71002
-89.410004 -93.199997 -652.04999
-88.660004 -93.050003 -651
-87.980003 -92.970001 -650.41998
-87.330002 -92.910004 -650.01001
-86.610001 -92.769997 -649.08002
-85.940002 -92.699997 -648.56
-85.260002 -92.610001 -647.92999
-84.620003 -92.550003 -647.53998
-83.980003 -92.5 -647.17999
-83.300003 -92.400002 -646.53998
-82.669998 -92.370003 -646.28003
-82.040001 -92.32 -645.96997
-81.349998 -92.209999 -645.21002
-80.599998 -92.040001 -644.03998
-79.970001 -91.989998 -643.69
-79.330002 -91.93 -643.27002
-78.68 -91.860001 -642.82001
-78.019997 -91.779999 -642.22998
-77.360001 -91.699997 -641.66998
-76.709999 -91.620003 -641.17999
-76.07 -91.559998 -640.71997
-75.410004 -91.470001 -640.13
-74.739998 -91.379997 -639.48999
-74.110001 -91.330002 -639.12
-73.5 -91.290001 -638.87
-72.889999 -91.260002 -638.67999
-72.269997 -91.230003 -638.45001
-71.629997 -91.160004 -637.95001
-71.019997 -91.120003 -637.71997
-70.400002 -91.07 -637.38
-69.75 -90.989998 -636.84998
-69 -90.769997 -635.28003
-68.349998 -90.690002 -634.76001
-67.709999 -90.599998 -634.15997
-43.459999 -88.620003 -620.52002
-42.889999 -88.620003 -620.52002
-37.27 -88.809998 -621.83002
-24.17 -88.849998 -622.15997
-23.610001 -88.900002 -622.5
-21.91 -88.949997 -622.84003
-21.35 -89.010002 -623.21997
-20.77 -89 -623.15002
-20.200001 -88.970001 -622.98999
-19.620001 -88.959999 -622.90997
-19.059999 -89 -623.16998
-18.5 -89.050003 -623.5
-17.93 -89.07 -623.65002
-17.360001 -89.080002 -623.73999
-16.799999 -89.120003 -624
-16.23 -89.150002 -624.20001
-15.66 -89.169998 -624.33002
-15.09 -89.209999 -624.64001
-14.53 -89.279999 -625.14001
-13.97 -89.330002 -625.46997
-13.4 -89.370003 -625.76001
-12.83 -89.43 -626.15997
-12.27 -89.480003 -626.5
-11.7 -89.540001 -626.89001
-11.13 -89.610001 -627.37
-10.56 -89.660004 -627.72998
-10 -89.760002 -628.41998
-9.4300003 -89.860001 -629.09998
-8.8599997 -89.919998 -629.56
-8.29 -90.029999 -630.28998
-7.7199998 -90.099998 -630.81
-7.1500001 -90.239998 -631.75
-6.5799999 -90.370003 -632.65997
-6.0100002 -90.5 -633.54999
-5.4400001 -90.669998 -634.71002
56.939999 -93.660004 -655.25
57.349998 -93.330002 -653.03003
57.82 -93.129997 -651.59003
58.349998 -93.010002 -650.82001
58.889999 -92.919998 -650.20001
59.439999 -92.849998 -649.71002
60.02 -92.839996 -649.58002
60.619999 -92.839996 -649.59003
61.220001 -92.849998 -649.66998
61.82 -92.849998 -649.65997
62.439999 -92.879997 -649.89001
63.099998 -92.970001 -650.52002
63.75 -93.059998 -651.09003
-127.78 -88.059998 -612.65002
-126.93 -87.870003 -611.28998
-126.22 -87.769997 -610.59998
-125.49 -87.639999 -609.76001
-124.82 -87.57 -609.25
-124.15 -87.489998 -608.71997
-123.55 -87.459999 -608.47998
-122.88 -87.379997 -607.96997
-122.27 -87.349998 -607.71997
-121.66 -87.300003 -607.42999
-121.04 -87.260002 -607.14001
-120.43 -87.220001 -606.85999
-119.84 -87.199997 -606.69
-119.24 -87.169998 -606.5
-118.64 -87.129997 -606.25
-118.06 -87.110001 -606.12
-117.48 -87.099998 -606.03003
-116.9 -87.080002 -605.90997
-116.35 -87.080002 -605.91998
-115.75 -87.050003 -605.71997
-115.21 -87.059998 -605.76001
-114.63 -87.040001 -605.63
-114.06 -87.029999 -605.58002
-113.51 -87.040001 -605.64001
-112.95 -87.029999 -605.57001
-112.4 -87.040001 -605.59998
-111.83 -87.029999 -605.54999
-111.28 -87.029999 -605.54999
-110.72 -87.029999 -605.53003
-110.15 -87.010002 -605.45001
-109.6 -87.019997 -605.47998
-109.04 -87.019997 -605.47998
-108.49 -87.019997 -605.51001
-107.95 -87.029999 -605.57001
-107.41 -87.040001 -605.65002
-106.86 -87.050003 -605.71002
-106.31 -87.050003 -605.71002
-105.76 -87.059998 -605.77002
-105.23 -87.080002 -605.90997
-104.69 -87.089996 -606.01001
-104.15 -87.110001 -606.09003
-103.61 -87.120003 -606.16998
-103.08 -87.139999 -606.32001
-102.56 -87.169998 -606.53998
-102.02 -87.190002 -606.63
-101.51 -87.230003 -606.90997
-100.98 -87.25 -607.09003
-100.47 -87.290001 -607.34003
-99.949997 -87.32 -607.58002
-99.43 -87.349998 -607.78998
-98.93 -87.410004 -608.16998
-98.440002 -87.470001 -608.59003
-97.940002 -87.519997 -608.91998
-97.449997 -87.580002 -609.34998
-96.970001 -87.650002 -609.82001
-96.489998 -87.730003 -610.35999
-96.019997 -87.800003 -610.89001
-95.559998 -87.900002 -611.57001
-95.040001 -87.940002 -611.79999
-103.28 -97.290001 -675.90002
-102.6 -97.220001 -675.48999
-97.559998 -95.339996 -662.54999
-96.809998 -95.190002 -661.56
-96 -94.989998 -660.19
-95.269997 -94.879997 -659.40002
-94.519997 -94.720001 -658.34998
-93.699997 -94.510002 -656.89001
-92.959999 -94.370003 -655.91998
-92.269997 -94.279999 -655.34003
-91.470001 -94.080002 -653.94
-90.75 -93.949997 -653.06
-90.099998 -93.910004 -652.75
-89.389999 -93.790001 -651.94
-88.629997 -93.610001 -650.75
-87.989998 -93.57 -650.45001
-87.32 -93.489998 -649.92999
-86.599998 -93.349998 -648.97998
-85.93 -93.279999 -648.45001
-85.260002 -93.190002 -647.88
-84.610001 -93.139999 -647.51001
-83.970001 -93.089996 -647.17999
-83.300003 -93 -646.56
-82.650002 -92.940002 -646.15997
-82.010002 -92.879997 -645.73999
-81.300003 -92.760002 -644.89001
-80.599998 -92.629997 -644.01001
-79.959999 -92.57 -643.63
-79.309998 -92.5 -643.12
-78.660004 -92.43 -642.64001
-78 -92.349998 -642.09998
-77.339996 -92.260002 -641.51001
-76.68 -92.18 -640.95001
-76.040001 -92.110001 -640.5
-75.370003 -92.010002 -639.82001
-74.720001 -91.940002 -639.31
-74.099998 -91.889999 -638.98999
-73.489998 -91.870003 -638.84003
-72.879997 -91.839996 -638.62
-72.239998 -91.769997 -638.10999
-71.620003 -91.720001 -637.84003
-71.010002 -91.699997 -637.65002
-70.389999 -91.650002 -637.33002
-69.82 -91.669998 -637.47998
-45.060001 -88.980003 -619.06
-44.490002 -88.980003 -619.06
-43.919998 -88.980003 -619.04999
-43.360001 -89 -619.20001
-42.799999 -89.010002 -619.27002
-42.25 -89.040001 -619.48999
-41.68 -89.050003 -619.53998
-41.119999 -89.059998 -619.64001
-40.57 -89.099998 -619.88
-40.029999 -89.160004 -620.34003
-39.450001 -89.139999 -620.15997
-38.860001 -89.089996 -619.85999
-38.290001 -89.089996 -619.84998
-37.759998 -89.169998 -620.40997
-37.189999 -89.169998 -620.39001
-36.599998 -89.139999 -620.19
-36.040001 -89.160004 -620.34998
-35.48 -89.160004 -620.34998
-34.91 -89.160004 -620.34998
-34.349998 -89.199997 -620.59998
-28.139999 -89.349998 -621.65002
-27.549999 -89.290001 -621.20001
-27 -89.349998 -621.65002
-25.27 -89.290001 -621.26001
-24.690001 -89.260002 -621.02002
-24.120001 -89.269997 -621.12
-23.57 -89.330002 -621.51001
-23.01 -89.360001 -621.71002
-22.43 -89.309998 -621.40997
-21.870001 -89.379997 -621.89001
-21.309999 -89.410004 -622.09003
-20.74 -89.419998 -622.14001
-20.17 -89.419998 -622.14001
-19.6 -89.43 -622.19
-19.040001 -89.459999 -622.40002
-18.469999 -89.5 -622.66998
-17.91 -89.510002 -622.77002
-17.34 -89.550003 -623.03003
-16.780001 -89.589996 -623.28998
-16.209999 -89.610001 -623.41998
-15.64 -89.629997 -623.54999
-15.08 -89.68 -623.95001
-14.51 -89.739998 -624.34998
-13.95 -89.800003 -624.75
-13.38 -89.839996 -625.04999
-12.82 -89.900002 -625.46997
-12.25 -89.940002 -625.73999
-11.69 -90.010002 -626.15997
-11.12 -90.050003 -626.47998
-10.55 -90.150002 -627.14001
-9.9899998 -90.230003 -627.66998
-9.4200001 -90.300003 -628.15997
-8.8500004 -90.379997 -628.70001
-8.2799997 -90.440002 -629.15997
-7.71 -90.57 -630.02002
-7.1500001 -90.709999 -630.98999
-6.5700002 -90.82 -631.71997
-6 -90.970001 -632.78998
-5.4299998 -91.099998 -633.66998
-4.8600001 -91.309998 -635.13
57.240002 -93.769997 -651.87
57.740002 -93.610001 -650.78003
58.25 -93.459999 -649.73999
58.799999 -93.379997 -649.25
59.34 -93.290001 -648.59998
59.919998 -93.269997 -648.44
60.5 -93.25 -648.35999
61.110001 -93.269997 -648.46002
61.73 -93.300003 -648.67999
62.34 -93.339996 -648.90997
62.98 -93.400002 -649.32001
63.639999 -93.489998 -649.92999
-127.68 -88.559998 -612.19
-126.89 -88.400002 -611.10999
-126.15 -88.269997 -610.23999
-125.45 -88.18 -609.59003
-124.81 -88.120003 -609.20001
-124.15 -88.050003 -608.72998
-123.51 -87.989998 -608.33002
-122.87 -87.93 -607.91998
-122.24 -87.879997 -607.54999
-121.63 -87.839996 -607.28003
-121.03 -87.809998 -607.06
-120.43 -87.779999 -606.84998
-119.81 -87.739998 -606.58002
-119.25 -87.730003 -606.52002
-118.66 -87.699997 -606.34003
-118.07 -87.68 -606.19
-117.5 -87.669998 -606.10999
-116.93 -87.660004 -606.03003
-116.36 -87.650002 -606.01001
-115.78 -87.629997 -605.84003
-115.22 -87.620003 -605.82001
-114.64 -87.610001 -605.70001
-114.07 -87.599998 -605.65002
-113.51 -87.589996 -605.59998
-112.96 -87.589996 -605.62
-112.39 -87.580002 -605.53998
-111.82 -87.580002 -605.48999
-111.26 -87.57 -605.47998
-110.71 -87.580002 -605.48999
-110.15 -87.57 -605.45001
-109.6 -87.57 -605.47998
-109.06 -87.589996 -605.59003
-108.5 -87.589996 -605.57001
-107.95 -87.589996 -605.56
-107.41 -87.599998 -605.69
-106.87 -87.610001 -605.76001
-106.32 -87.620003 -605.81
-105.78 -87.629997 -605.90002
-105.24 -87.639999 -605.95001
-104.7 -87.660004 -606.09003
-104.15 -87.669998 -606.12
-103.63 -87.690002 -606.28003
-103.09 -87.709999 -606.40997
-102.58 -87.75 -606.66998
-102.07 -87.779999 -606.91998
-101.56 -87.830002 -607.20001
-101.03 -87.849998 -607.37
-100.51 -87.889999 -607.62
-99.989998 -87.919998 -607.84998
-99.510002 -87.980003 -608.28003
-98.989998 -88.019997 -608.53003
-98.489998 -88.07 -608.88
-97.980003 -88.120003 -609.21002
-97.510002 -88.190002 -609.72998
-97.010002 -88.25 -610.08002
-96.529999 -88.32 -610.60999
-96.089996 -88.43 -611.34998
-95.660004 -88.550003 -612.16998
-95.230003 -88.669998 -613
-102.49 -97.739998 -674.77002
-101.66 -97.540001 -673.40997
-97.540001 -95.93 -662.42999
-96.82 -95.82 -661.65997
-96.050003 -95.660004 -660.57001
-95.32 -95.529999 -659.71002
-94.529999 -95.339996 -658.41998
-93.709999 -95.129997 -656.97998
-92.989998 -95.010002 -656.15997
-92.290001 -94.910004 -655.48999
-91.440002 -94.650002 -653.71002
-90.739998 -94.550003 -653.03003
-90.099998 -94.5 -652.69
-89.360001 -94.360001 -651.73999
-88.639999 -94.220001 -650.84003
-87.980003 -94.150002 -650.35999
-87.290001 -94.050003 -649.69
-86.589996 -93.940002 -648.90002
-85.910004 -93.849998 -648.28003
-85.269997 -93.800003 -647.95001
-84.610001 -93.730003 -647.47998
-83.959999 -93.669998 -647.06
-83.290001 -93.580002 -646.47998
-82.660004 -93.540001 -646.19
-81.989998 -93.459999 -645.63
-81.279999 -93.32 -644.70001
-80.589996 -93.199997 -643.90997
-79.949997 -93.150002 -643.57001
-79.290001 -93.07 -642.98999
-78.639999 -93 -642.5
-77.989998 -92.919998 -641.98999
-77.330002 -92.839996 -641.45001
-76.669998 -92.760002 -640.85999
-76.040001 -92.699997 -640.46997
-75.339996 -92.57 -639.58002
-74.709999 -92.510002 -639.20001
-74.089996 -92.470001 -638.94
-73.480003 -92.440002 -638.75
-72.860001 -92.389999 -638.40002
-72.230003 -92.339996 -638.02002
-71.620003 -92.309998 -637.85999
-71.010002 -92.279999 -637.62
-70.389999 -92.239998 -637.34998
-69.790001 -92.220001 -637.22998
-69.25 -92.279999 -637.63
-68.739998 -92.379997 -638.29999
-46.080002 -89.330002 -617.59998
-45.52 -89.339996 -617.65002
-44.970001 -89.370003 -617.83002
-44.41 -89.379997 -617.92999
-43.849998 -89.400002 -618.04999
-43.290001 -89.419998 -618.17999
-42.73 -89.43 -618.28998
-42.18 -89.459999 -618.51001
-41.619999 -89.480003 -618.65002
-41.060001 -89.5 -618.77002
-40.5 -89.510002 -618.79999
-39.950001 -89.559998 -619.15002
-39.380001 -89.559998 -619.14001
-38.810001 -89.550003 -619.07001
-38.240002 -89.540001 -619.07001
-37.700001 -89.599998 -619.46002
-37.139999 -89.620003 -619.60999
-36.560001 -89.589996 -619.35999
-35.98 -89.580002 -619.31
-35.419998 -89.580002 -619.34998
-34.84 -89.559998 -619.15002
-34.279999 -89.580002 -619.34003
-33.709999 -89.589996 -619.37
-33.16 -89.610001 -619.54999
-32.599998 -89.629997 -619.69
-32.029999 -89.629997 -619.66998
-31.469999 -89.660004 -619.85999
-30.91 -89.709999 -620.17999
-30.35 -89.709999 -620.20001
-28.09 -89.760002 -620.58002
-27.51 -89.730003 -620.34998
-26.940001 -89.730003 -620.37
-26.379999 -89.769997 -620.60999
-25.809999 -89.769997 -620.63
-25.23 -89.709999 -620.20001
-24.66 -89.709999 -620.23999
-24.1 -89.739998 -620.39001
-23.540001 -89.779999 -620.69
-22.969999 -89.779999 -620.67999
-22.4 -89.769997 -620.59998
-21.84 -89.839996 -621.08002
-21.280001 -89.839996 -621.13
-20.700001 -89.830002 -621.02002
-20.139999 -89.860001 -621.21997
-19.58 -89.889999 -621.46997
-19.02 -89.93 -621.75
-18.450001 -89.959999 -621.96002
-17.889999 -89.989998 -622.13
-17.32 -90.029999 -622.42999
-16.76 -90.059998 -622.60999
-16.190001 -90.080002 -622.77002
-15.62 -90.110001 -622.96002
-15.07 -90.18 -623.46002
-14.5 -90.25 -623.90997
-13.94 -90.290001 -624.15997
-13.37 -90.32 -624.40002
-12.81 -90.379997 -624.78998
-12.24 -90.440002 -625.17999
-11.67 -90.470001 -625.41998
-11.1 -90.510002 -625.65997
-10.54 -90.620003 -626.40002
-9.9700003 -90.690002 -626.90002
-9.4099998 -90.760002 -627.40002
-8.8400002 -90.809998 -627.73999
-8.2700005 -90.910004 -628.41998
-7.6999998 -91.019997 -629.17999
-7.1399999 -91.169998 -630.19
-6.5700002 -91.300003 -631.08002
-5.9899998 -91.389999 -631.65002
57.669998 -94.080002 -649.90997
58.16 -93.910004 -648.79999
58.689999 -93.809998 -648.10999
59.259998 -93.769997 -647.83002
59.849998 -93.75 -647.69
60.439999 -93.75 -647.65997
61.040001 -93.760002 -647.73999
61.630001 -93.75 -647.71002
62.23 -93.769997 -647.78998
62.889999 -93.870003 -648.46002
63.540001 -93.940002 -648.94
64.25 -94.110001 -650.13
-128.53999 -89.330002 -613.58002
-127.69 -89.129997 -612.23999
-126.84 -88.93 -610.89001
-126.11 -88.809998 -610.08002
-125.42 -88.720001 -609.44
-124.79 -88.669998 -609.10999
-124.13 -88.589996 -608.63
-123.51 -88.550003 -608.28998
-122.87 -88.489998 -607.91998
-122.23 -88.43 -607.48999
-121.61 -88.379997 -607.20001
-121.01 -88.349998 -606.97998
-120.43 -88.330002 -606.84998
-119.83 -88.300003 -606.65002
-119.25 -88.279999 -606.52002
-118.65 -88.260002 -606.33002
-118.07 -88.239998 -606.20001
-117.51 -88.230003 -606.15997
-116.94 -88.220001 -606.09998
-116.4 -88.230003 -606.16998
-115.81 -88.209999 -606.03003
-115.23 -88.190002 -605.88
-114.66 -88.18 -605.83002
-114.09 -88.169998 -605.72998
-113.5 -88.139999 -605.58002
-112.96 -88.160004 -605.65997
-112.42 -88.160004 -605.71002
-111.84 -88.150002 -605.60999
-111.28 -88.139999 -605.58002
-110.72 -88.139999 -605.54999
-110.18 -88.150002 -605.60999
-109.61 -88.139999 -605.57001
-109.07 -88.150002 -605.63
-108.52 -88.160004 -605.69
-107.98 -88.169998 -605.73999
-107.43 -88.18 -605.79999
-106.9 -88.190002 -605.90997
-106.35 -88.199997 -605.98999
-105.82 -88.220001 -606.09998
-105.26 -88.220001 -606.10999
-104.72 -88.230003 -606.20001
-104.18 -88.239998 -606.26001
-103.67 -88.279999 -606.51001
-103.13 -88.300003 -606.63
-102.63 -88.339996 -606.94
-102.1 -88.370003 -607.10999
-101.58 -88.400002 -607.31
-101.06 -88.43 -607.54999
-100.53 -88.449997 -607.69
-100.01 -88.489998 -607.94
-99.519997 -88.550003 -608.34003
-98.989998 -88.580002 -608.53998
-98.5 -88.639999 -608.94
-98 -88.699997 -609.33002
-97.519997 -88.769997 -609.82001
-97.059998 -88.849998 -610.40002
-96.610001 -88.949997 -611.09003
-96.150002 -89.050003 -611.71002
-95.720001 -89.169998 -612.54999
-95.25 -89.260002 -613.13
-102.44 -98.309998 -674.44
-101.44 -97.949997 -672.01001
-100.74 -97.870003 -671.44
-97.5 -96.5 -662.15997
-96.809998 -96.419998 -661.60999
-96.059998 -96.269997 -660.64001
-95.330002 -96.139999 -659.78003
-94.470001 -95.889999 -658.07001
-93.699997 -95.709999 -656.87
-92.980003 -95.599998 -656.08002
-92.260002 -95.470001 -655.23999
-91.440002 -95.25 -653.71002
-90.739998 -95.139999 -653.01001
-90.07 -95.07 -652.51001
-89.349998 -94.940002 -651.60999
-88.650002 -94.830002 -650.88
-87.989998 -94.769997 -650.46002
-87.279999 -94.639999 -649.62
-86.580002 -94.529999 -648.84998
-85.900002 -94.440002 -648.26001
-85.260002 -94.389999 -647.90997
-84.610001 -94.32 -647.45001
-83.93 -94.230003 -646.87
-83.269997 -94.160004 -646.35999
-82.650002 -94.120003 -646.10999
-81.980003 -94.040001 -645.56
-81.279999 -93.910004 -644.66998
-80.589996 -93.790001 -643.90002
-79.949997 -93.730003 -643.5
-79.269997 -93.639999 -642.84003
-78.620003 -93.559998 -642.34003
-77.959999 -93.480003 -641.75
-77.300003 -93.389999 -641.15002
-76.650002 -93.32 -640.71002
-76 -93.239998 -640.16998
-75.339996 -93.150002 -639.54999
-74.699997 -93.080002 -639.10999
-74.080002 -93.040001 -638.83002
-73.459999 -93.010002 -638.58002
-72.830002 -92.949997 -638.16998
-72.199997 -92.879997 -637.76001
-71.599998 -92.870003 -637.66998
-71.010002 -92.860001 -637.59003
-70.360001 -92.779999 -637.06
-69.720001 -92.709999 -636.57001
-69.150002 -92.730003 -636.71997
-68.650002 -92.839996 -637.44
-68.080002 -92.860001 -637.59998
-46.549999 -89.720001 -616.37
-46 -89.739998 -616.5
-45.439999 -89.75 -616.59998
-44.880001 -89.769997 -616.71002
-44.330002 -89.790001 -616.90002
-43.779999 -89.82 -617.09003
-43.23 -89.849998 -617.28998
-42.68 -89.900002 -617.62
-42.119999 -89.910004 -617.67999
-41.57 -89.949997 -617.94
-41.02 -89.980003 -618.15002
-40.459999 -89.980003 -618.20001
-39.900002 -90.010002 -618.34998
-39.34 -90.019997 -618.41998
-38.77 -90.019997 -618.42999
-38.200001 -90.019997 -618.44
-37.650002 -90.059998 -618.69
-37.099998 -90.089996 -618.90997
-36.509998 -90.050003 -618.62
-35.93 -90.019997 -618.42999
-35.360001 -90.010002 -618.38
-34.799999 -90.019997 -618.42999
-34.240002 -90.029999 -618.53003
-33.66 -90.010002 -618.40997
-33.099998 -90.040001 -618.56
-32.549999 -90.07 -618.81
-31.969999 -90.050003 -618.65002
-31.41 -90.07 -618.78003
-30.860001 -90.129997 -619.19
-30.290001 -90.120003 -619.15002
-29.73 -90.139999 -619.22998
-29.18 -90.18 -619.53998
-28.610001 -90.190002 -619.58002
-28.040001 -90.190002 -619.63
-27.469999 -90.18 -619.53003
-26.9 -90.150002 -619.35999
-26.34 -90.199997 -619.66998
-25.780001 -90.209999 -619.78003
-25.200001 -90.169998 -619.5
-24.629999 -90.169998 -619.5
-24.07 -90.209999 -619.76001
-23.51 -90.230003 -619.90997
-22.940001 -90.220001 -619.78998
-22.370001 -90.230003 -619.90002
-21.82 -90.290001 -620.27002
-21.25 -90.309998 -620.40002
-20.68 -90.309998 -620.45001
-20.120001 -90.32 -620.52002
-19.559999 -90.370003 -620.82001
-18.99 -90.389999 -620.98999
-18.43 -90.419998 -621.19
-17.870001 -90.449997 -621.40002
-17.299999 -90.5 -621.72998
-16.74 -90.529999 -621.92999
-16.17 -90.559998 -622.10999
-15.61 -90.599998 -622.40997
-15.05 -90.669998 -622.89001
-14.49 -90.75 -623.42999
-13.92 -90.779999 -623.59003
-13.36 -90.800003 -623.73999
-12.79 -90.849998 -624.10999
-12.23 -90.900002 -624.45001
-11.66 -90.949997 -624.79999
-11.09 -91.010002 -625.20001
-10.53 -91.110001 -625.84003
-9.96 -91.18 -626.34998
-9.3900003 -91.220001 -626.60999
-8.8299999 -91.309998 -627.17999
-8.2600002 -91.400002 -627.84998
-7.6900001 -91.5 -628.51001
-7.1300001 -91.650002 -629.5
-6.5599999 -91.75 -630.20001
-5.9899998 -91.889999 -631.13
-5.4099998 -91.959999 -631.62
-4.8400002 -92.139999 -632.81
-4.27 -92.32 -634.03998
57.549999 -94.480003 -648.59003
58.080002 -94.370003 -647.84003
58.639999 -94.309998 -647.46002
59.18 -94.230003 -646.89001
59.740002 -94.18 -646.57001
60.330002 -94.169998 -646.5
60.93 -94.190002 -646.60999
61.52 -94.18 -646.57001
62.130001 -94.199997 -646.69
62.790001 -94.300003 -647.34998
-128.42999 -89.82 -613.09998
-127.67 -89.669998 -612.13
-126.85 -89.5 -610.94
-126.13 -89.379997 -610.15002
-125.44 -89.290001 -609.54999
-124.81 -89.239998 -609.19
-124.16 -89.18 -608.78003
-123.53 -89.120003 -608.39001
-122.9 -89.07 -608.03003
-122.25 -89 -607.62
-121.64 -88.959999 -607.33002
-121.05 -88.940002 -607.17999
-120.44 -88.900002 -606.94
-119.85 -88.870003 -606.72998
-119.26 -88.849998 -606.57001
-118.66 -88.82 -606.38
-118.09 -88.809998 -606.32001
-117.54 -88.809998 -606.34003
-116.98 -88.809998 -606.33002
-116.43 -88.809998 -606.32001
-115.86 -88.800003 -606.26001
-115.3 -88.800003 -606.23999
-114.73 -88.790001 -606.15997
-114.16 -88.779999 -606.10999
-113.6 -88.769997 -606.06
-113.03 -88.769997 -606.03003
-112.49 -88.779999 -606.12
-111.93 -88.769997 -606.04999
-111.36 -88.760002 -605.98999
-110.81 -88.769997 -606.03998
-110.25 -88.760002 -606.01001
-109.69 -88.760002 -606
-109.13 -88.760002 -605.96997
-108.58 -88.760002 -605.96997
-108.02 -88.760002 -605.96002
-107.47 -88.760002 -606.01001
-106.92 -88.769997 -606.03998
-106.38 -88.779999 -606.10999
-105.84 -88.790001 -606.19
-105.3 -88.809998 -606.29999
-104.75 -88.809998 -606.34998
-104.22 -88.839996 -606.51001
-103.69 -88.849998 -606.62
-103.16 -88.879997 -606.81
-102.64 -88.910004 -607
-102.11 -88.93 -607.15997
-101.59 -88.970001 -607.40002
-101.07 -89 -607.60999
-100.54 -89.029999 -607.79999
-100.04 -89.07 -608.10999
-99.540001 -89.129997 -608.46997
-99.019997 -89.160004 -608.71002
-98.550003 -89.239998 -609.27002
-98.040001 -89.290001 -609.57001
-97.599998 -89.389999 -610.26001
-97.099998 -89.449997 -610.65002
-96.660004 -89.559998 -611.40002
-96.169998 -89.629997 -611.84998
-95.699997 -89.709999 -612.42999
-102.51 -99 -674.90002
-101.44 -98.57 -671.98999
-100.61 -98.360001 -670.58002
-99.830002 -98.190002 -669.47998
-97.550003 -97.150002 -662.44
-96.839996 -97.050003 -661.79999
-96.089996 -96.900002 -660.78998
-95.360001 -96.779999 -659.98999
-94.489998 -96.510002 -658.17999
-93.699997 -96.330002 -656.91998
-93.010002 -96.230003 -656.28003
-92.260002 -96.080002 -655.27002
-91.449997 -95.860001 -653.79999
-90.75 -95.75 -653.07001
-90.059998 -95.660004 -652.42999
-89.339996 -95.529999 -651.58002
-88.650002 -95.43 -650.90002
-88 -95.370003 -650.5
-87.279999 -95.239998 -649.64001
-86.559998 -95.110001 -648.72998
-85.889999 -95.019997 -648.15997
-85.25 -94.970001 -647.84998
-84.599998 -94.910004 -647.42999
-83.900002 -94.790001 -646.64001
-83.269997 -94.75 -646.35999
-82.639999 -94.709999 -646.06
-81.970001 -94.620003 -645.44
-81.25 -94.470001 -644.46002
-80.589996 -94.379997 -643.89001
-79.940002 -94.32 -643.48999
-79.260002 -94.209999 -642.70001
-78.620003 -94.150002 -642.32001
-77.940002 -94.040001 -641.57001
-77.279999 -93.959999 -641.04999
-76.660004 -93.919998 -640.78003
-75.970001 -93.800003 -639.96002
-75.330002 -93.730003 -639.46997
-74.699997 -93.68 -639.15002
-74.089996 -93.650002 -638.94
-73.480003 -93.610001 -638.70001
-72.82 -93.519997 -638.10999
-72.199997 -93.470001 -637.77002
-71.589996 -93.449997 -637.60999
-70.989998 -93.419998 -637.45001
-70.309998 -93.300003 -636.64001
-69.690002 -93.25 -636.28003
-69.089996 -93.230003 -636.15997
-68.519997 -93.25 -636.28998
-67.93 -93.239998 -636.23999
-47.57 -90.059998 -614.87
-47.02 -90.089996 -615.07001
-46.470001 -90.120003 -615.26001
-45.91 -90.129997 -615.37
-45.360001 -90.160004 -615.51001
-44.810001 -90.190002 -615.75
-44.27 -90.239998 -616.08002
-43.720001 -90.269997 -616.28998
-43.18 -90.32 -616.65002
-42.639999 -90.370003 -616.96002
-42.080002 -90.400002 -617.14001
-41.529999 -90.419998 -617.28998
-40.98 -90.459999 -617.59998
-40.419998 -90.470001 -617.62
-39.860001 -90.489998 -617.75
-39.299999 -90.5 -617.88
-38.740002 -90.519997 -617.95001
-38.169998 -90.510002 -617.90997
-37.610001 -90.540001 -618.10999
-37.060001 -90.559998 -618.27002
-36.48 -90.540001 -618.15002
-35.900002 -90.510002 -617.90997
-35.330002 -90.5 -617.85999
-34.77 -90.519997 -617.97998
-34.209999 -90.529999 -618.06
-33.630001 -90.489998 -617.81
-33.07 -90.510002 -617.90002
-32.509998 -90.540001 -618.12
-31.940001 -90.519997 -618.01001
-31.379999 -90.540001 -618.15997
-30.82 -90.580002 -618.39001
-30.25 -90.57 -618.33002
-29.690001 -90.57 -618.35999
-29.129999 -90.620003 -618.64001
-28.57 -90.620003 -618.70001
-28.01 -90.650002 -618.90002
-27.440001 -90.650002 -618.88
-26.870001 -90.620003 -618.65997
-26.32 -90.68 -619.07001
-25.75 -90.690002 -619.17999
-25.17 -90.650002 -618.85999
-24.610001 -90.650002 -618.90997
-24.049999 -90.699997 -619.22998
-23.48 -90.709999 -619.29999
-22.91 -90.68 -619.09998
-22.35 -90.720001 -619.38
-21.790001 -90.760002 -619.65002
-21.23 -90.779999 -619.72998
-20.66 -90.760002 -619.65002
-20.09 -90.790001 -619.81
-19.540001 -90.839996 -620.19
-18.98 -90.879997 -620.41998
-18.41 -90.889999 -620.53003
-17.85 -90.93 -620.78998
-17.290001 -90.989998 -621.15997
-16.719999 -91.010002 -621.33002
-16.16 -91.040001 -621.53998
-15.6 -91.099998 -621.91998
-15.04 -91.18 -622.46002
-14.48 -91.230003 -622.78998
-13.91 -91.260002 -622.97998
-13.35 -91.300003 -623.25
-12.78 -91.330002 -623.5
-12.21 -91.370003 -623.77002
-11.65 -91.449997 -624.27002
-11.09 -91.519997 -624.76001
-10.52 -91.610001 -625.34998
-9.96 -91.669998 -625.77002
-9.3900003 -91.730003 -626.16998
-8.8199997 -91.790001 -626.56
-8.25 -91.900002 -627.28998
-7.6900001 -92 -627.95001
-7.1199999 -92.129997 -628.88
-6.5500002 -92.25 -629.67999
-5.98 -92.32 -630.15997
-5.4099998 -92.419998 -630.78003
-4.8400002 -92.580002 -631.88
-4.2600002 -92.709999 -632.71997
-3.6900001 -92.860001 -633.76001
-3.1099999 -92.919998 -634.17999
-2.53 -93.110001 -635.44
57.450001 -94.919998 -647.53998
57.990002 -94.830002 -646.94
58.52 -94.730003 -646.25
59.099998 -94.699997 -646.04999
59.669998 -94.660004 -645.77002
60.27 -94.68 -645.90997
60.869999 -94.68 -645.95001
61.450001 -94.669998 -645.87
62.060001 -94.68 -645.96002
62.669998 -94.720001 -646.16998
63.330002 -94.809998 -646.81
-127.7 -90.260002 -612.27002
-126.89 -90.080002 -611.09998
-126.15 -89.949997 -610.23999
-125.47 -89.870003 -609.69
-124.82 -89.800003 -609.21997
-124.19 -89.75 -608.89001
-123.55 -89.690002 -608.52002
-122.95 -89.660004 -608.28998
-122.31 -89.599998 -607.89001
-121.69 -89.550003 -607.57001
-121.08 -89.519997 -607.34998
-120.48 -89.489998 -607.12
-119.88 -89.459999 -606.91998
-119.32 -89.449997 -606.88
-118.72 -89.419998 -606.69
-118.14 -89.400002 -606.56
-117.58 -89.400002 -606.52002
-117.02 -89.389999 -606.51001
-116.46 -89.389999 -606.5
-115.9 -89.389999 -606.46002
-115.33 -89.379997 -606.40002
