# .PCD v0.7 - Point Cloud Data file format
VERSION 0.7
FIELDS x y z
SIZE 4 4 4
TYPE F F F
COUNT 1 1 1
WIDTH 1740
HEIGHT 1
VIEWPOINT 0 0 0 1 0 0 0
POINTS 1740
DATA ascii
96.07 -15.11 -617.35999
96.699997 -15.12 -617.71997
97.370003 -15.14 -618.35999
98.029999 -15.15 -618.95001
98.739998 -15.17 -619.85999
99.489998 -15.2 -620.92999
100.29 -15.24 -622.38
101.11 -15.27 -623.84998
102.04 -15.33 -626
102.97 -15.38 -628.15997
103.82 -15.42 -629.82001
104.7 -15.47 -631.62
105.65 -15.52 -633.78003
106.47 -15.56 -635.17999
107.33 -15.6 -636.78998
108.16 -15.63 -638.21997
109.06 -15.68 -640.02002
109.93 -15.72 -641.66998
110.87 -15.77 -643.65997
111.84 -15.82 -645.82001
112.82 -15.87 -648.01001
-165.55 -14.91 -587.54999
-164.92 -14.9 -587.21997
-164.31 -14.9 -586.96997
-163.74001 -14.9 -586.88
-163.22 -14.9 -586.91998
-162.7 -14.9 -586.97998
-162.16 -14.9 -586.98999
-161.67 -14.9 -587.14001
-161.2 -14.91 -587.40997
-160.8 -14.92 -587.89001
-160.45 -14.94 -588.57001
-160.10001 -14.96 -589.27002
-159.61 -14.96 -589.42999
-159.07001 -14.96 -589.46002
-158.53 -14.96 -589.45001
-158.05 -14.97 -589.66998
-157.61 -14.98 -590.04999
-157.25999 -15 -590.71997
-156.89 -15.01 -591.35999
-156.55 -15.03 -592.14001
-156.11 -15.04 -592.51001
-155.62 -15.05 -592.70001
-155.10001 -15.05 -592.78003
-154.53 -15.05 -592.69
-154.03 -15.05 -592.85999
-153.57001 -15.06 -593.16998
-153.16 -15.07 -593.66998
-152.83 -15.09 -594.5
-152.73 -15.19 -598.32001
-152.32001 -15.21 -598.88
-151.84 -15.21 -599.13
-151.31 -15.21 -599.20001
-150.75999 -15.21 -599.19
-150.23 -15.22 -599.27002
-149.69 -15.22 -599.34003
-149.19 -15.22 -599.53998
-148.71001 -15.23 -599.81
-148.24001 -15.24 -600.09998
-147.75 -15.24 -600.34998
-147.3 -15.25 -600.77002
-143.94 -15.25 -600.54999
-143.27 -15.24 -600.06
-142.7 -15.23 -599.96002
-142.06 -15.22 -599.58002
-141.45 -15.22 -599.33002
-140.85001 -15.21 -599.15002
-140.3 -15.21 -599.13
-139.74001 -15.21 -599.08002
-139.17 -15.21 -599.01001
-138.61 -15.21 -598.96002
-138.07001 -15.21 -599
-137.53 -15.21 -599.03998
-137 -15.21 -599.09998
-136.46001 -15.21 -599.15997
-135.94 -15.22 -599.28003
-135.45 -15.22 -599.53003
-134.92 -15.23 -599.65002
-134.41 -15.23 -599.83002
-133.89 -15.23 -599.94
-133.34 -15.23 -599.96997
-132.78999 -15.23 -599.94
-132.2 -15.23 -599.77002
-131.60001 -15.22 -599.56
-130.92999 -15.21 -598.98999
-130.32001 -15.2 -598.72998
-129.72 -15.2 -598.5
-129.10001 -15.19 -598.19
-128.47 -15.18 -597.79999
-123.86 -14.95 -589.06
-123.12 -14.93 -588.12
-122.5 -14.92 -587.75
-121.83 -14.9 -587.15002
-121.21 -14.89 -586.73999
-120.58 -14.88 -586.32001
-119.99 -14.87 -586.03003
-119.39 -14.87 -585.73999
-118.8 -14.86 -585.52002
-118.22 -14.86 -585.31
-117.65 -14.85 -585.12
-117.08 -14.85 -584.94
-116.52 -14.84 -584.85999
-115.95 -14.84 -584.69
-115.41 -14.84 -584.64001
-114.86 -14.84 -584.57001
-114.3 -14.83 -584.47998
-113.75 -14.83 -584.41998
-113.21 -14.83 -584.37
-112.67 -14.83 -584.34003
-112.13 -14.83 -584.34003
-111.58 -14.83 -584.28998
-111.05 -14.83 -584.28998
-110.51 -14.83 -584.27002
-109.97 -14.83 -584.27002
-109.44 -14.83 -584.27002
-108.92 -14.83 -584.37
-108.38 -14.83 -584.35999
-107.86 -14.83 -584.46002
-107.34 -14.83 -584.5
-106.81 -14.83 -584.53998
-106.29 -14.84 -584.63
-105.76 -14.84 -584.69
-105.25 -14.84 -584.84003
-104.74 -14.84 -584.94
-104.21 -14.85 -584.97998
-103.64 -14.84 -584.82001
-103.05 -14.83 -584.52002
-102.49 -14.83 -584.38
-101.93 -14.83 -584.26001
-101.38 -14.82 -584.19
-100.82 -14.82 -584.04999
-100.27 -14.82 -583.94
-99.730003 -14.82 -583.90002
-99.160004 -14.81 -583.75
-98.599998 -14.81 -583.56
-98.029999 -14.8 -583.37
-97.459999 -14.8 -583.20001
-96.910004 -14.8 -583.08002
-96.360001 -14.79 -583
-95.82 -14.79 -582.96997
-95.279999 -14.79 -582.96002
-94.75 -14.79 -582.95001
-94.220001 -14.79 -583.01001
-93.690002 -14.79 -583
-93.160004 -14.79 -583.04999
-92.629997 -14.8 -583.08002
-92.110001 -14.8 -583.15997
-91.589996 -14.8 -583.25
-91.07 -14.8 -583.38
-90.540001 -14.8 -583.40002
-90.040001 -14.81 -583.59003
-89.519997 -14.81 -583.67999
-89.010002 -14.82 -583.88
-88.5 -14.82 -584.06
-87.980003 -14.82 -584.16998
-87.480003 -14.83 -584.34998
-86.970001 -14.83 -584.53998
-86.449997 -14.84 -584.66998
-85.949997 -14.84 -584.90002
-85.440002 -14.85 -585.08002
-84.940002 -14.85 -585.32001
-84.43 -14.86 -585.52002
-83.93 -14.86 -585.73999
-83.43 -14.87 -586.01001
-82.93 -14.88 -586.25
-82.419998 -14.88 -586.45001
-81.93 -14.89 -586.83002
-81.43 -14.9 -587.04999
-80.93 -14.9 -587.37
-80.43 -14.91 -587.65997
-79.940002 -14.92 -587.96997
-79.440002 -14.93 -588.29999
-78.949997 -14.94 -588.63
-78.459999 -14.95 -589.01001
-77.970001 -14.96 -589.40997
-77.480003 -14.97 -589.78998
-77 -14.98 -590.21997
-76.5 -14.99 -590.57001
-76.010002 -14.99 -590.90997
-75.519997 -15.01 -591.34998
-75.040001 -15.02 -591.84003
-74.550003 -15.03 -592.25
-74.07 -15.04 -592.70001
-73.580002 -15.05 -593.15997
-73.099998 -15.06 -593.63
-72.620003 -15.08 -594.15997
-72.139999 -15.09 -594.71002
-71.660004 -15.1 -595.20001
-71.190002 -15.12 -595.87
-70.699997 -15.13 -596.35999
-70.239998 -15.15 -597.09998
-69.769997 -15.17 -597.72998
-69.32 -15.19 -598.53998
-68.860001 -15.21 -599.28003
-68.410004 -15.23 -600.19
-67.970001 -15.26 -601.17999
-67.540001 -15.28 -602.20001
-67.120003 -15.32 -603.40002
-66.739998 -15.35 -604.90002
-64.519997 -16.190001 -637.34003
-63.959999 -16.200001 -637.62
-63.419998 -16.209999 -638.03998
-62.849998 -16.209999 -638.19
-62.259998 -16.209999 -638.19
-61.669998 -16.209999 -638.14001
-61.080002 -16.209999 -638.04999
-60.490002 -16.200001 -637.97998
-59.900002 -16.200001 -637.95001
-59.32 -16.200001 -637.97998
-58.740002 -16.209999 -638.12
-58.169998 -16.209999 -638.28998
-57.599998 -16.219999 -638.39001
-57.029999 -16.219999 -638.59003
-56.48 -16.23 -639.03998
-55.939999 -16.24 -639.53003
-55.450001 -16.27 -640.65002
-28.93 -16.57 -652.12
-28.33 -16.57 -652.16998
-27.73 -16.57 -652.21002
-27.139999 -16.57 -652.39001
-26.549999 -16.58 -652.59998
-25.959999 -16.59 -652.84998
-25.370001 -16.59 -653.01001
-24.780001 -16.59 -653.15997
-24.18 -16.6 -653.25
-23.58 -16.6 -653.33002
-22.99 -16.6 -653.42999
-22.389999 -16.6 -653.41998
-21.790001 -16.6 -653.41998
-21.190001 -16.6 -653.38
-20.59 -16.6 -653.33002
-19.969999 -16.58 -652.84003
-19.35 -16.57 -652.15997
-18.74 -16.549999 -651.67999
-18.139999 -16.549999 -651.5
-17.540001 -16.549999 -651.60999
-16.950001 -16.549999 -651.62
-16.35 -16.559999 -651.78003
-15.76 -16.559999 -651.88
-15.16 -16.559999 -651.98999
-14.57 -16.57 -652.17999
-13.97 -16.57 -652.38
-13.38 -16.58 -652.70001
-12.78 -16.59 -652.85999
-12.19 -16.59 -653.02002
-11.59 -16.59 -653.23999
-11 -16.6 -653.58002
-10.4 -16.6 -653.57001
-9.8000002 -16.610001 -653.71997
-9.1999998 -16.610001 -653.79999
-8.6000004 -16.610001 -653.75
-8 -16.6 -653.60999
-7.4000001 -16.610001 -653.69
-6.8099999 -16.610001 -654
-6.21 -16.620001 -654.21997
-5.6100001 -16.620001 -654.38
-5.0100002 -16.629999 -654.62
-4.4099998 -16.639999 -654.83002
-3.8099999 -16.639999 -655.15002
-3.21 -16.65 -655.44
-2.6099999 -16.67 -656.01001
-2.01 -16.68 -656.40997
-1.41 -16.690001 -657.03998
-0.81 -16.700001 -657.48999
-0.20999999 -16.719999 -658.16998
0.40000001 -16.73 -658.59003
1 -16.74 -658.77002
1.61 -16.74 -658.83002
2.21 -16.74 -658.78998
2.8199999 -16.74 -658.72998
3.4200001 -16.73 -658.56
4.02 -16.73 -658.59003
4.6300001 -16.73 -658.60999
5.1700001 -16.52 -650.34998
5.73 -16.43 -646.65002
6.3099999 -16.389999 -645.37
6.8899999 -16.360001 -644
7.46 -16.32 -642.71997
8.04 -16.290001 -641.44
8.6099997 -16.27 -640.5
9.1899996 -16.24 -639.60999
9.7600002 -16.23 -638.97998
10.34 -16.209999 -638.28998
10.91 -16.190001 -637.57001
11.49 -16.18 -637.09998
12.06 -16.16 -636.44
12.64 -16.15 -636.09003
13.21 -16.139999 -635.63
13.78 -16.129999 -635.22998
14.36 -16.120001 -634.96002
14.94 -16.120001 -634.66998
15.51 -16.110001 -634.46002
16.09 -16.1 -634.15002
16.66 -16.1 -633.91998
17.24 -16.09 -633.70001
17.809999 -16.09 -633.47998
18.379999 -16.08 -633.15997
18.959999 -16.07 -633.03998
19.540001 -16.07 -632.97998
20.120001 -16.07 -632.85999
20.690001 -16.07 -632.67999
21.26 -16.059999 -632.46002
21.84 -16.059999 -632.40997
22.42 -16.059999 -632.29999
23 -16.059999 -632.28003
23.58 -16.059999 -632.35999
24.16 -16.059999 -632.33002
24.74 -16.059999 -632.40002
25.33 -16.059999 -632.58002
25.91 -16.059999 -632.62
26.5 -16.07 -632.77002
27.09 -16.07 -633.01001
27.68 -16.08 -633.15997
28.27 -16.08 -633.37
28.860001 -16.09 -633.72998
29.459999 -16.1 -634.09998
30.059999 -16.110001 -634.37
30.65 -16.120001 -634.66998
31.26 -16.129999 -635.15002
31.860001 -16.139999 -635.40002
32.459999 -16.15 -635.78003
33.060001 -16.15 -636.07001
33.66 -16.16 -636.40002
34.25 -16.17 -636.60999
34.860001 -16.18 -637.03998
35.450001 -16.18 -637.15997
36.049999 -16.190001 -637.39001
36.639999 -16.190001 -637.54999
37.240002 -16.190001 -637.65002
37.830002 -16.200001 -637.79999
38.419998 -16.200001 -637.96002
39.009998 -16.200001 -638.02002
39.619999 -16.209999 -638.31
40.209999 -16.209999 -638.39001
40.810001 -16.219999 -638.59003
41.400002 -16.219999 -638.71997
41.98 -16.219999 -638.67999
42.57 -16.219999 -638.64001
43.150002 -16.219999 -638.56
43.740002 -16.219999 -638.59998
44.310001 -16.219999 -638.47998
44.900002 -16.219999 -638.52002
45.490002 -16.219999 -638.53003
46.07 -16.219999 -638.48999
46.66 -16.219999 -638.56
47.259998 -16.219999 -638.69
47.84 -16.219999 -638.58002
48.419998 -16.219999 -638.58002
49 -16.219999 -638.47998
49.580002 -16.219999 -638.44
50.169998 -16.219999 -638.46002
50.740002 -16.209999 -638.31
51.330002 -16.209999 -638.25
51.919998 -16.209999 -638.38
52.52 -16.219999 -638.53998
53.119999 -16.219999 -638.73999
53.73 -16.23 -638.91998
54.32 -16.23 -639
54.93 -16.24 -639.27002
55.540001 -16.24 -639.51001
56.150002 -16.25 -639.84998
56.779999 -16.27 -640.33002
57.439999 -16.290001 -641.10999
58.080002 -16.299999 -641.63
58.73 -16.32 -642.28003
59.369999 -16.33 -642.82001
60.009998 -16.34 -643.34003
60.68 -16.360001 -644.15002
61.369999 -16.389999 -645.27002
62.09 -16.43 -646.53003
62.790001 -16.450001 -647.65997
63.529999 -16.49 -649.04999
89.760002 -15.86 -624.54999
90.059998 -15.82 -622.72998
90.470001 -15.79 -621.60999
90.870003 -15.76 -620.48999
91.330002 -15.74 -619.72998
91.82 -15.73 -619.21997
92.339996 -15.72 -618.90997
92.82 -15.7 -618.31
93.32 -15.69 -617.87
93.879997 -15.69 -617.84003
94.440002 -15.69 -617.82001
95.010002 -15.69 -617.81
95.599998 -15.69 -617.96002
96.220001 -15.7 -618.31
96.870003 -15.71 -618.77002
97.510002 -15.73 -619.26001
98.209999 -15.75 -620.08002
98.93 -15.77 -621
99.669998 -15.8 -622.03998
100.51 -15.84 -623.67999
101.38 -15.89 -625.5
102.28 -15.94 -627.46997
103.13 -15.98 -629.10999
104.03 -16.030001 -631.03998
104.89 -16.07 -632.69
105.79 -16.120001 -634.59003
106.6 -16.16 -635.96002
107.42 -16.190001 -637.34003
108.27 -16.23 -638.84998
109.14 -16.280001 -640.51001
110.02 -16.32 -642.15997
110.96 -16.370001 -644.21002
111.93 -16.43 -646.32001
112.99 -16.49 -648.96002
-166.03999 -15.45 -587.38
-165.31 -15.43 -586.72998
-164.71001 -15.42 -586.51001
-164.16 -15.42 -586.46997
-163.56 -15.42 -586.23999
-163.05 -15.42 -586.34003
-162.55 -15.42 -586.44
-162.00999 -15.42 -586.46997
-161.53 -15.43 -586.64001
-161.02 -15.43 -586.75
-160.7 -15.45 -587.53003
-160.39 -15.47 -588.37
-159.98 -15.49 -588.83002
-159.49001 -15.49 -589.02002
-158.95 -15.49 -589.02002
-158.41 -15.49 -588.98999
-157.92999 -15.5 -589.21997
-157.53 -15.51 -589.72998
-157.16 -15.53 -590.35999
-156.81 -15.55 -591.06
-156.47 -15.57 -591.84003
-156.05 -15.58 -592.28998
-155.57001 -15.59 -592.53998
-155.03 -15.59 -592.53998
-154.47 -15.58 -592.46002
-153.95 -15.59 -592.57001
-153.49001 -15.59 -592.87
-153.05 -15.61 -593.26001
-152.7 -15.62 -593.98999
-152.64999 -15.73 -598.02002
-152.25 -15.75 -598.60999
-151.78 -15.76 -598.90002
-151.24001 -15.76 -598.95001
-150.7 -15.76 -598.97998
-150.14 -15.76 -598.91998
-149.62 -15.76 -599.04999
-149.07001 -15.76 -599.06
-148.53 -15.76 -599.08002
-148.00999 -15.76 -599.21997
-147.52 -15.77 -599.42999
-146.99001 -15.77 -599.5
-146.44 -15.77 -599.52002
-145.89999 -15.77 -599.56
-145.35001 -15.77 -599.54999
-144.77 -15.77 -599.44
-144.2 -15.77 -599.35999
-143.63 -15.77 -599.28003
-143.06 -15.76 -599.17999
-142.48 -15.76 -599.03998
-141.89 -15.76 -598.89001
-141.33 -15.75 -598.83002
-140.78 -15.75 -598.84998
-140.24001 -15.75 -598.85999
-139.69 -15.75 -598.85999
-139.13 -15.75 -598.84998
-138.58 -15.75 -598.82001
-138.05 -15.76 -598.90997
-137.50999 -15.76 -598.96002
-137 -15.76 -599.12
-136.47 -15.76 -599.21997
-135.97 -15.77 -599.40997
-135.42999 -15.77 -599.46997
-134.91 -15.77 -599.59998
-134.38 -15.78 -599.70001
-133.84 -15.78 -599.71002
-133.25999 -15.77 -599.59003
-132.66 -15.77 -599.39001
-132 -15.75 -598.88
-131.37 -15.75 -598.51001
-130.78 -15.74 -598.35999
-130.17999 -15.73 -598.10999
-129.60001 -15.73 -597.97998
-128.94 -15.72 -597.46002
-123.67 -15.47 -588.16998
-123.01 -15.45 -587.59998
-122.34 -15.44 -586.98999
-121.7 -15.42 -586.53003
-121.09 -15.42 -586.17999
-120.49 -15.41 -585.85999
-119.91 -15.4 -585.65002
-119.3 -15.39 -585.34003
-118.71 -15.39 -585.06
-118.13 -15.38 -584.84998
-117.57 -15.38 -584.71002
-117 -15.37 -584.58002
-116.44 -15.37 -584.46002
-115.9 -15.37 -584.40997
-115.34 -15.37 -584.33002
-114.78 -15.36 -584.20001
-114.25 -15.36 -584.21002
-113.7 -15.36 -584.14001
-113.15 -15.36 -584.09998
-112.61 -15.36 -584.04999
-112.07 -15.36 -584.02002
-111.54 -15.36 -584.07001
-111 -15.36 -584.03998
-110.46 -15.36 -584.01001
-109.92 -15.36 -583.97998
-109.39 -15.36 -584.03998
-108.87 -15.36 -584.13
-108.35 -15.36 -584.17999
-107.82 -15.36 -584.23999
-107.29 -15.36 -584.26001
-106.77 -15.37 -584.35999
-106.25 -15.37 -584.44
-105.74 -15.37 -584.54999
-105.23 -15.37 -584.69
-104.71 -15.38 -584.79999
-104.18 -15.38 -584.82001
-103.64 -15.38 -584.81
-103.09 -15.37 -584.72998
-102.53 -15.37 -584.59003
-101.97 -15.37 -584.46997
-101.41 -15.36 -584.34998
-100.85 -15.36 -584.19
-100.28 -15.36 -584.02002
-99.730003 -15.35 -583.90997
-99.129997 -15.34 -583.58002
-98.57 -15.34 -583.41998
-98 -15.33 -583.21002
-97.419998 -15.33 -582.96002
-96.849998 -15.32 -582.75
-96.309998 -15.32 -582.71002
-95.760002 -15.32 -582.60999
-95.230003 -15.32 -582.60999
-94.699997 -15.32 -582.65997
-94.169998 -15.32 -582.69
-93.639999 -15.32 -582.72998
-93.110001 -15.32 -582.75
-92.599998 -15.32 -582.85999
-92.07 -15.33 -582.92999
-91.550003 -15.33 -583
-91.029999 -15.33 -583.09003
-90.510002 -15.33 -583.17999
-90 -15.34 -583.35999
-89.489998 -15.34 -583.5
-88.980003 -15.34 -583.65997
-88.470001 -15.35 -583.87
-87.949997 -15.35 -583.92999
-87.449997 -15.36 -584.15997
-86.93 -15.36 -584.31
-86.419998 -15.37 -584.46002
-85.919998 -15.37 -584.70001
-85.419998 -15.38 -584.90997
-84.910004 -15.38 -585.09003
-84.410004 -15.39 -585.38
-83.900002 -15.39 -585.56
-83.400002 -15.4 -585.78003
-82.889999 -15.41 -586.01001
-82.389999 -15.41 -586.28003
-81.889999 -15.42 -586.53998
-81.400002 -15.43 -586.84998
-80.889999 -15.43 -587.07001
-80.400002 -15.44 -587.39001
-79.910004 -15.45 -587.75
-79.410004 -15.46 -588.09003
-78.910004 -15.47 -588.38
-78.419998 -15.48 -588.69
-77.93 -15.49 -589.10999
-77.440002 -15.5 -589.47998
-76.959999 -15.51 -589.92999
-76.459999 -15.52 -590.26001
-75.980003 -15.53 -590.71997
-75.489998 -15.54 -591.07001
-75 -15.55 -591.52002
-74.510002 -15.56 -591.92999
-74.029999 -15.58 -592.41998
-73.540001 -15.59 -592.87
-73.07 -15.6 -593.42999
-72.57 -15.61 -593.81
-72.110001 -15.63 -594.42999
-71.620003 -15.64 -594.92999
-71.150002 -15.66 -595.5
-70.669998 -15.67 -596.09998
-70.199997 -15.69 -596.71997
-69.730003 -15.71 -597.40002
-69.269997 -15.73 -598.09998
-68.82 -15.75 -598.94
-68.360001 -15.77 -599.75
-67.919998 -15.8 -600.65997
-67.480003 -15.82 -601.71002
-67.050003 -15.85 -602.71997
-66.650002 -15.89 -604.15002
-63.330002 -16.77 -637.10999
-62.779999 -16.780001 -637.46002
-62.220001 -16.790001 -637.78003
-61.650002 -16.790001 -637.92999
-61.07 -16.790001 -637.92999
-60.48 -16.790001 -637.89001
-59.889999 -16.790001 -637.87
-59.32 -16.790001 -637.98999
-58.740002 -16.790001 -638.07001
-58.16 -16.799999 -638.20001
-57.59 -16.799999 -638.27002
-57.02 -16.799999 -638.52002
-56.470001 -16.809999 -638.90997
-55.93 -16.83 -639.39001
-55.43 -16.85 -640.35999
-28.940001 -17.17 -652.39001
-28.34 -17.18 -652.5
-27.75 -17.18 -652.58002
-27.16 -17.18 -652.81
-26.57 -17.190001 -653.03998
-25.98 -17.190001 -653.16998
-25.379999 -17.200001 -653.32001
-24.790001 -17.200001 -653.44
-24.190001 -17.200001 -653.59998
-23.59 -17.200001 -653.59003
-23 -17.200001 -653.63
-22.389999 -17.200001 -653.59003
-21.799999 -17.209999 -653.64001
-21.200001 -17.209999 -653.70001
-20.6 -17.209999 -653.71997
-20 -17.209999 -653.79999
-19.4 -17.209999 -653.70001
-18.780001 -17.190001 -653.19
-18.17 -17.18 -652.62
-17.559999 -17.17 -652.32001
-16.959999 -17.17 -652.15997
-16.360001 -17.17 -652.25
-15.77 -17.17 -652.40997
-15.17 -17.18 -652.62
-14.58 -17.18 -652.64001
-13.98 -17.18 -652.87
-13.39 -17.190001 -653.06
-12.79 -17.190001 -653.26001
-12.2 -17.200001 -653.52002
-11.6 -17.209999 -653.75
-11.01 -17.209999 -653.97998
-10.41 -17.219999 -654.33002
-9.8199997 -17.23 -654.59003
-9.2200003 -17.23 -654.62
-8.6199999 -17.24 -654.77002
-8.0200005 -17.24 -654.78003
-7.4099998 -17.23 -654.67999
-6.8200002 -17.24 -654.90002
-6.21 -17.24 -654.85999
-5.6199999 -17.24 -655.06
-5.02 -17.25 -655.34998
-4.4200001 -17.26 -655.63
-3.8199999 -17.26 -655.89001
-3.22 -17.27 -656.22998
-2.6199999 -17.280001 -656.59998
-2.01 -17.290001 -656.97998
-1.41 -17.309999 -657.60999
-0.81 -17.33 -658.22998
-0.20999999 -17.34 -658.79999
0.40000001 -17.35 -659.13
1 -17.35 -659.19
1.61 -17.35 -659.19
2.21 -17.35 -659.03998
2.8199999 -17.35 -658.94
3.4200001 -17.34 -658.73999
4.0300002 -17.34 -658.78003
4.6300001 -17.34 -658.84003
5.2399998 -17.35 -659.26001
5.7800002 -17.18 -652.71997
6.3299999 -17.030001 -646.97998
6.9099998 -16.99 -645.71002
7.48 -16.959999 -644.33002
8.0500002 -16.91 -642.71002
8.6300001 -16.889999 -641.65997
9.1999998 -16.860001 -640.64001
9.7799997 -16.84 -639.98999
10.35 -16.82 -639.10999
10.93 -16.799999 -638.59003
11.5 -16.780001 -637.85999
12.08 -16.77 -637.37
12.65 -16.76 -636.84998
13.23 -16.74 -636.38
13.8 -16.73 -636.02002
14.38 -16.73 -635.77002
14.95 -16.719999 -635.35999
15.53 -16.709999 -634.98999
16.1 -16.700001 -634.75
16.68 -16.700001 -634.62
17.25 -16.690001 -634.33002
17.83 -16.690001 -634.16998
18.41 -16.68 -634.03003
18.99 -16.68 -633.83002
19.559999 -16.67 -633.58002
20.129999 -16.66 -633.38
20.709999 -16.66 -633.29999
21.290001 -16.66 -633.22998
21.870001 -16.66 -633.09003
22.450001 -16.66 -633.07001
23.030001 -16.66 -633.14001
23.610001 -16.66 -633.12
24.190001 -16.66 -633.17999
24.780001 -16.66 -633.25
25.360001 -16.66 -633.28998
25.940001 -16.67 -633.40997
26.530001 -16.67 -633.64001
27.129999 -16.68 -633.85999
27.719999 -16.68 -634.06
28.309999 -16.690001 -634.23999
28.9 -16.690001 -634.46997
29.5 -16.700001 -634.84998
30.1 -16.709999 -635.26001
30.690001 -16.719999 -635.46997
31.290001 -16.73 -635.76001
31.9 -16.74 -636.21002
32.5 -16.75 -636.63
33.099998 -16.76 -636.94
33.700001 -16.77 -637.17999
34.299999 -16.77 -637.40997
34.900002 -16.780001 -637.71997
35.490002 -16.780001 -637.77002
36.09 -16.790001 -638.15997
36.68 -16.790001 -638.23999
37.279999 -16.799999 -638.46002
37.880001 -16.799999 -638.57001
38.470001 -16.809999 -638.64001
39.060001 -16.809999 -638.84998
39.650002 -16.809999 -638.85999
40.25 -16.82 -639.03998
40.84 -16.82 -639.09998
41.419998 -16.82 -639.03998
42.009998 -16.82 -639.04999
42.59 -16.809999 -638.94
43.16 -16.809999 -638.79999
43.75 -16.809999 -638.83002
44.34 -16.809999 -638.82001
44.93 -16.809999 -638.84998
45.52 -16.809999 -638.92999
46.110001 -16.82 -638.97998
46.700001 -16.82 -639.03998
47.290001 -16.82 -639.09003
47.860001 -16.809999 -638.90002
48.450001 -16.809999 -638.94
49.040001 -16.809999 -638.91998
49.619999 -16.809999 -638.89001
50.200001 -16.809999 -638.88
50.790001 -16.809999 -638.90002
51.389999 -16.82 -639.03998
51.990002 -16.82 -639.19
52.59 -16.83 -639.33002
53.18 -16.83 -639.40002
53.779999 -16.83 -639.51001
54.369999 -16.83 -639.58002
54.98 -16.84 -639.88
55.599998 -16.85 -640.22998
56.220001 -16.860001 -640.54999
56.860001 -16.879999 -641.21002
57.52 -16.9 -642.01001
58.18 -16.92 -642.69
58.810001 -16.93 -643.14001
59.459999 -16.950001 -643.81
60.130001 -16.969999 -644.67999
60.82 -17 -645.71002
61.560001 -17.040001 -647.19
62.25 -17.059999 -648.15997
62.970001 -17.1 -649.47998
90.440002 -16.559999 -629.26001
90.419998 -16.450001 -625.17999
90.730003 -16.4 -623.35999
91.129997 -16.370001 -622.25
91.540001 -16.35 -621.16998
91.980003 -16.32 -620.28003
92.470001 -16.309999 -619.78998
92.980003 -16.299999 -619.37
93.510002 -16.290001 -619.14001
94.050003 -16.290001 -618.90997
94.589996 -16.280001 -618.75
95.18 -16.290001 -618.88
95.75 -16.290001 -618.88
96.360001 -16.290001 -619.16998
97 -16.309999 -619.63
97.699997 -16.33 -620.45001
98.389999 -16.35 -621.21002
99.120003 -16.370001 -622.21002
99.919998 -16.41 -623.58002
100.73 -16.450001 -625.03003
101.62 -16.5 -626.94
102.46 -16.540001 -628.53998
103.29 -16.59 -630.10999
104.2 -16.639999 -632.04999
105.07 -16.68 -633.76001
105.91 -16.719999 -635.28998
106.72 -16.76 -636.65997
107.54 -16.799999 -638.03998
108.35 -16.83 -639.32001
109.21 -16.870001 -640.88
110.11 -16.92 -642.71002
111.04 -16.969999 -644.65997
111.97 -17.030001 -646.57001
-166.28 -15.96 -586.34998
-165.69 -15.95 -586.15997
-165.07001 -15.94 -585.89001
-164.48 -15.94 -585.70001
-163.92999 -15.94 -585.65002
-163.35001 -15.93 -585.5
-162.84 -15.94 -585.58002
-162.34 -15.94 -585.70001
-161.83 -15.94 -585.81
-161.35001 -15.95 -586.02002
-160.92 -15.96 -586.38
-160.63 -15.98 -587.28003
-160.32001 -16.01 -588.10999
-159.87 -16.02 -588.44
-159.38 -16.02 -588.59998
-158.84 -16.02 -588.59003
-158.3 -16.02 -588.60999
-157.83 -16.030001 -588.84003
-157.46001 -16.040001 -589.46997
-157.07001 -16.059999 -590.03998
-156.75999 -16.08 -590.88
-156.39999 -16.1 -591.57001
-155.98 -16.110001 -592.02002
-155.50999 -16.120001 -592.28003
-154.99001 -16.129999 -592.40002
-154.42 -16.120001 -592.28003
-153.88 -16.120001 -592.29999
-153.39 -16.129999 -592.48999
-152.94 -16.139999 -592.85999
-152.55 -16.15 -593.45001
-152.24001 -16.18 -594.33002
-152.2 -16.290001 -598.39001
-151.72 -16.299999 -598.65002
-151.2 -16.299999 -598.78998
-150.67 -16.299999 -598.87
-150.10001 -16.299999 -598.78003
-149.55 -16.299999 -598.78003
-149.00999 -16.299999 -598.82001
-148.46001 -16.299999 -598.79999
-147.92 -16.299999 -598.83002
-147.38 -16.309999 -598.90002
-146.86 -16.309999 -598.98999
-146.3 -16.309999 -598.95001
-145.75 -16.309999 -598.95001
-145.17999 -16.299999 -598.87
-144.63 -16.299999 -598.87
-144.06 -16.299999 -598.76001
-143.50999 -16.299999 -598.76001
-142.95 -16.299999 -598.72998
-142.39999 -16.299999 -598.71002
-141.82001 -16.299999 -598.62
-141.27 -16.299999 -598.59998
-140.75 -16.299999 -598.71002
-140.2 -16.299999 -598.70001
-139.67 -16.299999 -598.78003
-139.13 -16.299999 -598.84998
-138.61 -16.309999 -598.94
-138.06 -16.309999 -598.94
-137.53 -16.309999 -599.03998
-137 -16.309999 -599.13
-136.49001 -16.32 -599.29999
-135.94 -16.32 -599.31
-135.39999 -16.32 -599.34998
-134.87 -16.32 -599.40997
-134.28999 -16.32 -599.29999
-133.72 -16.309999 -599.17999
-133.07001 -16.299999 -598.73999
-132.42999 -16.290001 -598.34998
-131.83 -16.280001 -598.13
-131.23 -16.280001 -597.91998
-130.63 -16.27 -597.67999
-130.06 -16.27 -597.58002
-129.45 -16.26 -597.27002
-124.2 -16.01 -588.15002
-123.56 -15.99 -587.66998
-122.86 -15.97 -586.91998
-122.24 -15.96 -586.5
-121.6 -15.95 -586.03998
-121.01 -15.94 -585.78998
-120.39 -15.93 -585.40997
-119.83 -15.93 -585.26001
-119.23 -15.92 -584.96997
-118.65 -15.91 -584.76001
-118.07 -15.91 -584.56
-117.51 -15.9 -584.45001
-116.95 -15.9 -584.31
-116.4 -15.9 -584.22998
-115.83 -15.89 -584.09003
-115.29 -15.89 -584.04999
-114.73 -15.89 -583.96002
-114.2 -15.89 -583.97998
-113.64 -15.89 -583.84998
-113.09 -15.88 -583.75
-112.55 -15.89 -583.76001
-112.02 -15.88 -583.76001
-111.48 -15.89 -583.77002
-110.95 -15.88 -583.76001
-110.42 -15.89 -583.79999
-109.88 -15.89 -583.78998
-109.35 -15.89 -583.81
-108.83 -15.89 -583.88
-108.31 -15.89 -583.96002
-107.78 -15.89 -584.03003
-107.26 -15.89 -584.09003
-106.74 -15.9 -584.19
-106.23 -15.9 -584.29999
-105.71 -15.9 -584.40002
-105.19 -15.9 -584.51001
-104.69 -15.91 -584.66998
-104.15 -15.91 -584.67999
-103.63 -15.91 -584.73999
-103.12 -15.92 -584.90002
-102.57 -15.91 -584.84998
-102 -15.91 -584.62
-101.42 -15.9 -584.40002
-100.81 -15.89 -583.96002
-100.22 -15.88 -583.65997
-99.629997 -15.87 -583.34003
-99.040001 -15.86 -583.04999
-98.470001 -15.86 -582.83002
-97.919998 -15.85 -582.71002
-97.349998 -15.85 -582.54999
-96.800003 -15.85 -582.46002
-96.260002 -15.85 -582.38
-95.720001 -15.84 -582.34998
-95.190002 -15.85 -582.39001
-94.660004 -15.85 -582.40997
-94.120003 -15.85 -582.40002
-93.610001 -15.85 -582.5
-93.080002 -15.85 -582.52002
-92.559998 -15.85 -582.65997
-92.040001 -15.85 -582.71002
-91.510002 -15.86 -582.77002
-90.989998 -15.86 -582.87
-90.489998 -15.86 -583.03998
-89.959999 -15.86 -583.12
-89.449997 -15.87 -583.26001
-88.949997 -15.88 -583.51001
-88.43 -15.88 -583.56
-87.93 -15.88 -583.78003
-87.410004 -15.89 -583.95001
-86.910004 -15.89 -584.14001
-86.400002 -15.9 -584.32001
-85.879997 -15.9 -584.44
-85.379997 -15.91 -584.67999
-84.879997 -15.91 -584.92999
-84.370003 -15.92 -585.08002
-83.870003 -15.92 -585.32001
-83.370003 -15.93 -585.59998
-82.860001 -15.94 -585.79999
-82.360001 -15.94 -586.06
-81.860001 -15.95 -586.28998
-81.370003 -15.96 -586.64001
-80.870003 -15.97 -586.91998
-80.360001 -15.97 -587.15002
-79.870003 -15.98 -587.46997
-79.379997 -15.99 -587.81
-78.879997 -16 -588.13
-78.389999 -16.01 -588.46997
-77.900002 -16.02 -588.82001
-77.410004 -16.030001 -589.23999
-76.919998 -16.040001 -589.59003
-76.43 -16.049999 -589.96002
-75.940002 -16.059999 -590.38
-75.459999 -16.08 -590.84003
-74.959999 -16.09 -591.22998
-74.489998 -16.1 -591.72998
-73.989998 -16.110001 -592.09998
-73.5 -16.120001 -592.53003
-73.040001 -16.139999 -593.16998
-72.550003 -16.15 -593.60999
-72.059998 -16.17 -594.08002
-71.580002 -16.18 -594.62
-71.099998 -16.190001 -595.15997
-70.639999 -16.209999 -595.81
-70.160004 -16.23 -596.40997
-69.690002 -16.25 -597
-69.230003 -16.27 -597.83002
-68.769997 -16.290001 -598.57001
-68.309998 -16.309999 -599.33002
-67.860001 -16.33 -600.19
-67.440002 -16.360001 -601.29999
-67.010002 -16.389999 -602.37
-66.610001 -16.43 -603.79999
-62.150002 -17.35 -637.01001
-61.610001 -17.360001 -637.46002
-61.040001 -17.370001 -637.64001
-60.470001 -17.370001 -637.77002
-59.889999 -17.370001 -637.90002
-59.310001 -17.379999 -637.96997
-58.740002 -17.379999 -638.04999
-58.150002 -17.379999 -638.08002
-57.59 -17.379999 -638.33002
-57.02 -17.389999 -638.53003
-56.470001 -17.4 -638.89001
-55.919998 -17.41 -639.34998
-55.43 -17.440001 -640.41998
-29.59 -17.799999 -653.52002
-28.950001 -17.780001 -652.67999
-28.35 -17.780001 -652.70001
-27.76 -17.790001 -652.90997
-27.17 -17.790001 -653.15997
-26.58 -17.790001 -653.22998
-25.99 -17.799999 -653.40997
-25.389999 -17.799999 -653.58002
-24.799999 -17.799999 -653.63
-24.200001 -17.809999 -653.76001
-23.6 -17.809999 -653.75
-23 -17.809999 -653.84998
-22.41 -17.809999 -653.90002
-21.809999 -17.809999 -653.89001
-21.209999 -17.809999 -653.95001
-20.610001 -17.82 -654.09003
-20.01 -17.82 -654.08002
-19.42 -17.82 -654.28998
-18.82 -17.83 -654.41998
-18.219999 -17.83 -654.38
-17.610001 -17.82 -654.03998
-16.99 -17.799999 -653.40002
-16.379999 -17.790001 -653.03003
-15.78 -17.790001 -652.96997
-15.18 -17.790001 -653
-14.59 -17.790001 -653.12
-13.99 -17.799999 -653.34998
-13.4 -17.799999 -653.59003
-12.8 -17.809999 -653.82001
-12.21 -17.82 -654.08002
-11.61 -17.82 -654.26001
-11.02 -17.83 -654.57001
-10.42 -17.84 -654.78003
-9.8199997 -17.84 -655.01001
-9.2299995 -17.85 -655.34003
-8.6300001 -17.860001 -655.63
-8.0299997 -17.870001 -655.88
-7.4299998 -17.870001 -656.07001
-6.8299999 -17.870001 -656.17999
-6.23 -17.870001 -656.12
-5.6300001 -17.879999 -656.27002
-5.02 -17.879999 -656.20001
-4.4200001 -17.879999 -656.5
-3.8199999 -17.889999 -656.73999
-3.22 -17.9 -657.15997
-2.6199999 -17.91 -657.42999
-2.02 -17.92 -657.79999
-1.41 -17.940001 -658.35999
-0.81 -17.950001 -658.91998
-0.20999999 -17.959999 -659.23999
0.40000001 -17.959999 -659.42999
1 -17.959999 -659.35999
1.61 -17.959999 -659.17999
2.21 -17.950001 -658.96002
2.8199999 -17.950001 -658.85999
3.4200001 -17.950001 -658.78998
4.0300002 -17.950001 -658.81
4.6300001 -17.950001 -658.90002
5.2399998 -17.950001 -659.01001
5.8400002 -17.950001 -659.03998
6.4000001 -17.83 -654.58002
6.9299998 -17.639999 -647.57001
7.5 -17.6 -646.13
8.0799999 -17.559999 -644.71997
8.6499996 -17.52 -643.28003
9.2200003 -17.48 -642
9.8000002 -17.459999 -641.09998
10.37 -17.440001 -640.40002
10.95 -17.42 -639.84003
11.52 -17.4 -638.97998
12.1 -17.389999 -638.52002
12.67 -17.370001 -637.76001
13.25 -17.360001 -637.46002
13.82 -17.34 -636.94
14.4 -17.33 -636.54999
14.97 -17.32 -636.19
15.55 -17.32 -635.95001
16.120001 -17.299999 -635.53003
16.700001 -17.299999 -635.29999
17.27 -17.290001 -634.98999
17.85 -17.280001 -634.79999
18.43 -17.280001 -634.57001
19 -17.27 -634.34003
19.58 -17.27 -634.37
20.16 -17.27 -634.23999
20.74 -17.27 -634.10999
21.309999 -17.26 -633.92999
21.9 -17.26 -633.97998
22.48 -17.26 -634.08002
23.059999 -17.26 -634.02002
23.65 -17.27 -634.09998
24.23 -17.26 -634.07001
24.809999 -17.27 -634.10999
25.389999 -17.27 -634.13
25.98 -17.27 -634.33002
26.57 -17.280001 -634.46002
27.16 -17.280001 -634.70001
27.75 -17.290001 -634.89001
28.35 -17.299999 -635.17999
28.940001 -17.299999 -635.46997
29.540001 -17.309999 -635.78998
30.139999 -17.32 -636.04999
30.74 -17.33 -636.42999
31.34 -17.34 -636.82001
31.950001 -17.35 -637.21002
32.549999 -17.360001 -637.52002
33.139999 -17.370001 -637.71997
33.740002 -17.370001 -637.94
34.34 -17.379999 -638.23999
34.939999 -17.389999 -638.42999
35.529999 -17.389999 -638.62
36.119999 -17.389999 -638.65997
36.720001 -17.4 -638.92999
37.310001 -17.4 -638.92999
37.900002 -17.4 -639.03998
38.5 -17.41 -639.19
39.09 -17.41 -639.29999
39.68 -17.41 -639.39001
40.279999 -17.42 -639.57001
40.869999 -17.42 -639.54999
41.439999 -17.41 -639.37
42.02 -17.41 -639.28998
42.610001 -17.41 -639.29999
43.189999 -17.41 -639.17999
43.779999 -17.41 -639.28003
44.369999 -17.41 -639.28998
44.959999 -17.41 -639.26001
45.549999 -17.41 -639.41998
46.150002 -17.42 -639.54999
46.740002 -17.42 -639.57001
47.32 -17.42 -639.54999
47.900002 -17.42 -639.46002
48.490002 -17.42 -639.51001
49.080002 -17.41 -639.44
49.669998 -17.42 -639.57001
50.279999 -17.42 -639.76001
50.860001 -17.42 -639.76001
51.459999 -17.43 -639.94
52.049999 -17.43 -639.98999
52.650002 -17.43 -640.03003
53.23 -17.43 -640.03998
53.830002 -17.43 -640.13
54.439999 -17.440001 -640.35999
55.040001 -17.450001 -640.59998
55.669998 -17.459999 -641.07001
56.310001 -17.48 -641.60999
56.959999 -17.5 -642.33002
57.619999 -17.52 -643.04999
58.259998 -17.530001 -643.59998
58.900002 -17.549999 -644.14001
59.580002 -17.57 -645.03998
60.299999 -17.610001 -646.44
61.009998 -17.639999 -647.65997
61.73 -17.68 -648.92999
91.120003 -17.16 -629.91998
91.120003 -17.049999 -626
91.510002 -17.01 -624.77002
91.870003 -16.98 -623.35999
92.25 -16.940001 -622.04999
92.699997 -16.92 -621.29999
93.18 -16.9 -620.70001
93.690002 -16.889999 -620.27002
94.239998 -16.889999 -620.17999
94.779999 -16.879999 -619.96002
95.339996 -16.879999 -619.95001
95.93 -16.889999 -620.07001
96.57 -16.9 -620.47998
97.230003 -16.91 -621.08002
97.900002 -16.93 -621.71997
98.580002 -16.950001 -622.40002
99.370003 -16.99 -623.71997
100.13 -17.02 -624.89001
100.97 -17.059999 -626.53003
101.85 -17.120001 -628.38
102.68 -17.16 -629.89001
103.52 -17.200001 -631.45001
104.38 -17.25 -633.15997
105.21 -17.290001 -634.59998
106.05 -17.33 -636.13
106.83 -17.360001 -637.28003
107.64 -17.4 -638.58002
108.47 -17.440001 -640.02002
109.32 -17.48 -641.56
110.18 -17.52 -643.09998
111.17 -17.59 -645.39001
112.11 -17.639999 -647.37
-166.71001 -16.48 -586
-166.03 -16.469999 -585.48999
-165.45 -16.469999 -585.33002
-164.86 -16.459999 -585.15997
-164.28 -16.459999 -585
-163.75999 -16.459999 -585.04999
-163.21001 -16.459999 -585
-162.71001 -16.459999 -585.13
-162.2 -16.459999 -585.20001
-161.69 -16.469999 -585.31
-161.23 -16.469999 -585.58002
-160.82001 -16.49 -586.03998
-160.58 -16.52 -587.12
-160.24001 -16.540001 -587.83002
-159.77 -16.540001 -588.04999
-159.25999 -16.549999 -588.15997
-158.69 -16.540001 -588.04999
-158.19 -16.549999 -588.21997
-157.74001 -16.559999 -588.53998
-157.35001 -16.57 -589.07001
-157.02 -16.6 -589.85999
-156.64999 -16.610001 -590.5
-156.32001 -16.639999 -591.28003
-155.92999 -16.65 -591.83002
-155.46001 -16.66 -592.12
-154.94 -16.66 -592.17999
-154.38 -16.66 -592.12
-153.81 -16.66 -592.01001
-153.33 -16.66 -592.27002
-152.89 -16.68 -592.65002
-152.48 -16.690001 -593.17999
-152.12 -16.709999 -593.85999
-152.10001 -16.83 -598
-151.64999 -16.84 -598.38
-151.14999 -16.85 -598.59003
-150.59 -16.84 -598.56
-150.05 -16.85 -598.58002
-149.5 -16.85 -598.58002
-148.95 -16.85 -598.57001
-148.39 -16.84 -598.53003
-147.84 -16.84 -598.51001
-147.3 -16.84 -598.53998
-146.75 -16.84 -598.56
-146.2 -16.84 -598.53003
-145.66 -16.84 -598.56
-145.09 -16.84 -598.52002
-144.55 -16.84 -598.54999
-144 -16.84 -598.53003
-143.44 -16.84 -598.46997
-142.89 -16.84 -598.48999
-142.36 -16.84 -598.54999
-141.78999 -16.84 -598.48999
-141.24001 -16.84 -598.46997
-140.72 -16.85 -598.59003
-140.2 -16.85 -598.70001
-139.67 -16.85 -598.78003
-139.12 -16.85 -598.78003
-138.60001 -16.85 -598.90002
-138.06 -16.860001 -598.92999
-137.53 -16.860001 -599.03003
-136.98 -16.860001 -599.03003
-136.44 -16.860001 -599.07001
-135.88 -16.860001 -599.03998
-135.31 -16.860001 -598.94
-134.72 -16.85 -598.78003
-134.10001 -16.84 -598.46997
-133.49001 -16.83 -598.20001
-132.88 -16.83 -597.92999
-132.28 -16.82 -597.69
-131.67999 -16.809999 -597.46002
-131.10001 -16.809999 -597.29999
-130.53999 -16.809999 -597.25
-129.95 -16.799999 -597.08002
-124.76 -16.549999 -588.23999
-124.08 -16.530001 -587.56
-123.4 -16.51 -586.90002
-122.74 -16.5 -586.35999
-122.12 -16.48 -585.96997
-121.51 -16.469999 -585.63
-120.91 -16.469999 -585.32001
-120.33 -16.459999 -585.09998
-119.73 -16.450001 -584.79999
-119.14 -16.440001 -584.56
-118.58 -16.440001 -584.42999
-118.01 -16.43 -584.23999
-117.45 -16.43 -584.14001
-116.89 -16.43 -584.03998
-116.32 -16.42 -583.85999
-115.77 -16.42 -583.76001
-115.23 -16.42 -583.75
-114.66 -16.42 -583.59003
-114.12 -16.41 -583.57001
-113.58 -16.41 -583.56
-113.04 -16.41 -583.51001
-112.5 -16.41 -583.47998
-111.96 -16.41 -583.46997
-111.42 -16.41 -583.46002
-110.9 -16.41 -583.52002
-110.36 -16.41 -583.52002
-109.83 -16.41 -583.52002
-109.31 -16.41 -583.59003
-108.78 -16.42 -583.64001
-108.25 -16.42 -583.66998
-107.73 -16.42 -583.73999
-107.22 -16.42 -583.84998
-106.71 -16.43 -584
-106.19 -16.43 -584.08002
-105.68 -16.43 -584.26001
-105.18 -16.440001 -584.42999
-104.66 -16.440001 -584.51001
-104.13 -16.440001 -584.59003
-103.61 -16.450001 -584.67999
-103.08 -16.440001 -584.66998
-102.54 -16.440001 -584.65997
-101.94 -16.43 -584.32001
-101.33 -16.42 -583.88
-100.69 -16.41 -583.32001
-100.06 -16.389999 -582.73999
-99.480003 -16.379999 -582.47998
-98.959999 -16.379999 -582.54999
-98.410004 -16.379999 -582.48999
-97.849998 -16.379999 -582.34003
-97.309998 -16.379999 -582.26001
-96.75 -16.370001 -582.12
-96.220001 -16.370001 -582.13
-95.690002 -16.370001 -582.20001
-95.139999 -16.370001 -582.10999
-94.620003 -16.370001 -582.14001
-94.080002 -16.370001 -582.15997
-93.559998 -16.370001 -582.23999
-93.040001 -16.379999 -582.28998
-92.510002 -16.379999 -582.35999
-92.010002 -16.379999 -582.52002
-91.480003 -16.379999 -582.56
-90.959999 -16.389999 -582.65997
-90.449997 -16.389999 -582.79999
-89.940002 -16.4 -582.98999
-89.419998 -16.4 -583.07001
-88.910004 -16.4 -583.21002
-88.400002 -16.41 -583.38
-87.900002 -16.41 -583.58002
-87.389999 -16.42 -583.76001
-86.879997 -16.42 -583.96002
-86.379997 -16.43 -584.17999
-85.860001 -16.43 -584.28998
-85.349998 -16.440001 -584.46002
-84.849998 -16.440001 -584.69
-84.330002 -16.450001 -584.82001
-83.839996 -16.459999 -585.12
-83.330002 -16.459999 -585.33002
-82.830002 -16.469999 -585.59003
-82.32 -16.469999 -585.79999
-81.830002 -16.48 -586.07001
-81.330002 -16.49 -586.34998
-80.830002 -16.5 -586.63
-80.330002 -16.51 -586.90002
-79.839996 -16.52 -587.27002
-79.339996 -16.52 -587.54999
-78.849998 -16.530001 -587.88
-78.349998 -16.540001 -588.21997
-77.860001 -16.549999 -588.54999
-77.370003 -16.559999 -588.90002
-76.879997 -16.57 -589.32001
-76.389999 -16.58 -589.67999
-75.900002 -16.6 -590.10999
-75.410004 -16.610001 -590.51001
-74.93 -16.620001 -590.96002
-74.440002 -16.629999 -591.35999
-73.970001 -16.65 -591.90002
-73.470001 -16.66 -592.29999
-72.989998 -16.67 -592.78003
-72.510002 -16.690001 -593.26001
-72.029999 -16.700001 -593.78998
-71.540001 -16.709999 -594.26001
-71.07 -16.73 -594.90997
-70.580002 -16.75 -595.37
-70.129997 -16.77 -596.14001
-69.650002 -16.780001 -596.66998
-69.190002 -16.799999 -597.42999
-68.720001 -16.82 -598.08002
-68.269997 -16.85 -598.96997
-67.82 -16.870001 -599.82001
-67.389999 -16.9 -600.91998
-66.959999 -16.93 -601.97998
-66.550003 -16.969999 -603.19
-66.150002 -17.01 -604.62
-61.5 -17.92 -636.39001
-60.98 -17.940001 -637.08002
-60.450001 -17.950001 -637.57001
-59.880001 -17.950001 -637.73999
-59.310001 -17.959999 -637.94
-58.73 -17.959999 -637.98999
-58.150002 -17.959999 -638.07001
-57.580002 -17.969999 -638.25
-57.02 -17.969999 -638.47998
-56.470001 -17.99 -638.88
-55.93 -18 -639.40997
-55.41 -18.02 -640.19
-29.58 -18.4 -653.32001
-28.959999 -18.379999 -652.78998
-28.360001 -18.379999 -652.84998
-27.76 -18.379999 -652.92999
-27.17 -18.389999 -653.03998
-26.58 -18.389999 -653.21002
-25.98 -18.4 -653.34003
-25.389999 -18.4 -653.5
-24.790001 -18.4 -653.56
-24.190001 -18.4 -653.58002
-23.59 -18.4 -653.58002
-23 -18.4 -653.64001
-22.4 -18.41 -653.81
-21.799999 -18.41 -653.84998
-21.209999 -18.41 -653.92999
-20.610001 -18.42 -654.09003
-20.01 -18.42 -654.13
-19.42 -18.43 -654.37
-18.83 -18.43 -654.59003
-18.23 -18.440001 -654.90002
-17.629999 -18.440001 -654.94
-17.030001 -18.440001 -654.95001
-16.42 -18.43 -654.62
-15.81 -18.42 -654.15997
-15.21 -18.42 -654.03003
-14.61 -18.41 -653.91998
-14.01 -18.41 -653.95001
-13.41 -18.42 -654.15002
-12.81 -18.42 -654.34003
-12.22 -18.43 -654.52002
-11.62 -18.440001 -654.81
-11.02 -18.440001 -654.89001
-10.43 -18.450001 -655.20001
-9.8299999 -18.459999 -655.65997
-9.2299995 -18.469999 -655.87
-8.6300001 -18.469999 -656.10999
-8.04 -18.49 -656.46997
-7.4400001 -18.49 -656.75
-6.8400002 -18.51 -657.19
-6.2399998 -18.51 -657.42999
-5.6399999 -18.52 -657.60999
-5.04 -18.530001 -657.88
-4.4299998 -18.52 -657.82001
-3.8299999 -18.530001 -658.01001
-3.23 -18.540001 -658.21997
-2.6199999 -18.540001 -658.57001
-2.02 -18.549999 -658.70001
-1.42 -18.559999 -658.92999
-0.81 -18.559999 -659.03003
-0.20999999 -18.559999 -659.15002
0.40000001 -18.559999 -659.15997
1 -18.559999 -658.97998
1.61 -18.549999 -658.81
2.21 -18.549999 -658.69
2.8199999 -18.549999 -658.70001
3.4200001 -18.549999 -658.72998
4.02 -18.549999 -658.73999
4.6300001 -18.549999 -658.84998
5.2399998 -18.549999 -658.91998
5.8400002 -18.559999 -659.02002
6.4499998 -18.57 -659.52002
7.02 -18.49 -656.59003
7.5300002 -18.25 -648.32001
8.1000004 -18.200001 -646.32001
8.6700001 -18.16 -645.06
9.2399998 -18.110001 -643.46002
9.8199997 -18.09 -642.64001
10.39 -18.059999 -641.70001
10.97 -18.040001 -641
11.54 -18.02 -640.19
12.12 -18 -639.65002
12.69 -17.98 -638.89001
13.27 -17.969999 -638.37
13.84 -17.959999 -637.92999
14.42 -17.950001 -637.56
14.99 -17.93 -637.07001
15.57 -17.92 -636.82001
16.15 -17.91 -636.47998
16.719999 -17.9 -636.04999
17.299999 -17.9 -635.83002
17.879999 -17.889999 -635.73999
18.450001 -17.889999 -635.48999
19.030001 -17.879999 -635.39001
19.610001 -17.879999 -635.15002
20.190001 -17.870001 -635.01001
20.77 -17.870001 -635.06
21.35 -17.870001 -634.96997
21.93 -17.870001 -634.92999
22.51 -17.870001 -634.90997
23.1 -17.870001 -635.03998
23.68 -17.870001 -634.92999
24.26 -17.870001 -635.03003
24.85 -17.870001 -635.03003
25.43 -17.879999 -635.15002
26.02 -17.879999 -635.26001
26.6 -17.879999 -635.25
27.200001 -17.889999 -635.53003
27.790001 -17.9 -635.83002
28.389999 -17.91 -636.20001
28.99 -17.91 -636.46997
29.59 -17.92 -636.75
30.190001 -17.93 -637.07001
30.780001 -17.940001 -637.31
31.389999 -17.950001 -637.75
31.98 -17.959999 -637.92999
32.59 -17.969999 -638.32001
33.189999 -17.969999 -638.56
33.779999 -17.98 -638.71997
34.380001 -17.99 -638.96997
34.970001 -17.99 -639.03998
35.57 -17.99 -639.19
36.16 -17.99 -639.23999
36.75 -18 -639.39001
37.34 -18 -639.45001
37.93 -18 -639.52002
38.529999 -18.01 -639.66998
39.119999 -18.01 -639.71997
39.709999 -18.01 -639.84998
40.310001 -18.02 -639.98999
40.889999 -18.01 -639.94
41.48 -18.01 -639.85999
42.060001 -18.01 -639.78003
42.639999 -18.01 -639.71002
43.23 -18.01 -639.72998
43.810001 -18.01 -639.67999
44.41 -18.01 -639.79999
45 -18.02 -639.92999
45.59 -18.02 -639.94
46.189999 -18.02 -640.08002
46.779999 -18.02 -640.10999
47.369999 -18.02 -640.13
47.950001 -18.02 -640.10999
48.540001 -18.02 -640.15997
49.139999 -18.02 -640.25
49.73 -18.030001 -640.28998
50.330002 -18.030001 -640.40002
50.91 -18.030001 -640.39001
51.5 -18.030001 -640.40997
52.09 -18.030001 -640.40997
52.68 -18.030001 -640.45001
53.279999 -18.030001 -640.54999
53.880001 -18.040001 -640.75
54.5 -18.049999 -641.03998
55.099998 -18.049999 -641.28998
55.75 -18.07 -641.92999
56.41 -18.1 -642.72998
57.049999 -18.110001 -643.31
57.720001 -18.139999 -644.15002
58.369999 -18.16 -644.84003
59.040001 -18.18 -645.62
59.759998 -18.219999 -646.97998
60.459999 -18.25 -648.15997
61.16 -18.280001 -649.21002
91.669998 -17.84 -633.70001
91.910004 -17.780001 -631.40997
91.959999 -17.67 -627.78003
92.220001 -17.620001 -625.71997
92.610001 -17.58 -624.45001
93.050003 -17.549999 -623.59003
93.470001 -17.530001 -622.59003
93.970001 -17.51 -622.09003
94.480003 -17.5 -621.71002
95.019997 -17.5 -621.51001
95.57 -17.49 -621.41998
96.169998 -17.5 -621.58002
96.800003 -17.51 -621.97998
97.440002 -17.52 -622.39001
98.129997 -17.540001 -623.14001
98.839996 -17.57 -623.97998
99.620003 -17.6 -625.28003
100.37 -17.629999 -626.33002
101.28 -17.690001 -628.40002
102.06 -17.73 -629.64001
102.89 -17.77 -631.14001
103.7 -17.809999 -632.56
104.57 -17.860001 -634.25
105.35 -17.889999 -635.45001
106.14 -17.93 -636.70001
106.93 -17.959999 -637.89001
107.74 -18 -639.21002
108.55 -18.040001 -640.5
109.4 -18.08 -642.03003
110.3 -18.129999 -643.79999
111.25 -18.190001 -645.83002
112.19 -18.25 -647.79999
-166.47 -17 -585.15002
-165.88 -16.99 -584.97998
-165.27 -16.98 -584.71997
-164.67999 -16.98 -584.51001
-164.13 -16.98 -584.46002
-163.56 -16.969999 -584.34003
-163.06 -16.98 -584.45001
-162.53999 -16.98 -584.52002
-162.03999 -16.98 -584.63
-161.53999 -16.99 -584.78998
-161.12 -17 -585.17999
-160.74001 -17.02 -585.75
-160.56 -17.049999 -587.03998
-160.13 -17.059999 -587.42999
-159.67 -17.07 -587.69
-159.13 -17.07 -587.71002
-158.56 -17.07 -587.57001
-158.07001 -17.07 -587.76001
-157.64999 -17.09 -588.19
-157.24001 -17.1 -588.66998
-156.94 -17.129999 -589.54999
-156.58 -17.15 -590.23999
-156.25999 -17.17 -591.04999
-155.86 -17.190001 -591.57001
-155.42 -17.200001 -591.96997
-154.87 -17.200001 -591.95001
-154.32001 -17.200001 -591.89001
-153.77 -17.200001 -591.89001
-153.28 -17.200001 -592.08002
-152.82001 -17.209999 -592.37
-152.39 -17.219999 -592.81
-152 -17.24 -593.40997
-151.75 -17.27 -594.53003
-151.92 -17.360001 -597.32001
-151.56 -17.379999 -598.03003
-151.09 -17.389999 -598.34998
-150.56 -17.389999 -598.40997
-150.03 -17.389999 -598.48999
-149.47 -17.389999 -598.46997
-148.92 -17.389999 -598.44
-148.36 -17.389999 -598.40002
-147.82001 -17.389999 -598.45001
-147.25999 -17.389999 -598.39001
-146.72 -17.389999 -598.41998
-146.17 -17.389999 -598.44
-145.61 -17.389999 -598.37
-145.07001 -17.389999 -598.42999
-144.53 -17.389999 -598.44
-143.99001 -17.389999 -598.48999
-143.42999 -17.389999 -598.44
-142.88 -17.389999 -598.44
-142.35001 -17.389999 -598.52002
-141.8 -17.389999 -598.51001
-141.25999 -17.389999 -598.53998
-140.71001 -17.389999 -598.53998
-140.2 -17.4 -598.69
-139.66 -17.4 -598.72998
-139.12 -17.4 -598.81
-138.58 -17.4 -598.82001
-138.03 -17.4 -598.82001
-137.47 -17.4 -598.78003
-136.92 -17.4 -598.76001
-136.33 -17.4 -598.62
-135.75 -17.389999 -598.45001
-135.14 -17.379999 -598.21002
-134.53 -17.370001 -597.92999
-133.97 -17.370001 -597.87
-133.37 -17.370001 -597.65997
-132.75 -17.360001 -597.34003
-132.16 -17.35 -597.14001
-131.55 -17.34 -596.89001
-130.99001 -17.34 -596.83002
-130.42 -17.34 -596.71997
-125.33 -17.09 -588.39001
-124.62 -17.07 -587.59998
-123.93 -17.049999 -586.89001
-123.29 -17.030001 -586.39001
-122.63 -17.02 -585.84998
-122.05 -17.01 -585.59998
-121.43 -17 -585.21002
-120.83 -16.99 -584.91998
-120.23 -16.98 -584.65002
-119.66 -16.98 -584.44
-119.08 -16.969999 -584.23999
-118.52 -16.969999 -584.13
-117.95 -16.959999 -583.95001
-117.39 -16.959999 -583.83002
-116.82 -16.950001 -583.67999
-116.27 -16.950001 -583.58002
-115.7 -16.950001 -583.46002
-115.17 -16.950001 -583.46002
-114.62 -16.940001 -583.37
-114.07 -16.940001 -583.28998
-113.53 -16.940001 -583.26001
-112.99 -16.940001 -583.26001
-112.45 -16.940001 -583.26001
-111.92 -16.940001 -583.26001
-111.37 -16.940001 -583.20001
-110.85 -16.940001 -583.23999
-110.32 -16.940001 -583.28998
-109.79 -16.940001 -583.29999
-109.26 -16.940001 -583.33002
-108.74 -16.940001 -583.41998
-108.22 -16.950001 -583.51001
-107.7 -16.950001 -583.59998
-107.17 -16.950001 -583.60999
-106.66 -16.950001 -583.73999
-106.16 -16.959999 -583.92999
-105.66 -16.969999 -584.12
-105.15 -16.969999 -584.25
-104.63 -16.969999 -584.34003
-104.1 -16.969999 -584.41998
-103.57 -16.969999 -584.41998
-103.01 -16.969999 -584.31
-102.43 -16.959999 -584.03998
-101.76 -16.940001 -583.28998
-101.21 -16.940001 -583.21002
-100.61 -16.93 -582.81
-100.01 -16.92 -582.46002
-99.419998 -16.91 -582.14001
-98.870003 -16.9 -582.04999
-98.32 -16.9 -581.92999
-97.760002 -16.9 -581.78998
-97.239998 -16.9 -581.85999
-96.699997 -16.9 -581.87
-96.160004 -16.9 -581.78998
-95.639999 -16.9 -581.85999
-95.099998 -16.9 -581.87
-94.580002 -16.9 -581.95001
-94.050003 -16.9 -581.92999
-93.529999 -16.9 -582.02002
-93 -16.9 -582.07001
-92.480003 -16.91 -582.16998
-91.970001 -16.91 -582.29999
-91.449997 -16.91 -582.34998
-90.93 -16.92 -582.5
-90.410004 -16.92 -582.54999
-89.919998 -16.92 -582.81
-89.400002 -16.93 -582.91998
-88.879997 -16.93 -583.03998
-88.370003 -16.940001 -583.20001
-87.870003 -16.940001 -583.40002
-87.360001 -16.950001 -583.56
-86.849998 -16.950001 -583.75
-86.339996 -16.959999 -583.90002
-85.830002 -16.959999 -584.12
-85.330002 -16.969999 -584.31
-84.82 -16.969999 -584.5
-84.300003 -16.98 -584.63
-83.809998 -16.99 -584.90002
-83.300003 -16.99 -585.09998
-82.809998 -17 -585.44
-82.290001 -17 -585.58002
-81.790001 -17.01 -585.83002
-81.290001 -17.02 -586.09998
-80.800003 -17.030001 -586.40997
-80.300003 -17.040001 -586.72998
-79.800003 -17.049999 -586.98999
-79.300003 -17.049999 -587.25
-78.82 -17.07 -587.64001
-78.32 -17.08 -587.97998
-77.830002 -17.09 -588.33002
-77.339996 -17.1 -588.66998
-76.860001 -17.110001 -589.12
-76.360001 -17.120001 -589.46002
-75.870003 -17.129999 -589.83002
-75.379997 -17.139999 -590.26001
-74.900002 -17.15 -590.69
-74.400002 -17.17 -591.04999
-73.919998 -17.18 -591.56
-73.43 -17.190001 -591.98999
-72.959999 -17.209999 -592.51001
-72.459999 -17.219999 -592.91998
-71.980003 -17.24 -593.44
-71.5 -17.25 -593.91998
-71.029999 -17.27 -594.53998
-70.550003 -17.280001 -595.12
-70.080002 -17.299999 -595.73999
-69.599998 -17.32 -596.28998
-69.139999 -17.34 -597.03998
-68.68 -17.360001 -597.78003
-68.230003 -17.389999 -598.58002
