# .PCD v0.7 - Point Cloud Data file format
VERSION 0.7
FIELDS x y z
SIZE 4 4 4
TYPE F F F
COUNT 1 1 1
WIDTH 1575
HEIGHT 1
VIEWPOINT 0 0 0 1 0 0 0
POINTS 1575
DATA ascii
-49.560001 -71.57 -625.71997
-49 -71.589996 -625.91998
-48.470001 -71.650002 -626.40002
-47.91 -71.669998 -626.62
-47.330002 -71.669998 -626.57001
-46.759998 -71.68 -626.65997
-46.200001 -71.690002 -626.78998
-45.639999 -71.720001 -627
-45.080002 -71.75 -627.23999
-44.529999 -71.800003 -627.66998
-43.990002 -71.839996 -628.04999
-43.41 -71.839996 -628.09003
-42.84 -71.849998 -628.17999
-42.27 -71.870003 -628.32001
-41.720001 -71.910004 -628.69
-41.169998 -71.949997 -629.01001
-40.619999 -72 -629.40997
-40.07 -72.050003 -629.88
-39.490002 -72.040001 -629.83002
-38.919998 -72.07 -630.02002
-38.360001 -72.089996 -630.25
-37.790001 -72.120003 -630.45001
-37.240002 -72.160004 -630.84003
-36.669998 -72.18 -631.03003
-36.099998 -72.199997 -631.15997
-35.529999 -72.220001 -631.39001
-34.970001 -72.269997 -631.77002
-34.419998 -72.32 -632.23999
-33.860001 -72.360001 -632.57001
-33.299999 -72.419998 -633.03998
-32.73 -72.43 -633.15997
-32.150002 -72.43 -633.15002
-31.58 -72.449997 -633.34998
-31.01 -72.489998 -633.69
-30.450001 -72.529999 -633.98999
-29.870001 -72.550003 -634.21997
-29.32 -72.629997 -634.85999
-28.76 -72.669998 -635.26001
-28.190001 -72.709999 -635.54999
-27.620001 -72.75 -635.90997
-27.059999 -72.800003 -636.39001
-26.5 -72.860001 -636.90997
-25.940001 -72.949997 -637.65002
-25.389999 -73.040001 -638.41998
-24.83 -73.129997 -639.22998
52.220001 -73.449997 -641.87
52.669998 -73.239998 -640.12
53.200001 -73.169998 -639.46002
53.77 -73.139999 -639.27002
54.330002 -73.110001 -639.01001
54.91 -73.099998 -638.89001
55.509998 -73.120003 -639.03998
56.09 -73.110001 -638.98999
56.68 -73.120003 -639.06
57.299999 -73.160004 -639.35999
57.889999 -73.169998 -639.46997
58.52 -73.220001 -639.91998
59.150002 -73.269997 -640.32001
59.77 -73.309998 -640.67999
60.41 -73.370003 -641.21997
61.09 -73.489998 -642.21002
-152.86 -79.610001 -689.26001
-152.28999 -79.639999 -689.57001
-151.78999 -79.709999 -690.16998
-151.3 -79.790001 -690.82001
-150.75 -79.830002 -691.21002
-150.22 -79.879997 -691.65002
-149.69 -79.949997 -692.15997
-149.21001 -80.019997 -692.84003
-148.69 -80.089996 -693.41998
-148.25999 -80.199997 -694.34003
-147.78 -80.290001 -695.09998
-148.3 -80.919998 -700.46997
-147.85001 -81.029999 -701.40997
-147.33 -81.089996 -701.96997
-109.27 -72.919998 -632.15997
-108.64 -72.889999 -631.88
-108.06 -72.889999 -631.90002
-107.34 -72.790001 -631.04999
-106.57 -72.660004 -629.94
-105.9 -72.599998 -629.40997
-105.29 -72.580002 -629.22998
-104.63 -72.519997 -628.71002
-103.9 -72.410004 -627.84003
-103.24 -72.349998 -627.34003
-102.64 -72.330002 -627.15997
-102.02 -72.300003 -626.90002
-101.37 -72.25 -626.46997
-100.76 -72.220001 -626.23999
-100.14 -72.190002 -625.96002
-99.470001 -72.120003 -625.38
-98.769997 -72.029999 -624.59003
-98.019997 -71.900002 -623.46997
-97.25 -71.760002 -622.23999
-96.550003 -71.660004 -621.44
-95.93 -71.620003 -621.09998
-95.290001 -71.57 -620.64001
-94.589996 -71.470001 -619.84003
-93.959999 -71.43 -619.41998
-93.309998 -71.360001 -618.85999
-92.660004 -71.300003 -618.34998
-92.019997 -71.239998 -617.85999
-91.410004 -71.209999 -617.56
-90.790001 -71.169998 -617.26001
-90.209999 -71.150002 -617.10999
-89.599998 -71.120003 -616.84003
-89.019997 -71.110001 -616.73999
-88.440002 -71.099998 -616.63
-87.839996 -71.07 -616.39001
-87.25 -71.050003 -616.27002
-86.669998 -71.040001 -616.15997
-86.089996 -71.019997 -616.02002
-85.519997 -71.019997 -615.98999
-84.940002 -71.010002 -615.88
-84.360001 -71 -615.78003
-83.779999 -70.980003 -615.67999
-83.220001 -70.989998 -615.76001
-82.660004 -70.989998 -615.72998
-82.089996 -70.989998 -615.73999
-81.529999 -71 -615.78998
-80.970001 -70.989998 -615.77002
-80.400002 -70.989998 -615.78998
-79.839996 -71 -615.84003
-79.269997 -71 -615.79999
-78.720001 -71.010002 -615.90997
-78.150002 -71 -615.84998
-77.610001 -71.019997 -616.01001
-77.050003 -71.019997 -616.04999
-76.5 -71.040001 -616.21997
-75.940002 -71.050003 -616.27002
-75.400002 -71.07 -616.44
-74.849998 -71.089996 -616.62
-74.279999 -71.089996 -616.58002
-73.75 -71.110001 -616.82001
-73.190002 -71.120003 -616.87
-72.639999 -71.139999 -617.02002
-72.080002 -71.150002 -617.12
-71.550003 -71.18 -617.35999
-70.989998 -71.18 -617.42999
-70.440002 -71.199997 -617.59003
-69.900002 -71.230003 -617.79999
-69.360001 -71.25 -618.03003
-68.809998 -71.279999 -618.23999
-68.279999 -71.309998 -618.56
-67.75 -71.349998 -618.84998
-67.220001 -71.389999 -619.20001
-66.660004 -71.400002 -619.28003
-66.110001 -71.419998 -619.46997
-65.57 -71.449997 -619.70001
-65.029999 -71.489998 -620.04999
-64.5 -71.529999 -620.41998
-63.990002 -71.589996 -620.90997
-63.439999 -71.610001 -621.09998
-62.880001 -71.620003 -621.19
-62.32 -71.629997 -621.31
-61.779999 -71.669998 -621.63
-61.240002 -71.699997 -621.89001
-60.700001 -71.739998 -622.22998
-60.169998 -71.790001 -622.62
-59.630001 -71.830002 -623.02002
-59.07 -71.839996 -623.08002
-58.490002 -71.830002 -622.96997
-57.93 -71.839996 -623.09003
-57.380001 -71.879997 -623.41998
-56.830002 -71.900002 -623.57001
-56.27 -71.910004 -623.72998
-55.700001 -71.919998 -623.79999
-55.139999 -71.93 -623.90002
-54.59 -71.959999 -624.14001
-54.060001 -72.010002 -624.59003
-53.52 -72.059998 -624.98999
-52.950001 -72.07 -625.07001
-52.360001 -72.050003 -624.90997
-51.790001 -72.050003 -624.94
-51.23 -72.07 -625.08002
-50.66 -72.080002 -625.17999
-50.099998 -72.099998 -625.33002
-49.549999 -72.129997 -625.58002
-49 -72.160004 -625.84998
-48.459999 -72.220001 -626.34998
-47.889999 -72.220001 -626.37
-47.32 -72.230003 -626.44
-46.75 -72.239998 -626.51001
-46.189999 -72.260002 -626.69
-45.630001 -72.279999 -626.87
-45.080002 -72.32 -627.21997
-44.540001 -72.379997 -627.71997
-43.98 -72.410004 -627.96002
-43.400002 -72.410004 -627.96002
-42.830002 -72.419998 -628.07001
-42.279999 -72.449997 -628.34003
-41.720001 -72.480003 -628.63
-41.150002 -72.5 -628.81
-40.619999 -72.589996 -629.53003
-40.060001 -72.610001 -629.69
-39.490002 -72.620003 -629.78003
-38.91 -72.629997 -629.88
-38.349998 -72.660004 -630.17999
-37.799999 -72.709999 -630.54999
-37.240002 -72.739998 -630.79999
-36.66 -72.75 -630.90997
-36.09 -72.760002 -631
-35.529999 -72.790001 -631.29999
-34.970001 -72.839996 -631.65997
-34.41 -72.889999 -632.13
-33.860001 -72.949997 -632.62
-33.290001 -72.970001 -632.83002
-32.720001 -72.989998 -632.96002
-32.139999 -72.989998 -632.97998
-31.57 -73.029999 -633.29999
-31.01 -73.059998 -633.59003
-30.43 -73.07 -633.70001
-29.870001 -73.129997 -634.17999
-29.32 -73.199997 -634.76001
-28.75 -73.220001 -635
-28.18 -73.260002 -635.27002
-27.610001 -73.300003 -635.60999
-27.040001 -73.349998 -636.07001
-26.48 -73.389999 -636.41998
-25.92 -73.459999 -637.02002
-25.360001 -73.550003 -637.76001
-24.809999 -73.660004 -638.69
52.759998 -73.970001 -641.29999
53.25 -73.830002 -640.09003
53.779999 -73.739998 -639.39001
54.360001 -73.730003 -639.28003
54.919998 -73.699997 -639.03003
55.509998 -73.709999 -639.10999
56.110001 -73.720001 -639.15997
56.700001 -73.730003 -639.28998
57.310001 -73.75 -639.46002
57.91 -73.779999 -639.65997
58.529999 -73.809998 -639.94
59.150002 -73.860001 -640.34998
59.779999 -73.910004 -640.78003
60.41 -73.959999 -641.22998
61.099998 -74.080002 -642.26001
-141.57001 -72.809998 -626.25
-140.82001 -72.720001 -625.46997
-140.22 -72.699997 -625.34998
-139.7 -72.730003 -625.58002
-138.59 -72.75 -625.77002
-138.12 -72.809998 -626.23999
-150 -80.400002 -690.64001
-149.59 -80.529999 -691.69
-149.11 -80.610001 -692.40002
-148.67 -80.709999 -693.28998
-148.22 -80.82 -694.15997
-147.78 -80.919998 -695.08002
-148.5 -81.669998 -701.40997
-147.97 -81.739998 -701.96002
-109.8 -73.860001 -635.20001
-108.8 -73.57 -632.76001
-108.05 -73.459999 -631.84003
-107.51 -73.489998 -632.03998
-106.78 -73.379997 -631.16998
-106.04 -73.269997 -630.21997
-105.41 -73.230003 -629.90997
-104.71 -73.150002 -629.21997
-103.96 -73.029999 -628.17999
-103.3 -72.970001 -627.67999
-102.66 -72.919998 -627.27002
-102.07 -72.910004 -627.19
-101.47 -72.900002 -627.04999
-100.82 -72.839996 -626.59003
-100.1 -72.739998 -625.71002
-99.410004 -72.650002 -624.97998
-98.720001 -72.57 -624.28003
-98.019997 -72.470001 -623.46002
-97.239998 -72.32 -622.16998
-96.510002 -72.199997 -621.15997
-95.849998 -72.129997 -620.59998
-95.220001 -72.089996 -620.21997
-94.510002 -71.980003 -619.33002
-93.889999 -71.940002 -618.97998
-93.239998 -71.879997 -618.42999
-92.620003 -71.830002 -618.08002
-91.989998 -71.779999 -617.65002
-91.379997 -71.75 -617.34998
-90.779999 -71.720001 -617.13
-90.18 -71.699997 -616.94
-89.580002 -71.669998 -616.67999
-88.989998 -71.650002 -616.56
-88.400002 -71.629997 -616.35999
-87.809998 -71.610001 -616.17999
-87.209999 -71.580002 -615.96997
-86.620003 -71.57 -615.82001
-86.07 -71.57 -615.89001
-85.489998 -71.559998 -615.81
-84.919998 -71.550003 -615.71997
-84.339996 -71.540001 -615.64001
-83.760002 -71.529999 -615.54999
-83.190002 -71.529999 -615.5
-82.629997 -71.529999 -615.53003
-82.07 -71.540001 -615.58002
-81.510002 -71.540001 -615.58002
-80.949997 -71.550003 -615.65997
-80.389999 -71.550003 -615.70001
-79.82 -71.550003 -615.67999
-79.269997 -71.559998 -615.76001
-78.699997 -71.550003 -615.71997
-78.150002 -71.559998 -615.79999
-77.589996 -71.57 -615.89001
-77.029999 -71.57 -615.89001
-76.480003 -71.580002 -616.01001
-75.919998 -71.599998 -616.13
-75.389999 -71.629997 -616.35999
-74.830002 -71.629997 -616.40002
-74.279999 -71.650002 -616.56
-73.730003 -71.669998 -616.71002
-73.18 -71.669998 -616.78003
-72.629997 -71.690002 -616.91998
-72.07 -71.699997 -617.03003
-71.529999 -71.730003 -617.25
-70.980003 -71.739998 -617.34003
-70.419998 -71.75 -617.45001
-69.879997 -71.769997 -617.62
-69.330002 -71.790001 -617.81
-68.800003 -71.830002 -618.08002
-68.260002 -71.860001 -618.39001
-67.730003 -71.889999 -618.65997
-67.199997 -71.940002 -619.06
-66.660004 -71.970001 -619.29999
-66.099998 -71.980003 -619.40997
-65.550003 -72 -619.57001
-65.010002 -72.029999 -619.84998
-64.480003 -72.07 -620.15002
-63.950001 -72.120003 -620.56
-63.439999 -72.190002 -621.15002
-62.889999 -72.209999 -621.33002
-62.32 -72.199997 -621.28003
-61.77 -72.230003 -621.51001
-61.220001 -72.25 -621.71997
-60.68 -72.290001 -622.07001
-60.139999 -72.330002 -622.34998
-59.619999 -72.389999 -622.88
-59.07 -72.410004 -623.09003
-58.490002 -72.400002 -622.98999
-57.919998 -72.400002 -623.03003
-57.369999 -72.43 -623.23999
-56.810001 -72.449997 -623.39001
-56.25 -72.459999 -623.51001
-55.68 -72.459999 -623.53003
-55.130001 -72.5 -623.84003
-54.580002 -72.519997 -624.02002
-54.040001 -72.559998 -624.37
-53.509998 -72.620003 -624.90002
-52.950001 -72.639999 -625.03003
-52.349998 -72.610001 -624.78998
-51.779999 -72.610001 -624.76001
-51.209999 -72.620003 -624.87
-50.650002 -72.639999 -625.03003
-50.099998 -72.660004 -625.22998
-49.540001 -72.68 -625.40997
-48.990002 -72.720001 -625.76001
-48.450001 -72.779999 -626.21002
-47.880001 -72.779999 -626.22998
-47.310001 -72.779999 -626.25
-46.740002 -72.800003 -626.38
-46.18 -72.82 -626.54999
-45.619999 -72.830002 -626.71002
-45.080002 -72.900002 -627.23999
-44.529999 -72.949997 -627.66998
-43.959999 -72.959999 -627.76001
-43.389999 -72.959999 -627.76001
-42.82 -72.980003 -627.92999
-42.27 -73.010002 -628.19
-41.709999 -73.040001 -628.47998
-41.150002 -73.080002 -628.79999
-40.619999 -73.150002 -629.40002
-40.040001 -73.160004 -629.48999
-39.48 -73.190002 -629.71002
-38.91 -73.190002 -629.78003
-38.360001 -73.25 -630.21997
-37.799999 -73.290001 -630.59998
-37.220001 -73.290001 -630.57001
-36.650002 -73.300003 -630.65002
-36.09 -73.330002 -630.96002
-35.52 -73.360001 -631.21002
-34.970001 -73.410004 -631.65002
-34.41 -73.470001 -632.09998
-33.860001 -73.519997 -632.53998
-33.290001 -73.540001 -632.72998
-32.709999 -73.550003 -632.81
-32.139999 -73.57 -632.96997
-31.57 -73.610001 -633.31
-31 -73.620003 -633.38
-30.43 -73.639999 -633.59003
-29.870001 -73.699997 -634.10999
-29.309999 -73.75 -634.5
-28.73 -73.769997 -634.71997
-28.16 -73.809998 -634.98999
-27.6 -73.860001 -635.47998
-27.040001 -73.910004 -635.84003
-26.469999 -73.949997 -636.19
-25.9 -74.010002 -636.69
-25.34 -74.07 -637.25
-24.790001 -74.18 -638.16998
-24.24 -74.290001 -639.12
52.799999 -74.599998 -641.70001
53.310001 -74.5 -640.78998
53.810001 -74.379997 -639.78003
54.380001 -74.349998 -639.52002
54.950001 -74.330002 -639.37
55.529999 -74.32 -639.27002
56.119999 -74.330002 -639.34003
56.720001 -74.339996 -639.45001
57.310001 -74.349998 -639.52002
57.919998 -74.379997 -639.77002
58.529999 -74.400002 -639.96997
59.139999 -74.43 -640.23999
59.77 -74.480003 -640.65997
60.400002 -74.540001 -641.12
61.080002 -74.650002 -642.04999
-144.42 -73.370003 -626.13
-143.82001 -73.349998 -626.01001
-143.11 -73.290001 -625.44
-142.44 -73.239998 -625.03998
-141.87 -73.239998 -625.02002
-141.25 -73.220001 -624.84998
-140.56 -73.160004 -624.34003
-139.99001 -73.150002 -624.33002
-139.46001 -73.18 -624.53003
-138.91 -73.190002 -624.60999
-138.35001 -73.199997 -624.70001
-137.89 -73.260002 -625.21002
-137.38 -73.290001 -625.48999
-136.86 -73.32 -625.71002
-148.92999 -81.150002 -691.58002
-148.52 -81.269997 -692.60999
-148.08 -81.379997 -693.51001
-147.57001 -81.449997 -694.09998
-109.16 -74.400002 -634.83002
-108.16 -74.120003 -632.46997
-107.5 -74.059998 -631.96997
-106.91 -74.050003 -631.90002
-106.11 -73.900002 -630.64001
-105.47 -73.860001 -630.28003
-104.86 -73.830002 -630.09003
-104.06 -73.68 -628.78003
-103.37 -73.599998 -628.09003
-102.73 -73.550003 -627.70001
-102.12 -73.529999 -627.51001
-101.53 -73.510002 -627.40997
-100.85 -73.440002 -626.79999
-100.05 -73.269997 -625.38
-99.300003 -73.139999 -624.29999
-98.599998 -73.050003 -623.56
-97.889999 -72.949997 -622.65002
-97.169998 -72.839996 -621.71997
-96.480003 -72.75 -621.01001
-95.790001 -72.660004 -620.21997
-95.110001 -72.57 -619.5
-94.459999 -72.510002 -618.95001
-93.830002 -72.459999 -618.57001
-93.199997 -72.410004 -618.15997
-92.580002 -72.370003 -617.83002
-91.970001 -72.330002 -617.51001
-91.360001 -72.300003 -617.25
-90.760002 -72.269997 -617.01001
-90.160004 -72.239998 -616.77002
-89.559998 -72.220001 -616.57001
-88.970001 -72.199997 -616.39001
-88.389999 -72.190002 -616.28003
-87.809998 -72.18 -616.21002
-87.220001 -72.160004 -616.03998
-86.629997 -72.139999 -615.84998
-86.050003 -72.120003 -615.75
-85.470001 -72.110001 -615.65002
-84.889999 -72.099998 -615.56
-84.32 -72.099998 -615.53998
-83.760002 -72.089996 -615.51001
-83.18 -72.080002 -615.41998
-82.620003 -72.089996 -615.45001
-82.050003 -72.080002 -615.42999
-81.489998 -72.080002 -615.44
-80.93 -72.089996 -615.47998
-80.379997 -72.110001 -615.64001
-79.82 -72.110001 -615.64001
-79.260002 -72.110001 -615.65002
-78.690002 -72.110001 -615.63
-78.139999 -72.120003 -615.78003
-77.580002 -72.129997 -615.82001
-77.029999 -72.139999 -615.90997
-76.480003 -72.150002 -616.02002
-75.919998 -72.160004 -616.09003
-75.379997 -72.18 -616.26001
-74.82 -72.190002 -616.34003
-74.269997 -72.209999 -616.48999
-73.730003 -72.230003 -616.66998
-73.169998 -72.239998 -616.75
-72.620003 -72.25 -616.85999
-72.07 -72.269997 -617.02002
-71.529999 -72.290001 -617.17999
-70.980003 -72.309998 -617.35999
-70.43 -72.330002 -617.51001
-69.870003 -72.330002 -617.54999
-69.32 -72.349998 -617.70001
-68.779999 -72.379997 -617.94
-68.239998 -72.410004 -618.19
-67.709999 -72.440002 -618.48999
-67.190002 -72.489998 -618.90997
-66.660004 -72.529999 -619.25
-66.120003 -72.559998 -619.53003
-65.550003 -72.559998 -619.52002
-65 -72.589996 -619.71997
-64.449997 -72.610001 -619.92999
-63.93 -72.660004 -620.34003
-63.400002 -72.709999 -620.78003
-62.880001 -72.769997 -621.26001
-62.32 -72.769997 -621.29999
-61.759998 -72.779999 -621.38
-61.209999 -72.809998 -621.59998
-60.669998 -72.849998 -621.94
-60.130001 -72.879997 -622.22998
-59.599998 -72.93 -622.66998
-59.07 -72.980003 -623.04999
-58.490002 -72.970001 -622.96002
-57.919998 -72.970001 -622.97998
-57.360001 -72.989998 -623.14001
-56.799999 -73 -623.25
-56.23 -73.010002 -623.33002
-55.68 -73.029999 -623.5
-55.110001 -73.040001 -623.59003
-54.57 -73.080002 -623.92999
-54.029999 -73.129997 -624.32001
-53.509998 -73.199997 -624.90002
-52.950001 -73.220001 -625.08002
-52.360001 -73.190002 -624.83002
-51.77 -73.169998 -624.66998
-51.200001 -73.18 -624.73999
-50.639999 -73.190002 -624.89001
-50.09 -73.230003 -625.15997
-49.529999 -73.25 -625.32001
-48.98 -73.290001 -625.65997
-48.439999 -73.339996 -626.07001
-47.869999 -73.339996 -626.14001
-47.290001 -73.339996 -626.09003
-46.73 -73.349998 -626.21002
-46.169998 -73.379997 -626.41998
-45.610001 -73.400002 -626.65997
-45.080002 -73.470001 -627.21002
-44.529999 -73.510002 -627.58002
-43.950001 -73.510002 -627.53998
-43.380001 -73.510002 -627.59998
-42.82 -73.540001 -627.84998
-42.259998 -73.580002 -628.15997
-41.709999 -73.610001 -628.41998
-41.169998 -73.68 -629.03003
-40.599998 -73.709999 -629.21997
-40.029999 -73.720001 -629.29999
-39.48 -73.75 -629.60999
-38.91 -73.779999 -629.84998
-38.369999 -73.849998 -630.40997
-37.790001 -73.849998 -630.44
-37.209999 -73.849998 -630.41998
-36.639999 -73.860001 -630.47998
-36.080002 -73.889999 -630.77002
-35.52 -73.93 -631.12
-34.970001 -73.989998 -631.60999
-34.41 -74.050003 -632.08002
-33.860001 -74.099998 -632.54999
-33.279999 -74.110001 -632.64001
-32.709999 -74.129997 -632.81
-32.139999 -74.150002 -633
-31.57 -74.190002 -633.28003
-31 -74.199997 -633.34998
-30.43 -74.239998 -633.70001
-29.870001 -74.279999 -634.06
-29.299999 -74.309998 -634.32001
-28.719999 -74.330002 -634.51001
-28.16 -74.389999 -635.01001
-27.59 -74.419998 -635.28003
-27.030001 -74.459999 -635.60999
-26.450001 -74.489998 -635.84998
-25.889999 -74.550003 -636.37
-25.33 -74.610001 -636.84003
-24.77 -74.709999 -637.69
-24.209999 -74.779999 -638.28998
-23.66 -74.870003 -639.08002
52.830002 -75.230003 -642.02002
53.360001 -75.150002 -641.34003
53.860001 -75.029999 -640.34003
54.419998 -74.989998 -639.98999
54.970001 -74.940002 -639.57001
55.549999 -74.93 -639.46997
56.139999 -74.93 -639.48999
56.720001 -74.93 -639.47998
57.330002 -74.959999 -639.71002
57.93 -74.980003 -639.87
58.549999 -75.010002 -640.16998
59.150002 -75.040001 -640.37
59.779999 -75.080002 -640.72998
60.41 -75.129997 -641.17999
61.07 -75.220001 -641.90997
61.740002 -75.32 -642.72998
-144.77 -73.830002 -625.20001
-144.14 -73.800003 -624.92999
-143.55 -73.790001 -624.85999
-142.81 -73.699997 -624.14001
-142.19 -73.68 -623.96002
-141.62 -73.68 -623.94
-141.02 -73.669998 -623.84003
-140.41 -73.650002 -623.66998
-139.84 -73.650002 -623.70001
-139.3 -73.669998 -623.81
-138.71001 -73.660004 -623.75
-138.19 -73.68 -623.96997
-137.71001 -73.739998 -624.40997
-137.16 -73.75 -624.48999
-136.64 -73.779999 -624.72998
-136.16 -73.830002 -625.15002
-135.77 -73.93 -625.98999
-109.25 -75.040001 -635.34003
-108.5 -74.93 -634.40997
-107.55 -74.669998 -632.28003
-106.89 -74.620003 -631.84003
-106.16 -74.510002 -630.92999
-105.48 -74.440002 -630.32001
-104.91 -74.449997 -630.40997
-104.24 -74.379997 -629.85999
-103.48 -74.25 -628.77002
-102.77 -74.150002 -627.94
-102.17 -74.139999 -627.81
-101.55 -74.110001 -627.53998
-100.86 -74.019997 -626.84003
-99.970001 -73.790001 -624.94
-99.279999 -73.699997 -624.19
-98.559998 -73.589996 -623.27002
-97.82 -73.459999 -622.21002
-97.080002 -73.339996 -621.15002
-96.419998 -73.269997 -620.60999
-95.760002 -73.199997 -620.01001
-95.059998 -73.099998 -619.20001
-94.400002 -73.029999 -618.57001
-93.75 -72.959999 -618.03003
-93.129997 -72.919998 -617.67999
-92.519997 -72.889999 -617.40002
-91.919998 -72.860001 -617.21002
-91.32 -72.839996 -617
-90.739998 -72.82 -616.85999
-90.139999 -72.800003 -616.66998
-89.540001 -72.769997 -616.42999
-88.949997 -72.75 -616.23999
-88.349998 -72.720001 -616.03998
-87.769997 -72.709999 -615.94
-87.199997 -72.709999 -615.90002
-86.629997 -72.699997 -615.84998
-86.029999 -72.669998 -615.58002
-85.449997 -72.650002 -615.46997
-84.870003 -72.639999 -615.38
-84.309998 -72.650002 -615.44
-83.75 -72.650002 -615.42999
-83.18 -72.650002 -615.44
-82.610001 -72.639999 -615.39001
-82.029999 -72.629997 -615.27002
-81.480003 -72.639999 -615.40002
-80.910004 -72.639999 -615.37
-80.349998 -72.639999 -615.35999
-79.800003 -72.650002 -615.46002
-79.239998 -72.660004 -615.5
-78.68 -72.660004 -615.57001
-78.110001 -72.660004 -615.56
-77.57 -72.68 -615.69
-77.019997 -72.699997 -615.84998
-76.459999 -72.699997 -615.88
-75.900002 -72.699997 -615.90997
-75.360001 -72.730003 -616.15002
-74.809998 -72.739998 -616.25
-74.260002 -72.760002 -616.35999
-73.709999 -72.779999 -616.53003
-73.169998 -72.800003 -616.72998
-72.620003 -72.82 -616.88
-72.059998 -72.82 -616.90997
-71.510002 -72.839996 -617.04999
-70.959999 -72.849998 -617.15002
-70.419998 -72.879997 -617.45001
-69.870003 -72.900002 -617.58002
-69.309998 -72.910004 -617.65002
-68.760002 -72.93 -617.78998
-68.220001 -72.949997 -618.02002
-67.690002 -72.989998 -618.33002
-67.160004 -73.029999 -618.64001
-66.629997 -73.07 -619.01001
-66.099998 -73.120003 -619.40997
-65.550003 -73.129997 -619.52002
-64.989998 -73.139999 -619.62
-64.449997 -73.18 -619.90002
-63.91 -73.199997 -620.14001
-63.380001 -73.25 -620.51001
-62.869999 -73.32 -621.09998
-62.32 -73.339996 -621.29999
-61.75 -73.349998 -621.33002
-61.189999 -73.360001 -621.44
-60.66 -73.400002 -621.78998
-60.110001 -73.43 -622.03003
-59.580002 -73.480003 -622.42999
-59.049999 -73.540001 -622.91998
-58.5 -73.559998 -623.15997
-57.91 -73.540001 -622.91998
-57.349998 -73.559998 -623.09003
-56.779999 -73.550003 -623.07001
-56.23 -73.580002 -623.27002
-55.66 -73.589996 -623.35999
-55.110001 -73.610001 -623.57001
-54.560001 -73.639999 -623.81
-54.02 -73.690002 -624.22998
-53.5 -73.760002 -624.81
-52.939999 -73.779999 -624.98999
-52.349998 -73.75 -624.75
-51.759998 -73.730003 -624.53003
-51.189999 -73.730003 -624.54999
-50.630001 -73.75 -624.76001
-50.07 -73.779999 -624.94
-49.52 -73.800003 -625.16998
-48.970001 -73.849998 -625.53998
-48.43 -73.889999 -625.89001
-47.860001 -73.889999 -625.92999
-47.279999 -73.889999 -625.95001
-46.709999 -73.900002 -626
-46.16 -73.93 -626.26001
-45.599998 -73.970001 -626.54999
-45.080002 -74.050003 -627.25
-44.509998 -74.07 -627.39001
-43.939999 -74.07 -627.40002
-43.369999 -74.07 -627.41998
-42.799999 -74.089996 -627.62
-42.25 -74.139999 -627.96997
-41.709999 -74.199997 -628.51001
-41.16 -74.25 -628.96002
-40.59 -74.260002 -628.98999
-40.029999 -74.290001 -629.27002
-39.470001 -74.330002 -629.57001
-38.919998 -74.379997 -629.98999
-38.360001 -74.410004 -630.31
-37.77 -74.389999 -630.15002
-37.200001 -74.389999 -630.13
-36.630001 -74.43 -630.40997
-36.07 -74.459999 -630.65997
-35.509998 -74.5 -631.03998
-34.959999 -74.559998 -631.56
-34.41 -74.620003 -632.01001
-33.849998 -74.660004 -632.39001
-33.279999 -74.68 -632.53998
-32.709999 -74.709999 -632.79999
-32.150002 -74.75 -633.16998
-31.57 -74.75 -633.12
-30.99 -74.769997 -633.33002
-30.440001 -74.830002 -633.78998
-29.860001 -74.849998 -634
-29.290001 -74.870003 -634.13
-28.719999 -74.900002 -634.39001
-28.16 -74.959999 -634.84998
-27.59 -74.989998 -635.13
-27.01 -75.019997 -635.37
-26.450001 -75.07 -635.77002
-25.879999 -75.110001 -636.14001
-25.309999 -75.160004 -636.56
-24.76 -75.25 -637.31
-24.200001 -75.330002 -637.95001
-23.629999 -75.389999 -638.48999
-23.07 -75.470001 -639.15002
-22.52 -75.589996 -640.14001
53.419998 -75.830002 -642.06
53.889999 -75.660004 -640.69
54.43 -75.599998 -640.14001
55.009998 -75.580002 -640.03998
55.57 -75.550003 -639.71997
56.16 -75.559998 -639.79999
56.75 -75.550003 -639.76001
57.349998 -75.57 -639.88
57.939999 -75.580002 -639.98999
58.549999 -75.599998 -640.15997
59.16 -75.639999 -640.46997
59.779999 -75.68 -640.81
60.400002 -75.720001 -641.15997
61.049999 -75.790001 -641.75
61.720001 -75.889999 -642.53998
-145.97 -74.43 -625.39001
-145.27 -74.370003 -624.88
-144.56 -74.290001 -624.28003
-143.95 -74.269997 -624.10999
-143.31 -74.239998 -623.84998
-142.69 -74.209999 -623.62
-142.05 -74.18 -623.32001
-141.5 -74.190002 -623.41998
-140.87 -74.160004 -623.17999
-140.25999 -74.139999 -623.03003
-139.72 -74.150002 -623.13
-139.14 -74.150002 -623.09998
-138.58 -74.160004 -623.17999
-138.07001 -74.190002 -623.44
-137.57001 -74.230003 -623.73999
-137 -74.230003 -623.76001
-136.49001 -74.269997 -624.06
-136.02 -74.330002 -624.53998
-135.57001 -74.389999 -625.09003
-135.02 -74.400002 -625.16998
-134.47 -74.419998 -625.32001
-134.03 -74.489998 -625.92999
-133.64999 -74.599998 -626.81
-108.68 -75.639999 -635.45001
-107.95 -75.529999 -634.58002
-106.95 -75.239998 -632.15997
-106.19 -75.110001 -631.12
-105.46 -75 -630.21002
-104.94 -75.050003 -630.58002
-104.36 -75.050003 -630.58002
-103.65 -74.949997 -629.75
-102.86 -74.800003 -628.52002
-102.24 -74.769997 -628.26001
-101.6 -74.720001 -627.88
-100.83 -74.580002 -626.67999
-99.959999 -74.360001 -624.84003
-99.269997 -74.269997 -624.10999
-98.480003 -74.099998 -622.76001
-97.720001 -73.959999 -621.60999
-96.980003 -73.830002 -620.53998
-96.339996 -73.779999 -620.08002
-95.68 -73.709999 -619.52002
-95.029999 -73.639999 -618.96002
-94.349998 -73.559998 -618.25
-93.720001 -73.510002 -617.84003
-93.089996 -73.459999 -617.46002
-92.480003 -73.43 -617.17999
-91.879997 -73.400002 -616.95001
-91.279999 -73.370003 -616.73999
-90.709999 -73.360001 -616.65002
-90.129997 -73.360001 -616.60999
-89.529999 -73.330002 -616.34003
-88.93 -73.300003 -616.15002
-88.32 -73.260002 -615.79999
-87.739998 -73.25 -615.70001
-87.160004 -73.239998 -615.62
-86.599998 -73.239998 -615.65997
-86.040001 -73.25 -615.69
-85.459999 -73.230003 -615.57001
-84.870003 -73.209999 -615.37
-84.290001 -73.199997 -615.28003
-83.730003 -73.199997 -615.29999
-83.160004 -73.199997 -615.29999
-82.620003 -73.209999 -615.42999
-82.050003 -73.209999 -615.44
-81.459999 -73.190002 -615.27002
-80.900002 -73.190002 -615.27002
-80.339996 -73.199997 -615.34003
-79.790001 -73.209999 -615.38
-79.220001 -73.199997 -615.35999
-78.669998 -73.220001 -615.46997
-78.129997 -73.239998 -615.65002
-77.559998 -73.239998 -615.65997
-77 -73.239998 -615.71002
-76.459999 -73.269997 -615.90997
-75.910004 -73.279999 -615.96997
-75.349998 -73.279999 -616.03998
-74.790001 -73.290001 -616.09003
-74.25 -73.309998 -616.28003
-73.699997 -73.330002 -616.42999
-73.150002 -73.339996 -616.53003
-72.610001 -73.379997 -616.81
-72.050003 -73.379997 -616.83002
-71.510002 -73.400002 -617
-70.949997 -73.400002 -617.04999
-70.400002 -73.43 -617.26001
-69.870003 -73.470001 -617.58002
-69.32 -73.480003 -617.69
-68.760002 -73.489998 -617.72998
-68.209999 -73.5 -617.88
-67.669998 -73.540001 -618.15002
-67.150002 -73.580002 -618.56
-66.610001 -73.620003 -618.85999
-66.089996 -73.669998 -619.26001
-65.550003 -73.699997 -619.54999
-64.989998 -73.720001 -619.65997
-64.440002 -73.730003 -619.76001
-63.880001 -73.75 -619.91998
-63.349998 -73.790001 -620.28003
-62.84 -73.860001 -620.83002
-62.32 -73.919998 -621.34998
-61.759998 -73.919998 -621.39001
-61.189999 -73.93 -621.44
-60.650002 -73.959999 -621.72998
-60.099998 -73.989998 -621.95001
-59.560001 -74.029999 -622.23999
-59.040001 -74.099998 -622.82001
-58.5 -74.129997 -623.09998
-57.919998 -74.120003 -622.98999
-57.34 -74.110001 -622.96002
-56.779999 -74.120003 -623.03998
-56.220001 -74.139999 -623.19
-55.650002 -74.139999 -623.22998
-55.099998 -74.169998 -623.45001
-54.540001 -74.190002 -623.60999
-54.02 -74.25 -624.13
-53.490002 -74.32 -624.70001
-52.93 -74.339996 -624.88
-52.34 -74.32 -624.66998
-51.75 -74.290001 -624.44
-51.189999 -74.300003 -624.53998
-50.619999 -74.32 -624.67999
-50.07 -74.339996 -624.85999
-49.509998 -74.370003 -625.08002
-48.970001 -74.410004 -625.46002
-48.41 -74.440002 -625.71997
-47.849998 -74.459999 -625.84003
-47.27 -74.449997 -625.78998
-46.700001 -74.459999 -625.88
-46.150002 -74.489998 -626.15997
-45.610001 -74.559998 -626.67999
-45.080002 -74.620003 -627.19
-44.5 -74.620003 -627.21997
-43.93 -74.629997 -627.31
-43.360001 -74.639999 -627.34998
-42.799999 -74.669998 -627.58002
-42.25 -74.709999 -627.98999
-41.709999 -74.779999 -628.54999
-41.150002 -74.809998 -628.79999
-40.580002 -74.82 -628.90997
-40.02 -74.849998 -629.15997
-39.470001 -74.900002 -629.5
-38.919998 -74.949997 -629.97998
-38.34 -74.949997 -629.91998
-37.75 -74.93 -629.79999
-37.189999 -74.959999 -630.03998
-36.630001 -75 -630.34998
-36.07 -75.040001 -630.71002
-35.509998 -75.080002 -631.03998
-34.959999 -75.139999 -631.53998
-34.400002 -75.190002 -631.94
-33.849998 -75.239998 -632.35999
-33.279999 -75.260002 -632.57001
-32.720001 -75.300003 -632.89001
-32.139999 -75.32 -633.07001
-31.57 -75.330002 -633.15002
-31 -75.370003 -633.45001
-30.43 -75.400002 -633.69
-29.860001 -75.419998 -633.84998
-29.290001 -75.449997 -634.12
-28.73 -75.510002 -634.59003
-28.15 -75.519997 -634.72998
-27.58 -75.550003 -634.94
-27.01 -75.589996 -635.26001
-26.450001 -75.639999 -635.71997
-25.879999 -75.68 -636.03003
-25.299999 -75.709999 -636.31
-24.75 -75.809998 -637.09003
-24.190001 -75.870003 -637.62
-23.620001 -75.919998 -637.98999
-23.049999 -75.980003 -638.52002
-22.49 -76.080002 -639.32001
-21.940001 -76.199997 -640.31
53.470001 -76.489998 -642.70001
53.939999 -76.32 -641.27002
54.470001 -76.230003 -640.53998
55.02 -76.190002 -640.19
55.59 -76.160004 -639.90997
56.169998 -76.160004 -639.91998
56.759998 -76.150002 -639.87
57.349998 -76.160004 -639.92999
57.950001 -76.169998 -640.03998
58.549999 -76.190002 -640.21997
59.16 -76.220001 -640.42999
59.779999 -76.260002 -640.78998
60.41 -76.309998 -641.19
61.049999 -76.379997 -641.72998
61.720001 -76.470001 -642.52002
-147.07001 -74.980003 -625.20001
-146.44 -74.949997 -624.96997
-145.72 -74.870003 -624.33002
-145.03999 -74.82 -623.90002
-144.39999 -74.779999 -623.59998
-143.81 -74.769997 -623.52002
-143.17 -74.739998 -623.25
-142.50999 -74.690002 -622.85999
-141.92999 -74.690002 -622.82001
-141.35001 -74.690002 -622.78998
-140.73 -74.660004 -622.56
-140.14 -74.650002 -622.46997
-139.59 -74.660004 -622.56
-139.05 -74.669998 -622.70001
-138.49001 -74.68 -622.77002
-137.97 -74.709999 -623
-137.42999 -74.730003 -623.15997
-136.88 -74.739998 -623.22998
-136.38 -74.779999 -623.57001
-135.89999 -74.830002 -624
-135.39 -74.860001 -624.26001
-134.84 -74.879997 -624.38
-134.33 -74.910004 -624.66998
-133.88 -74.980003 -625.21997
-133.46001 -75.07 -625.91998
-132.32001 -75.07 -625.95001
-131.88 -75.150002 -626.62
-108.11 -76.230003 -635.53003
-107.33 -76.089996 -634.39001
-106.24 -75.730003 -631.40997
-105.43 -75.559998 -630.03998
-104.95 -75.639999 -630.65002
-104.43 -75.669998 -630.96002
-103.79 -75.629997 -630.62
-102.98 -75.459999 -629.21997
-102.31 -75.389999 -628.65997
-101.62 -75.309998 -627.96002
-100.72 -75.07 -626
-99.870003 -74.860001 -624.31
-99.139999 -74.739998 -623.29999
-98.470001 -74.669998 -622.71002
-97.690002 -74.510002 -621.41998
-96.910004 -74.349998 -620.06
-96.25 -74.279999 -619.52002
-95.599998 -74.209999 -618.96997
-94.980003 -74.169998 -618.65997
-94.32 -74.099998 -618.07001
-93.690002 -74.050003 -617.65997
-93.050003 -74 -617.21002
-92.449997 -73.970001 -616.94
-91.849998 -73.940002 -616.73999
-91.239998 -73.910004 -616.46997
-90.669998 -73.900002 -616.42999
-90.099998 -73.900002 -616.38
-89.510002 -73.879997 -616.21997
-88.910004 -73.849998 -616.01001
-88.309998 -73.82 -615.76001
-87.720001 -73.790001 -615.54999
-87.129997 -73.779999 -615.41998
-86.559998 -73.769997 -615.38
-86.010002 -73.779999 -615.45001
-85.449997 -73.790001 -615.5
-84.879997 -73.779999 -615.42999
-84.279999 -73.760002 -615.23999
-83.709999 -73.75 -615.20001
-83.150002 -73.75 -615.22998
-82.589996 -73.75 -615.21997
-82.029999 -73.760002 -615.27002
-81.459999 -73.75 -615.20001
-80.889999 -73.75 -615.16998
-80.32 -73.75 -615.17999
-79.769997 -73.75 -615.22998
-79.209999 -73.760002 -615.28003
-78.650002 -73.760002 -615.34003
-78.089996 -73.769997 -615.34003
-77.529999 -73.779999 -615.44
-76.989998 -73.800003 -615.64001
-76.449997 -73.82 -615.78003
-75.889999 -73.830002 -615.84998
-75.339996 -73.839996 -615.96997
-74.779999 -73.849998 -616.03998
-74.220001 -73.849998 -616.08002
-73.68 -73.870003 -616.23999
-73.129997 -73.889999 -616.41998
-72.589996 -73.919998 -616.63
-72.050003 -73.940002 -616.82001
-71.489998 -73.949997 -616.87
-70.93 -73.959999 -616.94
-70.400002 -73.989998 -617.22998
-69.849998 -74.010002 -617.38
-69.32 -74.050003 -617.73999
-68.760002 -74.059998 -617.77002
-68.199997 -74.059998 -617.79999
-67.650002 -74.089996 -618.01001
-67.120003 -74.120003 -618.28998
-66.599998 -74.169998 -618.71002
-66.07 -74.220001 -619.10999
-65.550003 -74.269997 -619.53998
-65 -74.290001 -619.70001
-64.43 -74.290001 -619.71002
-63.880001 -74.309998 -619.84998
-63.34 -74.339996 -620.15002
-62.82 -74.400002 -620.59998
-62.299999 -74.459999 -621.10999
-61.77 -74.510002 -621.48999
-61.200001 -74.510002 -621.53998
-60.650002 -74.540001 -621.75
-60.09 -74.550003 -621.84998
-59.549999 -74.580002 -622.14001
-59.029999 -74.639999 -622.62
-58.490002 -74.690002 -622.98999
-57.919998 -74.690002 -622.98999
-57.34 -74.68 -622.95001
-56.77 -74.68 -622.92999
-56.200001 -74.690002 -622.98999
-55.639999 -74.699997 -623.06
-55.080002 -74.720001 -623.25
-54.529999 -74.75 -623.52002
-54 -74.800003 -623.95001
-53.490002 -74.879997 -624.62
-52.93 -74.910004 -624.82001
-52.330002 -74.870003 -624.53998
-51.740002 -74.849998 -624.34998
-51.169998 -74.860001 -624.40002
-50.610001 -74.870003 -624.51001
-50.060001 -74.900002 -624.75
-49.5 -74.919998 -624.90997
-48.950001 -74.959999 -625.27002
-48.400002 -75 -625.60999
-47.84 -75.019997 -625.71002
-47.259998 -75.010002 -625.63
-46.700001 -75.019997 -625.77002
-46.150002 -75.07 -626.20001
-45.619999 -75.139999 -626.71997
-45.07 -75.18 -627.07001
-44.490002 -75.169998 -627.03003
-43.919998 -75.18 -627.09998
-43.349998 -75.199997 -627.21997
-42.799999 -75.230003 -627.53003
-42.259998 -75.290001 -628.02002
-41.709999 -75.360001 -628.53003
-41.139999 -75.360001 -628.57001
-40.580002 -75.389999 -628.79999
-40.02 -75.419998 -629.08002
-39.470001 -75.470001 -629.45001
-38.900002 -75.489998 -629.60999
-38.310001 -75.470001 -629.46997
-37.740002 -75.489998 -629.63
-37.18 -75.519997 -629.87
-36.619999 -75.540001 -630.09998
-36.060001 -75.589996 -630.44
-35.509998 -75.650002 -630.96997
-34.959999 -75.720001 -631.54999
-34.41 -75.769997 -631.96002
-33.84 -75.809998 -632.26001
-33.279999 -75.849998 -632.65002
-32.720001 -75.900002 -633.01001
-32.150002 -75.910004 -633.09998
-31.57 -75.93 -633.27002
-31 -75.959999 -633.53003
-30.43 -75.970001 -633.60999
-29.85 -75.989998 -633.78003
-29.290001 -76.040001 -634.20001
-28.719999 -76.080002 -634.47998
-28.15 -76.089996 -634.59003
-27.57 -76.120003 -634.83002
-27.01 -76.160004 -635.21002
-26.440001 -76.199997 -635.47998
-25.870001 -76.239998 -635.85999
-25.299999 -76.290001 -636.23999
-24.75 -76.379997 -636.94
-24.17 -76.400002 -637.15997
-23.6 -76.449997 -637.58002
-23.040001 -76.519997 -638.13
-22.469999 -76.599998 -638.82001
-21.91 -76.68 -639.45001
-21.35 -76.790001 -640.33002
54.009998 -77.010002 -642.09003
54.509998 -76.889999 -641.08002
55.049999 -76.809998 -640.45001
55.610001 -76.779999 -640.20001
56.18 -76.75 -639.97998
56.77 -76.760002 -640.03998
57.369999 -76.769997 -640.10999
57.959999 -76.779999 -640.20001
58.57 -76.809998 -640.40997
59.18 -76.830002 -640.63
59.790001 -76.860001 -640.88
60.400002 -76.889999 -641.12
61.029999 -76.949997 -641.58002
61.689999 -77.040001 -642.31
-149.86 -75.800003 -627.27002
-148.37 -75.629997 -625.84003
-147.67 -75.57 -625.33002
-146.91 -75.470001 -624.54999
-146.25999 -75.43 -624.20001
-145.56 -75.360001 -623.66998
-144.89 -75.309998 -623.26001
-144.25 -75.279999 -622.96997
-143.67 -75.269997 -622.91998
-143 -75.220001 -622.48999
-142.39 -75.199997 -622.34003
-141.81 -75.199997 -622.28998
-141.23 -75.190002 -622.28003
-140.61 -75.169998 -622.06
-140.03 -75.160004 -622
-139.49001 -75.18 -622.12
-138.94 -75.190002 -622.22998
-138.41 -75.209999 -622.40997
-137.89 -75.239998 -622.63
-137.32001 -75.239998 -622.65002
-136.78 -75.260002 -622.81
-136.28999 -75.300003 -623.15997
-135.78 -75.330002 -623.41998
-135.25999 -75.360001 -623.66998
-134.73 -75.389999 -623.84998
-134.21001 -75.419998 -624.13
-133.75 -75.480003 -624.63
-133.23 -75.510002 -624.85999
-132.67 -75.519997 -624.90997
-132.14999 -75.550003 -625.15997
-131.67999 -75.610001 -625.65997
-131.23 -75.68 -626.27002
-107.5 -76.790001 -635.34998
-106.55 -76.529999 -633.20001
-105.44 -76.150002 -630.09998
-104.93 -76.199997 -630.48999
-104.43 -76.260002 -631
-103.87 -76.269997 -631.12
-103.14 -76.160004 -630.21002
-102.4 -76.040001 -629.19
-101.62 -75.889999 -628
-100.62 -75.57 -625.38
-99.830002 -75.400002 -624.02002
-99.010002 -75.220001 -622.51001
-98.339996 -75.139999 -621.92999
-97.690002 -75.080002 -621.39001
-96.93 -74.93 -620.20001
-96.199997 -74.809998 -619.21997
-95.519997 -74.720001 -618.51001
-94.919998 -74.699997 -618.28003
-94.290001 -74.650002 -617.89001
-93.68 -74.610001 -617.59003
-93.029999 -74.550003 -617.08002
-92.419998 -74.510002 -616.73999
-91.82 -74.480003 -616.56
-91.230003 -74.459999 -616.39001
-90.639999 -74.440002 -616.22998
-90.059998 -74.43 -616.10999
-89.480003 -74.410004 -616
-88.879997 -74.389999 -615.78003
-88.300003 -74.370003 -615.65002
-87.730003 -74.370003 -615.60999
-87.129997 -74.339996 -615.41998
-86.559998 -74.339996 -615.35999
-85.989998 -74.330002 -615.28998
-85.410004 -74.32 -615.20001
-84.860001 -74.330002 -615.34003
-84.309998 -74.339996 -615.40997
-83.730003 -74.330002 -615.31
-83.160004 -74.32 -615.28003
-82.589996 -74.32 -615.21997
-82.019997 -74.309998 -615.19
-81.470001 -74.330002 -615.31
-80.910004 -74.330002 -615.32001
-80.32 -74.309998 -615.14001
-79.760002 -74.309998 -615.17999
-79.199997 -74.309998 -615.20001
-78.650002 -74.32 -615.29999
-78.099998 -74.339996 -615.41998
-77.540001 -74.339996 -615.45001
-76.989998 -74.360001 -615.62
-76.440002 -74.370003 -615.71997
-75.889999 -74.389999 -615.82001
-75.339996 -74.400002 -615.94
-74.790001 -74.419998 -616.12
-74.239998 -74.43 -616.17999
-73.68 -74.440002 -616.26001
-73.129997 -74.449997 -616.37
-72.57 -74.459999 -616.44
-72.029999 -74.489998 -616.65002
-71.489998 -74.510002 -616.87
-70.93 -74.519997 -616.90002
-70.389999 -74.550003 -617.15002
-69.839996 -74.57 -617.31
-69.300003 -74.589996 -617.51001
-68.760002 -74.620003 -617.73999
-68.199997 -74.629997 -617.81
-67.660004 -74.660004 -618.04999
-67.110001 -74.68 -618.21002
-66.580002 -74.720001 -618.59003
-66.059998 -74.769997 -618.95001
-65.529999 -74.82 -619.39001
-65 -74.860001 -619.67999
-64.43 -74.849998 -619.66998
-63.880001 -74.879997 -619.85999
-63.330002 -74.910004 -620.09003
-62.799999 -74.940002 -620.40002
-62.279999 -75.010002 -620.95001
-61.77 -75.07 -621.46997
-61.200001 -75.080002 -621.54999
-60.650002 -75.110001 -621.72998
-60.099998 -75.120003 -621.88
-59.549999 -75.160004 -622.14001
-59.02 -75.209999 -622.57001
-58.48 -75.25 -622.90997
-57.93 -75.279999 -623.13
-57.330002 -75.239998 -622.83002
-56.759998 -75.239998 -622.85999
-56.200001 -75.25 -622.94
-55.639999 -75.269997 -623.09998
-55.080002 -75.290001 -623.22998
-54.52 -75.300003 -623.35999
-54 -75.370003 -623.90002
-53.48 -75.440002 -624.5
-52.919998 -75.470001 -624.73999
-52.32 -75.43 -624.42999
-51.73 -75.410004 -624.22998
-51.16 -75.410004 -624.27002
-50.610001 -75.43 -624.44
-50.049999 -75.459999 -624.64001
-49.490002 -75.489998 -624.85999
-48.950001 -75.529999 -625.21997
-48.400002 -75.559998 -625.51001
-47.830002 -75.57 -625.56
-47.259998 -75.580002 -625.62
-46.689999 -75.589996 -625.75
-46.150002 -75.639999 -626.15002
-45.610001 -75.699997 -626.65997
-45.060001 -75.739998 -626.91998
-44.48 -75.730003 -626.88
-43.91 -75.739998 -626.90997
-43.34 -75.760002 -627.09998
-42.799999 -75.82 -627.57001
-42.27 -75.900002 -628.22998
-41.700001 -75.910004 -628.34998
-41.130001 -75.910004 -628.37
-40.57 -75.949997 -628.65002
-40.009998 -75.989998 -628.97998
-39.459999 -76.029999 -629.29999
-38.880001 -76.029999 -629.35999
-38.299999 -76.029999 -629.28998
-37.73 -76.050003 -629.47998
-37.169998 -76.07 -629.67999
-36.610001 -76.110001 -630.01001
-36.060001 -76.169998 -630.47998
-35.509998 -76.230003 -630.98999
-34.959999 -76.290001 -631.5
-34.41 -76.349998 -631.98999
-33.849998 -76.400002 -632.37
-33.290001 -76.449997 -632.81
-32.720001 -76.480003 -633.03998
-32.16 -76.519997 -633.32001
-31.58 -76.529999 -633.46002
-31 -76.540001 -633.48999
-30.43 -76.559998 -633.64001
-29.860001 -76.580002 -633.85999
-29.299999 -76.639999 -634.32001
-28.719999 -76.660004 -634.45001
-28.139999 -76.669998 -634.53003
-27.57 -76.699997 -634.78003
-27.01 -76.739998 -635.15002
-26.43 -76.769997 -635.42999
-25.870001 -76.82 -635.77002
-25.299999 -76.879997 -636.28998
-24.73 -76.919998 -636.63
-24.16 -76.959999 -636.95001
-23.59 -77 -637.28998
-23.030001 -77.07 -637.87
-22.459999 -77.150002 -638.53003
-21.889999 -77.209999 -638.96997
-21.34 -77.330002 -639.95001
-20.790001 -77.459999 -641
54.040001 -77.639999 -642.40997
54.540001 -77.510002 -641.37
55.07 -77.43 -640.70001
55.639999 -77.400002 -640.47998
56.189999 -77.360001 -640.12
56.779999 -77.360001 -640.15002
57.380001 -77.370003 -640.25
57.970001 -77.370003 -640.25
58.57 -77.389999 -640.35999
59.18 -77.43 -640.66998
59.790001 -77.459999 -640.91998
60.41 -77.5 -641.26001
61.060001 -77.57 -641.83002
61.700001 -77.639999 -642.39001
62.419998 -77.800003 -643.69
-151.83 -76.5 -628.23999
-150.25999 -76.290001 -626.54999
-149.63 -76.260002 -626.32001
-148.82001 -76.139999 -625.33002
-148.11 -76.07 -624.77002
-147.47 -76.029999 -624.46997
-146.77 -75.970001 -623.92999
-146.11 -75.919998 -623.57001
-145.41 -75.860001 -623.03998
-144.75 -75.809998 -622.65997
-144.17 -75.809998 -622.60999
-143.58 -75.800003 -622.53003
-142.88 -75.730003 -622.01001
-142.25999 -75.699997 -621.78998
-141.7 -75.709999 -621.83002
-141.13 -75.709999 -621.82001
-140.49001 -75.669998 -621.52002
-139.92 -75.669998 -621.51001
-139.37 -75.68 -621.63
-138.83 -75.699997 -621.75
-138.31 -75.730003 -621.97998
-137.78 -75.75 -622.15002
-137.25 -75.769997 -622.31
-136.72 -75.800003 -622.53003
-136.2 -75.830002 -622.77002
-135.67 -75.849998 -622.94
-135.13 -75.860001 -623.08002
-134.63 -75.910004 -623.41998
-134.13 -75.949997 -623.73999
-133.62 -75.980003 -624.01001
-133.06 -75.989998 -624.09998
-132.5 -76 -624.15997
-132.00999 -76.040001 -624.51001
-131.50999 -76.080002 -624.84998
-131.02 -76.129997 -625.25
-130.53999 -76.190002 -625.71002
-130.08 -76.260002 -626.27002
-106.83 -77.32 -634.87
-105.44 -76.730003 -630.10999
-104.9 -76.760002 -630.34003
-104.43 -76.839996 -631.01001
-103.9 -76.870003 -631.29999
-103.23 -76.800003 -630.71997
-102.47 -76.669998 -629.65997
-101.65 -76.489998 -628.19
-100.48 -76.029999 -624.5
-99.790001 -75.949997 -623.79999
-98.949997 -75.739998 -622.15997
-98.239998 -75.629997 -621.27002
-97.610001 -75.589996 -620.90997
-96.919998 -75.5 -620.16998
-96.199997 -75.370003 -619.16998
-95.489998 -75.269997 -618.32001
-94.860001 -75.209999 -617.87
-94.260002 -75.190002 -617.65002
-93.639999 -75.150002 -617.33002
-93.019997 -75.099998 -617
-92.410004 -75.059998 -616.67999
-91.800003 -75.029999 -616.40997
-91.209999 -75.010002 -616.23999
-90.620003 -74.989998 -616.07001
-90.040001 -74.980003 -615.98999
-89.449997 -74.949997 -615.79999
-88.849998 -74.93 -615.56
-88.279999 -74.919998 -615.52002
-87.709999 -74.919998 -615.5
-87.139999 -74.910004 -615.44
-86.559998 -74.900002 -615.35999
-85.970001 -74.879997 -615.15997
-85.389999 -74.860001 -615.03998
-84.830002 -74.860001 -615.08002
-84.279999 -74.879997 -615.21002
-83.730003 -74.889999 -615.31
-83.160004 -74.889999 -615.31
-82.57 -74.860001 -615.09003
-82.029999 -74.889999 -615.26001
-81.459999 -74.879997 -615.21997
-80.900002 -74.889999 -615.26001
-80.339996 -74.889999 -615.28003
-79.760002 -74.870003 -615.15002
-79.190002 -74.870003 -615.15997
-78.650002 -74.889999 -615.33002
-78.080002 -74.889999 -615.28003
-77.529999 -74.910004 -615.44
-76.989998 -74.919998 -615.59003
-76.43 -74.93 -615.62
-75.879997 -74.949997 -615.79999
-75.32 -74.949997 -615.83002
-74.769997 -74.959999 -615.91998
-74.230003 -74.989998 -616.14001
-73.68 -75 -616.22998
-73.120003 -75.010002 -616.32001
-72.57 -75.029999 -616.42999
-72.010002 -75.040001 -616.52002
-71.480003 -75.07 -616.75
-70.940002 -75.099998 -617
-70.379997 -75.099998 -617.03003
-69.830002 -75.120003 -617.15997
-69.279999 -75.139999 -617.34003
-68.75 -75.169998 -617.64001
-68.209999 -75.209999 -617.92999
-67.650002 -75.220001 -617.98999
-67.099998 -75.230003 -618.08002
-66.559998 -75.260002 -618.35999
-66.029999 -75.309998 -618.73999
-65.510002 -75.360001 -619.19
-64.989998 -75.419998 -619.63
-64.43 -75.419998 -619.65002
-63.880001 -75.449997 -619.84998
-63.32 -75.459999 -619.97998
-62.779999 -75.489998 -620.23999
-62.259998 -75.550003 -620.72998
-61.759998 -75.629997 -621.35999
-61.200001 -75.660004 -621.56
-60.639999 -75.669998 -621.64001
-60.080002 -75.68 -621.75
-59.540001 -75.709999 -622.03003
-59.009998 -75.760002 -622.41998
-58.470001 -75.800003 -622.76001
-57.93 -75.839996 -623.08002
-57.34 -75.82 -622.87
-56.75 -75.800003 -622.77002
-56.189999 -75.82 -622.89001
-55.639999 -75.839996 -623.06
-55.07 -75.839996 -623.09998
-54.52 -75.870003 -623.33002
-53.990002 -75.93 -623.78003
-53.470001 -76.010002 -624.47998
-52.919998 -76.040001 -624.66998
-52.32 -76 -624.34003
-51.720001 -75.959999 -624.08002
-51.150002 -75.970001 -624.13
-50.59 -75.989998 -624.29999
-50.029999 -76 -624.37
-49.48 -76.050003 -624.75
-48.950001 -76.099998 -625.21002
-48.389999 -76.120003 -625.37
-47.82 -76.139999 -625.48999
-47.25 -76.129997 -625.46997
-46.689999 -76.160004 -625.65002
-46.150002 -76.220001 -626.20001
-45.610001 -76.279999 -626.65997
-45.040001 -76.279999 -626.70001
-44.470001 -76.279999 -626.69
-43.900002 -76.290001 -626.78003
-43.330002 -76.32 -626.96997
-42.82 -76.419998 -627.79999
-42.259998 -76.459999 -628.09998
-41.689999 -76.459999 -628.12
-41.110001 -76.470001 -628.17999
-40.560001 -76.510002 -628.56
-40 -76.540001 -628.78003
-39.439999 -76.57 -629.03998
-38.860001 -76.57 -629.04999
-38.279999 -76.559998 -628.96002
-37.720001 -76.589996 -629.21002
-37.16 -76.629997 -629.53003
-36.610001 -76.68 -629.90997
-36.07 -76.769997 -630.60999
-35.509998 -76.82 -631.02002
-34.959999 -76.879997 -631.53998
-34.41 -76.940002 -632.01001
-33.860001 -77.010002 -632.58002
-33.290001 -77.040001 -632.83002
-32.73 -77.07 -633.10999
-32.16 -77.089996 -633.28998
-31.58 -77.099998 -633.37
-31 -77.120003 -633.46002
-30.43 -77.139999 -633.70001
-29.870001 -77.18 -634.01001
-29.299999 -77.209999 -634.25
-28.719999 -77.230003 -634.34998
-28.15 -77.25 -634.56
-27.58 -77.290001 -634.84998
-27 -77.309998 -635.08002
-26.43 -77.330002 -635.23999
-25.860001 -77.379997 -635.59998
-25.299999 -77.449997 -636.15002
-24.719999 -77.470001 -636.33002
-24.15 -77.510002 -636.65997
-23.58 -77.550003 -637.01001
-23.02 -77.629997 -637.62
-22.450001 -77.690002 -638.15997
-21.879999 -77.75 -638.59998
-21.32 -77.860001 -639.47998
-20.77 -77.959999 -640.34003
54.07 -78.269997 -642.73999
54.580002 -78.160004 -641.88
55.09 -78.050003 -640.96002
55.669998 -78.029999 -640.79999
56.23 -77.989998 -640.48999
56.799999 -77.970001 -640.34003
57.400002 -77.980003 -640.42999
57.970001 -77.970001 -640.28003
58.580002 -78 -640.57001
59.200001 -78.040001 -640.88
59.82 -78.07 -641.15997
60.43 -78.110001 -641.41998
61.049999 -78.139999 -641.71997
61.700001 -78.220001 -642.33002
62.389999 -78.349998 -643.40002
-153.17999 -77.18 -629.04999
-152.2 -76.970001 -627.41998
-151.57001 -76.949997 -627.20001
-150.7 -76.790001 -625.96997
-150.05 -76.760002 -625.67999
-149.38 -76.709999 -625.28998
-148.64999 -76.620003 -624.60999
-147.95 -76.559998 -624.09003
-147.28999 -76.519997 -623.73999
-146.64999 -76.480003 -623.45001
-146 -76.440002 -623.12
-145.28999 -76.370003 -622.53003
-144.66 -76.339996 -622.28998
-144.05 -76.32 -622.12
-143.5 -76.330002 -622.21997
-142.78999 -76.25 -621.59998
-142.16 -76.220001 -621.35999
-141.63 -76.239998 -621.52002
-141.05 -76.230003 -621.46002
-140.39 -76.190002 -621.09998
