# .PCD v0.7 - Point Cloud Data file format
VERSION 0.7
FIELDS x y z
SIZE 4 4 4
TYPE F F F
COUNT 1 1 1
WIDTH 1589
HEIGHT 1
VIEWPOINT 0 0 0 1 0 0 0
POINTS 1589
DATA ascii
-154.39 -85.989998 -617.89001
-153.89 -86.029999 -618.17999
-153.33 -86.029999 -618.19
-152.8 -86.050003 -618.34998
-152.31 -86.099998 -618.65002
-151.83 -86.150002 -619
-151.38 -86.220001 -619.48999
-150.85001 -86.239998 -619.63
-150.33 -86.260002 -619.81
-149.8 -86.279999 -619.96997
-149.33 -86.339996 -620.38
-148.86 -86.400002 -620.78998
-148.34 -86.43 -620.98999
-147.81 -86.449997 -621.15997
-147.32001 -86.5 -621.5
-146.91 -86.589996 -622.14001
-146.5 -86.690002 -622.84003
-145.99001 -86.720001 -623.08002
-145.42999 -86.739998 -623.15002
-144.83 -86.720001 -623.03003
-144.2 -86.68 -622.76001
-143.67 -86.699997 -622.92999
-143.14 -86.730003 -623.13
-142.63 -86.769997 -623.39001
-142.05 -86.760002 -623.33002
-141.47 -86.760002 -623.31
-140.89 -86.75 -623.27002
-140.12 -86.629997 -622.40002
-139.53999 -86.629997 -622.39001
-138.73 -86.470001 -621.28998
-138.19 -86.5 -621.45001
-137.67999 -86.540001 -621.72998
-136.89999 -86.400002 -620.78003
-136.28999 -86.370003 -620.59003
-135.62 -86.309998 -620.13
-135.00999 -86.279999 -619.95001
-134.38 -86.25 -619.69
-133.75 -86.209999 -619.40002
-132.27 -85.620003 -615.21002
-128.03 -83.230003 -598.28998
-127.29 -83.099998 -597.39001
-126.59 -83 -596.71002
-125.87 -82.889999 -595.89001
-125.24 -82.830002 -595.48999
-124.61 -82.779999 -595.09003
-123.98 -82.720001 -594.71997
-123.35 -82.669998 -594.33002
-122.74 -82.620003 -594.01001
-122.13 -82.580002 -593.71002
-121.54 -82.550003 -593.46997
-120.94 -82.510002 -593.20001
-120.34 -82.470001 -592.90002
-119.76 -82.449997 -592.75
-119.18 -82.419998 -592.59003
-118.59 -82.389999 -592.35999
-118.04 -82.379997 -592.28998
-117.44 -82.339996 -592.03998
-116.9 -82.349998 -592.04999
-116.34 -82.330002 -591.96002
-115.77 -82.309998 -591.82001
-115.21 -82.300003 -591.71002
-114.66 -82.300003 -591.71002
-114.09 -82.269997 -591.53003
-113.53 -82.260002 -591.47998
-112.98 -82.260002 -591.41998
-112.43 -82.25 -591.38
-111.88 -82.239998 -591.32001
-111.35 -82.260002 -591.40997
-110.8 -82.25 -591.39001
-110.25 -82.239998 -591.32001
-109.73 -82.260002 -591.45001
-109.18 -82.260002 -591.41998
-108.67 -82.279999 -591.59998
-108.12 -82.269997 -591.52002
-107.59 -82.290001 -591.63
-107.06 -82.290001 -591.65997
-106.53 -82.300003 -591.75
-106.01 -82.32 -591.84998
-105.48 -82.330002 -591.96002
-104.94 -82.330002 -591.97998
-104.43 -82.360001 -592.13
-103.9 -82.370003 -592.21997
-103.39 -82.389999 -592.39001
-102.88 -82.419998 -592.59998
-102.37 -82.449997 -592.78998
-101.85 -82.470001 -592.90997
-101.34 -82.5 -593.13
-100.81 -82.510002 -593.21997
-100.31 -82.540001 -593.41998
-99.790001 -82.559998 -593.56
-99.290001 -82.599998 -593.84003
-98.790001 -82.629997 -594.12
-98.290001 -82.669998 -594.38
-97.800003 -82.720001 -594.72998
-97.330002 -82.790001 -595.19
-96.849998 -82.830002 -595.53998
-96.379997 -82.910004 -596.04999
-95.919998 -82.980003 -596.59003
-95.459999 -83.059998 -597.12
-94.970001 -83.099998 -597.42999
-94.5 -83.18 -597.96002
-94.029999 -83.239998 -598.44
-95.290001 -84.849998 -609.83002
-95.190002 -85.260002 -612.76001
-94.610001 -85.25 -612.64001
-94.019997 -85.220001 -612.45001
-93.449997 -85.220001 -612.42999
-92.900002 -85.230003 -612.5
-92.339996 -85.230003 -612.53998
-91.809998 -85.260002 -612.70001
-91.260002 -85.269997 -612.82001
-90.669998 -85.239998 -612.60999
-90.059998 -85.199997 -612.28003
-89.489998 -85.190002 -612.28003
-88.900002 -85.169998 -612.08002
-88.309998 -85.139999 -611.88
-87.760002 -85.139999 -611.91998
-87.190002 -85.129997 -611.85999
-86.599998 -85.110001 -611.70001
-86.010002 -85.080002 -611.46997
-85.389999 -85.019997 -611.04999
-84.82 -85.010002 -610.97998
-84.279999 -85.029999 -611.10999
-83.709999 -85.029999 -611.09998
-83.110001 -84.989998 -610.81
-82.580002 -85.019997 -611.02002
-82.010002 -85.010002 -610.95001
-81.419998 -84.980003 -610.76001
-80.879997 -85 -610.90997
-80.339996 -85.019997 -611.03003
-79.800003 -85.029999 -611.16998
-79.199997 -85 -610.89001
-78.650002 -85.010002 -610.96997
-78.110001 -85.029999 -611.14001
-77.589996 -85.07 -611.45001
-77 -85.040001 -611.20001
-76.419998 -85.019997 -611.09998
-75.889999 -85.050003 -611.31
-75.349998 -85.080002 -611.5
-74.809998 -85.099998 -611.64001
-74.230003 -85.080002 -611.5
-73.699997 -85.110001 -611.72998
-73.18 -85.169998 -612.12
-72.610001 -85.150002 -612.02002
-72.050003 -85.160004 -612.04999
-71.519997 -85.190002 -612.31
-71.019997 -85.269997 -612.87
-70.480003 -85.300003 -613.04999
-69.919998 -85.300003 -613.04999
-69.379997 -85.32 -613.23999
-68.860001 -85.370003 -613.58002
-68.300003 -85.379997 -613.65002
-67.75 -85.400002 -613.79999
-67.230003 -85.449997 -614.16998
-66.709999 -85.510002 -614.54999
-66.190002 -85.57 -614.98999
-65.690002 -85.639999 -615.5
-65.139999 -85.660004 -615.65997
-64.629997 -85.739998 -616.16998
-64.099998 -85.790001 -616.57001
-63.57 -85.830002 -616.83002
-63.049999 -85.900002 -617.34003
-62.529999 -85.959999 -617.78003
-61.939999 -85.93 -617.53003
-61.34 -85.889999 -617.25
-60.779999 -85.879997 -617.22998
-60.23 -85.910004 -617.45001
-59.700001 -85.970001 -617.81
-59.130001 -85.959999 -617.78003
-58.549999 -85.940002 -617.62
-57.970001 -85.93 -617.53998
-57.400002 -85.919998 -617.5
-56.830002 -85.910004 -617.45001
-56.290001 -85.949997 -617.69
-55.77 -86.019997 -618.20001
-55.209999 -86.029999 -618.28998
-54.610001 -85.980003 -617.92999
-54.029999 -85.959999 -617.82001
-53.48 -85.989998 -617.97998
-52.919998 -85.989998 -618.02002
-52.360001 -86.010002 -618.15997
-51.82 -86.059998 -618.52002
-51.299999 -86.129997 -618.96997
-50.73 -86.139999 -619.04999
-50.169998 -86.150002 -619.12
-49.599998 -86.150002 -619.13
-49.049999 -86.169998 -619.29999
-48.490002 -86.190002 -619.46002
-47.950001 -86.230003 -619.71002
-47.400002 -86.269997 -619.96997
-46.830002 -86.269997 -620
-46.259998 -86.269997 -620.02002
-45.700001 -86.279999 -620.09003
-45.130001 -86.279999 -620.10999
-44.59 -86.339996 -620.53003
-44.049999 -86.389999 -620.87
-43.509998 -86.459999 -621.33002
-42.959999 -86.489998 -621.54999
-42.41 -86.519997 -621.81
-41.860001 -86.57 -622.10999
-41.299999 -86.610001 -622.40997
-40.759998 -86.660004 -622.75
-40.209999 -86.720001 -623.17999
-39.650002 -86.739998 -623.35999
-39.099998 -86.790001 -623.72998
-38.540001 -86.809998 -623.87
-37.98 -86.839996 -624.09003
-37.419998 -86.870003 -624.26001
-36.860001 -86.900002 -624.48999
-36.299999 -86.940002 -624.75
-35.740002 -86.970001 -624.96002
-35.18 -87 -625.15997
-34.619999 -87.019997 -625.33002
-34.049999 -87.050003 -625.52002
-33.5 -87.099998 -625.94
-32.939999 -87.139999 -626.20001
-32.389999 -87.190002 -626.57001
-31.83 -87.239998 -626.90002
-31.26 -87.25 -626.97998
-30.690001 -87.279999 -627.15002
-30.129999 -87.309998 -627.40997
-29.57 -87.370003 -627.83002
-29.01 -87.400002 -628.01001
-28.440001 -87.440002 -628.29999
-27.879999 -87.489998 -628.65997
-27.33 -87.550003 -629.13
-26.77 -87.629997 -629.65997
-26.200001 -87.639999 -629.78003
-25.629999 -87.68 -630.04999
-25.07 -87.739998 -630.45001
-24.5 -87.769997 -630.66998
-23.93 -87.790001 -630.82001
-23.360001 -87.839996 -631.19
-22.799999 -87.900002 -631.56
-22.23 -87.93 -631.83002
-21.66 -87.970001 -632.09998
-21.09 -88.040001 -632.58002
-20.52 -88.07 -632.78998
-19.950001 -88.110001 -633.04999
-19.370001 -88.139999 -633.28003
-18.809999 -88.209999 -633.81
-18.24 -88.269997 -634.21997
-17.67 -88.349998 -634.75
-17.1 -88.400002 -635.10999
-16.530001 -88.489998 -635.81
-15.97 -88.580002 -636.39001
-15.4 -88.669998 -637.08002
-14.83 -88.739998 -637.53003
-14.26 -88.849998 -638.35999
-13.7 -89 -639.38
55.049999 -89.160004 -640.44
55.529999 -88.989998 -639.27002
55.990002 -88.790001 -637.83002
56.549999 -88.75 -637.52002
57.110001 -88.699997 -637.20001
57.669998 -88.669998 -636.96997
58.240002 -88.650002 -636.81
58.82 -88.639999 -636.78998
59.400002 -88.629997 -636.65997
59.990002 -88.639999 -636.75
60.59 -88.669998 -636.96997
61.200001 -88.699997 -637.15002
61.82 -88.75 -637.52002
62.439999 -88.790001 -637.84998
63.099998 -88.910004 -638.65997
-162.81 -86.809998 -619.75
-162.00999 -86.690002 -618.90002
-161.17999 -86.550003 -617.88
-160.50999 -86.489998 -617.5
-159.82001 -86.43 -617.04999
-159.21001 -86.410004 -616.87
-158.64999 -86.410004 -616.85999
-158.08 -86.410004 -616.85999
-157.56 -86.43 -617.03003
-157.06 -86.470001 -617.27002
-156.52 -86.480003 -617.38
-155.95 -86.480003 -617.37
-155.39 -86.480003 -617.40002
-154.86 -86.5 -617.52002
-154.36 -86.540001 -617.81
-153.89 -86.589996 -618.15997
-153.42999 -86.660004 -618.59998
-152.88 -86.660004 -618.65002
-152.38 -86.709999 -618.94
-151.87 -86.739998 -619.17999
-151.39999 -86.800003 -619.58002
-150.92999 -86.849998 -619.94
-150.37 -86.860001 -620.01001
-149.88 -86.900002 -620.29999
-149.41 -86.959999 -620.71997
-148.92999 -87.010002 -621.08002
-148.52 -87.099998 -621.71997
-148 -87.129997 -621.92999
-147.52 -87.190002 -622.29999
-147.09 -87.269997 -622.90997
-146.67999 -87.370003 -623.59998
-146.23 -87.440002 -624.09998
-145.64 -87.43 -624.03003
-145.16 -87.480003 -624.39001
-144.60001 -87.489998 -624.45001
-143.75 -87.32 -623.26001
-143.14 -87.300003 -623.13
-138.2 -87.07 -621.5
-137.73 -87.139999 -621.92999
-137 -87.029999 -621.21997
-136.38 -87 -620.97998
-135.72 -86.949997 -620.60999
-135.06 -86.889999 -620.17999
-134.38 -86.82 -619.69
-133.7 -86.739998 -619.16998
-128.97 -84.029999 -600.10999
-127.96 -83.730003 -597.96997
-127.21 -83.599998 -597.03998
-126.55 -83.519997 -596.51001
-125.86 -83.43 -595.84003
-125.2 -83.349998 -595.29999
-124.57 -83.300003 -594.91998
-123.96 -83.25 -594.60999
-123.32 -83.190002 -594.15997
-122.73 -83.160004 -593.94
-122.13 -83.120003 -593.67999
-121.53 -83.080002 -593.40002
-120.93 -83.040001 -593.14001
-120.34 -83.010002 -592.90997
-119.74 -82.980003 -592.65997
-119.17 -82.959999 -592.52002
-118.6 -82.93 -592.37
-118.02 -82.910004 -592.21997
-117.45 -82.889999 -592.09003
-116.9 -82.879997 -592.02002
-116.33 -82.870003 -591.90002
-115.78 -82.860001 -591.87
-115.21 -82.839996 -591.71997
-114.65 -82.830002 -591.65002
-114.1 -82.830002 -591.59998
-113.56 -82.830002 -591.60999
-112.99 -82.800003 -591.46002
-112.46 -82.809998 -591.51001
-111.92 -82.809998 -591.52002
-111.37 -82.809998 -591.5
-110.81 -82.800003 -591.41998
-110.28 -82.809998 -591.46997
-109.73 -82.800003 -591.46002
-109.19 -82.809998 -591.46997
-108.68 -82.830002 -591.63
-108.14 -82.830002 -591.65002
-107.6 -82.839996 -591.67999
-107.08 -82.849998 -591.78003
-106.56 -82.860001 -591.89001
-106.02 -82.870003 -591.91998
-105.49 -82.879997 -591.97998
-104.95 -82.879997 -592.02002
-104.44 -82.910004 -592.21002
-103.94 -82.940002 -592.40997
-103.43 -82.970001 -592.64001
-102.92 -82.989998 -592.78998
-102.4 -83.019997 -592.96002
-101.88 -83.040001 -593.09998
-101.37 -83.059998 -593.28998
-100.84 -83.07 -593.37
-100.34 -83.110001 -593.62
-99.82 -83.129997 -593.76001
-99.32 -83.160004 -594.01001
-98.809998 -83.199997 -594.22998
-98.330002 -83.25 -594.62
-97.870003 -83.32 -595.10999
-97.379997 -83.370003 -595.45001
-96.919998 -83.440002 -595.98999
-96.480003 -83.540001 -596.64001
-96.010002 -83.599998 -597.09003
-95.529999 -83.660004 -597.51001
-95.059998 -83.730003 -598.01001
-94.650002 -83.849998 -598.84998
-94.290001 -84.019997 -600.04999
-95.739998 -85.82 -612.67999
-95.160004 -85.800003 -612.58002
-94.610001 -85.82 -612.67999
-94.050003 -85.82 -612.69
-93.480003 -85.809998 -612.64001
-92.940002 -85.830002 -612.75
-92.370003 -85.82 -612.69
-91.82 -85.830002 -612.81
-91.260002 -85.830002 -612.81
-90.669998 -85.809998 -612.64001
-90.050003 -85.75 -612.21997
-89.470001 -85.730003 -612.09998
-88.910004 -85.739998 -612.15002
-88.309998 -85.699997 -611.84998
-87.720001 -85.669998 -611.69
-87.169998 -85.68 -611.72998
-86.599998 -85.669998 -611.70001
-86.019997 -85.660004 -611.57001
-85.400002 -85.599998 -611.15997
-84.809998 -85.559998 -610.91998
-84.260002 -85.57 -610.97998
-83.709999 -85.589996 -611.10999
-83.150002 -85.580002 -611.07001
-82.559998 -85.550003 -610.87
-82.029999 -85.589996 -611.09998
-81.440002 -85.550003 -610.87
-80.849998 -85.529999 -610.67999
-80.309998 -85.550003 -610.84003
-79.779999 -85.57 -611.01001
-79.230003 -85.589996 -611.10999
-78.639999 -85.559998 -610.89001
-78.110001 -85.589996 -611.09998
-77.589996 -85.639999 -611.45001
-77.029999 -85.639999 -611.47998
-76.43 -85.589996 -611.15002
-75.879997 -85.610001 -611.25
-75.360001 -85.650002 -611.57001
-74.82 -85.68 -611.76001
-74.230003 -85.650002 -611.53998
-73.699997 -85.669998 -611.71997
-73.18 -85.720001 -612.07001
-72.639999 -85.75 -612.25
-72.059998 -85.720001 -612.09003
-71.529999 -85.760002 -612.35999
-71.019997 -85.830002 -612.85999
-70.489998 -85.870003 -613.10999
-69.919998 -85.860001 -613.07001
-69.379997 -85.889999 -613.25
-68.860001 -85.940002 -613.59003
-68.32 -85.970001 -613.84998
-67.760002 -85.980003 -613.89001
-67.239998 -86.029999 -614.22998
-66.720001 -86.089996 -614.65002
-66.230003 -86.169998 -615.28003
-65.699997 -86.220001 -615.63
-65.160004 -86.25 -615.83002
-64.639999 -86.32 -616.28998
-64.110001 -86.360001 -616.59998
-63.57 -86.400002 -616.84998
-63.07 -86.489998 -617.5
-62.52 -86.519997 -617.71002
-61.939999 -86.489998 -617.48999
-61.349998 -86.459999 -617.32001
-60.779999 -86.459999 -617.31
-60.240002 -86.489998 -617.53003
-59.700001 -86.540001 -617.84003
-59.130001 -86.519997 -617.72998
-58.540001 -86.489998 -617.53998
-57.959999 -86.470001 -617.38
-57.389999 -86.470001 -617.35999
-56.830002 -86.480003 -617.42999
-56.299999 -86.529999 -617.77002
-55.77 -86.589996 -618.21002
-55.200001 -86.580002 -618.15002
-54.599998 -86.519997 -617.77002
-54.029999 -86.529999 -617.78998
-53.470001 -86.529999 -617.82001
-52.919998 -86.559998 -618.01001
-52.369999 -86.589996 -618.25
-51.84 -86.660004 -618.71002
-51.290001 -86.690002 -618.92999
-50.73 -86.690002 -618.96002
-50.169998 -86.699997 -619.03998
-49.610001 -86.720001 -619.14001
-49.049999 -86.75 -619.34003
-48.5 -86.769997 -619.47998
-47.959999 -86.82 -619.84998
-47.389999 -86.82 -619.84998
-46.82 -86.809998 -619.83002
-46.25 -86.809998 -619.83002
-45.689999 -86.82 -619.90002
-45.130001 -86.860001 -620.12
-44.59 -86.910004 -620.51001
-44.049999 -86.959999 -620.89001
-43.509998 -87.019997 -621.26001
-42.950001 -87.050003 -621.48999
-42.41 -87.099998 -621.82001
-41.849998 -87.120003 -622.02002
-41.310001 -87.199997 -622.53998
-40.759998 -87.239998 -622.82001
-40.209999 -87.279999 -623.09003
-39.639999 -87.290001 -623.19
-39.09 -87.339996 -623.56
-38.540001 -87.379997 -623.78998
-37.970001 -87.389999 -623.90002
-37.400002 -87.410004 -624.01001
-36.860001 -87.459999 -624.40002
-36.299999 -87.5 -624.64001
-35.740002 -87.529999 -624.89001
-35.169998 -87.550003 -625
-34.610001 -87.580002 -625.21997
-34.060001 -87.629997 -625.56
-33.5 -87.669998 -625.84998
-32.93 -87.699997 -626.07001
-32.380001 -87.760002 -626.48999
-31.809999 -87.779999 -626.63
-31.24 -87.790001 -626.70001
-30.68 -87.82 -626.91998
-30.129999 -87.889999 -627.42999
-29.559999 -87.919998 -627.62
-29 -87.949997 -627.82001
-28.440001 -88 -628.20001
-27.879999 -88.059998 -628.63
-27.32 -88.120003 -629.06
-26.76 -88.169998 -629.44
-26.190001 -88.190002 -629.52002
-25.629999 -88.239998 -629.88
-25.059999 -88.279999 -630.20001
-24.49 -88.300003 -630.34998
-23.92 -88.349998 -630.71002
-23.360001 -88.419998 -631.19
-22.790001 -88.449997 -631.41998
-22.219999 -88.489998 -631.67999
-21.65 -88.540001 -632.02002
-21.09 -88.589996 -632.34998
-20.51 -88.610001 -632.5
-19.940001 -88.650002 -632.83002
-19.370001 -88.709999 -633.21997
-18.809999 -88.779999 -633.71002
-18.23 -88.830002 -634.08002
-17.66 -88.889999 -634.46002
-17.1 -88.959999 -634.96002
-16.530001 -89.029999 -635.48999
-15.95 -89.089996 -635.88
-15.39 -89.18 -636.53003
-14.81 -89.239998 -636.97998
-14.25 -89.360001 -637.78998
-13.67 -89.449997 -638.40002
-13.11 -89.629997 -639.67999
-12.55 -89.769997 -640.70001
55.02 -89.690002 -640.04999
55.52 -89.559998 -639.14001
56.02 -89.419998 -638.12
56.560001 -89.339996 -637.57001
57.099998 -89.279999 -637.15997
57.669998 -89.25 -636.90997
58.240002 -89.220001 -636.75
58.82 -89.230003 -636.78003
59.400002 -89.220001 -636.70001
59.990002 -89.230003 -636.81
60.59 -89.25 -636.91998
61.200001 -89.290001 -637.21997
61.810001 -89.32 -637.42999
62.43 -89.370003 -637.78003
63.080002 -89.470001 -638.46997
-162.7 -87.330002 -619.35999
-161.92 -87.209999 -618.54999
-161.13 -87.089996 -617.71997
-160.44 -87.019997 -617.22998
-159.78 -86.970001 -616.85999
-159.14 -86.93 -616.60999
-158.55 -86.919998 -616.5
-158.02 -86.940002 -616.62
-157.49001 -86.959999 -616.78003
-156.95 -86.970001 -616.85999
-156.49001 -87.029999 -617.25
-155.96001 -87.050003 -617.41998
-155.39999 -87.050003 -617.42999
-154.86 -87.07 -617.54999
-154.38 -87.120003 -617.87
-153.88 -87.160004 -618.15997
-153.42 -87.220001 -618.57001
-152.97 -87.279999 -619.02002
-152.46001 -87.32 -619.26001
-151.95 -87.349998 -619.5
-151.44 -87.379997 -619.71997
-150.99001 -87.449997 -620.20001
-150.5 -87.5 -620.51001
-149.97 -87.519997 -620.67999
-149.5 -87.580002 -621.09003
-149.06 -87.660004 -621.59998
-148.64 -87.75 -622.25
-148.24001 -87.839996 -622.91998
-147.81 -87.93 -623.53003
-147.28999 -87.959999 -623.72998
-146.88 -88.059998 -624.42999
-146.39999 -88.120003 -624.83002
-145.82001 -88.110001 -624.78003
-136.39999 -87.589996 -621.09003
-135.81 -87.57 -621
-135.08 -87.470001 -620.27002
-134.28 -87.32 -619.23999
-128.75999 -84.440002 -599.13
-127.98 -84.290001 -598.07001
-127.23 -84.160004 -597.10999
-126.53 -84.059998 -596.45001
-125.86 -83.970001 -595.84998
-125.21 -83.910004 -595.37
-124.56 -83.839996 -594.89001
-123.97 -83.800003 -594.64001
-123.34 -83.75 -594.26001
-122.74 -83.709999 -594.02002
-122.12 -83.660004 -593.64001
-121.54 -83.629997 -593.46002
-120.94 -83.599998 -593.20001
-120.36 -83.57 -593.02002
-119.76 -83.529999 -592.76001
-119.19 -83.510002 -592.60999
-118.62 -83.489998 -592.47998
-118.05 -83.470001 -592.34003
-117.48 -83.449997 -592.20001
-116.91 -83.440002 -592.09003
-116.34 -83.419998 -591.95001
-115.78 -83.410004 -591.89001
-115.22 -83.389999 -591.78003
-114.67 -83.389999 -591.73999
-114.13 -83.389999 -591.73999
-113.58 -83.379997 -591.71997
-113.02 -83.370003 -591.64001
-112.47 -83.370003 -591.59998
-111.92 -83.360001 -591.53998
-111.37 -83.349998 -591.51001
-110.83 -83.349998 -591.51001
-110.28 -83.349998 -591.51001
-109.74 -83.349998 -591.51001
-109.21 -83.360001 -591.58002
-108.68 -83.370003 -591.60999
-108.14 -83.370003 -591.65002
-107.61 -83.379997 -591.70001
-107.09 -83.400002 -591.83002
-106.56 -83.410004 -591.90997
-106.02 -83.410004 -591.90002
-105.5 -83.43 -592.03998
-104.97 -83.440002 -592.12
-104.47 -83.470001 -592.34003
-103.96 -83.5 -592.52002
-103.45 -83.529999 -592.72998
-102.96 -83.57 -593.02002
-102.45 -83.599998 -593.22998
-101.95 -83.639999 -593.5
-101.44 -83.660004 -593.66998
-100.91 -83.68 -593.77002
-100.39 -83.699997 -593.92999
-99.900002 -83.739998 -594.21997
-99.400002 -83.779999 -594.52002
-98.93 -83.839996 -594.95001
-98.440002 -83.889999 -595.28998
-97.949997 -83.940002 -595.59998
-97.470001 -84 -596.02002
-97 -84.059998 -596.45001
-96.529999 -84.129997 -596.95001
-96.050003 -84.190002 -597.37
-95.589996 -84.269997 -597.90997
-95.139999 -84.349998 -598.5
-94.709999 -84.459999 -599.28003
-95.809998 -86.440002 -613.10999
-95.18 -86.379997 -612.71002
-94.629997 -86.400002 -612.79999
-94.099998 -86.419998 -612.96002
-93.540001 -86.419998 -612.97998
-92.980003 -86.419998 -613
-92.400002 -86.410004 -612.90997
-91.82 -86.389999 -612.78998
-91.260002 -86.389999 -612.77002
-90.68 -86.379997 -612.70001
-90.059998 -86.32 -612.31
-89.459999 -86.279999 -612.03003
-88.910004 -86.290001 -612.09998
-88.330002 -86.279999 -612.02002
-87.730003 -86.239998 -611.70001
-87.139999 -86.209999 -611.53003
-86.599998 -86.230003 -611.65997
-86.019997 -86.220001 -611.56
-85.419998 -86.169998 -611.23999
-84.809998 -86.120003 -610.90002
-84.25 -86.120003 -610.90002
-83.709999 -86.150002 -611.08002
-83.129997 -86.129997 -610.96997
-82.559998 -86.120003 -610.87
-82.019997 -86.129997 -610.98999
-81.480003 -86.160004 -611.21002
-80.860001 -86.099998 -610.76001
-80.309998 -86.110001 -610.81
-79.790001 -86.139999 -611.08002
-79.239998 -86.160004 -611.21002
-78.660004 -86.139999 -611.06
-78.120003 -86.160004 -611.21002
-77.580002 -86.18 -611.33002
-77.050003 -86.220001 -611.59003
-76.449997 -86.169998 -611.28998
-75.889999 -86.169998 -611.28998
-75.349998 -86.209999 -611.52002
-74.82 -86.230003 -611.71997
-74.25 -86.230003 -611.67999
-73.699997 -86.239998 -611.73999
-73.18 -86.290001 -612.13
-72.650002 -86.330002 -612.39001
-72.080002 -86.309998 -612.27002
-71.519997 -86.32 -612.34003
-71.019997 -86.389999 -612.81
-70.5 -86.440002 -613.16998
-69.940002 -86.440002 -613.19
-69.389999 -86.459999 -613.33002
-68.879997 -86.519997 -613.76001
-68.330002 -86.550003 -613.91998
-67.790001 -86.57 -614.12
-67.260002 -86.620003 -614.40997
-66.760002 -86.690002 -614.95001
-66.239998 -86.75 -615.38
-65.709999 -86.809998 -615.76001
-65.160004 -86.830002 -615.90002
-64.660004 -86.910004 -616.45001
-64.120003 -86.940002 -616.71002
-63.610001 -87.010002 -617.20001
-63.080002 -87.07 -617.59998
-62.509998 -87.07 -617.59998
-61.939999 -87.059998 -617.5
-61.349998 -87.019997 -617.28003
-60.779999 -87.029999 -617.31
-60.259998 -87.089996 -617.76001
-59.709999 -87.110001 -617.85999
-59.119999 -87.080002 -617.65997
-58.540001 -87.059998 -617.57001
-57.959999 -87.040001 -617.39001
-57.400002 -87.050003 -617.48999
-56.849998 -87.07 -617.59998
-56.310001 -87.110001 -617.88
-55.77 -87.150002 -618.16998
-55.189999 -87.129997 -618.03003
-54.599998 -87.089996 -617.77002
-54.029999 -87.089996 -617.76001
-53.470001 -87.099998 -617.81
-52.91 -87.120003 -617.95001
-52.380001 -87.169998 -618.34998
-51.849998 -87.239998 -618.82001
-51.290001 -87.25 -618.88
-50.720001 -87.25 -618.90997
-50.16 -87.260002 -618.94
-49.599998 -87.269997 -619.03998
-49.040001 -87.300003 -619.22998
-48.5 -87.339996 -619.52002
-47.939999 -87.360001 -619.67999
-47.380001 -87.360001 -619.69
-46.810001 -87.360001 -619.65997
-46.25 -87.370003 -619.77002
-45.68 -87.379997 -619.83002
-45.139999 -87.43 -620.16998
-44.599998 -87.489998 -620.57001
-44.060001 -87.550003 -620.96997
-43.509998 -87.589996 -621.28998
-42.950001 -87.620003 -621.46002
-42.41 -87.669998 -621.85999
-41.860001 -87.720001 -622.17999
-41.32 -87.779999 -622.60999
-40.77 -87.82 -622.91998
-40.200001 -87.839996 -623
-39.639999 -87.870003 -623.21997
-39.09 -87.900002 -623.46002
-38.529999 -87.93 -623.66998
-37.959999 -87.949997 -623.78998
-37.41 -87.980003 -624.03998
-36.849998 -88.010002 -624.22998
-36.290001 -88.050003 -624.53998
-35.73 -88.080002 -624.72998
-35.169998 -88.099998 -624.89001
-34.610001 -88.139999 -625.17999
-34.049999 -88.190002 -625.46997
-33.490002 -88.220001 -625.66998
-32.93 -88.269997 -626.06
-32.380001 -88.309998 -626.35999
-31.809999 -88.330002 -626.46997
-31.24 -88.349998 -626.59003
-30.68 -88.389999 -626.91998
-30.120001 -88.43 -627.20001
-29.549999 -88.459999 -627.40997
-28.99 -88.5 -627.70001
-28.43 -88.550003 -628.02002
-27.879999 -88.639999 -628.62
-27.32 -88.68 -628.90997
-26.75 -88.709999 -629.15002
-26.18 -88.739998 -629.34998
-25.620001 -88.800003 -629.79999
-25.049999 -88.830002 -629.98999
-24.49 -88.879997 -630.29999
-23.92 -88.93 -630.65997
-23.35 -88.970001 -630.95001
-22.780001 -89.010002 -631.21997
-22.219999 -89.059998 -631.57001
-21.65 -89.099998 -631.89001
-21.08 -89.129997 -632.07001
-20.51 -89.169998 -632.37
-19.940001 -89.220001 -632.72998
-19.370001 -89.279999 -633.10999
-18.799999 -89.339996 -633.53998
-18.23 -89.379997 -633.87
-17.66 -89.459999 -634.38
-17.09 -89.519997 -634.78998
-16.52 -89.57 -635.20001
-15.95 -89.629997 -635.60999
-15.37 -89.699997 -636.07001
-14.8 -89.769997 -636.58002
-14.23 -89.870003 -637.28998
-13.67 -89.980003 -638.03003
-13.1 -90.089996 -638.84003
-12.52 -90.18 -639.42999
-11.95 -90.290001 -640.21997
-11.38 -90.419998 -641.09998
55.549999 -90.190002 -639.44
56.029999 -90.010002 -638.20001
56.57 -89.940002 -637.71002
57.110001 -89.879997 -637.22998
57.68 -89.849998 -637.08002
58.25 -89.830002 -636.89001
58.82 -89.809998 -636.73999
59.43 -89.839996 -636.96997
60.009998 -89.830002 -636.92999
60.610001 -89.860001 -637.15002
61.209999 -89.879997 -637.25
61.82 -89.910004 -637.48999
62.439999 -89.970001 -637.90997
63.110001 -90.089996 -638.67999
63.77 -90.190002 -639.41998
-162.50999 -87.790001 -618.64001
-161.71001 -87.669998 -617.78003
-161.02 -87.599998 -617.29999
-160.37 -87.550003 -616.96002
-159.72 -87.5 -616.65002
-159.10001 -87.480003 -616.44
-158.49001 -87.449997 -616.28003
-157.95 -87.470001 -616.37
-157.41 -87.480003 -616.44
-156.86 -87.489998 -616.53003
-156.38 -87.529999 -616.84003
-155.89999 -87.589996 -617.17999
-155.42999 -87.639999 -617.56
-154.92 -87.669998 -617.78998
-154.41 -87.699997 -617.98999
-153.89999 -87.739998 -618.21997
-153.42999 -87.790001 -618.59998
-152.97 -87.849998 -619.03003
-152.50999 -87.919998 -619.46997
-152.02 -87.959999 -619.77002
-151.53 -88.010002 -620.08002
-151.08 -88.080002 -620.58002
-150.62 -88.139999 -621.02002
-150.13 -88.190002 -621.34998
-149.66 -88.239998 -621.72998
-149.17 -88.290001 -622.07001
-148.8 -88.410004 -622.90002
-148.52 -88.580002 -624.08002
-148.19 -88.730003 -625.13
-147.66 -88.760002 -625.28998
-146.96001 -88.68 -624.73999
-128.78 -85.010002 -599.21997
-127.97 -84.830002 -598.01001
-127.23 -84.709999 -597.14001
-126.52 -84.599998 -596.37
-125.84 -84.510002 -595.73999
-125.19 -84.440002 -595.27002
-124.57 -84.379997 -594.90002
-123.95 -84.339996 -594.57001
-123.35 -84.300003 -594.32001
-122.74 -84.260002 -594.02002
-122.15 -84.230003 -593.78998
-121.56 -84.190002 -593.54999
-120.95 -84.150002 -593.26001
-120.37 -84.120003 -593.07001
-119.79 -84.099998 -592.90997
-119.22 -84.080002 -592.76001
-118.63 -84.050003 -592.54999
-118.06 -84.019997 -592.39001
-117.49 -84 -592.26001
-116.93 -83.989998 -592.16998
-116.35 -83.970001 -592.02002
-115.8 -83.959999 -591.95001
-115.24 -83.949997 -591.87
-114.7 -83.949997 -591.90997
-114.13 -83.93 -591.77002
-113.58 -83.93 -591.71997
-113.03 -83.919998 -591.69
-112.5 -83.93 -591.72998
-111.93 -83.910004 -591.59003
-111.38 -83.910004 -591.58002
-110.85 -83.919998 -591.65002
-110.33 -83.93 -591.77002
-109.78 -83.93 -591.71997
-109.26 -83.940002 -591.81
-108.73 -83.949997 -591.90997
-108.21 -83.970001 -592
-107.68 -83.980003 -592.09998
-107.15 -83.989998 -592.16998
-106.63 -84.010002 -592.27002
-106.1 -84.019997 -592.37
-105.57 -84.029999 -592.44
-105.06 -84.059998 -592.62
-104.53 -84.059998 -592.67999
-104 -84.080002 -592.78003
-103.51 -84.120003 -593.06
-103.01 -84.160004 -593.34003
-102.48 -84.169998 -593.41998
-101.97 -84.190002 -593.59003
-101.46 -84.220001 -593.78003
-100.94 -84.25 -593.95001
-100.44 -84.279999 -594.20001
-99.940002 -84.32 -594.46997
-99.440002 -84.349998 -594.71002
-98.949997 -84.400002 -595.03998
-98.449997 -84.440002 -595.32001
-97.949997 -84.489998 -595.64001
-97.459999 -84.529999 -595.94
-96.989998 -84.599998 -596.41998
-96.559998 -84.699997 -597.15002
-96.07 -84.75 -597.46997
-95.629997 -84.839996 -598.12
-95.150002 -84.910004 -598.57001
-94.75 -85.040001 -599.48999
-96.260002 -86.900002 -612.40997
-95.860001 -87.050003 -613.46997
-95.260002 -87.019997 -613.20001
-94.669998 -86.989998 -613.02002
-94.110001 -86.989998 -613.02002
-93.550003 -86.989998 -613.04999
-93.010002 -87.019997 -613.21002
-92.419998 -86.989998 -613.04999
-91.82 -86.959999 -612.81
-91.230003 -86.93 -612.59998
-90.650002 -86.910004 -612.51001
-90.07 -86.889999 -612.33002
-89.470001 -86.849998 -612.08002
-88.879997 -86.830002 -611.90002
-88.330002 -86.839996 -611.96997
-87.730003 -86.800003 -611.72998
-87.150002 -86.779999 -611.57001
-86.57 -86.769997 -611.47998
-86.029999 -86.779999 -611.59998
-85.440002 -86.75 -611.39001
-84.839996 -86.720001 -611.15002
-84.25 -86.68 -610.90997
-83.699997 -86.699997 -611.03998
-83.169998 -86.730003 -611.22998
-82.57 -86.690002 -610.94
-82 -86.68 -610.90002
-81.480003 -86.720001 -611.16998
-80.900002 -86.699997 -611.04999
-80.32 -86.68 -610.90002
-79.790001 -86.709999 -611.09003
-79.239998 -86.720001 -611.19
-78.669998 -86.709999 -611.14001
-78.110001 -86.709999 -611.14001
-77.580002 -86.739998 -611.33002
-77.050003 -86.779999 -611.59003
-76.459999 -86.739998 -611.34998
-75.879997 -86.730003 -611.25
-75.349998 -86.760002 -611.45001
-74.830002 -86.800003 -611.78003
-74.269997 -86.809998 -611.81
-73.699997 -86.800003 -611.78003
-73.169998 -86.839996 -612.04999
-72.660004 -86.900002 -612.46997
-72.099998 -86.900002 -612.42999
-71.540001 -86.900002 -612.46997
-71.029999 -86.959999 -612.89001
-70.5 -87 -613.16998
-69.949997 -87.019997 -613.27002
-69.400002 -87.040001 -613.40002
-68.879997 -87.089996 -613.76001
-68.339996 -87.120003 -614
-67.800003 -87.139999 -614.16998
-67.269997 -87.199997 -614.53998
-66.769997 -87.269997 -615.03998
-66.260002 -87.339996 -615.56
-65.730003 -87.400002 -615.90997
-65.18 -87.419998 -616.06
-64.669998 -87.489998 -616.60999
-64.139999 -87.529999 -616.88
-63.619999 -87.599998 -617.34998
-63.09 -87.650002 -617.71002
-62.509998 -87.629997 -617.59003
-61.919998 -87.599998 -617.32001
-61.349998 -87.589996 -617.26001
-60.799999 -87.610001 -617.42999
-60.27 -87.669998 -617.84998
-59.700001 -87.669998 -617.84003
-59.110001 -87.629997 -617.59003
-58.529999 -87.610001 -617.40997
-57.950001 -87.589996 -617.32001
-57.400002 -87.610001 -617.45001
-56.860001 -87.650002 -617.69
-56.32 -87.690002 -618.01001
-55.75 -87.690002 -617.96002
-55.169998 -87.669998 -617.82001
-54.59 -87.650002 -617.72998
-54.029999 -87.660004 -617.76001
-53.470001 -87.669998 -617.84003
-52.91 -87.690002 -617.98999
-52.380001 -87.75 -618.40002
-51.849998 -87.800003 -618.77002
-51.279999 -87.800003 -618.77002
-50.709999 -87.809998 -618.79999
-50.16 -87.82 -618.91998
-49.599998 -87.839996 -619.02002
-49.049999 -87.870003 -619.28003
-48.5 -87.910004 -619.5
-47.93 -87.910004 -619.52002
-47.360001 -87.910004 -619.52002
-46.799999 -87.919998 -619.59003
-46.240002 -87.940002 -619.73999
-45.689999 -87.970001 -619.96002
-45.150002 -88.019997 -620.31
-44.610001 -88.07 -620.66998
-44.060001 -88.120003 -621.01001
-43.509998 -88.160004 -621.31
-42.959999 -88.199997 -621.53998
-42.419998 -88.260002 -621.96002
-41.869999 -88.309998 -622.29999
-41.32 -88.360001 -622.65997
-40.759998 -88.370003 -622.75
-40.200001 -88.389999 -622.90002
-39.639999 -88.43 -623.17999
-39.080002 -88.459999 -623.37
-38.52 -88.480003 -623.53003
-37.959999 -88.510002 -623.71002
-37.400002 -88.540001 -623.90002
-36.849998 -88.589996 -624.28998
-36.290001 -88.610001 -624.42999
-35.720001 -88.620003 -624.5
-35.16 -88.650002 -624.71002
-34.610001 -88.709999 -625.12
-34.040001 -88.739998 -625.29999
-33.490002 -88.779999 -625.63
-32.93 -88.839996 -625.98999
-32.360001 -88.860001 -626.13
-31.799999 -88.870003 -626.23999
-31.23 -88.900002 -626.46002
-30.67 -88.940002 -626.73999
-30.1 -88.970001 -626.91998
-29.540001 -89.010002 -627.22998
-28.99 -89.059998 -627.58002
-28.43 -89.120003 -627.96002
-27.879999 -89.199997 -628.52002
-27.309999 -89.230003 -628.76001
-26.74 -89.25 -628.87
-26.18 -89.309998 -629.28998
-25.610001 -89.349998 -629.59998
-25.040001 -89.379997 -629.81
-24.48 -89.440002 -630.17999
-23.91 -89.470001 -630.38
-23.34 -89.510002 -630.70001
-22.780001 -89.550003 -631
-22.209999 -89.620003 -631.46997
-21.639999 -89.660004 -631.71002
-21.07 -89.68 -631.87
-20.5 -89.739998 -632.27002
-19.93 -89.790001 -632.64001
-19.360001 -89.830002 -632.95001
-18.790001 -89.879997 -633.27002
-18.219999 -89.940002 -633.66998
-17.66 -90.010002 -634.20001
-17.08 -90.059998 -634.53998
-16.51 -90.110001 -634.85999
-15.94 -90.169998 -635.28003
-15.37 -90.230003 -635.67999
-14.79 -90.300003 -636.19
-14.22 -90.379997 -636.78003
-13.66 -90.489998 -637.53003
-13.08 -90.589996 -638.19
-12.51 -90.650002 -638.65002
-11.94 -90.760002 -639.37
-11.36 -90.889999 -640.28998
55.540001 -90.769997 -639.35999
56.040001 -90.620003 -638.34003
56.57 -90.540001 -637.75
57.119999 -90.480003 -637.35999
57.68 -90.43 -637.03998
58.25 -90.410004 -636.88
58.84 -90.419998 -636.91998
59.419998 -90.410004 -636.90002
60.02 -90.43 -637.02002
60.599998 -90.419998 -636.96997
61.209999 -90.470001 -637.28998
61.82 -90.510002 -637.57001
62.450001 -90.57 -637.96002
63.09 -90.650002 -638.54999
63.779999 -90.800003 -639.59998
-163.14 -88.389999 -618.90002
-162.33 -88.260002 -617.96997
-161.56 -88.150002 -617.21002
-160.88 -88.089996 -616.78003
-160.27 -88.059998 -616.58002
-159.67 -88.050003 -616.47998
-159.07001 -88.019997 -616.33002
-158.46001 -88 -616.16998
-157.89 -88 -616.12
-157.37 -88.019997 -616.28998
-156.85001 -88.050003 -616.48999
-156.34 -88.080002 -616.67999
-155.84 -88.120003 -616.96002
-155.42999 -88.209999 -617.56
-154.95 -88.260002 -617.90997
-154.42999 -88.279999 -618.06
-153.92 -88.309998 -618.29999
-153.45 -88.370003 -618.69
-152.97 -88.419998 -619.03003
-152.52 -88.489998 -619.48999
-152.09 -88.57 -620.04999
-151.7 -88.669998 -620.77002
-151.25999 -88.75 -621.31
-150.8 -88.82 -621.75
-150.37 -88.900002 -622.29999
-149.87 -88.940002 -622.59998
-149.35001 -88.970001 -622.81
-149 -89.099998 -623.71997
-148.63 -89.220001 -624.54999
-148.24001 -89.330002 -625.29999
-128.84 -85.599998 -599.51001
-128.06 -85.440002 -598.44
-127.32 -85.32 -597.57001
-126.61 -85.209999 -596.82001
-125.91 -85.099998 -596.07001
-125.28 -85.040001 -595.66998
-124.64 -84.980003 -595.25
-124 -84.919998 -594.81
-123.39 -84.870003 -594.52002
-122.79 -84.830002 -594.22998
-122.18 -84.790001 -593.90997
-121.6 -84.760002 -593.73999
-120.99 -84.720001 -593.44
-120.4 -84.68 -593.20001
-119.81 -84.650002 -592.97998
-119.24 -84.629997 -592.84003
-118.66 -84.610001 -592.69
-118.09 -84.589996 -592.54999
-117.52 -84.57 -592.41998
-116.96 -84.559998 -592.35999
-116.4 -84.550003 -592.27002
-115.84 -84.540001 -592.17999
-115.29 -84.529999 -592.10999
-114.75 -84.529999 -592.15002
-114.18 -84.510002 -592.03003
-113.62 -84.5 -591.94
-113.1 -84.519997 -592.04999
-112.56 -84.519997 -592.04999
-112.04 -84.540001 -592.19
-111.51 -84.550003 -592.25
-110.99 -84.559998 -592.34003
-110.46 -84.57 -592.40997
-109.94 -84.589996 -592.57001
-109.38 -84.580002 -592.47998
-108.86 -84.589996 -592.57001
-108.33 -84.610001 -592.65997
-107.78 -84.599998 -592.65002
-107.25 -84.610001 -592.71002
-106.7 -84.610001 -592.65997
-106.16 -84.610001 -592.70001
-105.64 -84.629997 -592.81
-105.12 -84.639999 -592.92999
-104.58 -84.650002 -592.96997
-104.04 -84.650002 -592.98999
-103.52 -84.669998 -593.10999
-103 -84.690002 -593.26001
-102.48 -84.709999 -593.39001
-101.96 -84.730003 -593.56
-101.45 -84.760002 -593.75
-100.93 -84.779999 -593.90002
-100.45 -84.839996 -594.26001
-99.93 -84.849998 -594.38
-99.43 -84.889999 -594.66998
-98.940002 -84.940002 -594.98999
-98.449997 -84.989998 -595.31
-97.970001 -85.050003 -595.75
-97.489998 -85.110001 -596.14001
-97.010002 -85.160004 -596.53998
-96.559998 -85.25 -597.09998
-96.089996 -85.32 -597.60999
-95.650002 -85.410004 -598.25
-95.199997 -85.5 -598.88
-96.129997 -86.839996 -608.08002
-96.410004 -87.610001 -613.39001
-95.879997 -87.629997 -613.54999
-95.339996 -87.650002 -613.69
-94.730003 -87.610001 -613.42999
-94.120003 -87.57 -613.10999
-93.559998 -87.57 -613.13
-93 -87.57 -613.14001
-92.43 -87.559998 -613.08002
-91.849998 -87.540001 -612.96002
-91.25 -87.510002 -612.73999
-90.650002 -87.480003 -612.5
-90.059998 -87.440002 -612.27002
-89.489998 -87.43 -612.21002
-88.889999 -87.400002 -611.98999
-88.32 -87.389999 -611.91998
-87.75 -87.379997 -611.87
-87.169998 -87.370003 -611.76001
-86.57 -87.330002 -611.5
-86.019997 -87.330002 -611.51001
-85.449997 -87.330002 -611.48999
-84.860001 -87.290001 -611.25
-84.279999 -87.269997 -611.13
-83.720001 -87.269997 -611.12
-83.169998 -87.279999 -611.20001
-82.610001 -87.290001 -611.23999
-82.019997 -87.25 -610.98999
-81.470001 -87.269997 -611.10999
-80.93 -87.290001 -611.26001
-80.349998 -87.269997 -611.13
-79.790001 -87.269997 -611.09998
-79.239998 -87.279999 -611.16998
-78.690002 -87.290001 -611.23999
-78.110001 -87.269997 -611.10999
-77.580002 -87.309998 -611.38
-77.050003 -87.349998 -611.65002
-76.489998 -87.349998 -611.64001
-75.900002 -87.300003 -611.35999
-75.349998 -87.32 -611.5
-74.830002 -87.370003 -611.81
-74.290001 -87.389999 -611.96002
-73.730003 -87.400002 -612
-73.199997 -87.43 -612.23999
-72.68 -87.489998 -612.63
-72.129997 -87.489998 -612.66998
-71.550003 -87.480003 -612.57001
-71.040001 -87.540001 -612.97998
-70.510002 -87.580002 -613.29999
-69.980003 -87.620003 -613.53998
-69.419998 -87.620003 -613.57001
-68.889999 -87.669998 -613.90997
-68.360001 -87.709999 -614.15997
-67.82 -87.730003 -614.34998
-67.290001 -87.790001 -614.70001
-66.790001 -87.860001 -615.22998
-66.279999 -87.940002 -615.73999
-65.75 -87.989998 -616.09003
-65.199997 -88.010002 -616.23999
-64.699997 -88.099998 -616.84998
-64.160004 -88.129997 -617.09003
-63.639999 -88.190002 -617.53003
-63.099998 -88.220001 -617.73999
-62.509998 -88.190002 -617.53003
-61.93 -88.18 -617.41998
-61.369999 -88.18 -617.46997
-60.82 -88.220001 -617.69
-60.279999 -88.25 -617.94
-59.700001 -88.239998 -617.84998
-59.110001 -88.190002 -617.53998
-58.529999 -88.18 -617.44
-57.959999 -88.169998 -617.40997
-57.400002 -88.190002 -617.48999
-56.869999 -88.230003 -617.79999
-56.330002 -88.279999 -618.10999
-55.740002 -88.25 -617.91998
-55.150002 -88.209999 -617.67999
-54.580002 -88.199997 -617.62
-54.029999 -88.230003 -617.78003
-53.470001 -88.25 -617.90997
-52.919998 -88.269997 -618.07001
-52.389999 -88.330002 -618.52002
-51.84 -88.349998 -618.65997
-51.27 -88.360001 -618.71997
-50.709999 -88.370003 -618.76001
-50.150002 -88.370003 -618.81
-49.599998 -88.410004 -619.03998
-49.049999 -88.449997 -619.34003
-48.5 -88.470001 -619.46997
-47.919998 -88.449997 -619.34998
-47.349998 -88.449997 -619.29999
-46.790001 -88.459999 -619.42999
-46.240002 -88.5 -619.65002
-45.700001 -88.559998 -620.07001
-45.150002 -88.599998 -620.39001
-44.619999 -88.660004 -620.81
-44.060001 -88.690002 -621.02002
-43.509998 -88.739998 -621.34998
-42.959999 -88.779999 -621.62
-42.419998 -88.839996 -622.06
-41.880001 -88.889999 -622.40997
-41.32 -88.919998 -622.59003
-40.75 -88.93 -622.66998
-40.189999 -88.959999 -622.84003
-39.630001 -88.980003 -623.03998
-39.07 -89.010002 -623.23999
-38.52 -89.050003 -623.46997
-37.959999 -89.07 -623.65997
-37.400002 -89.099998 -623.84003
-36.84 -89.139999 -624.12
-36.279999 -89.160004 -624.28003
-35.709999 -89.169998 -624.33002
-35.150002 -89.220001 -624.67999
-34.599998 -89.269997 -625.03998
-34.029999 -89.279999 -625.12
-33.48 -89.360001 -625.60999
-32.919998 -89.379997 -625.76001
-32.349998 -89.400002 -625.90002
-31.790001 -89.43 -626.13
-31.23 -89.470001 -626.42999
-30.67 -89.510002 -626.65997
-30.1 -89.519997 -626.78003
-29.540001 -89.57 -627.13
-28.98 -89.639999 -627.54999
-28.43 -89.699997 -628.02002
-27.860001 -89.730003 -628.21997
-27.299999 -89.760002 -628.45001
-26.73 -89.82 -628.79999
-26.17 -89.860001 -629.10999
-25.6 -89.900002 -629.35999
-25.040001 -89.949997 -629.76001
-24.48 -89.989998 -630.02002
-23.9 -90.019997 -630.21997
-23.33 -90.050003 -630.40997
-22.77 -90.110001 -630.84003
-22.209999 -90.169998 -631.26001
-21.629999 -90.190002 -631.41998
-21.059999 -90.239998 -631.71002
-20.5 -90.309998 -632.19
-19.93 -90.349998 -632.5
-19.360001 -90.389999 -632.77002
-18.790001 -90.449997 -633.15997
-18.219999 -90.510002 -633.62
-17.65 -90.580002 -634.07001
-17.08 -90.610001 -634.29999
-16.5 -90.650002 -634.59998
-15.93 -90.68 -634.81
-15.36 -90.779999 -635.45001
-14.79 -90.839996 -635.90997
-14.21 -90.910004 -636.33002
-13.64 -91.010002 -637.02002
-13.07 -91.099998 -637.71002
-12.5 -91.169998 -638.15002
-11.93 -91.279999 -638.94
-11.35 -91.379997 -639.59003
-10.78 -91.540001 -640.67999
55.540001 -91.339996 -639.29999
56.07 -91.25 -638.64001
56.59 -91.150002 -637.96997
57.130001 -91.080002 -637.46002
57.700001 -91.050003 -637.23999
58.259998 -91.019997 -637.03003
58.84 -91.010002 -636.95001
59.43 -91.010002 -636.96997
60.009998 -91.010002 -636.96002
60.610001 -91.029999 -637.10999
61.209999 -91.059998 -637.31
61.810001 -91.080002 -637.47998
62.459999 -91.169998 -638.08002
63.099998 -91.25 -638.62
63.810001 -91.419998 -639.83002
-163.07001 -88.919998 -618.59998
-162.14 -88.720001 -617.26001
-161.42 -88.639999 -616.69
-160.75999 -88.589996 -616.32001
-160.14 -88.559998 -616.10999
-159.53999 -88.540001 -615.96997
-158.98 -88.540001 -615.98999
-158.41 -88.540001 -615.96002
-157.87 -88.550003 -616.06
-157.33 -88.559998 -616.14001
-156.78 -88.580002 -616.21997
-156.28999 -88.620003 -616.52002
-155.84 -88.68 -616.92999
-155.38 -88.739998 -617.34998
-154.94 -88.82 -617.85999
-154.5 -88.889999 -618.34998
-153.97 -88.910004 -618.51001
-153.5 -88.970001 -618.88
-152.98 -88.989998 -619.06
-152.58 -89.089996 -619.72998
-152.19 -89.199997 -620.45001
-151.8 -89.300003 -621.16998
-151.42 -89.410004 -621.91998
-151 -89.5 -622.54999
-150.59 -89.599998 -623.22998
-150.2 -89.709999 -623.96002
-149.84 -89.839996 -624.83002
-149.34 -89.879997 -625.12
-128.88 -86.169998 -599.67999
-128.12 -86.029999 -598.70001
-127.37 -85.900002 -597.78003
-126.67 -85.790001 -597.09003
-125.97 -85.690002 -596.34998
-125.32 -85.620003 -595.87
-124.7 -85.57 -595.54999
-124.08 -85.510002 -595.16998
-123.43 -85.449997 -594.69
-122.83 -85.400002 -594.40997
-122.22 -85.360001 -594.09998
-121.63 -85.330002 -593.91998
-121.03 -85.290001 -593.62
-120.43 -85.25 -593.38
-119.85 -85.230003 -593.19
-119.28 -85.209999 -593.06
-118.67 -85.160004 -592.76001
-118.12 -85.150002 -592.67999
-117.56 -85.139999 -592.59998
-117.01 -85.139999 -592.56
-116.44 -85.120003 -592.44
-115.88 -85.110001 -592.38
-115.34 -85.110001 -592.37
-114.79 -85.110001 -592.38
-114.24 -85.099998 -592.32001
-113.69 -85.099998 -592.29999
-113.15 -85.089996 -592.28003
-112.61 -85.099998 -592.32001
-112.07 -85.099998 -592.32001
-111.53 -85.099998 -592.33002
-110.98 -85.099998 -592.29999
-110.45 -85.110001 -592.39001
-109.92 -85.110001 -592.41998
-109.37 -85.110001 -592.39001
-108.83 -85.120003 -592.45001
-108.3 -85.129997 -592.52002
-107.78 -85.150002 -592.64001
-107.24 -85.139999 -592.62
-106.69 -85.139999 -592.62
-106.16 -85.150002 -592.69
-105.63 -85.160004 -592.77002
-105.09 -85.169998 -592.81
-104.58 -85.199997 -592.98999
-104.07 -85.220001 -593.15002
-103.53 -85.220001 -593.19
-103.02 -85.260002 -593.40002
-102.5 -85.269997 -593.48999
-101.97 -85.290001 -593.62
-101.47 -85.32 -593.87
-100.96 -85.349998 -594.03003
-100.46 -85.389999 -594.29999
-99.959999 -85.43 -594.59003
-99.459999 -85.470001 -594.85999
-98.959999 -85.510002 -595.14001
-98.489998 -85.57 -595.54999
-98 -85.620003 -595.94
-97.519997 -85.68 -596.33002
-97.050003 -85.75 -596.78998
-96.610001 -85.839996 -597.40002
-96.139999 -85.919998 -597.94
-95.690002 -86 -598.51001
-96.239998 -86.989998 -605.33002
-97.080002 -88.260002 -614
-96.43 -88.18 -613.45001
-95.879997 -88.190002 -613.57001
-95.339996 -88.209999 -613.70001
-94.790001 -88.220001 -613.77002
-94.18 -88.190002 -613.51001
-93.529999 -88.099998 -612.90997
-92.970001 -88.099998 -612.92999
-92.43 -88.120003 -613.09998
-91.849998 -88.110001 -613.01001
-91.260002 -88.080002 -612.78998
-90.660004 -88.050003 -612.56
-90.040001 -87.989998 -612.17999
-89.480003 -87.989998 -612.19
-88.910004 -87.980003 -612.09003
-88.32 -87.949997 -611.92999
-87.739998 -87.940002 -611.81
-87.18 -87.940002 -611.81
-86.580002 -87.889999 -611.52002
-86 -87.870003 -611.39001
-85.459999 -87.889999 -611.52002
-84.870003 -87.860001 -611.33002
-84.290001 -87.849998 -611.25
-83.730003 -87.849998 -611.21002
-83.160004 -87.839996 -611.16998
-82.629997 -87.870003 -611.34998
-82.040001 -87.839996 -611.14001
-81.470001 -87.830002 -611.09998
-80.93 -87.860001 -611.28003
-80.379997 -87.860001 -611.29999
-79.790001 -87.830002 -611.09998
-79.230003 -87.830002 -611.10999
-78.699997 -87.870003 -611.39001
-78.139999 -87.860001 -611.34003
-77.580002 -87.870003 -611.39001
-77.050003 -87.900002 -611.60999
-76.519997 -87.940002 -611.84003
-75.919998 -87.889999 -611.54999
-75.360001 -87.889999 -611.52002
-74.82 -87.919998 -611.73999
-74.300003 -87.970001 -612.09003
-73.75 -87.980003 -612.14001
-73.209999 -88.010002 -612.34003
-72.690002 -88.059998 -612.67999
-72.150002 -88.080002 -612.83002
-71.57 -88.07 -612.76001
-71.059998 -88.120003 -613.14001
-70.529999 -88.169998 -613.47998
-69.989998 -88.199997 -613.64001
-69.419998 -88.190002 -613.59998
-68.900002 -88.239998 -613.95001
-68.379997 -88.300003 -614.34003
-67.830002 -88.32 -614.46997
-67.32 -88.379997 -614.94
-66.800003 -88.440002 -615.34998
-66.300003 -88.540001 -615.97998
-65.769997 -88.580002 -616.26001
-65.220001 -88.599998 -616.41998
-64.720001 -88.690002 -617.03998
-64.18 -88.720001 -617.28003
-63.650002 -88.779999 -617.65002
-63.09 -88.779999 -617.65997
-62.5 -88.75 -617.48999
-61.939999 -88.75 -617.47998
-61.369999 -88.760002 -617.53998
-60.830002 -88.800003 -617.78998
-60.290001 -88.830002 -618.01001
-59.68 -88.769997 -617.63
-59.099998 -88.739998 -617.42999
-58.52 -88.730003 -617.33002
-57.959999 -88.730003 -617.34998
-57.400002 -88.739998 -617.42999
-56.869999 -88.809998 -617.85999
-56.310001 -88.809998 -617.88
-55.720001 -88.779999 -617.71002
-55.150002 -88.760002 -617.58002
-54.580002 -88.769997 -617.59998
-54.029999 -88.790001 -617.75
-53.48 -88.82 -617.97998
-52.93 -88.849998 -618.16998
-52.389999 -88.900002 -618.53003
-51.830002 -88.900002 -618.53003
-51.259998 -88.910004 -618.58002
-50.709999 -88.93 -618.73999
-50.16 -88.959999 -618.95001
-49.610001 -89 -619.20001
-49.049999 -89.019997 -619.33002
-48.48 -89.010002 -619.28003
-47.91 -89 -619.17999
-47.34 -89 -619.22998
-46.799999 -89.050003 -619.52002
-46.240002 -89.080002 -619.73999
-45.700001 -89.129997 -620.13
-45.16 -89.190002 -620.51001
-44.619999 -89.230003 -620.81
-44.060001 -89.260002 -621.01001
-43.52 -89.330002 -621.46002
-42.98 -89.379997 -621.79999
-42.43 -89.419998 -622.09003
-41.869999 -89.449997 -622.29999
-41.310001 -89.470001 -622.44
-40.75 -89.489998 -622.57001
-40.189999 -89.529999 -622.87
-39.630001 -89.559998 -623.04999
-39.07 -89.589996 -623.25
-38.509998 -89.610001 -623.40002
-37.950001 -89.629997 -623.54999
-37.380001 -89.650002 -623.65997
-36.830002 -89.690002 -623.94
-36.259998 -89.699997 -624.03998
-35.700001 -89.730003 -624.26001
-35.150002 -89.790001 -624.63
-34.59 -89.809998 -624.76001
-34.029999 -89.860001 -625.12
-33.48 -89.910004 -625.5
-32.91 -89.919998 -625.57001
-32.34 -89.949997 -625.75
-31.780001 -89.989998 -626.01001
-31.219999 -90.010002 -626.20001
-30.65 -90.040001 -626.35999
-30.09 -90.07 -626.59003
-29.530001 -90.129997 -627
-28.98 -90.209999 -627.53998
-28.42 -90.25 -627.81
-27.85 -90.279999 -628.03003
-27.290001 -90.32 -628.28998
-26.73 -90.379997 -628.70001
-26.16 -90.410004 -628.91998
-25.6 -90.459999 -629.26001
-25.040001 -90.510002 -629.59998
-24.469999 -90.550003 -629.89001
-23.889999 -90.559998 -629.91998
-23.33 -90.620003 -630.34003
-22.77 -90.669998 -630.67999
-22.190001 -90.699997 -630.89001
-21.629999 -90.760002 -631.28998
-21.07 -90.82 -631.75
-20.49 -90.849998 -631.91998
-19.92 -90.889999 -632.21002
-19.35 -90.949997 -632.64001
-18.790001 -91.019997 -633.13
-18.219999 -91.080002 -633.48999
-17.639999 -91.110001 -633.76001
-17.07 -91.139999 -633.96997
-16.5 -91.199997 -634.32001
-15.92 -91.260002 -634.72998
-15.36 -91.349998 -635.34998
-14.78 -91.389999 -635.66998
-14.21 -91.459999 -636.13
-13.64 -91.559998 -636.78998
-13.06 -91.610001 -637.14001
-12.49 -91.709999 -637.82001
-11.92 -91.809998 -638.56
-11.34 -91.879997 -638.98999
-10.77 -91.970001 -639.66998
-10.19 -92.099998 -640.53003
55.549999 -91.949997 -639.46002
56.049999 -91.809998 -638.46997
56.599998 -91.75 -638.06
57.150002 -91.690002 -637.60999
57.700001 -91.639999 -637.28998
58.259998 -91.599998 -637.03003
58.849998 -91.599998 -637.02002
59.43 -91.599998 -637.01001
60.02 -91.599998 -637.02002
60.619999 -91.629997 -637.22998
61.209999 -91.650002 -637.32001
61.830002 -91.699997 -637.66998
62.450001 -91.739998 -637.97998
