# .PCD v0.7 - Point Cloud Data file format
VERSION 0.7
FIELDS x y z
SIZE 4 4 4
TYPE F F F
COUNT 1 1 1
WIDTH 1841
HEIGHT 1
VIEWPOINT 0 0 0 1 0 0 0
POINTS 1841
DATA ascii
-113.6 111.49 -570.39001
-113.08 111.5 -570.39001
-112.56 111.5 -570.41998
-112.05 111.51 -570.46997
-111.55 111.53 -570.59003
-111.05 111.55 -570.69
-110.54 111.57 -570.78003
-110.03 111.59 -570.84998
-109.54 111.62 -571.01001
-109.02 111.62 -571
-108.51 111.63 -571.07001
-108.02 111.67 -571.28003
-107.51 111.68 -571.34003
-107.01 111.71 -571.46002
-106.53 111.75 -571.69
-106.04 111.79 -571.88
-105.54 111.81 -571.97998
-105.05 111.85 -572.17999
-104.54 111.87 -572.27002
-104.05 111.91 -572.44
-103.58 111.97 -572.75
-103.09 112 -572.91998
-102.59 112.03 -573.04999
-102.12 112.09 -573.38
-101.64 112.14 -573.60999
-101.16 112.19 -573.84998
-100.67 112.23 -574.04999
-100.17 112.26 -574.25
-99.699997 112.33 -574.56
-99.230003 112.38 -574.84003
-98.75 112.44 -575.13
-98.269997 112.5 -575.41998
-97.760002 112.51 -575.48999
-97.290001 112.58 -575.84003
-96.790001 112.61 -575.98999
-96.32 112.68 -576.33002
-95.839996 112.74 -576.63
-95.349998 112.79 -576.87
-94.879997 112.85 -577.20001
-94.389999 112.91 -577.46997
-93.919998 112.97 -577.78998
-93.440002 113.03 -578.10999
-92.970001 113.11 -578.46997
-92.5 113.18 -578.85999
-92.019997 113.24 -579.16998
-91.57 113.34 -579.63
-91.110001 113.42 -580.07001
-90.650002 113.51 -580.53003
-90.190002 113.61 -581.02002
-89.739998 113.71 -581.52002
-89.290001 113.82 -582.06
-88.839996 113.92 -582.59003
-88.400002 114.05 -583.21997
-87.980003 114.19 -583.94
-87.550003 114.34 -584.67999
-87.129997 114.49 -585.41998
-86.739998 114.69 -586.42999
-86.389999 114.93 -587.66998
-85.970001 115.09 -588.47998
-54.799999 106.91 -547.32001
-54.34 106.98 -547.65002
-53.84 106.99 -547.71002
-53.310001 106.94 -547.46002
-52.799999 106.92 -547.34998
-52.299999 106.92 -547.32001
-51.790001 106.91 -547.29999
-51.299999 106.93 -547.41998
-50.799999 106.93 -547.41998
-50.310001 106.96 -547.56
-49.830002 107 -547.75
-49.34 107.02 -547.85999
-48.860001 107.08 -548.15997
-48.400002 107.16 -548.53998
-47.91 107.2 -548.76001
-47.439999 107.26 -549.06
-46.970001 107.33 -549.44
-46.48 107.38 -549.66998
-46.009998 107.44 -549.96997
-45.549999 107.55 -550.53998
-45.09 107.65 -551.02002
-44.619999 107.75 -551.52002
-44.18 107.91 -552.32001
-43.759998 108.11 -553.34998
-43.310001 108.25 -554.07001
17.940001 113.7 -581.51001
18.459999 113.59 -580.97998
18.98 113.52 -580.62
19.5 113.46 -580.33002
20.02 113.39 -579.94
20.530001 113.29 -579.46002
21.030001 113.12 -578.60999
21.52 112.92 -577.59003
22.02 112.77 -576.84998
22.52 112.62 -576.10999
23.01 112.45 -575.22998
23.52 112.37 -574.81
24.030001 112.26 -574.28003
24.540001 112.21 -574
25.059999 112.15 -573.71997
25.58 112.13 -573.59003
26.09 112.08 -573.37
26.610001 112.04 -573.15002
27.129999 112.02 -573.08002
27.65 112.02 -573.03998
28.18 112.01 -573
28.700001 112.01 -572.98999
29.23 112.01 -573.03003
29.75 112.02 -573.06
30.280001 112.03 -573.10999
30.809999 112.04 -573.14001
31.34 112.04 -573.16998
31.870001 112.06 -573.28003
32.400002 112.09 -573.41998
32.93 112.12 -573.56
33.459999 112.13 -573.59003
33.990002 112.14 -573.65002
34.52 112.15 -573.69
35.049999 112.16 -573.76001
35.57 112.16 -573.76001
36.09 112.13 -573.59998
36.599998 112.08 -573.34003
37.099998 112 -572.96997
37.599998 111.92 -572.54999
38.110001 111.89 -572.40997
38.619999 111.85 -572.17999
39.139999 111.83 -572.10999
39.669998 111.85 -572.19
40.209999 111.9 -572.42999
40.779999 112.02 -573.03003
41.34 112.11 -573.5
41.939999 112.31 -574.51001
42.5 112.41 -575
43.07 112.51 -575.5
43.66 112.67 -576.29999
44.290001 112.94 -577.65997
61.27 131.14999 -669.34998
61.900002 131.19 -669.54999
62.549999 131.25 -669.84998
63.209999 131.34 -670.31
63.93 131.55 -671.40002
64.68 131.84 -672.84003
-167.92999 111.65 -574.21997
-167.46001 111.68 -574.38
-167.02 111.74 -574.66998
-166.57001 111.79 -574.91998
-166.08 111.82 -575.04999
-165.59 111.84 -575.15997
-165.11 111.88 -575.33002
-164.66 111.93 -575.59003
-164.2 111.97 -575.78998
-163.74001 112.02 -576.01001
-163.31 112.09 -576.35999
-162.89999 112.17 -576.76001
-162.44 112.22 -577
-161.97 112.26 -577.20001
-161.48 112.28 -577.33002
-160.99001 112.31 -577.46002
-160.47 112.32 -577.47998
-159.95 112.32 -577.51001
-159.48 112.36 -577.71002
-158.94 112.36 -577.67999
-158.46001 112.39 -577.85999
-157.95 112.4 -577.89001
-157.42999 112.41 -577.91998
-156.92 112.42 -577.97998
-156.39999 112.43 -578.03003
-155.92 112.47 -578.20001
-155.36 112.45 -578.09998
-154.87 112.48 -578.23999
-154.34 112.48 -578.21997
-153.8 112.46 -578.16998
-153.28999 112.48 -578.25
-152.74001 112.47 -578.15997
-152.14 112.41 -577.88
-151.5 112.33 -577.47998
-150.89999 112.28 -577.20001
-150.35001 112.26 -577.12
-149.82001 112.26 -577.09003
-149.28999 112.27 -577.12
-148.75 112.25 -577.03998
-148.16 112.21 -576.83002
-147.62 112.2 -576.78003
-147.05 112.16 -576.59003
-146.5 112.15 -576.5
-145.98 112.16 -576.53998
-145.44 112.15 -576.48999
-144.86 112.11 -576.29999
-144.34 112.12 -576.33002
-143.78999 112.09 -576.20001
-143.21001 112.06 -576.02002
-142.66 112.04 -575.90997
-142.12 112.03 -575.88
-141.57001 112.01 -575.76001
-141 111.98 -575.59003
-140.45 111.96 -575.51001
-139.89999 111.94 -575.40002
-139.32001 111.9 -575.16998
-138.75 111.87 -575.02002
-138.17 111.82 -574.81
-137.64 111.82 -574.76001
-137.09 111.8 -574.69
-136.53999 111.78 -574.58002
-135.98 111.75 -574.42999
-135.42999 111.74 -574.34003
-134.88 111.72 -574.25
-134.34 111.7 -574.15997
-133.8 111.69 -574.10999
-133.25999 111.68 -574.04999
-132.71001 111.66 -573.91998
-132.09 111.58 -573.53998
-131.42999 111.47 -572.96002
-130.81 111.38 -572.53003
-130.21001 111.32 -572.22998
-129.61 111.26 -571.90002
-129.03999 111.21 -571.66998
-128.47 111.18 -571.48999
-127.9 111.13 -571.26001
-127.34 111.11 -571.12
-126.79 111.08 -570.96002
-126.27 111.08 -570.97998
-125.73 111.07 -570.92999
-125.16 111.03 -570.71997
-124.65 111.03 -570.73999
-124.1 111.01 -570.63
-123.56 111 -570.57001
-123.03 110.99 -570.52002
-122.51 111 -570.53998
-121.99 110.99 -570.52002
-121.46 110.99 -570.5
-120.92 110.97 -570.40002
-120.4 110.97 -570.41998
-119.86 110.96 -570.34003
-119.32 110.95 -570.28003
-118.82 110.96 -570.35999
-118.27 110.94 -570.25
-117.76 110.96 -570.32001
-117.23 110.94 -570.23999
-116.72 110.96 -570.33002
-116.19 110.95 -570.28998
-115.67 110.96 -570.32001
-115.13 110.94 -570.22998
-114.62 110.94 -570.25
-114.09 110.94 -570.22998
-113.59 110.96 -570.32001
-113.06 110.96 -570.33002
-112.55 110.96 -570.34998
-112.05 110.99 -570.48999
-111.51 110.98 -570.40997
-111.03 111.01 -570.59003
-110.52 111.02 -570.65002
-110 111.03 -570.65997
-109.51 111.07 -570.87
-109.01 111.08 -570.95001
-108.5 111.1 -571.03003
-108.01 111.13 -571.20001
-107.5 111.15 -571.28998
-107.02 111.19 -571.5
-106.51 111.2 -571.54999
-106 111.23 -571.67999
-105.53 111.28 -571.95001
-105.03 111.31 -572.07001
-104.55 111.35 -572.28998
-104.05 111.38 -572.40997
-103.56 111.42 -572.63
-103.07 111.45 -572.81
-102.58 111.49 -573.01001
-102.1 111.54 -573.26001
-101.62 111.59 -573.48999
-101.13 111.63 -573.70001
-100.65 111.68 -573.95001
-100.18 111.74 -574.26001
-99.68 111.77 -574.40997
-99.190002 111.81 -574.60999
-98.709999 111.86 -574.88
-98.25 111.94 -575.26001
-97.769997 111.99 -575.53003
-97.269997 112.03 -575.73999
-96.790001 112.08 -575.97998
-96.290001 112.12 -576.19
-95.809998 112.17 -576.40997
-95.309998 112.21 -576.64001
-94.839996 112.28 -576.98999
-94.379997 112.36 -577.37
-93.900002 112.42 -577.66998
-93.43 112.48 -578.01001
-92.940002 112.53 -578.26001
-92.470001 112.61 -578.66998
-92 112.68 -579
-91.550003 112.78 -579.52002
-91.07 112.84 -579.82001
-90.620003 112.95 -580.39001
-90.160004 113.04 -580.83002
-89.709999 113.14 -581.32001
-89.260002 113.25 -581.87
-88.82 113.36 -582.46002
-88.360001 113.47 -582.98999
-87.940002 113.61 -583.71002
-87.510002 113.74 -584.38
-87.089996 113.9 -585.15997
-86.690002 114.08 -586.06
-86.309998 114.29 -587.14001
-85.989998 114.58 -588.59003
-53.849998 106.5 -547.78003
-53.360001 106.54 -547.97998
-52.84 106.49 -547.71997
-52.330002 106.47 -547.62
-51.830002 106.48 -547.65997
-51.32 106.46 -547.57001
-50.82 106.48 -547.64001
-50.34 106.51 -547.79999
-49.84 106.52 -547.87
-49.360001 106.57 -548.09998
-48.889999 106.64 -548.46997
-48.400002 106.66 -548.56
-47.919998 106.7 -548.78003
-47.459999 106.8 -549.28998
-46.970001 106.84 -549.47998
-46.48 106.87 -549.64001
-46.009998 106.95 -550.03998
-45.549999 107.06 -550.59003
-45.080002 107.13 -550.96002
-44.610001 107.22 -551.40002
-44.18 107.39 -552.28998
-43.740002 107.55 -553.08002
-43.290001 107.69 -553.81
16.9 113.33 -582.37
17.41 113.18 -581.58002
17.92 113.07 -581.03003
18.450001 113.02 -580.76001
18.969999 112.94 -580.37
19.49 112.9 -580.15997
20.01 112.83 -579.84003
20.52 112.72 -579.26001
21.030001 112.57 -578.5
21.52 112.37 -577.48999
22.02 112.23 -576.77002
22.52 112.08 -576.03998
23.01 111.92 -575.22998
23.52 111.82 -574.69
24.02 111.71 -574.15002
24.540001 111.66 -573.89001
25.049999 111.6 -573.59003
25.57 111.56 -573.39001
26.08 111.51 -573.15002
26.6 111.49 -573.03998
27.120001 111.48 -572.96002
27.65 111.47 -572.90997
28.17 111.47 -572.91998
28.700001 111.48 -572.96997
29.219999 111.48 -572.98999
29.75 111.5 -573.08002
30.280001 111.5 -573.08002
30.809999 111.51 -573.12
31.34 111.53 -573.21997
31.870001 111.54 -573.28003
32.400002 111.57 -573.41998
32.93 111.57 -573.45001
33.459999 111.59 -573.53998
33.98 111.59 -573.54999
34.52 111.62 -573.66998
35.049999 111.63 -573.71997
35.57 111.61 -573.64001
36.09 111.6 -573.58002
36.599998 111.56 -573.37
37.099998 111.48 -572.96997
37.599998 111.39 -572.53998
38.110001 111.36 -572.34998
38.619999 111.31 -572.13
39.130001 111.27 -571.92999
39.669998 111.31 -572.12
40.200001 111.34 -572.25
40.75 111.42 -572.65997
41.32 111.52 -573.19
41.919998 111.73 -574.25
42.490002 111.85 -574.83002
43.060001 111.95 -575.33002
43.619999 112.05 -575.83002
44.259998 112.31 -577.19
61.240002 130.47 -669.02002
61.880001 130.53 -669.34003
62.52 130.57001 -669.54999
63.16 130.63 -669.85999
63.84 130.75 -670.46002
64.57 130.98 -671.63
-167.96001 111.14 -574.29999
-167.5 111.18 -574.52002
-167.05 111.23 -574.76001
-166.59 111.28 -575
-166.12 111.32 -575.16998
-165.66 111.37 -575.40997
-165.16 111.38 -575.46997
-164.69 111.42 -575.66998
-164.22 111.46 -575.85999
-163.78 111.52 -576.16998
-163.39 111.61 -576.62
-162.98 111.7 -577.04999
-162.53 111.75 -577.29999
-162.07001 111.8 -577.54999
-161.56 111.81 -577.59998
-161.05 111.83 -577.67999
-160.52 111.82 -577.65997
-160.03999 111.86 -577.84003
-159.60001 111.92 -578.12
-159.06 111.91 -578.09003
-158.52 111.91 -578.06
-158.05 111.94 -578.25
-157.53999 111.96 -578.31
-156.98 111.94 -578.21002
-156.50999 111.98 -578.41998
-156.00999 112 -578.53003
-155.47 111.99 -578.47998
-154.95 112 -578.5
-154.44 112.02 -578.59003
-153.86 111.98 -578.38
-153.37 112.01 -578.53003
-152.86 112.02 -578.59003
-152.22 111.94 -578.17999
-151.62 111.89 -577.92999
-151.10001 111.9 -577.96997
-150.5 111.85 -577.70001
-149.92999 111.81 -577.51001
-149.33 111.76 -577.26001
-148.78 111.75 -577.17999
-148.24001 111.74 -577.10999
-147.69 111.73 -577.04999
-147.14 111.71 -576.94
-146.61 111.71 -576.94
-146.07001 111.69 -576.87
-145.50999 111.68 -576.77002
-145.00999 111.7 -576.87
-144.48 111.69 -576.84998
-143.87 111.63 -576.52002
-143.25999 111.57 -576.21002
-142.69 111.54 -576.04999
-142.17999 111.55 -576.10999
-141.66 111.55 -576.10999
-141.08 111.51 -575.91998
-140.5 111.47 -575.71997
-139.96001 111.46 -575.65002
-139.38 111.42 -575.42999
-138.8 111.37 -575.20001
-138.24001 111.35 -575.06
-137.7 111.34 -575
-137.11 111.29 -574.76001
-136.59 111.29 -574.77002
-136.02 111.26 -574.62
-135.48 111.25 -574.53003
-134.91 111.21 -574.35999
-134.36 111.19 -574.26001
-133.83 111.19 -574.21002
-133.28 111.17 -574.12
-132.7 111.12 -573.89001
-132.11 111.07 -573.62
-131.41 110.93 -572.88
-130.81 110.86 -572.53003
-130.21001 110.8 -572.22998
-129.62 110.74 -571.94
-129.02 110.68 -571.59998
-128.47 110.66 -571.48999
-127.89 110.6 -571.20001
-127.33 110.57 -571.03998
-126.79 110.55 -570.96002
-126.24 110.54 -570.87
-125.68 110.5 -570.67999
-125.15 110.5 -570.67999
-124.61 110.48 -570.58002
-124.08 110.48 -570.56
-123.55 110.47 -570.52002
-123.01 110.45 -570.42999
-122.47 110.44 -570.37
-121.94 110.43 -570.33002
-121.42 110.43 -570.31
-120.88 110.41 -570.21997
-120.36 110.42 -570.27002
-119.84 110.42 -570.23999
-119.3 110.4 -570.17999
-118.78 110.4 -570.17999
-118.27 110.42 -570.23999
-117.74 110.41 -570.21997
-117.21 110.41 -570.17999
-116.69 110.4 -570.16998
-116.17 110.4 -570.16998
-115.66 110.42 -570.23999
-115.13 110.41 -570.19
-114.6 110.4 -570.15997
-114.08 110.41 -570.20001
-113.56 110.41 -570.17999
-113.04 110.42 -570.21997
-112.53 110.43 -570.27002
-112.01 110.43 -570.28998
-111.51 110.45 -570.40002
-111 110.46 -570.44
-110.5 110.48 -570.54999
-109.99 110.5 -570.63
-109.49 110.52 -570.75
-108.98 110.53 -570.79999
-108.48 110.56 -570.94
-107.98 110.58 -571.03003
-107.49 110.61 -571.21002
-107 110.65 -571.41998
-106.5 110.67 -571.5
-106 110.7 -571.65997
-105.49 110.72 -571.75
-105 110.75 -571.90002
-104.51 110.78 -572.06
-104.02 110.82 -572.27002
-103.54 110.87 -572.52002
-103.05 110.91 -572.70001
-102.57 110.95 -572.94
-102.09 111.01 -573.20001
-101.6 111.04 -573.40002
-101.12 111.09 -573.65002
-100.64 111.14 -573.87
-100.16 111.19 -574.15002
-99.660004 111.23 -574.33002
-99.190002 111.29 -574.65997
-98.699997 111.33 -574.84003
-98.220001 111.38 -575.09003
-97.709999 111.4 -575.19
-97.230003 111.46 -575.48999
-96.739998 111.5 -575.69
-96.269997 111.57 -576.03998
-95.790001 111.62 -576.29999
-95.300003 111.67 -576.56
-94.809998 111.72 -576.79999
-94.330002 111.77 -577.09003
-93.860001 111.84 -577.44
-93.400002 111.92 -577.85999
-92.910004 111.97 -578.09003
-92.440002 112.05 -578.47998
-91.959999 112.11 -578.81
-91.510002 112.21 -579.29999
-91.050003 112.29 -579.70001
-90.589996 112.37 -580.14001
-90.129997 112.46 -580.59998
-89.690002 112.59 -581.23999
-89.230003 112.68 -581.69
-88.779999 112.78 -582.21002
-88.330002 112.9 -582.79999
-87.889999 113.01 -583.37
-87.470001 113.15 -584.10999
-87.050003 113.31 -584.90997
-86.629997 113.46 -585.65002
-86.290001 113.72 -586.96997
-85.949997 113.98 -588.33002
-53.41 106.13 -548.41998
-52.889999 106.09 -548.23999
-52.360001 106.03 -547.94
-51.849998 106.01 -547.84003
-51.34 106.01 -547.81
-50.860001 106.04 -547.97998
-50.360001 106.06 -548.06
-49.860001 106.06 -548.08002
-49.400002 106.15 -548.53003
-48.889999 106.13 -548.45001
-48.41 106.19 -548.71997
-47.939999 106.24 -549.01001
-47.450001 106.29 -549.22998
-46.970001 106.32 -549.41998
-46.490002 106.39 -549.77002
-46.009998 106.45 -550.07001
-45.540001 106.51 -550.39001
-45.07 106.61 -550.87
-44.639999 106.77 -551.70001
-44.169998 106.87 -552.19
-43.720001 107 -552.85999
-43.27 107.14 -553.59003
16.360001 112.77 -582.20001
16.870001 112.63 -581.53003
17.4 112.56 -581.16998
17.92 112.5 -580.85999
18.440001 112.45 -580.58002
18.969999 112.39 -580.28998
19.49 112.33 -579.97998
20.01 112.26 -579.64001
20.52 112.15 -579.03998
21.01 111.97 -578.16998
21.51 111.82 -577.39001
22.02 111.69 -576.71997
22.51 111.52 -575.88
23.01 111.37 -575.12
23.51 111.26 -574.53003
24.02 111.16 -574.04999
24.530001 111.1 -573.75
25.040001 111.03 -573.39001
25.559999 111 -573.20001
26.08 110.96 -573.01001
26.6 110.95 -572.95001
27.120001 110.93 -572.84003
27.639999 110.93 -572.85999
28.17 110.94 -572.89001
28.690001 110.94 -572.88
29.219999 110.95 -572.95001
29.75 110.96 -573.02002
30.280001 110.96 -573
30.799999 110.97 -573.06
31.33 110.99 -573.14001
31.860001 111.01 -573.25
32.389999 111.01 -573.23999
32.919998 111.04 -573.40002
33.450001 111.05 -573.46997
33.98 111.05 -573.47998
34.509998 111.08 -573.59998
35.040001 111.09 -573.65002
35.560001 111.06 -573.53998
36.080002 111.04 -573.41998
36.59 111.01 -573.26001
37.099998 110.95 -572.95001
37.59 110.85 -572.46002
38.099998 110.8 -572.20001
38.599998 110.74 -571.90002
39.119999 110.72 -571.78003
39.650002 110.74 -571.85999
40.18 110.77 -572.02002
40.740002 110.84 -572.40002
41.299999 110.95 -572.95001
41.880001 111.1 -573.67999
42.48 111.29 -574.65002
43.049999 111.4 -575.21002
43.610001 111.48 -575.64001
44.220001 111.7 -576.73999
61.860001 129.87 -669.09003
62.459999 129.84 -668.97998
63.110001 129.91 -669.33002
63.799999 130.06 -670.06
64.529999 130.3 -671.28003
65.269997 130.53999 -672.53998
-167.98 110.63 -574.38
-167.52 110.67 -574.59003
-167.05 110.71 -574.78003
-166.64 110.79 -575.15997
-166.21001 110.85 -575.48999
-165.75 110.9 -575.71002
-165.28 110.94 -575.90002
-164.78 110.96 -575.98999
-164.35001 111.02 -576.32001
-163.94 111.1 -576.70001
-163.5 111.16 -577.01001
-163.08 111.23 -577.38
-162.63 111.29 -577.65002
-162.21001 111.36 -578.02002
-161.69 111.37 -578.07001
-161.2 111.39 -578.16998
-160.71001 111.43 -578.34003
-160.2 111.44 -578.39001
-159.74001 111.48 -578.62
-159.28 111.54 -578.88
-158.69 111.5 -578.66998
-158.16 111.49 -578.64001
-157.7 111.54 -578.90002
-157.14999 111.53 -578.83002
-156.52 111.46 -578.45001
-156.05 111.5 -578.66998
-155.61 111.56 -578.97998
-154.89999 111.44 -578.34003
-154.37 111.44 -578.32001
-153.33 111.45 -578.40002
-152.92 111.54 -578.84003
-152.27 111.45 -578.37
-151.71001 111.43 -578.27002
-151.17 111.42 -578.21997
-150.62 111.41 -578.14001
-150.10001 111.42 -578.17999
-149.55 111.4 -578.08002
-148.96001 111.36 -577.85999
-148.41 111.34 -577.78003
-147.82001 111.29 -577.52002
-147.33 111.32 -577.67999
-146.75 111.28 -577.46997
-146.23 111.29 -577.52002
-145.69 111.28 -577.44
-145.14999 111.27 -577.40002
-144.60001 111.26 -577.33002
-144.00999 111.21 -577.07001
-143.41 111.16 -576.81
-142.85001 111.13 -576.66998
-142.3 111.12 -576.59998
-141.74001 111.09 -576.42999
-141.17999 111.07 -576.33002
-140.61 111.03 -576.15997
-140.06 111.01 -576.03998
-139.47 110.96 -575.78003
-138.87 110.9 -575.47998
-138.3 110.88 -575.33002
-137.78999 110.88 -575.37
-137.16 110.8 -574.96997
-136.63 110.8 -574.95001
-136.09 110.79 -574.90002
-135.53 110.76 -574.75
-134.92999 110.7 -574.42999
-134.39 110.69 -574.39001
-133.85001 110.68 -574.32001
-133.28999 110.65 -574.15002
-132.71001 110.61 -573.94
-132.08 110.52 -573.5
-131.42 110.4 -572.89001
-130.83 110.35 -572.63
-130.21001 110.27 -572.21002
-129.61 110.21 -571.89001
-129.03999 110.17 -571.66998
-128.46001 110.12 -571.44
-127.89 110.08 -571.20001
-127.33 110.05 -571.07001
-126.78 110.02 -570.90997
-126.24 110.01 -570.85999
-125.67 109.97 -570.63
-125.13 109.95 -570.54999
-124.58 109.93 -570.46002
-124.07 109.94 -570.5
-123.53 109.93 -570.41998
-123 109.92 -570.39001
-122.48 109.93 -570.40997
-121.93 109.89 -570.25
-121.4 109.89 -570.23999
-120.88 109.9 -570.25
-120.36 109.89 -570.23999
-119.84 109.9 -570.25
-119.31 109.89 -570.21997
-118.8 109.9 -570.28003
-118.27 109.9 -570.25
-117.74 109.88 -570.19
-117.2 109.87 -570.10999
-116.69 109.88 -570.15997
-116.16 109.88 -570.15002
-115.65 109.89 -570.19
-115.11 109.87 -570.13
-114.59 109.87 -570.12
-114.07 109.88 -570.14001
-113.55 109.88 -570.15002
-113.04 109.89 -570.21997
-112.53 109.9 -570.25
-112.02 109.91 -570.29999
-111.51 109.93 -570.38
-111 109.94 -570.42999
-110.47 109.93 -570.41998
-109.99 109.98 -570.63
-109.46 109.97 -570.59998
-108.98 110.01 -570.81
-108.48 110.03 -570.90997
-107.98 110.06 -571.06
-107.47 110.07 -571.13
-106.98 110.11 -571.29999
-106.48 110.13 -571.40997
-105.98 110.16 -571.54999
-105.49 110.19 -571.72998
-104.99 110.22 -571.85999
-104.49 110.24 -571.97998
-104 110.27 -572.15002
-103.51 110.31 -572.33002
-103.04 110.37 -572.64001
-102.54 110.4 -572.78003
-102.06 110.44 -573.02002
-101.58 110.49 -573.27002
-101.1 110.54 -573.51001
-100.61 110.59 -573.76001
-100.13 110.64 -574.01001
-99.639999 110.68 -574.19
-99.169998 110.74 -574.52002
-98.690002 110.79 -574.77002
-98.199997 110.83 -574.97998
-97.709999 110.87 -575.19
-97.209999 110.91 -575.37
-96.730003 110.96 -575.63
-96.25 111.02 -575.92999
-95.760002 111.06 -576.15002
-95.269997 111.1 -576.35999
-94.779999 111.15 -576.59003
-94.309998 111.22 -576.96997
-93.839996 111.28 -577.29999
-93.360001 111.35 -577.60999
-92.889999 111.42 -577.98999
-92.419998 111.49 -578.34998
-91.949997 111.56 -578.71002
-91.5 111.65 -579.19
-91.019997 111.72 -579.53998
-90.559998 111.81 -580
-90.110001 111.91 -580.5
-89.660004 112.01 -581.02002
-89.190002 112.1 -581.44
-88.739998 112.2 -581.97998
-88.309998 112.33 -582.65002
-87.870003 112.44 -583.21997
-87.43 112.58 -583.90002
-87.019997 112.73 -584.67999
-86.599998 112.88 -585.46997
-86.239998 113.12 -586.65997
-85.889999 113.36 -587.91998
-52.959999 105.73 -548.96002
-52.41 105.64 -548.51001
-51.889999 105.6 -548.28998
-51.400002 105.62 -548.39001
-50.889999 105.61 -548.33002
-50.389999 105.61 -548.34003
-49.91 105.66 -548.58002
-49.400002 105.65 -548.56
-48.91 105.68 -548.71002
-48.43 105.73 -548.92999
-47.950001 105.76 -549.12
-47.459999 105.8 -549.31
-46.98 105.85 -549.58002
-46.5 105.9 -549.81
-46.009998 105.94 -550.03003
-45.540001 106.02 -550.46002
-45.09 106.14 -551.03998
-44.619999 106.23 -551.53998
-44.150002 106.31 -551.92999
-43.720001 106.49 -552.84998
-43.299999 106.7 -553.90002
15.82 112.2 -582.02002
16.34 112.11 -581.59998
16.870001 112.05 -581.25
17.389999 111.98 -580.90997
17.92 111.94 -580.72998
18.440001 111.88 -580.41998
18.959999 111.84 -580.21002
19.49 111.8 -579.98999
20 111.72 -579.59003
20.52 111.61 -579.03003
21.01 111.41 -577.97998
21.51 111.27 -577.28998
22.01 111.12 -576.5
22.51 110.99 -575.84998
23 110.79 -574.84003
23.51 110.71 -574.40997
24.01 110.61 -573.91998
24.530001 110.55 -573.59998
25.040001 110.49 -573.29999
25.549999 110.46 -573.12
26.08 110.44 -573.03003
26.6 110.42 -572.92999
27.120001 110.42 -572.95001
27.639999 110.41 -572.87
28.17 110.41 -572.89001
28.700001 110.42 -572.91998
29.219999 110.42 -572.95001
29.75 110.44 -573.02002
30.280001 110.43 -572.98999
30.809999 110.46 -573.15002
31.34 110.47 -573.17999
31.860001 110.47 -573.16998
32.389999 110.49 -573.28003
32.919998 110.49 -573.28998
33.450001 110.51 -573.39001
33.98 110.52 -573.41998
34.509998 110.53 -573.5
35.029999 110.54 -573.53998
35.560001 110.54 -573.52002
36.07 110.5 -573.35999
36.599998 110.51 -573.37
37.110001 110.45 -573.09003
37.59 110.32 -572.42999
38.09 110.25 -572.06
38.59 110.19 -571.77002
39.099998 110.16 -571.58002
39.630001 110.17 -571.63
40.169998 110.2 -571.78003
40.720001 110.28 -572.21997
41.279999 110.37 -572.65002
41.860001 110.52 -573.42999
42.459999 110.72 -574.46002
43.040001 110.85 -575.10999
43.599998 110.94 -575.58002
44.189999 111.1 -576.40997
61.84 129.22 -668.91998
62.459999 129.22 -668.92999
63.09 129.25 -669.07001
63.77 129.38 -669.75
64.459999 129.53 -670.53998
65.220001 129.81 -671.96002
65.989998 130.13 -673.59003
-168.00999 110.12 -574.46997
-167.56 110.17 -574.71002
-167.12 110.23 -575
-166.66 110.27 -575.21002
-166.23 110.34 -575.56
-165.82001 110.41 -575.92999
-165.39999 110.49 -576.28998
-164.92 110.52 -576.45001
-164.45 110.56 -576.65002
-164.00999 110.62 -576.94
-163.57001 110.68 -577.23999
-163.17999 110.78 -577.73999
-162.77 110.85 -578.12
-162.36 110.94 -578.54999
-161.91 110.99 -578.83002
-161.42999 111.02 -579
-160.92 111.04 -579.06
-160.5 111.11 -579.45001
-159.83 111.02 -578.96002
-151.19 110.91 -578.28998
-150.78 110.99 -578.73999
-150.24001 110.99 -578.69
-149.67999 110.96 -578.56
-149.13 110.95 -578.51001
-148.53999 110.91 -578.27002
-147.99001 110.89 -578.16998
-147.48 110.9 -578.22998
-146.92999 110.89 -578.15997
-146.36 110.86 -578.02002
-145.86 110.88 -578.12
-145.28 110.84 -577.90997
-144.73 110.83 -577.83002
-144.17 110.8 -577.71002
-143.61 110.78 -577.57001
-143.06 110.76 -577.48999
-142.46001 110.71 -577.21002
-141.84 110.64 -576.84998
-141.28999 110.62 -576.73999
-140.72 110.59 -576.59003
-140.16 110.57 -576.46002
-139.59 110.53 -576.28998
-138.99001 110.47 -575.98999
-138.42999 110.45 -575.83002
-137.85001 110.41 -575.65002
-137.24001 110.34 -575.28998
-136.69 110.32 -575.17999
-136.13 110.29 -575.03998
-135.56 110.26 -574.84998
-134.99001 110.22 -574.66998
-134.45 110.21 -574.62
-133.91 110.2 -574.56
-133.33 110.16 -574.33002
-132.72 110.09 -573.97998
-132.07001 109.99 -573.45001
-131.41 109.88 -572.88
-130.78999 109.8 -572.46002
-130.2 109.74 -572.16998
-129.63 109.7 -571.96002
-129.03 109.63 -571.62
-128.46001 109.6 -571.42999
-127.87 109.54 -571.13
-127.32 109.51 -571
-126.76 109.49 -570.87
-126.23 109.47 -570.78998
-125.65 109.43 -570.57001
-125.1 109.4 -570.42999
-124.58 109.41 -570.44
-124.04 109.39 -570.34998
-123.53 109.41 -570.42999
-122.99 109.39 -570.33002
-122.44 109.37 -570.21997
-121.92 109.37 -570.21997
-121.38 109.35 -570.13
-120.86 109.35 -570.12
-120.34 109.35 -570.13
-119.81 109.35 -570.10999
-119.29 109.35 -570.12
-118.76 109.35 -570.10999
-118.24 109.34 -570.08002
-117.73 109.35 -570.14001
-117.2 109.35 -570.10999
-116.66 109.34 -570.04999
-116.13 109.32 -569.96997
-115.61 109.33 -570.01001
-115.1 109.34 -570.07001
-114.57 109.33 -570.03003
-114.05 109.33 -570.03003
-113.54 109.35 -570.09003
-113.03 109.36 -570.15997
-112.5 109.36 -570.14001
-111.99 109.37 -570.19
-111.48 109.38 -570.23999
-110.98 109.4 -570.34998
-110.49 109.43 -570.5
-109.97 109.44 -570.54999
-109.46 109.44 -570.58002
-108.96 109.47 -570.70001
-108.45 109.48 -570.77002
-107.95 109.5 -570.89001
-107.46 109.54 -571.09003
-106.98 109.58 -571.27002
-106.46 109.59 -571.32001
-105.95 109.6 -571.40002
-105.47 109.64 -571.59003
-104.97 109.68 -571.76001
-104.47 109.7 -571.89001
-103.98 109.73 -572.06
-103.49 109.77 -572.26001
-103.02 109.83 -572.53998
-102.53 109.86 -572.71997
-102.05 109.91 -572.96997
-101.54 109.93 -573.08002
-101.07 109.99 -573.38
-100.59 110.04 -573.62
-100.09 110.07 -573.77002
-99.599998 110.11 -573.98999
-99.110001 110.15 -574.17999
-98.639999 110.21 -574.5
-98.169998 110.27 -574.81
-97.68 110.31 -575.03003
-97.18 110.35 -575.21002
-96.68 110.37 -575.34003
-96.220001 110.45 -575.71997
-95.720001 110.49 -575.92999
-95.25 110.55 -576.26001
-94.769997 110.6 -576.52002
-94.279999 110.66 -576.78998
-93.800003 110.71 -577.08002
-93.32 110.77 -577.39001
-92.860001 110.85 -577.78003
-92.379997 110.91 -578.09998
-91.910004 110.99 -578.47998
-91.459999 111.08 -578.96002
-90.989998 111.16 -579.37
-90.529999 111.24 -579.78998
-90.059998 111.31 -580.15997
-89.620003 111.43 -580.76001
-89.169998 111.53 -581.27002
-88.730003 111.65 -581.89001
-88.269997 111.75 -582.38
-87.830002 111.86 -582.98999
-87.389999 111.99 -583.64001
-86.970001 112.14 -584.39001
-86.559998 112.3 -585.21002
-86.209999 112.53 -586.42999
-85.860001 112.78 -587.69
-52.48 105.28 -549.21997
-51.98 105.28 -549.21997
-51.439999 105.21 -548.85999
-50.93 105.19 -548.78003
-50.419998 105.18 -548.71997
-49.919998 105.17 -548.66998
-49.41 105.17 -548.67999
-48.93 105.22 -548.91998
-48.439999 105.25 -549.04999
-47.950001 105.28 -549.21002
-47.470001 105.33 -549.47998
-46.98 105.36 -549.63
-46.5 105.39 -549.82001
-46.02 105.46 -550.16998
-45.549999 105.55 -550.59998
-45.080002 105.61 -550.92999
-44.610001 105.71 -551.42999
-44.16 105.82 -551.98999
-43.740002 106.04 -553.15002
-43.310001 106.23 -554.09998
14.78 111.83 -582.89001
15.29 111.66 -582.02002
15.81 111.55 -581.46002
16.33 111.51 -581.21002
16.860001 111.46 -580.96002
17.379999 111.42 -580.75
17.91 111.38 -580.56
18.440001 111.34 -580.35999
18.959999 111.29 -580.10999
19.48 111.25 -579.90002
20 111.15 -579.37
20.5 111.02 -578.69
21.01 110.87 -577.94
21.5 110.71 -577.09998
22.01 110.57 -576.40002
22.5 110.42 -575.65997
22.99 110.23 -574.65997
23.5 110.14 -574.21997
24 110.04 -573.70001
24.52 109.99 -573.45001
25.030001 109.93 -573.13
25.549999 109.91 -573.02002
26.07 109.89 -572.92999
26.59 109.88 -572.87
27.120001 109.87 -572.79999
27.639999 109.86 -572.78003
28.17 109.88 -572.84998
28.700001 109.89 -572.90002
29.219999 109.9 -572.96002
29.75 109.91 -573
30.280001 109.92 -573.06
30.799999 109.92 -573.07001
31.33 109.94 -573.15002
31.860001 109.94 -573.14001
32.389999 109.95 -573.21002
32.919998 109.96 -573.27002
33.439999 109.97 -573.29999
33.970001 109.97 -573.29999
34.5 109.98 -573.38
35.02 109.97 -573.33002
35.549999 109.99 -573.39001
36.080002 110 -573.48999
36.599998 109.99 -573.40002
37.099998 109.9 -572.96002
37.59 109.8 -572.41998
38.080002 109.71 -571.97998
38.580002 109.62 -571.53998
39.099998 109.61 -571.46997
39.619999 109.62 -571.52002
40.16 109.65 -571.65997
40.709999 109.72 -572.03998
41.27 109.82 -572.56
41.84 109.95 -573.19
42.43 110.11 -574.02002
43.02 110.28 -574.90997
43.59 110.39 -575.46997
44.169998 110.52 -576.14001
44.779999 110.72 -577.17999
61.810001 128.53 -668.53998
62.439999 128.57001 -668.77002
63.060001 128.58 -668.79999
63.75 128.72 -669.53003
64.410004 128.81 -669.98999
65.190002 129.14999 -671.71997
65.93 129.39999 -672.98999
-168.08 109.64 -574.69
-167.64 109.7 -574.96997
-167.16 109.73 -575.13
-166.74001 109.8 -575.47998
-166.3 109.86 -575.78998
-165.95 109.98 -576.38
-165.50999 110.03 -576.67999
-165.02 110.06 -576.78998
-164.50999 110.07 -576.85999
-164.11 110.16 -577.31
-163.66 110.21 -577.57001
-163.27 110.3 -578.03003
-162.87 110.4 -578.5
-162.46001 110.47 -578.89001
-161.97 110.5 -579.02002
-148.07001 110.42 -578.5
-147.47 110.37 -578.21997
-146.96001 110.38 -578.27002
-146.44 110.39 -578.32001
-145.89 110.37 -578.21997
-145.3 110.33 -577.98999
-144.85001 110.39 -578.29999
-144.27 110.35 -578.09998
-143.73 110.35 -578.07001
-143.23 110.36 -578.15997
-142.61 110.3 -577.82001
-141.99001 110.22 -577.42999
-141.37 110.16 -577.07001
-140.8 110.13 -576.91998
-140.23 110.09 -576.75
-139.66 110.06 -576.58002
-139.10001 110.03 -576.42999
-138.56 110.03 -576.38
-137.97 109.97 -576.09998
-137.35001 109.9 -575.71997
-136.77 109.86 -575.52002
-136.2 109.83 -575.34003
-135.62 109.78 -575.12
-135.07001 109.76 -575
-134.53999 109.76 -574.97998
-133.95 109.71 -574.73999
-133.39 109.68 -574.59998
-132.75999 109.6 -574.15002
-132.07001 109.46 -573.44
-131.42999 109.37 -572.95001
-130.82001 109.29 -572.58002
-130.22 109.23 -572.25
-129.62 109.17 -571.90997
-129.03999 109.12 -571.67999
-128.48 109.09 -571.51001
-127.89 109.03 -571.20001
-127.35 109.01 -571.12
-126.8 108.99 -571.01001
-126.23 108.95 -570.78998
-125.65 108.91 -570.54999
-125.11 108.89 -570.48999
-124.56 108.87 -570.35999
-124.02 108.85 -570.26001
-123.51 108.86 -570.29999
-122.97 108.85 -570.25
-122.43 108.84 -570.17999
-121.91 108.83 -570.15997
-121.36 108.81 -570.04999
-120.85 108.82 -570.09003
-120.33 108.82 -570.09998
-119.8 108.82 -570.08002
-119.27 108.81 -570.04999
-118.75 108.81 -570.02002
-118.24 108.82 -570.09998
-117.71 108.82 -570.06
-117.17 108.8 -569.98999
-116.65 108.8 -569.96997
-116.13 108.8 -569.96997
-115.61 108.8 -569.98999
-115.09 108.81 -570
-114.56 108.8 -569.97998
-114.03 108.79 -569.94
-113.51 108.79 -569.91998
-112.99 108.8 -569.95001
-112.49 108.82 -570.06
-111.98 108.83 -570.14001
-111.49 108.86 -570.26001
-110.97 108.86 -570.28003
-110.46 108.88 -570.37
-109.96 108.9 -570.46997
-109.46 108.92 -570.59003
-108.96 108.94 -570.67999
-108.44 108.95 -570.73999
-107.95 108.98 -570.90002
-107.44 109 -570.98999
-106.95 109.03 -571.15002
-106.45 109.05 -571.25
-105.95 109.08 -571.39001
-105.45 109.1 -571.51001
-104.95 109.12 -571.60999
-104.45 109.15 -571.78003
-103.97 109.2 -571.98999
-103.48 109.23 -572.19
-102.99 109.27 -572.35999
-102.52 109.32 -572.64001
-102.02 109.35 -572.79999
-101.53 109.39 -572.98999
-101.05 109.44 -573.23999
-100.56 109.48 -573.44
-100.08 109.53 -573.72998
-99.589996 109.57 -573.92999
-99.099998 109.6 -574.09003
-98.620003 109.65 -574.34998
-98.139999 109.72 -574.66998
-97.639999 109.74 -574.81
-97.160004 109.79 -575.06
-96.669998 109.84 -575.29999
-96.18 109.88 -575.5
-95.690002 109.93 -575.75
-95.220001 109.99 -576.06
-94.739998 110.04 -576.34998
-94.269997 110.11 -576.71997
-93.779999 110.16 -576.96997
-93.309998 110.22 -577.28003
-92.830002 110.28 -577.58002
-92.360001 110.36 -578
-91.889999 110.43 -578.34998
-91.43 110.51 -578.77002
-90.949997 110.58 -579.09998
-90.510002 110.69 -579.66998
-90.040001 110.77 -580.09003
-89.589996 110.86 -580.56
-89.139999 110.97 -581.12
-88.709999 111.09 -581.77002
-88.239998 111.17 -582.15002
-87.809998 111.3 -582.84003
-87.360001 111.42 -583.42999
-86.949997 111.58 -584.27002
-86.559998 111.77 -585.23999
-86.18 111.96 -586.25
-85.849998 112.24 -587.66998
-52.009998 104.84 -549.53003
-51.490002 104.8 -549.34998
-50.959999 104.75 -549.08002
-50.439999 104.71 -548.90002
-49.939999 104.73 -548.97998
-49.459999 104.76 -549.14001
-48.959999 104.77 -549.19
-48.450001 104.76 -549.16998
-47.970001 104.8 -549.35999
-47.48 104.85 -549.59998
-46.990002 104.87 -549.72998
-46.509998 104.93 -550.01001
-46.029999 104.97 -550.25
-45.560001 105.05 -550.65002
-45.080002 105.12 -550.97998
-44.630001 105.25 -551.66998
-44.189999 105.39 -552.40002
-43.740002 105.54 -553.16998
-43.290001 105.66 -553.78003
14.23 111.21 -582.44
14.75 111.12 -581.96997
15.27 111.03 -581.51001
15.8 110.94 -581.06
16.32 110.91 -580.88
16.85 110.88 -580.71997
17.379999 110.87 -580.65997
17.91 110.83 -580.48999
18.43 110.8 -580.29999
18.959999 110.75 -580.08002
19.48 110.71 -579.84003
20 110.62 -579.38
20.5 110.48 -578.65997
21 110.31 -577.78998
21.5 110.16 -577
22 110 -576.21002
22.5 109.85 -575.44
22.99 109.69 -574.59998
23.49 109.57 -573.97998
23.99 109.47 -573.47998
24.51 109.45 -573.34003
25.030001 109.39 -573.06
25.549999 109.37 -572.95001
26.07 109.36 -572.88
26.59 109.35 -572.84003
27.110001 109.34 -572.77002
27.639999 109.34 -572.78003
28.16 109.33 -572.75
28.690001 109.34 -572.78998
29.209999 109.34 -572.78998
29.74 109.35 -572.85999
30.27 109.37 -572.95001
30.799999 109.37 -572.94
31.33 109.39 -573.04999
31.860001 109.41 -573.13
32.389999 109.42 -573.16998
32.919998 109.44 -573.28003
33.439999 109.44 -573.29999
33.970001 109.44 -573.27002
34.490002 109.43 -573.26001
35.02 109.44 -573.31
35.549999 109.45 -573.34998
36.080002 109.46 -573.38
36.599998 109.44 -573.28003
37.099998 109.38 -572.97998
37.59 109.28 -572.45001
38.080002 109.19 -571.98999
38.57 109.09 -571.47998
39.09 109.07 -571.35999
39.610001 109.07 -571.37
40.150002 109.11 -571.59003
40.700001 109.16 -571.85999
41.25 109.26 -572.34003
41.82 109.37 -572.90997
42.400002 109.51 -573.65997
43.009998 109.72 -574.72998
43.580002 109.83 -575.28003
44.139999 109.92 -575.77002
44.740002 110.09 -576.65997
61.759998 127.8 -667.96997
62.439999 127.95 -668.73999
63.060001 127.95 -668.72998
63.720001 128.03999 -669.21002
64.410004 128.19 -669.97998
65.139999 128.42999 -671.17999
65.889999 128.69 -672.51001
66.599998 128.86 -673.44
-168.09 109.12 -574.73999
-167.69 109.2 -575.13
-167.23 109.25 -575.37
-166.81 109.32 -575.71002
-166.46001 109.43 -576.31
-166.12 109.56 -576.96997
-165.64 109.59 -577.09998
-165.14999 109.61 -577.22998
-164.7 109.67 -577.51001
-164.32001 109.77 -578.02002
-163.89999 109.84 -578.39001
-163.56 109.97 -579.03003
-162.84 109.84 -578.38
-143.67999 109.77 -577.84998
-143.23 109.83 -578.15997
-142.67 109.82 -578.06
-142.16 109.83 -578.12
-141.61 109.81 -578.03003
-140.94 109.71 -577.47998
-140.38 109.68 -577.34003
-139.83 109.66 -577.23999
-139.22 109.6 -576.91998
-138.67 109.58 -576.82001
-138.07001 109.53 -576.53003
-137.44 109.45 -576.12
-136.89999 109.43 -576.03998
-136.28999 109.37 -575.71002
-135.67999 109.31 -575.38
-135.14 109.29 -575.28998
-134.58 109.27 -575.17999
-134.02 109.24 -575.02002
-133.42999 109.19 -574.76001
-132.78999 109.1 -574.27002
-132.13 108.98 -573.67999
-131.47 108.87 -573.12
-130.84 108.79 -572.65997
-130.22 108.7 -572.22998
-129.64999 108.67 -572.03998
-129.05 108.6 -571.71002
-128.45 108.54 -571.34998
-127.89 108.51 -571.22998
-127.35 108.5 -571.14001
-126.77 108.45 -570.90997
-126.23 108.43 -570.78998
-125.68 108.41 -570.66998
-125.11 108.37 -570.48999
-124.57 108.35 -570.40002
-124.03 108.33 -570.28998
-123.49 108.32 -570.21002
-122.95 108.31 -570.15997
-122.41 108.29 -570.06
-121.9 108.3 -570.09998
-121.38 108.3 -570.10999
-120.85 108.3 -570.09998
-120.32 108.29 -570.03998
-119.78 108.28 -569.98999
-119.27 108.29 -570.03003
-118.75 108.29 -570.03003
-118.21 108.27 -569.96002
-117.68 108.27 -569.92999
-117.17 108.27 -569.96002
-116.64 108.27 -569.92999
-116.1 108.25 -569.84998
-115.59 108.27 -569.91998
-115.08 108.27 -569.95001
-114.56 108.28 -569.96997
-114.03 108.27 -569.91998
-113.5 108.26 -569.89001
-113 108.28 -569.98999
-112.47 108.27 -569.94
-111.96 108.29 -570.03003
-111.45 108.3 -570.09998
-110.96 108.33 -570.25
-110.45 108.35 -570.33002
-109.93 108.35 -570.33002
-109.43 108.37 -570.46002
-108.93 108.4 -570.57001
-108.43 108.42 -570.69
-107.94 108.45 -570.84003
-107.43 108.47 -570.92999
-106.94 108.49 -571.07001
-106.43 108.51 -571.15997
-105.92 108.52 -571.21997
-105.43 108.56 -571.40997
-104.94 108.6 -571.59998
-104.43 108.6 -571.64001
-103.94 108.64 -571.82001
-103.46 108.69 -572.07001
-102.97 108.73 -572.28003
-102.49 108.77 -572.51001
-101.99 108.8 -572.65002
-101.52 108.85 -572.91998
-101.04 108.91 -573.21997
-100.56 108.95 -573.41998
-100.06 108.98 -573.59998
-99.580002 109.03 -573.85999
-99.089996 109.07 -574.06
-98.580002 109.09 -574.15002
-98.099998 109.14 -574.42999
-97.610001 109.18 -574.64001
-97.120003 109.22 -574.84003
-96.639999 109.28 -575.12
-96.160004 109.32 -575.35999
-95.669998 109.37 -575.59998
-95.199997 109.44 -575.94
-94.720001 109.49 -576.21997
-94.230003 109.54 -576.48999
-93.769997 109.61 -576.87
-93.279999 109.66 -577.13
-92.800003 109.72 -577.42999
-92.339996 109.8 -577.84998
-91.879997 109.88 -578.26001
-91.410004 109.96 -578.66998
-90.93 110.02 -578.97998
-90.459999 110.1 -579.38
-90.010002 110.19 -579.85999
-89.559998 110.3 -580.40997
-89.110001 110.39 -580.90002
-88.68 110.52 -581.59003
-88.220001 110.62 -582.07001
-87.790001 110.74 -582.71002
-87.349998 110.87 -583.34998
-86.93 111.01 -584.12
-86.540001 111.2 -585.09003
-86.18 111.42 -586.22998
-85.82 111.65 -587.44
-51.540001 104.41 -549.95001
-51.009998 104.35 -549.62
-50.5 104.34 -549.56
-49.990002 104.33 -549.5
-49.48 104.3 -549.35999
-48.970001 104.3 -549.34998
-48.490002 104.33 -549.53003
-47.990002 104.34 -549.59003
-47.490002 104.37 -549.71002
-47.009998 104.41 -549.91998
-46.52 104.45 -550.13
-46.040001 104.49 -550.37
-45.560001 104.55 -550.66998
-45.110001 104.67 -551.28003
-44.650002 104.78 -551.88
-44.189999 104.89 -552.40997
-43.720001 104.98 -552.89001
-43.27 105.12 -553.60999
13.7 110.7 -582.57001
14.22 110.57 -581.89001
14.74 110.48 -581.42999
15.27 110.43 -581.17999
15.79 110.38 -580.91998
16.32 110.37 -580.84003
16.85 110.34 -580.70001
17.379999 110.32 -580.58002
17.91 110.29 -580.45001
18.43 110.27 -580.32001
18.959999 110.21 -580.01001
19.48 110.14 -579.65997
19.99 110.03 -579.10999
20.49 109.89 -578.39001
20.99 109.73 -577.53003
21.49 109.6 -576.84998
21.99 109.43 -575.98999
22.49 109.29 -575.22998
22.98 109.1 -574.26001
23.48 109.02 -573.83002
23.99 108.95 -573.48999
24.51 108.91 -573.28998
25.030001 108.87 -573.06
25.540001 108.84 -572.90002
26.07 108.82 -572.83002
26.59 108.82 -572.83002
27.110001 108.81 -572.77002
27.639999 108.81 -572.77002
28.17 108.82 -572.81
28.690001 108.81 -572.77002
29.219999 108.83 -572.84003
29.74 108.82 -572.82001
30.27 108.83 -572.88
30.799999 108.85 -572.96997
31.32 108.84 -572.91998
31.85 108.86 -573.03003
32.380001 108.87 -573.08002
32.91 108.9 -573.21002
33.439999 108.89 -573.19
33.959999 108.9 -573.21997
34.490002 108.89 -573.15002
35.009998 108.9 -573.21997
35.549999 108.92 -573.29999
36.060001 108.87 -573.09003
36.57 108.83 -572.87
37.099998 108.85 -572.94
37.599998 108.78 -572.59998
38.09 108.68 -572.09998
38.57 108.56 -571.46002
39.080002 108.51 -571.21002
39.599998 108.52 -571.22998
40.139999 108.55 -571.40002
40.689999 108.62 -571.73999
41.240002 108.7 -572.15997
41.810001 108.82 -572.81
42.389999 108.95 -573.46002
42.990002 109.15 -574.52002
43.57 109.27 -575.09998
44.139999 109.37 -575.65002
44.720001 109.51 -576.37
62.419998 127.29 -668.46997
63.040001 127.31 -668.59998
63.689999 127.38 -668.97998
64.379997 127.53 -669.72998
65.080002 127.7 -670.60999
65.860001 128.00999 -672.20001
66.610001 128.28 -673.59998
-168.23 108.69 -575.20001
-167.78999 108.74 -575.48999
-167.41 108.84 -575.96997
-167.03999 108.94 -576.48999
-166.78 109.11 -577.39001
-166.37 109.2 -577.81
-165.92999 109.25 -578.09998
-165.59 109.38 -578.76001
-165.17 109.45 -579.10999
-164.63 109.44 -579.07001
-164.23 109.53 -579.52002
-141.58 109.26 -577.92999
-141.09 109.29 -578.08002
-140.57001 109.3 -578.12
-140.03999 109.29 -578.08002
-139.39 109.2 -577.59003
-138.84 109.19 -577.51001
-138.24001 109.13 -577.22998
-137.62 109.06 -576.83002
-137.03 109.01 -576.59003
-136.41 108.94 -576.21002
-135.83 108.89 -575.96997
-135.24001 108.85 -575.71997
-134.67999 108.82 -575.56
-134.10001 108.78 -575.37
-133.50999 108.72 -575.07001
-132.81 108.59 -574.35999
-132.17 108.49 -573.84998
-131.52 108.39 -573.32001
-130.88 108.29 -572.81
-130.25 108.21 -572.39001
-129.67 108.16 -572.10999
-129.03999 108.07 -571.65002
-128.49001 108.05 -571.53998
-127.92 108.01 -571.35999
-127.35 107.98 -571.15002
-126.8 107.95 -571.02002
-126.23 107.91 -570.81
-125.66 107.87 -570.60999
-125.11 107.85 -570.46997
-124.57 107.83 -570.39001
-124.03 107.82 -570.32001
-123.5 107.81 -570.27002
-122.95 107.79 -570.15002
-122.43 107.79 -570.15997
-121.91 107.79 -570.15997
-121.36 107.76 -570.03003
-120.84 107.76 -570.03003
-120.3 107.75 -569.96997
-119.79 107.76 -569.98999
-119.26 107.76 -570
-118.75 107.77 -570.04999
-118.21 107.75 -569.96997
-117.68 107.75 -569.92999
-117.16 107.75 -569.91998
-116.64 107.75 -569.91998
-116.1 107.73 -569.84998
-115.58 107.74 -569.87
-115.06 107.74 -569.87
-114.53 107.73 -569.82001
-114.02 107.74 -569.90002
-113.5 107.74 -569.90002
-112.98 107.75 -569.90997
-112.47 107.75 -569.94
-111.96 107.77 -570.01001
-111.45 107.78 -570.09998
-110.94 107.79 -570.13
-110.42 107.8 -570.16998
-109.93 107.83 -570.34003
-109.43 107.85 -570.42999
-108.93 107.87 -570.53998
-108.41 107.87 -570.58002
-107.91 107.9 -570.70001
-107.41 107.92 -570.82001
-106.91 107.95 -570.94
-106.41 107.97 -571.04999
-105.91 107.99 -571.17999
-105.43 108.03 -571.40002
-104.92 108.05 -571.48999
-104.42 108.07 -571.59998
-103.93 108.11 -571.78003
-103.44 108.14 -571.96997
-102.95 108.18 -572.17999
-102.47 108.23 -572.40002
-101.99 108.27 -572.64001
-101.5 108.31 -572.83002
-101.01 108.35 -573.03998
-100.53 108.4 -573.28003
-100.04 108.44 -573.48999
-99.540001 108.46 -573.64001
-99.059998 108.51 -573.87
-98.580002 108.56 -574.15002
-98.080002 108.59 -574.31
-97.580002 108.63 -574.46997
-97.099998 108.67 -574.71997
-96.610001 108.72 -574.96002
-96.139999 108.78 -575.28998
-95.650002 108.83 -575.52002
-95.18 108.88 -575.81
-94.68 108.92 -575.98999
-94.209999 108.98 -576.34003
-93.75 109.06 -576.73999
-93.269997 109.12 -577.06
-92.800003 109.19 -577.40002
-92.32 109.25 -577.71997
-91.839996 109.31 -578.03003
-91.379997 109.39 -578.44
-90.910004 109.47 -578.87
-90.449997 109.55 -579.28998
-90 109.65 -579.81
-89.550003 109.75 -580.34998
-89.099998 109.85 -580.87
-88.650002 109.96 -581.40002
-88.199997 110.06 -581.92999
-87.760002 110.17 -582.53003
-87.309998 110.28 -583.07001
-86.919998 110.46 -584.02002
-86.519997 110.64 -584.95001
-86.150002 110.85 -586.03998
-85.720001 110.99 -586.81
-51.52 103.86 -549.67999
-51.080002 104 -550.40002
-50.549999 103.94 -550.09003
-50.02 103.88 -549.82001
-49.52 103.88 -549.82001
-49.009998 103.88 -549.81
-48.52 103.9 -549.90002
-48.009998 103.9 -549.89001
-47.52 103.92 -550.01001
-47.029999 103.95 -550.17999
-46.540001 103.98 -550.29999
-46.049999 104.02 -550.51001
-45.599998 104.13 -551.10999
-45.119999 104.19 -551.40997
-44.639999 104.25 -551.75
-44.18 104.37 -552.34998
-43.740002 104.51 -553.07001
-43.32 104.73 -554.22998
13.17 110.18 -582.62
13.68 110.04 -581.90002
14.21 109.95 -581.45001
14.73 109.89 -581.10999
15.26 109.85 -580.94
15.79 109.82 -580.78003
16.32 109.83 -580.81
16.85 109.8 -580.67999
17.379999 109.77 -580.5
17.9 109.75 -580.38
18.43 109.72 -580.27002
18.959999 109.68 -580.02002
19.48 109.61 -579.65997
19.98 109.48 -578.97998
20.49 109.36 -578.35999
20.98 109.16 -577.34003
21.49 109.04 -576.69
21.98 108.85 -575.71002
22.48 108.73 -575.07001
22.969999 108.53 -574.06
23.48 108.46 -573.66998
23.99 108.39 -573.33002
24.5 108.35 -573.08002
25.02 108.31 -572.90002
25.540001 108.31 -572.88
26.07 108.3 -572.84003
26.59 108.27 -572.70001
27.110001 108.26 -572.64001
27.639999 108.28 -572.71997
28.16 108.27 -572.70001
28.68 108.27 -572.66998
29.209999 108.28 -572.71997
29.74 108.28 -572.76001
30.27 108.31 -572.87
30.790001 108.31 -572.90002
31.32 108.32 -572.91998
31.85 108.33 -572.96997
32.380001 108.34 -573.03003
32.91 108.35 -573.09003
33.43 108.36 -573.13
33.959999 108.35 -573.07001
34.48 108.36 -573.14001
35.009998 108.37 -573.20001
35.529999 108.35 -573.09998
36.049999 108.32 -572.91998
36.560001 108.29 -572.78003
37.09 108.3 -572.79999
37.599998 108.25 -572.57001
38.09 108.15 -572.04999
38.580002 108.06 -571.58002
39.080002 108 -571.26001
39.599998 108 -571.23999
40.139999 108.02 -571.35999
40.68 108.08 -571.66998
41.23 108.15 -572.04999
41.790001 108.25 -572.54999
42.369999 108.38 -573.23999
42.970001 108.57 -574.22998
43.560001 108.72 -575.01001
44.130001 108.84 -575.64001
44.700001 108.94 -576.16998
45.330002 109.19 -577.44
62.400002 126.63 -668.26001
63.02 126.66 -668.40997
63.669998 126.73 -668.78998
64.349998 126.86 -669.45001
65.059998 127.05 -670.41998
65.839996 127.37 -672.08002
66.57 127.56 -673.10999
-168.31 108.21 -575.45001
-168.42 108.62 -577.60999
-167.92 108.64 -577.67999
-167.57001 108.76 -578.31
-167.24001 108.89 -578.96997
-166.78999 108.94 -579.22998
-166.33 108.98 -579.46002
-165.89999 109.05 -579.82001
-165.41 109.08 -579.94
-165 109.16 -580.37
-140.52 108.73 -577.90997
-140.03 108.76 -578.06
-139.53999 108.79 -578.22998
-139.02 108.8 -578.23999
-138.39 108.72 -577.84003
-137.84 108.7 -577.75
-137.32001 108.71 -577.78003
-136.62 108.58 -577.07001
-136.03 108.53 -576.81
-135.42 108.46 -576.47998
-134.8 108.39 -576.08002
-134.2 108.33 -575.78998
-133.56 108.24 -575.28003
-132.86 108.1 -574.56
-132.21001 108 -574.03003
-131.53 107.87 -573.35999
-130.92 107.81 -573.02002
-130.28999 107.72 -572.53998
-129.67 107.64 -572.13
-129.05 107.55 -571.70001
-128.5 107.54 -571.59998
-127.94 107.51 -571.45001
-127.39 107.48 -571.29999
-126.81 107.44 -571.07001
-126.24 107.39 -570.82001
-125.69 107.37 -570.70001
-125.14 107.35 -570.59998
-124.58 107.31 -570.40997
-124.02 107.29 -570.28003
-123.48 107.27 -570.20001
-122.97 107.28 -570.23999
-122.44 107.28 -570.21997
-121.89 107.25 -570.09003
-121.37 107.25 -570.07001
-120.84 107.25 -570.04999
-120.32 107.24 -570.03998
-119.8 107.24 -570.03998
-119.27 107.24 -570.02002
-118.74 107.24 -570.01001
-118.22 107.23 -569.97998
-117.68 107.22 -569.90997
-117.15 107.21 -569.88
-116.64 107.22 -569.91998
-116.09 107.2 -569.81
-115.56 107.19 -569.75
-115.05 107.2 -569.79999
-114.54 107.21 -569.87
-114.01 107.2 -569.82001
-113.5 107.22 -569.90997
-112.98 107.22 -569.88
-112.47 107.23 -569.95001
-111.96 107.24 -570.02002
-111.45 107.25 -570.07001
-110.93 107.26 -570.12
-110.42 107.27 -570.15997
-109.93 107.3 -570.31
-109.43 107.33 -570.46002
-108.92 107.33 -570.47998
-108.42 107.36 -570.59998
-107.91 107.37 -570.66998
-107.41 107.39 -570.78998
-106.92 107.43 -570.96997
-106.41 107.44 -571.03998
-105.92 107.47 -571.20001
-105.4 107.48 -571.25
-104.91 107.51 -571.40997
-104.4 107.52 -571.46997
-103.93 107.58 -571.76001
-103.43 107.61 -571.90997
-102.94 107.65 -572.10999
-102.45 107.68 -572.29999
-101.96 107.72 -572.46997
-101.47 107.76 -572.67999
-101.01 107.82 -573
-100.49 107.83 -573.08002
-100.02 107.89 -573.35999
-99.519997 107.92 -573.53003
-99.029999 107.96 -573.72998
-98.559998 108.01 -574.03003
-98.07 108.06 -574.25
-97.57 108.09 -574.41998
-97.080002 108.13 -574.62
-96.599998 108.17 -574.87
-96.110001 108.22 -575.10999
-95.620003 108.26 -575.32001
-95.169998 108.34 -575.75
-94.669998 108.38 -575.95001
-94.199997 108.44 -576.28003
-93.709999 108.49 -576.53998
-93.25 108.58 -576.96997
