# .PCD v0.7 - Point Cloud Data file format
VERSION 0.7
FIELDS x y z
SIZE 4 4 4
TYPE F F F
COUNT 1 1 1
WIDTH 1705
HEIGHT 1
VIEWPOINT 0 0 0 1 0 0 0
POINTS 1705
DATA ascii
-11.15 33.599998 -570.53003
-10.64 33.630001 -571.02002
-10.12 33.669998 -571.58002
-9.6099997 33.700001 -572.17999
-9.1000004 33.73 -572.71002
-8.5799999 33.77 -573.37
-8.0699997 33.810001 -574.04999
-7.5500002 33.860001 -574.79999
-7.0300002 33.900002 -575.46997
-6.5100002 33.939999 -576.13
-5.9899998 33.970001 -576.59998
46.860001 34.380001 -583.46002
47.310001 34.32 -582.46997
47.790001 34.279999 -581.78003
48.290001 34.259998 -581.37
48.779999 34.220001 -580.84003
49.279999 34.200001 -580.48999
49.790001 34.189999 -580.22998
50.310001 34.18 -580.14001
50.849998 34.18 -580.16998
51.389999 34.200001 -580.34003
51.939999 34.209999 -580.54999
52.459999 34.200001 -580.40002
52.98 34.189999 -580.26001
53.52 34.189999 -580.28998
54.049999 34.200001 -580.35999
54.610001 34.209999 -580.57001
55.200001 34.25 -581.17999
55.779999 34.27 -581.65002
56.43 34.349998 -582.84998
-160.96001 34.509998 -594.37
-160.2 34.459999 -593.58002
-159.53 34.43 -593.09998
-158.83 34.400002 -592.53998
-158.21001 34.380001 -592.25
-157.56 34.360001 -591.87
-156.99001 34.349998 -591.75
-156.37 34.34 -591.47998
-155.78999 34.330002 -591.33002
-155.22 34.32 -591.21002
-154.67 34.32 -591.16998
-154.12 34.32 -591.16998
-153.55 34.310001 -591.04999
-153.02 34.310001 -591.09003
-152.48 34.310001 -591.09998
-151.97 34.32 -591.21002
-151.45 34.330002 -591.29999
-150.92 34.330002 -591.35999
-150.41 34.34 -591.47998
-149.89 34.34 -591.54999
-149.38 34.349998 -591.69
-148.88 34.360001 -591.85999
-148.39 34.369999 -592.07001
-147.88 34.380001 -592.20001
-147.42 34.400002 -592.5
-146.96001 34.419998 -592.83002
-146.47 34.43 -593.06
-146.03 34.450001 -593.46997
-145.57001 34.48 -593.82001
-145.10001 34.490002 -594.10999
-144.64999 34.509998 -594.47998
-144.21001 34.540001 -594.91998
-143.72 34.549999 -595.15997
-143.35001 34.599998 -595.87
-142.99001 34.639999 -596.65002
-142.81 34.73 -598.15002
-142.55 34.799999 -599.34998
-97.279999 34.34 -591.65997
-96.279999 34.18 -588.95001
-95.529999 34.110001 -587.69
-94.830002 34.049999 -586.70001
-94.169998 34 -585.91998
-93.269997 33.869999 -583.67999
-92.629997 33.830002 -583.02002
-91.93 33.77 -581.98999
-91.330002 33.75 -581.59003
-90.610001 33.68 -580.40002
-89.970001 33.639999 -579.76001
-89.339996 33.599998 -579.12
-88.669998 33.549999 -578.19
-88.029999 33.509998 -577.52002
-87.43 33.48 -577.04999
-86.769997 33.43 -576.20001
-86.139999 33.389999 -575.53998
-85.559998 33.369999 -575.19
-84.970001 33.34 -574.75
-84.330002 33.299999 -573.97998
-83.739998 33.27 -573.54999
-83.129997 33.240002 -573.03998
-82.580002 33.23 -572.87
-82.050003 33.23 -572.78998
-81.440002 33.189999 -572.23999
-80.860001 33.169998 -571.83002
-80.279999 33.150002 -571.46997
-79.730003 33.139999 -571.26001
-79.199997 33.130001 -571.20001
-78.639999 33.119999 -570.96997
-77.980003 33.060001 -570.01001
-77.389999 33.029999 -569.46997
-76.839996 33.02 -569.32001
-76.32 33.02 -569.28003
-75.779999 33.009998 -569.17999
-75.260002 33.009998 -569.14001
-74.720001 33 -569.04999
-74.169998 32.990002 -568.83002
-73.660004 32.990002 -568.88
-73.139999 33 -568.91998
-72.639999 33 -569.04999
-72.129997 33.009998 -569.19
-71.620003 33.02 -569.28003
-71.099998 33.02 -569.27002
-70.57 33.009998 -569.25
-70.019997 33 -569.02002
-69.459999 32.98 -568.65997
-68.900002 32.959999 -568.35999
-68.349998 32.950001 -568.16998
-67.830002 32.950001 -568.09998
-67.300003 32.939999 -568.06
-66.760002 32.939999 -567.92999
-66.230003 32.93 -567.78003
-65.699997 32.919998 -567.70001
-65.169998 32.919998 -567.65002
-64.639999 32.919998 -567.59998
-64.120003 32.91 -567.52002
-63.599998 32.91 -567.52002
-63.07 32.91 -567.46997
-62.52 32.889999 -567.21997
-61.990002 32.889999 -567.12
-61.450001 32.880001 -566.95001
-60.93 32.880001 -566.96997
-60.41 32.880001 -566.91998
-59.880001 32.869999 -566.78003
-59.32 32.849998 -566.46002
-58.790001 32.84 -566.31
-58.240002 32.82 -566.01001
-57.709999 32.82 -565.91998
-57.189999 32.82 -565.95001
-56.68 32.82 -566.03003
-56.16 32.82 -566.02002
-55.619999 32.810001 -565.81
-55.080002 32.790001 -565.53003
-54.540001 32.779999 -565.34003
-54.009998 32.77 -565.16998
-53.48 32.759998 -565.03003
-52.950001 32.759998 -564.96997
-52.439999 32.759998 -565.06
-51.919998 32.759998 -564.96997
-51.380001 32.75 -564.77002
-50.860001 32.740002 -564.67999
-50.349998 32.75 -564.83002
-49.84 32.75 -564.89001
-49.330002 32.759998 -564.94
-48.779999 32.740002 -564.65002
-48.25 32.73 -564.46002
-47.720001 32.720001 -564.28003
-47.200001 32.709999 -564.23999
-46.68 32.720001 -564.27002
-46.169998 32.720001 -564.27002
-45.639999 32.709999 -564.15002
-45.119999 32.709999 -564.14001
-44.599998 32.700001 -564.07001
-44.07 32.700001 -563.96997
-43.549999 32.689999 -563.82001
-43.02 32.68 -563.71002
-42.509998 32.68 -563.76001
-42 32.689999 -563.82001
-41.470001 32.68 -563.71997
-40.950001 32.68 -563.66998
-40.43 32.68 -563.65002
-39.919998 32.68 -563.64001
-39.41 32.689999 -563.77002
-38.900002 32.689999 -563.78998
-38.369999 32.68 -563.66998
-37.860001 32.68 -563.67999
-37.34 32.68 -563.72998
-36.84 32.689999 -563.88
-36.330002 32.700001 -563.97998
-35.82 32.700001 -564.06
-35.290001 32.700001 -563.96002
-34.77 32.689999 -563.79999
-34.23 32.669998 -563.52002
-33.700001 32.650002 -563.21002
-33.16 32.630001 -562.83002
-32.630001 32.610001 -562.54999
-32.099998 32.599998 -562.34003
-31.58 32.59 -562.25
-31.049999 32.580002 -562
-30.530001 32.57 -561.81
-30 32.560001 -561.66998
-29.49 32.560001 -561.62
-28.959999 32.549999 -561.42999
-28.440001 32.540001 -561.33002
-27.93 32.540001 -561.26001
-27.41 32.540001 -561.26001
-26.9 32.540001 -561.34003
-26.379999 32.529999 -561.15997
-25.860001 32.52 -560.96997
-25.34 32.52 -561.02002
-24.83 32.529999 -561.10999
-24.33 32.540001 -561.34003
-23.83 32.560001 -561.60999
-23.32 32.560001 -561.64001
-22.809999 32.560001 -561.76001
-22.299999 32.580002 -562
-21.799999 32.59 -562.27002
-21.290001 32.599998 -562.45001
-20.780001 32.619999 -562.65997
-20.27 32.630001 -562.83002
-19.77 32.639999 -563.07001
-19.26 32.66 -563.40002
-18.76 32.68 -563.72998
-18.25 32.700001 -564.02002
-17.74 32.709999 -564.22998
-17.23 32.720001 -564.5
-16.73 32.759998 -565.07001
-16.219999 32.77 -565.31
-15.72 32.790001 -565.65997
-15.21 32.810001 -566
-14.7 32.84 -566.5
-14.2 32.869999 -566.98999
-13.7 32.93 -567.96997
-13.19 32.950001 -568.23999
-12.68 32.970001 -568.72998
-12.17 33 -569.17999
-11.66 33.029999 -569.67999
-11.15 33.07 -570.34003
-10.64 33.110001 -570.96002
-10.12 33.130001 -571.35999
-9.6000004 33.150002 -571.79999
-9.0900002 33.189999 -572.39001
-8.5799999 33.240002 -573.20001
-8.0600004 33.27 -573.82001
-7.5500002 33.310001 -574.42999
-7.0300002 33.34 -574.90002
-6.5100002 33.380001 -575.62
-5.98 33.400002 -576.03998
-5.4699998 33.459999 -576.96002
-4.9400001 33.5 -577.59003
-4.4200001 33.549999 -578.51001
-3.9000001 33.599998 -579.29999
46.790001 33.799999 -582.60999
47.290001 33.77 -582.14001
47.75 33.720001 -581.29999
48.25 33.700001 -580.92999
48.75 33.68 -580.56
49.25 33.650002 -580.21002
49.759998 33.639999 -579.96997
50.290001 33.639999 -579.92999
50.830002 33.639999 -580.02002
51.369999 33.650002 -580.12
51.919998 33.66 -580.31
52.439999 33.650002 -580.15002
52.950001 33.639999 -579.96997
53.5 33.650002 -580.08002
54.029999 33.650002 -580.15002
54.599998 33.669998 -580.48999
55.18 33.700001 -580.97998
55.759998 33.73 -581.53003
56.43 33.82 -582.91998
-161.69 34 -595.03003
-160.85001 33.939999 -593.96997
-160.11 33.900002 -593.22998
-159.44 33.869999 -592.78003
-158.75999 33.84 -592.28998
-158.16 33.830002 -592.07001
-157.52 33.810001 -591.71997
-156.92 33.790001 -591.48999
-156.33 33.790001 -591.32001
-155.75 33.779999 -591.19
-155.19 33.77 -591.09998
-154.64999 33.77 -591.12
-154.09 33.77 -591.03998
-153.55 33.77 -591.04999
-153 33.77 -591.01001
-152.47 33.77 -591.06
-151.95 33.779999 -591.15002
-151.42 33.779999 -591.19
-150.92 33.790001 -591.33002
-150.39999 33.790001 -591.45001
-149.89 33.799999 -591.56
-149.39 33.810001 -591.73999
-148.89 33.82 -591.89001
-148.38 33.830002 -592
-147.92 33.849998 -592.34998
-147.42 33.849998 -592.5
-147 33.880001 -592.98999
-146.52 33.900002 -593.23999
-146.03999 33.91 -593.51001
-145.60001 33.939999 -593.92999
-145.14999 33.959999 -594.33002
-144.69 33.98 -594.64001
-144.25999 34.009998 -595.12
-143.84 34.040001 -595.63
-143.52 34.09 -596.54999
-143.22 34.150002 -597.57001
-143.32001 34.299999 -600.25
-96.849998 33.84 -592.37
-95.839996 33.68 -589.54999
-95.040001 33.580002 -587.96002
-94.43 33.560001 -587.54999
-93.5 33.419998 -585.12
-92.769997 33.349998 -583.91998
-92.110001 33.299999 -583.15997
-91.480003 33.27 -582.54999
-90.730003 33.189999 -581.17999
-90.089996 33.150002 -580.5
-89.470001 33.119999 -579.92999
-88.760002 33.049999 -578.78003
-88.110001 33.009998 -578.02002
-87.510002 32.98 -577.59003
-86.849998 32.93 -576.71002
-86.209999 32.889999 -575.97998
-85.639999 32.869999 -575.69
-85.019997 32.830002 -575.08002
-84.389999 32.799999 -574.40997
-83.800003 32.77 -573.96997
-83.199997 32.740002 -573.51001
-82.669998 32.740002 -573.45001
-82.099998 32.720001 -573.13
-81.470001 32.68 -572.40002
-80.889999 32.66 -572.03003
-80.339996 32.650002 -571.88
-79.790001 32.639999 -571.71002
-79.260002 32.630001 -571.63
-78.660004 32.599998 -571.09998
-78.010002 32.549999 -570.19
-77.440002 32.529999 -569.87
-76.910004 32.529999 -569.79999
-76.389999 32.529999 -569.78003
-75.860001 32.52 -569.76001
-75.32 32.509998 -569.59003
-74.779999 32.509998 -569.53003
-74.239998 32.5 -569.33002
-73.720001 32.5 -569.34003
-73.209999 32.509998 -569.46997
-72.699997 32.509998 -569.58002
-72.199997 32.52 -569.70001
-71.690002 32.52 -569.78003
-71.169998 32.529999 -569.81
-70.639999 32.52 -569.73999
-70.07 32.5 -569.41998
-69.510002 32.48 -569.09003
-68.949997 32.459999 -568.76001
-68.410004 32.450001 -568.59003
-67.879997 32.450001 -568.56
-67.349998 32.450001 -568.44
-66.800003 32.43 -568.20001
-66.260002 32.419998 -568.07001
-65.730003 32.419998 -568.01001
-65.199997 32.419998 -567.94
-64.690002 32.419998 -567.97998
-64.160004 32.419998 -567.95001
-63.639999 32.41 -567.90002
-63.099998 32.400002 -567.76001
-62.560001 32.389999 -567.53998
-62.009998 32.380001 -567.33002
-61.490002 32.380001 -567.31
-60.970001 32.380001 -567.26001
-60.439999 32.369999 -567.19
-59.889999 32.360001 -566.96002
-59.34 32.34 -566.59998
-58.790001 32.32 -566.34998
-58.25 32.310001 -566.17999
-57.740002 32.310001 -566.19
-57.220001 32.32 -566.22998
-56.709999 32.32 -566.28998
-56.169998 32.310001 -566.09003
-55.630001 32.290001 -565.83002
-55.09 32.279999 -565.63
-54.549999 32.27 -565.40997
-54.02 32.259998 -565.27002
-53.5 32.259998 -565.32001
-52.990002 32.259998 -565.32001
-52.459999 32.259998 -565.21997
-51.919998 32.240002 -565.03003
-51.389999 32.240002 -564.91998
-50.880001 32.240002 -564.90002
-50.369999 32.240002 -564.98999
-49.860001 32.25 -565.08002
-49.330002 32.240002 -564.95001
-48.790001 32.220001 -564.70001
-48.25 32.209999 -564.47998
-47.720001 32.200001 -564.34998
-47.209999 32.209999 -564.42999
-46.689999 32.200001 -564.31
-46.169998 32.200001 -564.29999
-45.639999 32.200001 -564.21002
-45.119999 32.189999 -564.15002
-44.59 32.18 -563.97998
-44.060001 32.169998 -563.79999
-43.540001 32.169998 -563.81
-43.029999 32.169998 -563.81
-42.509998 32.169998 -563.81
-41.990002 32.16 -563.69
-41.470001 32.16 -563.67999
-40.950001 32.16 -563.62
-40.439999 32.16 -563.65997
-39.919998 32.16 -563.65997
-39.400002 32.16 -563.64001
-38.880001 32.16 -563.57001
-38.360001 32.16 -563.56
-37.849998 32.16 -563.57001
-37.34 32.16 -563.62
-36.830002 32.169998 -563.78003
-36.32 32.18 -563.90997
-35.810001 32.18 -563.96002
-35.27 32.16 -563.63
-34.740002 32.139999 -563.34998
-34.209999 32.130001 -563.12
-33.669998 32.110001 -562.78003
-33.130001 32.09 -562.39001
-32.610001 32.080002 -562.21997
-32.080002 32.07 -562.04999
-31.559999 32.060001 -561.89001
-31.030001 32.040001 -561.63
-30.51 32.029999 -561.47998
-29.99 32.029999 -561.47998
-29.469999 32.029999 -561.40002
-28.950001 32.02 -561.20001
-28.43 32.009998 -561.06
-27.91 32 -560.96997
-27.4 32.009998 -561.04999
-26.889999 32.009998 -561.02002
-26.360001 31.99 -560.78998
-25.84 31.99 -560.65002
-25.33 31.99 -560.70001
-24.82 32 -560.84998
-24.33 32.02 -561.22998
-23.82 32.02 -561.31
-23.309999 32.029999 -561.46002
-22.799999 32.040001 -561.60999
-22.290001 32.049999 -561.78003
-21.780001 32.060001 -561.90997
-21.280001 32.07 -562.13
-20.77 32.09 -562.38
-20.26 32.099998 -562.59003
-19.76 32.119999 -562.95001
-19.25 32.130001 -563.16998
-18.75 32.139999 -563.40002
-18.24 32.169998 -563.78998
-17.74 32.18 -564.02002
-17.23 32.200001 -564.28998
-16.719999 32.220001 -564.75
-16.219999 32.240002 -565.03003
-15.71 32.259998 -565.38
-15.2 32.279999 -565.71997
-14.7 32.310001 -566.29999
-14.2 32.349998 -567.03003
-13.69 32.389999 -567.64001
-13.18 32.400002 -567.84998
-12.67 32.43 -568.34003
-12.16 32.459999 -568.88
-11.65 32.5 -569.53003
-11.14 32.540001 -570.17999
-10.63 32.560001 -570.63
-10.11 32.580002 -570.96997
-9.6000004 32.619999 -571.54999
-9.0900002 32.650002 -572.15997
-8.5699997 32.700001 -572.91998
-8.0600004 32.720001 -573.40002
-7.54 32.759998 -574
-7.02 32.790001 -574.53003
-6.5 32.82 -575
-5.98 32.849998 -575.53998
-5.46 32.889999 -576.26001
-4.9400001 32.93 -576.97998
-4.4099998 32.959999 -577.54999
-3.8900001 32.990002 -577.96002
46.759998 33.240002 -582.25
47.25 33.209999 -581.72998
47.73 33.18 -581.10999
48.23 33.150002 -580.72998
48.73 33.130001 -580.28003
49.23 33.110001 -579.95001
49.740002 33.09 -579.65002
50.27 33.09 -579.62
50.799999 33.099998 -579.71002
51.360001 33.110001 -579.96002
51.900002 33.119999 -580.10999
52.419998 33.110001 -579.90997
52.939999 33.099998 -579.79999
53.470001 33.099998 -579.85999
54.02 33.110001 -580.03003
54.580002 33.130001 -580.27002
55.150002 33.16 -580.73999
55.740002 33.189999 -581.33002
56.439999 33.279999 -582.96002
-161.50999 33.419998 -594.37
-160.75999 33.369999 -593.63
-160.02 33.330002 -592.92999
-159.37 33.310001 -592.51001
-158.7 33.279999 -592.06
-158.10001 33.27 -591.83002
-157.48 33.259998 -591.54999
-156.89 33.25 -591.38
-156.31 33.240002 -591.23999
-155.74001 33.23 -591.13
-155.14999 33.220001 -590.96997
-154.63 33.23 -591.03003
-154.07001 33.220001 -590.95001
-153.50999 33.220001 -590.90997
-152.98 33.220001 -590.95001
-152.45 33.220001 -591
-151.92 33.23 -591.02002
-151.42 33.240002 -591.17999
-150.89999 33.240002 -591.26001
-150.39 33.25 -591.40997
-149.88 33.259998 -591.53998
-149.38 33.259998 -591.66998
-148.89 33.279999 -591.90002
-148.39 33.290001 -592.06
-147.95 33.310001 -592.45001
-147.46001 33.32 -592.65997
-146.99001 33.34 -592.96002
-146.53 33.360001 -593.29999
-146.09 33.380001 -593.71997
-145.61 33.400002 -593.98999
-145.17 33.419998 -594.40997
-144.75 33.450001 -594.90997
-144.33 33.48 -595.40002
-143.98 33.52 -596.19
-143.73 33.59 -597.42999
-143.56 33.68 -598.96997
-97.129997 33.389999 -594.07001
-96.57 33.389999 -593.98999
-95.25 33.119999 -589.21997
-94.629997 33.09 -588.75
-93.779999 32.98 -586.84998
-92.900002 32.860001 -584.75
-92.25 32.82 -584.03998
-91.650002 32.799999 -583.59998
-90.830002 32.689999 -581.79999
-90.18 32.650002 -581.07001
-89.559998 32.619999 -580.51001
-88.82 32.540001 -579.19
-88.18 32.5 -578.47998
-87.57 32.470001 -577.98999
-86.910004 32.419998 -577.09003
-86.279999 32.389999 -576.42999
-85.699997 32.369999 -576.12
-85.07 32.330002 -575.40997
-84.440002 32.290001 -574.76001
-83.849998 32.27 -574.35999
-83.269997 32.240002 -573.96997
-82.730003 32.240002 -573.89001
-82.139999 32.209999 -573.40002
-81.5 32.169998 -572.65997
-80.93 32.150002 -572.34998
-80.389999 32.139999 -572.19
-79.839996 32.130001 -572.06
-79.300003 32.130001 -571.92999
-78.639999 32.07 -570.92999
-78.040001 32.040001 -570.39001
-77.5 32.029999 -570.27002
-76.980003 32.029999 -570.28998
-76.449997 32.029999 -570.27002
-75.919998 32.029999 -570.22998
-75.379997 32.02 -570.03998
-74.830002 32.009998 -569.89001
-74.300003 32.009998 -569.83002
-73.779999 32.009998 -569.84998
-73.260002 32.009998 -569.84998
-72.75 32.009998 -569.90997
-72.239998 32.02 -570.01001
-71.739998 32.029999 -570.22998
-71.230003 32.029999 -570.28998
-70.68 32.02 -570.06
-70.099998 32 -569.65997
-69.550003 31.98 -569.40002
-69 31.969999 -569.21002
-68.459999 31.959999 -569
-67.919998 31.950001 -568.84998
-67.379997 31.940001 -568.71997
-66.830002 31.93 -568.48999
-66.300003 31.92 -568.40997
-65.769997 31.92 -568.37
-65.239998 31.91 -568.22998
-64.730003 31.92 -568.32001
-64.199997 31.91 -568.27002
-63.669998 31.91 -568.15997
-63.130001 31.9 -567.96997
-62.580002 31.879999 -567.73999
-62.049999 31.879999 -567.69
-61.529999 31.879999 -567.63
-61 31.870001 -567.57001
-60.459999 31.860001 -567.40002
-59.91 31.85 -567.12
-59.34 31.82 -566.67999
-58.799999 31.809999 -566.45001
-58.279999 31.809999 -566.41998
-57.759998 31.809999 -566.42999
-57.240002 31.809999 -566.45001
-56.709999 31.799999 -566.32001
-56.169998 31.790001 -566.09003
-55.639999 31.780001 -565.92999
-55.09 31.76 -565.65002
-54.560001 31.75 -565.48999
-54.029999 31.75 -565.42999
-53.52 31.76 -565.53998
-53 31.75 -565.47998
-52.470001 31.74 -565.31
-51.93 31.73 -565.15002
-51.400002 31.719999 -564.98999
-50.889999 31.73 -565.01001
-50.380001 31.73 -565.09998
-49.869999 31.73 -565.17999
-49.330002 31.73 -565.03998
-48.790001 31.709999 -564.67999
-48.259998 31.700001 -564.53998
-47.740002 31.700001 -564.51001
-47.220001 31.690001 -564.48999
-46.689999 31.690001 -564.35999
-46.169998 31.68 -564.29999
-45.639999 31.68 -564.21002
-45.119999 31.67 -564.15002
-44.59 31.66 -563.90002
-44.060001 31.65 -563.77002
-43.540001 31.66 -563.79999
-43.02 31.65 -563.72998
-42.5 31.65 -563.69
-41.98 31.65 -563.64001
-41.459999 31.639999 -563.62
-40.950001 31.639999 -563.60999
-40.43 31.639999 -563.59998
-39.919998 31.639999 -563.63
-39.400002 31.639999 -563.56
-38.880001 31.639999 -563.5
-38.349998 31.629999 -563.40997
-37.84 31.629999 -563.42999
-37.330002 31.639999 -563.53998
-36.830002 31.65 -563.78003
-36.310001 31.65 -563.77002
-35.779999 31.639999 -563.48999
-35.240002 31.620001 -563.13
-34.709999 31.6 -562.84003
-34.18 31.59 -562.64001
-33.639999 31.57 -562.29999
-33.110001 31.549999 -561.98999
-32.580002 31.540001 -561.82001
-32.060001 31.530001 -561.65002
-31.540001 31.52 -561.48999
-31.01 31.51 -561.29999
-30.49 31.5 -561.19
-29.98 31.51 -561.21997
-29.459999 31.5 -561.15002
-28.93 31.49 -560.89001
-28.41 31.48 -560.78998
-27.9 31.48 -560.78998
-27.389999 31.48 -560.82001
-26.870001 31.469999 -560.69
-26.34 31.459999 -560.45001
-25.83 31.459999 -560.40997
-25.32 31.459999 -560.5
-24.82 31.48 -560.78998
-24.32 31.5 -561.04999
-23.799999 31.49 -561.03998
-23.299999 31.51 -561.22998
-22.790001 31.52 -561.47998
-22.280001 31.52 -561.53998
-21.77 31.530001 -561.64001
-21.27 31.540001 -561.87
-20.76 31.559999 -562.15997
-20.25 31.57 -562.32001
-19.75 31.59 -562.71997
-19.25 31.6 -562.92999
-18.74 31.620001 -563.22998
-18.24 31.639999 -563.53003
-17.73 31.65 -563.76001
-17.219999 31.67 -564.10999
-16.709999 31.690001 -564.40997
-16.209999 31.700001 -564.70001
-15.7 31.719999 -565.03998
-15.19 31.75 -565.5
-14.69 31.780001 -566.12
-14.19 31.83 -566.88
-13.68 31.85 -567.31
-13.17 31.870001 -567.60999
-12.66 31.9 -568.16998
-12.16 31.93 -568.66998
-11.65 31.98 -569.60999
-11.14 32 -569.96002
-10.62 32.02 -570.26001
-10.11 32.040001 -570.69
-9.6000004 32.080002 -571.34998
-9.0900002 32.130001 -572.13
-8.5699997 32.150002 -572.59998
-8.0500002 32.18 -573.13
-7.5300002 32.209999 -573.57001
-7.02 32.240002 -574.09003
-6.5 32.27 -574.71002
-5.9699998 32.299999 -575.10999
-5.4499998 32.330002 -575.76001
-4.9299998 32.349998 -576.09998
-4.4099998 32.400002 -576.91998
-3.8800001 32.43 -577.38
-3.3599999 32.470001 -578.14001
46.25 32.73 -582.58002
46.73 32.689999 -581.88
47.23 32.66 -581.40997
47.700001 32.619999 -580.76001
48.200001 32.599998 -580.31
48.700001 32.580002 -579.98999
49.200001 32.560001 -579.60999
49.709999 32.549999 -579.40002
50.240002 32.540001 -579.37
50.779999 32.549999 -579.48999
51.34 32.560001 -579.72998
51.880001 32.57 -579.88
52.389999 32.560001 -579.64001
52.919998 32.560001 -579.57001
53.450001 32.560001 -579.62
54.009998 32.57 -579.88
54.560001 32.59 -580.07001
55.130001 32.610001 -580.53998
55.73 32.650002 -581.19
56.419998 32.740002 -582.78998
-162.23 32.91 -595.03003
-161.41 32.849998 -594.03003
-160.67999 32.810001 -593.34003
-159.97 32.779999 -592.72998
-159.32001 32.759998 -592.33002
-158.63 32.73 -591.81
-158.03 32.709999 -591.57001
-157.42999 32.700001 -591.39001
-156.87 32.700001 -591.28998
-156.25999 32.689999 -591.07001
-155.72 32.689999 -591.04999
-155.13 32.68 -590.89001
-154.58 32.669998 -590.85999
-154.03 32.669998 -590.81
-153.48 32.669998 -590.78003
-152.96001 32.68 -590.87
-152.45 32.68 -590.96997
-151.92 32.689999 -591.03998
-151.39999 32.689999 -591.09003
-150.88 32.689999 -591.21002
-150.39999 32.709999 -591.41998
-149.89 32.709999 -591.53998
-149.39 32.720001 -591.73999
-148.92 32.740002 -591.98999
-148.42999 32.75 -592.21997
-147.94 32.759998 -592.41998
-147.5 32.790001 -592.83002
-147.05 32.810001 -593.19
-146.57001 32.82 -593.46997
-146.12 32.84 -593.84998
-145.67 32.860001 -594.22998
-145.25999 32.889999 -594.73999
-144.81 32.919998 -595.13
-144.47 32.959999 -595.98999
-144.17 33.02 -596.97998
-144.03999 33.119999 -598.71002
-154.42 35.77 -646.06
-97.050003 32.82 -593.54999
-96.580002 32.849998 -594
-95.889999 32.799999 -593.13
-94.970001 32.669998 -590.82001
-94.18 32.580002 -589.28998
-93.099998 32.389999 -585.96002
-92.419998 32.34 -585.08002
-91.839996 32.330002 -584.81
-91.029999 32.23 -583.08002
-90.309998 32.16 -581.90002
-89.690002 32.139999 -581.37
-88.93 32.049999 -579.92999
-88.260002 32 -579.03998
-87.669998 31.98 -578.63
-86.989998 31.92 -577.64001
-86.360001 31.889999 -577.01001
-85.779999 31.870001 -576.63
-85.139999 31.83 -575.91998
-84.5 31.790001 -575.15997
-83.910004 31.76 -574.76001
-83.349998 31.75 -574.47998
-82.809998 31.74 -574.42999
-82.18 31.700001 -573.72998
-81.57 31.67 -573.14001
-81 31.65 -572.79999
-80.449997 31.639999 -572.64001
-79.910004 31.639999 -572.54999
-79.339996 31.620001 -572.21997
-78.660004 31.559999 -571.12
-78.089996 31.540001 -570.77002
-77.550003 31.530001 -570.65002
-77.029999 31.530001 -570.64001
-76.5 31.530001 -570.64001
-75.970001 31.530001 -570.58002
-75.43 31.52 -570.45001
-74.889999 31.51 -570.34998
-74.370003 31.51 -570.32001
-73.849998 31.51 -570.37
-73.330002 31.51 -570.37
-72.809998 31.51 -570.37
-72.300003 31.52 -570.53003
-71.790001 31.530001 -570.60999
-71.279999 31.530001 -570.72998
-70.720001 31.52 -570.40997
-70.150002 31.5 -570.04999
-69.599998 31.48 -569.83002
-69.059998 31.469999 -569.65002
-68.519997 31.459999 -569.51001
-67.970001 31.450001 -569.33002
-67.43 31.440001 -569.12
-66.889999 31.43 -568.96997
-66.349998 31.42 -568.78998
-65.809998 31.42 -568.70001
-65.290001 31.42 -568.69
-64.760002 31.41 -568.64001
-64.220001 31.4 -568.46002
-63.689999 31.4 -568.37
-63.150002 31.389999 -568.21002
-62.619999 31.379999 -568.10999
-62.080002 31.379999 -567.96997
-61.57 31.379999 -568
-61.040001 31.370001 -567.90002
-60.48 31.360001 -567.59998
-59.93 31.34 -567.28998
-59.369999 31.32 -566.95001
-58.830002 31.309999 -566.75
-58.299999 31.299999 -566.65997
-57.790001 31.299999 -566.67999
-57.27 31.299999 -566.70001
-56.720001 31.290001 -566.42999
-56.189999 31.280001 -566.25
-55.650002 31.27 -566.03998
-55.110001 31.26 -565.83002
-54.580002 31.25 -565.70001
-54.049999 31.24 -565.65002
-53.529999 31.24 -565.62
-53.009998 31.24 -565.54999
-52.459999 31.219999 -565.28998
-51.93 31.209999 -565.13
-51.400002 31.209999 -564.96997
-50.889999 31.209999 -565.07001
-50.380001 31.209999 -565.12
-49.860001 31.209999 -565.10999
-49.32 31.200001 -564.90002
-48.779999 31.190001 -564.65002
-48.25 31.18 -564.51001
-47.73 31.17 -564.41998
-47.209999 31.17 -564.42999
-46.689999 31.17 -564.32001
-46.169998 31.17 -564.28003
-45.639999 31.16 -564.13
-45.110001 31.15 -564.01001
-44.580002 31.139999 -563.84003
-44.049999 31.129999 -563.71997
-43.529999 31.129999 -563.69
-43.02 31.129999 -563.65002
-42.5 31.129999 -563.59998
-41.970001 31.120001 -563.51001
-41.459999 31.120001 -563.51001
-40.939999 31.120001 -563.51001
-40.43 31.129999 -563.58002
-39.91 31.120001 -563.57001
-39.389999 31.120001 -563.44
-38.860001 31.110001 -563.33002
-38.34 31.110001 -563.28003
-37.84 31.110001 -563.39001
-37.32 31.120001 -563.45001
-36.810001 31.120001 -563.53003
-36.279999 31.110001 -563.29999
-35.75 31.09 -562.98999
-35.200001 31.07 -562.57001
-34.669998 31.059999 -562.34998
-34.150002 31.049999 -562.26001
-33.619999 31.030001 -561.94
-33.080002 31.01 -561.59998
-32.560001 31.01 -561.46002
-32.040001 31 -561.37
-31.52 30.99 -561.14001
-30.99 30.969999 -560.84998
-30.469999 30.969999 -560.84998
-29.959999 30.98 -560.96997
-29.450001 30.969999 -560.84998
-28.92 30.959999 -560.66998
-28.4 30.950001 -560.54999
-27.889999 30.959999 -560.58002
-27.379999 30.959999 -560.58002
-26.85 30.940001 -560.38
-26.33 30.940001 -560.21997
-25.82 30.940001 -560.26001
-25.32 30.940001 -560.39001
-24.809999 30.959999 -560.65002
-24.299999 30.959999 -560.73999
-23.799999 30.969999 -560.90997
-23.290001 30.99 -561.13
-22.780001 30.99 -561.19
-22.27 31 -561.34003
-21.77 31 -561.47998
-21.26 31.02 -561.72998
-20.75 31.030001 -561.84998
-20.25 31.040001 -562.14001
-19.75 31.059999 -562.5
-19.24 31.07 -562.65002
-18.74 31.1 -563.10999
-18.23 31.1 -563.21997
-17.719999 31.120001 -563.46002
-17.219999 31.139999 -563.90997
-16.709999 31.16 -564.22998
-16.200001 31.17 -564.5
-15.69 31.200001 -564.89001
-15.19 31.219999 -565.31
-14.69 31.26 -565.98999
-14.19 31.299999 -566.78003
-13.68 31.32 -567.12
-13.17 31.33 -567.34998
-12.66 31.370001 -567.95001
-12.15 31.4 -568.56
-11.65 31.450001 -569.41998
-11.13 31.459999 -569.66998
-10.62 31.48 -569.96997
-10.11 31.51 -570.53003
-9.6000004 31.559999 -571.31
-9.0799999 31.58 -571.76001
-8.5600004 31.610001 -572.23999
-8.0500002 31.629999 -572.71002
-7.5300002 31.67 -573.41998
-7.0100002 31.690001 -573.71997
-6.4899998 31.719999 -574.22998
-5.9699998 31.74 -574.54999
-5.4499998 31.76 -574.89001
-4.9299998 31.799999 -575.64001
-4.4000001 31.82 -576.09998
-3.8800001 31.85 -576.52002
-3.3499999 31.860001 -576.75
45.709999 32.189999 -582.5
46.209999 32.16 -581.96997
46.709999 32.139999 -581.59003
47.189999 32.110001 -581.02002
47.68 32.07 -580.45001
48.18 32.049999 -580.06
48.669998 32.029999 -579.65997
49.169998 32.009998 -579.28003
49.689999 32 -579.17999
50.23 32 -579.19
50.77 32.009998 -579.28003
51.32 32.02 -579.53998
51.860001 32.029999 -579.60999
52.369999 32.009998 -579.34998
52.889999 32.009998 -579.31
53.43 32.009998 -579.38
53.98 32.029999 -579.60999
54.560001 32.049999 -580.04999
55.119999 32.07 -580.40002
55.720001 32.110001 -581.14001
56.41 32.200001 -582.64001
-162.14999 32.349998 -594.72998
-161.3 32.290001 -593.63
-160.53999 32.240002 -592.84003
-159.87 32.220001 -592.35999
-159.21001 32.189999 -591.94
-158.58 32.169998 -591.62
-157.98 32.16 -591.40002
-157.41 32.16 -591.29999
-156.8 32.139999 -591.06
-156.24001 32.139999 -590.97998
-155.67 32.130001 -590.87
-155.12 32.130001 -590.84998
-154.57001 32.130001 -590.81
-154.02 32.130001 -590.77002
-153.49001 32.130001 -590.82001
-152.96001 32.130001 -590.87
-152.42999 32.139999 -590.90002
-151.92999 32.150002 -591.07001
-151.38 32.139999 -591.03003
-150.89 32.150002 -591.21997
-150.38 32.16 -591.34003
-149.91 32.18 -591.62
-149.42 32.189999 -591.83002
-148.94 32.200001 -592.08002
-148.46001 32.220001 -592.34003
-147.98 32.23 -592.59998
-147.50999 32.240002 -592.85999
-147.06 32.259998 -593.21997
-146.58 32.279999 -593.51001
-146.16 32.310001 -594.01001
-145.73 32.330002 -594.42999
-145.3 32.360001 -594.90002
-144.89999 32.389999 -595.5
-144.59 32.439999 -596.47998
-144.37 32.52 -597.81
-144.3 32.630001 -599.76001
-154.77 35.130001 -645.06
-154.42 35.18 -646.07001
-154.05 35.23 -646.96997
-95.779999 32.220001 -592.5
-95.25 32.220001 -592.56
-94.610001 32.189999 -591.96997
-93.470001 31.98 -588.28998
-92.580002 31.860001 -586.09998
-92 31.85 -585.78998
-91.290001 31.790001 -584.71002
-90.470001 31.690001 -582.90002
-89.809998 31.639999 -582.14001
-89.099998 31.58 -581
-88.379997 31.52 -579.79999
-87.779999 31.49 -579.32001
-87.050003 31.42 -578.02002
-86.459999 31.389999 -577.62
-85.849998 31.370001 -577.09003
-85.209999 31.33 -576.37
-84.589996 31.290001 -575.75
-83.989998 31.26 -575.27002
-83.43 31.25 -575.09003
-82.870003 31.24 -574.82001
-82.230003 31.200001 -574.06
-81.639999 31.17 -573.62
-81.059998 31.15 -573.21002
-80.489998 31.139999 -572.95001
-79.959999 31.129999 -572.89001
-79.349998 31.1 -572.32001
-78.699997 31.049999 -571.40002
-78.139999 31.030001 -571.12
-77.599998 31.030001 -571.04999
-77.080002 31.030001 -571.06
-76.550003 31.030001 -571
-76.010002 31.02 -570.90002
-75.480003 31.02 -570.81
-74.949997 31.01 -570.78998
-74.419998 31.01 -570.75
-73.910004 31.02 -570.84998
-73.389999 31.02 -570.85999
-72.879997 31.02 -570.91998
-72.360001 31.02 -570.97998
-71.849998 31.030001 -571.06
-71.32 31.030001 -571
-70.760002 31.01 -570.71997
-70.190002 30.99 -570.32001
-69.639999 30.98 -570.15997
-69.099998 30.969999 -570.02002
-68.580002 30.969999 -570
-68.019997 30.950001 -569.71002
-67.480003 30.940001 -569.54999
-66.940002 30.940001 -569.39001
-66.389999 30.92 -569.17999
-65.849998 30.92 -569.03003
-65.339996 30.92 -569.09998
-64.809998 30.91 -569.02002
-64.260002 30.9 -568.79999
-63.720001 30.889999 -568.65002
-63.189999 30.889999 -568.56
-62.66 30.879999 -568.47998
-62.139999 30.879999 -568.42999
-61.599998 30.879999 -568.31
-61.07 30.870001 -568.20001
-60.509998 30.85 -567.83002
-59.950001 30.83 -567.45001
-59.400002 30.809999 -567.17999
-58.869999 30.809999 -567.12
-58.349998 30.809999 -567.06
-57.82 30.799999 -566.96997
-57.27 30.790001 -566.70001
-56.73 30.780001 -566.53998
-56.189999 30.76 -566.33002
-55.650002 30.75 -566.12
-55.110001 30.74 -565.90002
-54.59 30.74 -565.81
-54.040001 30.719999 -565.53003
-53.5 30.709999 -565.32001
-52.959999 30.700001 -565.10999
-52.43 30.690001 -564.90997
-51.880001 30.67 -564.58002
-51.369999 30.67 -564.69
-50.860001 30.67 -564.71002
-50.32 30.66 -564.51001
-49.799999 30.66 -564.5
-49.299999 30.67 -564.63
-48.75 30.65 -564.33002
-48.209999 30.639999 -564.06
-47.689999 30.629999 -563.95001
-47.18 30.639999 -564.10999
-46.66 30.629999 -563.96002
-46.119999 30.620001 -563.66998
-45.580002 30.610001 -563.48999
-45.080002 30.610001 -563.58002
-44.549999 30.610001 -563.51001
-44.029999 30.6 -563.40002
-43.509998 30.6 -563.35999
-42.990002 30.6 -563.38
-42.48 30.6 -563.34998
-41.959999 30.59 -563.28998
-41.43 30.59 -563.21002
-40.919998 30.59 -563.21002
-40.41 30.6 -563.34998
-39.889999 30.59 -563.28003
-39.369999 30.58 -563.13
-38.849998 30.59 -563.15997
-38.34 30.59 -563.16998
-37.82 30.59 -563.20001
-37.299999 30.58 -563.13
-36.77 30.57 -562.95001
-36.220001 30.540001 -562.31
-35.689999 30.530001 -562.12
-35.150002 30.51 -561.77002
-34.630001 30.5 -561.63
-34.119999 30.5 -561.63
-33.59 30.49 -561.46002
-33.060001 30.48 -561.19
-32.540001 30.469999 -561.02002
-32.02 30.459999 -560.92999
-31.49 30.450001 -560.67999
-30.969999 30.440001 -560.48999
-30.459999 30.440001 -560.56
-29.950001 30.450001 -560.69
-29.43 30.440001 -560.47998
-28.9 30.43 -560.34003
-28.389999 30.43 -560.34003
-27.879999 30.43 -560.41998
-27.370001 30.43 -560.34003
-26.84 30.41 -560.09003
-26.32 30.41 -560
-25.809999 30.41 -560.02002
-25.309999 30.42 -560.22998
-24.809999 30.440001 -560.53003
-24.299999 30.440001 -560.53003
-23.790001 30.450001 -560.69
-23.280001 30.459999 -560.90997
-22.77 30.459999 -561
-22.26 30.469999 -561.03998
-21.76 30.48 -561.27002
-21.25 30.49 -561.45001
-20.75 30.51 -561.76001
-20.24 30.52 -562.03998
-19.74 30.530001 -562.21002
-19.23 30.540001 -562.41998
-18.73 30.57 -562.94
-18.219999 30.58 -563.07001
-17.709999 30.59 -563.25
-17.209999 30.610001 -563.72998
-16.700001 30.629999 -564.06
-16.200001 30.65 -564.35999
-15.69 30.67 -564.72998
-15.19 30.700001 -565.22998
-14.68 30.73 -565.85999
-14.18 30.77 -566.52002
-13.67 30.790001 -566.90002
-13.16 30.809999 -567.22998
-12.66 30.84 -567.88
-12.15 30.879999 -568.58002
-11.64 30.91 -569.10999
-11.13 30.93 -569.39001
-10.62 30.950001 -569.84998
-10.11 30.99 -570.56
-9.5900002 31.02 -571.09998
-9.0799999 31.040001 -571.44
-8.5600004 31.07 -571.95001
-8.04 31.1 -572.53003
-7.5300002 31.120001 -572.96002
-7.0100002 31.139999 -573.34998
-6.4899998 31.17 -573.78003
-5.96 31.190001 -574.09998
-5.4400001 31.209999 -574.46002
-4.9200001 31.219999 -574.79999
-4.4000001 31.26 -575.37
-3.8699999 31.27 -575.67999
-3.3499999 31.32 -576.53998
-2.8199999 31.33 -576.71002
-2.3 31.360001 -577.27002
45.189999 31.66 -582.65002
45.66 31.620001 -581.89001
46.18 31.610001 -581.71002
46.68 31.58 -581.21997
47.16 31.549999 -580.63
47.650002 31.52 -580.09003
48.139999 31.5 -579.62
48.639999 31.48 -579.31
49.16 31.469999 -579.12
49.68 31.469999 -579.06
50.209999 31.459999 -579.02002
50.75 31.469999 -579.09998
51.299999 31.48 -579.35999
51.84 31.48 -579.37
52.349998 31.469999 -579.19
52.880001 31.469999 -579.14001
53.41 31.469999 -579.21002
53.959999 31.49 -579.40002
54.529999 31.51 -579.78998
55.110001 31.530001 -580.23999
55.73 31.58 -581.16998
56.41 31.67 -582.70001
-162.8 31.82 -595.10999
-161.98 31.77 -594.12
-161.21001 31.719999 -593.28998
-160.49001 31.690001 -592.64001
-159.84 31.67 -592.26001
-159.19 31.639999 -591.84998
-158.53 31.620001 -591.45001
-157.96001 31.620001 -591.34998
-157.37 31.610001 -591.14001
-156.78999 31.6 -591
-156.22 31.59 -590.89001
-155.64 31.59 -590.75
-155.09 31.58 -590.73999
-154.55 31.59 -590.75
-154 31.58 -590.69
-153.46001 31.58 -590.71002
-152.95 31.59 -590.84003
-152.45 31.6 -590.96997
-151.92 31.6 -591.01001
-151.42999 31.610001 -591.21997
-150.92 31.620001 -591.34003
-150.42 31.629999 -591.51001
-149.91 31.629999 -591.63
-149.41 31.639999 -591.78998
-148.95 31.66 -592.12
-148.47 31.67 -592.38
-147.99001 31.690001 -592.64001
-147.52 31.700001 -592.90002
-147.08 31.73 -593.33002
-146.64 31.75 -593.73999
-146.21001 31.77 -594.17999
-145.77 31.799999 -594.60999
-145.39 31.83 -595.28998
-145.03 31.870001 -596.03003
-144.81 31.950001 -597.35999
-144.60001 32.02 -598.72998
-154.77 34.529999 -645.04999
-154.38 34.580002 -645.88
-153.92999 34.610001 -646.48999
-95.230003 31.67 -592.42999
-94.660004 31.66 -592.28998
-94.120003 31.66 -592.28998
-92.660004 31.35 -586.59003
-92.110001 31.35 -586.47998
-91.43 31.299999 -585.62
-90.620003 31.209999 -583.90002
-89.970001 31.17 -583.14001
-89.290001 31.110001 -582.19
-88.529999 31.030001 -580.73999
-87.940002 31.02 -580.38
-87.160004 30.93 -578.78003
-86.519997 30.889999 -578.06
-85.93 30.870001 -577.66998
-85.290001 30.83 -576.91998
-84.660004 30.790001 -576.21997
-84.07 30.77 -575.82001
-83.529999 30.76 -575.72998
-82.949997 30.74 -575.34998
-82.300003 30.700001 -574.53998
-81.720001 30.68 -574.16998
-81.129997 30.65 -573.71002
-80.580002 30.639999 -573.53003
-80.010002 30.629999 -573.27002
-79.360001 30.58 -572.38
-78.739998 30.540001 -571.67999
-78.199997 30.540001 -571.58002
-77.660004 30.530001 -571.42999
-77.129997 30.530001 -571.42999
-76.599998 30.52 -571.39001
-76.080002 30.52 -571.37
-75.529999 30.51 -571.16998
-75.010002 30.51 -571.21002
-74.5 30.52 -571.31
-73.980003 30.52 -571.38
-73.459999 30.530001 -571.40997
-72.949997 30.530001 -571.45001
-72.419998 30.530001 -571.40997
-71.900002 30.530001 -571.46002
-71.349998 30.52 -571.28003
-70.800003 30.51 -571.09003
-70.239998 30.49 -570.78003
-69.699997 30.48 -570.64001
-69.169998 30.48 -570.56
-68.629997 30.469999 -570.41998
-68.080002 30.459999 -570.16998
-67.540001 30.450001 -570.03003
-66.989998 30.440001 -569.84998
-66.449997 30.43 -569.70001
-65.93 30.43 -569.65997
-65.400002 30.43 -569.60999
-64.849998 30.41 -569.38
-64.300003 30.4 -569.15002
-63.77 30.389999 -569.04999
-63.23 30.389999 -568.91998
-62.700001 30.379999 -568.83002
-62.189999 30.389999 -568.89001
-61.650002 30.379999 -568.71997
-61.099998 30.360001 -568.47998
-60.529999 30.34 -568.03003
-59.98 30.32 -567.71997
-59.439999 30.309999 -567.54999
-58.91 30.309999 -567.45001
-58.380001 30.299999 -567.37
-57.849998 30.299999 -567.26001
-57.290001 30.280001 -566.91998
-56.759998 30.27 -566.76001
-56.209999 30.25 -566.47998
-55.66 30.24 -566.15997
-55.099998 30.209999 -565.72998
-54.540001 30.190001 -565.35999
-53.93 30.139999 -564.40002
-53.389999 30.129999 -564.16998
-47.099998 30.07 -563.15997
-44.990002 30.040001 -562.54999
-44.48 30.040001 -562.60999
-43.939999 30.02 -562.29999
-43.43 30.030001 -562.40002
-42.939999 30.049999 -562.72998
-42.43 30.049999 -562.73999
-41.889999 30.030001 -562.45001
-41.349998 30.01 -562.07001
-40.84 30.02 -562.16998
-40.349998 30.040001 -562.52002
-39.830002 30.030001 -562.41998
-39.310001 30.02 -562.32001
-38.799999 30.030001 -562.41998
-38.299999 30.040001 -562.63
-37.77 30.030001 -562.48999
-37.23 30.01 -562.10999
-36.700001 30 -561.79999
-36.169998 29.99 -561.59998
-35.650002 29.98 -561.44
-35.119999 29.959999 -561.21997
-34.59 29.959999 -561.07001
-34.080002 29.959999 -561.12
-33.57 29.959999 -561.04999
-33.040001 29.940001 -560.78003
-32.509998 29.93 -560.59998
-31.99 29.92 -560.42999
-31.459999 29.91 -560.23999
-30.940001 29.9 -560.12
-30.440001 29.91 -560.25
-29.93 29.91 -560.31
-29.41 29.91 -560.15997
-28.889999 29.9 -560
-28.379999 29.9 -560.06
-27.870001 29.91 -560.16998
-27.35 29.9 -560.13
-26.83 29.889999 -559.85999
-26.309999 29.879999 -559.76001
-25.799999 29.889999 -559.87
-25.309999 29.91 -560.17999
-24.799999 29.92 -560.33002
-24.290001 29.92 -560.34003
-23.790001 29.93 -560.60999
-23.280001 29.940001 -560.72998
-22.76 29.940001 -560.75
-22.25 29.940001 -560.83002
-21.75 29.950001 -561.06
-21.25 29.969999 -561.34998
-20.74 29.98 -561.63
-20.24 30 -561.92999
-19.73 30.01 -562.04999
-19.23 30.030001 -562.39001
-18.719999 30.040001 -562.67999
-18.209999 30.049999 -562.75
-17.709999 30.07 -563.19
-17.200001 30.09 -563.54999
-16.700001 30.110001 -563.90002
-16.190001 30.120001 -564.19
-15.69 30.15 -564.63
-15.18 30.17 -565.13
-14.68 30.209999 -565.83002
-14.18 30.24 -566.32001
-13.67 30.26 -566.69
-13.16 30.280001 -567.15997
-12.66 30.32 -567.83002
-12.15 30.360001 -568.53998
-11.64 30.379999 -568.85999
-11.12 30.389999 -569.20001
-10.62 30.43 -569.90002
-10.1 30.459999 -570.40997
-9.5900002 30.49 -570.91998
-9.0699997 30.5 -571.22998
-8.5600004 30.540001 -571.83002
-8.04 30.559999 -572.29999
-7.52 30.59 -572.71002
-7 30.6 -573.02002
-6.48 30.620001 -573.34003
-5.96 30.629999 -573.60999
-5.4400001 30.65 -573.89001
-4.9099998 30.66 -574.13
-4.3899999 30.690001 -574.60999
-3.8699999 30.700001 -574.84998
-3.3399999 30.73 -575.34998
-2.8199999 30.76 -575.84998
-2.29 30.780001 -576.21997
44.650002 31.120001 -582.56
45.130001 31.09 -581.84998
45.639999 31.07 -581.56
46.150002 31.059999 -581.28998
46.650002 31.030001 -580.91998
47.139999 31 -580.32001
47.610001 30.969999 -579.65997
48.110001 30.950001 -579.28003
48.619999 30.940001 -579.08002
49.130001 30.92 -578.82001
49.66 30.92 -578.75
50.189999 30.92 -578.78003
50.73 30.93 -578.90002
51.290001 30.940001 -579.21002
51.82 30.940001 -579.15002
52.330002 30.93 -578.96997
52.860001 30.93 -579.02002
53.400002 30.940001 -579.09998
53.959999 30.950001 -579.33002
54.52 30.969999 -579.65997
55.09 30.99 -580.09998
55.73 31.049999 -581.21002
56.380001 31.120001 -582.44
-162.64999 31.25 -594.54999
-161.87 31.200001 -593.70001
-161.03 31.139999 -592.64001
-160.38 31.120001 -592.25
-159.73 31.1 -591.85999
-159.14 31.09 -591.70001
-158.53 31.08 -591.44
-157.91 31.059999 -591.15002
-157.32001 31.059999 -590.96997
-156.73 31.049999 -590.79999
-156.17 31.040001 -590.72998
-155.62 31.040001 -590.66998
-155.07001 31.040001 -590.63
-154.52 31.040001 -590.62
-153.98 31.040001 -590.63
-153.45 31.040001 -590.66998
-152.94 31.049999 -590.78998
-152.41 31.049999 -590.84998
-151.92999 31.059999 -591.04999
-151.41 31.07 -591.15997
-150.89999 31.07 -591.28003
-150.42999 31.09 -591.53003
-149.92 31.09 -591.67999
-149.44 31.110001 -591.92999
-148.95 31.120001 -592.14001
-148.47 31.129999 -592.39001
-148.02 31.15 -592.71997
-147.57001 31.17 -593.10999
-147.11 31.190001 -593.44
-146.67 31.209999 -593.84003
-146.24001 31.23 -594.29999
-145.85001 31.27 -594.95001
-145.47 31.299999 -595.60999
-145.16 31.35 -596.54999
-144.99001 31.440001 -598.10999
-144.86 31.530001 -599.81
-154.85001 33.959999 -645.35999
-154.44 34 -646.13
-92.830002 30.870001 -587.62
-92.25 30.860001 -587.40002
-91.620003 30.83 -586.81
-90.75 30.709999 -584.67999
-90.110001 30.68 -584.03003
-89.449997 30.639999 -583.25
-88.660004 30.549999 -581.59998
-88.040001 30.52 -581.04999
-87.25 30.43 -579.34003
-86.610001 30.389999 -578.62
-86.010002 30.360001 -578.16998
-85.379997 30.33 -577.51001
-84.75 30.290001 -576.79999
-84.169998 30.280001 -576.51001
-83.610001 30.26 -576.26001
-82.989998 30.23 -575.63
-82.349998 30.190001 -574.87
-81.769997 30.17 -574.52002
-81.199997 30.15 -574.23999
-80.660004 30.15 -574.09003
-80.080002 30.129999 -573.73999
-79.389999 30.07 -572.58002
-78.800003 30.040001 -572.09003
-78.25 30.030001 -571.90997
-77.730003 30.030001 -571.92999
-77.199997 30.030001 -571.92999
-76.669998 30.030001 -571.84998
-76.129997 30.02 -571.76001
-75.599998 30.02 -571.67999
-75.07 30.02 -571.67999
-74.559998 30.02 -571.78003
-74.059998 30.030001 -571.92999
-73.540001 30.030001 -571.96002
-73.010002 30.030001 -571.97998
-72.5 30.030001 -572.02002
-71.959999 30.030001 -571.96002
-71.410004 30.02 -571.71997
-70.860001 30.01 -571.48999
-70.300003 29.99 -571.27002
-69.769997 29.99 -571.15002
-69.220001 29.98 -570.96997
-68.68 29.969999 -570.79999
-68.120003 29.959999 -570.57001
-67.580002 29.950001 -570.38
-67.029999 29.940001 -570.20001
-66.489998 29.93 -570.04999
-65.970001 29.93 -570.01001
-65.43 29.92 -569.90002
-64.889999 29.91 -569.76001
-64.349998 29.9 -569.59998
-63.810001 29.889999 -569.41998
-63.279999 29.889999 -569.34003
-62.759998 29.889999 -569.33002
-62.220001 29.879999 -569.22998
-61.669998 29.870001 -568.97998
-61.130001 29.860001 -568.75
-60.549999 29.83 -568.25
-60 29.82 -567.97998
-59.470001 29.809999 -567.83002
-58.950001 29.809999 -567.82001
-58.41 29.799999 -567.69
-57.880001 29.790001 -567.53998
-57.32 29.77 -567.19
-56.77 29.76 -566.90002
-56.209999 29.73 -566.46997
-55.59 29.68 -565.51001
-38.220001 29.469999 -561.48999
-37.689999 29.459999 -561.31
-37.18 29.450001 -561.27002
-36.66 29.450001 -561.26001
-36.139999 29.450001 -561.14001
-35.599998 29.43 -560.76001
-35.07 29.41 -560.40002
-34.549999 29.41 -560.38
-34.049999 29.42 -560.58002
-33.540001 29.42 -560.58002
-33.009998 29.4 -560.28003
-32.48 29.389999 -560.08002
-31.959999 29.379999 -559.92999
-31.440001 29.370001 -559.73999
-30.92 29.370001 -559.65997
-30.42 29.379999 -559.87
-29.91 29.379999 -559.90997
-29.379999 29.370001 -559.67999
-28.870001 29.370001 -559.65002
-28.360001 29.370001 -559.71997
-27.85 29.379999 -559.87
-27.33 29.370001 -559.70001
-26.809999 29.360001 -559.58002
-26.299999 29.360001 -559.57001
-25.799999 29.370001 -559.71997
-25.299999 29.389999 -560.02002
-24.790001 29.389999 -560.06
-24.280001 29.389999 -560.12
-23.780001 29.41 -560.46997
-23.27 29.41 -560.53998
-22.76 29.42 -560.63
-22.25 29.42 -560.67999
-21.74 29.43 -560.90002
-21.24 29.450001 -561.17999
-20.74 29.469999 -561.58002
-20.23 29.48 -561.71997
-19.73 29.49 -561.92999
-19.219999 29.51 -562.28998
-18.709999 29.51 -562.44
-18.200001 29.52 -562.52002
-17.709999 29.549999 -563.09998
-17.200001 29.57 -563.46997
-16.690001 29.58 -563.76001
-16.190001 29.6 -564.08002
-15.68 29.629999 -564.53998
-15.18 29.65 -565
-14.68 29.700001 -565.85999
-14.17 29.709999 -566.10999
-13.66 29.73 -566.51001
-13.16 29.76 -567.13
-12.66 29.799999 -567.87
-12.15 29.84 -568.47998
-11.64 29.85 -568.72998
-11.12 29.870001 -569.16998
-10.62 29.91 -569.90002
-10.1 29.93 -570.17999
-9.5900002 29.950001 -570.65997
-9.0699997 29.98 -571.21997
-8.5600004 30.01 -571.72998
-8.04 30.030001 -572.10999
-7.52 30.049999 -572.44
-7 30.059999 -572.62
-6.4699998 30.07 -572.85999
-5.9499998 30.09 -573.17999
-5.4299998 30.09 -573.34998
-4.9099998 30.1 -573.47998
-4.3800001 30.120001 -573.87
-3.8599999 30.139999 -574.26001
-3.3399999 30.17 -574.71997
-2.8099999 30.18 -574.92999
-2.29 30.209999 -575.41998
3.96 34.130001 -649.03003
4.5599999 34.130001 -649.01001
5.1599998 34.150002 -649.34998
5.7600002 34.18 -649.90002
6.3600001 34.200001 -650.27002
44.099998 30.58 -582.37
44.59 30.549999 -581.75
45.099998 30.530001 -581.46997
45.619999 30.52 -581.27002
46.119999 30.5 -580.96002
46.610001 30.48 -580.44
47.09 30.440001 -579.79999
47.580002 30.42 -579.31
48.080002 30.4 -578.96002
48.59 30.379999 -578.70001
49.110001 30.379999 -578.58002
49.639999 30.379999 -578.52002
50.169998 30.379999 -578.52002
50.709999 30.379999 -578.67999
51.279999 30.41 -579.09003
51.790001 30.389999 -578.88
52.299999 30.379999 -578.69
52.84 30.389999 -578.73999
53.380001 30.4 -578.88
53.93 30.41 -579.09003
54.490002 30.42 -579.40002
55.09 30.459999 -580.06
55.709999 30.51 -581.03003
-163.36 30.73 -595.16998
-162.50999 30.67 -594.04999
-161.73 30.629999 -593.21997
-160.94 30.58 -592.32001
-160.3 30.57 -591.96997
-159.7 30.549999 -591.75
-159.08 30.540001 -591.46002
-158.45 30.52 -591.15002
-157.87 30.52 -591.01001
-157.28 30.51 -590.82001
-156.7 30.5 -590.67999
-156.14999 30.5 -590.63
-155.59 30.49 -590.58002
-155.07001 30.5 -590.65002
-154.52 30.49 -590.59998
-153.98 30.49 -590.60999
-153.45 30.5 -590.65002
-152.94 30.5 -590.78003
-152.42999 30.51 -590.90002
-151.92999 30.52 -591.06
-151.39999 30.52 -591.13
-150.92 30.530001 -591.34998
-150.42999 30.540001 -591.53998
-149.92999 30.549999 -591.72998
-149.45 30.57 -591.95001
-148.97 30.58 -592.21002
-148.47 30.59 -592.38
-148.00999 30.610001 -592.71002
-147.59 30.629999 -593.19
-147.14999 30.65 -593.59998
-146.7 30.67 -593.96002
-146.32001 30.709999 -594.63
-145.92999 30.74 -595.26001
-145.59 30.780001 -596.09998
-145.33 30.84 -597.27002
-145.19 30.93 -598.90997
-154.74001 33.34 -644.90997
-154.44 33.41 -646.15002
-154.12 33.459999 -647.25
-92.440002 30.379999 -588.54999
-91.879997 30.379999 -588.46002
-90.959999 30.25 -586.01001
-90.290001 30.200001 -585.16998
-89.660004 30.17 -584.56
-88.809998 30.059999 -582.53998
-88.18 30.030001 -581.94
-87.419998 29.950001 -580.44
-86.709999 29.889999 -579.28998
-86.110001 29.870001 -578.84998
-85.459999 29.83 -578.02002
-84.839996 29.799999 -577.46002
-84.269997 29.780001 -577.20001
-83.709999 29.77 -576.94
-83.059998 29.73 -576.15002
-82.410004 29.68 -575.29999
-81.860001 29.67 -575.13
-81.300003 29.66 -574.88
-80.730003 29.65 -574.62
-80.139999 29.629999 -574.19
-79.440002 29.559999 -572.95001
-78.870003 29.540001 -572.58002
-78.330002 29.540001 -572.51001
-77.779999 29.530001 -572.34998
-77.269997 29.530001 -572.40002
-76.739998 29.530001 -572.39001
-76.209999 29.530001 -572.32001
-75.669998 29.52 -572.26001
-75.150002 29.52 -572.25
-74.639999 29.530001 -572.39001
-74.139999 29.540001 -572.57001
-73.620003 29.540001 -572.58002
-73.089996 29.540001 -572.58002
-72.580002 29.540001 -572.66998
-72.040001 29.540001 -572.53998
-71.470001 29.52 -572.19
-70.919998 29.51 -572.02002
-70.370003 29.5 -571.82001
-69.830002 29.49 -571.66998
-69.290001 29.48 -571.51001
-68.739998 29.469999 -571.29999
-68.190002 29.459999 -571.12
-67.629997 29.450001 -570.81
-67.080002 29.440001 -570.62
-66.550003 29.43 -570.54999
-66.019997 29.43 -570.46002
-65.489998 29.42 -570.37
-64.940002 29.41 -570.15997
-64.410004 29.41 -570.06
-63.869999 29.4 -569.91998
-63.349998 29.4 -569.92999
-62.82 29.4 -569.89001
-62.279999 29.389999 -569.71997
-61.73 29.370001 -569.45001
-61.16 29.35 -569.08002
-60.59 29.33 -568.63
-60.049999 29.32 -568.41998
-59.509998 29.309999 -568.27002
-58.98 29.309999 -568.19
-58.439999 29.299999 -567.97998
-57.900002 29.280001 -567.78003
-57.349998 29.27 -567.46997
