# .PCD v0.7 - Point Cloud Data file format
VERSION 0.7
FIELDS x y z
SIZE 4 4 4
TYPE F F F
COUNT 1 1 1
WIDTH 1610
HEIGHT 1
VIEWPOINT 0 0 0 1 0 0 0
POINTS 1610
DATA ascii
-15.46 -79.400002 -575.14001
-14.94 -79.43 -575.34003
-14.42 -79.459999 -575.53998
-13.9 -79.510002 -575.87
-13.38 -79.57 -576.32001
-12.86 -79.610001 -576.59003
-12.34 -79.650002 -576.89001
-11.82 -79.690002 -577.21997
-11.29 -79.739998 -577.51001
-10.77 -79.790001 -577.92999
-10.25 -79.870003 -578.46997
-9.7299995 -79.949997 -579.03003
-3.8099999 -90.489998 -654.21002
-3.21 -90.459999 -653.96997
-2.6099999 -90.470001 -654.08002
-2.01 -90.470001 -654.04999
-1.41 -90.510002 -654.34998
-0.81 -90.550003 -654.63
-0.20999999 -90.610001 -655.09003
0.40000001 -90.690002 -655.60999
1 -90.830002 -656.65997
1.61 -91 -657.87
2.24 -92.260002 -666.82001
2.8699999 -92.790001 -670.58002
3.49 -92.879997 -671.28998
4.1100001 -92.959999 -671.81
4.73 -93.050003 -672.48999
5.3499999 -93.07 -672.64001
5.9699998 -93.080002 -672.67999
6.5799999 -93.080002 -672.67999
7.1999998 -93.07 -672.62
7.8200002 -93.050003 -672.47998
8.4300003 -93.010002 -672.17999
9.0500002 -93 -672.13
9.6599998 -92.970001 -671.88
10.28 -92.949997 -671.76001
10.89 -92.93 -671.63
11.5 -92.900002 -671.38
12.12 -92.889999 -671.32001
12.73 -92.870003 -671.17999
13.34 -92.839996 -670.96997
13.96 -92.839996 -670.95001
14.57 -92.800003 -670.69
15.18 -92.779999 -670.56
15.79 -92.760002 -670.38
16.41 -92.730003 -670.19
17.02 -92.720001 -670.09998
17.629999 -92.68 -669.78998
18.24 -92.650002 -669.62
18.84 -92.610001 -669.28998
19.450001 -92.589996 -669.15997
20.059999 -92.559998 -668.95001
20.66 -92.510002 -668.64001
21.27 -92.5 -668.51001
21.879999 -92.459999 -668.22998
22.49 -92.449997 -668.20001
23.1 -92.43 -668.06
23.709999 -92.410004 -667.85999
24.309999 -92.389999 -667.71997
24.93 -92.379997 -667.71002
25.540001 -92.389999 -667.73999
26.15 -92.370003 -667.57001
26.76 -92.360001 -667.51001
27.360001 -92.330002 -667.31
27.969999 -92.309998 -667.14001
28.58 -92.300003 -667.09998
29.190001 -92.279999 -666.97998
29.790001 -92.260002 -666.83002
30.4 -92.239998 -666.70001
31 -92.220001 -666.52002
31.610001 -92.220001 -666.52002
32.220001 -92.209999 -666.41998
32.82 -92.169998 -666.15997
33.419998 -92.150002 -666.01001
34.040001 -92.150002 -666.02002
34.650002 -92.160004 -666.09003
35.259998 -92.160004 -666.09003
35.880001 -92.169998 -666.13
36.490002 -92.160004 -666.07001
37.110001 -92.18 -666.22998
37.709999 -92.169998 -666.15002
38.330002 -92.18 -666.23999
38.939999 -92.18 -666.21997
39.560001 -92.199997 -666.38
40.18 -92.209999 -666.45001
40.799999 -92.230003 -666.58002
41.450001 -92.309998 -667.16998
42.080002 -92.349998 -667.45001
42.700001 -92.370003 -667.54999
43.349998 -92.449997 -668.15002
44 -92.529999 -668.71997
44.650002 -92.599998 -669.20001
45.259998 -92.599998 -669.20001
45.900002 -92.639999 -669.46002
46.52 -92.650002 -669.53998
47.130001 -92.650002 -669.53998
47.77 -92.690002 -669.82001
48.389999 -92.709999 -669.96002
49.02 -92.739998 -670.19
49.669998 -92.790001 -670.54999
50.299999 -92.830002 -670.81
50.950001 -92.879997 -671.21002
51.59 -92.93 -671.56
52.240002 -92.980003 -671.91998
52.880001 -93.029999 -672.21997
53.540001 -93.099998 -672.78998
54.200001 -93.169998 -673.26001
54.860001 -93.239998 -673.78003
55.509998 -93.290001 -674.08002
56.16 -93.349998 -674.52002
56.82 -93.410004 -674.95001
57.470001 -93.470001 -675.37
58.16 -93.57 -676.12
58.810001 -93.629997 -676.48999
59.48 -93.690002 -676.94
60.139999 -93.760002 -677.44
60.810001 -93.839996 -677.97998
61.52 -93.959999 -678.85999
62.209999 -94.07 -679.64001
62.880001 -94.129997 -680.09003
63.560001 -94.209999 -680.66998
64.230003 -94.279999 -681.10999
64.910004 -94.360001 -681.69
65.540001 -94.360001 -681.71997
66.199997 -94.410004 -682.08002
66.839996 -94.43 -682.17999
67.510002 -94.489998 -682.65002
68.190002 -94.559998 -683.14001
68.870003 -94.639999 -683.70001
69.550003 -94.709999 -684.15997
70.260002 -94.82 -685.01001
70.93 -94.870003 -685.34003
71.599998 -94.93 -685.76001
72.290001 -95.010002 -686.33002
82.400002 -95.760002 -691.65002
82.860001 -95.559998 -690.22998
83.290001 -95.330002 -688.58002
83.870003 -95.269997 -688.16998
83.769997 -94.440002 -682.22998
84.089996 -94.089996 -679.77002
84.550003 -93.919998 -678.5
85.050003 -93.779999 -677.48999
85.519997 -93.610001 -676.34003
86.010002 -93.470001 -675.34003
86.470001 -93.300003 -674.07001
86.940002 -93.139999 -672.95001
87.360001 -92.93 -671.44
87.830002 -92.779999 -670.37
88.300003 -92.620003 -669.21002
88.800003 -92.5 -668.39001
89.300003 -92.379997 -667.53998
89.800003 -92.269997 -666.71002
90.300003 -92.150002 -665.90997
90.82 -92.059998 -665.21997
91.300003 -91.93 -664.32001
91.839996 -91.860001 -663.78003
92.339996 -91.75 -663.03003
92.860001 -91.669998 -662.41998
93.349998 -91.540001 -661.53003
93.879997 -91.470001 -660.98999
94.379997 -91.370003 -660.28998
94.940002 -91.330002 -659.98999
95.470001 -91.25 -659.41998
96.019997 -91.190002 -659.03998
96.57 -91.139999 -658.67999
97.150002 -91.120003 -658.53003
97.720001 -91.080002 -658.26001
98.300003 -91.059998 -658.12
98.889999 -91.059998 -658.04999
99.510002 -91.07 -658.13
100.15 -91.099998 -658.35999
100.79 -91.129997 -658.57001
101.45 -91.18 -658.96002
102.14 -91.260002 -659.5
102.85 -91.349998 -660.15997
103.57 -91.449997 -660.85999
104.31 -91.57 -661.71002
-165.92 -79.059998 -568.98999
-165.17 -78.949997 -568.21997
-164.44 -78.849998 -567.48999
-163.73 -78.760002 -566.82001
-163.05 -78.68 -566.26001
-162.45 -78.639999 -565.98999
-161.87 -78.610001 -565.78003
-161.28 -78.57 -565.51001
-160.67999 -78.540001 -565.25
-160.12 -78.510002 -565.08002
-159.50999 -78.470001 -564.77002
-158.95 -78.449997 -564.59003
-158.38 -78.419998 -564.40997
-157.83 -78.410004 -564.31
-157.3 -78.400002 -564.25
-156.78999 -78.400002 -564.26001
-156.21001 -78.370003 -564.03003
-155.60001 -78.330002 -563.71997
-155.05 -78.309998 -563.57001
-154.5 -78.290001 -563.45001
-153.95 -78.269997 -563.31
-153.38 -78.239998 -563.10999
-152.8 -78.209999 -562.90002
-152.27 -78.199997 -562.82001
-151.73 -78.190002 -562.76001
-151.2 -78.190002 -562.69
-150.67 -78.18 -562.65002
-150.14999 -78.169998 -562.60999
-149.62 -78.169998 -562.53998
-149.10001 -78.160004 -562.52002
-148.57001 -78.160004 -562.47998
-148.06 -78.160004 -562.51001
-147.57001 -78.18 -562.59003
-147.08 -78.18 -562.65997
-146.57001 -78.190002 -562.67999
-146.06 -78.190002 -562.70001
-145.55 -78.190002 -562.71002
-145.03999 -78.199997 -562.73999
-144.53 -78.199997 -562.76001
-144.05 -78.220001 -562.88
-143.52 -78.209999 -562.82001
-142.99001 -78.199997 -562.78003
-142.45 -78.190002 -562.67999
-141.92999 -78.190002 -562.66998
-141.39999 -78.18 -562.59998
-140.85001 -78.160004 -562.46002
-140.25999 -78.120003 -562.19
-139.69 -78.089996 -561.94
-139.14 -78.07 -561.82001
-138.62 -78.07 -561.79999
-138.10001 -78.07 -561.78003
-137.61 -78.080002 -561.87
-137.08 -78.07 -561.81
-136.57001 -78.07 -561.81
-136.03999 -78.059998 -561.75
-135.5 -78.050003 -561.64001
-134.97 -78.040001 -561.58002
-134.44 -78.029999 -561.51001
-133.91 -78.019997 -561.45001
-133.39 -78.019997 -561.44
-132.87 -78.010002 -561.40002
-132.35001 -78.010002 -561.35999
-131.81 -77.989998 -561.25
-131.28 -77.989998 -561.19
-130.74001 -77.970001 -561.09998
-130.22 -77.970001 -561.04999
-129.67999 -77.949997 -560.95001
-129.14 -77.940002 -560.84003
-128.59 -77.919998 -560.70001
-128.07001 -77.910004 -560.65002
-127.54 -77.900002 -560.57001
-126.98 -77.870003 -560.38
-126.46 -77.870003 -560.35999
-125.92 -77.849998 -560.25
-125.36 -77.830002 -560.04999
-124.84 -77.82 -559.97998
-124.29 -77.790001 -559.81
-123.77 -77.790001 -559.79999
-123.22 -77.769997 -559.64001
-122.7 -77.760002 -559.58002
-122.16 -77.739998 -559.46002
-121.63 -77.739998 -559.40002
-121.1 -77.720001 -559.31
-120.58 -77.720001 -559.29999
-120.07 -77.720001 -559.28998
-119.55 -77.709999 -559.25
-119.01 -77.699997 -559.13
-118.49 -77.690002 -559.09998
-117.95 -77.669998 -558.96002
-117.42 -77.660004 -558.85999
-116.86 -77.629997 -558.63
-116.34 -77.629997 -558.63
-115.8 -77.599998 -558.46997
-115.27 -77.589996 -558.40997
-114.73 -77.580002 -558.28003
-114.21 -77.57 -558.19
-113.68 -77.550003 -558.10999
-113.15 -77.540001 -558.03998
-112.61 -77.519997 -557.89001
-112.11 -77.529999 -557.91998
-111.58 -77.519997 -557.85999
-111.06 -77.510002 -557.78998
-110.53 -77.5 -557.70001
-110.01 -77.489998 -557.65997
-109.49 -77.480003 -557.60999
-108.97 -77.480003 -557.57001
-108.45 -77.470001 -557.54999
-107.93 -77.459999 -557.47998
-107.41 -77.459999 -557.46002
-106.89 -77.449997 -557.39001
-106.37 -77.449997 -557.35999
-105.86 -77.449997 -557.34998
-105.34 -77.440002 -557.29999
-104.83 -77.440002 -557.28998
-104.32 -77.440002 -557.28998
-103.8 -77.43 -557.25
-103.28 -77.419998 -557.19
-102.77 -77.419998 -557.17999
-102.26 -77.43 -557.21002
-101.75 -77.419998 -557.19
-101.25 -77.43 -557.26001
-100.74 -77.43 -557.25
-100.24 -77.440002 -557.32001
-99.739998 -77.449997 -557.38
-99.239998 -77.459999 -557.45001
-98.730003 -77.459999 -557.47998
-98.230003 -77.470001 -557.51001
-97.720001 -77.470001 -557.51001
-97.199997 -77.459999 -557.46997
-96.699997 -77.470001 -557.52002
-96.199997 -77.470001 -557.57001
-95.699997 -77.480003 -557.63
-95.199997 -77.5 -557.72998
-94.709999 -77.510002 -557.82001
-94.209999 -77.519997 -557.89001
-93.709999 -77.529999 -557.97998
-93.239998 -77.559998 -558.17999
-92.75 -77.580002 -558.34003
-92.269997 -77.610001 -558.5
-91.790001 -77.629997 -558.71002
-91.32 -77.669998 -558.97998
-90.849998 -77.709999 -559.21997
-90.379997 -77.739998 -559.46002
-89.889999 -77.760002 -559.63
-89.43 -77.800003 -559.91998
-88.959999 -77.849998 -560.22998
-88.529999 -77.919998 -560.71002
-88.110001 -78 -561.33002
-87.82 -78.199997 -562.73999
-87.519997 -78.400002 -564.10999
-87.220001 -78.589996 -565.46002
-87.18 -79.029999 -568.58002
-87.339996 -79.650002 -572.98999
-86.860001 -79.690002 -573.28003
-86.260002 -79.620003 -572.79999
-85.690002 -79.57 -572.46002
-85.120003 -79.529999 -572.17999
-84.550003 -79.489998 -571.90002
-83.970001 -79.440002 -571.53003
-83.440002 -79.43 -571.42999
-82.870003 -79.389999 -571.14001
-82.309998 -79.349998 -570.87
-81.75 -79.309998 -570.63
-81.199997 -79.290001 -570.46997
-80.650002 -79.260002 -570.26001
-80.099998 -79.230003 -570.04999
-79.559998 -79.220001 -569.94
-79.019997 -79.199997 -569.79999
-78.470001 -79.18 -569.65997
-77.940002 -79.169998 -569.59003
-77.410004 -79.150002 -569.48999
-76.879997 -79.150002 -569.45001
-76.349998 -79.139999 -569.40002
-75.830002 -79.139999 -569.39001
-75.300003 -79.129997 -569.33002
-74.779999 -79.129997 -569.35999
-74.260002 -79.129997 -569.35999
-73.739998 -79.129997 -569.38
-73.220001 -79.139999 -569.39001
-72.690002 -79.129997 -569.37
-72.169998 -79.139999 -569.40002
-71.650002 -79.129997 -569.34003
-71.120003 -79.120003 -569.32001
-70.599998 -79.129997 -569.33002
-70.080002 -79.129997 -569.35999
-69.580002 -79.150002 -569.48999
-69.050003 -79.150002 -569.48999
-68.550003 -79.160004 -569.60999
-68.029999 -79.169998 -569.65997
-67.529999 -79.199997 -569.83002
-67.010002 -79.199997 -569.84998
-66.489998 -79.209999 -569.90002
-65.980003 -79.209999 -569.95001
-65.470001 -79.230003 -570.07001
-64.959999 -79.239998 -570.16998
-64.459999 -79.269997 -570.35999
-63.950001 -79.290001 -570.5
-63.450001 -79.32 -570.71997
-62.939999 -79.330002 -570.78998
-62.419998 -79.339996 -570.84998
-61.889999 -79.330002 -570.81
-61.380001 -79.339996 -570.90002
-60.869999 -79.360001 -571.01001
-60.369999 -79.389999 -571.23999
-59.880001 -79.440002 -571.59003
-59.380001 -79.459999 -571.75
-58.889999 -79.510002 -572.09998
-58.369999 -79.519997 -572.15997
-57.84 -79.519997 -572.12
-57.310001 -79.510002 -572.07001
-56.779999 -79.489998 -571.96997
-56.259998 -79.510002 -572.07001
-55.75 -79.529999 -572.21002
-55.25 -79.550003 -572.38
-54.740002 -79.580002 -572.62
-54.240002 -79.620003 -572.88
-53.740002 -79.660004 -573.13
-53.240002 -79.690002 -573.34003
-52.73 -79.709999 -573.47998
-52.209999 -79.720001 -573.58002
-51.700001 -79.75 -573.76001
-51.18 -79.75 -573.83002
-50.669998 -79.769997 -573.95001
-50.150002 -79.779999 -574.03998
-49.630001 -79.800003 -574.15997
-49.110001 -79.809998 -574.25
-48.59 -79.82 -574.27002
-48.07 -79.82 -574.31
-47.540001 -79.82 -574.32001
-47.029999 -79.849998 -574.51001
-46.509998 -79.849998 -574.53003
-45.990002 -79.860001 -574.62
-45.470001 -79.879997 -574.70001
-44.939999 -79.879997 -574.76001
-44.419998 -79.889999 -574.79999
-43.900002 -79.900002 -574.85999
-43.380001 -79.910004 -574.97998
-42.849998 -79.910004 -574.96997
-42.330002 -79.919998 -575.06
-41.810001 -79.93 -575.12
-41.290001 -79.949997 -575.21002
-40.77 -79.959999 -575.29999
-40.25 -79.970001 -575.35999
-39.73 -79.980003 -575.47998
-39.209999 -79.989998 -575.54999
-38.68 -80 -575.59003
-38.16 -80.010002 -575.70001
-37.639999 -80.019997 -575.76001
-37.110001 -80.019997 -575.73999
-36.580002 -80.019997 -575.72998
-36.049999 -80.019997 -575.72998
-35.529999 -80.040001 -575.87
-35.009998 -80.050003 -575.97998
-34.490002 -80.059998 -576.02002
-33.959999 -80.050003 -576
-33.43 -80.059998 -576.03998
-32.91 -80.07 -576.08002
-32.380001 -80.07 -576.09003
-31.84 -80.050003 -575.96997
-31.32 -80.050003 -575.96002
-30.790001 -80.040001 -575.90002
-30.26 -80.050003 -575.94
-29.73 -80.029999 -575.83002
-29.200001 -80.019997 -575.78998
-28.66 -80.010002 -575.71002
-28.129999 -79.989998 -575.58002
-27.6 -79.980003 -575.46997
-27.059999 -79.949997 -575.28003
-26.530001 -79.940002 -575.15997
-26 -79.919998 -575.03998
-25.459999 -79.879997 -574.79999
-24.92 -79.849998 -574.53003
-24.379999 -79.809998 -574.25
-23.85 -79.779999 -574.07001
-23.309999 -79.75 -573.83002
-22.780001 -79.709999 -573.58002
-22.24 -79.68 -573.38
-21.719999 -79.669998 -573.32001
-21.18 -79.650002 -573.16998
-20.66 -79.650002 -573.13
-20.129999 -79.650002 -573.17999
-19.610001 -79.660004 -573.21997
-19.09 -79.68 -573.34998
-18.57 -79.699997 -573.5
-18.049999 -79.730003 -573.69
-17.530001 -79.75 -573.84998
-17.01 -79.769997 -573.98999
-16.48 -79.779999 -574.08002
-15.96 -79.800003 -574.21997
-15.44 -79.830002 -574.42999
-14.92 -79.860001 -574.64001
-14.4 -79.889999 -574.89001
-13.88 -79.93 -575.14001
-13.36 -79.970001 -575.39001
-12.84 -80.029999 -575.84998
-12.32 -80.089996 -576.25
-11.8 -80.139999 -576.62
-11.28 -80.18 -576.90997
-10.76 -80.25 -577.38
-10.24 -80.300003 -577.76001
-9.7200003 -80.389999 -578.40997
-9.1999998 -80.480003 -579.07001
-8.6899996 -80.620003 -580
-3.8099999 -91.010002 -653.65002
-3.2 -91 -653.53998
-2.5999999 -91 -653.57001
-2.01 -91.029999 -653.75
-1.41 -91.07 -654.04999
-0.81 -91.110001 -654.37
-0.20999999 -91.18 -654.84998
0.40000001 -91.279999 -655.57001
1 -91.440002 -656.66998
1.61 -91.610001 -657.88
2.25 -93.290001 -669.77002
2.8699999 -93.470001 -671.04999
3.49 -93.589996 -671.94
4.1100001 -93.650002 -672.37
4.73 -93.720001 -672.85999
5.3499999 -93.760002 -673.12
5.9699998 -93.769997 -673.20001
6.5900002 -93.769997 -673.16998
7.1999998 -93.739998 -672.95001
7.8200002 -93.690002 -672.65997
8.4399996 -93.709999 -672.76001
9.0500002 -93.699997 -672.71002
9.6700001 -93.660004 -672.39001
10.28 -93.610001 -672.03998
10.9 -93.599998 -671.96002
11.51 -93.57 -671.75
12.12 -93.540001 -671.58002
12.74 -93.529999 -671.48999
13.35 -93.510002 -671.37
13.97 -93.510002 -671.35999
14.58 -93.480003 -671.10999
15.19 -93.470001 -671.03998
15.81 -93.440002 -670.87
16.42 -93.43 -670.77002
17.030001 -93.400002 -670.58002
17.639999 -93.370003 -670.34003
18.25 -93.330002 -670.08002
18.85 -93.290001 -669.77002
19.469999 -93.260002 -669.59998
20.07 -93.239998 -669.40997
20.68 -93.199997 -669.12
21.290001 -93.18 -669.01001
21.9 -93.150002 -668.82001
22.51 -93.129997 -668.66998
23.110001 -93.110001 -668.47998
23.73 -93.099998 -668.44
24.34 -93.080002 -668.32001
24.950001 -93.080002 -668.26001
25.559999 -93.07 -668.19
26.17 -93.07 -668.22998
26.780001 -93.040001 -668.02002
27.4 -93.050003 -668.09998
28.01 -93.040001 -668.02002
28.610001 -93.019997 -667.87
29.219999 -93.010002 -667.78998
29.83 -92.989998 -667.62
30.43 -92.959999 -667.40997
31.049999 -92.970001 -667.47998
31.66 -92.980003 -667.54999
32.279999 -92.980003 -667.53003
32.880001 -92.940002 -667.29999
33.48 -92.919998 -667.16998
34.09 -92.900002 -666.96997
34.700001 -92.910004 -667.03998
35.310001 -92.900002 -667.02002
35.93 -92.919998 -667.10999
36.540001 -92.919998 -667.13
37.16 -92.919998 -667.10999
37.779999 -92.940002 -667.27002
38.400002 -92.949997 -667.35999
39.02 -92.980003 -667.58002
39.639999 -93 -667.65997
40.27 -93.019997 -667.85999
40.900002 -93.07 -668.17999
41.549999 -93.150002 -668.78003
42.18 -93.199997 -669.09003
42.82 -93.25 -669.42999
43.450001 -93.269997 -669.59003
44.07 -93.300003 -669.78998
44.700001 -93.309998 -669.90002
45.32 -93.330002 -670.01001
45.950001 -93.349998 -670.17999
46.560001 -93.349998 -670.14001
47.169998 -93.339996 -670.12
47.810001 -93.379997 -670.37
48.439999 -93.410004 -670.59998
49.080002 -93.459999 -670.90997
49.720001 -93.5 -671.19
50.369999 -93.559998 -671.62
51 -93.589996 -671.88
51.650002 -93.660004 -672.34003
52.299999 -93.709999 -672.72998
52.970001 -93.809998 -673.38
53.610001 -93.830002 -673.56
54.259998 -93.889999 -673.94
54.91 -93.949997 -674.38
55.57 -94.010002 -674.84003
56.220001 -94.07 -675.21997
56.889999 -94.139999 -675.76001
57.549999 -94.209999 -676.20001
58.220001 -94.279999 -676.75
58.869999 -94.339996 -677.13
59.540001 -94.419998 -677.69
60.23 -94.510002 -678.38
60.91 -94.610001 -679.07001
61.599998 -94.709999 -679.75
62.27 -94.779999 -680.27002
62.950001 -94.860001 -680.81
63.59 -94.889999 -681
64.300003 -95 -681.84003
64.970001 -95.080002 -682.37
65.639999 -95.139999 -682.78998
66.290001 -95.160004 -682.95001
66.940002 -95.199997 -683.19
67.610001 -95.269997 -683.69
68.279999 -95.32 -684.08002
68.959999 -95.400002 -684.59998
69.650002 -95.480003 -685.17999
70.330002 -95.550003 -685.66998
71.019997 -95.629997 -686.23999
82.540001 -96.559998 -692.84003
82.959999 -96.32 -691.08002
83.43 -96.120003 -689.71002
83.889999 -95.919998 -688.29999
84.360001 -95.739998 -686.98999
84.199997 -94.849998 -680.66998
84.610001 -94.610001 -679
85.080002 -94.43 -677.72998
85.550003 -94.260002 -676.53998
86.059998 -94.150002 -675.73999
86.540001 -93.989998 -674.60999
87.019997 -93.839996 -673.53998
87.449997 -93.639999 -672.12
87.889999 -93.459999 -670.81
88.330002 -93.260002 -669.45001
88.839996 -93.160004 -668.69
89.339996 -93.040001 -667.87
89.870003 -92.949997 -667.21997
90.349998 -92.82 -666.28998
90.849998 -92.699997 -665.47998
91.360001 -92.599998 -664.71997
91.889999 -92.519997 -664.13
92.400002 -92.419998 -663.42999
92.900002 -92.309998 -662.66998
93.43 -92.230003 -662.09998
93.940002 -92.129997 -661.40002
94.470001 -92.059998 -660.91998
95 -91.989998 -660.39001
95.519997 -91.900002 -659.77002
96.089996 -91.870003 -659.53003
96.639999 -91.82 -659.17999
97.18 -91.75 -658.72998
97.739998 -91.709999 -658.45001
98.330002 -91.699997 -658.31
98.910004 -91.669998 -658.15002
99.529999 -91.690002 -658.27002
100.15 -91.699997 -658.37
100.8 -91.75 -658.65997
101.45 -91.790001 -658.96997
102.14 -91.860001 -659.47998
102.86 -91.970001 -660.21997
103.56 -92.040001 -660.76001
104.3 -92.169998 -661.63
-165.75 -79.5 -568.41998
-165.02 -79.400002 -567.69
-164.31 -79.300003 -567.03003
-163.63 -79.230003 -566.47998
-162.97 -79.160004 -566
-162.38 -79.120003 -565.75
-161.77 -79.080002 -565.41998
-161.17999 -79.050003 -565.20001
-160.58 -79.010002 -564.90002
-160.02 -78.989998 -564.75
-159.45 -78.959999 -564.57001
-158.89 -78.940002 -564.39001
-158.31 -78.900002 -564.16998
-157.78999 -78.900002 -564.15002
-157.25 -78.889999 -564.07001
-156.74001 -78.889999 -564.08002
-156.17999 -78.870003 -563.92999
-155.57001 -78.830002 -563.60999
-155 -78.800003 -563.40002
-154.46001 -78.790001 -563.31
-153.89 -78.760002 -563.09998
-153.33 -78.730003 -562.94
-152.77 -78.709999 -562.79999
-152.23 -78.699997 -562.67999
-151.67 -78.68 -562.53998
-151.14999 -78.669998 -562.5
-150.64999 -78.68 -562.53998
-150.14 -78.68 -562.56
-149.59 -78.669998 -562.46002
-149.06 -78.660004 -562.40002
-148.55 -78.660004 -562.40997
-148.05 -78.669998 -562.44
-147.56 -78.68 -562.53998
-147.07001 -78.699997 -562.65002
-146.58 -78.709999 -562.72998
-146.08 -78.720001 -562.77002
-145.56 -78.720001 -562.78998
-145.06 -78.720001 -562.82001
-144.53999 -78.730003 -562.83002
-144.03999 -78.730003 -562.87
-143.52 -78.730003 -562.84003
-142.99001 -78.720001 -562.78003
-142.46001 -78.709999 -562.73999
-141.91 -78.699997 -562.59998
-141.39 -78.690002 -562.56
-140.86 -78.68 -562.5
-140.31 -78.669998 -562.39001
-139.75999 -78.639999 -562.22998
-139.19 -78.610001 -562.02002
-138.64999 -78.599998 -561.91998
-138.14 -78.599998 -561.92999
-137.62 -78.599998 -561.89001
-137.10001 -78.589996 -561.87
-136.56 -78.580002 -561.78998
-136.05 -78.589996 -561.81
-135.5 -78.559998 -561.65997
-134.97 -78.550003 -561.57001
-134.44 -78.550003 -561.53003
-133.92 -78.540001 -561.47998
-133.39999 -78.540001 -561.45001
-132.86 -78.529999 -561.37
-132.34 -78.519997 -561.32001
-131.81 -78.510002 -561.27002
-131.28 -78.5 -561.19
-130.74001 -78.489998 -561.09998
-130.22 -78.480003 -561.07001
-129.7 -78.480003 -561.03003
-129.16 -78.459999 -560.91998
-128.61 -78.440002 -560.77002
-128.07001 -78.43 -560.65997
-127.53 -78.410004 -560.53003
-126.99 -78.389999 -560.42999
-126.47 -78.389999 -560.37
-125.93 -78.370003 -560.27002
-125.39 -78.349998 -560.15997
-124.85 -78.339996 -560.03003
-124.31 -78.32 -559.94
-123.78 -78.309998 -559.85999
-123.24 -78.290001 -559.71997
-122.71 -78.279999 -559.63
-122.18 -78.269997 -559.54999
-121.65 -78.260002 -559.5
-121.13 -78.260002 -559.46997
-120.62 -78.25 -559.44
-120.09 -78.25 -559.38
-119.56 -78.239998 -559.32001
-119.04 -78.230003 -559.26001
-118.52 -78.230003 -559.25
-117.98 -78.199997 -559.09998
-117.44 -78.190002 -558.97998
-116.91 -78.169998 -558.87
-116.39 -78.169998 -558.83002
-115.84 -78.139999 -558.67999
-115.31 -78.129997 -558.58002
-114.77 -78.110001 -558.42999
-114.24 -78.099998 -558.34998
-113.7 -78.080002 -558.22998
-113.17 -78.07 -558.15002
-112.64 -78.050003 -558.02002
-112.1 -78.040001 -557.90997
-111.59 -78.029999 -557.88
-111.06 -78.019997 -557.82001
-110.55 -78.019997 -557.82001
-110.03 -78.019997 -557.78003
-109.51 -78.010002 -557.71002
-108.98 -78 -557.65002
-108.47 -78 -557.62
-107.94 -77.980003 -557.54999
-107.39 -77.949997 -557.32001
-106.87 -77.940002 -557.27002
-106.35 -77.940002 -557.25
-105.84 -77.940002 -557.26001
-105.36 -77.959999 -557.40002
-104.85 -77.959999 -557.40002
-104.32 -77.949997 -557.33002
-103.8 -77.949997 -557.28003
-103.3 -77.949997 -557.32001
-102.78 -77.940002 -557.23999
-102.27 -77.940002 -557.23999
-101.77 -77.949997 -557.28998
-101.26 -77.949997 -557.33002
-100.74 -77.949997 -557.28998
-100.26 -77.959999 -557.40997
-99.760002 -77.980003 -557.5
-99.25 -77.980003 -557.52002
-98.739998 -77.980003 -557.52002
-98.260002 -78 -557.69
-97.730003 -77.989998 -557.59998
-97.220001 -77.989998 -557.57001
-96.720001 -78 -557.64001
-96.220001 -78 -557.67999
-95.720001 -78.019997 -557.78003
-95.230003 -78.029999 -557.88
-94.720001 -78.029999 -557.91998
-94.230003 -78.050003 -558.03003
-93.739998 -78.059998 -558.13
-93.25 -78.080002 -558.27002
-92.769997 -78.110001 -558.46002
-92.290001 -78.139999 -558.66998
-91.809998 -78.160004 -558.81
-91.339996 -78.199997 -559.06
-90.860001 -78.230003 -559.28003
-90.389999 -78.269997 -559.57001
-89.919998 -78.300003 -559.81
-89.449997 -78.339996 -560.06
-89.010002 -78.400002 -560.51001
-88.589996 -78.489998 -561.09998
-88.239998 -78.629997 -562.10999
-87.949997 -78.839996 -563.58002
-87.650002 -79.029999 -564.91998
-87.330002 -79.209999 -566.20001
-87.580002 -79.910004 -571.15002
-87.449997 -80.269997 -573.65997
-86.879997 -80.230003 -573.39001
-86.269997 -80.150002 -572.84003
-85.699997 -80.110001 -572.56
-85.139999 -80.07 -572.28998
-84.57 -80.040001 -572.03998
-84 -79.980003 -571.66998
-83.43 -79.949997 -571.41998
-82.860001 -79.900002 -571.09003
-82.309998 -79.870003 -570.85999
-81.739998 -79.830002 -570.59998
-81.190002 -79.800003 -570.35999
-80.639999 -79.769997 -570.15997
-80.099998 -79.760002 -570.07001
-79.550003 -79.730003 -569.84998
-79 -79.709999 -569.71002
-78.470001 -79.690002 -569.59998
-77.919998 -79.669998 -569.45001
-77.389999 -79.660004 -569.37
-76.860001 -79.650002 -569.34003
-76.339996 -79.650002 -569.32001
-75.82 -79.650002 -569.29999
-75.290001 -79.650002 -569.29999
-74.769997 -79.639999 -569.27002
-74.239998 -79.629997 -569.21997
-73.720001 -79.639999 -569.26001
-73.199997 -79.639999 -569.27002
-72.690002 -79.650002 -569.31
-72.160004 -79.639999 -569.28998
-71.639999 -79.639999 -569.26001
-71.120003 -79.639999 -569.28003
-70.599998 -79.639999 -569.28998
-70.080002 -79.639999 -569.31
-69.559998 -79.650002 -569.35999
-69.040001 -79.660004 -569.40002
-68.529999 -79.669998 -569.47998
-68.019997 -79.68 -569.56
-67.510002 -79.699997 -569.67999
-66.989998 -79.699997 -569.67999
-66.470001 -79.699997 -569.72998
-65.980003 -79.730003 -569.94
-65.459999 -79.739998 -570.01001
-64.959999 -79.769997 -570.19
-64.449997 -79.790001 -570.34003
-63.959999 -79.82 -570.57001
-63.459999 -79.849998 -570.77002
-62.950001 -79.860001 -570.87
-62.43 -79.879997 -570.96002
-61.900002 -79.870003 -570.90997
-61.380001 -79.870003 -570.89001
-60.880001 -79.889999 -571.08002
-60.380001 -79.93 -571.37
-59.880001 -79.959999 -571.53998
-59.380001 -79.989998 -571.77002
-58.889999 -80.029999 -572.08002
-58.369999 -80.050003 -572.17999
-57.84 -80.040001 -572.09998
-57.299999 -80.019997 -571.97998
-56.779999 -80.019997 -571.95001
-56.259998 -80.019997 -572.01001
-55.75 -80.040001 -572.13
-55.23 -80.059998 -572.25
-54.740002 -80.099998 -572.54999
-54.240002 -80.139999 -572.83002
-53.740002 -80.169998 -573.07001
-53.23 -80.199997 -573.22998
-52.720001 -80.220001 -573.39001
-52.209999 -80.239998 -573.58002
-51.700001 -80.260002 -573.71997
-51.169998 -80.269997 -573.75
-50.669998 -80.300003 -573.94
-50.150002 -80.309998 -574.03003
-49.630001 -80.32 -574.13
-49.110001 -80.330002 -574.19
-48.59 -80.339996 -574.23999
-48.060001 -80.339996 -574.28003
-47.540001 -80.349998 -574.29999
-47.02 -80.349998 -574.34998
-46.5 -80.370003 -574.47998
-45.98 -80.370003 -574.48999
-45.450001 -80.379997 -574.52002
-44.93 -80.389999 -574.59003
-44.41 -80.389999 -574.63
-43.889999 -80.400002 -574.70001
-43.360001 -80.400002 -574.71997
-42.84 -80.410004 -574.73999
-42.32 -80.419998 -574.83002
-41.790001 -80.43 -574.90997
-41.27 -80.43 -574.89001
-40.75 -80.449997 -575.02002
-40.23 -80.470001 -575.15997
-39.700001 -80.459999 -575.12
-39.18 -80.470001 -575.21997
-38.66 -80.489998 -575.31
-38.139999 -80.489998 -575.34998
-37.610001 -80.489998 -575.37
-37.09 -80.5 -575.40997
-36.549999 -80.489998 -575.33002
-36.029999 -80.5 -575.41998
-35.509998 -80.510002 -575.46002
-34.990002 -80.519997 -575.56
-34.459999 -80.519997 -575.54999
-33.93 -80.529999 -575.59003
-33.41 -80.529999 -575.65997
-32.880001 -80.529999 -575.64001
-32.349998 -80.519997 -575.57001
-31.82 -80.510002 -575.47998
-31.290001 -80.510002 -575.46002
-30.76 -80.5 -575.39001
-30.219999 -80.480003 -575.27002
-29.690001 -80.470001 -575.21997
-29.17 -80.470001 -575.20001
-28.629999 -80.459999 -575.10999
-28.110001 -80.449997 -575.07001
-27.57 -80.410004 -574.79999
-27.030001 -80.389999 -574.62
-26.5 -80.360001 -574.46002
-25.959999 -80.330002 -574.23999
-25.42 -80.300003 -574.02002
-24.889999 -80.279999 -573.89001
-24.35 -80.239998 -573.58002
-23.82 -80.209999 -573.35999
-23.280001 -80.150002 -572.96002
-22.75 -80.139999 -572.87
-22.219999 -80.120003 -572.76001
-21.690001 -80.120003 -572.72998
-21.17 -80.110001 -572.65997
-20.639999 -80.099998 -572.59003
-20.120001 -80.099998 -572.65002
-19.59 -80.110001 -572.71002
-19.07 -80.129997 -572.84998
-18.549999 -80.150002 -572.95001
-18.030001 -80.160004 -573.06
-17.51 -80.18 -573.20001
-16.99 -80.199997 -573.34003
-16.469999 -80.220001 -573.46997
-15.95 -80.239998 -573.59998
-15.43 -80.269997 -573.84998
-14.91 -80.300003 -574.02002
-14.38 -80.309998 -574.13
-13.86 -80.339996 -574.31
-13.34 -80.389999 -574.65997
-12.83 -80.459999 -575.14001
-12.31 -80.510002 -575.47998
-11.79 -80.580002 -576.03003
-11.27 -80.620003 -576.32001
-10.75 -80.690002 -576.78998
-10.23 -80.760002 -577.27002
-9.71 -80.839996 -577.82001
-9.1899996 -80.940002 -578.52002
-8.6700001 -81.029999 -579.17999
-8.1499996 -81.150002 -580
-3.8 -91.529999 -653.09998
-3.2 -91.529999 -653.06
-2.5999999 -91.559998 -653.28003
-2 -91.57 -653.35999
-1.41 -91.620003 -653.66998
-0.81 -91.650002 -653.94
-0.20999999 -91.75 -654.60999
0.40000001 -91.870003 -655.5
1 -92.029999 -656.56
1.6 -92.190002 -657.70001
2.25 -94.050003 -670.79999
2.8699999 -94.160004 -671.58002
3.49 -94.260002 -672.25
4.1100001 -94.339996 -672.83002
4.7399998 -94.419998 -673.38
5.3499999 -94.43 -673.51001
5.9699998 -94.440002 -673.53003
6.5900002 -94.43 -673.46997
7.21 -94.410004 -673.35999
7.8200002 -94.379997 -673.12
8.4399996 -94.360001 -672.95001
9.0600004 -94.339996 -672.82001
9.6700001 -94.309998 -672.60999
10.29 -94.290001 -672.53003
10.9 -94.269997 -672.39001
11.52 -94.239998 -672.16998
12.13 -94.25 -672.19
12.75 -94.230003 -672.09998
13.36 -94.209999 -671.95001
13.98 -94.18 -671.73999
14.59 -94.160004 -671.56
15.2 -94.129997 -671.35999
15.81 -94.110001 -671.21997
16.43 -94.089996 -671.09998
17.040001 -94.050003 -670.83002
17.65 -94.029999 -670.63
18.26 -93.989998 -670.40997
18.870001 -93.980003 -670.31
19.48 -93.940002 -669.98999
20.09 -93.910004 -669.79999
20.700001 -93.889999 -669.64001
21.299999 -93.839996 -669.33002
21.91 -93.830002 -669.25
22.52 -93.82 -669.14001
23.129999 -93.790001 -668.96997
23.75 -93.790001 -668.98999
24.35 -93.760002 -668.76001
24.969999 -93.769997 -668.81
25.58 -93.75 -668.66998
26.190001 -93.730003 -668.57001
26.799999 -93.730003 -668.51001
27.41 -93.730003 -668.52002
28.02 -93.709999 -668.39001
28.629999 -93.699997 -668.32001
29.24 -93.690002 -668.28003
29.85 -93.68 -668.19
30.459999 -93.660004 -668.01001
31.07 -93.639999 -667.92999
31.68 -93.629997 -667.85999
32.290001 -93.620003 -667.76001
32.900002 -93.610001 -667.67999
33.509998 -93.599998 -667.62
34.119999 -93.599998 -667.63
34.73 -93.599998 -667.64001
35.349998 -93.610001 -667.67999
35.970001 -93.620003 -667.78003
36.580002 -93.620003 -667.76001
37.200001 -93.639999 -667.85999
37.830002 -93.669998 -668.10999
38.439999 -93.68 -668.15002
39.080002 -93.730003 -668.54999
39.720001 -93.790001 -668.91998
40.34 -93.800003 -669.02002
40.970001 -93.849998 -669.33002
41.599998 -93.889999 -669.62
42.23 -93.910004 -669.78003
42.849998 -93.919998 -669.84998
43.470001 -93.940002 -669.97998
44.099998 -93.959999 -670.10999
44.720001 -93.980003 -670.25
45.349998 -94 -670.42999
45.959999 -94 -670.40997
46.59 -94.010002 -670.51001
47.209999 -94.040001 -670.70001
47.849998 -94.080002 -671
48.490002 -94.120003 -671.27002
49.119999 -94.150002 -671.44
49.75 -94.18 -671.67999
50.41 -94.260002 -672.26001
51.07 -94.330002 -672.71997
51.709999 -94.379997 -673.09998
52.369999 -94.449997 -673.58002
53.009998 -94.5 -673.89001
53.66 -94.550003 -674.23999
54.310001 -94.589996 -674.56
54.950001 -94.629997 -674.79999
55.610001 -94.699997 -675.34003
56.27 -94.760002 -675.76001
56.93 -94.839996 -676.27002
57.59 -94.900002 -676.71997
58.259998 -94.980003 -677.26001
58.950001 -95.080002 -677.97998
59.630001 -95.18 -678.67999
60.290001 -95.239998 -679.13
60.98 -95.339996 -679.78003
61.650002 -95.419998 -680.34998
62.330002 -95.489998 -680.88
63 -95.559998 -681.35999
63.669998 -95.629997 -681.87
64.400002 -95.790001 -682.96002
65.089996 -95.879997 -683.60999
65.739998 -95.910004 -683.77002
66.379997 -95.93 -683.92999
67.010002 -95.93 -683.92999
67.699997 -96.010002 -684.48999
68.370003 -96.07 -684.90002
69.050003 -96.150002 -685.45001
69.730003 -96.220001 -685.95001
83.080002 -97.089996 -692.07001
83.480003 -96.809998 -690.09003
83.940002 -96.610001 -688.71002
84.480003 -96.5 -687.91998
84.589996 -95.919998 -683.82001
84.660004 -95.290001 -679.35999
85.150002 -95.139999 -678.29999
85.599998 -94.940002 -676.95001
86.080002 -94.790001 -675.89001
86.580002 -94.660004 -674.95001
87.07 -94.519997 -673.95001
87.529999 -94.339996 -672.72998
88 -94.190002 -671.63
88.419998 -93.970001 -670.10999
88.900002 -93.830002 -669.09003
89.360001 -93.68 -668.02002
89.900002 -93.599998 -667.45001
90.400002 -93.480003 -666.64001
90.900002 -93.360001 -665.78998
91.389999 -93.239998 -664.96002
91.910004 -93.150002 -664.29999
92.43 -93.059998 -663.66998
92.959999 -92.970001 -663.06
93.449997 -92.860001 -662.23999
93.980003 -92.779999 -661.72998
94.510002 -92.699997 -661.15997
95.050003 -92.639999 -660.70001
95.559998 -92.550003 -660.07001
96.099998 -92.480003 -659.59998
96.669998 -92.449997 -659.34003
97.209999 -92.379997 -658.90997
97.779999 -92.360001 -658.70001
98.360001 -92.330002 -658.53003
98.949997 -92.309998 -658.39001
99.559998 -92.32 -658.46002
100.18 -92.330002 -658.53003
100.81 -92.360001 -658.73999
101.48 -92.419998 -659.12
102.15 -92.470001 -659.52002
102.83 -92.540001 -660.01001
103.51 -92.610001 -660.5
104.33 -92.800003 -661.83002
-165.56 -79.93 -567.77002
-164.87 -79.839996 -567.17999
-164.16 -79.75 -566.52002
-163.53 -79.699997 -566.15997
-162.89 -79.639999 -565.72998
-162.28999 -79.599998 -565.46002
-161.7 -79.559998 -565.19
-161.12 -79.529999 -564.96002
-160.53 -79.489998 -564.70001
-159.96001 -79.470001 -564.54999
-159.39 -79.440002 -564.34003
-158.83 -79.419998 -564.20001
-158.25999 -79.400002 -563.98999
-157.75 -79.400002 -564.03998
-157.23 -79.400002 -564.02002
-156.71001 -79.389999 -563.96997
-156.19 -79.389999 -563.96002
-155.59 -79.349998 -563.65002
-154.96001 -79.290001 -563.26001
-154.39 -79.269997 -563.08002
-153.84 -79.25 -562.91998
-153.28999 -79.230003 -562.78998
-152.74001 -79.209999 -562.67999
-152.21001 -79.209999 -562.63
-151.67 -79.190002 -562.53998
-151.14999 -79.190002 -562.51001
-150.62 -79.18 -562.46002
-150.11 -79.18 -562.45001
-149.61 -79.190002 -562.5
-149.08 -79.190002 -562.46997
-148.57001 -79.190002 -562.47998
-148.07001 -79.199997 -562.54999
-147.58 -79.209999 -562.62
-147.10001 -79.230003 -562.73999
-146.60001 -79.239998 -562.82001
-146.11 -79.25 -562.90002
-145.59 -79.25 -562.87
-145.08 -79.25 -562.91998
-144.56 -79.25 -562.90002
-144.06 -79.260002 -562.95001
-143.53999 -79.25 -562.90997
-143.02 -79.25 -562.89001
-142.5 -79.25 -562.88
-141.94 -79.230003 -562.71002
-141.42 -79.220001 -562.67999
-140.88 -79.209999 -562.59003
-140.35001 -79.199997 -562.52002
-139.78999 -79.169998 -562.34003
-139.25999 -79.169998 -562.28003
-138.7 -79.139999 -562.13
-138.16 -79.129997 -562.03003
-137.66 -79.139999 -562.06
-137.12 -79.120003 -561.95001
-136.58 -79.110001 -561.84003
-136.05 -79.099998 -561.78998
-135.52 -79.089996 -561.73999
-134.99001 -79.080002 -561.65002
-134.47 -79.07 -561.63
-133.94 -79.07 -561.57001
-133.42 -79.07 -561.57001
-132.88 -79.050003 -561.46002
-132.37 -79.050003 -561.45001
-131.81 -79.019997 -561.26001
-131.28999 -79.019997 -561.23999
-130.74001 -79 -561.09003
-130.22 -79 -561.08002
-129.7 -78.989998 -561.03998
-129.17 -78.980003 -560.95001
-128.62 -78.959999 -560.82001
-128.07001 -78.940002 -560.66998
-127.54 -78.93 -560.57001
-127.01 -78.919998 -560.5
-126.47 -78.900002 -560.38
-125.94 -78.889999 -560.34003
-125.41 -78.879997 -560.25
-124.88 -78.870003 -560.15002
-124.35 -78.860001 -560.08002
-123.81 -78.839996 -559.97998
-123.27 -78.82 -559.84003
-122.73 -78.809998 -559.75
-122.19 -78.790001 -559.59003
-121.67 -78.779999 -559.56
-121.13 -78.760002 -559.42999
-120.62 -78.769997 -559.46002
-120.1 -78.769997 -559.44
-119.58 -78.760002 -559.39001
-119.05 -78.75 -559.32001
-118.53 -78.739998 -559.26001
-118 -78.730003 -559.17999
-117.47 -78.720001 -559.09003
-116.94 -78.699997 -559.01001
-116.4 -78.690002 -558.90002
-115.86 -78.669998 -558.77002
-115.33 -78.660004 -558.66998
-114.8 -78.639999 -558.58002
-114.27 -78.629997 -558.5
-113.72 -78.610001 -558.34003
-113.2 -78.599998 -558.28998
-112.67 -78.589996 -558.20001
-112.14 -78.580002 -558.12
-111.61 -78.559998 -558.01001
-111.09 -78.550003 -557.96002
-110.56 -78.540001 -557.87
-110.04 -78.540001 -557.84003
-109.53 -78.529999 -557.81
-108.99 -78.519997 -557.70001
-108.49 -78.519997 -557.71997
-107.97 -78.510002 -557.66998
-107.41 -78.480003 -557.41998
-106.86 -78.449997 -557.25
-106.33 -78.440002 -557.14001
-105.83 -78.449997 -557.21002
-105.35 -78.459999 -557.32001
-104.86 -78.480003 -557.44
-104.35 -78.480003 -557.46002
-103.83 -78.470001 -557.40002
-103.33 -78.480003 -557.46997
-102.81 -78.480003 -557.41998
-102.29 -78.470001 -557.35999
-101.78 -78.470001 -557.35999
-101.27 -78.470001 -557.38
-100.76 -78.470001 -557.40002
-100.27 -78.480003 -557.47998
-99.760002 -78.489998 -557.5
-99.269997 -78.5 -557.62
-98.769997 -78.510002 -557.65997
-98.260002 -78.510002 -557.69
-97.75 -78.519997 -557.71002
-97.25 -78.519997 -557.75
-96.730003 -78.519997 -557.71997
-96.239998 -78.529999 -557.78998
-95.730003 -78.529999 -557.83002
-95.25 -78.559998 -558
-94.75 -78.57 -558.09003
-94.260002 -78.589996 -558.21002
-93.779999 -78.610001 -558.37
-93.279999 -78.620003 -558.46997
-92.800003 -78.650002 -558.63
-92.32 -78.68 -558.83002
-91.849998 -78.709999 -559.06
-91.370003 -78.739998 -559.28003
-90.900002 -78.769997 -559.5
-90.419998 -78.809998 -559.75
-89.940002 -78.839996 -559.96002
-89.5 -78.900002 -560.38
-89.050003 -78.949997 -560.78003
-88.699997 -79.089996 -561.76001
-88.370003 -79.260002 -562.95001
-88.080002 -79.459999 -564.34998
-87.769997 -79.650002 -565.69
-87.790001 -80.150002 -569.15002
-87.919998 -80.75 -573.31
-87.470001 -80.82 -573.81
-86.879997 -80.760002 -573.40997
-86.290001 -80.690002 -572.94
-85.720001 -80.650002 -572.64001
-85.150002 -80.610001 -572.38
-84.589996 -80.580002 -572.14001
-84.019997 -80.529999 -571.81
-83.449997 -80.480003 -571.5
-82.879997 -80.440002 -571.21997
-82.309998 -80.400002 -570.88
-81.75 -80.360001 -570.65997
-81.190002 -80.330002 -570.40997
-80.629997 -80.290001 -570.14001
-80.089996 -80.269997 -569.98999
-79.540001 -80.239998 -569.81
-79.010002 -80.230003 -569.73999
-78.459999 -80.199997 -569.53998
-77.919998 -80.18 -569.40997
-77.379997 -80.169998 -569.31
-76.860001 -80.169998 -569.29999
-76.330002 -80.160004 -569.27002
-75.800003 -80.160004 -569.21997
-75.279999 -80.150002 -569.21002
-74.75 -80.150002 -569.17999
-74.230003 -80.150002 -569.17999
-73.709999 -80.150002 -569.17999
-73.190002 -80.150002 -569.20001
-72.669998 -80.150002 -569.21002
-72.150002 -80.160004 -569.22998
-71.629997 -80.160004 -569.21997
-71.110001 -80.160004 -569.25
-70.589996 -80.160004 -569.21997
-70.07 -80.160004 -569.28003
-69.559998 -80.169998 -569.33002
-69.040001 -80.18 -569.38
-68.529999 -80.190002 -569.45001
-68.019997 -80.199997 -569.58002
-67.510002 -80.209999 -569.65002
-67 -80.230003 -569.73999
-66.470001 -80.230003 -569.73999
-65.970001 -80.25 -569.90997
-65.459999 -80.260002 -569.96002
-64.949997 -80.279999 -570.12
-64.449997 -80.300003 -570.28003
-63.959999 -80.339996 -570.56
-63.459999 -80.379997 -570.78998
-62.970001 -80.410004 -571.06
-62.439999 -80.410004 -571.03998
-61.93 -80.419998 -571.09998
-61.400002 -80.419998 -571.12
-60.900002 -80.449997 -571.28998
-60.389999 -80.459999 -571.40002
-59.889999 -80.5 -571.64001
-59.389999 -80.529999 -571.90002
-58.889999 -80.57 -572.13
-58.380001 -80.580002 -572.21002
-57.84 -80.57 -572.13
-57.310001 -80.550003 -572.03003
-56.77 -80.529999 -571.89001
-56.259998 -80.550003 -572.01001
-55.740002 -80.559998 -572.10999
-55.240002 -80.589996 -572.27002
-54.73 -80.620003 -572.51001
-54.23 -80.650002 -572.72998
-53.73 -80.68 -572.96002
-53.220001 -80.709999 -573.13
-52.709999 -80.739998 -573.35999
-52.200001 -80.75 -573.45001
-51.689999 -80.790001 -573.69
-51.18 -80.809998 -573.83002
-50.66 -80.82 -573.90997
-50.139999 -80.830002 -573.98999
-49.619999 -80.839996 -574.06
-49.110001 -80.849998 -574.15997
-48.580002 -80.860001 -574.19
-48.060001 -80.870003 -574.28003
-47.540001 -80.870003 -574.28003
-47.009998 -80.870003 -574.32001
-46.490002 -80.870003 -574.29999
-45.970001 -80.889999 -574.41998
-45.450001 -80.900002 -574.48999
-44.93 -80.900002 -574.52002
-44.400002 -80.910004 -574.59003
-43.880001 -80.910004 -574.56
-43.349998 -80.900002 -574.52002
-42.830002 -80.910004 -574.59998
-42.299999 -80.919998 -574.64001
-41.779999 -80.93 -574.71002
-41.259998 -80.940002 -574.78003
-40.740002 -80.940002 -574.82001
-40.209999 -80.949997 -574.84998
-39.689999 -80.959999 -574.91998
-39.169998 -80.970001 -574.97998
-38.639999 -80.959999 -574.96002
-38.110001 -80.959999 -574.96002
-37.59 -80.970001 -575.03998
-37.060001 -80.970001 -574.97998
-36.529999 -80.959999 -574.95001
-36.009998 -80.970001 -575.02002
-35.490002 -80.980003 -575.10999
-34.959999 -80.989998 -575.10999
-34.439999 -81.010002 -575.26001
-33.91 -81 -575.21997
-33.380001 -81 -575.21002
-32.860001 -81 -575.20001
-32.32 -80.980003 -575.12
-31.790001 -80.959999 -574.97998
-31.26 -80.959999 -574.95001
-30.73 -80.949997 -574.87
-30.200001 -80.93 -574.75
-29.67 -80.919998 -574.70001
-29.139999 -80.910004 -574.59003
-28.6 -80.889999 -574.46002
-28.07 -80.879997 -574.38
-27.530001 -80.849998 -574.15997
-27 -80.830002 -574.03003
-26.459999 -80.790001 -573.78998
-25.93 -80.779999 -573.65997
-25.4 -80.739998 -573.41998
-24.860001 -80.709999 -573.19
-24.32 -80.669998 -572.90002
-23.790001 -80.639999 -572.71997
-23.25 -80.589996 -572.39001
-22.719999 -80.57 -572.26001
-22.190001 -80.559998 -572.13
-21.67 -80.550003 -572.12
-21.139999 -80.550003 -572.10999
-20.620001 -80.550003 -572.12
-20.1 -80.559998 -572.19
-19.58 -80.57 -572.25
-19.059999 -80.589996 -572.34003
-18.530001 -80.599998 -572.44
-18.01 -80.620003 -572.56
-17.49 -80.629997 -572.63
-16.969999 -80.639999 -572.75
-16.450001 -80.669998 -572.91998
-15.93 -80.690002 -573.07001
-15.41 -80.709999 -573.23999
-14.89 -80.730003 -573.37
-14.37 -80.760002 -573.54999
-13.85 -80.790001 -573.79999
-13.33 -80.82 -574.01001
-12.81 -80.879997 -574.40002
-12.29 -80.949997 -574.88
-11.78 -81.010002 -575.29999
-11.26 -81.059998 -575.70001
-10.74 -81.129997 -576.19
-10.22 -81.199997 -576.65002
-9.6999998 -81.279999 -577.19
-9.1800003 -81.360001 -577.77002
-8.6599998 -81.459999 -578.47998
-8.1400003 -81.519997 -578.91998
-7.6199999 -81.669998 -579.95001
-3.8 -92.089996 -652.77002
-3.2 -92.080002 -652.73999
-2.5999999 -92.089996 -652.81
-2 -92.129997 -653.06
-1.4 -92.18 -653.41998
-0.81 -92.230003 -653.78003
-0.20999999 -92.339996 -654.54999
0.40000001 -92.459999 -655.41998
1 -92.629997 -656.54999
2.26 -94.760002 -671.44
2.8800001 -94.860001 -672.17999
3.5 -94.959999 -672.89001
4.1199999 -95.050003 -673.46997
4.7399998 -95.099998 -673.82001
5.3600001 -95.129997 -674.06
5.98 -95.129997 -674.07001
6.5999999 -95.120003 -673.97998
7.21 -95.080002 -673.67999
7.8299999 -95.050003 -673.5
8.4499998 -95.029999 -673.37
9.0600004 -95.029999 -673.33002
9.6800003 -95.010002 -673.20001
10.3 -94.980003 -673.01001
10.91 -94.949997 -672.81
11.52 -94.93 -672.62
12.14 -94.919998 -672.54999
12.76 -94.900002 -672.42999
13.37 -94.889999 -672.34998
13.99 -94.879997 -672.28998
14.6 -94.839996 -672.03003
15.22 -94.839996 -671.98999
15.83 -94.800003 -671.76001
16.440001 -94.760002 -671.47998
17.049999 -94.75 -671.35999
17.66 -94.709999 -671.10999
18.27 -94.690002 -670.95001
18.889999 -94.669998 -670.83002
19.49 -94.620003 -670.47998
20.1 -94.610001 -670.39001
20.719999 -94.599998 -670.34003
21.33 -94.589996 -670.22998
21.940001 -94.559998 -670.07001
22.549999 -94.540001 -669.91998
23.16 -94.529999 -669.85999
23.780001 -94.519997 -669.78003
24.379999 -94.489998 -669.58002
24.98 -94.440002 -669.21997
25.59 -94.419998 -669.09003
26.209999 -94.410004 -669.01001
26.809999 -94.389999 -668.87
27.42 -94.370003 -668.75
28.030001 -94.360001 -668.65002
28.639999 -94.349998 -668.57001
29.26 -94.339996 -668.51001
29.860001 -94.330002 -668.40002
30.48 -94.339996 -668.52002
31.09 -94.330002 -668.40997
31.700001 -94.309998 -668.31
32.310001 -94.309998 -668.27002
32.93 -94.309998 -668.28998
33.540001 -94.300003 -668.17999
34.150002 -94.300003 -668.25
34.759998 -94.290001 -668.15997
35.380001 -94.32 -668.32001
35.990002 -94.309998 -668.27002
36.610001 -94.32 -668.33002
37.240002 -94.339996 -668.5
37.860001 -94.370003 -668.67999
38.490002 -94.400002 -668.90997
39.119999 -94.440002 -669.16998
39.740002 -94.449997 -669.23999
40.369999 -94.489998 -669.56
40.990002 -94.510002 -669.66998
41.619999 -94.540001 -669.89001
42.25 -94.559998 -670.04999
42.880001 -94.599998 -670.27002
43.5 -94.610001 -670.38
44.130001 -94.639999 -670.59998
44.75 -94.650002 -670.65997
45.369999 -94.660004 -670.70001
46.009998 -94.709999 -671.09003
46.639999 -94.739998 -671.27002
47.27 -94.760002 -671.41998
47.91 -94.82 -671.82001
48.540001 -94.849998 -672.02002
49.18 -94.889999 -672.28003
49.82 -94.919998 -672.53998
50.470001 -94.989998 -673
51.119999 -95.050003 -673.40997
51.779999 -95.120003 -673.92999
52.43 -95.18 -674.37
53.060001 -95.199997 -674.45001
53.720001 -95.269997 -674.92999
54.360001 -95.309998 -675.25
55.009998 -95.360001 -675.57001
55.669998 -95.419998 -676.01001
56.32 -95.480003 -676.44
56.990002 -95.559998 -677
57.66 -95.629997 -677.5
58.34 -95.730003 -678.15002
59.029999 -95.839996 -678.92999
59.709999 -95.93 -679.54999
60.389999 -96.019997 -680.21997
61.040001 -96.059998 -680.5
61.73 -96.160004 -681.15997
62.380001 -96.199997 -681.47998
63.080002 -96.32 -682.26001
63.880001 -96.57 -684.03998
64.589996 -96.690002 -684.85999
65.25 -96.739998 -685.20001
65.879997 -96.75 -685.25
66.5 -96.730003 -685.15002
67.139999 -96.75 -685.25
67.809998 -96.800003 -685.60999
68.470001 -96.839996 -685.90997
83.199997 -97.870003 -693.03998
83.580002 -97.559998 -690.92999
84.040001 -97.370003 -689.53998
84.489998 -97.150002 -688.06
85.07 -97.089996 -687.63
84.779999 -96.040001 -680.28003
85.230003 -95.849998 -678.95001
85.690002 -95.660004 -677.63
86.150002 -95.489998 -676.39001
86.620003 -95.32 -675.21002
87.120003 -95.190002 -674.28998
87.610001 -95.040001 -673.29999
88.089996 -94.900002 -672.26001
88.5 -94.68 -670.71997
88.980003 -94.529999 -669.69
89.43 -94.360001 -668.53998
89.949997 -94.260002 -667.83002
90.43 -94.120003 -666.79999
90.959999 -94.029999 -666.22998
91.449997 -93.910004 -665.37
91.980003 -93.830002 -664.82001
92.489998 -93.730003 -664.10999
93.010002 -93.629997 -663.40002
93.5 -93.519997 -662.59003
94.019997 -93.43 -662.02002
94.550003 -93.349998 -661.46002
95.099998 -93.290001 -661.03003
95.650002 -93.239998 -660.65997
96.18 -93.169998 -660.15997
96.709999 -93.089996 -659.62
97.260002 -93.040001 -659.28998
97.830002 -93.010002 -659.01001
98.419998 -92.989998 -658.90997
99 -92.970001 -658.76001
99.620003 -92.980003 -658.85999
100.22 -92.980003 -658.82001
100.87 -93.010002 -659.07001
101.5 -93.040001 -659.25
102.16 -93.089996 -659.63
102.87 -93.190002 -660.27002
103.6 -93.300003 -661.07001
104.49 -93.550003 -662.78003
-166.05 -80.43 -567.66998
-165.39 -80.360001 -567.19
-164.73 -80.300003 -566.71997
-164.09 -80.239998 -566.29999
-163.41 -80.160004 -565.76001
-162.78 -80.099998 -565.35999
-162.2 -80.07 -565.14001
-161.61 -80.040001 -564.89001
-161.05 -80.010002 -564.71997
-160.5 -80 -564.62
-159.95 -79.980003 -564.48999
-159.35001 -79.940002 -564.21002
-158.77 -79.910004 -563.97998
-158.23 -79.900002 -563.88
-157.72 -79.900002 -563.90002
-157.22 -79.910004 -563.97998
-156.72 -79.919998 -564.03003
-156.17999 -79.900002 -563.91998
-155.62 -79.879997 -563.77002
-154.95 -79.800003 -563.21002
-154.39 -79.779999 -563.04999
-153.82001 -79.75 -562.84998
-153.25999 -79.730003 -562.69
-152.73 -79.720001 -562.63
-152.17999 -79.699997 -562.51001
-151.66 -79.699997 -562.5
-151.13 -79.699997 -562.45001
-150.61 -79.690002 -562.42999
-150.10001 -79.690002 -562.41998
-149.59 -79.699997 -562.46002
-149.08 -79.699997 -562.46997
-148.61 -79.720001 -562.60999
-148.12 -79.739998 -562.71997
-147.62 -79.75 -562.78003
-147.14 -79.769997 -562.91998
-146.61 -79.760002 -562.85999
-146.11 -79.769997 -562.91998
-145.62 -79.779999 -562.97998
-145.10001 -79.779999 -563
-144.58 -79.769997 -562.94
-144.08 -79.779999 -563.02002
