# .PCD v0.7 - Point Cloud Data file format
VERSION 0.7
FIELDS x y z
SIZE 4 4 4
TYPE F F F
COUNT 1 1 1
WIDTH 1788
HEIGHT 1
VIEWPOINT 0 0 0 1 0 0 0
POINTS 1788
DATA ascii
-102.14 127.09 -579.40002
-101.63 127.11 -579.48999
-101.11 127.12 -579.53998
-100.6 127.15 -579.69
-100.08 127.17 -579.75
-99.559998 127.18 -579.78998
-99.050003 127.2 -579.90002
-98.540001 127.23 -580.03998
-98.019997 127.26 -580.14001
-97.510002 127.28 -580.23999
-96.989998 127.3 -580.31
-96.480003 127.33 -580.46002
-95.970001 127.35 -580.56
-95.449997 127.37 -580.65002
-94.93 127.39 -580.72998
-94.419998 127.42 -580.84998
-93.919998 127.47 -581.07001
-93.410004 127.48 -581.15002
-92.900002 127.53 -581.34003
-92.400002 127.57 -581.52002
-91.910004 127.62 -581.78003
-91.389999 127.64 -581.85999
-90.910004 127.72 -582.21997
-90.389999 127.74 -582.31
-89.900002 127.8 -582.54999
-89.379997 127.82 -582.66998
-88.879997 127.88 -582.90997
-88.419998 127.98 -583.34998
-87.959999 128.09 -583.88
-87.470001 128.16 -584.16998
-87 128.24001 -584.54999
-86.519997 128.33 -584.95001
-86.040001 128.41 -585.29999
-85.559998 128.5 -585.70001
-85.059998 128.56 -585.96997
-84.620003 128.7 -586.59998
-84.18 128.85001 -587.28003
-83.699997 128.94 -587.69
-83.269997 129.11 -588.45001
-82.82 129.25 -589.07001
-82.360001 129.38 -589.64001
-81.910004 129.52 -590.28998
-81.449997 129.64999 -590.84998
-80.959999 129.74001 -591.27002
-80.519997 129.89 -591.95001
-80.040001 130 -592.41998
-79.580002 130.14 -593.04999
-79.169998 130.35001 -594
-78.720001 130.50999 -594.72998
-78.290001 130.71001 -595.63
-77.860001 130.91 -596.52002
-77.449997 131.14 -597.53003
-77.080002 131.44 -598.88
-76.650002 131.64999 -599.84003
-76.220001 131.85001 -600.73999
-75.830002 132.14 -602.01001
-75.449997 132.44 -603.35999
-74.949997 132.52 -603.75
-7.5999999 147.35001 -670.32001
-6.98 147.25 -669.89001
-6.3600001 147.23 -669.78998
-5.75 147.25999 -669.92999
-5.1399999 147.32001 -670.19
-4.52 147.41 -670.59003
-3.9100001 147.45 -670.77002
-3.29 147.53999 -671.17999
2.8099999 144.17 -656.04999
3.4000001 143.94 -655
4 143.78999 -654.34003
4.5999999 143.71001 -653.97998
5.1999998 143.61 -653.54999
5.79 143.56 -653.33002
6.3899999 143.53999 -653.21997
6.9899998 143.50999 -653.09998
7.5900002 143.50999 -653.07001
8.1899996 143.49001 -653.01001
8.79 143.50999 -653.10999
9.3900003 143.50999 -653.09003
9.9899998 143.53999 -653.23999
10.59 143.57001 -653.37
11.19 143.58 -653.40997
11.8 143.63 -653.60999
12.4 143.61 -653.54999
13 143.63 -653.63
13.6 143.66 -653.77002
14.21 143.7 -653.94
14.81 143.71001 -653.97998
15.41 143.74001 -654.13
16.01 143.75999 -654.21997
16.620001 143.8 -654.37
17.23 143.84 -654.58002
17.83 143.87 -654.69
18.43 143.88 -654.75
19.040001 143.92999 -654.96997
19.639999 143.92999 -654.98999
20.24 143.94 -655.01001
20.85 143.97 -655.15997
21.450001 143.99001 -655.25
22.059999 144 -655.31
22.67 144.03999 -655.47998
23.27 144.08 -655.65002
23.879999 144.11 -655.78003
24.49 144.14 -655.91998
25.1 144.19 -656.13
25.709999 144.24001 -656.37
26.32 144.28 -656.53003
26.93 144.3 -656.60999
27.52 144.25999 -656.45001
28.129999 144.27 -656.5
28.719999 144.24001 -656.35999
29.34 144.28 -656.54999
29.950001 144.32001 -656.70001
30.559999 144.35001 -656.84003
31.16 144.33 -656.78003
31.76 144.33 -656.75
32.349998 144.3 -656.60999
32.959999 144.31 -656.65997
33.560001 144.31 -656.67999
34.18 144.37 -656.95001
34.790001 144.41 -657.13
35.41 144.47 -657.40997
36.040001 144.57001 -657.82001
36.66 144.64999 -658.19
37.290001 144.74001 -658.59003
37.93 144.89 -659.26001
38.549999 144.92999 -659.42999
39.169998 144.98 -659.66998
39.799999 145.08 -660.13
40.43 145.14999 -660.44
41.07 145.28 -661
41.740002 145.48 -661.92999
42.400002 145.66 -662.72998
43.029999 145.74001 -663.09003
43.669998 145.85001 -663.56
44.330002 146.02 -664.33002
45.029999 146.3 -665.58002
45.73 146.58 -666.87
46.41 146.78 -667.77002
47.07 146.96001 -668.53998
47.740002 147.12 -669.28003
48.400002 147.27 -669.95001
49.119999 147.57001 -671.28998
49.799999 147.75999 -672.15002
50.52 148.05 -673.46997
51.23 148.32001 -674.69
51.939999 148.59 -675.90002
52.669998 148.88 -677.20001
53.369999 149.10001 -678.16998
-134.89999 131.57001 -602.09998
-134.02 131.25 -600.65997
-130.92 128.74001 -589.34003
-130.06 128.42999 -587.94
-129.35001 128.25999 -587.19
-128.69 128.14 -586.63
-128.00999 128 -585.96997
-127.36 127.88 -585.46997
-126.73 127.78 -585.01001
-126.11 127.7 -584.65002
-125.46 127.59 -584.10999
-124.87 127.53 -583.84998
-124.25 127.45 -583.47998
-123.62 127.35 -583.03003
-122.98 127.24 -582.53003
-122.36 127.14 -582.09998
-121.75 127.06 -581.75
-121.13 126.98 -581.35999
-120.52 126.89 -580.96002
-119.91 126.81 -580.59998
-119.3 126.73 -580.21997
-118.71 126.67 -579.92999
-118.09 126.58 -579.53003
-117.51 126.52 -579.28998
-116.9 126.44 -578.89001
-116.32 126.39 -578.65997
-115.76 126.34 -578.46997
-115.19 126.31 -578.31
-114.62 126.26 -578.10999
-114.07 126.24 -578.01001
-113.55 126.25 -578.06
-113.01 126.24 -578
-112.48 126.24 -578
-111.98 126.27 -578.14001
-111.48 126.3 -578.28003
-110.95 126.3 -578.26001
-110.42 126.31 -578.28998
-109.9 126.31 -578.31
-109.39 126.34 -578.41998
-108.86 126.34 -578.42999
-108.33 126.34 -578.40997
-107.82 126.36 -578.52002
-107.3 126.38 -578.59998
-106.78 126.39 -578.66998
-106.26 126.4 -578.67999
-105.73 126.4 -578.67999
-105.22 126.42 -578.79999
-104.69 126.43 -578.79999
-104.18 126.45 -578.90002
-103.64 126.44 -578.89001
-103.13 126.46 -578.97998
-102.62 126.49 -579.08002
-102.1 126.5 -579.13
-101.58 126.51 -579.20001
-101.05 126.52 -579.22998
-100.54 126.54 -579.31
-100.03 126.58 -579.46997
-99.510002 126.59 -579.53998
-99.019997 126.64 -579.76001
-98.5 126.65 -579.82001
-97.989998 126.68 -579.91998
-97.470001 126.7 -580.01001
-96.949997 126.71 -580.08002
-96.440002 126.74 -580.21002
-95.919998 126.76 -580.28998
-95.410004 126.79 -580.40997
-94.900002 126.81 -580.53998
-94.379997 126.83 -580.60999
-93.870003 126.85 -580.71002
-93.370003 126.9 -580.90997
-92.860001 126.93 -581.06
-92.339996 126.95 -581.14001
-91.839996 126.99 -581.33002
-91.32 127.02 -581.45001
-90.82 127.06 -581.64001
-90.330002 127.12 -581.90997
-89.82 127.15 -582.04999
-89.339996 127.22 -582.38
-88.839996 127.28 -582.63
-88.370003 127.37 -583.02002
-87.870003 127.43 -583.28998
-87.410004 127.52 -583.71997
-86.93 127.62 -584.14001
-86.440002 127.68 -584.42999
-85.959999 127.76 -584.78003
-85.489998 127.85 -585.20001
-85.019997 127.96 -585.69
-84.529999 128.03 -586
-84.089996 128.17 -586.65002
-83.639999 128.32001 -587.28998
-83.169998 128.42 -587.75
-82.720001 128.56 -588.39001
-82.300003 128.75 -589.22998
-81.809998 128.83 -589.60999
-81.379997 128.99001 -590.34998
-80.93 129.14999 -591.04999
-80.459999 129.25999 -591.53003
-79.980003 129.36 -592.01001
-79.550003 129.53999 -592.78998
-79.099998 129.69 -593.48999
-78.669998 129.88 -594.34003
-78.199997 130.00999 -594.91998
-77.82 130.28 -596.15002
-77.379997 130.47 -596.98999
-76.970001 130.7 -598.03998
-76.540001 130.89999 -598.91998
-76.139999 131.16 -600.12
-75.760002 131.46001 -601.47998
-75.349998 131.71001 -602.58002
-74.93 131.94 -603.63
-8.21 146.57001 -669.59003
-7.5900002 146.49001 -669.22998
-6.9699998 146.49001 -669.25
-6.3600001 146.55 -669.51001
-5.75 146.61 -669.78003
-5.1300001 146.62 -669.83002
-4.52 146.66 -670
-3.9000001 146.67 -670.04999
-3.29 146.78999 -670.58002
-2.6700001 146.75 -670.41998
2.21 143.74001 -656.83002
2.8 143.47 -655.59998
3.4000001 143.28 -654.76001
4 143.17 -654.26001
4.5999999 143.03999 -653.70001
5.1900001 142.96001 -653.32001
5.79 142.92 -653.12
6.3899999 142.91 -653.07001
6.9899998 142.84 -652.78003
7.5900002 142.84 -652.78003
8.1800003 142.81 -652.65002
8.79 142.83 -652.73999
9.3900003 142.84 -652.78003
9.9899998 142.88 -652.94
10.59 142.92 -653.13
11.19 142.94 -653.22998
11.8 142.99001 -653.45001
12.4 142.99001 -653.46002
13 143.02 -653.58002
13.6 143.03 -653.62
14.2 143.03999 -653.69
14.8 143.08 -653.87
15.41 143.09 -653.90002
16.01 143.12 -654.06
16.610001 143.14999 -654.15997
17.219999 143.17 -654.27002
17.82 143.2 -654.40997
18.43 143.25 -654.60999
19.030001 143.27 -654.71002
19.639999 143.28999 -654.78003
20.24 143.32001 -654.91998
20.85 143.34 -655.03003
21.450001 143.34 -655.01001
22.049999 143.34 -655.02002
22.66 143.37 -655.15997
23.26 143.39999 -655.31
23.870001 143.42 -655.40002
24.469999 143.44 -655.47998
25.08 143.48 -655.65002
25.690001 143.49001 -655.71002
26.299999 143.56 -656
26.91 143.60001 -656.21002
27.51 143.60001 -656.17999
28.120001 143.60001 -656.20001
28.709999 143.58 -656.10999
29.309999 143.57001 -656.07001
29.92 143.59 -656.15002
30.52 143.56 -656.01001
31.120001 143.55 -655.96997
31.719999 143.57001 -656.08002
32.34 143.62 -656.28003
32.939999 143.63 -656.32001
33.549999 143.64999 -656.40997
34.150002 143.64999 -656.42999
34.759998 143.67 -656.51001
35.369999 143.71001 -656.66998
36 143.78999 -657.04999
36.619999 143.89 -657.48999
37.27 144.05 -658.21002
37.889999 144.10001 -658.45001
38.52 144.21001 -658.95001
39.150002 144.3 -659.34003
39.77 144.34 -659.52002
40.389999 144.39999 -659.78003
41.029999 144.52 -660.32001
41.689999 144.71001 -661.16998
42.380001 144.98 -662.39001
43.02 145.09 -662.90997
43.66 145.19 -663.34003
44.299999 145.31 -663.88
44.959999 145.45 -664.53003
45.650002 145.71001 -665.69
46.400002 146.14999 -667.67999
47.049999 146.28 -668.28003
47.740002 146.5 -669.26001
48.41 146.66 -670
49.139999 147.02 -671.58002
49.84 147.25999 -672.66998
50.57 147.59 -674.17999
51.290001 147.86 -675.40997
52.009998 148.14999 -676.71002
52.759998 148.52 -678.37
-135.24001 131.35001 -603.59998
-134.13 130.8 -601.13
-130.72 128.00999 -588.46002
-130.06 127.89 -587.90997
-129.36 127.73 -587.19
-128.66 127.57 -586.46997
-127.98 127.43 -585.83002
-127.35 127.34 -585.41998
-126.72 127.24 -584.98999
-126.09 127.14 -584.53998
-125.46 127.05 -584.09998
-124.82 126.95 -583.64001
-124.21 126.87 -583.28998
-123.62 126.81 -583.01001
-122.98 126.7 -582.52002
-122.35 126.6 -582.07001
-121.74 126.53 -581.71997
-121.12 126.44 -581.31
-120.5 126.34 -580.89001
-119.9 126.27 -580.56
-119.3 126.2 -580.22998
-118.73 126.15 -580.02002
-118.1 126.05 -579.54999
-117.49 125.96 -579.15997
-116.9 125.91 -578.90002
-116.33 125.86 -578.69
-115.75 125.81 -578.45001
-115.19 125.77 -578.28998
-114.63 125.74 -578.13
-114.08 125.72 -578.03998
-113.53 125.7 -577.94
-113 125.7 -577.92999
-112.48 125.71 -577.97998
-111.96 125.71 -578.01001
-111.45 125.75 -578.15002
-110.9 125.72 -578.02002
-110.39 125.75 -578.14001
-109.89 125.77 -578.25
-109.35 125.76 -578.21002
-108.82 125.76 -578.20001
-108.29 125.76 -578.21997
-107.78 125.78 -578.31
-107.26 125.8 -578.39001
-106.73 125.8 -578.37
-106.24 125.84 -578.56
-105.7 125.84 -578.54999
-105.18 125.85 -578.60999
-104.67 125.87 -578.67999
-104.13 125.86 -578.65997
-103.61 125.88 -578.71997
-103.11 125.91 -578.87
-102.58 125.91 -578.87
-102.05 125.92 -578.89001
-101.54 125.93 -578.96002
-101.01 125.94 -578.98999
-100.48 125.94 -579
-99.980003 125.98 -579.16998
-99.459999 125.99 -579.21002
-98.970001 126.04 -579.45001
-98.440002 126.04 -579.46002
-97.940002 126.09 -579.65997
-97.43 126.11 -579.76001
-96.919998 126.14 -579.90002
-96.400002 126.16 -579.96997
-95.879997 126.17 -580.02002
-95.360001 126.19 -580.12
-94.860001 126.22 -580.26001
-94.330002 126.23 -580.29999
-93.809998 126.24 -580.35999
-93.300003 126.28 -580.52002
-92.800003 126.32 -580.70001
-92.279999 126.34 -580.79999
-91.779999 126.38 -580.96002
-91.269997 126.42 -581.14001
-90.760002 126.45 -581.28003
-90.260002 126.48 -581.42999
-89.779999 126.56 -581.78003
-89.279999 126.61 -582.02002
-88.790001 126.67 -582.26001
-88.309998 126.75 -582.65002
-87.82 126.82 -582.95001
-87.330002 126.88 -583.22998
-86.860001 126.98 -583.66998
-86.370003 127.05 -583.97998
-85.910004 127.15 -584.46997
-85.410004 127.21 -584.71997
-84.919998 127.27 -585.01001
-84.459999 127.39 -585.52002
-84.019997 127.54 -586.20001
-83.540001 127.62 -586.56
-83.120003 127.8 -587.40997
-82.639999 127.9 -587.84998
-82.18 128.00999 -588.35999
-81.769997 128.22 -589.28003
-81.309998 128.35001 -589.88
-80.879997 128.52 -590.64001
-80.43 128.67 -591.32001
-79.940002 128.75 -591.66998
-79.510002 128.94 -592.53998
-79.040001 129.06 -593.09998
-78.610001 129.24001 -593.91998
-78.160004 129.39999 -594.65002
-77.739998 129.60001 -595.54999
-77.300003 129.78 -596.37
-76.910004 130.05 -597.57001
-76.440002 130.19 -598.17999
-76.019997 130.41 -599.17999
-75.260002 131 -601.84998
-74.82 131.2 -602.78003
-74.389999 131.41 -603.71002
-45.959999 144.77 -664.21997
-45.290001 144.58 -663.35999
-44.650002 144.49001 -662.92999
-44.040001 144.46001 -662.78998
-43.400002 144.36 -662.34003
-42.790001 144.37 -662.38
-42.209999 144.45 -662.75
-41.599998 144.47 -662.84998
-41.009998 144.52 -663.09998
-40.419998 144.58 -663.34998
-39.830002 144.67 -663.78003
-39.27 144.83 -664.48999
-38.669998 144.89999 -664.78003
-38.09 145.00999 -665.29999
-37.529999 145.17999 -666.07001
-8.8100004 145.85001 -669.13
-8.1999998 145.81 -668.91998
-7.5799999 145.78999 -668.84998
-6.9699998 145.82001 -668.97998
-6.3600001 145.89 -669.28998
-5.7399998 145.94 -669.51001
-5.1300001 145.97 -669.65002
-4.52 145.96001 -669.60999
-3.9000001 145.96001 -669.59998
-3.29 145.96001 -669.63
-2.6700001 145.91 -669.37
0.40000001 144.07001 -661.06
2.21 143.09 -656.59998
2.8 142.86 -655.56
3.4000001 142.69 -654.82001
4 142.56 -654.22998
4.5999999 142.46001 -653.78998
5.1900001 142.37 -653.35999
5.79 142.3 -653.03998
6.3899999 142.25999 -652.88
6.9899998 142.24001 -652.78998
7.5900002 142.21001 -652.65002
8.1800003 142.17999 -652.48999
8.7799997 142.17999 -652.52002
9.3800001 142.2 -652.59003
9.9799995 142.19 -652.53003
10.58 142.22 -652.69
11.19 142.25999 -652.88
11.79 142.3 -653.04999
12.39 142.35001 -653.25
12.99 142.34 -653.22998
13.6 142.39 -653.45001
14.19 142.38 -653.38
14.8 142.41 -653.53998
15.4 142.45 -653.73999
16 142.47 -653.82001
16.610001 142.49001 -653.91998
17.209999 142.50999 -654
17.809999 142.53999 -654.10999
18.42 142.57001 -654.25
19.02 142.58 -654.29999
19.620001 142.60001 -654.40997
20.23 142.64999 -654.64001
20.83 142.64999 -654.59998
21.440001 142.67999 -654.75
22.040001 142.69 -654.81
22.629999 142.64 -654.58002
23.23 142.62 -654.48999
23.84 142.63 -654.53998
24.440001 142.66 -654.65997
25.049999 142.69 -654.83002
25.65 142.72 -654.91998
26.26 142.73 -654.96997
26.860001 142.74001 -655.03003
27.48 142.85001 -655.54999
28.1 142.92999 -655.89001
28.709999 142.94 -655.92999
29.299999 142.92 -655.83002
29.9 142.89999 -655.72998
30.5 142.88 -655.65997
31.1 142.87 -655.62
31.700001 142.86 -655.58002
32.299999 142.86 -655.58002
32.91 142.89999 -655.73999
33.529999 142.96001 -656.02002
34.130001 142.94 -655.95001
34.740002 142.97 -656.04999
35.349998 143.03 -656.33002
35.970001 143.08 -656.57001
36.580002 143.11 -656.71997
37.209999 143.22 -657.20001
37.84 143.31 -657.59003
38.48 143.45 -658.21997
39.110001 143.56 -658.73999
39.740002 143.64999 -659.13
40.360001 143.67 -659.23999
40.98 143.74001 -659.53998
41.639999 143.92 -660.38
42.310001 144.14 -661.38
42.98 144.37 -662.38
43.66 144.58 -663.35999
44.290001 144.64999 -663.65997
44.919998 144.74001 -664.06
45.59 144.91 -664.84003
47.040001 145.63 -668.12
47.709999 145.81 -668.90002
48.43 146.11 -670.26001
49.139999 146.39999 -671.58002
49.880001 146.77 -673.27002
50.630001 147.13 -674.89001
51.360001 147.47 -676.40997
52.110001 147.82001 -678.02002
-134.34 130.46001 -602.04999
-130.83 127.57 -588.92999
-130.06 127.35 -587.94
-129.34 127.17 -587.12
-128.63 127.01 -586.34998
-127.98 126.89 -585.82001
-127.33 126.78 -585.32001
-126.68 126.66 -584.78998
-126.06 126.58 -584.41998
-125.43 126.49 -583.98999
-124.84 126.43 -583.71002
-124.2 126.33 -583.25
-123.58 126.23 -582.82001
-122.97 126.16 -582.46997
-122.34 126.06 -582.03998
-121.71 125.96 -581.59003
-121.1 125.88 -581.20001
-120.5 125.81 -580.87
-119.92 125.76 -580.66998
-119.31 125.68 -580.27002
-118.7 125.59 -579.88
-118.09 125.51 -579.5
-117.48 125.43 -579.14001
-116.91 125.38 -578.90997
-116.35 125.35 -578.77002
-115.75 125.28 -578.45001
-115.19 125.25 -578.31
-114.61 125.19 -578.04999
-114.06 125.17 -577.94
-113.52 125.16 -577.88
-112.99 125.16 -577.90002
-112.46 125.16 -577.88
-111.95 125.18 -577.97998
-111.42 125.17 -577.96002
-110.88 125.17 -577.94
-110.36 125.17 -577.94
-109.83 125.17 -577.95001
-109.31 125.18 -577.98999
-108.79 125.2 -578.04999
-108.26 125.2 -578.07001
-107.75 125.22 -578.15997
-107.23 125.23 -578.21002
-106.71 125.24 -578.26001
-106.19 125.26 -578.34003
-105.67 125.27 -578.37
-105.14 125.27 -578.37
-104.63 125.29 -578.46997
-104.11 125.31 -578.53003
-103.59 125.32 -578.59003
-103.06 125.32 -578.59003
-102.55 125.34 -578.70001
-102.01 125.34 -578.66998
-101.5 125.36 -578.76001
-100.97 125.35 -578.75
-100.46 125.39 -578.89001
-99.949997 125.41 -578.98999
-99.43 125.43 -579.07001
-98.919998 125.45 -579.17999
-98.419998 125.48 -579.33002
-97.900002 125.5 -579.40002
-97.400002 125.54 -579.57001
-96.889999 125.56 -579.67999
-96.370003 125.59 -579.78998
-95.849998 125.6 -579.83002
-95.339996 125.62 -579.96002
-94.82 125.64 -580.03003
-94.300003 125.65 -580.09998
-93.760002 125.64 -580.03998
-93.25 125.68 -580.21997
-92.75 125.72 -580.40997
-92.239998 125.75 -580.52002
-91.730003 125.77 -580.64001
-91.209999 125.8 -580.75
-90.720001 125.86 -581.02002
-90.220001 125.89 -581.17999
-89.720001 125.94 -581.40997
-89.220001 125.99 -581.64001
-88.730003 126.05 -581.90997
-88.230003 126.1 -582.14001
-87.760002 126.19 -582.53998
-87.269997 126.25 -582.82001
-86.790001 126.33 -583.15997
-86.290001 126.39 -583.40997
-85.82 126.49 -583.88
-85.349998 126.58 -584.29999
-84.879997 126.68 -584.73999
-84.389999 126.74 -585.03998
-83.910004 126.83 -585.42999
-83.489998 127 -586.21002
-83.010002 127.09 -586.63
-82.529999 127.18 -587.03003
-82.120003 127.38 -587.95001
-81.669998 127.53 -588.60999
-81.279999 127.76 -589.65997
-80.809998 127.87 -590.14001
-80.360001 128.02 -590.84003
-79.919998 128.17999 -591.56
-79.470001 128.32001 -592.21997
-79 128.44 -592.75
-78.540001 128.58 -593.40002
-78.110001 128.77 -594.22998
-77.669998 128.95 -595.07001
-77.25 129.16 -596.03003
-76.809998 129.34 -596.84003
-76.389999 129.55 -597.77002
-76 129.82001 -599
-75.169998 130.3 -601.17999
-74.720001 130.46001 -601.92999
-74.290001 130.67999 -602.92999
-73.849998 130.89 -603.87
-45.889999 143.92999 -663.15002
-45.23 143.78 -662.46002
-44.599998 143.7 -662.10999
-43.98 143.64999 -661.90997
-43.369999 143.66 -661.91998
-42.759998 143.64999 -661.88
-42.150002 143.64999 -661.91998
-41.560001 143.7 -662.13
-40.970001 143.78 -662.46002
-40.380001 143.83 -662.71002
-39.799999 143.94 -663.19
-39.220001 144.06 -663.76001
-38.630001 144.14 -664.09998
-38.060001 144.27 -664.69
-37.48 144.41 -665.33002
-36.900002 144.53 -665.89001
-9.4399996 145.41 -669.90002
-8.8100004 145.2 -668.96002
-8.1999998 145.16 -668.76001
-7.5799999 145.14 -668.67999
-6.9699998 145.22 -669.03003
-6.3600001 145.28 -669.28998
-5.7399998 145.31 -669.46997
-5.1300001 145.28999 -669.37
-4.5100002 145.27 -669.26001
-3.9000001 145.24001 -669.14001
-3.28 145.2 -668.92999
-0.20999999 143.39 -660.75
0.40000001 143.28 -660.21002
1 142.99001 -658.90997
1.6 142.67 -657.45001
2.2 142.39999 -656.21997
2.8 142.24001 -655.47998
3.4000001 142.14999 -655.08002
4 142.03999 -654.57001
4.5999999 141.89999 -653.94
5.1999998 141.82001 -653.60999
5.79 141.74001 -653.22998
6.3899999 141.67999 -652.96002
6.9899998 141.64999 -652.81
7.5900002 141.61 -652.63
8.1800003 141.59 -652.53003
8.7799997 141.56 -652.40997
9.3800001 141.56 -652.40997
9.9799995 141.56 -652.40997
10.58 141.59 -652.56
11.18 141.64 -652.77002
11.78 141.67 -652.89001
12.38 141.67 -652.90002
12.99 141.69 -652.98999
13.59 141.74001 -653.21002
14.19 141.75999 -653.29999
14.79 141.78 -653.41998
15.4 141.81 -653.53003
16 141.82001 -653.59998
16.6 141.85001 -653.71997
17.209999 141.88 -653.84998
17.809999 141.91 -654
18.41 141.92 -654.04999
19.01 141.92999 -654.09003
19.620001 141.96001 -654.20001
20.219999 141.98 -654.31
20.83 142.02 -654.46997
21.43 142.00999 -654.46997
22.030001 142.03999 -654.57001
22.629999 142.00999 -654.46002
23.23 141.99001 -654.37
23.83 141.98 -654.32001
24.43 141.98 -654.28998
25.030001 141.97 -654.25
25.639999 142.03 -654.53003
26.24 142.00999 -654.45001
26.84 142.03999 -654.58002
27.450001 142.05 -654.62
28.049999 142.09 -654.79999
28.67 142.16 -655.12
29.280001 142.21001 -655.37
29.889999 142.22 -655.39001
30.48 142.2 -655.28998
31.08 142.17999 -655.21002
31.67 142.14 -655.04999
32.279999 142.14999 -655.09998
32.880001 142.17 -655.19
33.490002 142.17999 -655.21997
34.099998 142.23 -655.46002
34.709999 142.25 -655.56
35.32 142.31 -655.82001
35.939999 142.35001 -655.97998
36.560001 142.41 -656.27002
37.18 142.50999 -656.72998
37.810001 142.58 -657.03998
38.450001 142.72 -657.69
39.080002 142.82001 -658.13
39.709999 142.92999 -658.60999
40.330002 142.98 -658.84003
40.959999 143.05 -659.19
41.59 143.14 -659.56
42.259998 143.37 -660.63
42.91 143.5 -661.21997
43.610001 143.82001 -662.69
44.279999 144.02 -663.58002
44.919998 144.10001 -663.96002
45.560001 144.21001 -664.45001
46.220001 144.35001 -665.09003
47.709999 145.19 -668.88
48.380001 145.36 -669.66998
49.139999 145.78999 -671.59998
49.919998 146.25 -673.71997
50.689999 146.69 -675.71997
51.41 146.98 -677.03998
-130.14999 126.89 -588.29999
-129.35001 126.64 -587.13
-128.66 126.49 -586.45001
-127.97 126.34 -585.77002
-127.32 126.23 -585.28003
-126.66 126.11 -584.69
-126.06 126.04 -584.40002
-125.43 125.95 -583.97998
-124.8 125.85 -583.53003
-124.18 125.77 -583.13
-123.57 125.69 -582.76001
-122.94 125.59 -582.33002
-122.33 125.52 -581.97998
-121.69 125.41 -581.47998
-121.09 125.33 -581.14001
-120.49 125.27 -580.84003
-119.91 125.22 -580.59003
-119.27 125.11 -580.09003
-118.69 125.05 -579.83002
-118.09 124.98 -579.5
-117.5 124.92 -579.21997
-116.91 124.85 -578.91998
-116.32 124.79 -578.65002
-115.75 124.74 -578.42999
-115.18 124.71 -578.25
-114.61 124.66 -578.03003
-114.06 124.64 -577.95001
-113.51 124.62 -577.84998
-112.98 124.62 -577.84998
-112.44 124.61 -577.78998
-111.92 124.62 -577.84998
-111.41 124.63 -577.90002
-110.87 124.62 -577.85999
-110.34 124.63 -577.85999
-109.81 124.63 -577.85999
-109.28 124.63 -577.88
-108.77 124.64 -577.94
-108.23 124.63 -577.88
-107.72 124.66 -578
-107.17 124.64 -577.90997
-106.66 124.66 -577.98999
-106.14 124.67 -578.04999
-105.63 124.69 -578.14001
-105.11 124.7 -578.17999
-104.58 124.7 -578.21002
-104.08 124.74 -578.34998
-103.56 124.75 -578.40002
-103.03 124.75 -578.42999
-102.51 124.76 -578.45001
-102 124.78 -578.56
-101.46 124.77 -578.52002
-100.94 124.79 -578.58002
-100.42 124.8 -578.65997
-99.919998 124.84 -578.83002
-99.410004 124.86 -578.90997
-98.900002 124.89 -579.04999
-98.379997 124.9 -579.09003
-97.879997 124.95 -579.32001
-97.360001 124.96 -579.37
-96.830002 124.96 -579.35999
-96.32 124.99 -579.48999
-95.809998 125.01 -579.59998
-95.290001 125.03 -579.65997
-94.75 125.02 -579.65002
-94.230003 125.03 -579.65997
-93.709999 125.05 -579.76001
-93.199997 125.08 -579.88
-92.690002 125.1 -579.98999
-92.190002 125.14 -580.19
-91.669998 125.17 -580.29999
-91.150002 125.18 -580.34998
-90.660004 125.24 -580.62
-90.169998 125.29 -580.85999
-89.660004 125.33 -581.03998
-89.169998 125.39 -581.29999
-88.669998 125.44 -581.52002
-88.18 125.5 -581.79999
-87.699997 125.57 -582.13
-87.199997 125.63 -582.38
-86.709999 125.69 -582.66998
-86.230003 125.77 -583.03003
-85.760002 125.86 -583.45001
-85.269997 125.92 -583.72998
-84.800003 126.02 -584.20001
-84.330002 126.11 -584.60999
-83.849998 126.2 -585.01001
-83.370003 126.29 -585.40997
-82.919998 126.43 -586.03998
-82.470001 126.56 -586.65002
-82.019997 126.7 -587.28003
-81.610001 126.89 -588.14001
-81.169998 127.04 -588.85999
-80.769997 127.26 -589.84003
-80.309998 127.39 -590.45001
-79.879997 127.57 -591.26001
-79.419998 127.7 -591.87
-78.949997 127.82 -592.40997
-78.529999 128.02 -593.28998
-78.040001 128.11 -593.71002
-77.639999 128.36 -594.84003
-77.18 128.49001 -595.44
-76.760002 128.71001 -596.46002
-76.290001 128.83 -597.01001
-75.849998 129.03 -597.90002
-75.43 129.24001 -598.87
-45.799999 143.05 -661.92999
-45.18 143.00999 -661.72998
-44.560001 142.96001 -661.53003
-43.950001 142.96001 -661.52002
-43.34 142.96001 -661.5
-42.73 142.95 -661.47998
-42.130001 142.98 -661.60999
-41.549999 143.05 -661.94
-40.950001 143.09 -662.13
-40.360001 143.16 -662.42999
-39.77 143.22 -662.72998
-39.189999 143.32001 -663.17999
-38.610001 143.42 -663.64001
-38.029999 143.53999 -664.15002
-37.450001 143.64999 -664.67999
-36.880001 143.81 -665.40002
-36.299999 143.92999 -665.95001
-10.05 144.74001 -669.65002
-9.4200001 144.55 -668.79999
-8.8000002 144.46001 -668.40002
-8.1899996 144.47 -668.44
-7.5799999 144.57001 -668.85999
-6.9699998 144.63 -669.17999
-6.3600001 144.66 -669.29999
-5.7399998 144.66 -669.28998
-5.1300001 144.59 -668.96002
-4.5100002 144.53 -668.71002
-3.8900001 144.47 -668.41998
-3.28 144.35001 -667.87
-0.20999999 142.61 -659.95001
0.40000001 142.44 -659.17999
1 142.19 -658.03003
1.6 142.00999 -657.19
2.2 141.75999 -656.07001
2.8 141.66 -655.59998
3.4000001 141.52 -654.94
4 141.42 -654.52002
4.5999999 141.33 -654.09003
5.1999998 141.25999 -653.77002
5.79 141.16 -653.32001
6.3899999 141.11 -653.09003
6.9899998 141.05 -652.83002
7.5900002 141.03999 -652.76001
8.1800003 140.99001 -652.52002
8.7799997 140.96001 -652.40997
9.3800001 140.95 -652.34998
9.9799995 140.96001 -652.38
10.58 140.96001 -652.41998
11.18 140.97 -652.46002
11.78 141.02 -652.69
12.38 141.00999 -652.63
12.98 141.03 -652.72998
13.58 141.07001 -652.90997
14.19 141.10001 -653.02002
14.79 141.12 -653.13
15.39 141.14999 -653.28003
15.99 141.14 -653.21997
16.59 141.19 -653.44
17.200001 141.2 -653.52002
17.799999 141.24001 -653.67999
18.4 141.25 -653.73999
19.01 141.28999 -653.90002
19.610001 141.31 -654
20.209999 141.31 -654.01001
20.82 141.34 -654.13
21.42 141.36 -654.21997
22.02 141.37 -654.27002
22.620001 141.36 -654.22998
23.219999 141.31 -654.01001
23.799999 141.25 -653.71002
24.4 141.24001 -653.67999
25 141.2 -653.46997
25.59 141.17999 -653.40997
26.200001 141.2 -653.47998
26.809999 141.27 -653.83002
27.43 141.37 -654.28003
28.629999 141.36 -654.23999
29.23 141.37 -654.25
29.85 141.45 -654.62
30.459999 141.47 -654.73999
31.049999 141.46001 -654.67999
31.65 141.44 -654.58002
32.25 141.42999 -654.53003
32.860001 141.45 -654.63
33.470001 141.50999 -654.90002
34.080002 141.53999 -655.04999
34.689999 141.57001 -655.15997
35.299999 141.61 -655.35999
35.91 141.66 -655.57001
36.529999 141.71001 -655.83002
37.16 141.82001 -656.34003
37.779999 141.88 -656.58002
38.41 141.98 -657.07001
39.029999 142.03999 -657.33002
39.66 142.14999 -657.81
40.299999 142.25 -658.29999
40.919998 142.33 -658.65002
41.549999 142.42 -659.04999
42.200001 142.55 -659.65002
42.869999 142.75999 -660.60999
43.540001 142.99001 -661.65997
44.240002 143.28999 -663.01001
44.91 143.46001 -663.79999
45.529999 143.52 -664.07001
46.18 143.63 -664.57001
46.830002 143.75999 -665.19
48.349998 144.63 -669.15997
49.93 145.67999 -673.94
-130.23 126.43 -588.65997
-129.37 126.13 -587.26001
-128.67 125.96 -586.5
-127.97 125.81 -585.78003
-127.31 125.68 -585.21002
-126.67 125.58 -584.72998
-126.04 125.49 -584.29999
-125.43 125.41 -583.96002
-124.78 125.3 -583.42999
-124.16 125.22 -583.04999
-123.57 125.15 -582.76001
-122.95 125.07 -582.35999
-122.31 124.96 -581.85999
-121.69 124.87 -581.45001
-121.09 124.8 -581.15002
-120.47 124.71 -580.71997
-119.87 124.64 -580.40997
-119.27 124.57 -580.04999
-118.67 124.5 -579.75
-118.09 124.44 -579.48999
-117.5 124.39 -579.22998
-116.92 124.33 -578.96002
-116.35 124.29 -578.78998
-115.76 124.23 -578.5
-115.19 124.19 -578.29999
-114.63 124.15 -578.13
-114.07 124.12 -577.96002
-113.53 124.1 -577.90997
-112.97 124.08 -577.79999
-112.44 124.07 -577.76001
-111.91 124.07 -577.77002
-111.39 124.08 -577.78998
-110.85 124.08 -577.78003
-110.32 124.07 -577.76001
-109.8 124.08 -577.78003
-109.27 124.08 -577.78998
-108.73 124.07 -577.73999
-108.21 124.08 -577.79999
-107.67 124.07 -577.71997
-107.14 124.07 -577.71997
-106.64 124.1 -577.88
-106.11 124.11 -577.90997
-105.6 124.13 -578
-105.09 124.15 -578.08002
-104.56 124.15 -578.09998
-104.04 124.16 -578.15997
-103.52 124.18 -578.21002
-103 124.19 -578.26001
-102.48 124.2 -578.31
-101.95 124.2 -578.29999
-101.42 124.2 -578.29999
-100.9 124.21 -578.37
-100.38 124.22 -578.42999
-99.870003 124.25 -578.52002
-99.360001 124.27 -578.65002
-98.870003 124.33 -578.90002
-98.349998 124.34 -578.94
-97.839996 124.36 -579.03003
-97.330002 124.39 -579.16998
-96.809998 124.4 -579.23999
-96.300003 124.43 -579.34998
-95.769997 124.43 -579.34998
-95.25 124.44 -579.40997
-94.720001 124.45 -579.45001
-94.190002 124.45 -579.46002
-93.68 124.47 -579.53998
-93.160004 124.5 -579.65997
-92.660004 124.53 -579.81
-92.129997 124.54 -579.84998
-91.629997 124.57 -580.01001
-91.120003 124.6 -580.15002
-90.610001 124.64 -580.33002
-90.110001 124.68 -580.51001
-89.620003 124.74 -580.75
-89.110001 124.78 -580.94
-88.629997 124.84 -581.25
-88.120003 124.88 -581.44
-87.629997 124.94 -581.67999
-87.139999 125 -581.96002
-86.650002 125.06 -582.25
-86.160004 125.13 -582.56
-85.699997 125.24 -583.06
-85.209999 125.3 -583.34998
-84.730003 125.39 -583.72998
-84.239998 125.45 -584.03003
-83.760002 125.53 -584.40002
-83.32 125.67 -585.04999
-82.849998 125.78 -585.52002
-82.389999 125.89 -586.03998
-81.970001 126.08 -586.89001
-81.489998 126.16 -587.28998
-81.110001 126.41 -588.40997
-80.68 126.58 -589.20001
-80.279999 126.81 -590.27002
-79.830002 126.95 -590.90997
-79.379997 127.1 -591.59003
-78.910004 127.21 -592.09998
-78.470001 127.38 -592.85999
-78.019997 127.53 -593.57001
-77.550003 127.66 -594.16998
-77.139999 127.89 -595.19
-76.669998 128 -595.71002
-76.239998 128.21001 -596.65997
-75.769997 128.33 -597.22998
-75.349998 128.55 -598.21997
-74.980003 128.85001 -599.60999
-46.369999 142.31 -661.32001
-45.759998 142.3 -661.29999
-45.119999 142.21001 -660.85999
-44.52 142.22 -660.90002
-43.91 142.22 -660.91998
-43.310001 142.24001 -661
-42.709999 142.25999 -661.10999
-42.110001 142.28999 -661.22998
-41.509998 142.32001 -661.39001
-40.919998 142.39 -661.66998
-40.34 142.47 -662.08002
-39.75 142.53999 -662.35999
-39.16 142.61 -662.71002
-38.57 142.69 -663.06
-37.990002 142.78 -663.48999
-37.400002 142.85001 -663.79999
-36.84 143.03999 -664.69
-10.67 144.14 -669.71997
-10.04 143.95 -668.84003
-9.4200001 143.89 -668.58002
-8.8100004 143.88 -668.52002
-8.1999998 143.92 -668.73999
-7.5799999 143.96001 -668.90002
-6.9699998 144.00999 -669.12
-6.3600001 144.00999 -669.12
-5.7399998 143.97 -668.95001
-5.1199999 143.89 -668.57001
-4.5100002 143.81 -668.22998
-3.8900001 143.7 -667.70001
-0.81 142.06 -660.20001
-0.20999999 141.83 -659.15997
0.40000001 141.61 -658.14001
1 141.48 -657.52002
1.6 141.28999 -656.65002
2.2 141.16 -656.08002
2.8 141.00999 -655.39001
3.4000001 140.88 -654.78003
4 140.82001 -654.5
4.5999999 140.71001 -654.02002
5.1999998 140.67 -653.81
5.8000002 140.61 -653.53003
6.3899999 140.52 -653.15002
6.9899998 140.49001 -653.01001
7.5900002 140.45 -652.83002
8.1899996 140.42999 -652.70001
8.7799997 140.41 -652.62
9.3800001 140.37 -652.46997
9.9799995 140.37 -652.46002
10.58 140.37 -652.44
11.18 140.37 -652.46002
11.78 140.38 -652.5
12.38 140.38 -652.51001
12.98 140.42 -652.66998
13.58 140.42 -652.66998
14.18 140.46001 -652.85999
14.78 140.47 -652.89001
15.39 140.52 -653.13
15.99 140.52 -653.15002
16.59 140.53999 -653.21002
17.190001 140.55 -653.28003
17.790001 140.57001 -653.35999
18.4 140.62 -653.59003
19 140.64 -653.65997
19.610001 140.66 -653.78003
20.209999 140.69 -653.90997
20.809999 140.7 -653.94
21.41 140.72 -654.04999
22.02 140.74001 -654.15997
22.620001 140.73 -654.09998
23.209999 140.7 -653.95001
23.799999 140.60001 -653.48999
24.389999 140.55 -653.25
24.98 140.49001 -652.98999
25.57 140.45 -652.83002
26.17 140.46001 -652.84003
26.77 140.45 -652.82001
27.379999 140.49001 -652.98999
27.99 140.53999 -653.23999
28.59 140.55 -653.27002
29.190001 140.56 -653.31
29.790001 140.59 -653.44
30.4 140.60001 -653.5
31.02 140.71001 -654
31.629999 140.75999 -654.25
32.23 140.75999 -654.21002
32.830002 140.75 -654.16998
33.439999 140.77 -654.28998
34.049999 140.81 -654.44
34.66 140.86 -654.66998
35.279999 140.94 -655.03998
35.900002 140.99001 -655.27002
36.509998 141.03999 -655.53003
37.139999 141.13 -655.90997
37.759998 141.19 -656.19
38.380001 141.27 -656.58002
39 141.35001 -656.90997
39.639999 141.47 -657.46997
40.27 141.55 -657.87
40.900002 141.64 -658.26001
41.529999 141.74001 -658.71997
42.18 141.87 -659.32001
42.830002 142.02 -660.01001
43.490002 142.21001 -660.84998
44.16 142.42 -661.81
44.860001 142.71001 -663.15997
45.52 142.86 -663.85999
46.150002 142.92999 -664.15002
46.810001 143.08 -664.88
47.5 143.33 -666
-130.28 125.94 -588.89001
-129.41 125.62 -587.40997
-128.64 125.4 -586.38
-127.94 125.24 -585.63
-127.28 125.12 -585.08002
-126.64 125.02 -584.60999
-126.02 124.93 -584.20001
-125.36 124.81 -583.65997
-124.75 124.74 -583.31
-124.14 124.66 -582.95001
-123.53 124.59 -582.60999
-122.91 124.5 -582.19
-122.3 124.42 -581.83002
-121.68 124.33 -581.40997
-121.07 124.25 -581.04999
-120.46 124.17 -580.67999
-119.85 124.09 -580.32001
-119.26 124.03 -580.03998
-118.67 123.97 -579.75
-118.09 123.92 -579.5
-117.48 123.83 -579.10999
-116.9 123.78 -578.89001
-116.36 123.77 -578.81
-115.76 123.7 -578.47998
-115.19 123.66 -578.29999
-114.62 123.62 -578.09998
-114.06 123.58 -577.95001
-113.53 123.57 -577.90997
-112.99 123.56 -577.85999
-112.43 123.54 -577.73999
-111.9 123.53 -577.69
-111.37 123.53 -577.69
-110.84 123.53 -577.69
-110.31 123.53 -577.69
-109.78 123.53 -577.67999
-109.24 123.52 -577.63
-108.7 123.51 -577.59003
-108.16 123.5 -577.53998
-107.63 123.5 -577.53998
-107.13 123.52 -577.65002
-106.61 123.54 -577.73999
-106.1 123.56 -577.82001
-105.58 123.57 -577.85999
-105.05 123.57 -577.87
-104.53 123.58 -577.91998
-104 123.58 -577.92999
-103.48 123.6 -577.98999
-102.96 123.6 -578.01001
-102.45 123.62 -578.10999
-101.92 123.64 -578.15997
-101.4 123.64 -578.17999
-100.87 123.65 -578.21002
-100.35 123.66 -578.26001
-99.849998 123.69 -578.39001
-99.32 123.7 -578.44
-98.809998 123.71 -578.5
-98.309998 123.76 -578.71002
-97.800003 123.78 -578.82001
-97.300003 123.82 -579.02002
-96.779999 123.84 -579.08002
-96.25 123.84 -579.09003
-95.739998 123.86 -579.15997
-95.209999 123.87 -579.20001
-94.68 123.86 -579.19
-94.150002 123.87 -579.21002
-93.629997 123.88 -579.28003
-93.110001 123.9 -579.34998
-92.599998 123.93 -579.47998
-92.089996 123.95 -579.59998
-91.589996 123.99 -579.76001
-91.07 124.01 -579.85999
-90.559998 124.04 -580.01001
-90.050003 124.07 -580.15002
-89.540001 124.1 -580.27002
-89.050003 124.16 -580.54999
-88.559998 124.21 -580.78998
-88.07 124.28 -581.09003
-87.589996 124.35 -581.44
-87.080002 124.39 -581.59998
-86.599998 124.45 -581.90997
-86.110001 124.53 -582.22998
-85.610001 124.58 -582.46002
-85.139999 124.66 -582.87
-84.669998 124.77 -583.34003
-84.199997 124.85 -583.73999
-83.699997 124.91 -584
-83.220001 124.99 -584.35999
-82.790001 125.15 -585.12
-82.32 125.25 -585.56
-81.849998 125.35 -586.03003
-81.440002 125.55 -586.95001
-81 125.71 -587.67999
-80.580002 125.88 -588.47998
-80.209999 126.16 -589.72998
-79.779999 126.33 -590.52002
-79.32 126.47 -591.15997
-78.870003 126.61 -591.81
-78.419998 126.75 -592.46997
-77.959999 126.89 -593.12
-77.519997 127.06 -593.90002
-77.059998 127.2 -594.52002
-76.629997 127.39 -595.41998
-76.150002 127.51 -595.97998
-75.720001 127.71 -596.87
-75.269997 127.86 -597.59998
-74.849998 128.08 -598.60999
-74.360001 128.17999 -599.07001
-73.889999 128.32001 -599.69
-46.310001 141.53 -660.53003
-45.68 141.47 -660.27002
-45.049999 141.39999 -659.92999
-44.43 141.32001 -659.59003
-43.84 141.39999 -659.92999
-43.25 141.44 -660.09998
-42.650002 141.45 -660.17999
-42.049999 141.48 -660.32001
-41.450001 141.50999 -660.44
-40.849998 141.53 -660.53998
-40.279999 141.67 -661.16998
-39.689999 141.71001 -661.35999
-39.099998 141.78 -661.69
-38.509998 141.85001 -662.01001
-37.939999 141.99001 -662.64001
-37.380001 142.19 -663.57001
-36.790001 142.25999 -663.90002
-36.209999 142.35001 -664.32001
-11.28 143.5 -669.59998
-10.65 143.32001 -668.78003
-10.03 143.25 -668.46997
-9.4200001 143.25 -668.45001
-8.8100004 143.25 -668.47998
-8.1999998 143.33 -668.82001
-7.5799999 143.38 -669.04999
-6.9699998 143.39 -669.10999
-6.3600001 143.37 -669.02002
-5.7399998 143.27 -668.56
-5.1199999 143.12 -667.84998
-4.5 143.08 -667.67999
-3.8800001 142.89 -666.78998
-0.81 141.19 -658.96002
-0.20999999 141 -658.09998
0.40000001 140.89999 -657.62
1 140.69 -656.66998
1.6 140.58 -656.15997
2.2 140.44 -655.54999
2.8 140.35001 -655.09998
3.4000001 140.24001 -654.63
4 140.17999 -654.34003
4.5999999 140.09 -653.91998
5.1999998 140.03999 -653.71002
5.79 139.96001 -653.29999
6.3899999 139.92 -653.15002
6.9899998 139.87 -652.89001
7.5900002 139.84 -652.78998
8.1800003 139.78 -652.48999
8.7799997 139.78 -652.48999
9.3800001 139.74001 -652.33002
9.9799995 139.75 -652.34998
10.58 139.74001 -652.31
11.18 139.75 -652.35999
11.78 139.75999 -652.39001
12.37 139.75999 -652.40002
12.97 139.77 -652.46002
13.58 139.78999 -652.53998
14.18 139.81 -652.63
14.78 139.83 -652.71002
15.38 139.86 -652.84998
15.98 139.87 -652.89001
16.58 139.89 -653.01001
17.190001 139.91 -653.09003
17.790001 139.92 -653.13
18.389999 139.94 -653.20001
18.99 139.96001 -653.32001
19.59 139.99001 -653.45001
20.200001 140.03 -653.64001
20.799999 140.02 -653.59003
21.41 140.07001 -653.84003
22.01 140.10001 -653.97998
22.610001 140.07001 -653.83002
23.209999 140.09 -653.90002
23.790001 139.98 -653.42999
24.379999 139.89 -653
24.959999 139.82001 -652.65997
25.559999 139.78 -652.48999
26.15 139.75 -652.34003
26.75 139.74001 -652.28998
27.34 139.72 -652.19
27.940001 139.72 -652.21997
28.549999 139.78 -652.51001
29.16 139.84 -652.73999
29.780001 139.91 -653.09003
30.389999 139.95 -653.28003
31 139.99001 -653.46002
31.6 140.03 -653.64001
32.209999 140.03999 -653.69
32.810001 140.03 -653.65002
33.41 140.06 -653.77002
34.02 140.09 -653.92999
34.639999 140.16 -654.25
35.25 140.22 -654.51001
35.869999 140.3 -654.87
36.490002 140.35001 -655.12
37.119999 140.46001 -655.59003
37.740002 140.52 -655.90002
38.369999 140.61 -656.31
38.990002 140.67999 -656.59998
39.610001 140.77 -657.02002
40.240002 140.86 -657.45001
40.880001 140.98 -658.02002
41.509998 141.07001 -658.42999
42.150002 141.17999 -658.92999
42.799999 141.31 -659.53003
43.450001 141.47 -660.26001
44.110001 141.64 -661.03003
44.790001 141.88 -662.13
45.459999 142.06 -662.96997
46.119999 142.23 -663.73999
46.759998 142.33 -664.21997
47.450001 142.57001 -665.29999
-130.32001 125.45 -589.08002
-129.39999 125.07 -587.35999
-128.64999 124.87 -586.40002
-127.93 124.7 -585.60999
-127.31 124.61 -585.21002
-126.65 124.49 -584.64001
-125.98 124.36 -584.02002
-125.36 124.27 -583.62
-124.74 124.19 -583.23999
-124.13 124.12 -582.90002
-123.52 124.04 -582.56
-122.89 123.95 -582.10999
-122.29 123.87 -581.76001
-121.68 123.8 -581.41998
-121.06 123.71 -581.01001
-120.43 123.61 -580.54999
-119.85 123.55 -580.28998
-119.25 123.49 -579.98999
-118.68 123.45 -579.78003
-118.09 123.39 -579.5
-117.49 123.32 -579.17999
-116.9 123.25 -578.85999
-116.33 123.2 -578.65997
-115.77 123.17 -578.52002
-115.21 123.14 -578.35999
-114.63 123.09 -578.14001
-114.09 123.08 -578.07001
-113.52 123.04 -577.89001
-112.97 123.02 -577.77002
-112.43 123 -577.70001
-111.89 122.99 -577.64001
-111.36 122.99 -577.66998
-110.83 123 -577.67999
-110.3 122.99 -577.63
-109.76 122.98 -577.62
-109.23 122.97 -577.56
-108.71 122.99 -577.62
-108.17 122.98 -577.58002
-107.63 122.97 -577.52002
-107.1 122.96 -577.51001
-106.58 122.97 -577.56
-106.07 122.99 -577.64001
-105.56 123.01 -577.73999
-105.03 123.02 -577.78003
-104.52 123.04 -577.87
-103.99 123.04 -577.88
-103.48 123.06 -577.95001
-102.95 123.07 -577.97998
-102.42 123.07 -577.97998
-101.9 123.08 -578.03998
-101.37 123.07 -578
-100.86 123.09 -578.09998
-100.33 123.1 -578.10999
-99.82 123.12 -578.21002
-99.300003 123.14 -578.32001
-98.790001 123.16 -578.38
-98.279999 123.18 -578.51001
-97.779999 123.23 -578.71002
-97.260002 123.24 -578.78003
-96.739998 123.25 -578.81
-96.220001 123.27 -578.88
-95.699997 123.28 -578.92999
-95.169998 123.28 -578.94
-94.629997 123.27 -578.91998
-94.089996 123.26 -578.85999
-93.580002 123.28 -578.92999
-93.059998 123.29 -579
-92.550003 123.32 -579.13
-92.050003 123.37 -579.34998
-91.519997 123.37 -579.35999
-91.019997 123.4 -579.52002
-90.510002 123.43 -579.65002
-90 123.46 -579.78998
-89.5 123.51 -579.98999
-89.010002 123.56 -580.25
-88.519997 123.62 -580.53998
-88.019997 123.67 -580.72998
-87.519997 123.72 -581
-87.029999 123.78 -581.23999
-86.519997 123.82 -581.41998
-86.050003 123.9 -581.79999
-85.57 123.98 -582.17999
-85.080002 124.04 -582.46002
-84.610001 124.14 -582.90002
-84.120003 124.2 -583.21002
-83.650002 124.3 -583.64001
-83.169998 124.39 -584.06
-82.709999 124.5 -584.56
-82.269997 124.63 -585.19
-81.809998 124.75 -585.75
-81.330002 124.85 -586.20001
-80.959999 125.1 -587.35999
-80.519997 125.26 -588.09003
-80.120003 125.48 -589.09998
-79.690002 125.64 -589.85999
-79.290001 125.86 -590.88
-78.82 125.99 -591.46997
-78.379997 126.14 -592.17999
-77.900002 126.25 -592.67999
-77.480003 126.46 -593.62
-77.010002 126.58 -594.21002
-76.57 126.75 -594.98999
-76.110001 126.9 -595.65997
-75.650002 127.03 -596.28003
-75.220001 127.23 -597.21997
-74.730003 127.34 -597.71002
-74.279999 127.51 -598.47998
-73.82 127.66 -599.17999
-73.349998 127.79 -599.78003
-72.690002 128.57001 -603.40997
-45.610001 140.64999 -659.28003
-45 140.64 -659.21002
-43.799999 140.64 -659.21997
-42.580002 140.64 -659.21002
-41.970001 140.61 -659.10999
-40.82 140.81 -660.02002
-40.23 140.88 -660.34998
-39.650002 140.96001 -660.70001
-39.049999 140.99001 -660.85999
-38.490002 141.17999 -661.71997
-37.91 141.28 -662.17999
-37.349998 141.44 -662.90997
-36.759998 141.53999 -663.39001
-36.16 141.55 -663.45001
-35.57 141.63 -663.79999
-11.9 142.87 -669.56
-11.27 142.67999 -668.67999
-10.65 142.64 -668.47998
-10.03 142.64 -668.47998
-9.4200001 142.64 -668.46997
-8.8100004 142.71001 -668.79999
-8.1999998 142.74001 -668.92999
-7.5799999 142.75999 -669.06
-6.9699998 142.73 -668.91998
-6.3499999 142.64 -668.48999
-5.73 142.52 -667.91998
-5.1100001 142.38 -667.31
-4.5 142.27 -666.77002
-1.42 140.58 -658.97998
-0.81 140.35001 -657.90997
-0.20999999 140.24001 -657.37
0.40000001 140.08 -656.64001
1 139.96001 -656.09998
1.6 139.89999 -655.78998
2.2 139.73 -655.03998
2.8 139.67 -654.76001
3.4000001 139.60001 -654.42999
4 139.53 -654.09998
4.5999999 139.44 -653.66998
5.1900001 139.38 -653.42999
5.79 139.32001 -653.15002
6.3899999 139.25999 -652.84003
6.9899998 139.22 -652.67999
7.5799999 139.2 -652.59003
8.1800003 139.16 -652.39001
8.7799997 139.14 -652.31
9.3800001 139.13 -652.25
9.9799995 139.12 -652.20001
10.57 139.11 -652.17999
11.17 139.12 -652.20001
11.77 139.13 -652.27002
12.37 139.14999 -652.34003
12.97 139.14999 -652.33002
13.57 139.16 -652.38
14.17 139.17 -652.42999
14.77 139.2 -652.57001
15.38 139.21001 -652.62
15.98 139.22 -652.66998
16.58 139.24001 -652.75
17.18 139.25999 -652.87
17.780001 139.28999 -652.96997
18.379999 139.3 -653.02002
18.99 139.34 -653.22998
19.59 139.35001 -653.28998
20.200001 139.39 -653.46002
20.790001 139.39 -653.44
21.4 139.41 -653.57001
22 139.44 -653.71002
22.6 139.44 -653.65997
23.200001 139.44 -653.70001
23.799999 139.42 -653.62
24.379999 139.32001 -653.15002
24.969999 139.23 -652.69
25.559999 139.17 -652.46002
26.139999 139.09 -652.06
26.73 139.07001 -651.96002
27.32 138.99001 -651.62
27.93 139.05 -651.88
28.52 139.03999 -651.84998
29.129999 139.08 -652.01001
29.74 139.11 -652.16998
30.34 139.16 -652.37
30.959999 139.21001 -652.62
31.559999 139.23 -652.71997
32.18 139.33 -653.17999
32.790001 139.35001 -653.28003
33.389999 139.38 -653.38
34 139.39999 -653.51001
34.619999 139.47 -653.83002
35.23 139.53999 -654.15997
35.849998 139.58 -654.34998
36.470001 139.67 -654.72998
37.09 139.74001 -655.08002
37.709999 139.83 -655.47998
38.34 139.89999 -655.81
38.959999 139.99001 -656.21997
39.59 140.08 -656.64001
40.220001 140.17999 -657.09998
40.860001 140.31 -657.69
41.5 140.42 -658.21002
42.139999 140.53 -658.73999
42.77 140.64 -659.20001
43.43 140.78999 -659.91998
44.07 140.91 -660.48999
44.75 141.14 -661.53003
45.400002 141.25999 -662.10999
46.080002 141.50999 -663.22998
46.73 141.61 -663.69
47.41 141.81 -664.64001
48.099998 142.07001 -665.82001
-129.38 124.52 -587.28998
-128.64999 124.34 -586.42999
-127.94 124.16 -585.62
-127.28 124.05 -585.08002
-126.59 123.9 -584.39001
-125.98 123.82 -584.02002
-125.33 123.71 -583.51001
-124.73 123.64 -583.19
-124.11 123.56 -582.78003
-123.49 123.47 -582.38
-122.87 123.39 -582
-122.27 123.32 -581.65997
-121.62 123.2 -581.10999
-121.02 123.13 -580.78998
-120.41 123.06 -580.44
-119.82 122.99 -580.14001
-119.23 122.94 -579.88
-118.66 122.89 -579.66998
-118.05 122.82 -579.33002
-117.47 122.76 -579.03998
-116.88 122.7 -578.79999
-116.32 122.67 -578.63
-115.75 122.62 -578.41998
-115.19 122.6 -578.29999
-114.64 122.57 -578.16998
-114.07 122.54 -578
-113.51 122.5 -577.84998
-112.96 122.48 -577.71997
-112.4 122.45 -577.59003
-111.86 122.43 -577.53003
-111.34 122.44 -577.57001
-110.79 122.42 -577.46997
-110.27 122.43 -577.52002
-109.73 122.41 -577.42999
-109.2 122.42 -577.42999
-108.67 122.42 -577.42999
-108.13 122.4 -577.35999
-107.6 122.4 -577.34003
-107.07 122.4 -577.35999
-106.54 122.4 -577.37
-106.04 122.43 -577.48999
-105.51 122.43 -577.48999
-104.99 122.44 -577.53003
-104.48 122.47 -577.66998
-103.95 122.47 -577.65997
-103.43 122.48 -577.71997
-102.92 122.5 -577.78998
-102.38 122.49 -577.77002
-101.87 122.51 -577.83002
-101.34 122.51 -577.84003
-100.82 122.52 -577.90997
-100.29 122.52 -577.90997
-99.800003 122.57 -578.12
-99.279999 122.58 -578.16998
-98.769997 122.61 -578.29999
-98.25 122.63 -578.38
-97.739998 122.65 -578.48999
-97.239998 122.68 -578.63
-96.709999 122.68 -578.63
-96.18 122.69 -578.66998
-95.660004 122.7 -578.70001
-95.129997 122.7 -578.71002
-94.589996 122.69 -578.67999
-94.059998 122.68 -578.64001
-93.529999 122.69 -578.66998
-93.019997 122.71 -578.76001
-92.5 122.72 -578.82001
-91.980003 122.74 -578.91998
-91.470001 122.77 -579.03003
-90.970001 122.81 -579.21997
-90.449997 122.82 -579.28998
-89.940002 122.86 -579.44
-89.449997 122.9 -579.65997
-88.940002 122.94 -579.82001
-88.449997 123 -580.09003
-87.949997 123.05 -580.33002
-87.459999 123.1 -580.57001
-86.959999 123.15 -580.81
-86.470001 123.21 -581.09003
-85.970001 123.25 -581.28998
-85.5 123.34 -581.70001
-85.019997 123.43 -582.09003
-84.550003 123.51 -582.46997
-84.050003 123.56 -582.71997
-83.580002 123.67 -583.20001
-83.110001 123.76 -583.60999
-82.660004 123.88 -584.16998
-82.18 123.97 -584.63
-81.75 124.13 -585.34003
-81.290001 124.25 -585.90997
-80.830002 124.37 -586.45001
-80.43 124.58 -587.44
-80.019997 124.77 -588.34003
-79.639999 125.03 -589.53003
-79.230003 125.24 -590.51001
-78.769997 125.37 -591.09998
-78.330002 125.53 -591.84998
-77.870003 125.67 -592.48999
-77.419998 125.82 -593.17999
-76.970001 125.97 -593.89001
-76.510002 126.1 -594.47998
-76.059998 126.27 -595.27002
-75.610001 126.42 -595.97998
-75.139999 126.55 -596.59998
-74.720001 126.76 -597.58002
-74.230003 126.87 -598.09003
-73.779999 127.04 -598.87
-73.309998 127.17 -599.48999
-72.910004 127.43 -600.65997
-72.599998 127.86 -602.67999
-72.190002 128.10001 -603.81
-46.200001 139.99001 -659.03003
-45.540001 139.83 -658.25
-44.880001 139.66 -657.47998
-44.290001 139.67999 -657.57001
-43.68 139.66 -657.46997
-41.349998 139.95 -658.82001
-40.77 140.03 -659.22998
-40.200001 140.17999 -659.88
-39.610001 140.22 -660.07001
-39.02 140.28 -660.37
-38.43 140.34 -660.63
-37.860001 140.48 -661.28998
-37.310001 140.69 -662.28003
-36.73 140.81 -662.81
-36.130001 140.82001 -662.90002
-35.529999 140.86 -663.03998
-12.5 142.12 -668.91998
-11.88 142.05 -668.62
-11.26 141.98 -668.28998
-10.64 141.98 -668.28003
-10.03 142.00999 -668.40997
-9.4200001 142.03 -668.52002
-8.8100004 142.07001 -668.71002
