# .PCD v0.7 - Point Cloud Data file format
VERSION 0.7
FIELDS x y z
SIZE 4 4 4
TYPE F F F
COUNT 1 1 1
WIDTH 1619
HEIGHT 1
VIEWPOINT 0 0 0 1 0 0 0
POINTS 1619
DATA ascii
-21.360001 -72.57 -592.23999
-20.809999 -72.559998 -592.15002
-20.27 -72.559998 -592.17999
-19.73 -72.57 -592.21997
-19.190001 -72.57 -592.28003
-18.65 -72.589996 -592.40997
-18.110001 -72.610001 -592.59998
-17.57 -72.629997 -592.75
-17.030001 -72.660004 -592.98999
-16.5 -72.720001 -593.44
-15.97 -72.760002 -593.83002
-15.44 -72.830002 -594.37
-14.91 -72.889999 -594.85999
-14.37 -72.940002 -595.26001
-13.83 -72.959999 -595.40002
-13.28 -72.949997 -595.33002
-12.74 -72.959999 -595.37
-12.2 -72.970001 -595.48999
-11.65 -72.980003 -595.53998
-11.11 -73.010002 -595.78998
-10.57 -73.050003 -596.12
-10.03 -73.089996 -596.45001
-9.4899998 -73.150002 -596.94
-8.9499998 -73.230003 -597.58002
-8.4099998 -73.32 -598.28003
-7.8800001 -73.419998 -599.10999
-7.3400002 -73.559998 -600.19
-6.8099999 -73.730003 -601.57001
-6.27 -73.879997 -602.78998
-5.73 -74.110001 -604.64001
-5.1900001 -74.339996 -606.48999
-4.6599998 -74.68 -609.21002
-4.1100001 -74.849998 -610.62
-3.5599999 -75.040001 -612.09998
-2.6900001 -82.849998 -674.94
-2.0699999 -82.889999 -675.23999
-1.45 -82.93 -675.53003
-0.82999998 -82.93 -675.53003
-0.20999999 -82.959999 -675.76001
0.41 -82.980003 -675.97998
1.03 -83.019997 -676.23999
1.65 -83.059998 -676.62
2.27 -83.110001 -676.98999
2.9000001 -83.150002 -677.33002
3.52 -83.209999 -677.84003
4.1500001 -83.290001 -678.47998
4.77 -83.349998 -678.95001
5.4000001 -83.410004 -679.38
6.0300002 -83.480003 -680.01001
6.6599998 -83.519997 -680.31
7.29 -83.550003 -680.53998
7.9099998 -83.559998 -680.59998
8.54 -83.550003 -680.5
9.1599998 -83.529999 -680.34003
9.7799997 -83.470001 -679.91998
10.4 -83.440002 -679.65997
11.02 -83.400002 -679.29999
11.63 -83.360001 -678.98999
12.25 -83.32 -678.71002
12.87 -83.300003 -678.5
13.49 -83.260002 -678.22998
14.11 -83.239998 -678.02002
14.73 -83.209999 -677.81
15.34 -83.190002 -677.65997
15.96 -83.160004 -677.41998
16.58 -83.129997 -677.12
17.190001 -83.110001 -676.97998
17.809999 -83.059998 -676.62
18.42 -83.040001 -676.42999
19.030001 -83 -676.10999
19.65 -82.989998 -676
20.27 -82.959999 -675.78003
20.879999 -82.93 -675.57001
21.49 -82.879997 -675.15002
22.09 -82.82 -674.69
22.700001 -82.769997 -674.28003
23.299999 -82.709999 -673.78003
23.9 -82.650002 -673.28003
24.5 -82.57 -672.66998
25.09 -82.510002 -672.17999
25.700001 -82.489998 -671.96002
26.309999 -82.459999 -671.73999
26.92 -82.419998 -671.46002
27.530001 -82.419998 -671.40002
28.15 -82.419998 -671.40997
28.77 -82.43 -671.53998
29.389999 -82.440002 -671.56
30.01 -82.449997 -671.65002
30.639999 -82.480003 -671.89001
31.27 -82.519997 -672.22998
31.9 -82.550003 -672.45001
32.529999 -82.589996 -672.77002
33.169998 -82.650002 -673.23999
33.810001 -82.68 -673.53998
34.43 -82.709999 -673.75
35.049999 -82.709999 -673.73999
35.68 -82.720001 -673.81
36.299999 -82.720001 -673.83002
36.91 -82.720001 -673.82001
37.540001 -82.739998 -673.98999
38.150002 -82.720001 -673.82001
38.77 -82.720001 -673.85999
39.400002 -82.739998 -673.94
40.02 -82.739998 -674.01001
40.639999 -82.75 -674.08002
41.27 -82.769997 -674.19
41.900002 -82.790001 -674.39001
42.529999 -82.82 -674.62
43.16 -82.830002 -674.71997
43.779999 -82.830002 -674.69
44.380001 -82.790001 -674.40002
44.959999 -82.720001 -673.82001
45.540001 -82.650002 -673.23999
46.119999 -82.580002 -672.69
46.709999 -82.540001 -672.34003
47.32 -82.519997 -672.16998
47.93 -82.5 -672.07001
48.540001 -82.510002 -672.09003
49.16 -82.5 -672.03998
49.779999 -82.510002 -672.15002
50.43 -82.559998 -672.51001
51.07 -82.599998 -672.87
51.740002 -82.690002 -673.51001
52.419998 -82.779999 -674.31
53.130001 -82.919998 -675.39001
53.82 -83.029999 -676.29999
54.509998 -83.139999 -677.14001
55.189999 -83.209999 -677.75
55.849998 -83.279999 -678.28998
56.509998 -83.330002 -678.70001
57.18 -83.400002 -679.28998
57.849998 -83.459999 -679.76001
58.529999 -83.540001 -680.40002
59.200001 -83.610001 -680.90002
59.880001 -83.68 -681.53003
60.540001 -83.730003 -681.92999
61.23 -83.830002 -682.65002
61.900002 -83.879997 -683.09003
62.599998 -83.970001 -683.82001
63.299999 -84.07 -684.60999
63.970001 -84.129997 -685.09998
64.650002 -84.190002 -685.60999
65.349998 -84.290001 -686.34003
66.029999 -84.339996 -686.78003
66.699997 -84.389999 -687.16998
67.330002 -84.400002 -687.23999
68 -84.449997 -687.63
68.68 -84.5 -688.07001
69.339996 -84.529999 -688.31
69.989998 -84.559998 -688.53998
70.669998 -84.610001 -688.97998
71.349998 -84.660004 -689.37
72.029999 -84.720001 -689.78998
72.709999 -84.769997 -690.22998
73.379997 -84.82 -690.64001
74.07 -84.889999 -691.15997
74.739998 -84.93 -691.46002
75.43 -84.980003 -691.91998
76.120003 -85.040001 -692.40997
76.779999 -85.059998 -692.57001
77.489998 -85.150002 -693.25
78.150002 -85.18 -693.46002
78.860001 -85.25 -694.06
79.529999 -85.290001 -694.39001
80.190002 -85.309998 -694.56
80.860001 -85.349998 -694.83002
81.449997 -85.300003 -694.42999
81.989998 -85.190002 -693.59003
82.459999 -85.029999 -692.25
82.949997 -84.870003 -690.96997
83.449997 -84.739998 -689.90002
83.970001 -84.629997 -689.02002
84.449997 -84.470001 -687.78003
84.970001 -84.360001 -686.84998
85.440002 -84.199997 -685.60999
85.949997 -84.080002 -684.65997
86.43 -83.940002 -683.5
86.970001 -83.860001 -682.82001
87.449997 -83.709999 -681.65002
87.980003 -83.620003 -680.90002
88.440002 -83.470001 -679.69
89 -83.400002 -679.15997
89.510002 -83.290001 -678.28998
90.029999 -83.199997 -677.57001
90.550003 -83.099998 -676.77002
91.07 -83.010002 -676.03998
91.580002 -82.910004 -675.23999
92.129997 -82.849998 -674.75
92.68 -82.790001 -674.21997
93.239998 -82.739998 -673.83002
93.769997 -82.660004 -673.16998
94.339996 -82.620003 -672.84998
94.889999 -82.559998 -672.38
95.470001 -82.519997 -672.06
96.050003 -82.489998 -671.84003
96.639999 -82.470001 -671.62
97.239998 -82.449997 -671.5
97.809998 -82.419998 -671.21002
98.400002 -82.400002 -671.06
99.029999 -82.410004 -671.14001
99.639999 -82.400002 -671.09998
100.3 -82.43 -671.34003
100.95 -82.470001 -671.59998
101.63 -82.519997 -672.01001
102.36 -82.610001 -672.71997
103.07 -82.68 -673.28003
103.83 -82.790001 -674.20001
104.62 -82.93 -675.28998
105.42 -83.07 -676.44
106.22 -83.209999 -677.54999
107.14 -83.440002 -679.42999
-161.55 -77.07 -623.59998
-160.77 -76.959999 -622.77002
-160.00999 -76.870003 -622.06
-159.36 -76.830002 -621.75
-158.64999 -76.769997 -621.21997
-157.98 -76.720001 -620.81
-157.25999 -76.650002 -620.25
-156.62 -76.610001 -619.96997
-155.98 -76.580002 -619.67999
-155.39 -76.57 -619.60999
-154.89999 -76.610001 -619.90997
-154.39 -76.639999 -620.15002
-153.89 -76.669998 -620.40002
-153.33 -76.68 -620.46002
-152.78999 -76.690002 -620.57001
-152.23 -76.690002 -620.59998
-151.66 -76.690002 -620.59003
-151.11 -76.699997 -620.65997
-150.59 -76.730003 -620.88
-150.06 -76.75 -621.03003
-149.53 -76.769997 -621.16998
-149 -76.790001 -621.35999
-148.57001 -76.860001 -621.90997
-148.06 -76.900002 -622.20001
-147.53999 -76.919998 -622.40002
-147.03 -76.949997 -622.65002
-146.58 -77.010002 -623.14001
-146.10001 -77.07 -623.56
-145.64 -77.120003 -624.01001
-145.21001 -77.199997 -624.63
-144.73 -77.25 -625.02002
-144.28 -77.32 -625.54999
-143.86 -77.400002 -626.21002
-143.41 -77.470001 -626.75
-144.83 -79.190002 -640.46002
-144.14 -79.129997 -640.02002
-143.46001 -79.080002 -639.57001
-142.74001 -79 -638.98999
-137.92999 -78.940002 -638.47998
-137.39 -78.959999 -638.67999
-136.81 -78.970001 -638.70001
-136.23 -78.970001 -638.71997
-135.67 -78.980003 -638.84003
-135.08 -78.980003 -638.84003
-134.5 -78.989998 -638.88
-134.02 -79.050003 -639.37
-133.53999 -79.110001 -639.88
-133.03999 -79.160004 -640.28003
-132.49001 -79.190002 -640.5
-131.92 -79.199997 -640.53998
-131.32001 -79.190002 -640.52002
-130.71001 -79.18 -640.40997
-130.12 -79.18 -640.38
-129.53 -79.18 -640.37
-128.94 -79.18 -640.38
-128.38 -79.190002 -640.51001
-127.81 -79.199997 -640.60999
-127.23 -79.209999 -640.65997
-126.64 -79.209999 -640.63
-125.97 -79.160004 -640.21997
-125.34 -79.129997 -640
-124.69 -79.089996 -639.67999
-124.03 -79.050003 -639.34003
-123.37 -79 -638.96002
-122.72 -78.949997 -638.59998
-122.07 -78.919998 -638.31
-121.44 -78.889999 -638.08002
-120.82 -78.870003 -637.90997
-120.18 -78.830002 -637.59998
-119.57 -78.809998 -637.5
-118.97 -78.800003 -637.40002
-118.38 -78.800003 -637.35999
-117.79 -78.800003 -637.37
-117.23 -78.809998 -637.5
-116.68 -78.839996 -637.67999
-121.52 -82.93 -670.37
-121.02 -83.019997 -671.03998
-120.42 -83.029999 -671.14001
-119.84 -83.050003 -671.33002
-119.28 -83.089996 -671.62
-118.7 -83.120003 -671.83002
-118.11 -83.139999 -671.98999
-117.52 -83.160004 -672.16998
-116.95 -83.190002 -672.44
-116.35 -83.209999 -672.54999
-115.78 -83.239998 -672.81
-115.18 -83.25 -672.94
-114.57 -83.260002 -672.95001
-113.98 -83.279999 -673.14001
-113.38 -83.290001 -673.21997
-112.77 -83.300003 -673.27002
-112.16 -83.300003 -673.31
-111.55 -83.309998 -673.39001
-110.91 -83.290001 -673.23999
-110.26 -83.269997 -673.09003
-109.58 -83.220001 -672.69
-108.85 -83.129997 -672
-108.04 -82.989998 -670.83002
-107.13 -82.760002 -669.03998
-106.27 -82.580002 -667.53998
-105.47 -82.419998 -666.34003
-104.75 -82.339996 -665.66998
-104.03 -82.25 -664.96002
-103.34 -82.190002 -664.48999
-102.68 -82.150002 -664.15997
-102.04 -82.129997 -664
-101.44 -82.139999 -664.08002
-100.82 -82.129997 -663.96997
-100.21 -82.129997 -663.96997
-99.620003 -82.139999 -664.09998
-99.010002 -82.139999 -664.13
-98.449997 -82.190002 -664.46997
-97.849998 -82.199997 -664.53003
-97.260002 -82.209999 -664.65997
-96.660004 -82.220001 -664.71002
-96.059998 -82.230003 -664.83002
-95.480003 -82.25 -665.01001
-94.879997 -82.269997 -665.10999
-94.269997 -82.269997 -665.10999
-93.68 -82.290001 -665.27002
-93.099998 -82.309998 -665.48999
-92.510002 -82.32 -665.58002
-91.93 -82.349998 -665.82001
-91.370003 -82.400002 -666.17999
-90.769997 -82.419998 -666.32001
-90.18 -82.440002 -666.48999
-89.589996 -82.449997 -666.62
-88.989998 -82.459999 -666.70001
-88.379997 -82.459999 -666.71002
-87.739998 -82.440002 -666.52002
-87.18 -82.489998 -666.95001
-71.120003 -73.489998 -595.12
-70.480003 -73.389999 -594.37
-69.839996 -73.300003 -593.59003
-69.25 -73.239998 -593.15002
-68.629997 -73.169998 -592.57001
-68.050003 -73.129997 -592.23999
-67.470001 -73.080002 -591.89001
-66.889999 -73.050003 -591.63
-66.32 -73.010002 -591.34003
-65.75 -72.980003 -591.09998
-65.169998 -72.940002 -590.79999
-64.610001 -72.919998 -590.58002
-64.050003 -72.889999 -590.38
-63.490002 -72.870003 -590.22998
-62.939999 -72.860001 -590.15002
-62.380001 -72.839996 -590.02002
-61.84 -72.839996 -589.96997
-61.310001 -72.849998 -590.08002
-60.77 -72.860001 -590.13
-60.240002 -72.860001 -590.19
-59.709999 -72.879997 -590.31
-59.18 -72.900002 -590.48999
-58.669998 -72.940002 -590.75
-58.150002 -72.970001 -591
-57.650002 -73.010002 -591.35999
-57.16 -73.089996 -591.96002
-56.689999 -73.18 -592.69
-41.669998 -75.489998 -611.21002
-41.040001 -75.360001 -610.14001
-40.43 -75.279999 -609.47998
-39.830002 -75.199997 -608.84003
-39.23 -75.120003 -608.23999
-38.639999 -75.059998 -607.76001
-38.040001 -74.970001 -607.04999
-37.450001 -74.900002 -606.47998
-36.849998 -74.82 -605.87
-36.259998 -74.75 -605.28998
-35.66 -74.639999 -604.45001
-35.049999 -74.519997 -603.46997
-34.419998 -74.370003 -602.28003
-33.790001 -74.190002 -600.79999
-33.060001 -73.790001 -597.64001
-32.369999 -73.459999 -595.03003
-31.780001 -73.370003 -594.31
-31.209999 -73.309998 -593.84998
-30.65 -73.279999 -593.56
-30.1 -73.25 -593.34998
-29.540001 -73.220001 -593.08002
-28.99 -73.190002 -592.84998
-28.43 -73.169998 -592.67999
-27.889999 -73.150002 -592.56
-27.33 -73.129997 -592.40002
-26.790001 -73.120003 -592.29999
-26.25 -73.129997 -592.34998
-25.709999 -73.129997 -592.39001
-25.17 -73.160004 -592.63
-24.639999 -73.190002 -592.87
-24.110001 -73.220001 -593.09003
-23.559999 -73.230003 -593.15997
-23.02 -73.209999 -593.04999
-22.469999 -73.199997 -592.98999
-21.91 -73.160004 -592.62
-21.360001 -73.120003 -592.28998
-20.809999 -73.110001 -592.21997
-20.27 -73.099998 -592.15002
-19.73 -73.110001 -592.22998
-19.190001 -73.129997 -592.41998
-18.65 -73.150002 -592.54999
-18.110001 -73.160004 -592.63
-17.58 -73.190002 -592.90002
-17.040001 -73.220001 -593.08002
-16.51 -73.269997 -593.54999
-15.97 -73.32 -593.89001
-15.44 -73.389999 -594.46002
-14.91 -73.440002 -594.89001
-14.37 -73.489998 -595.23999
-13.83 -73.510002 -595.39001
-13.29 -73.510002 -595.42999
-12.74 -73.5 -595.34003
-12.19 -73.510002 -595.40002
-11.65 -73.519997 -595.52002
-11.11 -73.559998 -595.83002
-10.57 -73.580002 -596.02002
-10.03 -73.620003 -596.33002
-9.4899998 -73.669998 -596.75
-8.9499998 -73.739998 -597.29999
-8.4099998 -73.830002 -598
-7.8699999 -73.93 -598.76001
-7.3400002 -74.07 -599.87
-6.8000002 -74.260002 -601.40997
-6.2600002 -74.389999 -602.41998
-5.73 -74.599998 -604.16998
-5.1900001 -74.800003 -605.71002
-4.6500001 -75.07 -607.89001
-4.1100001 -75.360001 -610.17999
-3.5599999 -75.510002 -611.42999
-2.6900001 -83.440002 -674.70001
-2.0699999 -83.480003 -675
-1.45 -83.489998 -675.09998
-0.82999998 -83.519997 -675.27002
-0.20999999 -83.540001 -675.5
0.41 -83.57 -675.69
1.03 -83.589996 -675.90002
1.65 -83.639999 -676.31
2.27 -83.699997 -676.72998
2.9000001 -83.760002 -677.22998
3.52 -83.809998 -677.62
4.1500001 -83.879997 -678.15002
4.77 -83.949997 -678.76001
5.4000001 -84.010002 -679.20001
6.0300002 -84.110001 -679.97998
6.6599998 -84.150002 -680.32001
7.29 -84.18 -680.57001
7.9099998 -84.209999 -680.81
8.54 -84.199997 -680.69
9.1599998 -84.169998 -680.46002
9.7799997 -84.139999 -680.25
10.4 -84.099998 -679.95001
11.02 -84.050003 -679.5
11.64 -84.019997 -679.28003
12.26 -83.989998 -679.03998
12.88 -83.970001 -678.89001
13.5 -83.919998 -678.52002
14.11 -83.900002 -678.34998
14.73 -83.879997 -678.21002
15.35 -83.849998 -677.96997
15.97 -83.82 -677.71002
16.59 -83.809998 -677.59003
17.209999 -83.790001 -677.46997
17.82 -83.760002 -677.21997
18.440001 -83.739998 -677.02002
19.049999 -83.709999 -676.81
19.66 -83.650002 -676.34003
20.280001 -83.629997 -676.14001
20.889999 -83.589996 -675.82001
21.5 -83.540001 -675.45001
22.1 -83.480003 -675
22.709999 -83.43 -674.54999
23.299999 -83.349998 -673.94
23.9 -83.279999 -673.35999
24.5 -83.209999 -672.82001
25.1 -83.160004 -672.44
25.700001 -83.099998 -671.90997
26.309999 -83.07 -671.70001
26.91 -83.029999 -671.34003
27.530001 -83.019997 -671.33002
28.139999 -83.010002 -671.21002
28.76 -83.019997 -671.33002
29.379999 -83.029999 -671.34003
30 -83.050003 -671.54999
30.629999 -83.080002 -671.76001
31.26 -83.120003 -672.07001
31.889999 -83.150002 -672.32001
32.529999 -83.199997 -672.70001
33.169998 -83.25 -673.12
33.799999 -83.290001 -673.40997
34.43 -83.309998 -673.63
35.060001 -83.330002 -673.78003
35.669998 -83.32 -673.70001
36.299999 -83.339996 -673.85999
36.919998 -83.349998 -673.90997
37.540001 -83.349998 -673.88
38.150002 -83.339996 -673.83002
38.77 -83.330002 -673.76001
39.380001 -83.330002 -673.71997
40.009998 -83.339996 -673.83002
40.630001 -83.339996 -673.85999
41.25 -83.349998 -673.90002
41.880001 -83.370003 -674.03998
42.5 -83.379997 -674.15002
43.139999 -83.419998 -674.46997
43.759998 -83.419998 -674.47998
44.360001 -83.389999 -674.19
44.959999 -83.339996 -673.83002
45.529999 -83.25 -673.09003
46.119999 -83.199997 -672.66998
46.700001 -83.139999 -672.23999
47.310001 -83.129997 -672.13
47.919998 -83.120003 -672.03998
48.529999 -83.099998 -671.91998
49.16 -83.110001 -672
49.779999 -83.129997 -672.13
50.43 -83.169998 -672.46997
51.080002 -83.230003 -672.90002
51.75 -83.309998 -673.54999
52.43 -83.419998 -674.40002
53.139999 -83.559998 -675.54999
53.84 -83.690002 -676.56
54.540001 -83.800003 -677.5
55.23 -83.900002 -678.28998
55.900002 -83.970001 -678.79999
56.549999 -84.019997 -679.20001
57.220001 -84.089996 -679.76001
57.889999 -84.150002 -680.22998
58.580002 -84.239998 -680.97998
59.25 -84.300003 -681.44
59.919998 -84.370003 -682.01001
60.599998 -84.440002 -682.56
61.27 -84.5 -683
61.939999 -84.559998 -683.53003
62.66 -84.68 -684.5
63.330002 -84.739998 -684.91998
64.019997 -84.82 -685.58002
64.699997 -84.879997 -686.07001
65.400002 -84.980003 -686.82001
66.07 -85.029999 -687.26001
66.730003 -85.059998 -687.52002
67.389999 -85.099998 -687.78003
68.050003 -85.139999 -688.08002
68.730003 -85.190002 -688.53003
69.400002 -85.239998 -688.90002
70.050003 -85.260002 -689.09003
70.730003 -85.309998 -689.5
71.400002 -85.360001 -689.84998
72.089996 -85.43 -690.45001
72.779999 -85.489998 -690.89001
73.459999 -85.540001 -691.32001
74.150002 -85.610001 -691.82001
74.82 -85.650002 -692.16998
75.510002 -85.709999 -692.66998
76.18 -85.75 -692.96002
76.870003 -85.809998 -693.44
77.57 -85.870003 -693.94
78.25 -85.919998 -694.29999
78.940002 -85.980003 -694.78998
79.610001 -86.019997 -695.09003
80.279999 -86.050003 -695.32001
80.940002 -86.07 -695.48999
81.540001 -86.029999 -695.17999
82.080002 -85.93 -694.34998
82.510002 -85.709999 -692.59003
83.010002 -85.57 -691.47998
83.489998 -85.410004 -690.22998
84.019997 -85.309998 -689.40997
84.529999 -85.18 -688.38
85.019997 -85.029999 -687.22998
85.489998 -84.870003 -685.94
85.989998 -84.75 -684.96997
86.489998 -84.620003 -683.91998
87 -84.510002 -683.03003
87.510002 -84.389999 -682.09003
88.010002 -84.279999 -681.17999
88.5 -84.139999 -680.09998
89.029999 -84.059998 -679.40997
89.529999 -83.93 -678.42999
90.059998 -83.849998 -677.75
90.57 -83.75 -676.94
91.080002 -83.650002 -676.15002
91.629997 -83.580002 -675.63
92.169998 -83.510002 -675.02002
92.709999 -83.43 -674.42999
93.25 -83.370003 -673.90002
93.800003 -83.309998 -673.40002
94.360001 -83.25 -672.98999
94.919998 -83.199997 -672.59003
95.489998 -83.160004 -672.23999
96.07 -83.129997 -671.97998
96.68 -83.120003 -671.94
97.260002 -83.089996 -671.65997
97.849998 -83.07 -671.46997
98.440002 -83.040001 -671.28003
99.040001 -83.029999 -671.21997
99.699997 -83.07 -671.46997
100.35 -83.089996 -671.67999
100.99 -83.110001 -671.83002
101.7 -83.190002 -672.41998
102.4 -83.260002 -673
103.11 -83.330002 -673.57001
103.87 -83.440002 -674.46002
104.63 -83.550003 -675.34998
105.43 -83.699997 -676.52002
106.27 -83.870003 -677.89001
107.16 -84.080002 -679.54999
-161.57001 -77.650002 -623.65997
-160.8 -77.550003 -622.89001
-160 -77.440002 -622.01001
-159.3 -77.379997 -621.53998
-158.64 -77.339996 -621.20001
-157.99001 -77.290001 -620.85999
-157.36 -77.269997 -620.63
-156.75999 -77.25 -620.52002
-156.12 -77.209999 -620.22998
-155.53 -77.209999 -620.15997
-155.03 -77.239998 -620.40997
-154.45 -77.239998 -620.38
-153.86 -77.220001 -620.29999
-153.28 -77.220001 -620.21997
-152.7 -77.209999 -620.21002
-152.19 -77.239998 -620.41998
-151.66 -77.260002 -620.58002
-151.12 -77.279999 -620.71997
-150.62 -77.309998 -620.98999
-150.11 -77.339996 -621.21997
-149.60001 -77.379997 -621.48999
-149.11 -77.419998 -621.82001
-148.62 -77.459999 -622.14001
-148.11 -77.489998 -622.40002
-147.62 -77.529999 -622.71002
-147.14 -77.580002 -623.12
-146.64999 -77.620003 -623.42999
-146.14999 -77.660004 -623.75
-145.71001 -77.730003 -624.29999
-145.22 -77.779999 -624.66998
-144.73 -77.82 -625.02002
-144.3 -77.900002 -625.62
-143.85001 -77.970001 -626.15002
-143.41 -78.040001 -626.75
-145.62 -79.879997 -641.31
-144.84 -79.779999 -640.48999
-144.14999 -79.720001 -640.03003
-143.47 -79.669998 -639.65002
-142.72 -79.580002 -638.92999
-137.99001 -79.559998 -638.73999
-137.46001 -79.589996 -638.97998
-136.89 -79.599998 -639.09998
-136.28999 -79.589996 -639.03003
-135.71001 -79.599998 -639.07001
-135.17 -79.620003 -639.26001
-134.64999 -79.660004 -639.56
-134.13 -79.699997 -639.89001
-133.63 -79.760002 -640.29999
-133.07001 -79.769997 -640.41998
-132.5 -79.779999 -640.53998
-131.88 -79.769997 -640.39001
-131.3 -79.769997 -640.41998
-130.69 -79.75 -640.28998
-130.09 -79.75 -640.22998
-129.50999 -79.75 -640.26001
-128.92 -79.75 -640.27002
-128.36 -79.769997 -640.41998
-127.79 -79.779999 -640.48999
-127.21 -79.790001 -640.56
-126.6 -79.769997 -640.45001
-125.95 -79.730003 -640.14001
-125.31 -79.699997 -639.85999
-124.65 -79.650002 -639.46997
-124.04 -79.629997 -639.34998
-123.4 -79.599998 -639.09998
-122.73 -79.550003 -638.65997
-122.09 -79.510002 -638.39001
-121.46 -79.480003 -638.16998
-120.83 -79.449997 -637.91998
-120.22 -79.440002 -637.83002
-119.62 -79.43 -637.71997
-119.01 -79.419998 -637.63
-118.46 -79.440002 -637.79999
-117.93 -79.470001 -638.07001
-117.37 -79.489998 -638.21997
-117.64 -80.080002 -642.85999
-121.68 -83.239998 -667.94
-121.65 -83.639999 -671.09998
-121.06 -83.660004 -671.23999
-120.48 -83.68 -671.44
-119.89 -83.709999 -671.59998
-119.3 -83.720001 -671.72998
-118.73 -83.75 -671.98999
-118.15 -83.790001 -672.23999
-117.56 -83.800003 -672.38
-116.98 -83.830002 -672.58002
-116.41 -83.860001 -672.84998
-115.8 -83.870003 -672.90997
-115.21 -83.889999 -673.04999
-114.6 -83.900002 -673.12
-114.01 -83.919998 -673.28998
-113.4 -83.919998 -673.33002
-112.81 -83.940002 -673.51001
-112.18 -83.93 -673.41998
-111.53 -83.919998 -673.28998
-110.9 -83.900002 -673.19
-110.23 -83.870003 -672.90002
-109.53 -83.800003 -672.39001
-108.79 -83.709999 -671.67999
-108.02 -83.589996 -670.69
-107.18 -83.419998 -669.34003
-106.31 -83.220001 -667.75
-105.49 -83.059998 -666.48999
-104.78 -82.970001 -665.84998
-104.06 -82.889999 -665.17999
-103.37 -82.830002 -664.67999
-102.7 -82.779999 -664.31
-102.05 -82.75 -664.07001
-101.45 -82.760002 -664.14001
-100.83 -82.739998 -664.01001
-100.23 -82.75 -664.09998
-99.620003 -82.75 -664.09003
-99.050003 -82.779999 -664.34998
-98.449997 -82.800003 -664.46997
-97.860001 -82.809998 -664.57001
-97.25 -82.809998 -664.57001
-96.639999 -82.809998 -664.58002
-96.040001 -82.82 -664.67999
-95.440002 -82.830002 -664.72998
-94.839996 -82.839996 -664.79999
-94.239998 -82.849998 -664.85999
-93.650002 -82.870003 -665.01001
-93.059998 -82.889999 -665.17999
-92.480003 -82.910004 -665.39001
-91.900002 -82.940002 -665.62
-91.330002 -82.980003 -665.91998
-90.75 -83.010002 -666.13
-90.18 -83.050003 -666.48999
-89.589996 -83.07 -666.64001
-89.010002 -83.089996 -666.84003
-88.410004 -83.099998 -666.91998
-87.760002 -83.07 -666.65997
-72.32 -74.150002 -596.01001
-71.669998 -74.050003 -595.21997
-71.019997 -73.940002 -594.35999
-70.410004 -73.860001 -593.78003
-69.800003 -73.800003 -593.27002
-69.199997 -73.739998 -592.79999
-68.610001 -73.68 -592.35999
-68.040001 -73.650002 -592.12
-67.449997 -73.610001 -591.77002
-66.879997 -73.57 -591.5
-66.309998 -73.540001 -591.26001
-65.75 -73.519997 -591.08002
-65.18 -73.489998 -590.83002
-64.620003 -73.470001 -590.67999
-64.059998 -73.449997 -590.53003
-63.509998 -73.440002 -590.46002
-62.959999 -73.43 -590.37
-62.419998 -73.43 -590.35999
-61.880001 -73.43 -590.34003
-61.349998 -73.440002 -590.46997
-60.82 -73.459999 -590.63
-60.290001 -73.470001 -590.67999
-59.75 -73.470001 -590.72998
-59.23 -73.5 -590.96997
-58.720001 -73.540001 -591.28998
-58.209999 -73.589996 -591.63
-57.73 -73.660004 -592.16998
-57.220001 -73.709999 -592.58002
-42.279999 -76.139999 -611.92999
-41.650002 -76.019997 -610.91998
-41.029999 -75.900002 -610.02002
-40.419998 -75.809998 -609.26001
-39.82 -75.739998 -608.71002
-39.220001 -75.660004 -608.09003
-38.630001 -75.599998 -607.59998
-38.029999 -75.510002 -606.89001
-37.439999 -75.440002 -606.39001
-36.849998 -75.360001 -605.73999
-36.25 -75.279999 -605.08002
-35.639999 -75.169998 -604.21997
-35.040001 -75.059998 -603.37
-34.419998 -74.919998 -602.21997
-33.790001 -74.739998 -600.82001
-33.099998 -74.440002 -598.45001
-32.369999 -74.019997 -595.15997
-31.790001 -73.93 -594.41998
-31.219999 -73.879997 -594.02002
-30.66 -73.830002 -593.58002
-30.1 -73.800003 -593.37
-29.549999 -73.769997 -593.15002
-28.99 -73.75 -593.02002
-28.440001 -73.720001 -592.76001
-27.889999 -73.699997 -592.63
-27.34 -73.690002 -592.51001
-26.790001 -73.68 -592.44
-26.25 -73.68 -592.40002
-25.709999 -73.68 -592.40997
-25.18 -73.709999 -592.71002
-24.639999 -73.730003 -592.79999
-24.1 -73.75 -592.96997
-23.559999 -73.760002 -593.08002
-23.02 -73.769997 -593.12
-22.469999 -73.760002 -593.04999
-21.92 -73.730003 -592.84003
-21.360001 -73.68 -592.46997
-20.82 -73.669998 -592.34998
-20.27 -73.669998 -592.35999
-19.73 -73.68 -592.44
-19.190001 -73.68 -592.46002
-18.65 -73.699997 -592.63
-18.120001 -73.720001 -592.78003
-17.58 -73.75 -592.97998
-17.040001 -73.790001 -593.29999
-16.51 -73.82 -593.59998
-15.98 -73.879997 -594.03998
-15.44 -73.940002 -594.52002
-14.91 -74.010002 -595.10999
-14.38 -74.059998 -595.47998
-13.83 -74.07 -595.58002
-13.29 -74.059998 -595.46997
-12.74 -74.050003 -595.35999
-12.19 -74.050003 -595.38
-11.65 -74.07 -595.56
-11.11 -74.089996 -595.71002
-10.57 -74.120003 -595.96002
-10.03 -74.169998 -596.33002
-9.4799995 -74.190002 -596.53003
-8.9399996 -74.269997 -597.10999
-8.4099998 -74.349998 -597.79999
-7.8699999 -74.43 -598.40997
-7.3299999 -74.57 -599.52002
-6.8000002 -74.75 -600.95001
-6.2600002 -74.900002 -602.12
-5.7199998 -75.080002 -603.58002
-5.1799998 -75.300003 -605.29999
-4.6399999 -75.540001 -607.22998
-4.0999999 -75.830002 -609.52002
-3.55 -76.010002 -610.90002
-2.6900001 -84.029999 -674.41998
-2.0699999 -84.080002 -674.84003
-1.45 -84.099998 -674.97998
-0.82999998 -84.120003 -675.16998
-0.20999999 -84.139999 -675.29999
0.41 -84.169998 -675.51001
1.03 -84.199997 -675.76001
1.65 -84.239998 -676.09003
2.27 -84.300003 -676.53998
2.8900001 -84.32 -676.76001
3.52 -84.410004 -677.41998
4.1399999 -84.470001 -677.92999
4.77 -84.550003 -678.57001
5.4000001 -84.620003 -679.14001
6.0300002 -84.699997 -679.77002
6.6599998 -84.760002 -680.23999
7.29 -84.82 -680.67999
7.9200001 -84.849998 -680.94
8.54 -84.849998 -680.90002
9.1599998 -84.830002 -680.78003
9.79 -84.809998 -680.60999
10.41 -84.769997 -680.28998
11.03 -84.730003 -679.96997
11.65 -84.690002 -679.69
12.26 -84.650002 -679.34003
12.88 -84.620003 -679.12
13.51 -84.610001 -679.03003
14.12 -84.580002 -678.78003
14.74 -84.559998 -678.64001
15.36 -84.540001 -678.46997
15.98 -84.529999 -678.38
16.6 -84.5 -678.17999
17.219999 -84.459999 -677.85999
17.84 -84.440002 -677.70001
18.450001 -84.410004 -677.40002
19.07 -84.389999 -677.28998
19.68 -84.349998 -676.95001
20.290001 -84.32 -676.70001
20.9 -84.260002 -676.21002
21.51 -84.209999 -675.84003
22.110001 -84.150002 -675.34998
22.719999 -84.089996 -674.90997
23.309999 -84 -674.19
23.91 -83.940002 -673.66998
24.51 -83.849998 -672.97998
25.110001 -83.790001 -672.5
25.709999 -83.730003 -672.02002
26.309999 -83.699997 -671.77002
26.92 -83.660004 -671.46997
27.52 -83.629997 -671.22998
28.139999 -83.620003 -671.19
28.76 -83.629997 -671.23999
29.379999 -83.639999 -671.28003
29.99 -83.639999 -671.31
30.620001 -83.660004 -671.46997
31.25 -83.709999 -671.89001
31.879999 -83.739998 -672.13
32.52 -83.790001 -672.47998
33.16 -83.849998 -672.95001
33.790001 -83.889999 -673.28998
34.43 -83.93 -673.57001
35.049999 -83.940002 -673.70001
35.669998 -83.949997 -673.77002
36.299999 -83.959999 -673.88
36.919998 -83.959999 -673.85999
37.529999 -83.949997 -673.76001
38.139999 -83.940002 -673.69
38.759998 -83.93 -673.63
39.369999 -83.93 -673.56
40 -83.93 -673.63
40.619999 -83.940002 -673.70001
41.240002 -83.949997 -673.72998
41.860001 -83.959999 -673.82001
42.490002 -83.970001 -673.90002
43.119999 -84 -674.15997
43.75 -84.010002 -674.22998
44.349998 -83.980003 -674
44.950001 -83.940002 -673.63
45.52 -83.849998 -672.97998
46.110001 -83.790001 -672.51001
46.709999 -83.760002 -672.27002
47.310001 -83.739998 -672.07001
47.919998 -83.720001 -671.90997
48.540001 -83.730003 -671.96002
49.16 -83.739998 -672.06
49.790001 -83.760002 -672.20001
50.43 -83.800003 -672.53998
51.09 -83.870003 -673.09998
51.759998 -83.949997 -673.71997
52.439999 -84.050003 -674.53003
53.18 -84.230003 -675.96997
53.900002 -84.400002 -677.27002
54.59 -84.5 -678.09003
55.259998 -84.580002 -678.67999
55.939999 -84.650002 -679.29999
56.599998 -84.709999 -679.71997
57.27 -84.769997 -680.22998
57.939999 -84.849998 -680.85999
58.619999 -84.93 -681.44
59.299999 -85.010002 -682.07001
59.98 -85.080002 -682.65002
60.639999 -85.129997 -683.04999
61.330002 -85.209999 -683.71002
62.009998 -85.290001 -684.28998
62.709999 -85.389999 -685.07001
63.389999 -85.449997 -685.59998
64.089996 -85.540001 -686.28003
64.769997 -85.599998 -686.79999
65.449997 -85.68 -687.37
66.129997 -85.730003 -687.82001
66.800003 -85.779999 -688.20001
67.449997 -85.809998 -688.44
68.129997 -85.860001 -688.83002
68.790001 -85.900002 -689.10999
69.459999 -85.949997 -689.47998
70.139999 -86 -689.92999
70.82 -86.059998 -690.40002
71.510002 -86.120003 -690.88
72.18 -86.169998 -691.22998
72.839996 -86.199997 -691.51001
73.540001 -86.279999 -692.12
74.209999 -86.32 -692.41998
74.900002 -86.379997 -692.90997
75.589996 -86.440002 -693.40002
76.290001 -86.510002 -693.90002
76.980003 -86.57 -694.40002
77.669998 -86.629997 -694.88
78.330002 -86.650002 -695.07001
79.050003 -86.739998 -695.73999
79.720001 -86.769997 -695.97998
80.410004 -86.830002 -696.46997
81.059998 -86.839996 -696.52002
81.650002 -86.779999 -696.09998
82.190002 -86.68 -695.29999
82.610001 -86.449997 -693.46997
83.080002 -86.279999 -692.07001
83.550003 -86.110001 -690.71002
84.080002 -86 -689.87
84.580002 -85.870003 -688.81
85.080002 -85.730003 -687.75
85.550003 -85.57 -686.41998
86.059998 -85.449997 -685.51001
86.550003 -85.309998 -684.41998
87.080002 -85.209999 -683.63
87.589996 -85.099998 -682.73999
88.089996 -84.980003 -681.78003
88.57 -84.830002 -680.63
89.089996 -84.739998 -679.84998
89.589996 -84.620003 -678.91998
90.099998 -84.510002 -678.04999
90.620003 -84.410004 -677.29999
91.139999 -84.32 -676.54999
91.660004 -84.230003 -675.84003
92.209999 -84.160004 -675.28998
92.75 -84.089996 -674.73999
93.300003 -84.029999 -674.25
93.839996 -83.949997 -673.64001
94.389999 -83.900002 -673.20001
94.959999 -83.849998 -672.84003
95.529999 -83.809998 -672.53003
96.110001 -83.769997 -672.21002
96.68 -83.739998 -671.95001
97.269997 -83.720001 -671.75
97.870003 -83.699997 -671.60999
98.480003 -83.690002 -671.53998
99.099998 -83.699997 -671.60999
99.739998 -83.720001 -671.72998
100.37 -83.730003 -671.81
101.02 -83.75 -672.03998
101.72 -83.82 -672.56
102.42 -83.889999 -673.08002
103.14 -83.970001 -673.73999
103.9 -84.080002 -674.64001
104.64 -84.190002 -675.46002
105.45 -84.339996 -676.64001
106.3 -84.510002 -678.03003
107.22 -84.75 -679.92999
-162.58 -78.43 -625.34003
-161.73 -78.300003 -624.27002
-160.78999 -78.120003 -622.89001
-160 -78.010002 -622.03998
-159.33 -77.959999 -621.64001
-158.63 -77.900002 -621.14001
-157.95 -77.849998 -620.72998
-157.3 -77.809998 -620.40997
-156.74001 -77.809998 -620.41998
-156.19 -77.82 -620.48999
-155.63 -77.82 -620.53998
-155.08 -77.830002 -620.59998
-154.45 -77.800003 -620.37
-153.84 -77.779999 -620.21002
-153.25999 -77.779999 -620.17999
-152.71001 -77.790001 -620.22998
-152.19 -77.809998 -620.45001
-151.62 -77.809998 -620.42999
-151.10001 -77.839996 -620.63
-150.60001 -77.870003 -620.91998
-150.08 -77.900002 -621.09003
-149.58 -77.93 -621.38
-149.06 -77.959999 -621.62
-148.57001 -78 -621.90997
-148.05 -78.029999 -622.13
-147.59 -78.089996 -622.59998
-147.10001 -78.129997 -622.94
-146.60001 -78.169998 -623.22998
-146.13 -78.230003 -623.67999
-145.67 -78.290001 -624.15997
-145.2 -78.339996 -624.56
-144.77 -78.419998 -625.20001
-144.31 -78.480003 -625.66998
-143.89999 -78.57 -626.37
-143.39 -78.599998 -626.64001
-146.34 -80.540001 -641.89001
-145.53999 -80.43 -640.98999
-144.85001 -80.370003 -640.51001
-144.16 -80.32 -640.09998
-143.45 -80.25 -639.54999
-138.02 -80.160004 -638.87
-137.49001 -80.190002 -639.12
-136.92999 -80.209999 -639.23999
-136.36 -80.220001 -639.34003
-135.8 -80.239998 -639.46002
-135.25 -80.260002 -639.62
-134.72 -80.290001 -639.90997
-134.2 -80.330002 -640.20001
-133.64999 -80.349998 -640.38
-133.06 -80.349998 -640.37
-132.47 -80.349998 -640.35999
-131.87 -80.349998 -640.33002
-131.28 -80.339996 -640.28998
-130.67999 -80.330002 -640.22998
-130.06 -80.32 -640.09003
-129.47 -80.32 -640.10999
-128.91 -80.330002 -640.22998
-128.34 -80.349998 -640.33002
-127.76 -80.349998 -640.37
-127.18 -80.349998 -640.38
-126.55 -80.32 -640.15997
-125.91 -80.290001 -639.91998
-125.29 -80.269997 -639.73999
-124.65 -80.239998 -639.46997
-124.01 -80.199997 -639.20001
-123.39 -80.18 -639.07001
-122.76 -80.160004 -638.84003
-122.12 -80.120003 -638.54999
-121.48 -80.080002 -638.28003
-120.88 -80.07 -638.20001
-120.28 -80.059998 -638.10999
-119.71 -80.07 -638.20001
-119.13 -80.080002 -638.21997
-118.57 -80.099998 -638.37
-118.03 -80.120003 -638.59998
-118.57 -80.900002 -644.67999
-121.87 -83.57 -665.65997
-122.28 -84.269997 -671.15997
-121.66 -84.269997 -671.17999
-121.1 -84.309998 -671.47998
-120.5 -84.32 -671.57001
-119.92 -84.339996 -671.76001
-119.34 -84.370003 -671.98999
-118.75 -84.389999 -672.15002
-118.19 -84.43 -672.42999
-117.59 -84.440002 -672.54999
-116.99 -84.449997 -672.65002
-116.41 -84.480003 -672.88
-115.81 -84.489998 -672.96002
-115.22 -84.519997 -673.15002
-114.63 -84.529999 -673.28003
-114.02 -84.550003 -673.38
-113.41 -84.550003 -673.40002
-112.77 -84.529999 -673.26001
-112.15 -84.529999 -673.28003
-111.49 -84.5 -673.01001
-110.83 -84.470001 -672.77002
-110.15 -84.419998 -672.40002
-109.42 -84.330002 -671.71002
-108.7 -84.260002 -671.10999
-107.96 -84.160004 -670.35999
-107.12 -83.980003 -668.96997
-106.31 -83.830002 -667.73999
-105.53 -83.699997 -666.73999
-104.8 -83.599998 -665.96997
-104.09 -83.519997 -665.34003
-103.39 -83.449997 -664.79999
-102.72 -83.410004 -664.44
-102.09 -83.389999 -664.28998
-101.46 -83.379997 -664.20001
-100.84 -83.360001 -664.08002
-100.26 -83.389999 -664.29999
-99.650002 -83.389999 -664.34003
-99.040001 -83.389999 -664.32001
-98.440002 -83.389999 -664.35999
-97.809998 -83.379997 -664.23999
-97.190002 -83.370003 -664.19
-96.559998 -83.360001 -664.07001
-95.959999 -83.360001 -664.12
-95.330002 -83.349998 -664
-94.730003 -83.349998 -664.01001
-94.110001 -83.349998 -663.98999
-93.5 -83.349998 -664.01001
-92.919998 -83.370003 -664.20001
-92.360001 -83.410004 -664.51001
-91.809998 -83.470001 -665
-91.260002 -83.529999 -665.41998
-90.709999 -83.580002 -665.84998
-90.129997 -83.620003 -666.12
-89.57 -83.660004 -666.44
-89 -83.699997 -666.77002
-88.400002 -83.720001 -666.90997
-87.769997 -83.690002 -666.71002
-72.830002 -74.660004 -595.76001
-72.209999 -74.580002 -595.10999
-71.589996 -74.510002 -594.54999
-70.959999 -74.419998 -593.84998
-70.360001 -74.349998 -593.34003
-69.760002 -74.300003 -592.92999
-69.18 -74.25 -592.56
-68.589996 -74.199997 -592.15997
-68.010002 -74.169998 -591.89001
-67.440002 -74.129997 -591.64001
-66.860001 -74.099998 -591.34998
-66.309998 -74.080002 -591.21997
-65.739998 -74.059998 -591.04999
-65.190002 -74.040001 -590.91998
-64.629997 -74.019997 -590.76001
-64.07 -74.010002 -590.63
-63.529999 -74 -590.58002
-62.98 -74 -590.58002
-62.439999 -73.989998 -590.52002
-61.91 -74.010002 -590.66998
-61.380001 -74.019997 -590.77002
-60.860001 -74.040001 -590.95001
-60.32 -74.050003 -591.03003
-59.799999 -74.07 -591.17999
-59.290001 -74.120003 -591.57001
-58.790001 -74.169998 -591.96997
-58.299999 -74.230003 -592.44
-57.799999 -74.300003 -592.96002
-42.880001 -76.769997 -612.45001
-42.25 -76.650002 -611.5
-41.630001 -76.540001 -610.59998
-41.009998 -76.440002 -609.81
-40.400002 -76.339996 -609.02002
-39.810001 -76.260002 -608.46002
-39.209999 -76.190002 -607.84003
-38.619999 -76.129997 -607.37
-38.02 -76.040001 -606.71997
-37.43 -75.980003 -606.23999
-36.830002 -75.879997 -605.46002
-36.240002 -75.809998 -604.87
-35.630001 -75.699997 -604
-35.029999 -75.589996 -603.17999
-34.41 -75.440002 -601.98999
-33.790001 -75.300003 -600.89001
-33.110001 -75 -598.54999
-32.380001 -74.580002 -595.27002
-31.790001 -74.489998 -594.48999
-31.219999 -74.419998 -594
-30.66 -74.379997 -593.64001
-30.1 -74.349998 -593.39001
-29.549999 -74.330002 -593.23999
-29 -74.300003 -593.04999
-28.440001 -74.269997 -592.83002
-27.889999 -74.25 -592.65002
-27.34 -74.239998 -592.54999
-26.790001 -74.230003 -592.46002
-26.25 -74.220001 -592.44
-25.709999 -74.220001 -592.42999
-25.17 -74.239998 -592.58002
-24.639999 -74.269997 -592.78998
-24.1 -74.300003 -593.01001
-23.559999 -74.309998 -593.15002
-23.02 -74.32 -593.19
-22.48 -74.309998 -593.15002
-21.93 -74.290001 -592.95001
-21.370001 -74.25 -592.64001
-20.82 -74.230003 -592.5
-20.280001 -74.220001 -592.45001
-19.74 -74.239998 -592.56
-19.200001 -74.25 -592.67999
-18.66 -74.25 -592.66998
-18.120001 -74.279999 -592.89001
-17.58 -74.32 -593.17999
-17.049999 -74.349998 -593.46002
-16.51 -74.389999 -593.75
-15.98 -74.440002 -594.13
-15.45 -74.489998 -594.57001
-14.91 -74.559998 -595.09998
-14.38 -74.620003 -595.59003
-13.84 -74.639999 -595.71997
-13.29 -74.629997 -595.69
-12.74 -74.599998 -595.39001
-12.19 -74.589996 -595.35999
-11.65 -74.599998 -595.41998
-11.1 -74.620003 -595.54999
-10.56 -74.650002 -595.81
-10.02 -74.690002 -596.09003
-9.4799995 -74.720001 -596.34003
-8.9399996 -74.790001 -596.90002
-8.3999996 -74.860001 -597.46002
-7.8600001 -74.940002 -598.10999
-7.3200002 -75.040001 -598.89001
-6.79 -75.239998 -600.45001
-6.2600002 -75.419998 -601.83002
-5.7199998 -75.580002 -603.15002
-5.1799998 -75.809998 -604.96002
-4.6399999 -76.040001 -606.77002
-4.0999999 -76.309998 -608.89001
-3.55 -76.529999 -610.62
-2.6900001 -84.629997 -674.27002
-2.0699999 -84.669998 -674.56
-1.45 -84.68 -674.69
-0.82999998 -84.720001 -674.97998
-0.20999999 -84.739998 -675.15997
0.41 -84.760002 -675.29999
1.03 -84.779999 -675.46002
1.65 -84.82 -675.79999
2.27 -84.889999 -676.34998
2.8900001 -84.93 -676.65002
3.52 -85.010002 -677.23999
4.1399999 -85.07 -677.73999
4.77 -85.160004 -678.40997
5.4000001 -85.220001 -678.90997
6.0300002 -85.309998 -679.60999
6.6599998 -85.379997 -680.15997
7.29 -85.43 -680.54999
7.9200001 -85.489998 -681.02002
8.54 -85.5 -681.10999
9.1700001 -85.489998 -681.01001
9.79 -85.470001 -680.87
10.41 -85.43 -680.59998
11.03 -85.400002 -680.32001
11.65 -85.360001 -680.02002
12.27 -85.330002 -679.81
12.89 -85.32 -679.67999
13.51 -85.279999 -679.34998
14.13 -85.260002 -679.19
14.75 -85.220001 -678.94
15.37 -85.220001 -678.89001
15.99 -85.190002 -678.65002
16.610001 -85.150002 -678.40002
17.23 -85.129997 -678.20001
17.85 -85.129997 -678.19
18.459999 -85.099998 -677.95001
19.08 -85.059998 -677.60999
19.690001 -85.029999 -677.38
20.309999 -84.989998 -677.07001
20.91 -84.93 -676.64001
21.52 -84.879997 -676.22998
22.129999 -84.809998 -675.71997
22.73 -84.75 -675.17999
23.32 -84.650002 -674.41998
23.92 -84.559998 -673.73999
24.51 -84.489998 -673.15002
25.120001 -84.43 -672.72998
25.709999 -84.360001 -672.10999
26.309999 -84.32 -671.81
26.92 -84.269997 -671.41998
27.530001 -84.25 -671.26001
28.139999 -84.230003 -671.09998
28.75 -84.220001 -671
29.370001 -84.220001 -671.04999
29.98 -84.220001 -671.07001
30.610001 -84.260002 -671.34003
31.23 -84.279999 -671.46997
31.870001 -84.330002 -671.88
32.509998 -84.389999 -672.33002
33.150002 -84.449997 -672.87
33.779999 -84.480003 -673.03998
34.41 -84.510002 -673.29999
35.040001 -84.529999 -673.44
35.66 -84.540001 -673.54999
36.290001 -84.559998 -673.71997
36.91 -84.559998 -673.70001
37.529999 -84.57 -673.76001
38.139999 -84.550003 -673.65002
38.75 -84.540001 -673.54999
39.360001 -84.519997 -673.37
39.98 -84.519997 -673.33002
40.599998 -84.529999 -673.45001
41.23 -84.550003 -673.60999
41.860001 -84.57 -673.71997
42.48 -84.580002 -673.79999
43.110001 -84.589996 -673.95001
43.73 -84.599998 -673.97998
44.34 -84.580002 -673.84998
44.939999 -84.540001 -673.51001
45.52 -84.459999 -672.90002
46.110001 -84.410004 -672.52002
46.689999 -84.360001 -672.08002
47.299999 -84.339996 -671.92999
47.91 -84.330002 -671.87
48.540001 -84.339996 -671.95001
49.16 -84.349998 -672.01001
49.790001 -84.370003 -672.16998
50.439999 -84.440002 -672.71002
51.099998 -84.5 -673.19
51.77 -84.589996 -673.90997
52.48 -84.730003 -674.96002
53.23 -84.940002 -676.67999
53.959999 -85.110001 -677.94
54.650002 -85.220001 -678.81
55.310001 -85.269997 -679.21002
55.970001 -85.330002 -679.71002
56.650002 -85.410004 -680.31
57.330002 -85.489998 -680.96002
57.990002 -85.550003 -681.39001
58.68 -85.639999 -682.10999
59.349998 -85.699997 -682.59003
60.029999 -85.779999 -683.20001
60.700001 -85.839996 -683.72998
61.369999 -85.900002 -684.15002
62.060001 -85.989998 -684.84998
62.759998 -86.080002 -685.53998
63.450001 -86.150002 -686.15997
64.150002 -86.260002 -686.97998
64.82 -86.300003 -687.31
65.5 -86.379997 -687.90002
66.190002 -86.440002 -688.40002
66.860001 -86.489998 -688.78998
67.529999 -86.540001 -689.21002
68.18 -86.559998 -689.34003
68.849998 -86.599998 -689.69
69.510002 -86.639999 -689.94
70.199997 -86.709999 -690.53003
70.889999 -86.779999 -691.06
71.559998 -86.830002 -691.41998
72.239998 -86.879997 -691.81
72.919998 -86.93 -692.22998
73.610001 -86.989998 -692.73999
74.300003 -87.050003 -693.20001
74.980003 -87.110001 -693.63
75.660004 -87.150002 -693.98999
76.360001 -87.230003 -694.57001
77.07 -87.300003 -695.15002
77.75 -87.360001 -695.57001
78.43 -87.400002 -695.91998
79.139999 -87.480003 -696.53003
79.830002 -87.529999 -696.92999
80.519997 -87.589996 -697.37
81.139999 -87.57 -697.23999
81.760002 -87.540001 -697.03003
82.290001 -87.419998 -696.09003
82.699997 -87.18 -694.21002
83.150002 -86.989998 -692.65002
83.629997 -86.82 -691.34998
84.120003 -86.68 -690.22998
84.610001 -86.529999 -689.02002
85.139999 -86.419998 -688.16998
85.610001 -86.260002 -686.95001
86.110001 -86.129997 -685.89001
86.610001 -86 -684.90002
87.110001 -85.870003 -683.85999
87.629997 -85.760002 -683
88.150002 -85.660004 -682.21002
88.610001 -85.5 -680.94
89.139999 -85.410004 -680.25
89.629997 -85.279999 -679.22998
90.160004 -85.190002 -678.48999
90.660004 -85.07 -677.57001
91.190002 -84.989998 -676.89001
91.699997 -84.879997 -676.09998
92.220001 -84.800003 -675.40002
92.75 -84.709999 -674.72998
93.309998 -84.660004 -674.31
93.870003 -84.610001 -673.90002
94.440002 -84.559998 -673.51001
95 -84.510002 -673.12
95.550003 -84.449997 -672.65002
96.139999 -84.419998 -672.44
96.730003 -84.400002 -672.22998
97.300003 -84.360001 -671.96002
97.889999 -84.339996 -671.76001
98.489998 -84.32 -671.62
99.129997 -84.339996 -671.78998
99.739998 -84.330002 -671.73999
100.4 -84.370003 -671.98999
101.07 -84.410004 -672.33002
101.73 -84.449997 -672.66998
102.45 -84.529999 -673.26001
103.15 -84.599998 -673.78998
103.91 -84.709999 -674.69
104.67 -84.830002 -675.59003
105.48 -84.980003 -676.82001
106.29 -85.129997 -678.01001
107.22 -85.370003 -679.90997
-162.42 -78.93 -624.71997
-161.67999 -78.849998 -624.09003
-160.94 -78.760002 -623.44
-160.14 -78.650002 -622.58002
-159.36 -78.550003 -621.76001
-158.66 -78.489998 -621.28003
-158 -78.440002 -620.90997
-157.35001 -78.400002 -620.60999
-156.73 -78.370003 -620.40002
-156.17999 -78.379997 -620.46997
-155.62 -78.389999 -620.51001
-155.12 -78.43 -620.78998
-154.49001 -78.389999 -620.54999
-153.84 -78.349998 -620.20001
-153.28 -78.349998 -620.22998
-152.72 -78.360001 -620.28998
-152.17999 -78.370003 -620.38
-151.64 -78.389999 -620.52002
-151.11 -78.410004 -620.67999
-150.58 -78.43 -620.84998
-150.08 -78.470001 -621.12
-149.58 -78.510002 -621.40002
-149.07001 -78.540001 -621.63
-148.57001 -78.57 -621.94
-148.08 -78.620003 -622.27002
-147.60001 -78.660004 -622.64001
-147.09 -78.699997 -622.91998
-146.64 -78.760002 -623.40002
-146.16 -78.82 -623.81
-145.7 -78.870003 -624.25
-145.21001 -78.919998 -624.63
-144.78999 -79 -625.25
-144.33 -79.059998 -625.72998
-143.97 -79.18 -626.66998
-144.03999 -79.540001 -629.45001
-146.28999 -81.110001 -641.67999
-145.53 -81.010002 -640.95001
-144.87 -80.970001 -640.62
-144.24001 -80.949997 -640.46002
-143.5 -80.860001 -639.75
-138.13 -80.82 -639.40002
-137.55 -80.82 -639.42999
-136.99001 -80.830002 -639.53998
-136.39 -80.830002 -639.47998
-135.83 -80.839996 -639.59003
-135.3 -80.879997 -639.87
-134.75 -80.900002 -640.06
-134.22 -80.93 -640.33002
-133.64 -80.93 -640.33002
-133.05 -80.940002 -640.34998
-132.47 -80.940002 -640.35999
-131.86 -80.93 -640.28998
-131.25999 -80.919998 -640.22998
-130.67 -80.919998 -640.20001
-130.07001 -80.910004 -640.15997
-129.47 -80.900002 -640.09003
-128.88 -80.900002 -640.09998
-128.33 -80.93 -640.27002
-127.76 -80.93 -640.34003
-127.17 -80.940002 -640.34998
-126.54 -80.910004 -640.14001
-125.92 -80.889999 -639.98999
-125.31 -80.870003 -639.84998
-124.69 -80.849998 -639.71002
-124.05 -80.809998 -639.40002
-123.42 -80.790001 -639.17999
-122.81 -80.769997 -639.06
-122.16 -80.730003 -638.77002
-121.57 -80.730003 -638.71997
-120.95 -80.709999 -638.58002
-120.38 -80.720001 -638.65997
-119.78 -80.709999 -638.59998
-119.23 -80.739998 -638.78998
-118.71 -80.779999 -639.10999
-119.25 -81.550003 -645.15002
-122.6 -84.260002 -666.27002
-122.9 -84.889999 -671.19
-122.29 -84.889999 -671.20001
-121.7 -84.910004 -671.35999
-121.16 -84.970001 -671.81
-120.55 -84.970001 -671.85999
-119.97 -85 -672.03998
-119.38 -85.019997 -672.20001
-118.79 -85.029999 -672.33002
-118.21 -85.059998 -672.53998
-117.64 -85.089996 -672.79999
-117.05 -85.110001 -672.96002
-116.45 -85.129997 -673.07001
-115.87 -85.160004 -673.29999
-115.26 -85.160004 -673.34003
-114.61 -85.139999 -673.16998
-113.98 -85.139999 -673.15002
-113.32 -85.099998 -672.88
-112.68 -85.080002 -672.75
-112.03 -85.059998 -672.58002
-111.33 -85 -672.04999
-110.66 -84.949997 -671.73999
-109.99 -84.919998 -671.45001
-109.31 -84.870003 -671.03998
-108.58 -84.779999 -670.37
-107.84 -84.68 -669.59998
-107.07 -84.559998 -668.66998
-106.31 -84.440002 -667.75
-105.55 -84.330002 -666.87
-104.84 -84.25 -666.25
-104.12 -84.160004 -665.53003
-103.42 -84.080002 -664.96002
-102.76 -84.050003 -664.66998
-102.11 -84.019997 -664.45001
-101.49 -84.010002 -664.35999
-100.87 -84 -664.28998
-100.24 -83.980003 -664.15002
-99.629997 -83.980003 -664.15997
-99.010002 -83.970001 -664.08002
-98.379997 -83.949997 -663.95001
-97.709999 -83.900002 -663.58002
-97.050003 -83.860001 -663.23999
-90.57 -84.059998 -664.82001
-90.029999 -84.129997 -665.34998
-89.510002 -84.220001 -666.03003
-88.940002 -84.25 -666.32001
-88.339996 -84.269997 -666.44
-73.379997 -75.209999 -595.73999
-72.75 -75.120003 -595.07001
-72.139999 -75.050003 -594.52002
-71.529999 -74.980003 -594.03003
-70.919998 -74.910004 -593.45001
-70.330002 -74.870003 -593.13
-69.730003 -74.809998 -592.67999
-69.150002 -74.769997 -592.35999
-68.57 -74.730003 -592.06
-68 -74.699997 -591.83002
-67.440002 -74.68 -591.63
-66.870003 -74.650002 -591.42999
-66.309998 -74.629997 -591.28998
-65.75 -74.610001 -591.09998
-65.199997 -74.599998 -591.01001
-64.639999 -74.580002 -590.87
-64.099998 -74.57 -590.84998
-63.549999 -74.57 -590.78998
-63 -74.559998 -590.76001
-62.459999 -74.559998 -590.75
-61.939999 -74.580002 -590.90997
-61.41 -74.610001 -591.09998
-60.900002 -74.629997 -591.31
-60.380001 -74.669998 -591.58002
-59.880001 -74.720001 -591.96002
-59.360001 -74.739998 -592.16998
-58.869999 -74.809998 -592.70001
-58.369999 -74.879997 -593.21002
-43.48 -77.410004 -613
-42.849998 -77.279999 -612.04999
-42.220001 -77.160004 -611.09998
-41.610001 -77.059998 -610.29999
-41 -76.970001 -609.59003
-40.389999 -76.879997 -608.91998
-39.799999 -76.800003 -608.31
-39.200001 -76.730003 -607.76001
-38.610001 -76.669998 -607.27002
-38.009998 -76.580002 -606.54999
-37.419998 -76.510002 -606.04999
-36.82 -76.419998 -605.32001
-36.23 -76.349998 -604.79999
-35.630001 -76.239998 -603.90997
-35.02 -76.129997 -603.03998
-34.41 -76 -602.03998
-33.779999 -75.830002 -600.75
-33.16 -75.650002 -599.34003
-32.389999 -75.150002 -595.42999
-31.799999 -75.059998 -594.69
-31.23 -74.989998 -594.15002
-30.67 -74.940002 -593.78998
-30.1 -74.900002 -593.46002
-29.549999 -74.879997 -593.28003
-29 -74.860001 -593.15002
-28.450001 -74.830002 -592.89001
-27.9 -74.82 -592.84998
-27.35 -74.800003 -592.70001
-26.799999 -74.790001 -592.65002
-26.25 -74.760002 -592.40002
-25.709999 -74.769997 -592.45001
-25.17 -74.779999 -592.57001
-24.639999 -74.809998 -592.78003
-24.1 -74.82 -592.90002
-23.57 -74.860001 -593.21002
-23.02 -74.870003 -593.25
-22.48 -74.879997 -593.32001
-21.93 -74.849998 -593.10999
