# .PCD v0.7 - Point Cloud Data file format
VERSION 0.7
FIELDS x y z
SIZE 4 4 4
TYPE F F F
COUNT 1 1 1
WIDTH 1764
HEIGHT 1
VIEWPOINT 0 0 0 1 0 0 0
POINTS 1764
DATA ascii
59.259998 27.799999 -668.06
59.91 27.82 -668.41998
60.580002 27.84 -669
61.25 27.870001 -669.64001
61.919998 27.9 -670.28998
62.66 27.950001 -671.57001
63.380001 28 -672.62
64.07 28.030001 -673.37
64.75 28.049999 -673.96997
65.410004 28.07 -674.41998
66.040001 28.08 -674.58002
66.699997 28.09 -674.91998
67.339996 28.1 -675.12
68.010002 28.120001 -675.59998
68.669998 28.139999 -676.01001
69.339996 28.16 -676.46997
70.010002 28.18 -676.96002
70.699997 28.209999 -677.59003
71.379997 28.23 -678.14001
72.07 28.26 -678.71002
72.739998 28.27 -679.15002
73.43 28.299999 -679.78998
74.129997 28.33 -680.47998
74.830002 28.360001 -681.12
75.529999 28.389999 -681.79999
76.239998 28.42 -682.51001
76.910004 28.43 -682.90997
77.610001 28.459999 -683.52002
78.290001 28.48 -683.94
78.919998 28.48 -683.96997
79.5 28.459999 -683.60999
79.989998 28.41 -682.45001
80.419998 28.35 -680.79999
80.82 28.27 -678.89001
81.279999 28.209999 -677.57001
81.779999 28.17 -676.52002
82.290001 28.129999 -675.65997
82.760002 28.08 -674.42999
83.230003 28.030001 -673.20001
83.669998 27.969999 -671.81
84.089996 27.9 -670.25
84.5 27.83 -668.63
84.959999 27.790001 -667.48999
85.389999 27.719999 -666.02002
85.849998 27.67 -664.87
86.309998 27.629999 -663.72998
86.82 27.59 -662.95001
87.300003 27.559999 -662.06
87.830002 27.530001 -661.41998
88.349998 27.5 -660.82001
88.870003 27.48 -660.15997
89.400002 27.450001 -659.58002
89.93 27.43 -659.04999
90.449997 27.41 -658.46997
90.989998 27.389999 -657.98999
91.540001 27.370001 -657.56
92.089996 27.35 -657.20001
92.639999 27.34 -656.84003
93.209999 27.33 -656.63
93.779999 27.32 -656.34998
94.349998 27.309999 -656.10999
94.919998 27.299999 -655.88
95.510002 27.299999 -655.83002
96.089996 27.290001 -655.67999
96.690002 27.290001 -655.67999
97.309998 27.290001 -655.73999
97.940002 27.299999 -655.95001
98.589996 27.309999 -656.23999
99.230003 27.32 -656.51001
99.919998 27.35 -657.07001
100.63 27.379999 -657.75
101.33 27.4 -658.35999
102.09 27.440001 -659.33002
102.88 27.49 -660.51001
103.72 27.559999 -661.98999
104.74 27.66 -664.53998
105.81 27.790001 -667.41998
-168.03 26.379999 -647.97998
-167.46001 26.379999 -648.07001
-166.74001 26.360001 -647.62
-166.14999 26.360001 -647.62
-165.50999 26.360001 -647.46997
-164.97 26.360001 -647.66998
-164.52 26.389999 -648.21997
-164.05 26.41 -648.71997
-163.45 26.41 -648.70001
-162.67999 26.379999 -648.03003
-161.96001 26.360001 -647.5
-161.25 26.34 -647.08002
-160.63 26.34 -646.95001
-160.00999 26.33 -646.87
-159.42 26.33 -646.85999
-158.82001 26.33 -646.83002
-158.24001 26.33 -646.91998
-157.67999 26.34 -647.03003
-157.10001 26.34 -647.09998
-156.53999 26.35 -647.23999
-156.02 26.360001 -647.53998
-155.48 26.370001 -647.77002
-154.89999 26.370001 -647.81
-154.28999 26.370001 -647.77002
-153.69 26.370001 -647.75
-153.10001 26.370001 -647.75
-152.50999 26.370001 -647.78998
-151.95 26.379999 -647.92999
-151.35001 26.370001 -647.90997
-150.75 26.370001 -647.90997
-150.19 26.379999 -648.03998
-149.63 26.389999 -648.20001
-149.05 26.389999 -648.26001
-148.49001 26.389999 -648.40002
-147.91 26.4 -648.48999
-147.36 26.41 -648.65997
-146.81 26.41 -648.88
-146.28 26.43 -649.15997
-145.73 26.43 -649.35999
-145.19 26.450001 -649.64001
-144.67 26.459999 -649.96997
-144.14999 26.469999 -650.32001
-143.64999 26.49 -650.76001
-143.14 26.51 -651.12
-142.64999 26.530001 -651.64001
-142.17999 26.549999 -652.21002
-141.7 26.57 -652.73999
-141.22 26.6 -653.28998
-140.77 26.620001 -653.97998
-140.32001 26.65 -654.66998
-139.88 26.68 -655.40997
-139.42999 26.709999 -656.10999
-139.00999 26.75 -657
-138.56 26.780001 -657.69
-138.12 26.809999 -658.46997
-137.67 26.84 -659.21002
-137.25 26.879999 -660.09998
-136.8 26.91 -660.82001
-136.35001 26.940001 -661.56
-135.89 26.969999 -662.28998
-135.39 26.99 -662.84003
-134.84 27 -663.10999
-134.25999 27.01 -663.26001
-133.67 27.01 -663.34998
-133.03999 27.01 -663.26001
-132.44 27.01 -663.31
-131.86 27.01 -663.46997
-131.28999 27.02 -663.65997
-130.74001 27.030001 -663.96002
-130.22 27.049999 -664.38
-129.67999 27.07 -664.72998
-129.11 27.08 -664.96997
-128.57001 27.09 -665.34003
-128 27.1 -665.54999
-127.47 27.120001 -665.95001
-126.88 27.120001 -666.08002
-126.32 27.129999 -666.35999
-125.73 27.139999 -666.47998
-125.16 27.15 -666.71002
-124.59 27.15 -666.89001
-124.01 27.16 -667.09998
-123.42 27.17 -667.20001
-122.87 27.18 -667.56
-122.26 27.18 -667.58002
-121.68 27.190001 -667.73999
-121.1 27.200001 -667.91998
-120.5 27.200001 -668.01001
-119.91 27.209999 -668.16998
-119.33 27.209999 -668.34998
-118.72 27.219999 -668.39001
-118.13 27.219999 -668.52002
-117.54 27.219999 -668.62
-116.94 27.23 -668.69
-116.33 27.23 -668.72998
-115.72 27.23 -668.78003
-115.11 27.23 -668.78998
-114.48 27.23 -668.70001
-113.84 27.219999 -668.53998
-113.19 27.209999 -668.34003
-112.06 27.09 -665.31
-110.36 26.82 -658.94
-109.23 26.700001 -655.82001
-108.42 26.639999 -654.57001
-107.69 26.610001 -653.82001
-107 26.59 -653.28003
-106.36 26.58 -653.02002
-105.74 26.57 -652.90002
-105.14 26.58 -652.92999
-104.54 26.58 -652.92999
-103.94 26.57 -652.90002
-103.34 26.57 -652.90002
-102.76 26.58 -653.01001
-102.17 26.58 -653.07001
-101.57 26.58 -653.09003
-100.96 26.58 -653.03998
-100.36 26.58 -653.02002
-99.739998 26.57 -652.90002
-99.120003 26.57 -652.76001
-98.480003 26.559999 -652.48999
-97.849998 26.549999 -652.28003
-97.18 26.530001 -651.81
-96.559998 26.52 -651.66998
-95.879997 26.5 -651.16998
-95.239998 26.49 -650.87
-94.580002 26.469999 -650.48999
-93.949997 26.459999 -650.21997
-93.290001 26.450001 -649.83002
-92.660004 26.440001 -649.58002
-92.050003 26.43 -649.51001
-91.419998 26.42 -649.25
-90.809998 26.42 -649.14001
-90.209999 26.42 -649.15002
-89.599998 26.41 -649.06
-89.010002 26.41 -649.06
-88.410004 26.41 -649.03998
-87.82 26.41 -649.09003
-87.230003 26.42 -649.13
-86.639999 26.42 -649.21002
-86.059998 26.42 -649.34003
-85.480003 26.43 -649.40002
-84.879997 26.43 -649.40997
-84.290001 26.43 -649.46002
-83.68 26.42 -649.35999
-83.080002 26.42 -649.33002
-82.480003 26.42 -649.29999
-81.879997 26.42 -649.22998
-81.269997 26.41 -649.12
-80.639999 26.41 -648.91998
-80.029999 26.4 -648.81
-79.410004 26.389999 -648.60999
-78.800003 26.389999 -648.46002
-78.199997 26.379999 -648.40002
-77.599998 26.379999 -648.38
-76.980003 26.379999 -648.21997
-76.370003 26.370001 -648.08002
-75.760002 26.370001 -647.96002
-75.169998 26.370001 -647.96002
-73.900002 26.129999 -642.21002
-65.540001 23.360001 -575.06
-64.360001 23.120001 -569.40002
-63.82 23.120001 -569.26001
-63.299999 23.120001 -569.22998
-62.790001 23.120001 -569.35999
-62.279999 23.129999 -569.46002
-61.790001 23.139999 -569.75
-61.32 23.16 -570.16998
-61.259998 23.33 -574.52002
-60.830002 23.370001 -575.42999
-60.310001 23.370001 -575.46997
-59.810001 23.389999 -575.76001
-59.310001 23.389999 -575.94
-58.950001 23.459999 -577.60999
-59.689999 23.969999 -589.95001
-59.970001 24.299999 -598.03998
-59.400002 24.299999 -597.84998
-58.82 24.280001 -597.48999
-58.220001 24.26 -597.02002
-57.66 24.25 -596.84998
-57.080002 24.24 -596.53998
-56.52 24.23 -596.37
-55.959999 24.23 -596.27002
-55.419998 24.23 -596.34003
-54.889999 24.24 -596.5
-54.369999 24.25 -596.82001
-53.919998 24.299999 -597.88
-53.57 24.379999 -600
-53.09 24.42 -600.79999
-52.580002 24.43 -601.22998
-52.07 24.459999 -601.76001
-51.59 24.49 -602.60999
-54.169998 26.280001 -645.95001
-53.700001 26.34 -647.40997
-53.18 26.370001 -648.21997
-33.279999 23.65 -582.22998
-32.419998 23.41 -576.51001
-31.799999 23.34 -574.81
-31.24 23.32 -574.32001
-30.700001 23.309999 -573.92999
-30.15 23.290001 -573.60999
-29.610001 23.280001 -573.29999
-29.08 23.27 -573.12
-28.549999 23.27 -573.14001
-28.030001 23.280001 -573.26001
-27.51 23.280001 -573.32001
-26.98 23.280001 -573.26001
-26.450001 23.27 -573.10999
-25.93 23.27 -573.12
-25.41 23.280001 -573.23999
-24.9 23.290001 -573.65002
-24.42 23.33 -574.64001
-23.889999 23.33 -574.53998
-23.33 23.299999 -573.85999
-22.77 23.27 -573.02002
-22.219999 23.24 -572.35999
-21.67 23.219999 -571.77002
-21.139999 23.209999 -571.56
-20.620001 23.209999 -571.56
-20.09 23.200001 -571.48999
-19.57 23.209999 -571.53998
-19.049999 23.209999 -571.52002
-18.52 23.209999 -571.53998
-18 23.209999 -571.67999
-17.48 23.219999 -571.78998
-16.969999 23.219999 -571.96997
-16.450001 23.23 -572.21997
-15.93 23.25 -572.51001
-15.42 23.26 -572.85999
-14.91 23.280001 -573.27002
-14.39 23.299999 -573.72998
-13.88 23.32 -574.39001
-13.37 23.34 -574.85999
-12.85 23.360001 -575.39001
-12.34 23.389999 -575.91998
-11.82 23.41 -576.37
-11.3 23.43 -576.92999
-10.79 23.469999 -578.02002
-10.29 23.530001 -579.35999
-9.8299999 23.709999 -583.76001
-10.04 27.16 -667.46002
-9.4300003 27.16 -667.42999
-8.8000002 27.110001 -666.29999
-8.1800003 27.09 -665.82001
-7.5900002 27.16 -667.47998
-7 27.24 -669.27002
-6.3899999 27.280001 -670.32001
-5.7800002 27.299999 -670.78998
-5.1700001 27.309999 -671.09998
-4.5500002 27.32 -671.28003
-3.9400001 27.33 -671.54999
-3.3199999 27.34 -671.67999
-2.7 27.34 -671.76001
-2.0899999 27.32 -671.33002
-1.47 27.280001 -670.34003
-0.85000002 27.23 -669.17999
-0.23999999 27.190001 -668.13
0.38 27.15 -667.22998
0.99000001 27.110001 -666.33002
1.6 27.08 -665.42999
2.2 27.040001 -664.56
2.8099999 27.01 -663.90002
3.4200001 26.98 -663.04999
4.02 26.959999 -662.63
4.6300001 26.93 -661.73999
5.23 26.9 -661.22998
5.8299999 26.870001 -660.5
6.4299998 26.85 -659.96002
7.0300002 26.83 -659.33002
7.6300001 26.809999 -658.96997
8.2299995 26.799999 -658.58002
8.8299999 26.790001 -658.40002
9.4300003 26.77 -657.95001
10.03 26.76 -657.63
10.63 26.74 -657.34998
11.23 26.74 -657.15997
11.83 26.73 -656.91998
12.42 26.719999 -656.71997
13.02 26.709999 -656.56
13.62 26.709999 -656.42999
14.22 26.690001 -655.96997
14.8 26.66 -655.23999
15.38 26.620001 -654.32001
15.98 26.610001 -654.04999
16.57 26.6 -653.75
17.16 26.58 -653.46997
17.75 26.58 -653.28998
18.35 26.57 -653.02002
18.940001 26.559999 -652.81
19.540001 26.549999 -652.69
20.139999 26.549999 -652.71997
20.73 26.549999 -652.66998
21.33 26.549999 -652.71002
21.93 26.549999 -652.72998
22.540001 26.559999 -652.96997
23.139999 26.57 -653.10999
23.75 26.58 -653.22998
24.360001 26.59 -653.48999
24.959999 26.59 -653.66998
25.58 26.610001 -653.96002
26.190001 26.620001 -654.25
26.799999 26.629999 -654.46997
27.42 26.65 -654.96002
28.040001 26.66 -655.29999
28.65 26.67 -655.63
29.26 26.68 -655.83002
29.870001 26.690001 -656.04999
30.5 26.709999 -656.46002
31.110001 26.719999 -656.79999
31.74 26.74 -657.17999
32.360001 26.75 -657.56
32.98 26.77 -658
33.610001 26.790001 -658.41998
34.240002 26.809999 -658.91998
34.880001 26.84 -659.57001
35.52 26.860001 -660.17999
36.16 26.889999 -660.77002
36.790001 26.91 -661.28998
37.43 26.93 -661.83002
38.049999 26.940001 -662.07001
38.669998 26.950001 -662.23999
39.299999 26.959999 -662.53998
39.91 26.959999 -662.59998
40.529999 26.969999 -662.85999
41.139999 26.98 -662.88
41.759998 26.98 -663.01001
42.369999 26.98 -663.04999
42.990002 26.99 -663.15002
43.599998 26.99 -663.27002
44.209999 26.99 -663.28003
44.830002 27 -663.40997
45.450001 27 -663.53998
46.060001 27 -663.52002
46.669998 27.01 -663.60999
47.290001 27.01 -663.70001
47.91 27.01 -663.81
48.529999 27.02 -664.04999
49.150002 27.030001 -664.13
49.77 27.030001 -664.29999
50.400002 27.040001 -664.46997
51.02 27.049999 -664.62
51.650002 27.059999 -664.85999
52.279999 27.07 -665.13
52.91 27.08 -665.37
53.549999 27.1 -665.75
54.189999 27.110001 -666.14001
54.849998 27.129999 -666.66998
55.490002 27.15 -667.03003
56.150002 27.17 -667.52002
56.779999 27.18 -667.73999
57.41 27.190001 -667.91998
58.040001 27.190001 -668.09003
58.68 27.209999 -668.40002
59.32 27.219999 -668.65997
59.970001 27.23 -669.06
60.630001 27.26 -669.60999
61.310001 27.280001 -670.28003
62.02 27.33 -671.31
62.759998 27.379999 -672.58002
63.459999 27.41 -673.46997
64.139999 27.440001 -674.13
64.82 27.469999 -674.76001
65.489998 27.49 -675.26001
66.129997 27.5 -675.45001
66.769997 27.5 -675.63
67.440002 27.530001 -676.13
68.110001 27.549999 -676.60999
68.779999 27.559999 -677.06
69.459999 27.59 -677.66998
70.150002 27.610001 -678.22998
70.830002 27.639999 -678.84003
71.510002 27.66 -679.37
72.209999 27.690001 -680.04999
72.910004 27.719999 -680.77002
73.620003 27.75 -681.48999
74.32 27.780001 -682.15997
75.029999 27.809999 -682.96002
75.730003 27.83 -683.53003
76.449997 27.870001 -684.34003
77.120003 27.879999 -684.78003
77.830002 27.91 -685.40002
78.489998 27.92 -685.66998
79.089996 27.91 -685.44
79.68 27.9 -685.12
80.160004 27.85 -683.88
80.589996 27.780001 -682.22998
80.959999 27.690001 -680.07001
81.389999 27.620001 -678.42999
81.860001 27.57 -677.21997
82.349998 27.530001 -676.14001
82.839996 27.48 -675.07001
83.330002 27.440001 -674.04999
83.790001 27.389999 -672.75
84.209999 27.33 -671.21997
84.620003 27.26 -669.59003
85.059998 27.200001 -668.21002
85.480003 27.139999 -666.77002
85.959999 27.1 -665.72998
86.379997 27.040001 -664.25
86.860001 27 -663.28003
87.349998 26.959999 -662.39001
87.860001 26.93 -661.65997
88.360001 26.9 -660.88
88.919998 26.879999 -660.5
89.43 26.860001 -659.79999
89.949997 26.83 -659.22998
90.480003 26.809999 -658.64001
91.029999 26.790001 -658.25
91.57 26.77 -657.81
92.120003 26.76 -657.40997
92.68 26.75 -657.14001
93.260002 26.74 -656.94
93.800003 26.719999 -656.53003
94.389999 26.719999 -656.41998
94.959999 26.709999 -656.17999
95.540001 26.700001 -656.03003
96.129997 26.700001 -655.90997
96.75 26.700001 -656.06
97.349998 26.700001 -656.07001
97.989998 26.709999 -656.28003
98.620003 26.719999 -656.46997
99.300003 26.74 -656.94
99.949997 26.75 -657.29999
100.65 26.780001 -657.90002
101.38 26.809999 -658.71997
102.12 26.85 -659.56
102.9 26.889999 -660.65002
103.77 26.959999 -662.34003
104.8 27.07 -664.96002
105.7 27.139999 -666.71997
-169.07001 25.76 -647.40997
-168.64999 25.790001 -648.08002
-167.81 25.75 -647.16998
-167.28 25.76 -647.39001
-166.69 25.76 -647.41998
-166.11 25.76 -647.46002
-165.48 25.76 -647.34998
-164.5 25.790001 -648.14001
-163.39999 25.799999 -648.47998
-162.61 25.77 -647.72998
-161.86 25.75 -647.12
-161.17 25.73 -646.76001
-160.53 25.719999 -646.54999
-159.94 25.73 -646.58002
-159.35001 25.73 -646.59003
-158.75999 25.73 -646.59998
-158.17 25.73 -646.60999
-157.61 25.73 -646.75
-157.03999 25.74 -646.84003
-156.49001 25.74 -647.01001
-155.97 25.76 -647.32001
-155.39 25.76 -647.39001
-154.81 25.76 -647.46002
-154.22 25.76 -647.46997
-153.63 25.76 -647.48999
-153.03 25.76 -647.46002
-152.42 25.76 -647.40002
-151.86 25.77 -647.54999
-151.27 25.77 -647.56
-150.69 25.77 -647.65997
-150.13 25.77 -647.77002
-149.55 25.780001 -647.84998
-148.98 25.780001 -647.95001
-148.39999 25.780001 -648.03998
-147.86 25.790001 -648.23999
-147.31 25.799999 -648.45001
-146.75999 25.809999 -648.65002
-146.19 25.809999 -648.76001
-145.66 25.83 -649.07001
-145.13 25.84 -649.34998
-144.60001 25.85 -649.65002
-144.07001 25.860001 -649.96002
-143.57001 25.879999 -650.38
-143.09 25.9 -650.89001
-142.60001 25.92 -651.41998
-142.10001 25.940001 -651.85999
-141.64 25.959999 -652.45001
-141.13 25.98 -652.88
-140.67999 26.01 -653.54999
-140.22 26.030001 -654.20001
-139.78999 26.059999 -655
-139.36 26.1 -655.78998
-138.91 26.129999 -656.51001
-138.47 26.16 -657.28003
-138.05 26.190001 -658.13
-137.61 26.219999 -658.92999
-137.19 26.26 -659.79999
-136.74001 26.290001 -660.54999
-136.3 26.32 -661.35999
-135.85001 26.35 -662.12
-135.35001 26.370001 -662.60999
-134.84 26.389999 -663.10999
-134.28999 26.4 -663.39001
-133.71001 26.41 -663.53998
-133.07001 26.4 -663.41998
-132.46001 26.4 -663.39001
-131.86 26.4 -663.45001
-131.32001 26.42 -663.77002
-130.75999 26.43 -664.03003
-130.19 26.440001 -664.25
-129.67 26.459999 -664.71002
-129.11 26.469999 -664.96997
-128.56 26.48 -665.28003
-127.99 26.49 -665.51001
-127.44 26.5 -665.82001
-126.87 26.51 -666.03998
-126.3 26.52 -666.25
-125.74 26.530001 -666.51001
-125.16 26.530001 -666.71002
-124.58 26.540001 -666.88
-124.01 26.549999 -667.09003
-123.44 26.559999 -667.32001
-122.86 26.57 -667.5
-122.29 26.58 -667.72998
-121.7 26.58 -667.85999
-121.11 26.59 -668.01001
-120.52 26.59 -668.12
-119.92 26.59 -668.21002
-119.32 26.6 -668.29999
-118.73 26.6 -668.40002
-118.13 26.610001 -668.51001
-117.53 26.610001 -668.57001
-116.93 26.610001 -668.66998
-116.32 26.610001 -668.70001
-115.73 26.620001 -668.84003
-115.12 26.620001 -668.84998
-114.47 26.610001 -668.67999
-113.79 26.6 -668.27002
-113.1 26.58 -667.84998
-111.99 26.459999 -664.94
-110.4 26.23 -659.17999
-109.32 26.110001 -656.33002
-108.47 26.059999 -654.89001
-107.74 26.030001 -654.14001
-107.03 26 -653.44
-106.38 25.99 -653.17999
-105.75 25.98 -652.98999
-105.14 25.969999 -652.89001
-104.54 25.98 -652.90997
-103.93 25.969999 -652.83002
-103.37 25.98 -653.08002
-102.75 25.98 -652.96997
-102.16 25.98 -653.01001
-101.55 25.98 -652.97998
-100.91 25.969999 -652.69
-100.27 25.959999 -652.44
-99.639999 25.950001 -652.22998
-98.970001 25.93 -651.78998
-98.290001 25.91 -651.28998
-97.639999 25.889999 -650.91998
-96.959999 25.870001 -650.40002
-96.309998 25.860001 -650.02002
-85.860001 25.77 -647.84003
-85.290001 25.77 -647.96997
-84.699997 25.780001 -648.06
-84.110001 25.780001 -648.09003
-83.57 25.790001 -648.48999
-82.970001 25.790001 -648.47998
-82.400002 25.799999 -648.70001
-81.82 25.799999 -648.78003
-81.209999 25.799999 -648.70001
-80.620003 25.799999 -648.73999
-80.029999 25.799999 -648.75
-79.419998 25.799999 -648.65997
-78.800003 25.790001 -648.44
-78.199997 25.790001 -648.40002
-77.589996 25.790001 -648.32001
-76.980003 25.780001 -648.15997
-76.370003 25.77 -648.03003
-75.75 25.77 -647.88
-75.150002 25.76 -647.82001
-74.010002 25.57 -643.09998
-65.5 22.82 -574.69
-64.360001 22.6 -569.38
-63.82 22.59 -569.20001
-63.299999 22.6 -569.26001
-62.790001 22.6 -569.34003
-62.290001 22.610001 -569.5
-61.799999 22.620001 -569.79999
-61.369999 22.65 -570.67999
-61.34 22.84 -575.23999
-60.84 22.85 -575.48999
-60.32 22.85 -575.51001
-59.810001 22.860001 -575.71997
-59.32 22.870001 -576.08002
-59.150002 23.01 -579.57001
-59.98 23.76 -598.13
-59.380001 23.74 -597.65997
-58.799999 23.73 -597.33002
-58.220001 23.709999 -596.94
-57.639999 23.700001 -596.62
-57.060001 23.690001 -596.34003
-56.509998 23.68 -596.22998
-55.939999 23.68 -596.04999
-55.41 23.68 -596.15002
-54.869999 23.68 -596.27002
-54.349998 23.700001 -596.56
-53.869999 23.73 -597.34003
-53.549999 23.83 -599.84998
-53.080002 23.860001 -600.69
-52.560001 23.870001 -601.02002
-52.049999 23.889999 -601.5
-51.57 23.93 -602.28998
-51.560001 24.18 -608.65997
-53.439999 25.34 -637.28003
-53.669998 25.73 -647
-53.139999 25.76 -647.72998
-33.32 23.139999 -582.84003
-32.450001 22.91 -577.03003
-31.799999 22.82 -574.88
-31.25 22.799999 -574.42999
-30.700001 22.780001 -573.97998
-30.16 22.77 -573.75
-29.620001 22.76 -573.47998
-29.09 22.76 -573.33002
-28.559999 22.75 -573.27002
-28.040001 22.76 -573.33002
-27.52 22.76 -573.44
-26.99 22.76 -573.31
-26.450001 22.75 -573.09998
-25.93 22.75 -573.15002
-25.43 22.77 -573.70001
-24.93 22.799999 -574.39001
-24.4 22.799999 -574.33002
-23.860001 22.780001 -573.96997
-23.309999 22.76 -573.34998
-22.77 22.74 -572.90002
-22.23 22.719999 -572.53998
-21.68 22.700001 -571.90002
-21.15 22.690001 -571.70001
-20.620001 22.690001 -571.59998
-20.1 22.690001 -571.62
-19.57 22.690001 -571.62
-19.049999 22.690001 -571.71997
-18.530001 22.690001 -571.75
-18.01 22.690001 -571.78003
-17.49 22.700001 -571.90002
-16.969999 22.709999 -572.13
-16.450001 22.719999 -572.34998
-15.94 22.73 -572.65002
-15.42 22.74 -572.96002
-14.91 22.76 -573.42999
-14.4 22.780001 -573.90997
-13.88 22.799999 -574.45001
-13.37 22.82 -574.96002
-12.86 22.84 -575.5
-12.34 22.860001 -576.06
-11.82 22.879999 -576.52002
-11.31 22.91 -577.09003
-10.8 22.950001 -578.20001
-10.3 23.030001 -580.08002
-9.8400002 23.18 -583.95001
-10.03 26.52 -666.79999
-9.3999996 26.49 -665.90002
-8.7700005 26.43 -664.51001
-8.1700001 26.450001 -664.91998
-7.5799999 26.530001 -666.90002
-6.9899998 26.59 -668.39001
-6.3899999 26.66 -670.17999
-5.7800002 26.690001 -670.95001
-5.1700001 26.709999 -671.48999
-4.5500002 26.719999 -671.75
-3.9400001 26.73 -672.07001
-3.3199999 26.74 -672.23999
-2.71 26.74 -672.26001
-2.0899999 26.74 -672.15002
-1.47 26.700001 -671.12
-0.85000002 26.65 -669.89001
-0.23999999 26.610001 -668.84998
0.38 26.57 -667.90997
0.99000001 26.530001 -666.95001
1.6 26.49 -665.96002
2.21 26.459999 -665.17999
2.8099999 26.43 -664.52002
3.4200001 26.389999 -663.63
4.0300002 26.370001 -663.03998
4.6300001 26.34 -662.29999
5.23 26.309999 -661.62
5.8299999 26.290001 -660.92999
6.4299998 26.26 -660.39001
7.0300002 26.24 -659.82001
7.6300001 26.219999 -659.33002
8.2399998 26.209999 -659.03003
8.8299999 26.190001 -658.65997
9.4300003 26.18 -658.27002
10.03 26.17 -658.03003
10.63 26.15 -657.66998
11.23 26.15 -657.47998
11.83 26.139999 -657.20001
12.43 26.129999 -656.98999
13.03 26.120001 -656.87
13.63 26.110001 -656.67999
14.23 26.1 -656.38
14.82 26.08 -655.84003
15.4 26.049999 -654.96997
15.98 26.02 -654.40997
16.58 26.01 -654.09003
17.17 26 -653.90997
17.77 26 -653.76001
18.360001 25.99 -653.53998
18.959999 25.98 -653.38
19.549999 25.969999 -653.15002
20.15 25.969999 -653.07001
20.74 25.969999 -652.98999
21.35 25.969999 -653.10999
21.950001 25.969999 -653.19
22.549999 25.98 -653.31
23.16 25.99 -653.46997
23.77 26 -653.73999
24.370001 26 -653.92999
24.98 26.01 -653.97998
25.58 26.01 -654.17999
26.200001 26.030001 -654.56
26.809999 26.040001 -654.85999
27.43 26.059999 -655.23999
28.049999 26.07 -655.60999
28.66 26.09 -655.92999
29.280001 26.09 -656.14001
29.9 26.110001 -656.53003
30.51 26.120001 -656.84998
31.129999 26.139999 -657.19
31.75 26.15 -657.56
32.380001 26.17 -658
33 26.18 -658.34998
33.639999 26.209999 -658.96002
34.27 26.23 -659.48999
34.91 26.25 -660.06
35.549999 26.280001 -660.66998
36.18 26.299999 -661.23999
36.82 26.32 -661.78003
37.459999 26.34 -662.23999
38.080002 26.35 -662.46002
38.700001 26.360001 -662.72998
39.32 26.370001 -662.92999
39.93 26.370001 -663
40.549999 26.370001 -663.08002
41.16 26.379999 -663.14001
41.779999 26.379999 -663.32001
42.400002 26.389999 -663.40997
43.009998 26.389999 -663.54999
43.619999 26.389999 -663.57001
44.240002 26.4 -663.59998
44.849998 26.4 -663.69
45.459999 26.4 -663.76001
46.080002 26.41 -663.84998
46.689999 26.41 -663.89001
47.310001 26.41 -664
47.939999 26.42 -664.20001
48.560001 26.43 -664.34003
49.18 26.43 -664.47998
49.810001 26.440001 -664.78998
50.419998 26.450001 -664.83002
51.049999 26.459999 -665.09003
51.68 26.469999 -665.31
52.32 26.48 -665.59003
52.950001 26.49 -665.87
53.59 26.51 -666.28003
54.23 26.52 -666.63
54.900002 26.540001 -667.21997
55.540001 26.559999 -667.59998
56.200001 26.58 -668.08002
56.830002 26.59 -668.28003
57.450001 26.59 -668.38
58.080002 26.6 -668.58002
58.720001 26.610001 -668.83002
59.360001 26.620001 -669.17999
60.02 26.639999 -669.65002
60.689999 26.67 -670.27002
61.389999 26.700001 -671.16998
62.099998 26.75 -672.21002
62.84 26.799999 -673.51001
63.52 26.82 -674.07001
64.230003 26.860001 -675.06
64.919998 26.889999 -675.78998
65.589996 26.91 -676.26001
66.220001 26.91 -676.35999
66.879997 26.93 -676.78998
67.550003 26.950001 -677.16998
68.230003 26.969999 -677.78003
68.889999 26.99 -678.14001
69.580002 27.01 -678.83002
70.279999 27.040001 -679.51001
70.959999 27.059999 -680.08002
71.660004 27.09 -680.72998
72.389999 27.129999 -681.71002
73.089996 27.16 -682.39001
73.839996 27.200001 -683.51001
74.529999 27.23 -684.07001
75.230003 27.25 -684.73999
75.879997 27.26 -684.90997
76.57 27.280001 -685.45001
77.220001 27.290001 -685.63
77.940002 27.32 -686.40997
78.629997 27.34 -686.90002
79.269997 27.34 -686.98999
79.809998 27.309999 -686.21002
80.290001 27.26 -684.96997
80.739998 27.200001 -683.40002
81.099998 27.110001 -681.22998
81.519997 27.040001 -679.53998
81.959999 26.98 -678
82.43 26.93 -676.78998
82.900002 26.879999 -675.56
83.389999 26.84 -674.51001
83.870003 26.799999 -673.40997
84.339996 26.75 -672.22998
84.739998 26.68 -670.56
85.169998 26.620001 -669.07001
85.599998 26.57 -667.69
86.029999 26.51 -666.28003
86.449997 26.450001 -664.78998
86.93 26.41 -663.84998
87.410004 26.370001 -662.85999
87.889999 26.34 -661.91998
88.400002 26.299999 -661.15002
88.949997 26.290001 -660.71002
89.449997 26.26 -659.96997
89.989998 26.24 -659.45001
90.510002 26.209999 -658.90002
91.07 26.200001 -658.53998
91.610001 26.18 -658.06
92.160004 26.17 -657.69
92.709999 26.15 -657.33002
93.279999 26.139999 -657.09003
93.849998 26.129999 -656.84003
94.410004 26.120001 -656.53998
95 26.120001 -656.42999
95.580002 26.110001 -656.32001
96.169998 26.110001 -656.22998
96.779999 26.110001 -656.25
97.400002 26.110001 -656.38
98.010002 26.110001 -656.39001
98.669998 26.129999 -656.78003
99.330002 26.15 -657.15002
100 26.16 -657.59003
100.69 26.190001 -658.15002
101.43 26.219999 -658.98999
102.16 26.25 -659.77002
102.95 26.299999 -660.97998
103.81 26.370001 -662.59003
104.87 26.48 -665.40997
-169.03 25.16 -647.27002
-168.27 25.129999 -646.64001
-167.67999 25.139999 -646.65997
-167.14 25.139999 -646.84998
-166.67 25.16 -647.34998
-166.02 25.15 -647.14001
-165.60001 25.18 -647.78998
-164.88 25.16 -647.32001
-164 25.209999 -648.52002
-163.34 25.200001 -648.26001
-162.53 25.16 -647.40002
-161.8 25.139999 -646.90002
-161.11 25.129999 -646.52002
-160.5 25.129999 -646.45001
-159.89999 25.129999 -646.40002
-159.28999 25.120001 -646.35999
-158.71001 25.129999 -646.41998
-158.14 25.129999 -646.47998
-157.57001 25.129999 -646.58002
-156.99001 25.139999 -646.65002
-156.45 25.139999 -646.89001
-155.89 25.15 -647
-155.34 25.16 -647.19
-154.74001 25.16 -647.16998
-154.14999 25.16 -647.20001
-153.56 25.16 -647.19
-152.97 25.16 -647.21002
-152.39 25.16 -647.27002
-151.78 25.16 -647.22998
-151.21001 25.16 -647.33002
-150.64 25.16 -647.40002
-150.03999 25.16 -647.38
-149.47 25.17 -647.5
-148.92 25.18 -647.70001
-148.35001 25.18 -647.81
-147.8 25.190001 -648
-147.24001 25.190001 -648.14001
-146.69 25.200001 -648.37
-146.16 25.209999 -648.62
-145.61 25.219999 -648.84998
-145.07001 25.23 -649.10999
-144.56 25.25 -649.46002
-144.03999 25.26 -649.83002
-143.52 25.27 -650.15997
-143.02 25.290001 -650.58002
-142.55 25.309999 -651.17999
-142.03999 25.33 -651.59003
-141.55 25.35 -652.08002
-141.09 25.370001 -652.69
-140.62 25.4 -653.28003
-140.17999 25.42 -654.01001
-139.73 25.450001 -654.71997
-139.25999 25.48 -655.34998
-138.87 25.51 -656.31
-138.41 25.540001 -656.98999
-137.98 25.57 -657.84003
-137.53999 25.6 -658.59003
-137.14999 25.639999 -659.59003
-136.69 25.67 -660.29999
-136.25999 25.709999 -661.15997
-135.77 25.73 -661.73999
-135.33 25.76 -662.52002
-134.84 25.780001 -663.12
-134.28 25.790001 -663.35999
-133.72 25.799999 -663.59998
-133.11 25.799999 -663.60999
-132.48 25.799999 -663.5
-131.88 25.799999 -663.54999
-131.3 25.799999 -663.69
-130.75999 25.82 -664.03998
-130.21001 25.83 -664.37
-129.67 25.84 -664.70001
-129.11 25.85 -664.96002
-128.56 25.870001 -665.28003
-127.98 25.870001 -665.42999
-127.44 25.889999 -665.83002
-126.87 25.9 -666.03998
-126.32 25.91 -666.35999
-125.76 25.92 -666.64001
-125.18 25.93 -666.78003
-124.59 25.93 -666.90997
-124.02 25.940001 -667.14001
-123.45 25.950001 -667.37
-122.87 25.959999 -667.54999
-122.28 25.959999 -667.70001
-121.69 25.969999 -667.83002
-121.11 25.969999 -667.97998
-120.53 25.98 -668.19
-119.93 25.98 -668.26001
-119.32 25.98 -668.31
-118.76 25.99 -668.57001
-118.15 26 -668.59003
-117.54 26 -668.65002
-116.93 26 -668.64001
-116.33 26 -668.75
-115.73 26 -668.79999
-115.1 26 -668.73999
-114.4 25.98 -668.23999
-113.69 25.959999 -667.66998
-112.94 25.93 -666.90997
-111.94 25.84 -664.65997
-110.51 25.65 -659.82001
-109.37 25.52 -656.66998
-108.53 25.469999 -655.23999
-107.77 25.43 -654.32001
-107.07 25.41 -653.72998
-106.42 25.389999 -653.37
-105.77 25.379999 -653.12
-105.16 25.379999 -653.03003
-104.57 25.379999 -653.08002
-103.95 25.379999 -652.96002
-103.35 25.379999 -653
-102.72 25.370001 -652.79999
-102.08 25.360001 -652.52002
-101.44 25.35 -652.28998
-100.76 25.33 -651.78003
-100.08 25.309999 -651.21997
-99.419998 25.290001 -650.81
-98.720001 25.27 -650.19
-83.349998 25.129999 -646.82001
-82.769997 25.139999 -646.91998
-82.220001 25.15 -647.25
-81.639999 25.15 -647.40002
-81.07 25.16 -647.59998
-80.510002 25.17 -647.82001
-79.949997 25.18 -648.10999
-79.360001 25.190001 -648.17999
-78.769997 25.190001 -648.23999
-78.18 25.190001 -648.25
-77.580002 25.190001 -648.20001
-76.970001 25.18 -648.10999
-76.349998 25.17 -647.85999
-75.730003 25.17 -647.71002
-75.129997 25.16 -647.64001
-74.129997 25.030001 -644.21002
-65.330002 22.23 -573.21997
-64.370003 22.08 -569.45001
-63.830002 22.08 -569.31
-63.310001 22.08 -569.32001
-62.799999 22.08 -569.40002
-62.290001 22.09 -569.57001
-61.810001 22.1 -569.95001
-61.529999 22.190001 -572.13
-61.360001 22.32 -575.45001
-60.84 22.32 -575.46002
-60.330002 22.32 -575.59998
-59.82 22.33 -575.85999
-59.34 22.35 -576.28003
-59.27 22.530001 -580.72998
-59.310001 22.74 -586.25
-59.939999 23.200001 -597.73999
-59.389999 23.200001 -597.73999
-58.790001 23.17 -597.17999
-58.200001 23.16 -596.78998
-57.630001 23.15 -596.56
-57.049999 23.129999 -596.17999
-56.48 23.129999 -595.96997
-55.93 23.120001 -595.87
-55.389999 23.129999 -595.98999
-54.860001 23.129999 -596.15002
-54.330002 23.139999 -596.33002
-53.84 23.16 -596.94
-53.529999 23.27 -599.59003
-53.07 23.309999 -600.58002
-52.540001 23.309999 -600.78998
-52.029999 23.33 -601.27002
-51.529999 23.360001 -601.89001
-51.27 23.49 -605.29999
-53.540001 25.08 -645.48999
-53.130001 25.16 -647.70001
-33.32 22.610001 -582.91998
-32.48 22.389999 -577.47998
-31.809999 22.299999 -575.08002
-31.25 22.280001 -574.52002
-30.709999 22.26 -574.15997
-30.17 22.25 -573.84998
-29.629999 22.24 -573.60999
-29.1 22.24 -573.5
-28.57 22.24 -573.48999
-28.049999 22.24 -573.59003
-27.530001 22.25 -573.75
-27.030001 22.27 -574.25
-26.530001 22.290001 -574.81
-26.01 22.299999 -575.01001
-25.48 22.290001 -574.91998
-24.93 22.27 -574.41998
-24.379999 22.24 -573.69
-23.84 22.23 -573.45001
-23.299999 22.219999 -573.08002
-22.77 22.209999 -572.94
-22.23 22.209999 -572.70001
-21.690001 22.18 -572.15002
-21.16 22.17 -571.90997
-20.629999 22.17 -571.81
-20.1 22.17 -571.78003
-19.58 22.17 -571.84998
-19.059999 22.17 -571.87
-18.530001 22.17 -571.87
-18.02 22.18 -572
-17.5 22.18 -572.13
-16.98 22.190001 -572.26001
-16.459999 22.200001 -572.52002
-15.94 22.209999 -572.79999
-15.43 22.219999 -573.12
-14.91 22.24 -573.56
-14.4 22.26 -574.03003
-13.89 22.280001 -574.59003
-13.37 22.299999 -575.14001
-12.86 22.32 -575.67999
-12.34 22.34 -576.16998
-11.82 22.360001 -576.65002
-11.31 22.389999 -577.38
-10.8 22.440001 -578.54999
-10.31 22.52 -580.65002
-9.8500004 22.67 -584.52002
-9.4799995 23.09 -595.26001
-10.01 25.85 -665.37
-9.3800001 25.799999 -663.97998
-8.7700005 25.82 -664.51001
-8.1599998 25.82 -664.40002
-7.5700002 25.879999 -666.14001
-6.98 25.93 -667.39001
-6.3800001 25.99 -668.71997
-5.7800002 26.049999 -670.26001
-5.1700001 26.08 -671.08002
-4.5500002 26.1 -671.52002
-3.9400001 26.120001 -672.06
-3.3299999 26.139999 -672.58002
-2.71 26.15 -672.89001
-2.0899999 26.15 -672.94
-1.47 26.120001 -672.15002
-0.85000002 26.07 -670.92999
-0.23999999 26.02 -669.71002
0.38 25.98 -668.65002
0.99000001 25.940001 -667.64001
1.6 25.91 -666.82001
2.21 25.870001 -665.89001
2.8199999 25.84 -665.01001
3.4200001 25.809999 -664.35999
4.0300002 25.790001 -663.65002
4.6300001 25.75 -662.75
5.2399998 25.73 -662.17999
5.8400002 25.700001 -661.54999
6.4400001 25.68 -660.85999
7.04 25.66 -660.32001
7.6399999 25.639999 -659.84003
8.2399998 25.620001 -659.34998
8.8400002 25.6 -658.97998
9.4399996 25.59 -658.67999
10.04 25.58 -658.40002
10.64 25.57 -658.17999
11.24 25.559999 -657.89001
11.84 25.549999 -657.59998
12.44 25.540001 -657.31
13.04 25.530001 -657.26001
13.64 25.530001 -657.03003
14.24 25.52 -656.83002
14.83 25.51 -656.63
15.42 25.49 -656.01001
16.01 25.459999 -655.27002
16.59 25.43 -654.67999
17.18 25.42 -654.37
17.780001 25.42 -654.25
18.379999 25.41 -654.12
18.969999 25.4 -653.94
19.57 25.4 -653.78998
20.16 25.389999 -653.59998
20.76 25.389999 -653.59003
21.360001 25.389999 -653.52002
21.959999 25.389999 -653.66998
22.57 25.4 -653.90997
23.18 25.41 -654.07001
23.790001 25.42 -654.22998
24.389999 25.42 -654.40997
25.01 25.440001 -654.71997
25.610001 25.440001 -654.89001
26.219999 25.450001 -655.08002
26.84 25.459999 -655.40002
27.450001 25.48 -655.78003
28.07 25.49 -656.07001
28.68 25.5 -656.39001
29.299999 25.51 -656.65997
29.91 25.52 -656.90997
30.530001 25.540001 -657.28003
31.15 25.549999 -657.54999
31.780001 25.559999 -657.97998
32.400002 25.58 -658.46997
33.029999 25.6 -658.90002
33.66 25.620001 -659.41998
34.299999 25.639999 -660.02002
34.939999 25.67 -660.73999
35.580002 25.700001 -661.31
36.209999 25.709999 -661.76001
36.849998 25.73 -662.29999
37.48 25.75 -662.65997
38.110001 25.76 -662.96997
38.720001 25.77 -663.13
39.34 25.77 -663.28003
39.959999 25.780001 -663.39001
40.57 25.780001 -663.40002
41.18 25.780001 -663.53003
41.799999 25.790001 -663.67999
42.419998 25.790001 -663.81
43.029999 25.790001 -663.79999
43.650002 25.799999 -663.94
44.27 25.809999 -664.13
44.880001 25.809999 -664.15002
45.5 25.809999 -664.20001
46.110001 25.82 -664.33002
46.73 25.82 -664.35999
47.34 25.82 -664.46997
47.98 25.83 -664.78998
48.59 25.84 -664.82001
49.209999 25.84 -664.96997
49.84 25.85 -665.22998
50.459999 25.860001 -665.32001
51.09 25.860001 -665.48999
51.720001 25.879999 -665.84003
52.360001 25.889999 -666.13
53 25.9 -666.46997
53.650002 25.92 -666.95001
54.299999 25.940001 -667.40002
54.950001 25.950001 -667.84003
55.599998 25.969999 -668.27002
56.23 25.98 -668.45001
56.869999 25.99 -668.75
57.490002 26 -668.90997
58.119999 26 -669.09003
58.759998 26.02 -669.38
59.419998 26.030001 -669.83002
60.099998 26.059999 -670.53003
60.77 26.09 -671.13
61.490002 26.129999 -672.25
62.209999 26.17 -673.32001
62.939999 26.219999 -674.53003
63.619999 26.25 -675.20001
64.349998 26.290001 -676.28003
65.019997 26.309999 -676.77002
65.699997 26.33 -677.40002
66.360001 26.35 -677.75
67.010002 26.360001 -678.08002
67.660004 26.370001 -678.31
68.330002 26.389999 -678.81
69.029999 26.42 -679.5
69.709999 26.440001 -680.09003
70.419998 26.469999 -680.88
71.129997 26.5 -681.65997
71.870003 26.540001 -682.67999
72.580002 26.57 -683.46002
73.290001 26.6 -684.20001
74.010002 26.639999 -685.04999
74.629997 26.629999 -684.96997
75.300003 26.65 -685.33002
75.879997 26.629999 -684.95001
76.470001 26.620001 -684.52002
79.480003 26.780001 -688.81
80.040001 26.76 -688.15002
80.419998 26.68 -686.03998
80.860001 26.610001 -684.44
81.25 26.530001 -682.42999
81.68 26.469999 -680.79999
82.080002 26.4 -678.98999
82.529999 26.34 -677.60999
82.980003 26.290001 -676.21002
83.449997 26.24 -674.98999
83.93 26.200001 -673.84998
84.43 26.16 -672.90997
84.870003 26.1 -671.52002
85.290001 26.049999 -670.03003
85.709999 25.99 -668.53003
86.139999 25.93 -667.09998
86.550003 25.870001 -665.53003
87.019997 25.83 -664.53003
87.459999 25.780001 -663.25
87.959999 25.75 -662.40997
88.449997 25.709999 -661.52002
88.989998 25.690001 -661.01001
89.510002 25.67 -660.37
90.029999 25.639999 -659.79999
90.550003 25.620001 -659.17999
91.099998 25.6 -658.78998
91.639999 25.59 -658.32001
92.199997 25.57 -658
92.75 25.559999 -657.59003
93.309998 25.549999 -657.32001
93.879997 25.540001 -657.07001
94.449997 25.530001 -656.84998
95.029999 25.52 -656.66998
95.610001 25.52 -656.52002
96.209999 25.52 -656.51001
96.82 25.52 -656.53998
97.440002 25.52 -656.64001
98.059998 25.530001 -656.75
98.690002 25.530001 -656.90997
99.349998 25.549999 -657.29999
100.05 25.57 -657.92999
100.75 25.6 -658.52002
101.46 25.620001 -659.22998
102.19 25.66 -660.02002
103.03 25.709999 -661.5
103.89 25.780001 -663.08002
104.92 25.879999 -665.71997
-168.83 24.540001 -646.52002
-168.39 24.559999 -647.09998
-167.69 24.540001 -646.69
-166.62 24.559999 -647.16998
-166.16 24.58 -647.66998
-165.47 24.57 -647.29999
-163.97 24.610001 -648.40002
-163.21001 24.58 -647.77002
-162.45 24.559999 -647.09998
-161.74001 24.540001 -646.63
-161.03999 24.530001 -646.22998
-160.45 24.530001 -646.23999
-159.84 24.52 -646.17999
-159.25999 24.530001 -646.23999
-158.66 24.52 -646.17999
-158.08 24.530001 -646.23999
-157.5 24.530001 -646.28998
-156.92999 24.530001 -646.41998
-156.39 24.540001 -646.65002
-155.84 24.549999 -646.78998
-155.28999 24.549999 -646.98999
-154.71001 24.559999 -647.03003
-154.10001 24.549999 -646.96002
-153.5 24.549999 -646.94
-152.91 24.549999 -646.97998
-152.31 24.549999 -646.95001
-151.73 24.559999 -647.03003
-151.14999 24.559999 -647.07001
-150.57001 24.559999 -647.14001
-150.02 24.57 -647.32001
-149.42 24.57 -647.29999
-148.85001 24.57 -647.40997
-148.28 24.57 -647.48999
-147.74001 24.58 -647.71997
-147.19 24.59 -647.94
-146.63 24.6 -648.08002
-146.09 24.610001 -648.32001
-145.55 24.620001 -648.58002
-145.00999 24.629999 -648.84003
-144.5 24.639999 -649.20001
-143.98 24.65 -649.54999
-143.46001 24.67 -649.89001
-142.95 24.68 -650.28003
-142.48 24.700001 -650.85999
-141.99001 24.719999 -651.34998
-141.5 24.74 -651.83002
-141.03999 24.76 -652.45001
-140.56 24.790001 -653.03998
-140.11 24.809999 -653.69
-139.69 24.84 -654.52002
-139.22 24.870001 -655.16998
-138.8 24.9 -656.02002
-138.36 24.93 -656.73999
-137.92999 24.959999 -657.57001
-137.49001 24.99 -658.34003
-137.06 25.02 -659.17999
-136.64 25.059999 -660.04999
-136.21001 25.09 -660.91998
-135.75999 25.120001 -661.65002
-135.31 25.15 -662.41998
-134.8 25.17 -662.94
-134.28 25.18 -663.34003
-133.73 25.190001 -663.64001
-133.14 25.200001 -663.73999
-132.50999 25.190001 -663.65002
-131.89 25.190001 -663.59998
-131.31 25.200001 -663.72998
-130.75999 25.209999 -664.06
-130.21001 25.219999 -664.33002
-129.67999 25.23 -664.72998
-129.11 25.24 -664.96997
-128.56 25.25 -665.26001
-128 25.27 -665.53003
-127.46 25.280001 -665.90002
-126.88 25.290001 -666.09003
-126.31 25.290001 -666.28998
-125.76 25.309999 -666.62
-125.19 25.32 -666.84998
-124.6 25.32 -666.96002
-124.03 25.33 -667.19
-123.45 25.34 -667.39001
-122.88 25.34 -667.62
-122.29 25.35 -667.76001
-121.71 25.360001 -667.90997
-121.12 25.360001 -668.08002
-120.53 25.370001 -668.19
-119.94 25.370001 -668.29999
-119.35 25.379999 -668.42999
-118.76 25.379999 -668.57001
-118.18 25.389999 -668.78003
-117.54 25.379999 -668.65002
-116.96 25.389999 -668.84003
-116.37 25.389999 -668.94
-115.69 25.379999 -668.62
-115.01 25.370001 -668.25
-114.22 25.33 -667.21997
-113.47 25.299999 -666.44
-112.85 25.299999 -666.40002
-111.86 25.209999 -664.14001
-110.65 25.07 -660.64001
-109.62 24.98 -658.15002
-108.59 24.879999 -655.59998
-107.79 24.83 -654.41998
-107.08 24.809999 -653.76001
-106.44 24.799999 -653.53003
-105.79 24.790001 -653.20001
-105.18 24.790001 -653.15002
-104.56 24.780001 -653.01001
-103.89 24.77 -652.63
-103.24 24.75 -652.29999
-102.56 24.73 -651.78998
-101.87 24.709999 -651.21002
-101.22 24.700001 -650.84998
-100.53 24.67 -650.28998
-80.330002 24.52 -646.40002
-79.739998 24.52 -646.47998
-79.18 24.530001 -646.72998
-78.629997 24.549999 -647.09998
-78.059998 24.559999 -647.32001
-77.5 24.57 -647.54999
-76.910004 24.57 -647.59998
-76.300003 24.559999 -647.5
-75.699997 24.559999 -647.42999
-75.089996 24.559999 -647.33002
-73.699997 24.290001 -640.48999
-65.110001 21.629999 -571.32001
-64.370003 21.559999 -569.46997
-63.830002 21.559999 -569.34003
-63.310001 21.559999 -569.34003
-62.810001 21.559999 -569.47998
-62.310001 21.57 -569.70001
-61.84 21.59 -570.22998
-61.77 21.75 -574.31
-61.360001 21.790001 -575.42999
-60.84 21.790001 -575.47998
-60.330002 21.799999 -575.62
-59.82 21.809999 -575.84003
-59.380001 21.84 -576.67999
-59.349998 22.02 -581.42999
-60.830002 22.99 -606.52002
-59.400002 22.65 -597.78003
-58.779999 22.620001 -597.07001
-58.189999 22.610001 -596.65997
-57.619999 22.6 -596.44
-57.029999 22.58 -595.98999
-56.470001 22.57 -595.82001
-55.919998 22.57 -595.78998
-55.369999 22.57 -595.83002
-54.84 22.58 -595.92999
-54.32 22.59 -596.22998
-53.82 22.610001 -596.73999
-53.529999 22.719999 -599.53998
-53.060001 22.75 -600.42999
-52.529999 22.76 -600.69
-52.009998 22.77 -601.03998
-51.509998 22.799999 -601.63
-51.23 22.92 -604.87
-51.389999 23.24 -613.26001
-53.459999 24.440001 -644.5
-53.110001 24.559999 -647.42999
-33.330002 22.08 -583.03998
-32.52 21.9 -578.27002
-31.82 21.780001 -575.28003
-31.26 21.76 -574.71997
-30.709999 21.74 -574.28003
-30.17 21.73 -574
-29.639999 21.719999 -573.78003
-29.1 21.719999 -573.60999
-28.57 21.709999 -573.57001
-28.049999 21.719999 -573.62
-27.549999 21.74 -574.12
-27.07 21.77 -574.98999
-26.549999 21.780001 -575.33002
-26.030001 21.780001 -575.28003
-25.49 21.77 -575.13
-24.92 21.74 -574.21997
-24.370001 21.709999 -573.5
-23.83 21.700001 -573.23999
-23.299999 21.690001 -573.03003
-22.77 21.690001 -572.90997
-22.24 21.690001 -572.84998
-21.690001 21.67 -572.29999
-21.16 21.65 -572.02002
-20.629999 21.65 -571.91998
-20.110001 21.65 -571.94
-19.59 21.65 -572
-19.059999 21.65 -571.97998
-18.540001 21.66 -572.04999
-18.02 21.66 -572.13
-17.5 21.66 -572.21002
-16.98 21.67 -572.35999
-16.459999 21.68 -572.62
-15.95 21.690001 -572.94
-15.43 21.700001 -573.25
-14.91 21.719999 -573.64001
-14.4 21.73 -574.09998
-13.89 21.76 -574.78998
-13.38 21.780001 -575.19
-12.86 21.799999 -575.81
-12.35 21.82 -576.32001
-11.83 21.84 -576.82001
-11.31 21.870001 -577.52002
-10.81 21.92 -578.94
-10.32 22.01 -581.19
-9.8599997 22.17 -585.51001
-9.3599997 22.24 -587.37
-8.1700001 25.23 -665.03998
-7.5700002 25.25 -665.58002
-6.96 25.280001 -666.27002
-6.3699999 25.34 -667.84998
-5.7600002 25.370001 -668.57001
-5.1500001 25.4 -669.54999
-4.54 25.43 -670.21997
-3.9300001 25.469999 -671.19
-3.3199999 25.51 -672.23999
-2.71 25.540001 -673.21002
-2.0899999 25.549999 -673.44
-1.47 25.540001 -673.02002
-0.85000002 25.49 -671.83002
-0.23999999 25.440001 -670.5
0.38 25.4 -669.47998
0.99000001 25.360001 -668.34003
1.6 25.32 -667.45001
2.21 25.290001 -666.57001
2.8199999 25.25 -665.62
3.4300001 25.219999 -664.89001
4.0300002 25.190001 -664.07001
4.6399999 25.16 -663.32001
5.2399998 25.139999 -662.79999
5.8400002 25.120001 -662.14001
6.4400001 25.1 -661.52002
7.04 25.07 -660.77002
7.6500001 25.049999 -660.37
8.25 25.030001 -659.87
8.8500004 25.02 -659.48999
9.4499998 25 -659.13
10.05 24.99 -658.89001
10.65 24.98 -658.59003
11.25 24.969999 -658.22998
11.84 24.959999 -657.96997
12.44 24.950001 -657.76001
13.05 24.940001 -657.60999
13.65 24.940001 -657.46002
14.25 24.93 -657.28998
14.84 24.93 -657.09998
15.44 24.91 -656.79999
16.030001 24.889999 -656.20001
16.610001 24.860001 -655.52002
17.200001 24.84 -654.97998
17.790001 24.83 -654.69
18.389999 24.83 -654.71002
18.99 24.83 -654.53998
19.59 24.82 -654.38
20.18 24.809999 -654.09003
20.780001 24.809999 -654.07001
21.379999 24.809999 -653.97998
21.98 24.809999 -654.21002
22.59 24.82 -654.35999
23.190001 24.82 -654.45001
23.799999 24.84 -654.75
24.41 24.84 -654.96002
25.02 24.85 -655.14001
25.629999 24.860001 -655.28003
26.24 24.870001 -655.57001
26.860001 24.879999 -655.88
27.469999 24.889999 -656.27002
28.09 24.9 -656.52002
28.709999 24.92 -656.91998
29.32 24.92 -657.07001
29.940001 24.940001 -657.40997
30.549999 24.950001 -657.62
31.18 24.959999 -658.09003
31.799999 24.98 -658.46002
32.419998 24.99 -658.88
33.049999 25.01 -659.33002
33.689999 25.040001 -660.03998
34.32 25.059999 -660.5
34.970001 25.09 -661.22998
35.610001 25.110001 -661.88
36.25 25.129999 -662.40002
36.880001 25.139999 -662.77002
37.509998 25.16 -663.12
38.130001 25.17 -663.37
38.75 25.18 -663.56
39.369999 25.18 -663.66998
39.98 25.18 -663.78003
40.59 25.18 -663.81
41.209999 25.190001 -663.90997
41.830002 25.200001 -664.09998
42.439999 25.200001 -664.08002
43.060001 25.200001 -664.19
43.68 25.209999 -664.40997
44.279999 25.209999 -664.33002
44.900002 25.209999 -664.41998
45.52 25.209999 -664.5
46.139999 25.219999 -664.63
46.759998 25.23 -664.90002
47.380001 25.23 -664.91998
48 25.24 -665.09998
48.619999 25.24 -665.26001
49.240002 25.25 -665.40002
49.869999 25.26 -665.60999
50.5 25.26 -665.78998
51.130001 25.280001 -666.13
51.77 25.290001 -666.39001
52.41 25.299999 -666.78998
53.049999 25.32 -667.15002
53.709999 25.34 -667.70001
54.349998 25.35 -668
55 25.370001 -668.46002
55.639999 25.379999 -668.78003
56.27 25.389999 -668.97998
56.900002 25.389999 -669.13
57.529999 25.4 -669.28003
58.16 25.41 -669.53003
58.82 25.42 -669.96997
59.48 25.440001 -670.5
60.16 25.469999 -671.15997
60.860001 25.51 -672.15997
61.610001 25.559999 -673.52002
62.330002 25.6 -674.60999
63.029999 25.639999 -675.5
63.740002 25.67 -676.39001
64.449997 25.709999 -677.28998
65.129997 25.73 -677.89001
65.82 25.76 -678.63
66.459999 25.76 -678.75
67.120003 25.780001 -679.15997
67.779999 25.790001 -679.46002
68.459999 25.809999 -679.98999
69.160004 25.84 -680.75
69.879997 25.879999 -681.66998
70.589996 25.91 -682.45001
71.330002 25.950001 -683.53998
72.059998 25.99 -684.53003
72.760002 26.01 -685.13
73.419998 26.02 -685.46997
74.089996 26.030001 -685.78003
80.410004 26.25 -691.32001
80.739998 26.15 -688.72998
81.050003 26.049999 -686.06
81.400002 25.959999 -683.71002
81.809998 25.889999 -681.88
82.209999 25.82 -680.06
82.650002 25.76 -678.53003
83.07 25.700001 -676.94
83.550003 25.65 -675.82001
83.989998 25.6 -674.33002
84.489998 25.559999 -673.40002
84.940002 25.51 -672.13
85.379997 25.459999 -670.75
85.830002 25.41 -669.40997
86.25 25.35 -667.91998
86.639999 25.280001 -666.21997
87.089996 25.24 -665.03998
87.529999 25.190001 -663.75
88.010002 25.15 -662.79999
88.489998 25.120001 -661.84003
89.029999 25.1 -661.31
89.540001 25.07 -660.63
90.07 25.049999 -660.07001
90.589996 25.02 -659.42999
91.129997 25.01 -658.97998
91.68 24.99 -658.59003
92.230003 24.98 -658.21997
92.779999 24.959999 -657.77002
93.349998 24.950001 -657.58002
93.910004 24.940001 -657.25
94.480003 24.93 -657.01001
95.059998 24.93 -656.85999
95.660004 24.92 -656.82001
96.25 24.92 -656.73999
96.860001 24.92 -656.79999
97.470001 24.93 -656.82001
98.089996 24.93 -656.92999
98.739998 24.940001 -657.26001
99.400002 24.959999 -657.65002
100.09 24.98 -658.16998
100.79 25 -658.78003
101.52 25.030001 -659.58002
102.25 25.059999 -660.40002
103.08 25.120001 -661.79999
103.98 25.190001 -663.60999
105.02 25.290001 -666.33002
-169.31 23.93 -646.12
-168.85001 23.950001 -646.59003
-168.34 23.959999 -646.90002
-167.66 23.940001 -646.57001
-167.10001 23.950001 -646.71002
-166.45 23.940001 -646.5
-165.89999 23.950001 -646.69
-165.41 23.959999 -647.04999
-164.97 23.99 -647.66998
-164.53999 24.01 -648.32001
-163.87 24 -648
-163.12 23.98 -647.40002
-162.39999 23.959999 -646.90997
-161.64999 23.93 -646.31
-161.00999 23.93 -646.12
-160.39 23.92 -646.01001
-159.84 23.93 -646.17999
-159.2 23.92 -646
-158.62 23.92 -646.03003
-158.02 23.92 -646.02002
-157.45 23.93 -646.09003
-156.89999 23.93 -646.27002
-156.33 23.940001 -646.37
-155.8 23.950001 -646.62
-155.22 23.950001 -646.71997
-154.63 23.950001 -646.72998
-154.03999 23.950001 -646.71997
-153.45 23.950001 -646.72998
-152.87 23.950001 -646.78998
-152.3 23.959999 -646.90002
-151.7 23.959999 -646.90002
-151.10001 23.959999 -646.87
-150.53 23.959999 -646.96997
-149.95 23.959999 -647.03003
-149.38 23.969999 -647.14001
-148.81 23.969999 -647.21997
-148.22 23.969999 -647.25
-147.67 23.98 -647.45001
-147.13 23.99 -647.67999
-146.60001 24 -647.95001
-146.05 24 -648.15997
-145.49001 24.01 -648.33002
-144.97 24.02 -648.64001
-144.46001 24.040001 -649.02002
-143.92999 24.049999 -649.31
-143.42 24.059999 -649.72998
-142.92 24.08 -650.15002
-142.42999 24.1 -650.62
-141.92999 24.110001 -651.06
-141.44 24.129999 -651.56
-140.98 24.15 -652.17999
-140.52 24.18 -652.83002
-140.05 24.200001 -653.41998
-139.61 24.23 -654.17999
-139.17 24.26 -654.91998
-138.75 24.290001 -655.78998
-138.28999 24.309999 -656.45001
-137.87 24.35 -657.28003
-137.42999 24.379999 -658.07001
-137.02 24.41 -658.98999
-136.59 24.440001 -659.83002
-136.17999 24.48 -660.78003
