# .PCD v0.7 - Point Cloud Data file format
VERSION 0.7
FIELDS x y z
SIZE 4 4 4
TYPE F F F
COUNT 1 1 1
WIDTH 1618
HEIGHT 1
VIEWPOINT 0 0 0 1 0 0 0
POINTS 1618
DATA ascii
-115.63 -39.02 -577.81
-115.13 -39.029999 -577.96002
-114.56 -39.02 -577.75
-113.96 -38.990002 -577.40002
-113.47 -39.009998 -577.62
-112.97 -39.02 -577.77002
-112.42 -39.009998 -577.65997
-111.85 -39 -577.42999
-111.35 -39.009998 -577.58002
-110.85 -39.02 -577.73999
-110.28 -39 -577.54999
-109.77 -39.009998 -577.65002
-109.25 -39.009998 -577.71002
-108.69 -39 -577.54999
-108.18 -39.009998 -577.62
-107.69 -39.029999 -577.87
-107.17 -39.029999 -577.89001
-106.68 -39.040001 -578.13
-106.19 -39.060001 -578.34998
-105.64 -39.049999 -578.21002
-105.12 -39.049999 -578.26001
-104.65 -39.07 -578.59003
-104.18 -39.099998 -578.92999
-103.61 -39.09 -578.75
-103.07 -39.080002 -578.66998
-102.61 -39.110001 -579.07001
-102.09 -39.110001 -579.14001
-101.51 -39.09 -578.84998
-100.99 -39.099998 -578.95001
-100.52 -39.119999 -579.27002
-100.06 -39.150002 -579.65002
-99.519997 -39.139999 -579.62
-98.949997 -39.130001 -579.41998
-98.440002 -39.139999 -579.51001
-97.970001 -39.16 -579.87
-97.459999 -39.169998 -580
-96.959999 -39.18 -580.17999
-96.489998 -39.209999 -580.57001
-95.940002 -39.200001 -580.47998
-95.400002 -39.200001 -580.42999
-94.900002 -39.209999 -580.63
-94.400002 -39.220001 -580.82001
-93.900002 -39.240002 -581.03998
-93.389999 -39.25 -581.13
-92.860001 -39.25 -581.17999
-92.360001 -39.259998 -581.39001
-91.889999 -39.290001 -581.77002
-91.370003 -39.290001 -581.84003
-90.839996 -39.299999 -581.87
-90.330002 -39.310001 -582.03998
-89.82 -39.310001 -582.15002
-89.25 -39.299999 -581.92999
-88.739998 -39.310001 -582.09003
-88.279999 -39.34 -582.57001
-87.769997 -39.360001 -582.75
-87.239998 -39.349998 -582.73999
-86.720001 -39.360001 -582.84003
-86.209999 -39.369999 -583.03003
-85.739998 -39.400002 -583.46002
-85.230003 -39.419998 -583.64001
-84.690002 -39.41 -583.59998
-84.199997 -39.43 -583.91998
-83.699997 -39.450001 -584.15997
-83.18 -39.459999 -584.23999
-82.690002 -39.48 -584.57001
-82.199997 -39.5 -584.87
-81.690002 -39.509998 -585.10999
-81.190002 -39.529999 -585.34003
-80.68 -39.540001 -585.53998
-80.150002 -39.549999 -585.56
-79.629997 -39.549999 -585.69
-79.129997 -39.57 -585.95001
-78.620003 -39.59 -586.16998
-78.089996 -39.59 -586.25
-77.559998 -39.59 -586.28003
-77.040001 -39.599998 -586.40997
-76.529999 -39.619999 -586.63
-76 -39.619999 -586.69
-75.459999 -39.619999 -586.66998
-74.910004 -39.610001 -586.59998
-74.360001 -39.610001 -586.52002
-73.809998 -39.599998 -586.41998
-73.279999 -39.599998 -586.45001
-72.75 -39.610001 -586.53003
-72.230003 -39.619999 -586.63
-71.720001 -39.630001 -586.87
-71.199997 -39.650002 -587.06
-70.650002 -39.639999 -586.94
-70.080002 -39.619999 -586.70001
-69.550003 -39.619999 -586.75
-69.019997 -39.630001 -586.78003
-68.480003 -39.630001 -586.83002
-67.919998 -39.610001 -586.59003
-67.370003 -39.599998 -586.47998
-66.809998 -39.59 -586.32001
-66.279999 -39.599998 -586.35999
-65.779999 -39.619999 -586.65997
-65.220001 -39.599998 -586.48999
-64.599998 -39.560001 -585.77002
-64.050003 -39.549999 -585.64001
-63.529999 -39.560001 -585.78998
-63 -39.560001 -585.84998
-62.470001 -39.57 -585.92999
-61.919998 -39.560001 -585.79999
-61.360001 -39.540001 -585.60999
-60.830002 -39.549999 -585.67999
-60.310001 -39.560001 -585.84003
-59.790001 -39.57 -585.96002
-59.259998 -39.580002 -586.09003
-58.740002 -39.59 -586.27002
-58.220001 -39.599998 -586.39001
-57.68 -39.59 -586.34003
-57.150002 -39.599998 -586.45001
-56.610001 -39.599998 -586.44
-56.09 -39.610001 -586.65997
-55.57 -39.630001 -586.84003
-55.07 -39.650002 -587.21002
-54.560001 -39.669998 -587.51001
-54.060001 -39.700001 -587.95001
-53.549999 -39.720001 -588.27002
-53.040001 -39.740002 -588.51001
-52.52 -39.75 -588.72998
-51.990002 -39.759998 -588.85999
-51.470001 -39.779999 -589.07001
-50.959999 -39.799999 -589.45001
-50.450001 -39.830002 -589.77002
-49.93 -39.84 -590
-49.419998 -39.869999 -590.34998
-48.91 -39.889999 -590.71002
-48.380001 -39.900002 -590.84998
-47.82 -39.889999 -590.71997
-47.290001 -39.900002 -590.87
-46.77 -39.91 -591.06
-46.25 -39.93 -591.32001
-45.73 -39.950001 -591.59998
-45.220001 -39.98 -592
-44.689999 -39.990002 -592.26001
-44.16 -40 -592.34998
-43.619999 -40.009998 -592.45001
-43.099998 -40.029999 -592.77002
-42.580002 -40.049999 -593.09998
-42.060001 -40.07 -593.42999
-41.549999 -40.099998 -593.81
-41.029999 -40.130001 -594.21002
-40.52 -40.169998 -594.77002
-40 -40.189999 -595.15997
-39.470001 -40.200001 -595.28998
-38.93 -40.209999 -595.46002
-38.41 -40.240002 -595.79999
-37.889999 -40.259998 -596.19
-37.369999 -40.290001 -596.60999
-36.849998 -40.32 -596.97998
-36.330002 -40.349998 -597.46997
-35.810001 -40.380001 -597.90997
-35.299999 -40.419998 -598.53998
-34.779999 -40.459999 -599.02002
-34.25 -40.48 -599.34003
-33.720001 -40.5 -599.70001
-33.189999 -40.529999 -600.04999
-32.66 -40.560001 -600.48999
-32.139999 -40.599998 -601.07001
-31.620001 -40.639999 -601.67999
-31.110001 -40.689999 -602.40997
-30.6 -40.740002 -603.15002
-30.09 -40.799999 -604
-29.57 -40.849998 -604.77002
-29.040001 -40.889999 -605.28998
-28.51 -40.919998 -605.78003
-27.98 -40.959999 -606.35999
-27.450001 -40.990002 -606.84998
-26.92 -41.029999 -607.40002
-26.379999 -41.060001 -607.90997
-25.85 -41.099998 -608.41998
-25.309999 -41.130001 -608.90002
-24.77 -41.169998 -609.42999
-24.23 -41.200001 -609.87
-23.690001 -41.23 -610.38
-23.17 -41.290001 -611.25
-22.68 -41.419998 -613.08002
20.91 -45.779999 -676.64001
21.540001 -45.790001 -676.83002
22.15 -45.779999 -676.66998
22.77 -45.77 -676.56
23.389999 -45.779999 -676.64001
24.02 -45.790001 -676.90997
24.65 -45.799999 -677.04999
25.280001 -45.82 -677.32001
25.93 -45.860001 -677.84003
26.57 -45.889999 -678.37
27.200001 -45.91 -678.60999
27.84 -45.93 -678.89001
28.48 -45.959999 -679.33002
29.129999 -46 -679.89001
29.76 -46.009998 -680.08002
48.009998 -40.349998 -597.5
48.52 -40.32 -597.03003
49.02 -40.290001 -596.56
49.540001 -40.259998 -596.16998
50.049999 -40.240002 -595.77002
50.57 -40.220001 -595.46997
51.099998 -40.209999 -595.33002
51.639999 -40.200001 -595.21997
52.169998 -40.189999 -595.07001
52.700001 -40.169998 -594.84998
53.25 -40.18 -594.92999
53.799999 -40.189999 -595.01001
54.369999 -40.200001 -595.26001
54.950001 -40.23 -595.62
55.540001 -40.259998 -596.10999
56.200001 -40.34 -597.28003
79.099998 -47.130001 -696.26001
79.589996 -47.049999 -694.98999
80.089996 -46.970001 -693.84003
80.610001 -46.900002 -692.79999
81.139999 -46.84 -691.91998
81.660004 -46.77 -690.95001
83.120003 -46.169998 -682.21002
83.629997 -46.110001 -681.28003
84.089996 -46.009998 -679.90997
84.610001 -45.959999 -679.08002
85.120003 -45.900002 -678.21997
85.669998 -45.860001 -677.65997
86.25 -45.84 -677.34003
86.839996 -45.82 -677.06
87.419998 -45.799999 -676.77002
88.010002 -45.779999 -676.51001
88.620003 -45.77 -676.40002
89.260002 -45.779999 -676.53998
89.889999 -45.790001 -676.62
90.559998 -45.810001 -676.92999
91.209999 -45.830002 -677.15002
91.870003 -45.849998 -677.47998
92.57 -45.889999 -678.02002
93.279999 -45.93 -678.63
94.019997 -45.990002 -679.48999
94.75 -46.040001 -680.21997
95.529999 -46.110001 -681.33002
96.269997 -46.16 -682.08002
97.089996 -46.259998 -683.40002
-163.75 -38.299999 -559.82001
-163.24001 -38.299999 -559.79999
-162.75999 -38.310001 -559.94
-162.28 -38.310001 -560.04999
-161.82001 -38.330002 -560.20001
-161.41 -38.349998 -560.57001
-161.03 -38.380001 -561.02002
-160.64 -38.41 -561.45001
-160.25999 -38.439999 -561.90002
-159.87 -38.48 -562.34003
-159.56 -38.52 -563.03998
-159.27 -38.580002 -563.84003
-158.86 -38.599998 -564.17999
-158.52 -38.650002 -564.81
-158.48 -38.759998 -566.47998
-158.12 -38.799999 -567.06
-158.34 -38.98 -569.65002
-158.00999 -39.029999 -570.34998
-157.74001 -39.09 -571.22998
-157.44 -39.150002 -572.04999
-157 -39.169998 -572.34003
-156.67 -39.220001 -573.02002
-156.33 -39.27 -573.70001
-156.02 -39.32 -574.48999
-125.99 -39.810001 -581.53003
-125.41 -39.799999 -581.34998
-124.81 -39.779999 -581.03998
-124.25 -39.77 -580.90002
-123.65 -39.75 -580.59003
-123.07 -39.73 -580.35999
-122.51 -39.720001 -580.21997
-121.99 -39.73 -580.28003
-121.35 -39.689999 -579.78998
-120.73 -39.66 -579.39001
-120.22 -39.669998 -579.45001
-119.74 -39.68 -579.70001
-119.1 -39.650002 -579.20001
-118.41 -39.599998 -578.46002
-117.88 -39.599998 -578.41998
-117.37 -39.599998 -578.54999
-116.8 -39.59 -578.33002
-116.11 -39.540001 -577.57001
-115.56 -39.529999 -577.47998
-115.05 -39.529999 -577.53998
-114.53 -39.540001 -577.59998
-113.93 -39.509998 -577.26001
-113.41 -39.52 -577.29999
-112.93 -39.529999 -577.54999
-112.39 -39.529999 -577.5
-111.8 -39.509998 -577.21997
-111.3 -39.52 -577.33002
-110.81 -39.529999 -577.54999
-110.26 -39.52 -577.41998
-109.73 -39.529999 -577.46002
-109.21 -39.529999 -577.5
-108.67 -39.529999 -577.44
-108.17 -39.529999 -577.57001
-107.67 -39.549999 -577.73999
-107.14 -39.549999 -577.76001
-106.66 -39.560001 -578
-106.16 -39.580002 -578.16998
-105.61 -39.57 -578.04999
-105.08 -39.57 -578.09003
-104.63 -39.599998 -578.52002
-104.15 -39.619999 -578.77002
-103.57 -39.599998 -578.5
-103.05 -39.599998 -578.54999
-102.61 -39.639999 -579.04999
-102.06 -39.630001 -578.96002
-101.46 -39.599998 -578.58002
-100.95 -39.610001 -578.69
-100.49 -39.639999 -579.09003
-100.03 -39.669998 -579.48999
-99.489998 -39.66 -579.42999
-98.910004 -39.639999 -579.19
-98.410004 -39.650002 -579.33002
-97.949997 -39.68 -579.73999
-97.419998 -39.689999 -579.78998
-96.910004 -39.689999 -579.89001
-96.43 -39.720001 -580.21997
-95.900002 -39.720001 -580.23999
-95.349998 -39.709999 -580.12
-94.860001 -39.720001 -580.34998
-94.349998 -39.740002 -580.53003
-93.870003 -39.759998 -580.84003
-93.349998 -39.759998 -580.89001
-92.82 -39.759998 -580.90002
-92.330002 -39.779999 -581.21002
-91.849998 -39.810001 -581.53998
-91.32 -39.810001 -581.53998
-90.790001 -39.810001 -581.56
-90.290001 -39.82 -581.78003
-89.769997 -39.830002 -581.82001
-89.209999 -39.810001 -581.65997
-88.690002 -39.82 -581.77002
-88.230003 -39.849998 -582.23999
-87.75 -39.880001 -582.59003
-87.209999 -39.869999 -582.53998
-86.690002 -39.880001 -582.64001
-86.169998 -39.889999 -582.77002
-85.699997 -39.919998 -583.15997
-85.190002 -39.93 -583.38
-84.650002 -39.93 -583.29999
-84.160004 -39.950001 -583.59998
-83.650002 -39.959999 -583.79999
-83.129997 -39.970001 -583.90002
-82.639999 -39.990002 -584.21997
-82.150002 -40.009998 -584.56
-81.660004 -40.029999 -584.84003
-81.139999 -40.040001 -585
-80.639999 -40.060001 -585.23999
-80.110001 -40.060001 -585.26001
-79.580002 -40.07 -585.37
-79.089996 -40.09 -585.64001
-78.589996 -40.110001 -585.92999
-78.07 -40.119999 -586.09003
-77.540001 -40.119999 -586.16998
-77.019997 -40.130001 -586.26001
-76.5 -40.139999 -586.40002
-75.980003 -40.150002 -586.56
-75.459999 -40.16 -586.69
-74.919998 -40.16 -586.65997
-74.379997 -40.150002 -586.60999
-73.82 -40.150002 -586.5
-73.290001 -40.150002 -586.53003
-72.760002 -40.150002 -586.62
-72.220001 -40.150002 -586.59003
-71.699997 -40.16 -586.72998
-71.199997 -40.18 -586.98999
-70.68 -40.189999 -587.15002
-70.120003 -40.18 -586.97998
-69.57 -40.169998 -586.90997
-69.019997 -40.169998 -586.82001
-68.489998 -40.169998 -586.84003
-67.949997 -40.169998 -586.81
-67.410004 -40.169998 -586.81
-66.830002 -40.139999 -586.44
-66.290001 -40.139999 -586.46997
-65.769997 -40.150002 -586.65002
-65.260002 -40.169998 -586.84003
-64.690002 -40.150002 -586.56
-64.080002 -40.099998 -585.91998
-63.529999 -40.09 -585.77002
-63 -40.099998 -585.90002
-62.48 -40.110001 -586.07001
-61.959999 -40.119999 -586.17999
-61.41 -40.110001 -586.06
-60.860001 -40.099998 -585.96997
-60.32 -40.099998 -585.88
-59.790001 -40.099998 -585.96997
-59.27 -40.119999 -586.14001
-58.75 -40.130001 -586.34003
-58.220001 -40.130001 -586.40997
-57.700001 -40.139999 -586.53998
-57.16 -40.150002 -586.57001
-56.630001 -40.150002 -586.63
-56.099998 -40.16 -586.71997
-55.580002 -40.16 -586.84998
-55.07 -40.189999 -587.22998
-54.560001 -40.209999 -587.52002
-54.060001 -40.23 -587.85999
-53.549999 -40.259998 -588.25
-53.040001 -40.279999 -588.58002
-52.529999 -40.299999 -588.87
-52.009998 -40.32 -589.07001
-51.48 -40.330002 -589.22998
-50.959999 -40.34 -589.46002
-50.450001 -40.360001 -589.75
-49.939999 -40.389999 -590.12
-49.419998 -40.41 -590.40002
-48.91 -40.43 -590.75
-48.389999 -40.450001 -591.03003
-47.860001 -40.459999 -591.10999
-47.32 -40.459999 -591.12
-46.790001 -40.470001 -591.28003
-46.27 -40.490002 -591.58002
-45.75 -40.509998 -591.84003
-45.220001 -40.52 -592.06
-44.709999 -40.549999 -592.44
-44.189999 -40.580002 -592.79999
-43.669998 -40.59 -593.03998
-43.130001 -40.599998 -593.19
-42.599998 -40.610001 -593.33002
-42.080002 -40.630001 -593.64001
-41.560001 -40.66 -594.04999
-41.040001 -40.689999 -594.40002
-40.529999 -40.720001 -594.84998
-40.009998 -40.740002 -595.26001
-39.5 -40.779999 -595.76001
-38.970001 -40.799999 -596.08002
-38.43 -40.799999 -596.09998
-37.900002 -40.82 -596.38
-37.380001 -40.849998 -596.73999
-36.860001 -40.880001 -597.15997
-36.34 -40.91 -597.71002
-35.82 -40.939999 -598.13
-35.299999 -40.970001 -598.57001
-34.779999 -41.009998 -599.13
-34.27 -41.049999 -599.69
-33.740002 -41.09 -600.16998
-33.220001 -41.119999 -600.71002
-32.689999 -41.150002 -601.09003
-32.169998 -41.18 -601.51001
-31.639999 -41.209999 -601.96997
-31.129999 -41.259998 -602.71997
-30.610001 -41.310001 -603.44
-30.110001 -41.380001 -604.35999
-29.58 -41.419998 -605.01001
-29.07 -41.490002 -605.94
-28.549999 -41.529999 -606.54999
-28.02 -41.560001 -607.08002
-27.48 -41.59 -607.45001
-26.940001 -41.619999 -607.91998
-26.4 -41.650002 -608.28998
-25.870001 -41.689999 -608.83002
-25.33 -41.720001 -609.26001
-24.790001 -41.759998 -609.83002
-24.25 -41.790001 -610.27002
-23.719999 -41.849998 -611.15997
-23.24 -41.98 -613.03003
19.030001 -46.369999 -676.20001
19.66 -46.369999 -676.31
20.27 -46.349998 -676.02002
20.879999 -46.330002 -675.72998
21.5 -46.32 -675.59998
22.110001 -46.310001 -675.44
22.73 -46.310001 -675.46002
23.35 -46.32 -675.5
23.98 -46.330002 -675.60999
24.620001 -46.360001 -676.07001
25.24 -46.369999 -676.28998
25.879999 -46.41 -676.78998
26.52 -46.43 -677.16998
27.17 -46.470001 -677.75
27.799999 -46.5 -678.08002
28.440001 -46.529999 -678.51001
29.07 -46.529999 -678.62
29.709999 -46.57 -679.08002
30.360001 -46.610001 -679.65002
31 -46.630001 -679.98999
47.990002 -40.880001 -597.23999
48.5 -40.860001 -596.84998
49.02 -40.830002 -596.5
49.529999 -40.810001 -596.09998
50.040001 -40.779999 -595.70001
50.57 -40.759998 -595.48999
51.099998 -40.75 -595.25
51.639999 -40.740002 -595.15997
52.16 -40.73 -594.96002
52.700001 -40.720001 -594.83002
53.25 -40.720001 -594.90002
53.810001 -40.73 -595.03998
54.380001 -40.75 -595.31
54.950001 -40.779999 -595.64001
55.560001 -40.82 -596.22998
56.209999 -40.900002 -597.39001
78.57 -47.84 -697.23999
79.010002 -47.720001 -695.56
79.540001 -47.650002 -694.54999
80.059998 -47.580002 -693.52002
80.57 -47.509998 -692.46002
81.080002 -47.439999 -691.45001
81.599998 -47.369999 -690.44
83.040001 -46.75 -681.53998
83.480003 -46.650002 -680.09003
84.010002 -46.599998 -679.32001
84.519997 -46.529999 -678.37
85.059998 -46.490002 -677.71997
85.610001 -46.450001 -677.17999
86.18 -46.419998 -676.72998
86.739998 -46.389999 -676.27002
87.32 -46.369999 -676
87.919998 -46.349998 -675.82001
88.540001 -46.360001 -675.84003
89.169998 -46.360001 -675.88
89.809998 -46.369999 -675.98999
90.440002 -46.369999 -676.09003
91.120003 -46.400002 -676.5
91.790001 -46.43 -676.88
92.470001 -46.459999 -677.29999
93.190002 -46.5 -677.96002
93.900002 -46.549999 -678.63
94.660004 -46.619999 -679.53998
95.379997 -46.66 -680.25
96.160004 -46.740002 -681.34003
96.989998 -46.84 -682.72998
-163.85001 -38.830002 -560.14001
-163.37 -38.84 -560.25
-162.91 -38.849998 -560.44
-162.42999 -38.860001 -560.54999
-161.98 -38.880001 -560.75
-161.55 -38.900002 -561.03003
-161.12 -38.919998 -561.34003
-160.71001 -38.939999 -561.66998
-160.35001 -38.98 -562.21997
-160.02 -39.029999 -562.84003
-159.64999 -39.060001 -563.34998
-159.24001 -39.09 -563.70001
-158.86 -39.119999 -564.17999
-158.74001 -39.220001 -565.57001
-158.39 -39.259998 -566.16998
-158.06 -39.310001 -566.84998
-158.19 -39.470001 -569.14001
-157.92999 -39.540001 -570.06
-157.71001 -39.610001 -571.14001
-157.3 -39.639999 -571.54999
-156.89999 -39.669998 -571.96997
-156.59 -39.720001 -572.73999
-156.22 -39.77 -573.31
-155.92 -39.82 -574.10999
-149.05 -44.700001 -643.38
-148.53 -44.73 -643.70001
-126.97 -40.32 -581.14001
-126.4 -40.310001 -581
-125.75 -40.27 -580.46997
-125.18 -40.259998 -580.28998
-124.6 -40.240002 -580.09003
-124.07 -40.240002 -580.09003
-123.47 -40.220001 -579.77002
-122.86 -40.189999 -579.39001
-122.34 -40.200001 -579.42999
-121.85 -40.209999 -579.65997
-121.23 -40.18 -579.22998
-120.62 -40.16 -578.83002
-120.11 -40.16 -578.92999
-119.61 -40.169998 -579.09003
-119.01 -40.150002 -578.78003
-118.34 -40.099998 -578.10999
-117.79 -40.099998 -577.98999
-117.27 -40.099998 -578.04999
-116.75 -40.099998 -578.09998
-116.13 -40.07 -577.65002
-115.53 -40.049999 -577.31
-115 -40.049999 -577.34003
-114.5 -40.060001 -577.45001
-113.9 -40.029999 -577.09998
-113.37 -40.029999 -577.10999
-112.88 -40.049999 -577.28998
-112.38 -40.049999 -577.41998
-111.8 -40.040001 -577.17999
-111.28 -40.040001 -577.25
-110.78 -40.049999 -577.40002
-110.23 -40.049999 -577.29999
-109.71 -40.049999 -577.33002
-109.19 -40.049999 -577.38
-108.66 -40.049999 -577.40002
-108.16 -40.060001 -577.51001
-107.65 -40.07 -577.64001
-107.13 -40.07 -577.69
-106.65 -40.09 -577.96997
-106.13 -40.09 -577.98999
-105.58 -40.09 -577.92999
-105.08 -40.099998 -578.06
-104.63 -40.130001 -578.5
-104.12 -40.130001 -578.59003
-103.55 -40.119999 -578.38
-103.05 -40.130001 -578.53998
-102.6 -40.16 -579
-102.01 -40.139999 -578.70001
-101.45 -40.130001 -578.5
-100.94 -40.139999 -578.63
-100.47 -40.16 -578.95001
-100 -40.189999 -579.34998
-99.449997 -40.18 -579.22998
-98.879997 -40.16 -579.01001
-98.379997 -40.169998 -579.16998
-97.919998 -40.200001 -579.60999
-97.379997 -40.200001 -579.53998
-96.870003 -40.209999 -579.65997
-96.410004 -40.240002 -580.07001
-95.870003 -40.240002 -580.04999
-95.32 -40.23 -579.91998
-94.82 -40.240002 -580.10999
-94.32 -40.25 -580.33002
-93.849998 -40.279999 -580.71002
-93.32 -40.279999 -580.71997
-92.779999 -40.279999 -580.70001
-92.309998 -40.310001 -581.04999
-91.82 -40.32 -581.33002
-91.279999 -40.32 -581.26001
-90.760002 -40.330002 -581.35999
-90.260002 -40.34 -581.57001
-89.739998 -40.349998 -581.65002
-89.169998 -40.330002 -581.40002
-88.660004 -40.34 -581.58002
-88.199997 -40.380001 -582.07001
-87.720001 -40.400002 -582.40997
-87.169998 -40.389999 -582.31
-86.650002 -40.400002 -582.40997
-86.139999 -40.41 -582.57001
-85.660004 -40.439999 -582.92999
-85.160004 -40.450001 -583.15002
-84.629997 -40.450001 -583.21002
-84.139999 -40.470001 -583.48999
-83.620003 -40.48 -583.62
-83.099998 -40.490002 -583.66998
-82.610001 -40.509998 -583.98999
-82.129997 -40.540001 -584.39001
-81.620003 -40.549999 -584.60999
-81.120003 -40.57 -584.81
-80.610001 -40.580002 -585.04999
-80.080002 -40.580002 -585.07001
-79.540001 -40.580002 -585.07001
-79.050003 -40.610001 -585.40002
-78.550003 -40.630001 -585.69
-78.040001 -40.639999 -585.88
-77.519997 -40.650002 -585.96002
-77 -40.66 -586.10999
-76.480003 -40.66 -586.21997
-75.959999 -40.68 -586.40997
-75.440002 -40.689999 -586.54999
-74.919998 -40.689999 -586.65997
-74.389999 -40.700001 -586.72998
-73.849998 -40.700001 -586.69
-73.300003 -40.689999 -586.59003
-72.769997 -40.689999 -586.65002
-72.239998 -40.700001 -586.70001
-71.720001 -40.709999 -586.84003
-71.18 -40.709999 -586.90002
-70.669998 -40.720001 -587.07001
-70.150002 -40.73 -587.22998
-69.599998 -40.73 -587.16998
-69.040001 -40.720001 -586.97998
-68.489998 -40.709999 -586.87
-67.959999 -40.709999 -586.95001
-67.43 -40.720001 -587
-66.879997 -40.709999 -586.91998
-66.32 -40.700001 -586.71997
-65.779999 -40.689999 -586.69
-65.260002 -40.709999 -586.87
-64.739998 -40.720001 -587.02002
-64.150002 -40.689999 -586.58002
-63.549999 -40.639999 -585.96997
-63.009998 -40.639999 -585.97998
-62.48 -40.650002 -586.07001
-61.970001 -40.66 -586.27002
-61.43 -40.669998 -586.29999
-60.889999 -40.66 -586.23999
-60.34 -40.650002 -586.08002
-59.799999 -40.650002 -586.10999
-59.290001 -40.669998 -586.31
-58.759998 -40.669998 -586.39001
-58.240002 -40.68 -586.58002
-57.709999 -40.689999 -586.66998
-57.189999 -40.700001 -586.87
-56.66 -40.709999 -586.90997
-56.119999 -40.709999 -586.96002
-55.599998 -40.720001 -587.07001
-55.080002 -40.73 -587.31
-54.560001 -40.75 -587.46997
-54.049999 -40.77 -587.83002
-53.549999 -40.790001 -588.16998
-53.049999 -40.830002 -588.67999
-52.540001 -40.849998 -589.01001
-52.029999 -40.869999 -589.27002
-51.5 -40.880001 -589.41998
-50.98 -40.900002 -589.66998
-50.450001 -40.91 -589.78998
-49.939999 -40.93 -590.14001
-49.43 -40.950001 -590.46002
-48.919998 -40.98 -590.87
-48.41 -41.009998 -591.20001
-47.889999 -41.029999 -591.51001
-47.34 -41.029999 -591.47998
-46.810001 -41.040001 -591.63
-46.290001 -41.049999 -591.79999
-45.759998 -41.060001 -592.01001
-45.23 -41.080002 -592.20001
-44.720001 -41.099998 -592.58002
-44.200001 -41.130001 -592.90997
-43.689999 -41.16 -593.41998
-43.169998 -41.18 -593.71997
-42.639999 -41.200001 -593.91998
-42.119999 -41.220001 -594.20001
-41.580002 -41.23 -594.33002
-41.060001 -41.240002 -594.59998
-40.540001 -41.279999 -595.04999
-40.02 -41.299999 -595.39001
-39.5 -41.32 -595.71997
-38.98 -41.360001 -596.21997
-38.470001 -41.400002 -596.75
-37.939999 -41.419998 -597.04999
-37.41 -41.43 -597.23999
-36.880001 -41.450001 -597.54999
-36.349998 -41.470001 -597.85999
-35.830002 -41.5 -598.25
-35.310001 -41.540001 -598.82001
-34.790001 -41.57 -599.23999
-34.27 -41.610001 -599.77002
-33.759998 -41.650002 -600.40997
-33.240002 -41.700001 -601.02002
-32.73 -41.740002 -601.64001
-32.209999 -41.779999 -602.23999
-31.68 -41.82 -602.78998
-31.16 -41.860001 -603.33002
-30.639999 -41.900002 -603.97998
-30.120001 -41.959999 -604.75
-29.6 -42.009998 -605.42999
-29.09 -42.060001 -606.21997
-28.559999 -42.099998 -606.81
-28.040001 -42.150002 -607.47998
-27.5 -42.18 -607.90997
-26.959999 -42.209999 -608.39001
-26.42 -42.240002 -608.76001
-25.879999 -42.27 -609.25
-25.35 -42.310001 -609.79999
-24.809999 -42.349998 -610.38
-24.280001 -42.400002 -611.10999
-23.809999 -42.549999 -613.22998
-23.26 -42.580002 -613.62
17.190001 -47.049999 -677.15002
17.799999 -47.009998 -676.48999
18.389999 -46.939999 -675.47998
19.01 -46.919998 -675.31
19.620001 -46.91 -675.09003
20.24 -46.900002 -674.96997
20.85 -46.889999 -674.81
21.469999 -46.880001 -674.69
22.08 -46.869999 -674.57001
22.700001 -46.880001 -674.63
23.33 -46.880001 -674.73999
23.950001 -46.889999 -674.84998
24.58 -46.91 -675.12
25.209999 -46.93 -675.34003
25.85 -46.970001 -675.90002
26.5 -47.009998 -676.54999
27.139999 -47.049999 -677.02002
27.780001 -47.080002 -677.44
28.41 -47.099998 -677.77002
29.049999 -47.119999 -678.06
29.690001 -47.139999 -678.42999
30.309999 -47.150002 -678.52002
30.959999 -47.200001 -679.14001
31.610001 -47.23 -679.66998
47.490002 -41.470001 -597.83002
47.970001 -41.419998 -597.09998
48.490002 -41.389999 -596.70001
49.009998 -41.369999 -596.38
49.529999 -41.349998 -596.09003
50.040001 -41.32 -595.66998
50.57 -41.299999 -595.40997
51.09 -41.290001 -595.15002
51.619999 -41.279999 -595.03998
52.16 -41.27 -594.88
52.700001 -41.259998 -594.84003
53.25 -41.27 -594.88
53.799999 -41.27 -594.96997
54.380001 -41.299999 -595.34998
54.959999 -41.32 -595.65997
55.580002 -41.380001 -596.48999
56.200001 -41.439999 -597.28998
78.050003 -48.549999 -698.28998
78.510002 -48.450001 -696.78003
78.980003 -48.34 -695.26001
79.480003 -48.259998 -694.03998
80.010002 -48.189999 -693.16998
80.540001 -48.130001 -692.23999
81.059998 -48.060001 -691.26001
82.529999 -47.439999 -682.5
82.980003 -47.34 -681.07001
83.440002 -47.25 -679.71002
83.940002 -47.18 -678.71002
84.440002 -47.110001 -677.77002
84.980003 -47.07 -677.14001
85.529999 -47.02 -676.52002
86.099998 -47 -676.14001
86.669998 -46.970001 -675.72998
87.260002 -46.950001 -675.51001
87.860001 -46.939999 -675.39001
88.470001 -46.939999 -675.25
89.089996 -46.939999 -675.31
89.730003 -46.950001 -675.42999
90.379997 -46.959999 -675.65002
91.019997 -46.970001 -675.79999
91.690002 -47 -676.14001
92.389999 -47.040001 -676.70001
93.089996 -47.080002 -677.26001
93.809998 -47.130001 -677.95001
94.540001 -47.18 -678.70001
95.290001 -47.240002 -679.59998
96.07 -47.32 -680.71002
96.839996 -47.389999 -681.66998
97.660004 -47.490002 -683.06
-164.03 -39.389999 -560.77002
-163.53 -39.389999 -560.82001
-163.03999 -39.400002 -560.85999
-162.56 -39.41 -560.98999
-162.11 -39.419998 -561.21002
-161.64999 -39.439999 -561.38
-161.22 -39.459999 -561.66998
-160.86 -39.490002 -562.19
-160.46001 -39.52 -562.59998
-160.03999 -39.549999 -562.90997
-159.61 -39.57 -563.21997
-159.27 -39.610001 -563.83002
-159.03 -39.68 -564.78003
-158.7 -39.73 -565.46002
-158.28 -39.75 -565.78998
-158.28 -39.880001 -567.59998
-158.03 -39.950001 -568.58002
-157.88 -40.040001 -569.87
-157.59 -40.099998 -570.71002
-157.17999 -40.130001 -571.10999
-156.77 -40.16 -571.5
-156.53 -40.23 -572.53998
-156.12 -40.259998 -572.95001
-155.75999 -40.310001 -573.54999
-155.64 -40.41 -575.03003
-148.78999 -45.220001 -642.28003
-148.21001 -45.220001 -642.34998
-126.83 -40.810001 -580.53003
-126.24 -40.790001 -580.25
-125.59 -40.75 -579.75
-124.98 -40.720001 -579.35999
-124.44 -40.720001 -579.32001
-123.93 -40.73 -579.42999
-123.32 -40.700001 -579.08002
-122.73 -40.68 -578.78998
-122.2 -40.68 -578.78003
-121.71 -40.700001 -578.97998
-121.12 -40.68 -578.70001
-120.5 -40.650002 -578.28998
-119.97 -40.650002 -578.31
-119.48 -40.66 -578.5
-118.96 -40.66 -578.52002
-118.26 -40.610001 -577.71002
-117.69 -40.59 -577.5
-117.19 -40.599998 -577.65997
-116.68 -40.610001 -577.77002
-116.11 -40.59 -577.56
-115.46 -40.549999 -576.98999
-114.95 -40.560001 -577.08002
-114.45 -40.57 -577.19
-113.87 -40.549999 -576.94
-113.32 -40.540001 -576.85999
-112.83 -40.560001 -577.03003
-112.34 -40.57 -577.26001
-111.75 -40.549999 -576.96002
-111.24 -40.549999 -577.02002
-110.74 -40.57 -577.19
-110.21 -40.57 -577.19
-109.69 -40.57 -577.21002
-109.18 -40.580002 -577.34003
-108.64 -40.57 -577.27002
-108.15 -40.59 -577.48999
-107.63 -40.59 -577.52002
-107.11 -40.59 -577.59003
-106.63 -40.610001 -577.84998
-106.1 -40.610001 -577.87
-105.56 -40.610001 -577.78998
-105.05 -40.619999 -577.92999
-104.62 -40.66 -578.45001
-104.09 -40.66 -578.46002
-103.52 -40.639999 -578.21002
-103.05 -40.66 -578.58002
-102.57 -40.68 -578.87
-101.95 -40.650002 -578.33002
-101.42 -40.650002 -578.33002
-100.91 -40.66 -578.47998
-100.45 -40.68 -578.84998
-99.980003 -40.709999 -579.21002
-99.419998 -40.700001 -579.03998
-98.839996 -40.68 -578.78003
-98.360001 -40.700001 -579.03998
-97.889999 -40.720001 -579.42999
-97.360001 -40.720001 -579.40002
-96.839996 -40.73 -579.52002
-96.370003 -40.75 -579.87
-95.839996 -40.75 -579.84003
-95.300003 -40.75 -579.83002
-94.790001 -40.759998 -579.94
-94.300003 -40.779999 -580.17999
-93.839996 -40.810001 -580.62
-93.300003 -40.799999 -580.58002
-92.75 -40.799999 -580.52002
-92.279999 -40.830002 -580.90002
-91.790001 -40.84 -581.15997
-91.25 -40.84 -581.07001
-90.709999 -40.84 -581.03998
-90.220001 -40.860001 -581.34003
-89.709999 -40.869999 -581.47998
-89.139999 -40.849998 -581.23999
-88.629997 -40.860001 -581.35999
-88.18 -40.900002 -581.89001
-87.68 -40.91 -582.15002
-87.150002 -40.919998 -582.15997
-86.629997 -40.919998 -582.26001
-86.120003 -40.93 -582.41998
-85.639999 -40.959999 -582.79999
-85.139999 -40.970001 -583
-84.589996 -40.970001 -582.90997
-84.120003 -41 -583.33002
-83.599998 -41.009998 -583.45001
-83.059998 -41 -583.40002
-82.559998 -41.02 -583.64001
-82.089996 -41.049999 -584.13
-81.580002 -41.07 -584.33002
-81.07 -41.080002 -584.48999
-80.580002 -41.099998 -584.78998
-80.040001 -41.099998 -584.79999
-79.510002 -41.110001 -584.85999
-79.010002 -41.119999 -585.12
-78.529999 -41.150002 -585.47998
-78.019997 -41.16 -585.66998
-77.480003 -41.169998 -585.71002
-76.980003 -41.18 -585.95001
-76.459999 -41.189999 -586.06
-75.940002 -41.200001 -586.21997
-75.43 -41.220001 -586.46997
-74.910004 -41.220001 -586.53998
-74.370003 -41.23 -586.59003
-73.849998 -41.23 -586.70001
-73.32 -41.240002 -586.79999
-72.790001 -41.240002 -586.82001
-72.239998 -41.240002 -586.72998
-71.720001 -41.25 -586.85999
-71.190002 -41.25 -586.94
-70.669998 -41.259998 -587.08002
-70.150002 -41.27 -587.21002
-69.620003 -41.279999 -587.32001
-69.080002 -41.27 -587.27002
-68.510002 -41.259998 -587.06
-67.959999 -41.25 -586.96002
-67.43 -41.25 -586.97998
-66.900002 -41.259998 -587.09003
-66.339996 -41.25 -586.91998
-65.800003 -41.240002 -586.87
-65.260002 -41.240002 -586.81
-64.730003 -41.25 -586.96002
-64.220001 -41.259998 -587.15002
-63.619999 -41.220001 -586.58002
-63.02 -41.189999 -586.09003
-62.490002 -41.189999 -586.13
-61.970001 -41.200001 -586.27002
-61.450001 -41.209999 -586.44
-60.93 -41.220001 -586.57001
-60.380001 -41.220001 -586.47998
-59.830002 -41.209999 -586.38
-59.290001 -41.200001 -586.33002
-58.759998 -41.209999 -586.40997
-58.240002 -41.23 -586.64001
-57.720001 -41.23 -586.76001
-57.200001 -41.25 -586.97998
-56.68 -41.259998 -587.09998
-56.139999 -41.259998 -587.15002
-55.610001 -41.27 -587.21997
-55.080002 -41.27 -587.32001
-54.560001 -41.279999 -587.47998
-54.049999 -41.310001 -587.82001
-53.560001 -41.34 -588.28998
-53.049999 -41.369999 -588.65002
-52.540001 -41.389999 -588.98999
-52.040001 -41.419998 -589.45001
-51.52 -41.439999 -589.60999
-50.990002 -41.450001 -589.83002
-50.470001 -41.459999 -590.01001
-49.950001 -41.48 -590.28003
-49.43 -41.5 -590.54999
-48.919998 -41.529999 -590.90002
-48.41 -41.549999 -591.25
-47.900002 -41.580002 -591.64001
-47.380001 -41.599998 -591.92999
-46.849998 -41.610001 -592.02002
-46.310001 -41.610001 -592.06
-45.779999 -41.630001 -592.28998
-45.25 -41.639999 -592.45001
-44.73 -41.66 -592.78003
-44.209999 -41.68 -593.03003
-43.700001 -41.709999 -593.44
-43.18 -41.740002 -593.84003
-42.68 -41.77 -594.37
-42.150002 -41.790001 -594.64001
-41.610001 -41.799999 -594.71997
-41.080002 -41.810001 -594.88
-40.549999 -41.830002 -595.21997
-40.029999 -41.849998 -595.5
-39.509998 -41.889999 -595.96997
-38.990002 -41.91 -596.33002
-38.48 -41.950001 -596.87
-37.959999 -41.98 -597.28003
-37.439999 -42.009998 -597.75
-36.91 -42.029999 -597.95001
-36.380001 -42.049999 -598.26001
-35.849998 -42.07 -598.54999
-35.32 -42.099998 -598.95001
-34.799999 -42.130001 -599.39001
-34.290001 -42.169998 -600.01001
-33.77 -42.220001 -600.65002
-33.259998 -42.259998 -601.25
-32.73 -42.299999 -601.81
-32.23 -42.360001 -602.64001
-31.709999 -42.41 -603.35999
-31.200001 -42.459999 -604.08002
-30.67 -42.5 -604.59998
-30.15 -42.540001 -605.15002
-29.629999 -42.59 -605.84998
-29.110001 -42.650002 -606.64001
-28.58 -42.68 -607.17999
-28.049999 -42.73 -607.77002
-27.51 -42.759998 -608.21002
-26.98 -42.790001 -608.67999
-26.440001 -42.830002 -609.21997
-25.91 -42.869999 -609.79999
-25.370001 -42.91 -610.31
-24.84 -42.959999 -611.03003
-24.309999 -43.02 -611.88
-23.82 -43.139999 -613.63
16.559999 -47.639999 -676.71997
17.16 -47.57 -675.63
17.76 -47.529999 -675.07001
18.370001 -47.5 -674.67999
18.98 -47.48 -674.35999
19.59 -47.459999 -674.14001
20.200001 -47.439999 -673.83002
20.82 -47.43 -673.66998
21.43 -47.419998 -673.58002
22.049999 -47.419998 -673.53003
22.67 -47.419998 -673.51001
23.290001 -47.43 -673.73999
23.92 -47.450001 -673.96997
24.549999 -47.459999 -674.17999
25.18 -47.5 -674.65002
25.82 -47.529999 -675.03003
26.459999 -47.560001 -675.53998
27.110001 -47.619999 -676.31
27.75 -47.66 -676.90997
28.389999 -47.68 -677.21997
29.02 -47.689999 -677.39001
29.65 -47.709999 -677.56
30.280001 -47.73 -677.85999
30.92 -47.759998 -678.26001
31.559999 -47.779999 -678.57001
32.23 -47.84 -679.46002
32.880001 -47.880001 -679.97998
47.470001 -42.009998 -597.60999
47.959999 -41.959999 -596.95001
48.48 -41.93 -596.54999
48.990002 -41.900002 -596.14001
49.52 -41.889999 -595.91998
50.029999 -41.860001 -595.57001
50.560001 -41.84 -595.31
51.09 -41.830002 -595.17999
51.619999 -41.82 -594.92999
52.16 -41.810001 -594.89001
52.689999 -41.810001 -594.79999
53.25 -41.810001 -594.87
53.810001 -41.830002 -595.06
54.380001 -41.849998 -595.34003
54.970001 -41.880001 -595.78003
55.599998 -41.939999 -596.71997
56.23 -42 -597.52002
77.980003 -49.16 -697.71997
78.440002 -49.040001 -696.15002
78.940002 -48.950001 -694.90997
79.449997 -48.869999 -693.76001
80 -48.82 -693
80.5 -48.740002 -691.91998
81.010002 -48.66 -690.79999
82.43 -48.009998 -681.70001
82.910004 -47.93 -680.5
83.360001 -47.830002 -679.06
83.870003 -47.759998 -678.17999
84.379997 -47.700001 -677.25
84.910004 -47.650002 -676.59003
85.449997 -47.599998 -675.89001
86.019997 -47.57 -675.51001
86.610001 -47.560001 -675.26001
87.190002 -47.540001 -675.02002
87.779999 -47.52 -674.73999
88.379997 -47.509998 -674.63
89.019997 -47.52 -674.72998
89.639999 -47.52 -674.78998
90.300003 -47.540001 -675.01001
90.949997 -47.560001 -675.23999
91.599998 -47.57 -675.51001
92.300003 -47.610001 -676.03003
93 -47.66 -676.64001
93.730003 -47.709999 -677.35999
94.449997 -47.759998 -678.09998
95.209999 -47.830002 -679.01001
95.959999 -47.889999 -679.95001
96.75 -47.970001 -681.08002
97.550003 -48.060001 -682.28998
-164.17999 -39.939999 -561.25
-163.64999 -39.939999 -561.21002
-163.14999 -39.939999 -561.23999
-162.71001 -39.959999 -561.48999
-162.24001 -39.970001 -561.65997
-161.81 -39.990002 -561.92999
-161.38 -40.009998 -562.21002
-160.92999 -40.029999 -562.44
-160.47 -40.040001 -562.64001
-160.06 -40.07 -562.97998
-159.67999 -40.099998 -563.46002
-159.44 -40.169998 -564.41998
-159.05 -40.200001 -564.84998
-158.66 -40.23 -565.29999
-158.39999 -40.299999 -566.20001
-158.25999 -40.400002 -567.54999
-157.89 -40.439999 -568.06
-157.83 -40.549999 -569.71002
-157.48 -40.599998 -570.33002
-157.11 -40.639999 -570.84998
-156.75999 -40.68 -571.46997
-156.42999 -40.73 -572.16998
-156.00999 -40.759998 -572.54999
-155.67 -40.810001 -573.21002
-155.49001 -40.900002 -574.46997
-155.17 -40.950001 -575.21002
-155 -41.049999 -576.52002
-149.60001 -45.689999 -640.72998
-149.03999 -45.700001 -640.87
-127.24 -41.299999 -579.96997
-126.67 -41.290001 -579.78998
-126.13 -41.279999 -579.77002
-125.44 -41.23 -579.07001
-124.85 -41.209999 -578.77002
-124.31 -41.209999 -578.75
-123.81 -41.220001 -578.87
-123.21 -41.200001 -578.56
-122.62 -41.18 -578.28998
-122.08 -41.169998 -578.25
-121.6 -41.189999 -578.46002
-121.04 -41.18 -578.34998
-120.41 -41.150002 -577.87
-119.87 -41.139999 -577.79999
-119.38 -41.150002 -577.97998
-118.87 -41.16 -578.08002
-118.21 -41.119999 -577.48999
-117.62 -41.099998 -577.19
-117.11 -41.099998 -577.26001
-116.6 -41.110001 -577.39001
-116.1 -41.119999 -577.48999
-115.46 -41.080002 -576.96997
-114.91 -41.07 -576.84003
-114.4 -41.080002 -576.96002
-113.86 -41.07 -576.88
-113.3 -41.060001 -576.72998
-112.81 -41.080002 -576.96997
-112.32 -41.09 -577.13
-111.75 -41.080002 -576.91998
-111.23 -41.080002 -576.97998
-110.73 -41.09 -577.10999
-110.2 -41.09 -577.15002
-109.68 -41.09 -577.17999
-109.15 -41.09 -577.15997
-108.63 -41.099998 -577.21997
-108.12 -41.099998 -577.31
-107.61 -41.110001 -577.44
-107.12 -41.130001 -577.65002
-106.62 -41.139999 -577.78998
-106.07 -41.130001 -577.70001
-105.54 -41.130001 -577.69
-105.06 -41.150002 -577.96997
-104.61 -41.18 -578.40002
-104.05 -41.169998 -578.23999
-103.5 -41.16 -578.13
-103.06 -41.200001 -578.60999
-102.54 -41.200001 -578.66998
-101.91 -41.16 -578.14001
-101.38 -41.16 -578.15002
-100.89 -41.18 -578.35999
-100.42 -41.200001 -578.70001
-99.949997 -41.23 -579.06
-99.370003 -41.209999 -578.75
-98.82 -41.200001 -578.66998
-98.360001 -41.23 -579.03998
-97.879997 -41.25 -579.34998
-97.32 -41.240002 -579.21002
-96.830002 -41.25 -579.41998
-96.349998 -41.279999 -579.73999
-95.82 -41.279999 -579.73999
-95.279999 -41.27 -579.71997
-94.769997 -41.279999 -579.84003
-94.290001 -41.299999 -580.12
-93.809998 -41.330002 -580.46002
-93.25 -41.32 -580.31
-92.730003 -41.32 -580.33002
-92.269997 -41.349998 -580.82001
-91.769997 -41.369999 -581.01001
-91.220001 -41.360001 -580.90997
-90.699997 -41.369999 -581
-90.199997 -41.380001 -581.19
-89.690002 -41.389999 -581.33002
-89.110001 -41.369999 -581.04999
-88.599998 -41.380001 -581.16998
-88.150002 -41.419998 -581.75
-87.660004 -41.439999 -582
-87.110001 -41.43 -581.90997
-86.610001 -41.439999 -582.10999
-86.089996 -41.450001 -582.22998
-85.620003 -41.48 -582.65997
-85.099998 -41.490002 -582.76001
-84.57 -41.490002 -582.79999
-84.089996 -41.52 -583.16998
-83.559998 -41.52 -583.15997
-83.019997 -41.52 -583.15002
-82.529999 -41.540001 -583.44
-82.059998 -41.580002 -583.94
-81.559998 -41.59 -584.16998
-81.040001 -41.599998 -584.23999
-80.550003 -41.619999 -584.62
-80.019997 -41.630001 -584.66998
-79.480003 -41.619999 -584.62
-78.980003 -41.639999 -584.90002
-78.5 -41.669998 -585.28998
-77.989998 -41.689999 -585.47998
-77.459999 -41.689999 -585.52002
-76.949997 -41.709999 -585.75
-76.440002 -41.720001 -585.92999
-75.919998 -41.73 -586.03998
-75.410004 -41.75 -586.31
-74.889999 -41.75 -586.44
-74.360001 -41.759998 -586.46002
-73.839996 -41.77 -586.64001
-73.330002 -41.779999 -586.82001
-72.800003 -41.790001 -586.90997
-72.260002 -41.790001 -586.90997
-71.720001 -41.779999 -586.87
-71.199997 -41.790001 -586.97998
-70.669998 -41.799999 -587.07001
-70.150002 -41.810001 -587.22998
-69.620003 -41.82 -587.34003
-69.099998 -41.82 -587.44
-68.550003 -41.82 -587.40002
-67.989998 -41.810001 -587.17999
-67.440002 -41.799999 -587.06
-66.900002 -41.799999 -587.07001
-66.379997 -41.810001 -587.20001
-65.82 -41.799999 -587.08002
-65.279999 -41.790001 -587
-64.739998 -41.790001 -587.03998
-64.230003 -41.810001 -587.27002
-63.689999 -41.810001 -587.26001
-63.099998 -41.779999 -586.78998
-62.52 -41.740002 -586.35999
-61.98 -41.75 -586.40002
-61.459999 -41.759998 -586.53998
-60.939999 -41.77 -586.73999
-60.41 -41.77 -586.78003
-59.869999 -41.77 -586.73999
-59.330002 -41.77 -586.70001
-58.779999 -41.759998 -586.63
-58.25 -41.77 -586.71997
-57.73 -41.779999 -586.87
-57.209999 -41.790001 -587.07001
-56.689999 -41.810001 -587.25
-56.16 -41.82 -587.38
-55.619999 -41.810001 -587.34998
-55.099998 -41.830002 -587.53003
-54.580002 -41.84 -587.73999
-54.07 -41.860001 -588.01001
-53.549999 -41.880001 -588.21997
-53.049999 -41.91 -588.65997
-52.540001 -41.93 -588.98999
-52.040001 -41.959999 -589.44
-51.529999 -41.990002 -589.76001
-51.009998 -42.009998 -590.03998
-50.490002 -42.02 -590.26001
-49.970001 -42.040001 -590.52002
-49.450001 -42.049999 -590.70001
-48.939999 -42.080002 -591.06
-48.419998 -42.099998 -591.38
-47.91 -42.130001 -591.71002
-47.400002 -42.16 -592.12
-46.880001 -42.18 -592.39001
-46.34 -42.18 -592.45001
-45.799999 -42.189999 -592.56
-45.27 -42.200001 -592.70001
-44.75 -42.220001 -592.95001
-44.220001 -42.23 -593.19
-43.709999 -42.259998 -593.57001
-43.189999 -42.290001 -593.94
-42.669998 -42.32 -594.34998
-42.16 -42.349998 -594.76001
-41.650002 -42.380001 -595.22998
-41.119999 -42.400002 -595.5
-40.59 -42.41 -595.66998
-40.049999 -42.43 -595.88
-39.529999 -42.450001 -596.21997
-39.009998 -42.48 -596.59998
-38.490002 -42.509998 -597.01001
-37.970001 -42.540001 -597.51001
-37.450001 -42.580002 -597.95001
-36.93 -42.610001 -598.39001
-36.419998 -42.639999 -598.88
-35.889999 -42.669998 -599.21997
-35.360001 -42.700001 -599.65997
-34.830002 -42.709999 -599.85999
-34.310001 -42.759998 -600.51001
-33.790001 -42.790001 -600.90002
-33.27 -42.84 -601.59003
-32.75 -42.880001 -602.13
-32.25 -42.939999 -603.06
-31.719999 -42.98 -603.54999
-31.219999 -43.040001 -604.42999
-30.700001 -43.09 -605.10999
-30.190001 -43.150002 -605.95001
-29.66 -43.200001 -606.57001
-29.129999 -43.240002 -607.15002
-28.6 -43.27 -607.62
-28.059999 -43.310001 -608.09003
-27.52 -43.330002 -608.44
-26.99 -43.369999 -609.02002
-26.459999 -43.419998 -609.59998
-25.93 -43.470001 -610.29999
-25.389999 -43.509998 -610.85999
-24.870001 -43.57 -611.77002
-24.379999 -43.700001 -613.51001
-23.84 -43.73 -613.96002
11.7 -48.720001 -682.94
12.31 -48.639999 -681.88
12.92 -48.59 -681.21997
13.53 -48.540001 -680.52002
15.34 -48.32 -677.53003
15.94 -48.25 -676.47998
16.540001 -48.189999 -675.67999
17.139999 -48.130001 -674.87
17.74 -48.080002 -674.15997
18.35 -48.049999 -673.79999
18.959999 -48.040001 -673.52002
19.57 -48.02 -673.33002
20.18 -48.009998 -673.13
20.790001 -48 -672.98999
21.41 -47.98 -672.82001
22.02 -47.98 -672.82001
22.639999 -47.98 -672.82001
23.26 -47.990002 -672.91998
23.889999 -48.02 -673.25
24.52 -48.029999 -673.39001
25.139999 -48.040001 -673.59998
25.790001 -48.09 -674.22998
26.43 -48.130001 -674.78998
27.08 -48.189999 -675.69
27.719999 -48.23 -676.19
28.370001 -48.27 -676.77002
29 -48.290001 -677
29.629999 -48.290001 -677.09003
30.25 -48.299999 -677.20001
30.889999 -48.32 -677.45001
31.52 -48.34 -677.73999
32.169998 -48.380001 -678.26001
32.82 -48.41 -678.75
33.48 -48.470001 -679.47998
34.119999 -48.5 -679.96002
34.779999 -48.540001 -680.51001
46.93 -42.560001 -597.75
47.450001 -42.540001 -597.42999
47.959999 -42.5 -596.89001
48.470001 -42.470001 -596.45001
48.98 -42.439999 -596.03998
49.5 -42.419998 -595.72998
50.02 -42.400002 -595.42999
50.560001 -42.389999 -595.32001
51.080002 -42.369999 -595.08002
51.619999 -42.369999 -595.01001
52.150002 -42.349998 -594.83002
52.700001 -42.349998 -594.83002
53.25 -42.360001 -594.90002
53.82 -42.380001 -595.14001
54.400002 -42.400002 -595.5
54.990002 -42.439999 -595.97998
55.619999 -42.509998 -596.94
56.23 -42.549999 -597.53003
77.93 -49.759998 -697.26001
78.389999 -49.650002 -695.65002
78.889999 -49.560001 -694.48999
79.410004 -49.490002 -693.44
79.940002 -49.419998 -692.51001
80.470001 -49.360001 -691.64001
80.989998 -49.279999 -690.62
81.5 -48.830002 -684.33002
81.93 -48.709999 -682.71002
82.339996 -48.59 -680.96002
82.809998 -48.5 -679.71002
83.279999 -48.41 -678.46002
83.800003 -48.34 -677.58002
84.309998 -48.279999 -676.70001
84.830002 -48.220001 -675.94
85.379997 -48.189999 -675.40997
85.970001 -48.169998 -675.14001
86.540001 -48.139999 -674.77002
87.110001 -48.110001 -674.35999
87.699997 -48.09 -674.10999
88.300003 -48.09 -674.02002
88.93 -48.09 -674.08002
89.559998 -48.099998 -674.15002
90.199997 -48.110001 -674.31
90.860001 -48.130001 -674.57001
91.540001 -48.16 -675.01001
92.220001 -48.189999 -675.48999
92.940002 -48.240002 -676.15997
93.629997 -48.279999 -676.69
94.360001 -48.34 -677.46002
95.099998 -48.400002 -678.28003
95.870003 -48.470001 -679.28003
96.620003 -48.529999 -680.13
97.449997 -48.630001 -681.54999
98.239998 -48.720001 -682.66998
99.139999 -48.849998 -684.53998
-164.28 -40.48 -561.59998
-163.78999 -40.490002 -561.69
-163.28999 -40.490002 -561.71997
-162.83 -40.5 -561.90997
-162.36 -40.509998 -562.03998
-161.89999 -40.529999 -562.22998
-161.41 -40.529999 -562.34003
-160.94 -40.549999 -562.48999
-160.5 -40.560001 -562.73999
-160.12 -40.599998 -563.20001
-159.81 -40.650002 -563.91998
-159.44 -40.689999 -564.41998
-159.00999 -40.709999 -564.71997
-158.71001 -40.77 -565.47998
-158.52 -40.849998 -566.64001
-158.17 -40.889999 -567.21997
-157.83 -40.939999 -567.87
-157.71001 -41.040001 -569.27002
-157.35001 -41.09 -569.84998
-157.06 -41.150002 -570.67999
-156.71001 -41.189999 -571.31
-156.32001 -41.23 -571.79999
-155.92 -41.259998 -572.21997
-155.67999 -41.34 -573.27002
-155.34 -41.389999 -573.92999
-154.97 -41.43 -574.48999
-154.81 -41.529999 -575.82001
-150.44 -46.18 -639.32001
-149.87 -46.18 -639.37
-149.37 -46.209999 -639.76001
-148.8 -46.220001 -639.84003
-148.24001 -46.23 -639.96002
-128.95 -41.869999 -580.5
-128.28999 -41.830002 -579.90002
-127.63 -41.779999 -579.33002
-127.05 -41.77 -579.12
-126.53 -41.77 -579.16998
-126 -41.77 -579.19
-125.29 -41.709999 -578.38
-124.71 -41.700001 -578.15002
-124.18 -41.700001 -578.14001
-123.69 -41.709999 -578.34998
-123.15 -41.709999 -578.28003
-122.51 -41.669998 -577.78998
-121.97 -41.669998 -577.73999
-121.47 -41.68 -577.85999
-120.97 -41.68 -577.97998
-120.34 -41.650002 -577.54999
-119.75 -41.630001 -577.25
-119.24 -41.639999 -577.32001
-118.77 -41.66 -577.63
-118.19 -41.639999 -577.38
-117.57 -41.610001 -576.92999
-117.05 -41.610001 -576.96002
-116.54 -41.619999 -577.04999
-116.03 -41.630001 -577.19
-115.45 -41.610001 -576.92999
-114.88 -41.59 -576.70001
-114.36 -41.59 -576.73999
-113.85 -41.599998 -576.87
-113.27 -41.580002 -576.62
-112.77 -41.59 -576.76001
-112.3 -41.619999 -577.06
-111.72 -41.59 -576.78003
-111.2 -41.599998 -576.84003
-110.71 -41.610001 -577.03998
-110.19 -41.619999 -577.09003
-109.67 -41.619999 -577.12
-109.14 -41.619999 -577.13
-108.61 -41.619999 -577.14001
-108.11 -41.630001 -577.27002
-107.61 -41.639999 -577.40002
-107.12 -41.66 -577.65002
-106.6 -41.66 -577.70001
-106.05 -41.650002 -577.58002
-105.53 -41.66 -577.63
-105.08 -41.689999 -578.08002
-104.61 -41.709999 -578.37
-104.02 -41.689999 -578.09003
-103.49 -41.689999 -578.09003
-103.05 -41.720001 -578.54999
-102.5 -41.709999 -578.42999
-101.89 -41.68 -578.01001
-101.37 -41.68 -578.03998
-100.86 -41.700001 -578.20001
-100.42 -41.73 -578.70001
-99.93 -41.75 -578.94
-99.339996 -41.720001 -578.58002
-98.800003 -41.720001 -578.52002
-98.349998 -41.75 -578.98999
-97.849998 -41.77 -579.17999
-97.290001 -41.759998 -579.02002
-96.809998 -41.779999 -579.34003
-96.339996 -41.799999 -579.65997
-95.790001 -41.799999 -579.58002
-95.269997 -41.799999 -579.62
-94.760002 -41.810001 -579.75
-94.290001 -41.84 -580.13
-93.790001 -41.849998 -580.34998
-93.220001 -41.84 -580.13
-92.690002 -41.84 -580.13
-92.25 -41.880001 -580.69
-91.75 -41.889999 -580.90002
-91.18 -41.869999 -580.65997
-90.660004 -41.880001 -580.72998
-90.190002 -41.91 -581.10999
-89.660004 -41.91 -581.13
-89.080002 -41.880001 -580.81
-88.580002 -41.900002 -581.07001
-88.129997 -41.939999 -581.57001
-87.629997 -41.959999 -581.83002
-87.089996 -41.950001 -581.75
-86.57 -41.959999 -581.87
-86.07 -41.970001 -582.06
-85.610001 -42.009998 -582.56
-85.089996 -42.02 -582.65997
-84.559998 -42.02 -582.67999
-84.080002 -42.049999 -583.04999
-83.519997 -42.040001 -582.91998
-82.989998 -42.040001 -582.91998
-82.5 -42.060001 -583.21997
-82.040001 -42.099998 -583.78998
-81.540001 -42.119999 -584
-81.010002 -42.119999 -584.03998
-80.519997 -42.139999 -584.37
-80.010002 -42.16 -584.58002
-79.470001 -42.150002 -584.5
-78.940002 -42.16 -584.59998
-78.470001 -42.189999 -585.08002
-77.959999 -42.209999 -585.28998
-77.440002 -42.220001 -585.40997
-76.93 -42.23 -585.57001
-76.419998 -42.25 -585.79999
-75.900002 -42.259998 -585.95001
-75.400002 -42.27 -586.21002
-74.879997 -42.290001 -586.37
-74.349998 -42.290001 -586.44
-73.82 -42.299999 -586.5
-73.330002 -42.32 -586.85999
-72.82 -42.34 -587.08002
-72.279999 -42.34 -587.06
-71.739998 -42.330002 -587.03003
-71.199997 -42.34 -587.04999
-70.68 -42.34 -587.15002
-70.150002 -42.349998 -587.23999
-69.620003 -42.349998 -587.32001
-69.099998 -42.369999 -587.5
-68.580002 -42.380001 -587.60999
-68.019997 -42.369999 -587.48999
-67.459999 -42.349998 -587.22998
-66.910004 -42.34 -587.16998
-66.379997 -42.349998 -587.25
-65.849998 -42.360001 -587.34003
-65.309998 -42.349998 -587.28998
-64.760002 -42.34 -587.15997
-64.230003 -42.349998 -587.23999
-63.709999 -42.360001 -587.46002
-63.169998 -42.360001 -587.44
-62.580002 -42.32 -586.92999
-62.009998 -42.299999 -586.60999
-61.470001 -42.299999 -586.64001
-60.950001 -42.310001 -586.78998
-60.43 -42.330002 -586.96002
-59.900002 -42.330002 -587.06
-59.349998 -42.32 -586.95001
-58.799999 -42.32 -586.84003
-58.259998 -42.32 -586.84003
-57.740002 -42.330002 -586.97998
-57.220001 -42.34 -587.16998
-56.700001 -42.349998 -587.29999
-56.18 -42.360001 -587.51001
-55.66 -42.380001 -587.70001
-55.130001 -42.389999 -587.84003
-54.599998 -42.389999 -587.87
-54.080002 -42.41 -588.10999
-53.560001 -42.419998 -588.34003
-53.049999 -42.450001 -588.67999
-52.540001 -42.470001 -588.97998
-52.040001 -42.5 -589.39001
