# .PCD v0.7 - Point Cloud Data file format
VERSION 0.7
FIELDS x y z
SIZE 4 4 4
TYPE F F F
COUNT 1 1 1
WIDTH 1603
HEIGHT 1
VIEWPOINT 0 0 0 1 0 0 0
POINTS 1603
DATA ascii
-14.76 -70.029999 -589.21997
-14.24 -70.099998 -589.84003
-13.72 -70.199997 -590.59003
-13.2 -70.300003 -591.46002
-12.67 -70.389999 -592.21997
-12.14 -70.459999 -592.79999
-11.61 -70.529999 -593.34998
-11.08 -70.650002 -594.34003
-10.56 -70.790001 -595.53998
-10.03 -70.910004 -596.5
-9.5100002 -71.080002 -597.94
-8.9700003 -71.190002 -598.81
-8.4200001 -71.209999 -599.02002
-7.2399998 -76.059998 -639.20001
-6.6799998 -76.339996 -641.51001
-6.0900002 -76.389999 -641.91998
-5.5100002 -76.440002 -642.37
-4.9200001 -76.5 -642.84003
-4.3299999 -76.550003 -643.23999
-3.74 -76.580002 -643.47998
-3.1500001 -76.589996 -643.56
-2.5599999 -76.57 -643.44
-1.97 -76.559998 -643.34998
-1.38 -76.529999 -643.10999
-0.79000002 -76.489998 -642.73999
-0.2 -76.459999 -642.48999
0.38999999 -76.43 -642.27002
0.98000002 -76.400002 -641.97998
1.5599999 -76.360001 -641.65002
2.1500001 -76.32 -641.34003
2.74 -76.300003 -641.21997
3.3299999 -76.269997 -640.95001
3.9100001 -76.25 -640.77002
4.5 -76.209999 -640.46002
5.0900002 -76.18 -640.15997
5.6700001 -76.160004 -640.01001
6.2600002 -76.139999 -639.84998
6.8400002 -76.120003 -639.70001
7.4299998 -76.099998 -639.51001
8.0100002 -76.089996 -639.42999
8.6000004 -76.07 -639.28003
9.1800003 -76.059998 -639.15997
9.7700005 -76.040001 -639
10.35 -76.019997 -638.90002
10.94 -76.010002 -638.75
11.52 -75.989998 -638.65002
12.1 -75.989998 -638.58002
12.69 -75.959999 -638.38
13.27 -75.959999 -638.39001
13.85 -75.949997 -638.25
14.44 -75.940002 -638.16998
15.02 -75.93 -638.08002
15.61 -75.919998 -638.03003
16.190001 -75.900002 -637.89001
16.77 -75.900002 -637.83002
17.360001 -75.900002 -637.83002
17.940001 -75.889999 -637.73999
18.530001 -75.889999 -637.82001
19.110001 -75.879997 -637.71002
19.690001 -75.879997 -637.72998
20.280001 -75.879997 -637.71997
20.860001 -75.870003 -637.64001
21.450001 -75.879997 -637.67999
22.030001 -75.879997 -637.71997
22.620001 -75.879997 -637.71997
23.209999 -75.879997 -637.71997
23.790001 -75.889999 -637.77002
24.379999 -75.889999 -637.72998
24.969999 -75.900002 -637.87
25.549999 -75.900002 -637.85999
26.139999 -75.910004 -637.91998
26.73 -75.910004 -637.95001
27.309999 -75.919998 -637.97998
27.9 -75.919998 -638.03998
28.49 -75.93 -638.09998
29.08 -75.93 -638.12
29.66 -75.940002 -638.17999
30.26 -75.970001 -638.40002
30.85 -75.980003 -638.5
31.440001 -75.989998 -638.54999
32.02 -75.980003 -638.5
32.619999 -76.010002 -638.71997
33.209999 -76.019997 -638.83002
33.810001 -76.040001 -638.96997
34.400002 -76.050003 -639.07001
35 -76.080002 -639.35999
35.59 -76.089996 -639.40997
36.189999 -76.110001 -639.59998
36.779999 -76.129997 -639.75
37.380001 -76.160004 -639.96002
37.98 -76.190002 -640.20001
38.580002 -76.209999 -640.40002
39.189999 -76.239998 -640.62
39.779999 -76.260002 -640.78998
40.380001 -76.279999 -640.97998
40.990002 -76.32 -641.29999
41.599998 -76.349998 -641.58002
42.209999 -76.389999 -641.90002
42.82 -76.419998 -642.15002
43.43 -76.470001 -642.56
44.040001 -76.510002 -642.84003
44.66 -76.550003 -643.15997
45.27 -76.589996 -643.48999
45.889999 -76.629997 -643.90002
46.509998 -76.68 -644.27002
47.130001 -76.720001 -644.62
47.75 -76.769997 -645.01001
48.380001 -76.830002 -645.51001
49 -76.870003 -645.88
49.630001 -76.940002 -646.45001
50.259998 -76.989998 -646.84998
50.91 -77.07 -647.53003
51.540001 -77.129997 -647.97998
52.169998 -77.18 -648.42999
52.790001 -77.220001 -648.73999
53.389999 -77.230003 -648.82001
51.09 -70.75 -595.09998
51.529999 -70.599998 -593.84003
52.02 -70.519997 -593.23999
52.529999 -70.489998 -592.91998
53.060001 -70.459999 -592.69
53.59 -70.440002 -592.52002
54.119999 -70.43 -592.47998
54.669998 -70.43 -592.46997
55.189999 -70.410004 -592.27002
55.73 -70.400002 -592.21997
56.27 -70.400002 -592.23999
56.82 -70.400002 -592.22998
57.369999 -70.419998 -592.38
57.950001 -70.459999 -592.71002
58.549999 -70.529999 -593.25
59.18 -70.639999 -594.15002
60.619999 -71.690002 -602.87
67.589996 -79.209999 -665.21997
-129.5 -67.599998 -564.58002
-128.78999 -67.5 -563.72998
-128.06 -67.389999 -562.83002
-127.39 -67.309998 -562.15997
-126.75 -67.239998 -561.63
-126.13 -67.190002 -561.15002
-125.52 -67.139999 -560.73999
-124.93 -67.089996 -560.38
-124.39 -67.080002 -560.26001
-123.81 -67.040001 -559.97998
-123.25 -67.019997 -559.77002
-122.7 -67 -559.59998
-122.15 -66.980003 -559.44
-121.62 -66.970001 -559.34003
-121.09 -66.949997 -559.25
-120.55 -66.940002 -559.12
-120.02 -66.93 -559.04999
-119.49 -66.919998 -558.98999
-118.97 -66.919998 -558.92999
-118.46 -66.919998 -558.92999
-117.92 -66.900002 -558.81
-117.4 -66.900002 -558.78003
-116.88 -66.889999 -558.72998
-116.35 -66.879997 -558.64001
-115.82 -66.870003 -558.59003
-115.31 -66.870003 -558.59003
-114.79 -66.870003 -558.53998
-114.28 -66.870003 -558.53998
-113.77 -66.870003 -558.58002
-113.25 -66.870003 -558.51001
-112.74 -66.870003 -558.53998
-112.22 -66.860001 -558.48999
-111.71 -66.860001 -558.47998
-111.2 -66.860001 -558.48999
-110.68 -66.860001 -558.47998
-110.18 -66.860001 -558.5
-109.67 -66.870003 -558.53003
-109.17 -66.870003 -558.57001
-108.67 -66.879997 -558.65997
-108.17 -66.889999 -558.70001
-107.66 -66.889999 -558.71002
-107.17 -66.900002 -558.81
-106.67 -66.910004 -558.90002
-106.16 -66.910004 -558.92999
-105.67 -66.919998 -559
-105.16 -66.919998 -559.01001
-104.67 -66.940002 -559.15997
-104.18 -66.959999 -559.28003
-103.69 -66.970001 -559.40002
-103.2 -66.989998 -559.53003
-102.74 -67.019997 -559.77002
-102.24 -67.029999 -559.85999
-101.77 -67.059998 -560.09998
-101.29 -67.080002 -560.26001
-100.82 -67.099998 -560.5
-100.35 -67.139999 -560.75
-99.889999 -67.169998 -561.06
-99.43 -67.199997 -561.33002
-98.959999 -67.239998 -561.59998
-98.510002 -67.279999 -561.97998
-98.029999 -67.309998 -562.15997
-97.559998 -67.339996 -562.40997
-97.099998 -67.379997 -562.76001
-96.639999 -67.419998 -563.07001
-96.18 -67.449997 -563.37
-95.709999 -67.489998 -563.65002
-95.269997 -67.540001 -564.09998
-94.830002 -67.589996 -564.53998
-94.389999 -67.650002 -565.03003
-93.940002 -67.699997 -565.40997
-93.529999 -67.779999 -566.03998
-93.129997 -67.860001 -566.77002
-92.82 -68.019997 -568.01001
-94.82 -72.32 -603.40997
-94.18 -72.260002 -602.90002
-93.599998 -72.239998 -602.72998
-93.029999 -72.220001 -602.57001
-92.379997 -72.150002 -602
-91.639999 -71.989998 -600.73999
-90.919998 -71.870003 -599.67999
-90.330002 -71.830002 -599.40997
-89.510002 -71.610001 -597.60999
-88.760002 -71.449997 -596.28003
-88.129997 -71.379997 -595.71997
-87.550003 -71.360001 -595.52002
-87 -71.349998 -595.45001
-86.309998 -71.239998 -594.53998
-85.68 -71.169998 -593.94
-85.089996 -71.129997 -593.62
-84.489998 -71.080002 -593.25
-83.910004 -71.050003 -593
-83.279999 -70.970001 -592.34998
-82.589996 -70.849998 -591.37
-81.989998 -70.800003 -590.92999
-81.389999 -70.75 -590.54999
-80.82 -70.720001 -590.31
-80.260002 -70.709999 -590.21002
-79.699997 -70.690002 -590.03998
-79.099998 -70.639999 -589.60999
-78.5 -70.589996 -589.19
-77.93 -70.559998 -588.96002
-77.379997 -70.550003 -588.89001
-76.82 -70.529999 -588.77002
-76.209999 -70.470001 -588.21997
-75.620003 -70.410004 -587.78998
-75.040001 -70.379997 -587.47998
-74.43 -70.309998 -586.91998
-73.870003 -70.290001 -586.76001
-73.32 -70.279999 -586.65997
-72.760002 -70.260002 -586.53998
-72.199997 -70.239998 -586.37
-71.650002 -70.220001 -586.22998
-71.099998 -70.209999 -586.15997
-70.529999 -70.18 -585.84003
-69.949997 -70.129997 -585.51001
-69.400002 -70.120003 -585.37
-68.849998 -70.110001 -585.31
-68.32 -70.110001 -585.34998
-67.769997 -70.099998 -585.27002
-67.230003 -70.099998 -585.20001
-66.639999 -70.040001 -584.75
-66.080002 -70.019997 -584.57001
-65.540001 -70.010002 -584.46997
-64.989998 -70 -584.40002
-64.440002 -69.980003 -584.21997
-63.889999 -69.959999 -584.12
-63.349998 -69.959999 -584.07001
-62.82 -69.959999 -584.08002
-62.279999 -69.959999 -584.10999
-61.73 -69.949997 -583.97998
-61.169998 -69.910004 -583.71997
-60.619999 -69.900002 -583.57001
-60.07 -69.879997 -583.47998
-59.549999 -69.900002 -583.59003
-59.02 -69.910004 -583.67999
-58.490002 -69.910004 -583.69
-57.959999 -69.910004 -583.72998
-57.419998 -69.910004 -583.71997
-56.889999 -69.919998 -583.76001
-56.330002 -69.879997 -583.47998
-55.77 -69.849998 -583.23999
-55.23 -69.849998 -583.16998
-54.700001 -69.849998 -583.21002
-54.16 -69.839996 -583.16998
-53.630001 -69.849998 -583.22998
-53.099998 -69.849998 -583.21997
-52.549999 -69.839996 -583.14001
-52.02 -69.839996 -583.14001
-51.48 -69.839996 -583.12
-50.950001 -69.839996 -583.17999
-50.43 -69.849998 -583.23999
-49.889999 -69.860001 -583.28003
-49.360001 -69.860001 -583.31
-48.84 -69.870003 -583.40002
-48.299999 -69.879997 -583.44
-47.779999 -69.889999 -583.53003
-47.25 -69.889999 -583.58002
-46.73 -69.910004 -583.76001
-46.200001 -69.93 -583.88
-45.66 -69.93 -583.85999
-45.119999 -69.919998 -583.81
-44.580002 -69.910004 -583.72998
-44.060001 -69.919998 -583.84003
-43.529999 -69.940002 -583.95001
-43.02 -69.980003 -584.34003
-42.5 -70.010002 -584.54999
-41.959999 -70 -584.46002
-41.419998 -69.980003 -584.33002
-40.889999 -69.989998 -584.41998
-40.360001 -70.010002 -584.58002
-39.84 -70.040001 -584.82001
-39.32 -70.059998 -585.01001
-38.790001 -70.07 -585.06
-38.25 -70.07 -585.07001
-37.720001 -70.089996 -585.21002
-37.200001 -70.110001 -585.37
-36.669998 -70.120003 -585.46997
-36.150002 -70.150002 -585.72998
-35.619999 -70.18 -585.95001
-35.099998 -70.199997 -586.09998
-34.560001 -70.190002 -586.09003
-34.02 -70.190002 -586.06
-33.48 -70.190002 -586.09003
-32.959999 -70.220001 -586.33002
-32.450001 -70.269997 -586.72998
-31.9 -70.239998 -586.5
-31.33 -70.169998 -585.91998
-30.790001 -70.169998 -585.88
-30.26 -70.18 -585.97998
-29.709999 -70.150002 -585.73999
-29.15 -70.110001 -585.42999
-28.629999 -70.150002 -585.76001
-28.1 -70.150002 -585.77002
-27.530001 -70.080002 -585.15002
-26.98 -70.050003 -584.92999
-26.459999 -70.07 -585.10999
-25.93 -70.089996 -585.23999
-25.389999 -70.089996 -585.21997
-24.85 -70.07 -585.10999
-24.309999 -70.080002 -585.15997
-23.790001 -70.099998 -585.35999
-23.26 -70.129997 -585.59998
-22.73 -70.150002 -585.76001
-22.190001 -70.150002 -585.73999
-21.66 -70.18 -586.01001
-21.139999 -70.220001 -586.32001
-20.610001 -70.260002 -586.70001
-20.08 -70.269997 -586.76001
-19.540001 -70.279999 -586.79999
-19.02 -70.32 -587.15997
-18.49 -70.360001 -587.53003
-17.959999 -70.379997 -587.66998
-17.43 -70.419998 -587.95001
-16.9 -70.459999 -588.28998
-16.370001 -70.5 -588.66998
-15.83 -70.529999 -588.87
-15.31 -70.610001 -589.57001
-14.78 -70.660004 -589.97998
-14.26 -70.730003 -590.51001
-13.73 -70.800003 -591.09003
-13.21 -70.910004 -592.01001
-12.68 -71 -592.76001
-12.15 -71.080002 -593.40997
-11.62 -71.160004 -594.09998
-11.1 -71.300003 -595.23999
-10.57 -71.400002 -596.01001
-10.04 -71.529999 -597.14001
-9.5100002 -71.68 -598.38
-8.9899998 -71.919998 -600.34998
-8.4300003 -76.830002 -640.69
-7.8499999 -76.849998 -640.83002
-7.2600002 -76.879997 -641.08002
-6.6700001 -76.910004 -641.35999
-6.0900002 -76.970001 -641.87
-5.5100002 -77.010002 -642.19
-4.9200001 -77.080002 -642.73999
-4.3299999 -77.110001 -643.02002
-3.74 -77.150002 -643.34003
-3.1500001 -77.160004 -643.46002
-2.5599999 -77.150002 -643.34003
-1.97 -77.129997 -643.19
-1.38 -77.099998 -642.89001
-0.79000002 -77.07 -642.66998
-0.2 -77.029999 -642.33002
0.38999999 -76.989998 -642.02002
0.98000002 -76.949997 -641.70001
1.5599999 -76.919998 -641.45001
2.1500001 -76.879997 -641.15997
2.74 -76.870003 -640.98999
3.3299999 -76.830002 -640.73999
3.9100001 -76.809998 -640.52002
4.5 -76.769997 -640.21997
5.0799999 -76.739998 -639.95001
5.6700001 -76.709999 -639.73999
6.2600002 -76.699997 -639.65002
6.8400002 -76.68 -639.51001
7.4299998 -76.660004 -639.34003
8.0100002 -76.650002 -639.19
8.5900002 -76.629997 -639.02002
9.1800003 -76.610001 -638.90997
9.7600002 -76.599998 -638.81
10.35 -76.57 -638.58002
10.93 -76.57 -638.53998
11.51 -76.550003 -638.37
12.1 -76.540001 -638.34998
12.68 -76.519997 -638.16998
13.27 -76.519997 -638.12
13.85 -76.510002 -638.03003
14.43 -76.5 -637.96997
15.02 -76.489998 -637.87
15.6 -76.470001 -637.72998
16.190001 -76.480003 -637.78998
16.77 -76.470001 -637.77002
17.35 -76.470001 -637.71002
17.940001 -76.449997 -637.59998
18.52 -76.459999 -637.69
19.110001 -76.459999 -637.60999
19.690001 -76.459999 -637.60999
20.27 -76.449997 -637.58002
20.860001 -76.440002 -637.51001
21.440001 -76.440002 -637.51001
22.030001 -76.449997 -637.57001
22.620001 -76.449997 -637.59998
23.200001 -76.459999 -637.67999
23.790001 -76.470001 -637.71997
24.370001 -76.459999 -637.67999
24.959999 -76.470001 -637.71002
25.549999 -76.470001 -637.76001
26.129999 -76.480003 -637.81
26.719999 -76.489998 -637.89001
27.309999 -76.5 -637.97998
27.9 -76.510002 -638.03003
28.49 -76.510002 -638.06
29.08 -76.519997 -638.13
29.66 -76.529999 -638.17999
30.26 -76.550003 -638.34003
30.85 -76.559998 -638.42999
31.43 -76.559998 -638.42999
32.02 -76.57 -638.53003
32.619999 -76.599998 -638.78998
33.209999 -76.610001 -638.82001
33.799999 -76.620003 -638.94
34.400002 -76.629997 -639.04999
34.990002 -76.650002 -639.19
35.59 -76.68 -639.46002
36.18 -76.68 -639.46002
36.779999 -76.709999 -639.65997
37.380001 -76.739998 -639.88
37.98 -76.769997 -640.15997
38.580002 -76.790001 -640.34003
39.189999 -76.830002 -640.63
39.779999 -76.839996 -640.75
40.389999 -76.870003 -641
40.990002 -76.900002 -641.23999
41.599998 -76.949997 -641.60999
42.209999 -76.989998 -641.92999
42.82 -77.019997 -642.21997
43.43 -77.050003 -642.44
44.049999 -77.099998 -642.87
44.650002 -77.129997 -643.12
45.27 -77.18 -643.51001
45.880001 -77.220001 -643.82001
46.509998 -77.269997 -644.23999
47.119999 -77.309998 -644.59003
47.75 -77.370003 -645.04999
48.369999 -77.410004 -645.41998
48.990002 -77.459999 -645.83002
49.630001 -77.529999 -646.41998
50.259998 -77.580002 -646.78998
50.900002 -77.650002 -647.39001
51.540001 -77.720001 -647.95001
52.169998 -77.769997 -648.38
52.779999 -77.809998 -648.65002
51.080002 -71.279999 -595
51.540001 -71.150002 -593.94
52.040001 -71.089996 -593.46002
52.549999 -71.050003 -593.09998
53.060001 -71.010002 -592.73999
53.59 -70.989998 -592.56
54.130001 -70.980003 -592.5
54.669998 -70.980003 -592.46997
55.189999 -70.949997 -592.28998
55.740002 -70.959999 -592.37
56.279999 -70.949997 -592.28003
56.82 -70.959999 -592.32001
57.380001 -70.970001 -592.45001
57.959999 -71.010002 -592.77002
58.549999 -71.080002 -593.31
59.200001 -71.199997 -594.28998
60.25 -71.800003 -599.23999
-161.71001 -76.510002 -633.03003
-161.13 -76.5 -633.01001
-160.58 -76.519997 -633.14001
-160.10001 -76.57 -633.53998
-129.38 -68.059998 -564.04999
-128.67 -67.949997 -563.21997
-128.00999 -67.879997 -562.60999
-127.33 -67.790001 -561.90997
-126.72 -67.739998 -561.46997
-126.13 -67.699997 -561.15997
-125.5 -67.639999 -560.64001
-124.94 -67.610001 -560.45001
-124.38 -67.589996 -560.21997
-123.82 -67.559998 -560.02002
-123.27 -67.540001 -559.84998
-122.72 -67.519997 -559.67999
-122.17 -67.5 -559.51001
-121.64 -67.489998 -559.44
-121.1 -67.470001 -559.29999
-120.58 -67.470001 -559.28003
-120.03 -67.449997 -559.09998
-119.51 -67.440002 -559.06
-118.97 -67.43 -558.94
-118.45 -67.43 -558.90997
-117.92 -67.410004 -558.82001
-117.39 -67.400002 -558.71997
-116.85 -67.389999 -558.62
-116.31 -67.370003 -558.48999
-115.79 -67.370003 -558.42999
-115.27 -67.360001 -558.39001
-114.76 -67.360001 -558.38
-114.24 -67.360001 -558.38
-113.73 -67.360001 -558.38
-113.22 -67.360001 -558.38
-112.71 -67.360001 -558.35999
-112.19 -67.360001 -558.35999
-111.7 -67.370003 -558.46997
-111.19 -67.370003 -558.44
-110.69 -67.379997 -558.52002
-110.18 -67.379997 -558.52002
-109.68 -67.389999 -558.59003
-109.18 -67.389999 -558.62
-108.65 -67.379997 -558.56
-108.16 -67.389999 -558.65997
-107.66 -67.400002 -558.75
-107.16 -67.410004 -558.79999
-106.66 -67.419998 -558.85999
-106.16 -67.419998 -558.90997
-105.67 -67.440002 -559.02002
-105.18 -67.449997 -559.12
-104.68 -67.459999 -559.20001
-104.19 -67.480003 -559.34998
-103.7 -67.489998 -559.46002
-103.22 -67.510002 -559.62
-102.74 -67.529999 -559.79999
-102.25 -67.550003 -559.90997
-101.78 -67.57 -560.13
-101.31 -67.610001 -560.39001
-100.83 -67.629997 -560.56
-100.35 -67.650002 -560.76001
-99.889999 -67.690002 -561.06
-99.419998 -67.720001 -561.29999
-98.949997 -67.75 -561.54999
-98.5 -67.790001 -561.90997
-98.040001 -67.830002 -562.21997
-97.580002 -67.870003 -562.54999
-97.129997 -67.910004 -562.90002
-96.68 -67.959999 -563.31
-96.230003 -68 -563.65997
-95.779999 -68.050003 -564.07001
-95.32 -68.089996 -564.38
-94.879997 -68.150002 -564.82001
-94.43 -68.199997 -565.25
-93.989998 -68.260002 -565.71997
-93.589996 -68.339996 -566.40997
-93.239998 -68.459999 -567.41998
-92.910004 -68.599998 -568.56
-94.769997 -72.830002 -603.08002
-94.120003 -72.760002 -602.5
-93.519997 -72.730003 -602.21997
-92.910004 -72.68 -601.82001
-92.279999 -72.620003 -601.32001
-91.5 -72.440002 -599.85999
-90.809998 -72.32 -598.92999
-90.209999 -72.290001 -598.62
-89.43 -72.099998 -597.09998
-88.68 -71.93 -595.72998
-88.059998 -71.870003 -595.27002
-87.470001 -71.839996 -595
-86.919998 -71.830002 -594.95001
-86.290001 -71.769997 -594.40002
-85.639999 -71.68 -593.65997
-85.019997 -71.610001 -593.14001
-84.43 -71.57 -592.78998
-83.839996 -71.529999 -592.5
-83.279999 -71.519997 -592.37
-82.589996 -71.389999 -591.34998
-81.949997 -71.309998 -590.65002
-81.370003 -71.269997 -590.35999
-80.779999 -71.230003 -590.06
-80.209999 -71.199997 -589.81
-79.660004 -71.199997 -589.77002
-79.080002 -71.160004 -589.48999
-78.489998 -71.120003 -589.12
-77.889999 -71.059998 -588.63
-77.330002 -71.050003 -588.53998
-76.790001 -71.040001 -588.47998
-76.209999 -71.010002 -588.21997
-75.599998 -70.940002 -587.66998
-75.019997 -70.889999 -587.31
-74.410004 -70.830002 -586.82001
-73.839996 -70.800003 -586.57001
-73.279999 -70.779999 -586.39001
-72.739998 -70.769997 -586.32001
-72.169998 -70.75 -586.10999
-71.629997 -70.739998 -586.03998
-71.080002 -70.730003 -585.96002
-70.519997 -70.699997 -585.75
-69.940002 -70.660004 -585.42999
-69.379997 -70.639999 -585.23999
-68.830002 -70.620003 -585.09998
-68.290001 -70.620003 -585.08002
-67.75 -70.610001 -585.04999
-67.209999 -70.610001 -585.03003
-66.650002 -70.589996 -584.84998
-66.059998 -70.529999 -584.40002
-65.510002 -70.510002 -584.23999
-64.970001 -70.510002 -584.21002
-64.43 -70.5 -584.15997
-63.880001 -70.489998 -584.01001
-63.330002 -70.470001 -583.90997
-62.799999 -70.470001 -583.90997
-62.259998 -70.470001 -583.90002
-61.73 -70.480003 -583.92999
-61.18 -70.459999 -583.78003
-60.619999 -70.43 -583.53998
-60.07 -70.410004 -583.44
-59.540001 -70.419998 -583.46002
-59 -70.419998 -583.47998
-58.470001 -70.419998 -583.53003
-57.950001 -70.43 -583.59998
-57.41 -70.43 -583.54999
-56.869999 -70.43 -583.54999
-56.34 -70.43 -583.54999
-55.779999 -70.389999 -583.28003
-55.220001 -70.370003 -583.07001
-54.68 -70.360001 -583.03998
-54.16 -70.370003 -583.10999
-53.619999 -70.370003 -583.10999
-53.09 -70.370003 -583.10999
-52.549999 -70.370003 -583.10999
-52.009998 -70.370003 -583.07001
-51.48 -70.360001 -583.03003
-50.950001 -70.370003 -583.09998
-50.419998 -70.379997 -583.16998
-49.900002 -70.389999 -583.28998
-49.360001 -70.389999 -583.27002
-48.84 -70.410004 -583.40002
-48.310001 -70.419998 -583.52002
-47.779999 -70.43 -583.58002
-47.25 -70.43 -583.64001
-46.720001 -70.440002 -583.69
-46.200001 -70.459999 -583.88
-45.669998 -70.480003 -584
-45.139999 -70.480003 -584.03998
-44.59 -70.459999 -583.88
-44.060001 -70.459999 -583.83002
-43.529999 -70.470001 -583.96997
-43.009998 -70.5 -584.20001
-42.5 -70.540001 -584.53998
-41.98 -70.57 -584.76001
-41.450001 -70.57 -584.72998
-40.91 -70.559998 -584.69
-40.369999 -70.57 -584.72998
-39.849998 -70.580002 -584.85999
-39.32 -70.610001 -585.06
-38.799999 -70.629997 -585.23999
-38.27 -70.639999 -585.33002
-37.73 -70.629997 -585.27002
-37.200001 -70.650002 -585.40997
-36.68 -70.669998 -585.59003
-36.150002 -70.690002 -585.71997
-35.630001 -70.720001 -585.96002
-35.099998 -70.739998 -586.20001
-34.580002 -70.769997 -586.42999
-34.040001 -70.769997 -586.38
-33.509998 -70.779999 -586.46002
-32.98 -70.790001 -586.59998
-32.450001 -70.82 -586.83002
-31.93 -70.860001 -587.16998
-31.370001 -70.809998 -586.77002
-30.809999 -70.75 -586.28003
-30.280001 -70.769997 -586.40997
-29.74 -70.779999 -586.46997
-29.200001 -70.75 -586.28998
-28.66 -70.75 -586.26001
-28.129999 -70.769997 -586.42999
-27.57 -70.709999 -585.92999
-27.01 -70.660004 -585.53003
-26.48 -70.68 -585.66998
-25.950001 -70.699997 -585.85999
-25.42 -70.720001 -585.98999
-24.879999 -70.709999 -585.95001
-24.35 -70.730003 -586.13
-23.82 -70.75 -586.26001
-23.290001 -70.769997 -586.41998
-22.76 -70.779999 -586.5
-22.219999 -70.779999 -586.51001
-21.690001 -70.790001 -586.60999
-21.16 -70.830002 -586.90002
-20.639999 -70.879997 -587.34003
-20.110001 -70.919998 -587.64001
-19.58 -70.93 -587.75
-19.040001 -70.940002 -587.83002
-18.51 -70.980003 -588.14001
-17.98 -71.019997 -588.44
-17.450001 -71.040001 -588.62
-16.91 -71.059998 -588.81
-16.379999 -71.110001 -589.22998
-15.86 -71.18 -589.78998
-15.34 -71.25 -590.39001
-14.81 -71.309998 -590.84003
-14.28 -71.370003 -591.29999
-13.75 -71.43 -591.82001
-13.22 -71.510002 -592.52002
-12.69 -71.620003 -593.37
-12.17 -71.75 -594.46997
-11.64 -71.830002 -595.13
-11.11 -71.93 -595.89001
-10.58 -72.050003 -596.87
-10.06 -72.220001 -598.25
-9.5500002 -72.540001 -600.89001
-8.9200001 -76.589996 -633.92999
-8.4300003 -77.419998 -640.71002
-7.8499999 -77.43 -640.82001
-7.2600002 -77.459999 -641.04999
-6.6799998 -77.5 -641.39001
-6.0900002 -77.559998 -641.89001
-5.5100002 -77.610001 -642.22998
-4.9200001 -77.669998 -642.71997
-4.3299999 -77.699997 -642.96997
-3.74 -77.730003 -643.27002
-3.1500001 -77.730003 -643.28003
-2.5599999 -77.720001 -643.19
-1.97 -77.699997 -643.02002
-1.38 -77.660004 -642.67999
-0.79000002 -77.629997 -642.40002
-0.2 -77.599998 -642.15002
0.38999999 -77.559998 -641.85999
0.98000002 -77.519997 -641.53003
1.5599999 -77.489998 -641.25
2.1500001 -77.440002 -640.87
2.74 -77.419998 -640.72998
3.3299999 -77.389999 -640.47998
3.9100001 -77.360001 -640.26001
4.5 -77.330002 -640.01001
5.0799999 -77.309998 -639.83002
5.6700001 -77.279999 -639.54999
6.25 -77.260002 -639.39001
6.8400002 -77.239998 -639.22998
7.4200001 -77.220001 -639.07001
8.0100002 -77.199997 -638.91998
8.5900002 -77.18 -638.78998
9.1800003 -77.169998 -638.64001
9.7600002 -77.160004 -638.57001
10.34 -77.139999 -638.40002
10.93 -77.120003 -638.28998
11.51 -77.110001 -638.19
12.1 -77.099998 -638.10999
12.68 -77.080002 -637.96002
13.26 -77.080002 -637.90002
13.85 -77.07 -637.84003
14.43 -77.059998 -637.73999
15.01 -77.040001 -637.60999
15.6 -77.040001 -637.65002
16.18 -77.029999 -637.51001
16.76 -77.029999 -637.53003
17.35 -77.019997 -637.47998
17.93 -77.019997 -637.45001
18.52 -77.019997 -637.46997
19.1 -77.019997 -637.45001
19.68 -77.010002 -637.38
20.27 -77.019997 -637.42999
20.860001 -77.019997 -637.46997
21.440001 -77.010002 -637.38
22.02 -77.019997 -637.41998
22.610001 -77.029999 -637.52002
23.200001 -77.040001 -637.57001
23.790001 -77.040001 -637.58002
24.370001 -77.040001 -637.60999
24.959999 -77.040001 -637.63
25.549999 -77.050003 -637.70001
26.139999 -77.07 -637.83002
26.719999 -77.07 -637.81
27.309999 -77.089996 -637.96997
27.9 -77.080002 -637.92999
28.49 -77.099998 -638.06
29.07 -77.099998 -638.08002
29.66 -77.110001 -638.17999
30.25 -77.129997 -638.28998
30.84 -77.139999 -638.37
31.440001 -77.150002 -638.48999
32.029999 -77.160004 -638.59003
32.619999 -77.18 -638.76001
33.209999 -77.18 -638.76001
33.799999 -77.199997 -638.91998
34.400002 -77.220001 -639.06
34.990002 -77.239998 -639.23999
35.59 -77.260002 -639.35999
36.189999 -77.290001 -639.58002
36.790001 -77.309998 -639.78998
37.389999 -77.339996 -640.01001
37.98 -77.349998 -640.09998
38.580002 -77.379997 -640.33002
39.18 -77.410004 -640.57001
39.779999 -77.43 -640.76001
40.389999 -77.470001 -641.07001
41 -77.5 -641.33002
41.599998 -77.540001 -641.62
42.209999 -77.559998 -641.84998
42.82 -77.599998 -642.15997
43.43 -77.639999 -642.48999
44.040001 -77.68 -642.78998
44.650002 -77.720001 -643.14001
45.27 -77.769997 -643.47998
45.889999 -77.809998 -643.87
46.5 -77.849998 -644.20001
47.130001 -77.910004 -644.60999
47.75 -77.959999 -645.03003
48.380001 -78.010002 -645.48999
49.009998 -78.07 -645.96997
49.630001 -78.120003 -646.39001
50.27 -78.190002 -646.94
50.900002 -78.25 -647.38
51.529999 -78.309998 -647.89001
52.16 -78.349998 -648.26001
52.77 -78.370003 -648.42999
51.130001 -71.889999 -595.5
51.549999 -71.709999 -594.04999
52.040001 -71.639999 -593.51001
52.560001 -71.610001 -593.21997
53.07 -71.559998 -592.84998
53.599998 -71.550003 -592.70001
54.139999 -71.529999 -592.59003
54.68 -71.529999 -592.59003
55.209999 -71.519997 -592.48999
55.740002 -71.5 -592.29999
56.290001 -71.510002 -592.40002
56.84 -71.510002 -592.41998
57.389999 -71.529999 -592.59003
57.970001 -71.57 -592.87
58.560001 -71.629997 -593.34003
59.189999 -71.730003 -594.17999
59.830002 -71.849998 -595.14001
-162.17 -77.029999 -632.54999
-161.49001 -76.980003 -632.16998
-160.89 -76.980003 -632.12
-160.34 -76.989998 -632.21997
-159.85001 -77.029999 -632.57001
-159.44 -77.120003 -633.25
-130 -68.629997 -564.5
-129.28 -68.519997 -563.64001
-128.59 -68.43 -562.89001
-127.95 -68.360001 -562.35999
-127.33 -68.309998 -561.90997
-126.7 -68.239998 -561.39001
-126.12 -68.209999 -561.10999
-125.54 -68.18 -560.83002
-124.98 -68.150002 -560.60999
-124.4 -68.110001 -560.33002
-123.84 -68.089996 -560.12
-123.3 -68.07 -560
-122.75 -68.050003 -559.82001
-122.2 -68.029999 -559.64001
-121.64 -68 -559.41998
-121.09 -67.980003 -559.28003
-120.56 -67.970001 -559.19
-120.01 -67.949997 -559.02002
-119.47 -67.93 -558.88
-118.94 -67.919998 -558.78998
-118.41 -67.919998 -558.73999
-117.87 -67.900002 -558.58002
-117.34 -67.889999 -558.51001
-116.82 -67.879997 -558.45001
-116.29 -67.870003 -558.39001
-115.76 -67.860001 -558.31
-115.25 -67.860001 -558.31
-114.74 -67.860001 -558.28003
-114.23 -67.860001 -558.29999
-113.71 -67.860001 -558.28003
-113.19 -67.849998 -558.23999
-112.68 -67.849998 -558.23999
-112.18 -67.860001 -558.29999
-111.68 -67.860001 -558.32001
-111.16 -67.860001 -558.32001
-110.65 -67.870003 -558.33002
-110.16 -67.879997 -558.41998
-109.66 -67.889999 -558.48999
-109.15 -67.879997 -558.47998
-108.64 -67.879997 -558.47998
-108.13 -67.889999 -558.5
-107.63 -67.889999 -558.54999
-107.14 -67.910004 -558.69
-106.65 -67.919998 -558.77002
-106.14 -67.919998 -558.79999
-105.65 -67.940002 -558.90002
-105.16 -67.949997 -559.01001
-104.67 -67.970001 -559.15002
-104.17 -67.970001 -559.22998
-103.69 -67.989998 -559.38
-103.2 -68.010002 -559.47998
-102.72 -68.029999 -559.65997
-102.24 -68.050003 -559.84998
-101.77 -68.080002 -560.09003
-101.29 -68.110001 -560.28998
-100.82 -68.129997 -560.5
-100.34 -68.160004 -560.70001
-99.879997 -68.190002 -561.01001
-99.410004 -68.220001 -561.23999
-98.949997 -68.260002 -561.54999
-98.5 -68.309998 -561.90997
-98.040001 -68.339996 -562.20001
-97.580002 -68.379997 -562.51001
-97.129997 -68.43 -562.90997
-96.690002 -68.480003 -563.34003
-96.239998 -68.529999 -563.71997
-95.809998 -68.589996 -564.25
-95.379997 -68.650002 -564.71997
-94.940002 -68.709999 -565.21002
-94.510002 -68.769997 -565.71997
-94.080002 -68.839996 -566.23999
-93.720001 -68.949997 -567.15997
-93.379997 -69.080002 -568.22998
-94.779999 -73.400002 -603.15002
-94.040001 -73.25 -601.97998
-93.410004 -73.190002 -601.52002
-92.809998 -73.150002 -601.20001
-92.169998 -73.080002 -600.59003
-91.410004 -72.910004 -599.23999
-90.709999 -72.790001 -598.28998
-90.110001 -72.75 -597.95001
-89.419998 -72.639999 -597.03003
-88.610001 -72.43 -595.32001
-88.010002 -72.379997 -594.90002
-87.389999 -72.32 -594.46002
-86.830002 -72.309998 -594.35999
-86.260002 -72.279999 -594.14001
-85.599998 -72.18 -593.34998
-84.949997 -72.099998 -592.67999
-84.360001 -72.059998 -592.34003
-83.779999 -72.029999 -592.09003
-83.220001 -72.010002 -591.95001
-82.610001 -71.949997 -591.46002
-81.93 -71.830002 -590.51001
-81.32 -71.769997 -590.01001
-80.739998 -71.739998 -589.77002
-80.160004 -71.699997 -589.46002
-79.599998 -71.690002 -589.34998
-79.059998 -71.68 -589.28998
-78.470001 -71.639999 -588.95001
-77.860001 -71.580002 -588.46997
-77.290001 -71.550003 -588.22998
-76.730003 -71.529999 -588.09003
-76.190002 -71.519997 -588.02002
-75.589996 -71.459999 -587.54999
-74.989998 -71.410004 -587.12
-74.419998 -71.379997 -586.84003
-73.82 -71.32 -586.40997
-73.260002 -71.300003 -586.22998
-72.709999 -71.279999 -586.08002
-72.139999 -71.25 -585.82001
-71.589996 -71.239998 -585.77002
-71.050003 -71.230003 -585.69
-70.5 -71.220001 -585.64001
-69.93 -71.190002 -585.34998
-69.360001 -71.160004 -585.08002
-68.809998 -71.139999 -584.91998
-68.260002 -71.120003 -584.82001
-67.720001 -71.120003 -584.82001
-67.190002 -71.120003 -584.83002
-66.639999 -71.110001 -584.71002
-66.059998 -71.07 -584.40002
-65.489998 -71.029999 -584.07001
-64.949997 -71.019997 -583.97998
-64.410004 -71.019997 -583.96002
-63.869999 -71.010002 -583.91998
-63.32 -71 -583.82001
-62.779999 -70.989998 -583.72998
-62.240002 -70.989998 -583.76001
-61.720001 -71 -583.81
-61.169998 -70.980003 -583.70001
-60.619999 -70.959999 -583.53998
-60.060001 -70.940002 -583.37
-59.52 -70.93 -583.31
-58.98 -70.919998 -583.23999
-58.450001 -70.93 -583.28998
-57.919998 -70.940002 -583.35999
-57.389999 -70.940002 -583.40997
-56.849998 -70.940002 -583.33002
-56.310001 -70.93 -583.28003
-55.779999 -70.93 -583.33002
-55.23 -70.910004 -583.13
-54.68 -70.889999 -582.96002
-54.130001 -70.879997 -582.88
-53.610001 -70.889999 -582.96002
-53.080002 -70.900002 -583.02002
-52.540001 -70.889999 -583
-52 -70.879997 -582.92999
-51.470001 -70.879997 -582.90997
-50.939999 -70.900002 -583.03003
-50.41 -70.900002 -583.03003
-49.880001 -70.910004 -583.12
-49.360001 -70.919998 -583.23999
-48.830002 -70.940002 -583.38
-48.299999 -70.940002 -583.41998
-47.779999 -70.949997 -583.52002
-47.25 -70.970001 -583.64001
-46.73 -70.980003 -583.76001
-46.200001 -70.989998 -583.81
-45.669998 -71 -583.92999
-45.150002 -71.029999 -584.09998
-44.619999 -71.040001 -584.19
-44.07 -71.010002 -583.96002
-43.529999 -71 -583.92999
-43.009998 -71.029999 -584.15997
-42.490002 -71.059998 -584.37
-41.98 -71.099998 -584.71997
-41.459999 -71.120003 -584.89001
-40.919998 -71.120003 -584.84003
-40.380001 -71.110001 -584.82001
-39.849998 -71.129997 -584.97998
-39.330002 -71.150002 -585.09003
-38.799999 -71.160004 -585.23999
-38.279999 -71.190002 -585.41998
-37.75 -71.199997 -585.52002
-37.209999 -71.199997 -585.54999
-36.68 -71.209999 -585.65002
-36.150002 -71.230003 -585.78003
-35.630001 -71.260002 -586.02002
-35.099998 -71.279999 -586.15997
-34.580002 -71.309998 -586.39001
-34.049999 -71.330002 -586.59003
-33.529999 -71.370003 -586.88
-32.990002 -71.360001 -586.87
-32.459999 -71.379997 -586.96997
-31.940001 -71.419998 -587.29999
-31.42 -71.449997 -587.56
-30.85 -71.389999 -587.10999
-30.299999 -71.349998 -586.73999
-29.76 -71.360001 -586.85999
-29.23 -71.379997 -586.98999
-28.690001 -71.370003 -586.95001
-28.16 -71.389999 -587.09003
-27.620001 -71.389999 -587.09003
-27.059999 -71.309998 -586.45001
-26.51 -71.279999 -586.22998
-25.98 -71.309998 -586.41998
-25.450001 -71.339996 -586.69
-24.93 -71.370003 -586.90997
-24.379999 -71.349998 -586.76001
-23.85 -71.370003 -586.96002
-23.32 -71.379997 -587.03998
-22.780001 -71.400002 -587.15002
-22.25 -71.400002 -587.19
-21.709999 -71.419998 -587.34003
-21.18 -71.440002 -587.51001
-20.65 -71.470001 -587.76001
-20.129999 -71.529999 -588.25
-19.610001 -71.589996 -588.72998
-19.07 -71.589996 -588.72998
-18.530001 -71.580002 -588.65997
-18 -71.629997 -589.02002
-17.469999 -71.68 -589.44
-16.940001 -71.730003 -589.84003
-16.41 -71.739998 -589.96997
-15.88 -71.790001 -590.34998
-15.35 -71.879997 -591.04999
-14.83 -71.959999 -591.73999
-14.3 -72.040001 -592.38
-13.77 -72.099998 -592.84003
-13.24 -72.150002 -593.29999
-12.71 -72.260002 -594.14001
-12.19 -72.379997 -595.13
-11.66 -72.5 -596.09003
-11.14 -72.669998 -597.47998
-10.62 -72.849998 -598.96997
-10.07 -72.849998 -598.96002
-10.1 -77.290001 -634.90997
-9.6099997 -78.029999 -640.90997
-9.0200005 -78.029999 -640.84998
-8.4300003 -78 -640.67999
-7.8499999 -78.029999 -640.87
-7.2600002 -78.07 -641.19
-6.6799998 -78.099998 -641.48999
-6.0900002 -78.139999 -641.75
-5.5100002 -78.190002 -642.21997
-4.9200001 -78.260002 -642.71997
-4.3299999 -78.290001 -642.97998
-3.74 -78.300003 -643.10999
-3.1500001 -78.309998 -643.14001
-2.5599999 -78.279999 -642.95001
-1.97 -78.269997 -642.83002
-1.38 -78.220001 -642.44
-0.79000002 -78.190002 -642.15997
-0.2 -78.150002 -641.84998
0.38999999 -78.120003 -641.58002
0.98000002 -78.080002 -641.28003
1.5599999 -78.040001 -640.95001
2.1500001 -78.010002 -640.72998
2.74 -77.980003 -640.47998
3.3199999 -77.940002 -640.19
3.9100001 -77.910004 -639.96002
4.5 -77.889999 -639.73999
5.0799999 -77.860001 -639.52002
5.6700001 -77.839996 -639.34003
6.25 -77.82 -639.17999
6.8400002 -77.790001 -638.97998
7.4200001 -77.779999 -638.84003
8 -77.75 -638.65997
8.5900002 -77.730003 -638.45001
9.1700001 -77.720001 -638.34003
9.7600002 -77.709999 -638.27002
10.34 -77.690002 -638.14001
10.92 -77.68 -638.03003
11.51 -77.660004 -637.88
12.09 -77.650002 -637.83002
12.67 -77.639999 -637.72998
13.26 -77.629997 -637.62
13.84 -77.629997 -637.60999
14.42 -77.610001 -637.48999
15.01 -77.599998 -637.38
15.59 -77.589996 -637.35999
16.17 -77.580002 -637.28003
16.76 -77.580002 -637.23999
17.34 -77.580002 -637.25
17.93 -77.580002 -637.23999
18.51 -77.580002 -637.28003
19.09 -77.580002 -637.21997
19.68 -77.57 -637.16998
20.26 -77.580002 -637.21997
20.85 -77.580002 -637.21002
21.43 -77.580002 -637.21002
22.02 -77.589996 -637.33002
22.610001 -77.599998 -637.39001
23.190001 -77.589996 -637.33002
23.77 -77.589996 -637.29999
24.370001 -77.610001 -637.46997
24.950001 -77.610001 -637.5
25.540001 -77.629997 -637.59998
26.129999 -77.639999 -637.69
26.719999 -77.639999 -637.75
27.309999 -77.650002 -637.79999
27.889999 -77.660004 -637.84998
28.48 -77.669998 -637.95001
29.07 -77.669998 -637.96997
29.66 -77.68 -638.03003
30.25 -77.699997 -638.21002
30.84 -77.709999 -638.26001
31.43 -77.730003 -638.42999
32.02 -77.739998 -638.53003
32.619999 -77.75 -638.63
33.209999 -77.760002 -638.71002
33.799999 -77.779999 -638.87
34.400002 -77.800003 -639.02002
34.990002 -77.830002 -639.22998
35.59 -77.849998 -639.40997
36.189999 -77.879997 -639.62
36.790001 -77.900002 -639.78003
37.380001 -77.919998 -639.91998
37.98 -77.93 -640.07001
38.580002 -77.959999 -640.27002
39.18 -77.989998 -640.54999
39.790001 -78.029999 -640.82001
40.389999 -78.050003 -641.02002
40.990002 -78.089996 -641.28998
41.599998 -78.110001 -641.53003
42.200001 -78.150002 -641.81
42.810001 -78.190002 -642.09998
43.43 -78.230003 -642.47998
44.040001 -78.260002 -642.71997
44.650002 -78.300003 -643.03998
45.27 -78.349998 -643.42999
45.880001 -78.389999 -643.72998
46.5 -78.43 -644.10999
47.130001 -78.5 -644.65997
47.75 -78.550003 -645.08002
48.369999 -78.599998 -645.47998
49 -78.660004 -645.92999
49.630001 -78.709999 -646.35999
50.25 -78.760002 -646.72998
50.889999 -78.830002 -647.28998
51.509998 -78.879997 -647.67999
52.139999 -78.919998 -648.04999
52.759998 -78.949997 -648.29999
51.16 -72.480003 -595.88
51.549999 -72.260002 -594.10999
52.040001 -72.190002 -593.52002
52.560001 -72.150002 -593.21002
53.080002 -72.120003 -592.91998
53.59 -72.080002 -592.59003
54.150002 -72.089996 -592.72998
54.689999 -72.089996 -592.72998
55.209999 -72.07 -592.5
55.740002 -72.050003 -592.34998
56.290001 -72.050003 -592.34998
56.84 -72.059998 -592.44
57.400002 -72.080002 -592.62
57.970001 -72.120003 -592.90002
58.580002 -72.190002 -593.52002
59.200001 -72.300003 -594.34998
-162.67999 -77.580002 -632.28998
-161.98 -77.519997 -631.84003
-161.34 -77.489998 -631.59998
-160.75999 -77.489998 -631.60999
-160.22 -77.510002 -631.73999
-159.72 -77.550003 -632.07001
-159.24001 -77.599998 -632.46002
-158.73 -77.629997 -632.71002
-130.67 -69.230003 -565.16998
-129.89999 -69.099998 -564.09998
-129.23 -69.010002 -563.40997
-128.58 -68.940002 -562.85999
-127.95 -68.879997 -562.34998
-127.34 -68.830002 -561.95001
-126.73 -68.779999 -561.53998
-126.17 -68.75 -561.31
-125.58 -68.709999 -560.98999
-124.99 -68.669998 -560.66998
-124.41 -68.629997 -560.34998
-123.83 -68.589996 -560.07001
-123.27 -68.57 -559.84998
-122.71 -68.540001 -559.62
-122.15 -68.519997 -559.44
-121.59 -68.489998 -559.22998
-121.04 -68.470001 -559.03003
-120.51 -68.459999 -558.96002
-119.97 -68.440002 -558.83002
-119.44 -68.43 -558.76001
-118.91 -68.419998 -558.65997
-118.39 -68.410004 -558.62
-117.86 -68.410004 -558.54999
-117.33 -68.389999 -558.45001
-116.81 -68.389999 -558.40002
-116.28 -68.370003 -558.31
-115.74 -68.360001 -558.20001
-115.23 -68.360001 -558.19
-114.71 -68.360001 -558.16998
-114.2 -68.349998 -558.14001
-113.68 -68.349998 -558.14001
-113.17 -68.349998 -558.14001
-112.65 -68.349998 -558.09003
-112.15 -68.349998 -558.12
-111.64 -68.360001 -558.17999
-111.14 -68.360001 -558.22998
-110.63 -68.370003 -558.22998
-110.14 -68.370003 -558.31
-109.64 -68.379997 -558.39001
-109.13 -68.389999 -558.40002
-108.63 -68.389999 -558.44
-108.13 -68.400002 -558.47998
-107.63 -68.400002 -558.53998
-107.13 -68.410004 -558.59998
-106.64 -68.43 -558.71997
-106.15 -68.440002 -558.83002
-105.65 -68.449997 -558.90997
-105.16 -68.459999 -559.01001
-104.66 -68.470001 -559.10999
-104.18 -68.489998 -559.28998
-103.69 -68.510002 -559.40997
-103.2 -68.519997 -559.48999
-102.71 -68.540001 -559.65002
-102.23 -68.559998 -559.82001
-101.76 -68.589996 -560.03998
-101.29 -68.610001 -560.25
-100.81 -68.639999 -560.46002
-100.33 -68.669998 -560.66998
-99.879997 -68.709999 -561
-99.389999 -68.720001 -561.13
-98.949997 -68.769997 -561.53003
-98.489998 -68.809998 -561.87
-98.040001 -68.860001 -562.23999
-97.589996 -68.900002 -562.59003
-97.150002 -68.959999 -563.01001
-96.699997 -69 -563.39001
-96.260002 -69.059998 -563.85999
-95.82 -69.120003 -564.28998
-95.400002 -69.18 -564.82001
-94.980003 -69.25 -565.40997
-94.589996 -69.349998 -566.20001
-94.230003 -69.470001 -567.14001
-93.900002 -69.610001 -568.27002
-95.360001 -73.970001 -603.34998
-94.669998 -73.870003 -602.5
-93.970001 -73.75 -601.54999
-93.32 -73.669998 -600.94
-92.699997 -73.610001 -600.46997
-92.010002 -73.510002 -599.60999
-91.360001 -73.419998 -598.91998
-90.639999 -73.279999 -597.81
-89.989998 -73.209999 -597.20001
-89.349998 -73.129997 -596.58002
-88.57 -72.940002 -595.03003
-87.949997 -72.870003 -594.51001
-87.330002 -72.809998 -594
-86.75 -72.779999 -593.78998
-86.199997 -72.769997 -593.73999
-85.57 -72.709999 -593.19
-84.919998 -72.610001 -592.41998
-84.309998 -72.559998 -592.02002
-83.720001 -72.510002 -591.63
-83.150002 -72.489998 -591.46002
-82.599998 -72.480003 -591.40997
-81.949997 -72.389999 -590.65002
-81.300003 -72.290001 -589.84998
-80.709999 -72.25 -589.53998
-80.120003 -72.209999 -589.20001
-79.559998 -72.190002 -589.06
-79 -72.169998 -588.90997
-78.459999 -72.169998 -588.87
-77.849998 -72.099998 -588.35999
-77.260002 -72.059998 -587.98999
-76.690002 -72.029999 -587.76001
-76.139999 -72.010002 -587.64001
-75.57 -71.989998 -587.42999
-74.980003 -71.93 -587.02002
-74.389999 -71.889999 -586.65997
-73.830002 -71.860001 -586.42999
-73.25 -71.82 -586.09998
-72.68 -71.790001 -585.87
-72.129997 -71.779999 -585.76001
-71.559998 -71.75 -585.53998
-71.019997 -71.75 -585.51001
-70.480003 -71.739998 -585.44
-69.93 -71.720001 -585.34998
-69.360001 -71.690002 -585.06
-68.779999 -71.650002 -584.71997
-68.230003 -71.629997 -584.60999
-67.699997 -71.629997 -584.59998
-67.160004 -71.629997 -584.57001
-66.620003 -71.629997 -584.58002
-66.07 -71.610001 -584.42999
-65.5 -71.57 -584.13
-64.940002 -71.550003 -583.96002
-64.389999 -71.529999 -583.79999
-63.849998 -71.529999 -583.78003
-63.310001 -71.519997 -583.70001
-62.77 -71.510002 -583.65002
-62.220001 -71.5 -583.56
-61.689999 -71.510002 -583.62
-61.16 -71.510002 -583.63
-60.619999 -71.5 -583.54999
-60.060001 -71.470001 -583.31
-59.52 -71.470001 -583.31
-58.98 -71.459999 -583.21002
-58.439999 -71.449997 -583.17999
-57.91 -71.449997 -583.19
-57.369999 -71.449997 -583.21002
-56.84 -71.459999 -583.26001
-56.299999 -71.449997 -583.21002
-55.759998 -71.440002 -583.09003
-55.23 -71.449997 -583.14001
-54.689999 -71.440002 -583.10999
-54.130001 -71.410004 -582.87
-53.599998 -71.410004 -582.84003
-53.07 -71.419998 -582.90997
-52.540001 -71.43 -582.98999
-52 -71.410004 -582.90997
-51.459999 -71.410004 -582.88
-50.93 -71.410004 -582.89001
-50.400002 -71.419998 -582.97998
-49.880001 -71.43 -583.07001
-49.349998 -71.449997 -583.21002
-48.82 -71.459999 -583.25
-48.299999 -71.480003 -583.40997
-47.779999 -71.489998 -583.52002
-47.25 -71.510002 -583.65997
-46.73 -71.519997 -583.79999
-46.200001 -71.529999 -583.87
-45.669998 -71.529999 -583.89001
-45.139999 -71.550003 -584.04999
-44.619999 -71.580002 -584.23999
-44.09 -71.580002 -584.28998
-43.549999 -71.57 -584.20001
-43.02 -71.580002 -584.23999
-42.490002 -71.589996 -584.37
-41.970001 -71.629997 -584.63
-41.459999 -71.660004 -584.91998
-40.93 -71.669998 -585.02002
-40.400002 -71.68 -585.09003
-39.860001 -71.68 -585.07001
-39.330002 -71.690002 -585.15997
-38.799999 -71.699997 -585.27002
-38.27 -71.720001 -585.40997
-37.759998 -71.760002 -585.71002
-37.23 -71.779999 -585.84998
-36.700001 -71.779999 -585.89001
-36.16 -71.779999 -585.90997
-35.630001 -71.800003 -586.01001
-35.110001 -71.830002 -586.28003
-34.580002 -71.839996 -586.38
-34.049999 -71.870003 -586.64001
-33.540001 -71.919998 -586.97998
-33.009998 -71.940002 -587.17999
-32.48 -71.959999 -587.33002
-31.950001 -71.970001 -587.44
-31.43 -72.029999 -587.90002
-30.889999 -72.029999 -587.87
-30.33 -71.959999 -587.37
-29.780001 -71.949997 -587.23999
-29.25 -71.959999 -587.37
-28.719999 -71.980003 -587.51001
-28.200001 -72.019997 -587.81
-27.67 -72.050003 -588.08002
-27.120001 -72.010002 -587.77002
-26.559999 -71.949997 -587.28998
-26.01 -71.940002 -587.17999
-25.48 -71.949997 -587.28998
-24.950001 -71.980003 -587.5
-24.42 -71.989998 -587.59998
-23.870001 -71.970001 -587.44
-23.34 -71.980003 -587.53998
-22.809999 -72.010002 -587.71997
-22.280001 -72.050003 -588.04999
-21.75 -72.059998 -588.15002
-21.200001 -72.050003 -588.04999
-20.67 -72.080002 -588.34003
-20.15 -72.139999 -588.78998
-19.629999 -72.209999 -589.34998
-19.1 -72.230003 -589.57001
-18.559999 -72.239998 -589.63
-18.02 -72.269997 -589.82001
-17.49 -72.309998 -590.20001
-16.959999 -72.360001 -590.59003
-16.43 -72.389999 -590.84003
-15.9 -72.43 -591.10999
-15.37 -72.5 -591.71002
-14.85 -72.610001 -592.60999
-14.33 -72.699997 -593.34003
-13.8 -72.779999 -593.96002
-13.27 -72.860001 -594.59998
-12.74 -72.949997 -595.29999
-12.21 -73.07 -596.29999
-11.69 -73.199997 -597.29999
-11.16 -73.370003 -598.70001
-10.64 -73.519997 -599.90002
-10.67 -77.760002 -634.01001
-10.2 -78.660004 -641.21997
-9.6099997 -78.620003 -640.92999
-9.0200005 -78.610001 -640.83002
-8.4300003 -78.620003 -640.90997
-7.8499999 -78.629997 -640.98999
-7.2600002 -78.660004 -641.21002
-6.6799998 -78.699997 -641.52002
-6.0900002 -78.730003 -641.78998
-5.5 -78.769997 -642.09998
-4.9200001 -78.82 -642.52002
-4.3299999 -78.870003 -642.90997
-3.74 -78.879997 -642.96997
-3.1500001 -78.879997 -642.97998
-2.5599999 -78.860001 -642.84998
-1.97 -78.830002 -642.60999
-1.38 -78.790001 -642.25
-0.79000002 -78.75 -641.98999
-0.2 -78.709999 -641.64001
0.38999999 -78.690002 -641.44
0.98000002 -78.650002 -641.10999
1.5599999 -78.610001 -640.79999
2.1500001 -78.580002 -640.56
2.74 -78.540001 -640.26001
3.3199999 -78.510002 -639.98999
3.9100001 -78.480003 -639.78998
4.4899998 -78.449997 -639.52002
5.0799999 -78.419998 -639.28003
5.6599998 -78.400002 -639.16998
6.25 -78.370003 -638.88
6.8299999 -78.349998 -638.75
7.4200001 -78.330002 -638.60999
8 -78.32 -638.46997
8.5799999 -78.300003 -638.29999
9.1700001 -78.260002 -638.03003
9.75 -78.260002 -638.02002
10.34 -78.25 -637.94
10.92 -78.230003 -637.79999
11.5 -78.220001 -637.65997
12.08 -78.199997 -637.57001
12.67 -78.190002 -637.46002
13.25 -78.190002 -637.40997
13.83 -78.169998 -637.31
14.42 -78.169998 -637.27002
15 -78.160004 -637.17999
15.58 -78.160004 -637.16998
16.17 -78.150002 -637.08002
16.75 -78.150002 -637.09003
17.34 -78.139999 -637.07001
17.92 -78.139999 -637.03003
18.5 -78.139999 -637.06
19.09 -78.139999 -637.07001
19.67 -78.129997 -636.98999
20.26 -78.139999 -637.03003
20.84 -78.129997 -636.98999
21.43 -78.139999 -637.07001
22.01 -78.150002 -637.12
22.6 -78.160004 -637.16998
23.190001 -78.160004 -637.17999
23.77 -78.169998 -637.23999
24.360001 -78.169998 -637.25
24.950001 -78.18 -637.39001
25.530001 -78.190002 -637.44
26.120001 -78.199997 -637.47998
26.709999 -78.209999 -637.58002
27.299999 -78.230003 -637.71002
27.889999 -78.230003 -637.72998
28.469999 -78.230003 -637.76001
29.07 -78.260002 -637.95001
29.65 -78.260002 -637.97998
30.24 -78.269997 -638.04999
30.83 -78.269997 -638.08002
31.43 -78.290001 -638.26001
32.02 -78.32 -638.42999
32.610001 -78.339996 -638.59003
33.200001 -78.349998 -638.69
33.790001 -78.360001 -638.75
34.389999 -78.379997 -638.96997
34.990002 -78.410004 -639.17999
35.59 -78.43 -639.35999
36.18 -78.459999 -639.54999
36.779999 -78.470001 -639.66998
37.380001 -78.5 -639.87
37.98 -78.519997 -640.07001
38.580002 -78.550003 -640.33002
39.18 -78.580002 -640.56
39.779999 -78.610001 -640.77002
40.389999 -78.639999 -641
41 -78.68 -641.34003
41.599998 -78.709999 -641.56
42.209999 -78.739998 -641.84998
42.82 -78.779999 -642.16998
43.43 -78.830002 -642.54999
44.040001 -78.860001 -642.78003
44.66 -78.900002 -643.14001
45.27 -78.949997 -643.51001
45.880001 -78.989998 -643.81
46.509998 -79.040001 -644.23999
47.119999 -79.089996 -644.59003
47.740002 -79.129997 -644.97998
48.369999 -79.190002 -645.44
49 -79.239998 -645.84003
49.619999 -79.290001 -646.26001
50.25 -79.349998 -646.73999
50.889999 -79.419998 -647.25
51.509998 -79.470001 -647.65997
52.130001 -79.510002 -647.95001
52.740002 -79.519997 -648.06
51.169998 -73.040001 -595.96997
51.580002 -72.839996 -594.39001
52.060001 -72.75 -593.66998
52.57 -72.699997 -593.27002
53.09 -72.68 -593.07001
53.610001 -72.650002 -592.81
54.16 -72.650002 -592.82001
54.700001 -72.639999 -592.77002
55.23 -72.629997 -592.64001
55.75 -72.599998 -592.40002
56.299999 -72.610001 -592.47998
56.849998 -72.620003 -592.56
57.41 -72.639999 -592.75
57.98 -72.669998 -593.01001
58.580002 -72.739998 -593.58002
59.209999 -72.849998 -594.42999
-162.53 -78.089996 -631.72998
-161.89 -78.050003 -631.46997
-161.27 -78.040001 -631.32001
-160.7 -78.040001 -631.38
-160.17999 -78.07 -631.58002
-159.64 -78.089996 -631.72998
-159.14 -78.129997 -632.04999
-158.62 -78.160004 -632.31
-130.61 -69.709999 -564.91998
-129.92 -69.620003 -564.15002
-129.21001 -69.519997 -563.34998
-128.60001 -69.459999 -562.91998
-127.96 -69.400002 -562.40002
-127.35 -69.349998 -561.96997
-126.7 -69.269997 -561.38
-126.1 -69.230003 -561.02002
-125.5 -69.18 -560.65002
-124.93 -69.150002 -560.40002
-124.34 -69.110001 -560.04999
-123.79 -69.080002 -559.85999
-123.23 -69.059998 -559.66998
-122.67 -69.029999 -559.47998
-122.12 -69.010002 -559.29999
-121.57 -68.989998 -559.12
-121.02 -68.970001 -558.96002
-120.48 -68.949997 -558.83002
-119.93 -68.93 -558.64001
-119.41 -68.919998 -558.59003
-118.87 -68.910004 -558.46997
-118.34 -68.900002 -558.40997
-117.82 -68.889999 -558.33002
-117.28 -68.879997 -558.22998
-116.75 -68.860001 -558.12
-116.22 -68.849998 -558.04999
-115.71 -68.860001 -558.07001
-115.2 -68.849998 -558.04999
-114.68 -68.849998 -558
-114.17 -68.849998 -558
-113.65 -68.849998 -558
-113.14 -68.849998 -557.98999
-112.64 -68.849998 -558.02002
-112.13 -68.860001 -558.06
-111.63 -68.860001 -558.08002
-111.11 -68.860001 -558.07001
-110.62 -68.870003 -558.15997
-110.11 -68.870003 -558.17999
-109.61 -68.879997 -558.23999
-109.11 -68.879997 -558.29999
-108.62 -68.900002 -558.41998
-108.11 -68.900002 -558.39001
