# .PCD v0.7 - Point Cloud Data file format
VERSION 0.7
FIELDS x y z
SIZE 4 4 4
TYPE F F F
COUNT 1 1 1
WIDTH 1662
HEIGHT 1
VIEWPOINT 0 0 0 1 0 0 0
POINTS 1662
DATA ascii
-107.73 -96.779999 -577.98999
-107.16 -96.75 -577.82001
-106.63 -96.75 -577.78998
-106.13 -96.769997 -577.92999
-105.63 -96.809998 -578.12
-105.09 -96.790001 -578.03003
-104.59 -96.82 -578.22998
-104.12 -96.879997 -578.57001
-103.57 -96.860001 -578.46002
-103.03 -96.849998 -578.37
-102.54 -96.889999 -578.62
-102.08 -96.949997 -578.97998
-101.53 -96.93 -578.87
-100.97 -96.910004 -578.72998
-100.51 -96.970001 -579.10999
-100.03 -97.019997 -579.39001
-99.440002 -96.970001 -579.08002
-98.910004 -96.970001 -579.07001
-98.43 -97.019997 -579.35999
-97.970001 -97.089996 -579.78003
-97.410004 -97.059998 -579.64001
-96.860001 -97.040001 -579.48999
-96.349998 -97.059998 -579.62
-95.860001 -97.099998 -579.85999
-95.349998 -97.120003 -580
-94.870003 -97.18 -580.31
-94.379997 -97.220001 -580.57001
-93.82 -97.199997 -580.44
-93.290001 -97.199997 -580.44
-92.800003 -97.239998 -580.66998
-92.290001 -97.269997 -580.83002
-91.779999 -97.290001 -580.97998
-91.25 -97.300003 -581.01001
-90.739998 -97.309998 -581.10999
-90.239998 -97.360001 -581.35999
-89.739998 -97.379997 -581.53003
-89.209999 -97.389999 -581.58002
-88.709999 -97.419998 -581.75
-88.220001 -97.470001 -582.04999
-87.690002 -97.480003 -582.09003
-87.129997 -97.449997 -581.91998
-86.620003 -97.470001 -582.04999
-86.129997 -97.519997 -582.34003
-85.599998 -97.529999 -582.40002
-85.07 -97.540001 -582.44
-84.559998 -97.559998 -582.59003
-84.040001 -97.580002 -582.69
-83.559998 -97.639999 -583.04999
-83.050003 -97.660004 -583.19
-82.510002 -97.660004 -583.19
-82.019997 -97.709999 -583.46997
-81.5 -97.730003 -583.59003
-80.970001 -97.739998 -583.64001
-80.480003 -97.800003 -583.98999
-80 -97.860001 -584.34998
-79.489998 -97.889999 -584.53998
-78.980003 -97.93 -584.73999
-78.459999 -97.949997 -584.88
-77.93 -97.949997 -584.88
-77.410004 -97.970001 -585.01001
-76.900002 -98.010002 -585.21997
-76.410004 -98.07 -585.56
-75.900002 -98.099998 -585.72998
-75.360001 -98.099998 -585.77002
-74.849998 -98.129997 -585.92999
-74.339996 -98.160004 -586.14001
-73.809998 -98.18 -586.22998
-73.309998 -98.230003 -586.51001
-72.779999 -98.239998 -586.56
-72.25 -98.25 -586.63
-71.730003 -98.279999 -586.83002
-71.220001 -98.309998 -587.02002
-70.699997 -98.330002 -587.14001
-70.150002 -98.32 -587.08002
-69.610001 -98.32 -587.06
-69.080002 -98.330002 -587.13
-68.550003 -98.349998 -587.22998
-68.029999 -98.370003 -587.38
-67.5 -98.389999 -587.46002
-66.989998 -98.43 -587.69
-66.480003 -98.459999 -587.90997
-65.919998 -98.43 -587.71002
-65.349998 -98.379997 -587.42999
-64.790001 -98.360001 -587.29999
-64.269997 -98.379997 -587.45001
-63.740002 -98.400002 -587.56
-63.200001 -98.400002 -587.54999
-62.639999 -98.360001 -587.33002
-62.119999 -98.389999 -587.46002
-61.599998 -98.419998 -587.67999
-61.060001 -98.419998 -587.65002
-60.470001 -98.339996 -587.17999
-59.900002 -98.269997 -586.82001
-59.349998 -98.269997 -586.78998
-58.84 -98.309998 -587.02002
-58.330002 -98.360001 -587.34003
-57.799999 -98.370003 -587.40997
-57.259998 -98.370003 -587.37
-56.700001 -98.330002 -587.12
-56.16 -98.330002 -587.15002
-55.639999 -98.349998 -587.27002
-55.119999 -98.389999 -587.52002
-54.599998 -98.419998 -587.67999
-54.080002 -98.459999 -587.95001
-53.560001 -98.5 -588.16998
-53.049999 -98.550003 -588.45001
-52.52 -98.580002 -588.59998
-52 -98.599998 -588.75
-51.470001 -98.629997 -588.90997
-50.959999 -98.68 -589.23999
-50.439999 -98.720001 -589.47998
-49.939999 -98.800003 -589.90997
-49.419998 -98.849998 -590.21997
-48.919998 -98.93 -590.66998
-48.419998 -99 -591.10999
-47.919998 -99.089996 -591.62
-47.41 -99.169998 -592.09003
-46.900002 -99.239998 -592.52002
-46.380001 -99.279999 -592.78003
-45.860001 -99.339996 -593.10999
-45.34 -99.389999 -593.41998
-44.830002 -99.459999 -593.84003
-44.310001 -99.510002 -594.12
-43.799999 -99.589996 -594.59003
-43.279999 -99.650002 -594.92999
-42.77 -99.739998 -595.46997
-42.259998 -99.809998 -595.88
-41.75 -99.900002 -596.42999
-41.240002 -99.989998 -596.95001
-40.720001 -100.07 -597.41998
-40.200001 -100.14 -597.84003
-39.700001 -100.25 -598.46002
-39.18 -100.33 -598.96002
-38.68 -100.46 -599.70001
-38.169998 -100.56 -600.29999
-37.66 -100.68 -601.01001
-37.16 -100.81 -601.73999
-36.650002 -100.94 -602.51001
-36.139999 -101.03 -603.08002
-35.619999 -101.14 -603.72998
-35.110001 -101.27 -604.46997
-34.619999 -101.46 -605.58002
-34.130001 -101.64 -606.64001
-33.619999 -101.78 -607.47998
-33.119999 -101.96 -608.53998
-32.619999 -102.15 -609.63
-32.099998 -102.28 -610.44
-31.59 -102.42 -611.23999
-31.059999 -102.52 -611.81
-30.540001 -102.65 -612.62
-30.01 -102.78 -613.34003
-29.48 -102.88 -613.92999
-18.370001 -110.61 -659.42999
-17.73 -110.41 -658.23999
-17.1 -110.22 -657.15997
-16.48 -110.13 -656.58002
-15.86 -109.99 -655.76001
-15.24 -109.9 -655.23999
-14.63 -109.83 -654.84003
-14.03 -109.77 -654.5
-13.42 -109.76 -654.42999
-12.82 -109.73 -654.22998
-12.22 -109.71 -654.13
-11.61 -109.69 -654.03003
-11.01 -109.66 -653.82001
-10.41 -109.64 -653.72998
-9.8100004 -109.64 -653.72998
-9.21 -109.61 -653.57001
-8.6000004 -109.59 -653.46002
-8 -109.59 -653.40997
-7.4000001 -109.59 -653.44
-6.8000002 -109.59 -653.45001
-6.1999998 -109.6 -653.5
-5.6100001 -109.63 -653.64001
-5.0100002 -109.64 -653.72998
-4.4099998 -109.64 -653.71997
-3.8099999 -109.64 -653.71997
-3.21 -109.65 -653.82001
-2.6099999 -109.66 -653.84003
-2.01 -109.65 -653.78003
-1.41 -109.66 -653.88
-0.81 -109.66 -653.83002
-0.20999999 -109.68 -653.94
0.38999999 -109.66 -653.87
1 -109.7 -654.07001
1.6 -109.71 -654.13
2.2 -109.72 -654.20001
2.8 -109.74 -654.28998
3.4000001 -109.76 -654.44
4 -109.78 -654.53003
4.5999999 -109.83 -654.87
5.21 -109.87 -655.06
5.8099999 -109.87 -655.09003
6.4099998 -109.89 -655.22998
7.02 -109.93 -655.42999
7.6199999 -109.93 -655.45001
8.2200003 -109.97 -655.65997
8.8299999 -109.99 -655.79999
11.72 -108.91 -649.40997
12.31 -108.87 -649.22998
12.91 -108.9 -649.39001
13.51 -108.93 -649.53998
14.11 -108.93 -649.53003
14.7 -108.91 -649.45001
15.3 -108.91 -649.40002
15.89 -108.88 -649.25
16.48 -108.86 -649.14001
17.07 -108.8 -648.78998
17.65 -108.72 -648.32001
18.24 -108.67 -648
18.82 -108.6 -647.60999
19.41 -108.56 -647.37
19.99 -108.48 -646.89001
20.57 -108.44 -646.65002
21.15 -108.36 -646.19
21.74 -108.33 -646.01001
-162.42999 -93.43 -555.59003
-162 -93.480003 -555.84003
-161.56 -93.510002 -556.04999
-161.14999 -93.57 -556.40997
-160.77 -93.650002 -556.83002
-160.42999 -93.75 -557.41998
-160.11 -93.860001 -558.04999
-159.71001 -93.93 -558.45001
-159.25999 -93.959999 -558.65002
-158.84 -94.010002 -558.92999
-158.46001 -94.089996 -559.40002
-158.42999 -94.379997 -561.08002
-158 -94.43 -561.38
-158.37 -95.580002 -568.09003
-157.89 -95.610001 -568.22998
-157.48 -95.68 -568.64001
-157.10001 -95.760002 -569.12
-156.78 -95.889999 -569.84998
-156.58 -96.080002 -570.98999
-156.31 -96.239998 -571.88
-121.95 -98.099998 -582.63
-121.38 -98.07 -582.41998
-120.75 -98 -582
-120.17 -97.959999 -581.77002
-119.57 -97.900002 -581.44
-118.95 -97.830002 -581.03003
-118.4 -97.809998 -580.92999
-117.83 -97.779999 -580.75
-117.18 -97.68 -580.16998
-116.61 -97.650002 -579.97998
-116.06 -97.639999 -579.91998
-115.44 -97.57 -579.46997
-114.76 -97.440002 -578.71997
-114.21 -97.419998 -578.64001
-113.69 -97.43 -578.65002
-113.06 -97.339996 -578.15002
-112.48 -97.300003 -577.92999
-111.98 -97.32 -578.04999
-111.47 -97.349998 -578.17999
-110.89 -97.300003 -577.91998
-110.33 -97.279999 -577.78003
-109.81 -97.279999 -577.81
-109.28 -97.290001 -577.83002
-108.71 -97.25 -577.59998
-108.2 -97.269997 -577.71002
-107.68 -97.269997 -577.76001
-107.13 -97.25 -577.64001
-106.59 -97.25 -577.59998
-106.09 -97.269997 -577.75
-105.6 -97.309998 -577.95001
-105.07 -97.300003 -577.91998
-104.58 -97.339996 -578.15997
-104.09 -97.379997 -578.40997
-103.54 -97.360001 -578.27002
-103.02 -97.370003 -578.31
-102.54 -97.419998 -578.59003
-102.06 -97.470001 -578.89001
-101.5 -97.440002 -578.71002
-100.95 -97.419998 -578.60999
-100.5 -97.489998 -579.04999
-99.980003 -97.510002 -579.15002
-99.410004 -97.470001 -578.89001
-98.879997 -97.470001 -578.91998
-98.410004 -97.529999 -579.28003
-97.949997 -97.599998 -579.65997
-97.389999 -97.57 -579.48999
-96.830002 -97.540001 -579.32001
-96.32 -97.57 -579.46997
-95.839996 -97.610001 -579.75
-95.309998 -97.620003 -579.81
-94.839996 -97.68 -580.15002
-94.339996 -97.720001 -580.34998
-93.790001 -97.699997 -580.23999
-93.260002 -97.699997 -580.23999
-92.760002 -97.730003 -580.42999
-92.260002 -97.760002 -580.62
-91.769997 -97.809998 -580.89001
-91.239998 -97.809998 -580.90002
-90.720001 -97.830002 -580.98999
-90.220001 -97.860001 -581.21997
-89.730003 -97.900002 -581.45001
-89.18 -97.889999 -581.35999
-88.669998 -97.919998 -581.53003
-88.190002 -97.980003 -581.87
-87.669998 -97.989998 -581.97998
-87.099998 -97.940002 -581.69
-86.589996 -97.970001 -581.87
-86.110001 -98.029999 -582.21002
-85.599998 -98.059998 -582.35999
-85.059998 -98.050003 -582.31
-84.540001 -98.07 -582.42999
-84.029999 -98.089996 -582.58002
-83.550003 -98.160004 -582.97998
-83.029999 -98.190002 -583.10999
-82.5 -98.18 -583.08002
-82.010002 -98.239998 -583.44
-81.480003 -98.239998 -583.45001
-80.940002 -98.239998 -583.45001
-80.459999 -98.300003 -583.78003
-79.980003 -98.370003 -584.21002
-79.470001 -98.400002 -584.37
-78.949997 -98.43 -584.52002
-78.449997 -98.459999 -584.75
-77.910004 -98.470001 -584.78003
-77.379997 -98.480003 -584.82001
-76.879997 -98.519997 -585.04999
-76.400002 -98.589996 -585.46002
-75.889999 -98.620003 -585.65997
-75.349998 -98.620003 -585.64001
-74.839996 -98.650002 -585.84003
-74.32 -98.68 -586.03998
-73.800003 -98.709999 -586.17999
-73.300003 -98.75 -586.41998
-72.769997 -98.769997 -586.53003
-72.239998 -98.779999 -586.58002
-71.730003 -98.809998 -586.79999
-71.230003 -98.870003 -587.09998
-70.720001 -98.910004 -587.37
-70.209999 -98.949997 -587.60999
-69.669998 -98.949997 -587.59003
-69.129997 -98.949997 -587.57001
-68.599998 -98.949997 -587.58002
-68.059998 -98.949997 -587.59998
-67.529999 -98.959999 -587.66998
-67.010002 -98.989998 -587.85999
-66.489998 -99.019997 -587.98999
-65.970001 -99.050003 -588.21002
-65.419998 -99.040001 -588.10999
-64.849998 -98.980003 -587.81
-64.300003 -98.959999 -587.69
-63.77 -98.970001 -587.75
-63.240002 -99 -587.91998
-62.689999 -98.980003 -587.79999
-62.139999 -98.970001 -587.70001
-61.619999 -98.980003 -587.81
-61.099998 -99.019997 -588.01001
-60.57 -99.029999 -588.10999
-60.009998 -99 -587.90002
-59.419998 -98.910004 -587.39001
-58.860001 -98.879997 -587.21997
-58.34 -98.910004 -587.40997
-57.84 -98.970001 -587.75
-57.32 -99 -587.92999
-56.779999 -99.019997 -588.01001
-56.220001 -98.980003 -587.77002
-55.68 -98.959999 -587.71002
-55.150002 -98.980003 -587.78003
-54.619999 -99.010002 -587.95001
-54.099998 -99.040001 -588.14001
-53.59 -99.089996 -588.42999
-53.080002 -99.139999 -588.73999
-52.560001 -99.190002 -589.02002
-52.040001 -99.230003 -589.27002
-51.52 -99.260002 -589.41998
-51 -99.309998 -589.71997
-50.470001 -99.32 -589.82001
-49.959999 -99.370003 -590.12
-49.439999 -99.419998 -590.38
-48.939999 -99.5 -590.87
-48.43 -99.57 -591.28003
-47.919998 -99.650002 -591.72998
-47.419998 -99.720001 -592.15002
-46.919998 -99.809998 -592.67999
-46.41 -99.900002 -593.17999
-45.900002 -99.970001 -593.59003
-45.380001 -100.01 -593.85999
-44.869999 -100.1 -594.34998
-44.349998 -100.16 -594.71997
-43.830002 -100.21 -594.98999
-43.310001 -100.27 -595.37
-42.82 -100.39 -596.06
-42.299999 -100.46 -596.47998
-41.790001 -100.54 -596.95001
-41.27 -100.62 -597.44
-40.759998 -100.71 -597.96997
-40.240002 -100.79 -598.40002
-39.740002 -100.89 -599.02002
-39.220001 -100.98 -599.51001
-38.709999 -101.09 -600.16998
-38.189999 -101.18 -600.69
-37.68 -101.28 -601.27002
-37.169998 -101.38 -601.89001
-36.66 -101.52 -602.66998
-36.150002 -101.63 -603.31
-35.650002 -101.77 -604.17999
-35.150002 -101.92 -605.06
-34.66 -102.12 -606.17999
-34.150002 -102.26 -606.98999
-33.650002 -102.43 -608.01001
-33.16 -102.65 -609.28998
-32.66 -102.83 -610.37
-32.150002 -102.98 -611.23999
-31.639999 -103.14 -612.17999
-31.129999 -103.31 -613.16998
-30.610001 -103.45 -614
-30.1 -103.66 -615.22998
-18.360001 -111.14 -659
-17.73 -110.97 -658
-17.1 -110.81 -657.08002
-16.48 -110.68 -656.32001
-15.86 -110.6 -655.83002
-15.25 -110.51 -655.31
-14.64 -110.44 -654.90997
-14.03 -110.4 -654.66998
-13.42 -110.36 -654.44
-12.82 -110.34 -654.31
-12.22 -110.33 -654.22998
-11.62 -110.31 -654.12
-11.01 -110.3 -654.09998
-10.41 -110.28 -653.95001
-9.8100004 -110.26 -653.82001
-9.21 -110.24 -653.71997
-8.6099997 -110.25 -653.79999
-8.0100002 -110.23 -653.67999
-7.4099998 -110.24 -653.72998
-6.8099999 -110.26 -653.82001
-6.21 -110.25 -653.77002
-5.6100001 -110.27 -653.88
-5.0100002 -110.26 -653.85999
-4.4099998 -110.27 -653.91998
-3.8099999 -110.28 -653.96002
-3.21 -110.3 -654.06
-2.6099999 -110.29 -654.03998
-2.01 -110.29 -654.03998
-1.41 -110.31 -654.14001
-0.81 -110.31 -654.10999
-0.20999999 -110.33 -654.22998
0.40000001 -110.34 -654.28003
1 -110.36 -654.44
1.6 -110.36 -654.44
2.2 -110.38 -654.53998
2.8 -110.4 -654.64001
3.4000001 -110.42 -654.78003
4 -110.46 -655.03003
4.6100001 -110.49 -655.21002
5.21 -110.53 -655.40997
5.8099999 -110.57 -655.65002
6.4200001 -110.59 -655.78003
7.02 -110.6 -655.84003
7.6199999 -110.6 -655.83002
12.31 -109.44 -649.07001
12.9 -109.42 -648.92999
13.5 -109.44 -649.03998
14.1 -109.46 -649.14001
14.69 -109.46 -649.15997
15.29 -109.45 -649.09003
15.88 -109.44 -649.06
16.469999 -109.39 -648.77002
17.059999 -109.35 -648.53003
17.65 -109.3 -648.21002
18.23 -109.24 -647.85999
18.82 -109.17 -647.48999
19.4 -109.1 -647.06
19.98 -109.03 -646.65002
20.559999 -108.97 -646.27002
21.139999 -108.92 -646
21.75 -108.98 -646.34003
-162.41 -93.93 -555.52002
-161.95 -93.949997 -555.65997
-161.50999 -94 -555.90997
-161.11 -94.059998 -556.25
-160.71001 -94.129997 -556.65002
-160.38 -94.230003 -557.23999
-160.00999 -94.309998 -557.71997
-159.63 -94.389999 -558.16998
-159.17 -94.419998 -558.32001
-158.74001 -94.470001 -558.59998
-158.38 -94.559998 -559.13
-158.25 -94.790001 -560.45001
-157.86 -94.860001 -560.88
-158.31 -96.07 -567.88
-157.82001 -96.089996 -568
-157.42 -96.160004 -568.40997
-157.11 -96.290001 -569.16998
-156.89999 -96.480003 -570.28003
-156.52 -96.57 -570.78998
-156.3 -96.75 -571.84998
-156.09 -96.949997 -572.98999
-155.89 -97.150002 -574.15997
-124.22 -98.739998 -583.25
-123.69 -98.739998 -583.25
-122.39 -98.559998 -582.19
-121.76 -98.480003 -581.71002
-121.18 -98.440002 -581.48999
-120.63 -98.43 -581.42999
-120.07 -98.410004 -581.29999
-119.43 -98.32 -580.75
-118.82 -98.260002 -580.40002
-118.3 -98.260002 -580.42999
-117.75 -98.25 -580.38
-117.08 -98.129997 -579.66998
-116.51 -98.099998 -579.5
-115.98 -98.099998 -579.48999
-115.38 -98.040001 -579.15997
-114.68 -97.900002 -578.32001
-114.13 -97.879997 -578.23999
-113.61 -97.900002 -578.29999
-113.02 -97.839996 -577.98999
-112.43 -97.779999 -577.64001
-111.92 -97.800003 -577.75
-111.42 -97.830002 -577.90997
-110.89 -97.830002 -577.90997
-110.29 -97.769997 -577.57001
-109.76 -97.769997 -577.57001
-109.26 -97.800003 -577.71997
-108.69 -97.760002 -577.5
-108.15 -97.75 -577.45001
-107.66 -97.779999 -577.60999
-107.11 -97.769997 -577.53998
-106.57 -97.760002 -577.47998
-106.06 -97.769997 -577.57001
-105.57 -97.809998 -577.77002
-105.05 -97.82 -577.85999
-104.56 -97.849998 -578.03998
-104.07 -97.889999 -578.28998
-103.51 -97.860001 -578.10999
-102.99 -97.870003 -578.15997
-102.53 -97.940002 -578.53003
-102.05 -97.989998 -578.83002
-101.48 -97.949997 -578.58002
-100.93 -97.93 -578.5
-100.48 -98.010002 -578.96002
-99.940002 -98 -578.92999
-99.370003 -97.959999 -578.69
-98.860001 -97.980003 -578.81
-98.379997 -98.029999 -579.09998
-97.919998 -98.110001 -579.52002
-97.370003 -98.089996 -579.40997
-96.790001 -98.029999 -579.09998
-96.290001 -98.07 -579.31
-95.830002 -98.139999 -579.72998
-95.300003 -98.139999 -579.72998
-94.800003 -98.169998 -579.90997
-94.309998 -98.209999 -580.13
-93.769997 -98.209999 -580.10999
-93.230003 -98.190002 -580.03003
-92.720001 -98.220001 -580.19
-92.230003 -98.260002 -580.44
-91.760002 -98.330002 -580.82001
-91.220001 -98.330002 -580.82001
-90.68 -98.32 -580.77002
-90.190002 -98.370003 -581.04999
-89.699997 -98.410004 -581.31
-89.150002 -98.389999 -581.15997
-88.639999 -98.419998 -581.34998
-88.169998 -98.480003 -581.72998
-87.660004 -98.510002 -581.87
-87.080002 -98.459999 -581.62
-86.580002 -98.489998 -581.78998
-86.089996 -98.540001 -582.07001
-85.589996 -98.580002 -582.28003
-85.040001 -98.559998 -582.17999
-84.529999 -98.589996 -582.35999
-84.010002 -98.610001 -582.46997
-83.540001 -98.68 -582.88
-83.019997 -98.709999 -583.02002
-82.5 -98.720001 -583.09003
-82 -98.760002 -583.34998
-81.470001 -98.769997 -583.38
-80.93 -98.760002 -583.34003
-80.43 -98.809998 -583.62
-79.959999 -98.889999 -584.08002
-79.459999 -98.93 -584.33002
-78.93 -98.940002 -584.38
-78.43 -98.989998 -584.65997
-77.919998 -99.010002 -584.78998
-77.370003 -98.989998 -584.70001
-76.860001 -99.029999 -584.90997
-76.379997 -99.099998 -585.32001
-75.870003 -99.139999 -585.56
-75.339996 -99.139999 -585.56
-74.830002 -99.18 -585.77002
-74.32 -99.209999 -586
-73.790001 -99.220001 -586.04999
-73.279999 -99.269997 -586.28998
-72.769997 -99.309998 -586.53003
-72.25 -99.330002 -586.65997
-71.720001 -99.339996 -586.72998
-71.220001 -99.389999 -587.03998
-70.739998 -99.470001 -587.46002
-70.230003 -99.519997 -587.76001
-69.709999 -99.529999 -587.85999
-69.18 -99.559998 -587.98999
-68.650002 -99.559998 -588
-68.099998 -99.550003 -587.94
-67.559998 -99.550003 -587.94
-67.029999 -99.559998 -588.02002
-66.5 -99.580002 -588.13
-65.980003 -99.599998 -588.27002
-65.470001 -99.639999 -588.48999
-64.919998 -99.639999 -588.46002
-64.360001 -99.599998 -588.26001
-63.799999 -99.559998 -588.03998
-63.27 -99.580002 -588.13
-62.740002 -99.589996 -588.19
-62.209999 -99.610001 -588.31
-61.639999 -99.559998 -588.02002
-61.099998 -99.550003 -587.98999
-60.580002 -99.599998 -588.23999
-60.060001 -99.629997 -588.44
-59.529999 -99.639999 -588.46997
-58.950001 -99.559998 -588.04999
-58.380001 -99.519997 -587.79999
-57.849998 -99.540001 -587.90002
-57.34 -99.589996 -588.19
-56.830002 -99.639999 -588.46997
-56.299999 -99.650002 -588.53998
-55.75 -99.629997 -588.46997
-55.189999 -99.599998 -588.27002
-54.66 -99.599998 -588.29999
-54.139999 -99.650002 -588.58002
-53.619999 -99.68 -588.72998
-53.099998 -99.730003 -589.01001
-52.59 -99.769997 -589.28998
-52.07 -99.82 -589.57001
-51.560001 -99.879997 -589.90002
-51.040001 -99.910004 -590.09003
-50.509998 -99.940002 -590.27002
-49.990002 -99.970001 -590.45001
-49.470001 -100.03 -590.77002
-48.959999 -100.09 -591.15002
-48.450001 -100.15 -591.51001
-47.939999 -100.23 -591.91998
-47.43 -100.3 -592.34003
-46.919998 -100.37 -592.76001
-46.419998 -100.45 -593.25
-45.919998 -100.56 -593.84998
-45.41 -100.64 -594.34003
-44.91 -100.72 -594.83002
-44.380001 -100.77 -595.09998
-43.869999 -100.85 -595.56
-43.349998 -100.9 -595.88
-42.84 -100.99 -596.40002
-42.330002 -101.08 -596.88
-41.82 -101.18 -597.5
-41.310001 -101.26 -597.97998
-40.810001 -101.38 -598.65997
-40.290001 -101.46 -599.10999
-39.779999 -101.56 -599.72998
-39.259998 -101.63 -600.13
-38.75 -101.74 -600.72998
-38.220001 -101.8 -601.08002
-37.720001 -101.93 -601.83002
-37.209999 -102.04 -602.47998
-36.689999 -102.15 -603.14001
-36.18 -102.27 -603.82001
-35.68 -102.43 -604.77002
-35.189999 -102.59 -605.70001
-34.689999 -102.76 -606.71002
-34.189999 -102.93 -607.66998
-33.700001 -103.13 -608.85999
-33.189999 -103.29 -609.79999
-32.689999 -103.48 -610.90997
-32.18 -103.64 -611.81
-31.67 -103.8 -612.77002
-31.16 -103.99 -613.84003
-30.639999 -104.14 -614.73999
-18.35 -111.68 -658.60999
-17.719999 -111.52 -657.69
-17.09 -111.35 -656.71002
-16.469999 -111.27 -656.21002
-15.86 -111.2 -655.78998
-15.25 -111.13 -655.40997
-14.64 -111.05 -654.96002
-14.03 -111.02 -654.77002
-13.43 -110.98 -654.54999
-12.82 -110.94 -654.27002
-12.22 -110.92 -654.17999
-11.62 -110.92 -654.16998
-11.01 -110.9 -654.06
-10.41 -110.88 -653.92999
-9.8100004 -110.89 -653.98999
-9.21 -110.87 -653.90002
-8.6099997 -110.86 -653.85999
-8.0100002 -110.86 -653.81
-7.4099998 -110.86 -653.84998
-6.8099999 -110.87 -653.90997
-6.21 -110.87 -653.89001
-5.6100001 -110.88 -653.94
-5.0100002 -110.87 -653.87
-4.4099998 -110.9 -654.09003
-3.8099999 -110.92 -654.20001
-3.21 -110.91 -654.14001
-2.6099999 -110.92 -654.16998
-2.01 -110.93 -654.21997
-1.41 -110.94 -654.33002
-0.81 -110.95 -654.37
-0.20999999 -110.95 -654.34003
0.40000001 -110.96 -654.44
1 -110.99 -654.60999
1.6 -110.99 -654.59998
2.2 -111.02 -654.77002
2.8 -111.07 -655.06
3.4000001 -111.09 -655.19
4.0100002 -111.13 -655.38
4.6100001 -111.16 -655.59003
5.21 -111.2 -655.79999
5.8200002 -111.24 -656.04999
6.4200001 -111.28 -656.28998
7.0300002 -111.29 -656.35999
12.89 -109.89 -648.21997
13.49 -109.96 -648.57001
14.08 -109.94 -648.47998
14.68 -109.94 -648.47998
15.28 -109.96 -648.59003
15.87 -109.94 -648.46002
16.459999 -109.9 -648.26001
17.049999 -109.87 -648.09003
17.639999 -109.82 -647.81
18.219999 -109.75 -647.40002
18.799999 -109.68 -646.96997
19.389999 -109.63 -646.67999
19.959999 -109.54 -646.13
20.549999 -109.48 -645.81
-162.39999 -94.43 -555.47998
-161.92 -94.449997 -555.59003
-161.49001 -94.489998 -555.83002
-161.08 -94.550003 -556.17999
-160.71001 -94.629997 -556.64001
-160.35001 -94.720001 -557.14001
-159.96001 -94.800003 -557.56
-159.53999 -94.839996 -557.84003
-159.08 -94.870003 -558.01001
-158.67 -94.940002 -558.37
-158.28 -95.010002 -558.77002
-158.07001 -95.190002 -559.82001
-157.7 -95.279999 -560.32001
-157.37 -95.389999 -560.95001
-158.17 -96.5 -567.40002
-157.74001 -96.559998 -567.71002
-157.48 -96.720001 -568.64001
-157.21001 -96.870003 -569.51001
-156.82001 -96.959999 -570
-156.42 -97.029999 -570.41998
-156.25 -97.25 -571.70001
-155.94 -97.379997 -572.46002
-155.82001 -97.639999 -573.91998
-155.71001 -97.889999 -575.40997
-148.78 -109.91 -644.81
-148.25 -109.96 -645.06
-147.69 -109.99 -645.21997
-147.11 -110 -645.27002
-124.02 -99.120003 -582.31
-123.47 -99.099998 -582.22998
-122.84 -99.029999 -581.79999
-122.22 -98.959999 -581.39001
-121.65 -98.93 -581.21002
-121.07 -98.889999 -580.98999
-120.51 -98.860001 -580.82001
-119.96 -98.849998 -580.75
-119.34 -98.769997 -580.32001
-118.74 -98.720001 -580
-118.22 -98.730003 -580.09003
-117.7 -98.739998 -580.10999
-117 -98.599998 -579.28998
-116.41 -98.550003 -579.02002
-115.89 -98.550003 -579.03998
-115.33 -98.529999 -578.90997
-114.64 -98.400002 -578.14001
-114.06 -98.349998 -577.89001
-113.55 -98.370003 -577.98999
-113.01 -98.360001 -577.90997
-112.38 -98.279999 -577.42999
-111.86 -98.279999 -577.47998
-111.38 -98.330002 -577.71997
-110.88 -98.349998 -577.84003
-110.29 -98.300003 -577.53998
-109.74 -98.279999 -577.44
-109.23 -98.300003 -577.57001
-108.7 -98.300003 -577.53998
-108.14 -98.269997 -577.40002
-107.64 -98.300003 -577.56
-107.11 -98.290001 -577.51001
-106.56 -98.279999 -577.44
-106.05 -98.290001 -577.52002
-105.56 -98.330002 -577.73999
-105.03 -98.330002 -577.75
-104.55 -98.370003 -577.98999
-104.06 -98.419998 -578.23999
-103.5 -98.389999 -578.07001
-102.99 -98.400002 -578.16998
-102.52 -98.459999 -578.51001
-102.03 -98.5 -578.71997
-101.46 -98.459999 -578.51001
-100.93 -98.459999 -578.47998
-100.48 -98.540001 -578.97998
-99.919998 -98.510002 -578.79999
-99.349998 -98.470001 -578.53998
-98.849998 -98.5 -578.71997
-98.370003 -98.559998 -579.04999
-97.910004 -98.620003 -579.41998
-97.360001 -98.610001 -579.34998
-96.779999 -98.550003 -579.02002
-96.290001 -98.589996 -579.27002
-95.82 -98.660004 -579.65997
-95.290001 -98.660004 -579.64001
-94.769997 -98.68 -579.75
-94.290001 -98.730003 -580.04999
-93.75 -98.720001 -580
-93.220001 -98.720001 -579.96997
-92.699997 -98.730003 -580.07001
-92.220001 -98.790001 -580.40002
-91.75 -98.849998 -580.77002
-91.209999 -98.849998 -580.72998
-90.669998 -98.839996 -580.66998
-90.190002 -98.900002 -581.03998
-89.690002 -98.93 -581.22998
-89.139999 -98.910004 -581.09998
-88.629997 -98.940002 -581.27002
-88.150002 -99 -581.63
-87.650002 -99.029999 -581.82001
-87.07 -98.980003 -581.53998
-86.559998 -99.010002 -581.67999
-86.089996 -99.080002 -582.07001
-85.580002 -99.099998 -582.21997
-85.029999 -99.080002 -582.12
-84.519997 -99.110001 -582.28998
-84.010002 -99.139999 -582.46002
-83.519997 -99.199997 -582.78998
-83.019997 -99.239998 -582.98999
-82.489998 -99.239998 -583.03998
-82 -99.290001 -583.34003
-81.459999 -99.290001 -583.32001
-80.919998 -99.279999 -583.26001
-80.410004 -99.32 -583.46997
-79.949997 -99.410004 -583.98999
-79.440002 -99.440002 -584.20001
-78.919998 -99.449997 -584.27002
-78.419998 -99.510002 -584.59003
-77.919998 -99.550003 -584.79999
-77.349998 -99.510002 -584.59003
-76.839996 -99.540001 -584.75
-76.360001 -99.610001 -585.20001
-75.860001 -99.660004 -585.46997
-75.32 -99.660004 -585.45001
-74.82 -99.699997 -585.71997
-74.309998 -99.739998 -585.94
-73.790001 -99.769997 -586.09998
-73.279999 -99.800003 -586.27002
-72.779999 -99.849998 -586.54999
-72.269997 -99.889999 -586.82001
-71.739998 -99.900002 -586.87
-71.220001 -99.93 -587.01001
-70.720001 -99.989998 -587.35999
-70.230003 -100.05 -587.71997
-69.709999 -100.08 -587.90002
-69.18 -100.09 -587.97998
-68.68 -100.14 -588.28003
-68.150002 -100.16 -588.38
-67.610001 -100.15 -588.33002
-67.07 -100.16 -588.38
-66.540001 -100.17 -588.45001
-66.010002 -100.19 -588.52002
-65.480003 -100.21 -588.64001
-64.959999 -100.24 -588.83002
-64.43 -100.25 -588.91998
-63.869999 -100.21 -588.69
-63.310001 -100.18 -588.5
-62.759998 -100.17 -588.46002
-62.240002 -100.2 -588.60999
-61.700001 -100.2 -588.63
-61.150002 -100.18 -588.51001
-60.59 -100.15 -588.34998
-60.07 -100.18 -588.51001
-59.560001 -100.24 -588.83002
-59.029999 -100.25 -588.91998
-58.48 -100.23 -588.78003
-57.91 -100.18 -588.52002
-57.380001 -100.18 -588.53003
-56.849998 -100.21 -588.66998
-56.34 -100.26 -588.97998
-55.810001 -100.29 -589.12
-55.27 -100.29 -589.13
-54.720001 -100.26 -588.98999
-54.189999 -100.28 -589.08002
-53.66 -100.3 -589.20001
-53.139999 -100.33 -589.38
-52.610001 -100.36 -589.57001
-52.099998 -100.42 -589.89001
-51.580002 -100.46 -590.14001
-51.07 -100.52 -590.5
-50.560001 -100.57 -590.78998
-50.029999 -100.61 -591.02002
-49.509998 -100.65 -591.26001
-48.990002 -100.7 -591.52002
-48.48 -100.75 -591.82001
-47.959999 -100.81 -592.17999
-47.450001 -100.87 -592.53003
-46.939999 -100.95 -592.96002
-46.439999 -101.03 -593.46997
-45.93 -101.12 -593.95001
-45.43 -101.22 -594.53003
-44.939999 -101.35 -595.27002
-44.43 -101.42 -595.71997
-43.91 -101.48 -596.07001
-43.389999 -101.55 -596.45001
-42.880001 -101.63 -596.92999
-42.360001 -101.69 -597.26001
-41.849998 -101.78 -597.79999
-41.330002 -101.86 -598.26001
-40.82 -101.96 -598.81
-40.299999 -102.03 -599.26001
-39.810001 -102.18 -600.12
-39.310001 -102.31 -600.87
-38.799999 -102.43 -601.53003
-38.290001 -102.53 -602.15997
-37.779999 -102.64 -602.78998
-37.259998 -102.74 -603.35999
-36.759998 -102.89 -604.21997
-36.25 -103.01 -604.90997
-35.75 -103.17 -605.87
-35.25 -103.35 -606.85999
-34.759998 -103.53 -607.90002
-34.25 -103.66 -608.70001
-33.740002 -103.83 -609.67999
-33.23 -103.99 -610.57001
-32.73 -104.18 -611.71002
-32.209999 -104.32 -612.48999
-31.700001 -104.49 -613.46997
-31.190001 -104.64 -614.34998
-18.34 -112.23 -658.29999
-17.709999 -112.1 -657.52002
-17.09 -111.95 -656.67999
-16.469999 -111.87 -656.16998
-15.86 -111.8 -655.79999
-15.25 -111.74 -655.44
-14.64 -111.66 -654.97998
-14.03 -111.65 -654.91998
-13.43 -111.6 -654.65997
-12.83 -111.58 -654.54999
-12.22 -111.55 -654.34998
-11.62 -111.53 -654.26001
-11.02 -111.55 -654.38
-10.42 -111.53 -654.21002
-9.8100004 -111.5 -654.04999
-9.21 -111.51 -654.14001
-8.6099997 -111.48 -653.96997
-8.0100002 -111.5 -654.03998
-7.4099998 -111.51 -654.14001
-6.8099999 -111.5 -654.04999
-6.21 -111.52 -654.20001
-5.6100001 -111.54 -654.28003
-5.0100002 -111.55 -654.35999
-4.4099998 -111.55 -654.33002
-3.8099999 -111.55 -654.35999
-3.21 -111.56 -654.39001
-2.6099999 -111.55 -654.38
-2.01 -111.55 -654.37
-1.41 -111.56 -654.42999
-0.81 -111.56 -654.39001
-0.20999999 -111.57 -654.46002
0.40000001 -111.6 -654.63
1 -111.64 -654.88
1.6 -111.65 -654.91998
2.2 -111.72 -655.33002
2.8 -111.76 -655.57001
3.4100001 -111.78 -655.66998
4.0100002 -111.82 -655.92999
4.6100001 -111.87 -656.21002
5.2199998 -111.9 -656.35999
5.8200002 -111.93 -656.53998
6.4200001 -111.93 -656.53998
14.07 -110.41 -647.75
14.66 -110.41 -647.71997
15.26 -110.44 -647.90997
15.85 -110.42 -647.83002
16.440001 -110.4 -647.67999
17.030001 -110.36 -647.46002
17.620001 -110.32 -647.23999
18.209999 -110.29 -647.03003
18.780001 -110.15 -646.28003
19.370001 -110.13 -646.12
-162.36 -94.919998 -555.35999
-161.89999 -94.940002 -555.52002
-161.48 -95 -555.82001
-161.10001 -95.07 -556.23999
-160.71001 -95.139999 -556.62
-160.35001 -95.230003 -557.14001
-159.92 -95.279999 -557.40997
-159.47 -95.309998 -557.59998
-159.00999 -95.349998 -557.78003
-158.60001 -95.410004 -558.14001
-158.22 -95.480003 -558.56
-157.95 -95.629997 -559.40002
-157.59 -95.720001 -559.94
-157.24001 -95.830002 -560.52002
-157.28 -96.160004 -562.44
-157.59 -96.989998 -567.19
-157.50999 -97.260002 -568.73999
-157.13 -97.339996 -569.23999
-156.71001 -97.410004 -569.59998
-156.45 -97.57 -570.52002
-156.25 -97.769997 -571.69
-155.92999 -97.900002 -572.42999
-155.89 -98.209999 -574.16998
-155.55 -98.330002 -574.87
-148.45 -110.26 -643.39001
-147.91 -110.3 -643.64001
-147.35001 -110.33 -643.77002
-146.75999 -110.32 -643.73999
-146.22 -110.36 -643.96002
-145.31 -110.12 -642.59998
-144.73 -110.13 -642.63
-143.75 -109.83 -640.90997
-143.2 -109.86 -641.09003
-126.31 -99.769997 -583.02002
-125.75 -99.75 -582.90997
-125.23 -99.760002 -582.96002
-123.84 -99.510002 -581.5
-123.28 -99.480003 -581.34998
-122.7 -99.440002 -581.12
-122.11 -99.400002 -580.85999
-121.51 -99.339996 -580.53998
-120.94 -99.309998 -580.34003
-120.38 -99.290001 -580.23999
-119.86 -99.300003 -580.29999
-119.21 -99.199997 -579.72998
-118.64 -99.169998 -579.52002
-118.13 -99.190002 -579.65002
-117.62 -99.199997 -579.73999
-116.94 -99.080002 -579.01001
-116.33 -99.010002 -578.60999
-115.79 -99.010002 -578.59003
-115.29 -99.019997 -578.70001
-114.62 -98.910004 -578.03998
-114.01 -98.839996 -577.62
-113.49 -98.849998 -577.67999
-112.98 -98.860001 -577.76001
-112.38 -98.800003 -577.41998
-111.83 -98.779999 -577.28998
-111.33 -98.809998 -577.46002
-110.84 -98.839996 -577.64001
-110.27 -98.809998 -577.42999
-109.7 -98.769997 -577.22998
-109.2 -98.790001 -577.37
-108.68 -98.809998 -577.45001
-108.14 -98.800003 -577.38
-107.63 -98.809998 -577.47998
-107.1 -98.809998 -577.47998
-106.54 -98.790001 -577.33002
-106.05 -98.82 -577.5
-105.54 -98.839996 -577.65002
-105.03 -98.860001 -577.72998
-104.54 -98.900002 -577.96002
-104.05 -98.93 -578.15997
-103.48 -98.889999 -577.94
-102.97 -98.910004 -578.06
-102.52 -98.989998 -578.47998
-102.01 -99.019997 -578.64001
-101.44 -98.970001 -578.38
-100.93 -98.989998 -578.48999
-100.48 -99.07 -578.92999
-99.889999 -99.010002 -578.59998
-99.330002 -98.980003 -578.42999
-98.82 -99.010002 -578.59003
-98.349998 -99.07 -578.92999
-97.900002 -99.139999 -579.37
-97.349998 -99.129997 -579.28998
-96.760002 -99.07 -578.95001
-96.269997 -99.110001 -579.17999
-95.809998 -99.18 -579.58002
-95.260002 -99.160004 -579.46002
-94.75 -99.190002 -579.62
-94.279999 -99.239998 -579.95001
-93.739998 -99.239998 -579.94
-93.209999 -99.239998 -579.92999
-92.690002 -99.25 -579.98999
-92.209999 -99.300003 -580.31
-91.739998 -99.370003 -580.69
-91.199997 -99.360001 -580.64001
-90.650002 -99.349998 -580.59003
-90.18 -99.419998 -580.97998
-89.68 -99.449997 -581.15002
-89.110001 -99.419998 -580.95001
-88.599998 -99.440002 -581.08002
-88.129997 -99.510002 -581.5
-87.620003 -99.540001 -581.65002
-87.059998 -99.5 -581.44
-86.540001 -99.519997 -581.53003
-86.059998 -99.580002 -581.90002
-85.559998 -99.620003 -582.12
-85.019997 -99.610001 -582.06
-84.5 -99.629997 -582.15997
-83.989998 -99.660004 -582.34998
-83.519997 -99.730003 -582.78003
-83 -99.75 -582.88
-82.470001 -99.760002 -582.92999
-81.989998 -99.82 -583.27002
-81.440002 -99.800003 -583.17999
-80.900002 -99.790001 -583.12
-80.400002 -99.839996 -583.38
-79.940002 -99.93 -583.91998
-79.43 -99.970001 -584.13
-78.900002 -99.970001 -584.15997
-78.419998 -100.03 -584.52002
-77.910004 -100.07 -584.73999
-77.349998 -100.05 -584.59998
-76.830002 -100.06 -584.65997
-76.339996 -100.12 -585.04999
-75.849998 -100.19 -585.40997
-75.32 -100.19 -585.44
-74.809998 -100.22 -585.60999
-74.300003 -100.27 -585.88
-73.790001 -100.3 -586.08002
-73.290001 -100.35 -586.34998
-72.769997 -100.38 -586.51001
-72.269997 -100.43 -586.78998
-71.739998 -100.44 -586.85999
-71.230003 -100.48 -587.09998
-70.720001 -100.52 -587.33002
-70.230003 -100.59 -587.71002
-69.699997 -100.6 -587.76001
-69.169998 -100.61 -587.84998
-68.660004 -100.66 -588.13
-68.169998 -100.73 -588.52002
-67.650002 -100.75 -588.67999
-67.120003 -100.78 -588.81
-66.57 -100.76 -588.75
-66.029999 -100.76 -588.71997
-65.5 -100.78 -588.81
-64.970001 -100.8 -588.91998
-64.459999 -100.84 -589.17999
-63.939999 -100.87 -589.34998
-63.389999 -100.85 -589.27002
-62.810001 -100.79 -588.89001
-62.259998 -100.76 -588.73999
-61.73 -100.79 -588.90997
-61.200001 -100.8 -588.95001
-60.66 -100.8 -588.96002
-60.110001 -100.79 -588.91998
-59.57 -100.78 -588.84998
-59.049999 -100.82 -589.06
-58.540001 -100.87 -589.34998
-58.009998 -100.89 -589.47998
-57.450001 -100.86 -589.32001
-56.900002 -100.83 -589.15002
-56.349998 -100.83 -589.12
-55.830002 -100.86 -589.34003
-55.330002 -100.93 -589.72998
-54.790001 -100.93 -589.71002
-54.25 -100.94 -589.76001
-53.700001 -100.91 -589.62
-53.16 -100.92 -589.65002
-52.630001 -100.94 -589.81
-52.119999 -100.99 -590.07001
-51.599998 -101.04 -590.34998
-51.09 -101.11 -590.73999
-50.57 -101.15 -591
-50.07 -101.22 -591.38
-49.549999 -101.27 -591.70001
-49.029999 -101.32 -591.94
-48.52 -101.38 -592.32001
-47.990002 -101.41 -592.52002
-47.48 -101.48 -592.90997
-46.970001 -101.55 -593.28003
-46.450001 -101.62 -593.69
-45.950001 -101.71 -594.19
-45.439999 -101.79 -594.67999
-44.939999 -101.9 -595.28998
-44.439999 -101.99 -595.81
-43.939999 -102.09 -596.40997
-43.43 -102.18 -596.94
-42.91 -102.26 -597.40997
-42.400002 -102.34 -597.87
-41.880001 -102.4 -598.21997
-41.349998 -102.46 -598.52002
-40.830002 -102.54 -598.97998
-40.330002 -102.66 -599.71002
-39.84 -102.81 -600.53998
-39.330002 -102.93 -601.22998
-38.830002 -103.04 -601.89001
-38.32 -103.16 -602.57001
-37.810001 -103.28 -603.28003
-37.299999 -103.4 -603.97998
-36.799999 -103.56 -604.88
-36.310001 -103.74 -605.90002
-35.810001 -103.91 -606.90002
-35.299999 -104.05 -607.72998
-34.799999 -104.2 -608.56
-34.290001 -104.35 -609.44
-33.779999 -104.52 -610.40997
-33.279999 -104.69 -611.39001
-32.779999 -104.88 -612.5
-32.27 -105.07 -613.59998
-31.77 -105.27 -614.75
-18.98 -113.03 -659.40002
-18.34 -112.85 -658.34003
-17.709999 -112.65 -657.23999
-17.08 -112.52 -656.46002
-16.469999 -112.46 -656.10999
-15.86 -112.4 -655.76001
-15.25 -112.37 -655.60999
-14.64 -112.29 -655.15997
-14.04 -112.25 -654.94
-13.43 -112.24 -654.88
-12.83 -112.22 -654.73999
-12.22 -112.18 -654.53998
-11.62 -112.16 -654.40997
-11.02 -112.16 -654.39001
-10.42 -112.15 -654.33002
-9.8100004 -112.11 -654.09998
-9.21 -112.12 -654.15997
-8.6099997 -112.11 -654.09003
-8.0100002 -112.11 -654.14001
-7.4099998 -112.15 -654.34998
-6.8099999 -112.16 -654.40002
-6.21 -112.17 -654.46002
-5.6100001 -112.19 -654.58002
-5.0100002 -112.2 -654.64001
-4.4099998 -112.22 -654.75
-3.8099999 -112.2 -654.63
-3.21 -112.18 -654.54999
-2.6099999 -112.18 -654.53998
-2.01 -112.18 -654.51001
-1.41 -112.17 -654.47998
-0.81 -112.19 -654.56
-0.20999999 -112.2 -654.62
0.40000001 -112.24 -654.84998
1 -112.28 -655.08002
1.6 -112.32 -655.34998
2.2 -112.36 -655.56
2.8099999 -112.43 -655.92999
3.4100001 -112.45 -656.09003
4.0100002 -112.48 -656.26001
4.6199999 -112.57 -656.78003
5.2199998 -112.62 -657.04999
-162.36 -95.419998 -555.35999
-161.94 -95.470001 -555.64001
-161.53 -95.540001 -555.98999
-161.14999 -95.610001 -556.40002
-160.74001 -95.669998 -556.75
-160.36 -95.75 -557.17999
-159.89999 -95.769997 -557.33002
-159.42999 -95.800003 -557.47998
-158.98 -95.839996 -557.66998
-158.58 -95.910004 -558.07001
-158.17 -95.970001 -558.41998
-157.89999 -96.110001 -559.23999
-157.52 -96.190002 -559.69
-157.23 -96.330002 -560.47998
-157.14 -96.589996 -561.96997
-156.72 -96.650002 -562.27002
-157.46001 -97.75 -568.59003
-157.03999 -97.809998 -568.92999
-156.74001 -97.949997 -569.72998
-156.53999 -98.150002 -570.87
-156.17 -98.239998 -571.39001
-155.98 -98.459999 -572.60999
-155.69 -98.599998 -573.44
-155.44 -98.779999 -574.46002
-147.05 -110.69 -642.46002
-146.49001 -110.71 -642.60999
-145.92999 -110.73 -642.72998
-145.35001 -110.74 -642.75
-144.81 -110.78 -642.96997
-143.74001 -110.41 -640.88
-142.97 -110.27 -640.03998
-142.3 -110.21 -639.70001
-127.61 -100.49 -584.08002
-126.82 -100.29 -582.91998
-126.15 -100.18 -582.31
-125.58 -100.15 -582.13
-125.02 -100.13 -582.02002
-124.33 -100 -581.28003
-123.69 -99.919998 -580.78998
-123.11 -99.879997 -580.53998
-122.54 -99.849998 -580.37
-121.99 -99.830002 -580.29999
-121.4 -99.779999 -580.02002
-120.81 -99.739998 -579.76001
-120.29 -99.75 -579.79999
-119.77 -99.760002 -579.87
-119.14 -99.669998 -579.37
-118.56 -99.629997 -579.14001
-118.04 -99.639999 -579.20001
-117.54 -99.669998 -579.34998
-116.93 -99.599998 -578.95001
-116.28 -99.5 -578.37
-115.73 -99.489998 -578.29999
-115.22 -99.5 -578.39001
-114.66 -99.470001 -578.21002
-113.99 -99.349998 -577.53003
-113.45 -99.339996 -577.46997
-112.94 -99.360001 -577.57001
-112.4 -99.339996 -577.48999
-111.8 -99.290001 -577.15997
-111.3 -99.309998 -577.31
-110.8 -99.339996 -577.47998
-110.26 -99.330002 -577.40997
-109.68 -99.279999 -577.15002
-109.19 -99.309998 -577.31
-108.69 -99.339996 -577.46997
-108.12 -99.309998 -577.29999
-107.62 -99.330002 -577.40002
-107.1 -99.339996 -577.46002
-106.56 -99.330002 -577.41998
-106.06 -99.360001 -577.54999
-105.55 -99.379997 -577.66998
-105.03 -99.379997 -577.71997
-104.55 -99.43 -577.98999
-104.02 -99.440002 -578.01001
-103.48 -99.43 -577.96002
-102.97 -99.449997 -578.06
-102.52 -99.519997 -578.48999
-102 -99.529999 -578.57001
-101.43 -99.489998 -578.31
-100.95 -99.540001 -578.63
-100.48 -99.599998 -578.96997
-99.879997 -99.529999 -578.53003
-99.32 -99.510002 -578.40002
-98.82 -99.540001 -578.58002
-98.349998 -99.589996 -578.90997
-97.889999 -99.669998 -579.34003
-97.330002 -99.629997 -579.13
-96.760002 -99.589996 -578.90002
-96.279999 -99.650002 -579.21997
-95.800003 -99.699997 -579.54999
-95.25 -99.68 -579.40997
-94.739998 -99.709999 -579.58002
-94.260002 -99.760002 -579.89001
-93.730003 -99.760002 -579.87
-93.199997 -99.760002 -579.87
-92.690002 -99.790001 -580.03998
-92.199997 -99.830002 -580.29999
-91.739998 -99.910004 -580.71002
-91.18 -99.879997 -580.56
-90.650002 -99.879997 -580.53998
-90.18 -99.949997 -580.92999
-89.690002 -100 -581.22998
-89.099998 -99.93 -580.84998
-88.589996 -99.959999 -581
-88.129997 -100.04 -581.46002
-87.620003 -100.06 -581.59998
-87.040001 -100.02 -581.34998
-86.529999 -100.03 -581.44
-86.059998 -100.11 -581.88
-85.559998 -100.15 -582.10999
-85.010002 -100.13 -581.98999
-84.489998 -100.15 -582.12
-83.989998 -100.19 -582.34003
-83.519997 -100.26 -582.75
-83 -100.28 -582.84998
-82.480003 -100.29 -582.92999
-81.989998 -100.35 -583.26001
-81.419998 -100.32 -583.06
-80.900002 -100.33 -583.15997
-80.400002 -100.37 -583.38
-79.940002 -100.46 -583.89001
-79.43 -100.5 -584.13
-78.900002 -100.5 -584.10999
-78.410004 -100.56 -584.45001
-77.900002 -100.6 -584.70001
-77.349998 -100.57 -584.53998
-76.809998 -100.57 -584.54999
-76.339996 -100.66 -585.02002
-75.860001 -100.73 -585.41998
-75.32 -100.73 -585.46002
-74.790001 -100.74 -585.5
-74.309998 -100.81 -585.90997
-73.800003 -100.86 -586.15997
-73.279999 -100.88 -586.28998
-72.760002 -100.9 -586.41998
-72.279999 -100.97 -586.84998
-71.760002 -101.01 -587.03003
-71.230003 -101.01 -587.07001
-70.720001 -101.05 -587.29999
-70.220001 -101.11 -587.60999
-69.699997 -101.13 -587.77002
-69.169998 -101.16 -587.89001
-68.650002 -101.18 -588.06
-68.150002 -101.24 -588.34998
-67.650002 -101.29 -588.67999
-67.139999 -101.35 -588.98999
-66.629997 -101.39 -589.21002
-66.080002 -101.38 -589.16998
-65.529999 -101.35 -589.03003
-65.010002 -101.38 -589.20001
-64.480003 -101.41 -589.34998
-63.970001 -101.46 -589.60999
-63.450001 -101.49 -589.78998
-62.91 -101.48 -589.77002
-62.32 -101.41 -589.35999
-61.77 -101.39 -589.26001
-61.25 -101.42 -589.40997
-60.720001 -101.45 -589.56
-60.18 -101.44 -589.53003
-59.630001 -101.42 -589.41998
-59.07 -101.4 -589.28998
-58.540001 -101.42 -589.40997
-58.029999 -101.46 -589.64001
-57.509998 -101.5 -589.85999
-56.970001 -101.51 -589.91998
-56.419998 -101.48 -589.77002
-55.869999 -101.46 -589.67999
-55.34 -101.48 -589.78003
-54.830002 -101.55 -590.16998
-54.310001 -101.58 -590.37
-53.759998 -101.57 -590.31
-53.220001 -101.57 -590.31
-52.68 -101.58 -590.34998
-52.16 -101.61 -590.5
-51.639999 -101.65 -590.77002
-51.119999 -101.71 -591.08002
-50.610001 -101.77 -591.40997
-50.099998 -101.84 -591.83002
-49.580002 -101.87 -592
-49.07 -101.95 -592.44
-48.57 -102.03 -592.94
-48.049999 -102.08 -593.21997
-47.52 -102.1 -593.34998
-47 -102.16 -593.70001
-46.48 -102.22 -594
-45.970001 -102.31 -594.51001
-45.459999 -102.38 -594.91998
-44.959999 -102.47 -595.47998
-44.450001 -102.57 -596
-43.950001 -102.68 -596.65997
-43.439999 -102.77 -597.17999
-42.950001 -102.9 -597.94
-42.439999 -103 -598.47998
-41.93 -103.08 -598.97998
-41.41 -103.16 -599.40997
-40.91 -103.29 -600.15002
-40.41 -103.41 -600.84003
-39.889999 -103.5 -601.38
-39.380001 -103.59 -601.89001
-38.869999 -103.73 -602.65002
-38.349998 -103.8 -603.09998
-37.849998 -103.95 -603.96002
-37.349998 -104.09 -604.76001
-36.849998 -104.25 -605.63
-36.34 -104.38 -606.37
-35.84 -104.54 -607.32001
-35.330002 -104.68 -608.09003
-34.82 -104.83 -608.97998
-34.32 -105 -609.95001
-33.810001 -105.17 -610.94
-33.310001 -105.34 -611.89001
-32.810001 -105.55 -613.10999
-32.310001 -105.77 -614.34003
-31.780001 -105.87 -614.96002
-18.959999 -113.57 -659.01001
-18.33 -113.4 -658.06
-17.700001 -113.23 -657.07001
-17.08 -113.11 -656.37
-16.469999 -113.05 -656.04999
-15.86 -112.99 -655.71997
-15.25 -112.96 -655.52002
-14.64 -112.91 -655.22998
-14.04 -112.88 -655.06
-13.43 -112.86 -654.94
-12.83 -112.83 -654.78998
-12.23 -112.82 -654.71002
-11.62 -112.8 -654.64001
-11.02 -112.81 -654.65997
-10.42 -112.76 -654.41998
-9.8199997 -112.74 -654.26001
-9.21 -112.73 -654.22998
-8.6199999 -112.74 -654.28998
-8.0200005 -112.76 -654.40997
-7.4200001 -112.79 -654.56
-6.8200002 -112.8 -654.65002
-6.2199998 -112.82 -654.73999
-5.6199999 -112.81 -654.71002
-5.0100002 -112.8 -654.65002
-4.4099998 -112.81 -654.70001
-3.8099999 -112.81 -654.65997
-3.21 -112.8 -654.64001
-2.6099999 -112.83 -654.77002
-2.01 -112.82 -654.71997
-1.41 -112.79 -654.56
-0.81 -112.81 -654.70001
-0.20999999 -112.85 -654.94
0.40000001 -112.88 -655.08002
1 -112.96 -655.54999
1.6 -113.01 -655.81
2.2 -113.03 -655.95001
2.8099999 -113.09 -656.26001
3.4100001 -113.14 -656.59003
4.02 -113.2 -656.94
4.6199999 -113.25 -657.17999
-162.44 -95.980003 -555.65002
-162.03 -96.040001 -555.96002
-161.62 -96.089996 -556.27002
-161.21001 -96.160004 -556.62
-160.78999 -96.209999 -556.90997
-160.32001 -96.230003 -557.03998
-159.86 -96.260002 -557.21002
-159.39 -96.290001 -557.35999
-158.94 -96.32 -557.53998
-158.53999 -96.389999 -557.91998
-158.17 -96.480003 -558.40997
-157.86 -96.599998 -559.12
-157.47 -96.669998 -559.51001
-157.28 -96.879997 -560.66998
-157.03999 -97.050003 -561.62
-156.58 -97.080002 -561.79999
-157.37 -98.209999 -568.26001
-156.99001 -98.300003 -568.72998
-156.84 -98.529999 -570.06
-156.45 -98.620003 -570.53998
-156.23 -98.809998 -571.63
-156.00999 -99 -572.71997
-155.64999 -99.099998 -573.29999
-155.36 -99.25 -574.15002
-155.08 -99.410004 -575.07001
-144.60001 -111.21 -642.08002
-128.5 -100.88 -583.25
-127.93 -100.85 -583.08002
-127.34 -100.81 -582.85999
-126.62 -100.67 -582.03003
-125.97 -100.57 -581.48999
-125.38 -100.52 -581.21002
-124.79 -100.48 -580.96002
-124.18 -100.41 -580.57001
-123.55 -100.34 -580.15002
-122.97 -100.29 -579.90002
-122.43 -100.29 -579.85999
-121.9 -100.29 -579.85999
-121.28 -100.21 -579.45001
-120.71 -100.18 -579.27002
-120.17 -100.18 -579.23999
-119.68 -100.21 -579.41998
-119.08 -100.16 -579.09998
-118.47 -100.09 -578.71997
-117.94 -100.09 -578.70001
-117.44 -100.12 -578.88
-116.87 -100.08 -578.69
-116.21 -99.970001 -578.04999
-115.67 -99.959999 -577.97998
-115.15 -99.970001 -578.03003
-114.63 -99.980003 -578.09003
-114 -99.889999 -577.57001
-113.41 -99.839996 -577.28998
-112.9 -99.849998 -577.34998
-112.39 -99.870003 -577.45001
-111.79 -99.809998 -577.12
-111.26 -99.800003 -577.09998
-110.77 -99.839996 -577.29999
-110.27 -99.870003 -577.46002
-109.67 -99.800003 -577.09003
-109.16 -99.82 -577.19
-108.67 -99.860001 -577.39001
-108.13 -99.849998 -577.33002
-107.61 -99.860001 -577.39001
-107.09 -99.860001 -577.40997
-106.55 -99.849998 -577.38
-106.05 -99.879997 -577.5
-105.54 -99.900002 -577.65002
-105.02 -99.910004 -577.66998
-104.55 -99.970001 -578.01001
-104 -99.949997 -577.89001
-103.47 -99.949997 -577.90997
-102.97 -99.970001 -578.06
-102.53 -100.06 -578.54999
-102 -100.06 -578.53998
-101.43 -100.02 -578.31
-100.95 -100.07 -578.63
-100.47 -100.12 -578.90002
-99.839996 -100.03 -578.35999
-99.32 -100.03 -578.38
-98.82 -100.06 -578.53998
-98.339996 -100.12 -578.88
-97.879997 -100.19 -579.28003
-97.290001 -100.13 -578.95001
-96.739998 -100.1 -578.78003
-96.260002 -100.16 -579.12
-95.790001 -100.23 -579.48999
-95.230003 -100.19 -579.28998
-94.739998 -100.23 -579.53003
-94.279999 -100.31 -579.95001
-93.720001 -100.28 -579.78998
-93.199997 -100.29 -579.85999
-92.68 -100.31 -579.96997
-92.209999 -100.38 -580.35999
-91.730003 -100.43 -580.65002
-91.18 -100.41 -580.54999
-90.650002 -100.41 -580.53998
-90.190002 -100.49 -581
-89.690002 -100.53 -581.21002
-89.099998 -100.46 -580.84003
-88.57 -100.47 -580.89001
-88.120003 -100.56 -581.38
-87.599998 -100.58 -581.5
-87.029999 -100.54 -581.28003
-86.510002 -100.55 -581.35999
-86.050003 -100.63 -581.78998
-85.550003 -100.67 -582.03003
-85 -100.65 -581.90997
-84.480003 -100.67 -582.03003
-83.970001 -100.7 -582.21002
-83.510002 -100.79 -582.69
-82.989998 -100.8 -582.78003
-82.470001 -100.82 -582.90002
-81.970001 -100.86 -583.14001
-81.419998 -100.84 -582.98999
-80.879997 -100.84 -583.02002
-80.379997 -100.88 -583.23999
-79.919998 -100.98 -583.78998
-79.419998 -101.02 -584.03998
-78.889999 -101.02 -584.03998
-78.389999 -101.07 -584.31
-77.889999 -101.12 -584.63
-77.339996 -101.1 -584.52002
-76.809998 -101.1 -584.5
-76.32 -101.17 -584.88
-75.849998 -101.26 -585.40997
-75.330002 -101.27 -585.47998
-74.790001 -101.27 -585.48999
-74.300003 -101.34 -585.88
-73.800003 -101.39 -586.16998
-73.279999 -101.41 -586.27002
-72.760002 -101.44 -586.42999
-72.269997 -101.5 -586.77002
-71.760002 -101.55 -587.04999
-71.230003 -101.56 -587.09998
-70.709999 -101.59 -587.26001
-70.199997 -101.63 -587.5
-69.690002 -101.67 -587.76001
-69.169998 -101.7 -587.90002
-68.650002 -101.72 -588.03998
-68.139999 -101.77 -588.29999
-67.629997 -101.81 -588.53003
-67.139999 -101.88 -588.91998
-66.639999 -101.95 -589.34998
-66.129997 -101.99 -589.56
-65.580002 -101.98 -589.5
-65.029999 -101.96 -589.42999
-64.5 -101.98 -589.52002
-63.98 -102.01 -589.67999
-63.459999 -102.04 -589.89001
-62.959999 -102.1 -590.21997
-62.419998 -102.11 -590.28998
-61.849998 -102.06 -589.97998
-61.279999 -102.01 -589.70001
-60.75 -102.04 -589.84998
-60.23 -102.08 -590.07001
-59.700001 -102.09 -590.14001
-59.150002 -102.06 -590.01001
-58.580002 -102.01 -589.72998
-58.040001 -102.02 -589.75
-57.509998 -102.04 -589.84998
-56.98 -102.07 -590.03998
-56.470001 -102.12 -590.33002
-55.93 -102.12 -590.35999
-55.380001 -102.11 -590.27002
