# .PCD v0.7 - Point Cloud Data file format
VERSION 0.7
FIELDS x y z
SIZE 4 4 4
TYPE F F F
COUNT 1 1 1
WIDTH 1705
HEIGHT 1
VIEWPOINT 0 0 0 1 0 0 0
POINTS 1705
DATA ascii
-23.4 7.9000001 -563.77002
-22.879999 7.9000001 -563.5
-22.360001 7.9000001 -563.40997
-21.84 7.9000001 -563.34003
-21.32 7.9000001 -563.34998
-20.809999 7.9000001 -563.40002
-20.299999 7.9000001 -563.46002
-19.780001 7.9000001 -563.52002
-19.27 7.9000001 -563.57001
-18.76 7.9000001 -563.71997
-18.25 7.9099998 -563.90997
-17.74 7.9099998 -564.15002
-17.23 7.9099998 -564.46002
-16.73 7.9200001 -564.84998
-16.219999 7.9200001 -565.22998
-15.72 7.9299998 -565.75
-15.21 7.9400001 -566.23999
-14.71 7.9499998 -566.79999
-14.2 7.9499998 -567.16998
-13.69 7.96 -567.64001
-13.18 7.9699998 -568.10999
-12.67 7.9699998 -568.64001
-12.17 7.98 -569.22998
-11.67 8 -570.17999
-11.17 8.0200005 -571.56
-10.69 8.0500002 -573.95001
-10.21 8.0900002 -576.46997
-9.7299995 8.1300001 -579.44
-1.39 9.0900002 -647.22998
-0.80000001 9.0799999 -646.22998
-0.2 9.0699997 -645.37
0.38999999 9.0500002 -644.47998
0.98000002 9.04 -643.57001
1.5700001 9.0299997 -642.67999
3.3 8.9399996 -636.57001
3.8800001 8.9300003 -635.84003
4.46 8.9200001 -635.40997
5.04 8.9200001 -635.29999
5.6300001 8.9200001 -635.15997
6.21 8.9200001 -635.04999
6.79 8.9200001 -635.17999
7.3800001 8.9200001 -635.32001
7.96 8.9200001 -635.34003
8.54 8.9200001 -635.20001
9.1099997 8.9099998 -634.53003
9.6899996 8.8999996 -634.01001
10.26 8.8999996 -633.62
10.84 8.8999996 -633.44
11.42 8.8900003 -633.31
12 8.8900003 -633.28998
12.58 8.8900003 -633.16998
13.16 8.8900003 -633.21002
13.74 8.8900003 -633.15997
14.32 8.8900003 -633.09003
14.9 8.8900003 -633.21997
15.48 8.8900003 -633.21997
16.059999 8.8900003 -633.15997
16.65 8.8900003 -633.31
17.23 8.8999996 -633.37
17.809999 8.8999996 -633.38
18.389999 8.8999996 -633.44
18.98 8.8999996 -633.52002
19.559999 8.8999996 -633.78003
20.15 8.8999996 -633.84998
20.73 8.8999996 -634.01001
21.32 8.9099998 -634.15997
21.91 8.9099998 -634.28998
22.49 8.9099998 -634.41998
23.07 8.9099998 -634.38
23.66 8.9099998 -634.39001
24.24 8.9099998 -634.40997
24.83 8.9099998 -634.62
25.42 8.9200001 -634.78003
26 8.9200001 -634.84998
26.59 8.9200001 -635.01001
27.18 8.9200001 -635.15997
27.77 8.9200001 -635.34998
28.360001 8.9300003 -635.41998
28.950001 8.9300003 -635.53003
29.540001 8.9300003 -635.71002
30.129999 8.9300003 -635.96002
30.73 8.9399996 -636.14001
31.32 8.9399996 -636.33002
31.91 8.9399996 -636.56
32.509998 8.9499998 -636.84003
33.110001 8.9499998 -637.09003
33.709999 8.9499998 -637.44
34.310001 8.96 -637.67999
34.91 8.96 -638.02002
35.52 8.9700003 -638.40997
36.130001 8.9700003 -638.87
36.740002 8.9799995 -639.20001
37.349998 8.9799995 -639.53003
37.950001 8.9899998 -639.89001
38.57 9 -640.33002
39.18 9 -640.70001
39.790001 9.0100002 -641.12
40.419998 9.0100002 -641.65997
41.049999 9.0200005 -642.37
41.689999 9.04 -643.13
42.34 9.0500002 -644.03003
42.990002 9.0600004 -644.90997
43.639999 9.0699997 -645.72998
44.299999 9.0900002 -646.78998
45.049999 9.1199999 -648.94
-153.62 8.29 -630.81
-153.06 8.29 -630.90002
-152.48 8.29 -630.90002
-151.88 8.29 -630.78003
-151.28 8.29 -630.72998
-150.67999 8.2799997 -630.63
-150.12 8.29 -630.69
-149.5 8.2799997 -630.53998
-148.92 8.2799997 -630.52002
-148.34 8.2799997 -630.53998
-147.77 8.2799997 -630.56
-147.19 8.2799997 -630.53998
-146.58 8.2799997 -630.41998
-146.03 8.2799997 -630.53998
-145.45 8.2799997 -630.53998
-144.87 8.2799997 -630.53998
-144.32001 8.2799997 -630.65002
-143.78 8.29 -630.84003
-143.27 8.29 -631.12
-142.75 8.29 -631.38
-142.21001 8.3000002 -631.57001
-141.64999 8.3000002 -631.63
-141.09 8.3000002 -631.73999
-140.48 8.3000002 -631.62
-139.89999 8.3000002 -631.59003
-139.28 8.29 -631.42999
-138.67 8.29 -631.27002
-138.06 8.29 -631.15002
-137.44 8.29 -630.95001
-136.85001 8.29 -630.90002
-136.25 8.29 -630.84003
-135.64999 8.29 -630.72998
-135.08 8.29 -630.76001
-134.52 8.29 -630.84998
-133.97 8.29 -630.98999
-133.41 8.29 -631.08002
-132.8 8.29 -630.94
-132.25 8.29 -631.09998
-131.67 8.29 -631.09998
-131.13 8.29 -631.25
-130.60001 8.3000002 -631.5
-130.13 8.3000002 -632.06
-107.86 8.6599998 -658.71997
-107.29 8.6599998 -658.95001
-106.75 8.6599998 -659.33002
-78.379997 7.8800001 -600.60999
-77.760002 7.8800001 -600.14001
-77.120003 7.8699999 -599.40997
-76.5 7.8600001 -598.84998
-75.889999 7.8499999 -598.38
-75.290001 7.8499999 -597.98999
-74.699997 7.8400002 -597.66998
-74.129997 7.8400002 -597.48999
-73.550003 7.8400002 -597.26001
-72.989998 7.8299999 -597.15002
-72.43 7.8299999 -597.03003
-71.879997 7.8299999 -597.07001
-67.010002 7.3600001 -561.41998
-66.43 7.3499999 -560.88
-65.900002 7.3499999 -560.70001
-65.370003 7.3499999 -560.62
-64.860001 7.3499999 -560.65002
-64.379997 7.3499999 -560.89001
-63.900002 7.3600001 -561.19
-63.43 7.3600001 -561.54999
-63.27 7.4000001 -564.65997
-63.049999 7.4400001 -567.33002
-62.52 7.4400001 -567.23999
-62 7.4400001 -567.25
-61.5 7.4400001 -567.42999
-61 7.4400001 -567.65002
-60.529999 7.4499998 -568.07001
-60.040001 7.4499998 -568.40002
-45.639999 8.6700001 -660
-45.049999 8.6700001 -660.21997
-44.459999 8.6800003 -660.48999
-43.869999 8.6800003 -660.76001
-43.290001 8.6899996 -661.16998
-42.720001 8.6899996 -661.71002
-42.139999 8.6999998 -662.13
-41.560001 8.6999998 -662.60999
-34 7.4499998 -568.23999
-33.389999 7.4299998 -566.72998
-32.84 7.4200001 -566.13
-32.299999 7.4099998 -565.76001
-31.76 7.4099998 -565.41998
-31.23 7.4099998 -565.15997
-30.700001 7.4000001 -565
-30.18 7.4000001 -564.94
-29.67 7.4099998 -565.02002
-29.15 7.4099998 -565.10999
-28.639999 7.4099998 -565.15997
-28.110001 7.4000001 -564.95001
-27.59 7.4000001 -564.85999
-27.07 7.4000001 -564.90997
-26.57 7.4099998 -565.14001
-26.07 7.4099998 -565.58002
-25.57 7.4200001 -566.06
-25.040001 7.4099998 -565.73999
-24.48 7.4000001 -564.87
-23.950001 7.4000001 -564.41998
-23.4 7.3899999 -563.78003
-22.870001 7.3800001 -563.41998
-22.35 7.3800001 -563.34998
-21.84 7.3800001 -563.31
-21.32 7.3800001 -563.28003
-20.799999 7.3800001 -563.28003
-20.290001 7.3800001 -563.35999
-19.780001 7.3800001 -563.38
-19.27 7.3899999 -563.56
-18.75 7.3899999 -563.65997
-18.24 7.3899999 -563.83002
-17.74 7.3899999 -564.07001
-17.23 7.4000001 -564.41998
-16.719999 7.4000001 -564.76001
-16.219999 7.4099998 -565.13
-15.72 7.4099998 -565.71002
-15.21 7.4200001 -566.15002
-14.71 7.4299998 -566.76001
-14.2 7.4299998 -567.15997
-13.69 7.4400001 -567.66998
-13.18 7.4499998 -568.08002
-12.67 7.4499998 -568.63
-12.17 7.46 -569.21997
-11.67 7.4699998 -570.20001
-11.17 7.4899998 -571.66998
-10.69 7.52 -573.96997
-10.21 7.5599999 -576.63
-9.7399998 7.5999999 -579.83002
-9.8599997 8.6300001 -657.38
-9.25 8.6300001 -656.96997
-8.6300001 8.6199999 -656.14001
-8.0299997 8.6199999 -655.96002
-7.4299998 8.6099997 -655.83002
-6.8299999 8.6099997 -655.90997
-6.23 8.6199999 -656.40002
-1.99 8.5100002 -647.72998
-1.39 8.4899998 -646.71997
-0.80000001 8.4799995 -645.78998
-0.2 8.4700003 -644.81
0.38999999 8.46 -644.02002
0.98000002 8.4399996 -642.71002
1.5599999 8.4300003 -641.83002
2.72 8.3699999 -637.34003
3.3 8.3500004 -636.28998
3.8800001 8.3500004 -635.82001
4.46 8.3400002 -635.47998
5.04 8.3400002 -635.21997
5.6300001 8.3400002 -635.15997
6.21 8.3400002 -635.15002
6.79 8.3400002 -634.95001
7.3699999 8.3400002 -635.12
7.96 8.3400002 -635.25
8.54 8.3400002 -635.35999
9.1199999 8.3400002 -635.33002
9.6999998 8.3400002 -634.98999
10.27 8.3299999 -634.27002
10.85 8.3199997 -633.82001
11.42 8.3199997 -633.46002
12 8.3100004 -633.34003
12.58 8.3100004 -633.26001
13.16 8.3100004 -633.25
13.74 8.3100004 -633.23999
14.32 8.3100004 -633.15997
14.9 8.3100004 -633.20001
15.48 8.3100004 -633.22998
16.059999 8.3100004 -633.27002
16.65 8.3100004 -633.28003
17.23 8.3100004 -633.26001
17.809999 8.3199997 -633.39001
18.389999 8.3199997 -633.45001
18.98 8.3199997 -633.59003
19.559999 8.3199997 -633.73999
20.15 8.3199997 -633.78003
20.73 8.3199997 -633.90997
21.32 8.3199997 -634.09998
21.91 8.3299999 -634.34003
22.49 8.3299999 -634.41998
23.08 8.3299999 -634.46002
23.66 8.3299999 -634.54999
24.25 8.3299999 -634.69
24.83 8.3299999 -634.73999
25.42 8.3400002 -634.90002
26.01 8.3400002 -635.07001
26.6 8.3400002 -635.26001
27.190001 8.3400002 -635.26001
27.77 8.3400002 -635.35999
28.370001 8.3400002 -635.59998
28.950001 8.3500004 -635.64001
29.540001 8.3500004 -635.79999
30.129999 8.3500004 -635.96002
30.73 8.3500004 -636.16998
31.32 8.3599997 -636.44
31.92 8.3599997 -636.72998
32.52 8.3599997 -637.04999
33.110001 8.3699999 -637.15997
33.720001 8.3699999 -637.53003
34.310001 8.3699999 -637.73999
34.919998 8.3800001 -638.07001
35.529999 8.3800001 -638.46002
36.139999 8.3900003 -638.94
36.740002 8.3900003 -639.28003
37.349998 8.3999996 -639.64001
37.959999 8.3999996 -640
38.580002 8.4099998 -640.46997
39.18 8.4099998 -640.78998
39.810001 8.4200001 -641.34003
40.439999 8.4300003 -642
41.07 8.4399996 -642.71997
41.720001 8.4499998 -643.54999
42.369999 8.46 -644.48999
43.009998 8.4700003 -645.21997
43.669998 8.4899998 -646.23999
44.380001 8.5100002 -647.88
45.099998 8.5299997 -649.65997
-153.00999 7.71 -630.65997
-152.39999 7.6999998 -630.54999
-151.78999 7.6999998 -630.42999
-151.22 7.6999998 -630.45001
-150.63 7.6999998 -630.42999
-150.03 7.6999998 -630.34003
-149.42 7.6999998 -630.21002
-148.87 7.6999998 -630.29999
-148.28 7.6999998 -630.28003
-147.71001 7.6999998 -630.32001
-147.14 7.6999998 -630.32001
-146.55 7.6999998 -630.31
-145.97 7.6999998 -630.28998
-145.39999 7.6999998 -630.32001
-144.84 7.6999998 -630.41998
-144.25999 7.6999998 -630.41998
-143.75 7.71 -630.71002
-143.22 7.71 -630.91998
-142.71001 7.71 -631.20001
-142.17999 7.7199998 -631.44
-141.66 7.7199998 -631.69
-141.11 7.7199998 -631.82001
-140.50999 7.7199998 -631.75
-139.92999 7.7199998 -631.72998
-139.31 7.7199998 -631.57001
-138.71001 7.7199998 -631.46997
-138.08 7.71 -631.25
-137.46001 7.71 -631.08002
-136.84 7.71 -630.89001
-136.23 7.71 -630.71997
-135.63 7.71 -630.65997
-135.06 7.71 -630.70001
-134.53999 7.71 -630.94
-133.95 7.71 -630.90997
-133.35001 7.71 -630.78998
-132.72 7.6999998 -630.58002
-132.14 7.6999998 -630.59003
-131.58 7.71 -630.65002
-131.02 7.71 -630.76001
-130.47 7.71 -630.90997
-129.95 7.71 -631.15997
-129.52 7.7199998 -631.88
-107.87 8.0500002 -658.79999
-107.29 8.0500002 -658.90997
-106.75 8.0600004 -659.32001
-78.370003 7.3299999 -600.58002
-77.75 7.3200002 -600.06
-77.110001 7.3200002 -599.37
-76.489998 7.3099999 -598.83002
-75.870003 7.3000002 -598.28003
-75.279999 7.3000002 -597.94
-74.690002 7.29 -597.59003
-74.110001 7.29 -597.35999
-73.540001 7.29 -597.19
-72.970001 7.29 -596.96002
-72.400002 7.2800002 -596.85999
-71.860001 7.2800002 -596.87
-66.959999 6.8400002 -560.96002
-66.400002 6.8299999 -560.62
-65.870003 6.8299999 -560.46997
-65.349998 6.8299999 -560.46002
-64.870003 6.8400002 -560.66998
-64.370003 6.8400002 -560.81
-63.91 6.8400002 -561.25
-63.450001 6.8499999 -561.73999
-63.5 6.9099998 -566.69
-63.009998 6.9099998 -567.01001
-62.490002 6.9099998 -566.94
-61.970001 6.9099998 -567.01001
-61.48 6.9200001 -567.22998
-60.990002 6.9200001 -567.51001
-60.52 6.9299998 -567.92999
-60.049999 6.9299998 -568.44
-47.439999 8.0600004 -659.82001
-46.799999 8.0600004 -659.28003
-46.18 8.0500002 -659.16998
-45.57 8.0500002 -659.04999
-44.970001 8.0500002 -659.09003
-44.380001 8.0600004 -659.33002
-43.799999 8.0600004 -659.71002
-43.23 8.0699997 -660.26001
-42.650002 8.0699997 -660.58002
-42.07 8.0799999 -661.01001
-41.52 8.0900002 -661.98999
-33.380001 6.9099998 -566.51001
-32.830002 6.9000001 -566.04999
-32.290001 6.9000001 -565.64001
-31.75 6.8899999 -565.34003
-31.219999 6.8899999 -565.08002
-30.690001 6.8899999 -564.90002
-30.17 6.8899999 -564.82001
-29.66 6.8899999 -564.85999
-29.15 6.8899999 -565.02002
-28.629999 6.8899999 -565.01001
-28.110001 6.8899999 -564.90002
-27.59 6.8899999 -564.82001
-27.08 6.8899999 -565.06
-26.58 6.8899999 -565.47998
-26.08 6.9000001 -565.88
-25.559999 6.9000001 -565.65002
-25.01 6.8899999 -565.03003
-24.469999 6.8800001 -564.48999
-23.940001 6.8800001 -564.23999
-23.4 6.8699999 -563.72998
-22.870001 6.8699999 -563.31
-22.35 6.8699999 -563.25
-21.83 6.8699999 -563.21997
-21.32 6.8699999 -563.26001
-20.799999 6.8699999 -563.26001
-20.290001 6.8699999 -563.28003
-19.780001 6.8699999 -563.34998
-19.26 6.8699999 -563.42999
-18.75 6.8699999 -563.57001
-18.24 6.8699999 -563.78003
-17.73 6.8699999 -564.01001
-17.219999 6.8800001 -564.26001
-16.719999 6.8800001 -564.67999
-16.209999 6.8899999 -565
-15.71 6.8899999 -565.59003
-15.21 6.9000001 -566.09003
-14.71 6.9099998 -566.67999
-14.2 6.9099998 -567.13
-13.69 6.9200001 -567.60999
-13.18 6.9200001 -567.96997
-12.67 6.9299998 -568.57001
-12.17 6.9400001 -569.28003
-11.67 6.9499998 -570.42999
-11.18 6.9699998 -571.88
-10.7 7 -574.40002
-10.22 7.0300002 -576.78003
-9.75 7.0700002 -580.08002
-10.46 8.0299997 -657.07001
-9.8500004 8.0200005 -656.59003
-9.2399998 8.0100002 -656.03003
-8.6300001 8.0100002 -655.59998
-8.0200005 8 -655.20001
-7.4200001 8 -655.07001
-6.8200002 8 -655.03003
-6.2199998 8 -655.25
-5.6199999 8.0100002 -655.33002
-2.5799999 7.9200001 -648.20001
-1.98 7.9000001 -647.14001
-1.39 7.8899999 -645.88
-0.79000002 7.8800001 -645.13
-0.2 7.8699999 -644.16998
0.38999999 7.8499999 -643.01001
2.72 7.7800002 -636.78998
3.3 7.77 -636.04999
3.8800001 7.7600002 -635.75
4.46 7.7600002 -635.46002
5.04 7.7600002 -635.27002
5.6300001 7.7600002 -635.09998
6.21 7.7600002 -635.13
6.79 7.7600002 -635.15997
7.3699999 7.7600002 -635.10999
7.9499998 7.75 -635
8.54 7.7600002 -635.08002
9.1199999 7.7600002 -635.23999
9.71 7.7600002 -635.37
10.29 7.7600002 -635.28003
10.86 7.75 -634.81
11.43 7.7399998 -633.90997
12 7.7399998 -633.52002
12.58 7.73 -633.41998
13.16 7.73 -633.33002
13.74 7.73 -633.22998
14.32 7.73 -633.21997
14.9 7.73 -633.13
15.48 7.73 -633.15002
16.059999 7.73 -633.21997
16.639999 7.73 -633.26001
17.23 7.73 -633.27002
17.809999 7.73 -633.34998
18.389999 7.7399998 -633.51001
18.98 7.7399998 -633.57001
19.559999 7.7399998 -633.73999
20.15 7.7399998 -633.77002
20.73 7.7399998 -633.96002
21.32 7.7399998 -634.10999
21.9 7.7399998 -634.19
22.49 7.75 -634.33002
23.08 7.75 -634.40002
23.66 7.75 -634.59003
24.25 7.75 -634.71002
24.84 7.75 -634.85999
25.43 7.7600002 -635.09003
26.02 7.7600002 -635.17999
26.610001 7.7600002 -635.34998
27.190001 7.7600002 -635.40997
27.780001 7.7600002 -635.42999
28.370001 7.7600002 -635.57001
28.950001 7.7600002 -635.63
29.540001 7.7600002 -635.77002
30.139999 7.77 -636.04999
30.73 7.77 -636.27002
31.33 7.77 -636.48999
31.92 7.7800002 -636.75
32.529999 7.7800002 -637.10999
33.119999 7.7800002 -637.33002
33.720001 7.79 -637.56
34.32 7.79 -637.83002
34.919998 7.79 -638.15002
35.529999 7.8000002 -638.53998
36.150002 7.8000002 -639.06
36.75 7.8099999 -639.28998
37.349998 7.8099999 -639.62
37.970001 7.8200002 -640.09003
38.59 7.8200002 -640.60999
39.200001 7.8299999 -641.01001
39.830002 7.8400002 -641.67999
40.459999 7.8499999 -642.34003
41.099998 7.8600001 -643.17999
41.740002 7.8699999 -643.96002
42.400002 7.8800001 -644.96002
43.049999 7.8899999 -645.71997
43.709999 7.9000001 -646.81
44.41 7.9200001 -648.33002
45.139999 7.9400001 -650.26001
-152.94 7.1199999 -630.40997
-152.35001 7.1199999 -630.34003
-151.77 7.1199999 -630.34998
-151.17999 7.1199999 -630.29999
-150.57001 7.1199999 -630.15997
-149.99001 7.1199999 -630.16998
-149.41 7.1199999 -630.15997
-148.83 7.1199999 -630.13
-148.24001 7.1199999 -630.10999
-147.67 7.1199999 -630.12
-147.07001 7.1199999 -630.03003
-146.5 7.1199999 -630.07001
-145.94 7.1199999 -630.14001
-145.37 7.1199999 -630.20001
-144.78 7.1199999 -630.13
-144.23 7.1199999 -630.28998
-143.71001 7.1300001 -630.53003
-143.2 7.1300001 -630.84003
-142.7 7.1300001 -631.15997
-142.19 7.1399999 -631.47998
-141.67 7.1399999 -631.73999
-141.13 7.1399999 -631.92999
-140.53999 7.1399999 -631.88
-139.98 7.1399999 -631.96002
-139.36 7.1399999 -631.79999
-138.74001 7.1399999 -631.59003
-138.13 7.1399999 -631.48999
-137.52 7.1300001 -631.33002
-136.89 7.1300001 -631.09003
-136.25 7.1300001 -630.84003
-135.67999 7.1300001 -630.88
-135.12 7.1300001 -630.95001
-134.53 7.1300001 -630.90002
-133.94 7.1300001 -630.84998
-133.31 7.1300001 -630.59998
-132.69 7.1199999 -630.44
-132.08 7.1199999 -630.31
-131.50999 7.1199999 -630.34003
-130.92999 7.1199999 -630.32001
-130.37 7.1199999 -630.40997
-129.85001 7.1300001 -630.71002
-129.32001 7.1300001 -630.94
-128.91 7.1399999 -631.77002
-107.87 7.4499998 -658.78998
-107.28 7.4499998 -658.90002
-106.71 7.4499998 -659.09998
-78.410004 6.7800002 -600.87
-77.790001 6.7800002 -600.31
-77.129997 6.77 -599.5
-76.5 6.7600002 -598.91998
-75.879997 6.75 -598.31
-75.269997 6.75 -597.83002
-74.690002 6.75 -597.58002
-74.089996 6.7399998 -597.21997
-73.519997 6.7399998 -597.03003
-72.959999 6.7399998 -596.94
-72.379997 6.73 -596.65997
-66.919998 6.3200002 -560.63
-66.370003 6.3200002 -560.39001
-65.849998 6.3200002 -560.34998
-65.360001 6.3200002 -560.46997
-64.870003 6.3200002 -560.70001
-64.379997 6.3200002 -560.89001
-63.919998 6.3299999 -561.39001
-63.68 6.3600001 -563.78998
-63.52 6.3899999 -566.88
-62.98 6.3899999 -566.76001
-62.470001 6.3899999 -566.76001
-61.950001 6.3899999 -566.81
-61.459999 6.3899999 -567.04999
-60.98 6.4000001 -567.40002
-60.509998 6.4000001 -567.88
-48.639999 7.4499998 -659.62
-48 7.4499998 -659.21997
-47.360001 7.4400001 -658.77002
-46.740002 7.4400001 -658.56
-46.110001 7.4400001 -658.12
-45.5 7.4400001 -658.03998
-44.919998 7.4400001 -658.34998
-44.330002 7.4400001 -658.56
-43.740002 7.4400001 -658.79999
-43.16 7.4499998 -659.12
-42.599998 7.46 -659.82001
-42.029999 7.46 -660.40997
-41.48 7.4699998 -661.34998
-40.93 7.48 -662.22998
-33.369999 6.3899999 -566.39001
-32.82 6.3800001 -565.90002
-32.279999 6.3800001 -565.51001
-31.75 6.3699999 -565.27002
-31.219999 6.3699999 -565.02002
-30.690001 6.3699999 -564.84003
-30.17 6.3699999 -564.73999
-29.65 6.3699999 -564.81
-29.15 6.3699999 -564.96997
-28.639999 6.3699999 -565.26001
-28.15 6.3800001 -565.67999
-27.639999 6.3800001 -565.84003
-27.129999 6.3800001 -565.97998
-26.6 6.3800001 -565.90002
-26.059999 6.3699999 -565.39001
-25.52 6.3699999 -564.85999
-24.98 6.3600001 -564.46997
-24.459999 6.3600001 -564.26001
-23.940001 6.3600001 -564.15997
-23.4 6.3600001 -563.76001
-22.870001 6.3499999 -563.28998
-22.35 6.3499999 -563.20001
-21.83 6.3499999 -563.16998
-21.32 6.3499999 -563.19
-20.799999 6.3499999 -563.19
-20.290001 6.3499999 -563.19
-19.77 6.3499999 -563.23999
-19.26 6.3499999 -563.35999
-18.75 6.3499999 -563.51001
-18.24 6.3499999 -563.67999
-17.73 6.3600001 -563.97998
-17.219999 6.3600001 -564.25
-16.719999 6.3699999 -564.58002
-16.209999 6.3699999 -565.02002
-15.71 6.3800001 -565.54999
-15.21 6.3800001 -566.01001
-14.7 6.3899999 -566.54999
-14.2 6.3899999 -567.06
-13.69 6.4000001 -567.48999
-13.18 6.4000001 -567.96002
-12.67 6.4099998 -568.58002
-12.17 6.4200001 -569.25
-11.67 6.4299998 -570.57001
-11.18 6.4499998 -572.21002
-10.71 6.48 -574.76001
-10.23 6.5100002 -577.35999
-9.75 6.5500002 -580.48999
-10.45 7.4200001 -656.90997
-9.8400002 7.4099998 -656.21997
-9.2299995 7.4099998 -655.65997
-8.6199999 7.4000001 -655.21002
-8.0200005 7.4000001 -654.84998
-7.4099998 7.4000001 -654.62
-6.8099999 7.3899999 -654.38
-6.21 7.3899999 -654.07001
-5.6100001 7.3899999 -654.10999
-5 7.3899999 -653.70001
-3.1800001 7.3299999 -648.65002
-2.5799999 7.3099999 -647.44
-1.98 7.3000002 -646.21997
-1.39 7.29 -645.25
-0.79000002 7.2800002 -644.47998
-0.2 7.27 -643.59003
2.1400001 7.1900001 -636.89001
2.72 7.1900001 -636.32001
3.3 7.1799998 -635.90997
3.8800001 7.1799998 -635.71997
4.46 7.1799998 -635.57001
5.0500002 7.1799998 -635.5
5.6300001 7.1700001 -635.20001
6.21 7.1700001 -635.08002
6.79 7.1700001 -635.08002
7.3699999 7.1700001 -635.04999
7.96 7.1700001 -635.09003
8.54 7.1700001 -635.16998
9.1199999 7.1700001 -635.10999
9.6999998 7.1700001 -635.13
10.29 7.1700001 -635.28003
10.87 7.1799998 -635.32001
11.45 7.1700001 -635.13
12.02 7.1599998 -634.37
12.59 7.1599998 -633.77002
13.17 7.1599998 -633.65997
13.74 7.1500001 -633.34998
14.32 7.1500001 -633.23999
14.9 7.1500001 -633.22998
15.48 7.1500001 -633.23999
16.059999 7.1500001 -633.22998
16.639999 7.1500001 -633.22998
17.23 7.1500001 -633.27002
17.809999 7.1500001 -633.39001
18.389999 7.1500001 -633.5
18.98 7.1599998 -633.64001
19.559999 7.1599998 -633.73999
20.15 7.1599998 -633.78998
20.73 7.1599998 -633.95001
21.32 7.1599998 -634.09998
21.91 7.1599998 -634.25
22.49 7.1700001 -634.41998
23.08 7.1700001 -634.48999
23.67 7.1700001 -634.66998
24.25 7.1700001 -634.75
24.84 7.1700001 -634.97998
25.43 7.1700001 -635.08002
26.02 7.1700001 -635.27002
26.610001 7.1799998 -635.38
27.200001 7.1799998 -635.53003
27.790001 7.1799998 -635.65997
28.370001 7.1799998 -635.73999
28.959999 7.1799998 -635.88
29.549999 7.1799998 -636.03998
30.139999 7.1900001 -636.15997
30.74 7.1900001 -636.38
31.34 7.1900001 -636.71997
31.93 7.1900001 -636.91998
32.529999 7.1999998 -637.09998
33.119999 7.1999998 -637.35999
33.720001 7.1999998 -637.62
34.32 7.21 -637.90002
34.93 7.21 -638.22998
35.540001 7.21 -638.67999
36.150002 7.2199998 -639.09003
36.759998 7.2199998 -639.52002
37.360001 7.23 -639.84003
37.98 7.23 -640.33002
38.59 7.2399998 -640.69
39.209999 7.2399998 -641.27002
39.849998 7.25 -642.02002
40.48 7.2600002 -642.63
41.130001 7.27 -643.56
41.759998 7.2800002 -644.17999
42.419998 7.29 -645.28998
43.080002 7.3000002 -646.25
43.75 7.3099999 -647.41998
44.419998 7.3299999 -648.40002
45.130001 7.3499999 -650.08002
-152.89 6.54 -630.21002
-152.28999 6.54 -630.13
-151.71001 6.54 -630.08002
-151.12 6.54 -630.04999
-150.50999 6.54 -629.94
-149.94 6.54 -629.96997
-149.37 6.54 -629.98999
-148.75999 6.54 -629.88
-148.17999 6.54 -629.85999
-147.61 6.54 -629.88
-147.03 6.54 -629.87
-146.46001 6.54 -629.90997
-145.87 6.54 -629.84998
-145.3 6.54 -629.89001
-144.75 6.54 -630.02002
-144.2 6.54 -630.15997
-143.69 6.5500002 -630.44
-143.19 6.5500002 -630.77002
-142.66 6.5500002 -631
-142.17 6.5599999 -631.40997
-141.69 6.5599999 -631.82001
-141.14999 6.5599999 -632
-140.61 6.5599999 -632.19
-140.03999 6.5599999 -632.21002
-139.39999 6.5599999 -631.97998
-138.78999 6.5599999 -631.83002
-138.17999 6.5599999 -631.66998
-137.56 6.5599999 -631.53003
-136.94 6.5599999 -631.31
-136.33 6.5500002 -631.16998
-135.75 6.5500002 -631.21002
-135.14999 6.5500002 -631.10999
-134.52 6.5500002 -630.84998
-133.89999 6.5500002 -630.67999
-133.27 6.5500002 -630.45001
-132.63 6.54 -630.15997
-132.02 6.54 -630.01001
-131.42999 6.54 -629.95001
-130.85001 6.54 -629.96002
-130.28 6.54 -630
-129.74001 6.54 -630.17999
-129.25 6.5500002 -630.59003
-128.74001 6.5500002 -630.94
-128.27 6.5599999 -631.46997
-107.85 6.8400002 -658.65997
-107.3 6.8499999 -658.98999
-106.73 6.8499999 -659.21002
-78.440002 6.23 -601.13
-77.800003 6.23 -600.44
-77.169998 6.2199998 -599.79999
-76.519997 6.21 -599.07001
-75.889999 6.21 -598.44
-75.279999 6.1999998 -597.92999
-74.669998 6.1999998 -597.47998
-74.089996 6.1900001 -597.21997
-73.510002 6.1900001 -596.91998
-72.940002 6.1900001 -596.76001
-71.970001 6.1500001 -593.33002
-67.529999 5.8200002 -561.41998
-66.879997 5.8099999 -560.34998
-66.360001 5.8000002 -560.29999
-65.849998 5.8000002 -560.28003
-65.349998 5.8099999 -560.44
-64.860001 5.8099999 -560.63
-64.379997 5.8099999 -560.94
-63.939999 5.8200002 -561.52002
-63.959999 5.8699999 -566.21002
-63.490002 5.8699999 -566.63
-62.959999 5.8699999 -566.52002
-62.439999 5.8699999 -566.51001
-61.939999 5.8699999 -566.67999
-61.439999 5.8699999 -566.90997
-60.959999 5.8800001 -567.27002
-60.59 5.8899999 -568.65997
-60.669998 5.9499998 -574.22998
-48.57 6.8400002 -658.78003
-47.959999 6.8400002 -658.58002
-47.299999 6.8299999 -657.88
-46.669998 6.8299999 -657.46002
-46.049999 6.8200002 -657.27002
-45.439999 6.8200002 -657.21002
-44.84 6.8200002 -657.26001
-44.25 6.8299999 -657.39001
-43.68 6.8299999 -657.88
-43.110001 6.8400002 -658.47998
-42.540001 6.8400002 -659
-42 6.8499999 -659.90997
-41.48 6.8699999 -661.28003
-40.970001 6.8800001 -662.81
-33.360001 5.8699999 -566.31
-32.82 5.8600001 -565.85999
-32.27 5.8600001 -565.39001
-31.74 5.8499999 -565.12
-31.209999 5.8499999 -564.91998
-30.68 5.8499999 -564.72998
-30.16 5.8499999 -564.66998
-29.65 5.8499999 -564.77002
-29.15 5.8499999 -565.06
-28.65 5.8600001 -565.48999
-28.17 5.8600001 -566.12
-27.66 5.8699999 -566.22998
-27.129999 5.8600001 -566.01001
-26.58 5.8600001 -565.51001
-26.030001 5.8499999 -564.79999
-25.5 5.8499999 -564.40002
-24.969999 5.8400002 -564.21997
-24.450001 5.8400002 -564.14001
-23.940001 5.8400002 -564.13
-23.4 5.8400002 -563.71997
-22.870001 5.8299999 -563.21997
-22.35 5.8299999 -563.14001
-21.83 5.8299999 -563.08002
-21.309999 5.8299999 -563.08002
-20.799999 5.8299999 -563.09003
-20.280001 5.8299999 -563.09003
-19.77 5.8299999 -563.15997
-19.25 5.8299999 -563.17999
-18.74 5.8400002 -563.35999
-18.24 5.8400002 -563.58002
-17.73 5.8400002 -563.82001
-17.219999 5.8400002 -564.12
-16.719999 5.8499999 -564.51001
-16.209999 5.8499999 -564.95001
-15.71 5.8600001 -565.41998
-15.2 5.8600001 -565.90002
-14.7 5.8699999 -566.48999
-14.19 5.8699999 -566.98999
-13.69 5.8800001 -567.46997
-13.18 5.8800001 -567.89001
-12.67 5.8899999 -568.53998
-12.17 5.9000001 -569.40002
-11.67 5.9099998 -570.58002
-11.19 5.9299998 -572.51001
-10.72 5.96 -575.33002
-10.24 5.9899998 -577.85999
-9.7600002 6.02 -581.13
-10.45 6.8200002 -656.53003
-9.8400002 6.8099999 -656.03998
-9.2200003 6.8000002 -655.28998
-8.6199999 6.8000002 -654.73999
-8.0100002 6.79 -654.53998
-7.4099998 6.79 -654.21997
-6.8000002 6.79 -653.82001
-6.1999998 6.7800002 -653.32001
-5.5999999 6.7800002 -653.37
-4.9899998 6.77 -652.09003
-3.77 6.73 -648.77002
-3.1700001 6.7199998 -647.66998
-2.5799999 6.71 -646.69
-1.98 6.6999998 -645.65002
-1.39 6.6900001 -644.69
-0.79000002 6.6799998 -643.95001
2.1300001 6.5999999 -636.29999
2.72 6.5999999 -635.97998
3.3 6.5999999 -635.73999
3.8800001 6.5999999 -635.59003
4.46 6.5900002 -635.46997
5.0500002 6.5900002 -635.46997
5.6300001 6.5900002 -635.21997
6.21 6.5900002 -635.10999
6.79 6.5900002 -635.02002
7.3699999 6.5900002 -634.96002
7.96 6.5900002 -635.08002
8.54 6.5900002 -635.17999
9.1199999 6.5900002 -635.15002
9.6999998 6.5900002 -635.09003
10.28 6.5900002 -634.96997
10.87 6.5900002 -635.12
11.45 6.5900002 -635.15997
12.03 6.5900002 -635.16998
12.6 6.5799999 -634.48999
13.17 6.5799999 -633.89001
13.75 6.5799999 -633.66998
14.33 6.5700002 -633.58002
14.91 6.5700002 -633.41998
15.49 6.5700002 -633.40002
16.059999 6.5700002 -633.29999
16.65 6.5700002 -633.33002
17.23 6.5700002 -633.35999
17.809999 6.5700002 -633.42999
18.389999 6.5700002 -633.5
18.98 6.5700002 -633.52002
19.559999 6.5799999 -633.78003
20.15 6.5799999 -633.81
20.73 6.5799999 -633.98999
21.32 6.5799999 -634.09998
21.91 6.5799999 -634.26001
22.49 6.5799999 -634.38
23.08 6.5799999 -634.59003
23.67 6.5900002 -634.70001
24.26 6.5900002 -634.84998
24.85 6.5900002 -635.03998
25.440001 6.5900002 -635.19
26.02 6.5900002 -635.33002
26.610001 6.5900002 -635.40997
27.200001 6.5900002 -635.53003
27.790001 6.5999999 -635.67999
28.379999 6.5999999 -635.81
28.959999 6.5999999 -635.90997
29.559999 6.5999999 -636.09998
30.139999 6.5999999 -636.19
30.74 6.5999999 -636.40002
31.33 6.6100001 -636.59998
31.93 6.6100001 -636.84003
32.529999 6.6100001 -637.13
33.130001 6.6100001 -637.38
33.73 6.6199999 -637.67999
34.330002 6.6199999 -638.02002
34.939999 6.6300001 -638.38
35.540001 6.6300001 -638.69
36.150002 6.6300001 -639.19
36.759998 6.6399999 -639.48999
37.369999 6.6399999 -639.92999
37.990002 6.6500001 -640.46002
38.610001 6.6500001 -640.94
39.23 6.6599998 -641.53998
39.869999 6.6700001 -642.28003
40.509998 6.6700001 -643.09003
41.150002 6.6799998 -643.84003
41.810001 6.6999998 -645.01001
42.470001 6.71 -646.01001
43.110001 6.71 -646.65997
43.759998 6.7199998 -647.5
44.41 6.73 -648.25
-152.83 5.96 -629.96002
-152.27 5.96 -630.03998
-151.67 5.96 -629.94
-151.07001 5.96 -629.84998
-150.48 5.96 -629.78003
-149.88 5.96 -629.71997
-149.3 5.96 -629.69
-148.75 5.96 -629.79999
-148.16 5.96 -629.76001
-147.53999 5.96 -629.59998
-146.99001 5.96 -629.70001
-146.41 5.96 -629.71997
-145.84 5.96 -629.71997
-145.27 5.96 -629.78998
-144.71001 5.96 -629.85999
-144.17999 5.96 -630.04999
-143.69 5.9699998 -630.44
-143.16 5.9699998 -630.65997
-142.67 5.9699998 -631.03998
-142.17999 5.98 -631.45001
-141.72 5.98 -631.95001
-141.22 5.9899998 -632.33002
-140.7 5.9899998 -632.56
-140.11 5.9899998 -632.56
-139.5 5.9899998 -632.40997
-138.88 5.98 -632.23999
-138.25 5.98 -632
-137.64 5.98 -631.85999
-137.00999 5.98 -631.63
-136.39999 5.98 -631.48999
-135.81 5.98 -631.46002
-135.17999 5.9699998 -631.21997
-134.50999 5.9699998 -630.84003
-133.89 5.9699998 -630.64001
-133.25999 5.9699998 -630.40002
-132.62 5.96 -630.12
-131.98 5.96 -629.79999
-131.37 5.96 -629.69
-130.8 5.96 -629.67999
-130.22 5.96 -629.67999
-129.66 5.96 -629.78003
-129.12 5.96 -629.96002
-128.63 5.9699998 -630.40997
-128.13 5.9699998 -630.78998
-107.83 6.2399998 -658.56
-107.28 6.2399998 -658.90002
-106.73 6.2399998 -659.21002
-77.82 5.6799998 -600.57001
-77.209999 5.6700001 -600.12
-76.57 5.6700001 -599.45001
-75.93 5.6599998 -598.71997
-75.300003 5.6500001 -598.13
-74.68 5.6500001 -597.57001
-74.089996 5.6500001 -597.19
-73.5 5.6399999 -596.85999
-72.919998 5.6399999 -596.60999
-68.889999 5.3699999 -568.31
-67.410004 5.29 -560.47998
-66.870003 5.29 -560.28003
-66.360001 5.29 -560.23999
-65.849998 5.29 -560.34003
-65.360001 5.29 -560.47998
-64.870003 5.3000002 -560.73999
-64.410004 5.3000002 -561.14001
-64.209999 5.3299999 -563.91998
-64.010002 5.3499999 -566.65997
-63.459999 5.3499999 -566.38
-62.93 5.3499999 -566.27002
-62.419998 5.3499999 -566.34003
-61.91 5.3499999 -566.46997
-61.43 5.3499999 -566.79999
-60.950001 5.3600001 -567.15997
-60.959999 5.4000001 -572.06
-60.619999 5.4200001 -573.79999
-48.529999 6.23 -658.15997
-47.889999 6.2199998 -657.65002
-47.25 6.2199998 -657.14001
-46.630001 6.2199998 -656.90997
-46.009998 6.2199998 -656.69
-45.389999 6.21 -656.53003
-44.790001 6.21 -656.57001
-44.209999 6.2199998 -656.82001
-43.630001 6.2199998 -657.16998
-43.060001 6.23 -657.70001
-42.52 6.23 -658.71002
-41.98 6.2399998 -659.64001
-41.490002 6.2600002 -661.42999
-40.93 6.27 -662.16998
-33.360001 5.3499999 -566.21997
-32.810001 5.3400002 -565.76001
-32.27 5.3400002 -565.38
-31.74 5.3400002 -565.09998
-31.209999 5.3299999 -564.82001
-30.68 5.3299999 -564.71002
-30.16 5.3299999 -564.65002
-29.65 5.3299999 -564.75
-29.15 5.3400002 -565.04999
-28.66 5.3400002 -565.54999
-28.16 5.3400002 -565.91998
-27.639999 5.3400002 -565.90002
-27.110001 5.3400002 -565.76001
-26.58 5.3400002 -565.33002
-26.030001 5.3299999 -564.73999
-25.5 5.3299999 -564.39001
-24.969999 5.3299999 -564.15002
-24.450001 5.3299999 -564.08002
-23.93 5.3299999 -564.09998
-23.4 5.3200002 -563.71997
-22.860001 5.3200002 -563.21002
-22.34 5.3200002 -563.10999
-21.83 5.3200002 -563.09998
-21.309999 5.3200002 -563.04999
-20.790001 5.3200002 -563.01001
-20.280001 5.3200002 -563.02002
-19.77 5.3200002 -563.14001
-19.25 5.3200002 -563.19
-18.74 5.3200002 -563.32001
-18.23 5.3200002 -563.54999
-17.73 5.3200002 -563.76001
-17.219999 5.3299999 -564.02002
-16.709999 5.3299999 -564.40997
-16.209999 5.3299999 -564.78998
-15.71 5.3400002 -565.34998
-15.2 5.3400002 -565.77002
-14.7 5.3499999 -566.40002
-14.19 5.3499999 -566.84003
-13.68 5.3600001 -567.34998
-13.18 5.3600001 -567.84998
-12.67 5.3699999 -568.56
-12.17 5.3800001 -569.46002
-11.68 5.3899999 -570.81
-11.2 5.4099998 -572.83002
-10.72 5.4400001 -575.40997
-10.24 5.46 -578.26001
-10.44 6.21 -656.15002
-9.8299999 6.1999998 -655.21002
-9.21 6.1900001 -654.08002
-8.6000004 6.1900001 -653.75
-8 6.1900001 -653.75
-7.4000001 6.1799998 -653.53998
-6.8000002 6.1799998 -653.07001
-6.1900001 6.1799998 -652.78003
-5.5900002 6.1799998 -652.60999
-4.98 6.1599998 -651.06
-4.3699999 6.1500001 -649.42999
-3.77 6.1300001 -648.01001
-3.1700001 6.1199999 -647.15997
-2.5699999 6.1100001 -645.90997
-1.98 6.0999999 -645.08002
-1.38 6.0900002 -644.14001
-0.79000002 6.0900002 -643.39001
1.55 6.02 -636.20001
2.1300001 6.0100002 -635.77002
2.72 6.0100002 -635.58002
3.3 6.0100002 -635.48999
3.8800001 6.0100002 -635.44
4.46 6.0100002 -635.37
5.0500002 6.0100002 -635.31
5.6300001 6.0100002 -635.32001
6.21 6.0100002 -635.20001
6.79 6.0100002 -635.08002
7.3699999 6.0100002 -635.03003
7.9499998 6.0100002 -635.03003
8.54 6.0100002 -635.03998
9.1199999 6.0100002 -635.08002
9.6999998 6.0100002 -635.14001
10.29 6.0100002 -635.13
10.87 6.0100002 -635.09998
11.45 6.0100002 -635.09998
12.03 6.0100002 -635.12
12.62 6.0100002 -635.15997
13.19 6 -634.73999
13.76 6 -634.15002
14.34 6 -633.95001
14.91 6 -633.78003
15.49 5.9899998 -633.60999
16.07 5.9899998 -633.54999
16.65 5.9899998 -633.57001
17.23 5.9899998 -633.56
17.809999 5.9899998 -633.54999
18.4 5.9899998 -633.60999
18.98 5.9899998 -633.71997
19.57 6 -633.78998
20.15 6 -633.96002
20.74 6 -634.17999
21.32 6 -634.23999
21.91 6 -634.39001
22.5 6 -634.51001
23.08 6 -634.65002
23.67 6 -634.77002
24.26 6.0100002 -635.02002
24.85 6.0100002 -635.15002
25.440001 6.0100002 -635.26001
26.030001 6.0100002 -635.40002
26.620001 6.0100002 -635.53998
27.209999 6.0100002 -635.70001
27.790001 6.0100002 -635.84003
28.379999 6.02 -635.88
28.969999 6.02 -636.08002
29.559999 6.02 -636.19
30.15 6.02 -636.33002
30.75 6.02 -636.57001
31.34 6.02 -636.79999
31.940001 6.0300002 -637.04999
32.540001 6.0300002 -637.29999
33.130001 6.0300002 -637.54999
33.73 6.0300002 -637.82001
34.34 6.04 -638.23999
34.950001 6.04 -638.57001
35.549999 6.04 -638.90002
36.16 6.0500002 -639.27002
36.77 6.0500002 -639.73999
37.389999 6.0599999 -640.22998
38 6.0599999 -640.65002
38.630001 6.0700002 -641.27002
39.259998 6.0700002 -642.03998
39.91 6.0799999 -642.96002
40.549999 6.0900002 -643.82001
41.209999 6.0999999 -644.81
41.849998 6.1100001 -645.60999
42.5 6.1199999 -646.41998
43.130001 6.1199999 -647.01001
43.759998 6.1300001 -647.57001
44.400002 6.1300001 -648.17999
45.060001 6.1399999 -649.03003
-152.73 5.3800001 -629.53998
-152.2 5.3800001 -629.76001
-151.60001 5.3800001 -629.63
-151.03 5.3800001 -629.70001
-150.44 5.3800001 -629.65002
-149.83 5.3800001 -629.48999
-149.25 5.3800001 -629.47998
-148.64999 5.3800001 -629.40002
-148.09 5.3800001 -629.46002
-147.5 5.3800001 -629.44
-146.92 5.3800001 -629.40002
-146.35001 5.3800001 -629.46997
-145.78 5.3800001 -629.46002
-145.23 5.3800001 -629.59998
-144.66 5.3800001 -629.63
-144.16 5.3800001 -629.96997
-143.66 5.3899999 -630.29999
-143.16 5.3899999 -630.63
-142.64999 5.3899999 -630.96997
-142.17999 5.4000001 -631.44
-141.74001 5.4000001 -632.04999
-141.25999 5.4099998 -632.48999
-140.78999 5.4099998 -632.96997
-140.23 5.4099998 -633.08002
-139.62 5.4099998 -632.96002
-138.98 5.4099998 -632.69
-138.3 5.4000001 -632.25
-137.67999 5.4000001 -632.06
-137.05 5.4000001 -631.83002
-136.48 5.4000001 -631.90002
-135.89999 5.4000001 -631.88
-135.24001 5.4000001 -631.48999
-134.53 5.3899999 -630.90002
-133.87 5.3899999 -630.51001
-133.2 5.3899999 -630.13
-132.57001 5.3800001 -629.89001
-131.95 5.3800001 -629.67999
-131.33 5.3800001 -629.46002
-130.71001 5.3800001 -629.28998
-130.14 5.3800001 -629.33002
-129.57001 5.3800001 -629.34998
-129.00999 5.3800001 -629.44
-128.48 5.3800001 -629.67999
-128.03 5.3899999 -630.31
-127.55 5.3899999 -630.77002
-107.85 5.6300001 -658.64001
-107.28 5.6300001 -658.87
-106.73 5.6399999 -659.20001
-77.860001 5.1300001 -600.87
-77.25 5.1300001 -600.46002
-76.629997 5.1199999 -599.88
-75.989998 5.1199999 -599.15997
-75.339996 5.1100001 -598.40997
-74.720001 5.0999999 -597.84003
-74.120003 5.0999999 -597.40002
-73.5 5.0999999 -596.84003
-72.089996 5.04 -589.91998
-67.93 4.7800002 -560.53003
-67.389999 4.7800002 -560.33002
-66.870003 4.7800002 -560.27002
-66.349998 4.7800002 -560.22998
-65.860001 4.7800002 -560.35999
-65.370003 4.7800002 -560.56
-64.889999 4.7800002 -560.87
-64.550003 4.8000002 -562.38
-64.540001 4.8299999 -566.76001
-63.98 4.8299999 -566.40002
-63.439999 4.8299999 -566.15002
-62.91 4.8299999 -566.08002
-62.400002 4.8299999 -566.15997
-61.900002 4.8299999 -566.34998
-61.419998 4.8299999 -566.65002
-60.950001 4.8400002 -567.15002
-61.07 4.8899999 -573.08002
-60.599998 4.8899999 -573.59003
-62.360001 5.0799999 -595.04999
-48.470001 5.6199999 -657.34003
-47.830002 5.6100001 -656.92999
-47.200001 5.6100001 -656.5
-46.57 5.6100001 -656.14001
-45.950001 5.6100001 -655.87
-45.34 5.6100001 -655.81
-44.740002 5.5999999 -655.75
-44.150002 5.6100001 -656
-43.59 5.6100001 -656.59003
-43.029999 5.6199999 -657.22998
-42.5 5.6300001 -658.41998
-41.98 5.6399999 -659.72998
-41.439999 5.6500001 -660.63
-40.880001 5.6500001 -661.40002
-33.360001 4.8299999 -566.16998
-32.810001 4.8200002 -565.65997
-32.27 4.8200002 -565.28998
-31.73 4.8200002 -564.97998
-31.200001 4.8200002 -564.77002
-30.68 4.8099999 -564.63
-30.16 4.8099999 -564.58002
-29.65 4.8200002 -564.70001
-29.139999 4.8200002 -564.94
-28.620001 4.8200002 -564.85999
-28.120001 4.8200002 -565.10999
-27.6 4.8200002 -565.17999
-27.1 4.8200002 -565.46002
-26.58 4.8200002 -565.46997
-26.059999 4.8200002 -565.27002
-25.530001 4.8200002 -565.01001
-24.99 4.8200002 -564.65997
-24.459999 4.8099999 -564.33002
-23.93 4.8099999 -564.10999
-23.4 4.8099999 -563.73999
-22.860001 4.8000002 -563.16998
-22.34 4.8000002 -563.07001
-21.83 4.8000002 -563.03003
-21.309999 4.8000002 -562.96002
-20.790001 4.8000002 -562.96002
-20.280001 4.8000002 -563.03998
-19.76 4.8000002 -562.98999
-19.25 4.8000002 -563.08002
-18.74 4.8000002 -563.26001
-18.23 4.8000002 -563.41998
-17.719999 4.8099999 -563.71002
-17.219999 4.8099999 -563.95001
-16.709999 4.8099999 -564.31
-16.209999 4.8200002 -564.75
-15.7 4.8200002 -565.26001
-15.2 4.8200002 -565.69
-14.7 4.8299999 -566.29999
-14.19 4.8299999 -566.75
-13.68 4.8400002 -567.28998
-13.17 4.8400002 -567.71997
-12.67 4.8499999 -568.60999
-12.17 4.8600001 -569.59998
-11.69 4.8699999 -571.27002
-11.2 4.8899999 -573.28998
-10.73 4.9099998 -575.73999
-10.25 4.9400001 -578.84998
-7.3899999 5.5799999 -652.52002
-6.79 5.5700002 -652.21002
-6.1900001 5.5700002 -652.03998
-5.5900002 5.5700002 -651.76001
-4.98 5.5500002 -650.07001
-4.3699999 5.54 -648.66998
-3.77 5.5300002 -647.34998
-3.1700001 5.52 -646.46002
-2.5699999 5.5100002 -645.38
-1.98 5.5100002 -644.56
-1.38 5.5 -643.51001
0.97000003 5.4299998 -635.84998
1.55 5.4299998 -635.51001
2.1300001 5.4299998 -635.29999
2.71 5.4299998 -635.19
3.3 5.4299998 -635.17999
3.8800001 5.4299998 -635.14001
4.46 5.4299998 -635.14001
5.04 5.4299998 -635.09998
5.6300001 5.4299998 -635.15997
6.21 5.4299998 -635.21002
6.79 5.4299998 -635.16998
7.3699999 5.4200001 -635.07001
7.9499998 5.4200001 -634.87
8.54 5.4200001 -634.92999
9.1199999 5.4200001 -634.98999
9.6999998 5.4200001 -635.04999
10.29 5.4299998 -635.10999
10.87 5.4299998 -635.15002
11.45 5.4299998 -635.14001
12.03 5.4200001 -634.96997
12.62 5.4299998 -635.09003
13.2 5.4200001 -635.03998
13.77 5.4200001 -634.67999
14.35 5.4200001 -634.40997
14.92 5.4200001 -634.12
15.5 5.4200001 -634
16.08 5.4099998 -633.84998
16.66 5.4099998 -633.72998
17.24 5.4099998 -633.71002
17.82 5.4099998 -633.72998
18.4 5.4099998 -633.78003
18.99 5.4099998 -633.84998
19.57 5.4200001 -633.96002
20.16 5.4200001 -634.08002
20.74 5.4200001 -634.25
21.33 5.4200001 -634.32001
21.91 5.4200001 -634.40997
22.5 5.4200001 -634.63
23.09 5.4200001 -634.65997
23.67 5.4200001 -634.84998
24.26 5.4200001 -635.03003
24.85 5.4299998 -635.15997
25.440001 5.4299998 -635.40997
26.030001 5.4299998 -635.53998
26.620001 5.4299998 -635.67999
27.209999 5.4299998 -635.71997
27.799999 5.4299998 -635.91998
28.389999 5.4299998 -636.06
28.969999 5.4299998 -636.13
29.57 5.4400001 -636.28003
30.16 5.4400001 -636.45001
30.75 5.4400001 -636.62
31.35 5.4400001 -636.92999
31.940001 5.4400001 -637.03003
32.540001 5.4400001 -637.34003
33.139999 5.4499998 -637.64001
33.740002 5.4499998 -637.95001
34.349998 5.4499998 -638.37
34.950001 5.46 -638.66998
35.560001 5.46 -639.02002
36.16 5.46 -639.34003
36.779999 5.4699998 -639.88
37.400002 5.4699998 -640.46002
38.02 5.48 -641.03998
38.66 5.48 -641.84003
39.290001 5.4899998 -642.48999
39.93 5.5 -643.28998
40.560001 5.5 -643.90997
41.200001 5.5100002 -644.60999
41.830002 5.5100002 -645.29999
42.490002 5.52 -646.27002
43.130001 5.5300002 -646.92999
43.77 5.5300002 -647.62
44.400002 5.54 -648.15002
45.049999 5.5500002 -648.98999
-152.67999 4.8000002 -629.34998
-152.16 4.8000002 -629.56
-151.57001 4.8000002 -629.53003
-150.97 4.8000002 -629.41998
-150.37 4.8000002 -629.32001
-149.78 4.8000002 -629.28003
-149.19 4.8000002 -629.23999
-148.59 4.8000002 -629.15997
-148.03999 4.8000002 -629.26001
-147.46001 4.8000002 -629.23999
-146.89 4.8000002 -629.27002
-146.31 4.8000002 -629.27002
-145.75 4.8000002 -629.35999
-145.19 4.8000002 -629.45001
-144.67999 4.8000002 -629.73999
-144.14 4.8099999 -629.90002
-143.66 4.8099999 -630.32001
-143.14999 4.8099999 -630.59998
-142.66 4.8099999 -631.01001
-142.17999 4.8200002 -631.41998
-141.75999 4.8200002 -632.10999
-141.34 4.8299999 -632.82001
-140.89999 4.8299999 -633.45001
-140.39999 4.8400002 -633.82001
-139.81 4.8400002 -633.78003
-139.14999 4.8299999 -633.46002
-138.44 4.8299999 -632.88
-137.81 4.8299999 -632.65002
-137.14 4.8200002 -632.26001
-136.56 4.8200002 -632.23999
-136 4.8200002 -632.34003
-135.36 4.8200002 -632.03998
-134.58 4.8200002 -631.14001
-133.88 4.8099999 -630.59998
-133.21001 4.8099999 -630.14001
-132.53999 4.8000002 -629.73999
-131.89999 4.8000002 -629.42999
-131.25999 4.8000002 -629.15997
-130.64999 4.8000002 -629
-130.06 4.8000002 -628.95001
-129.47 4.8000002 -628.87
-128.92999 4.8000002 -629.03998
-128.39999 4.8000002 -629.31
-127.86 4.8000002 -629.46002
-127.45 4.8099999 -630.31
-127.01 4.8099999 -630.97998
-107.84 5.0300002 -658.60999
-107.28 5.0300002 -658.85999
-106.72 5.0300002 -659.16998
-77.32 4.5799999 -600.96002
-76.699997 4.5799999 -600.40997
-76.050003 4.5700002 -599.64001
-75.410004 4.5599999 -598.96997
-74.760002 4.5599999 -598.13
-74.150002 4.5500002 -597.66998
-73.470001 4.5500002 -596.59998
-69.07 4.3099999 -565.53998
-67.919998 4.27 -560.40997
-67.389999 4.27 -560.34003
-66.879997 4.27 -560.33002
-66.370003 4.27 -560.35999
-65.860001 4.27 -560.42999
-65.379997 4.27 -560.65997
-65.489998 4.3099999 -565.96997
-64.5 4.3099999 -566.41998
-63.950001 4.3099999 -566.15002
-63.41 4.3099999 -565.96997
-62.889999 4.3099999 -565.90997
-62.380001 4.3099999 -566.02002
-61.889999 4.3099999 -566.21002
-61.41 4.3099999 -566.59998
-61.02 4.3200002 -567.78998
-61.060001 4.3600001 -572.96002
-60.57 4.3699999 -573.29999
-62.259998 4.5300002 -594.12
-61.75 4.5300002 -594.44
-61.209999 4.5300002 -594.53998
-48.419998 5.0100002 -656.66998
-47.779999 5.0100002 -656.15997
-47.139999 5 -655.65997
-46.52 5 -655.41998
-45.91 5 -655.33002
-45.310001 5 -655.28998
-44.700001 5 -655.26001
-44.110001 5 -655.39001
-43.549999 5 -655.92999
-43.029999 5.0100002 -657.29999
-42.509998 5.02 -658.44
-41.939999 5.0300002 -659.09998
-41.380001 5.0300002 -659.81
-40.810001 5.04 -660.34003
-33.349998 4.3099999 -566.09998
-32.799999 4.3099999 -565.59003
-32.259998 4.3000002 -565.21997
-31.73 4.3000002 -564.96002
-31.200001 4.3000002 -564.66998
-30.68 4.3000002 -564.57001
-30.16 4.3000002 -564.52002
-29.639999 4.3000002 -564.59003
-29.129999 4.3000002 -564.72998
-28.610001 4.3000002 -564.54999
-28.07 4.29 -564.09998
-27.540001 4.29 -563.85999
-27.040001 4.29 -564.16998
-26.559999 4.3000002 -564.90002
-26.059999 4.3000002 -565.38
-25.549999 4.3000002 -565.5
-25.030001 4.3000002 -565.46002
-24.5 4.3000002 -565.15002
-23.950001 4.3000002 -564.44
-23.41 4.29 -563.85999
-22.860001 4.29 -563.14001
-22.34 4.29 -563.07001
-21.82 4.29 -562.98999
-21.309999 4.2800002 -562.95001
-20.790001 4.2800002 -562.95001
-20.280001 4.29 -562.97998
-19.76 4.2800002 -562.96997
-19.25 4.29 -563.08002
-18.74 4.29 -563.17999
-18.23 4.29 -563.38
-17.719999 4.29 -563.66998
-17.209999 4.29 -563.90002
-16.709999 4.29 -564.23999
-16.200001 4.3000002 -564.60999
-15.7 4.3000002 -565.15002
-15.19 4.3000002 -565.54999
-14.69 4.3099999 -566.16998
-14.19 4.3099999 -566.65002
-13.68 4.3200002 -567.14001
-13.17 4.3200002 -567.72998
-12.67 4.3299999 -568.63
-12.18 4.3400002 -569.71002
-11.69 4.3499999 -571.47998
-11.21 4.3699999 -573.71002
-10.73 4.3899999 -575.96997
-10.26 4.4099998 -579.35999
-8.5699997 4.9699998 -651.53998
-7.98 4.9699998 -651.69
-7.3800001 4.9699998 -651.75
-6.7800002 4.9699998 -651.59998
-6.1799998 4.9699998 -651.46002
-5.5799999 4.96 -650.90002
-4.9699998 4.9499998 -649.33002
-4.3600001 4.9400001 -647.96002
-3.76 4.9299998 -646.88
-3.1700001 4.9299998 -645.98999
-2.5699999 4.9200001 -645.03003
-1.98 4.9099998 -644.26001
-1.38 4.9099998 -643.32001
0.38 4.8499999 -635.71002
0.97000003 4.8400002 -635.03003
1.55 4.8400002 -634.83002
2.1300001 4.8400002 -634.75
2.71 4.8400002 -634.71002
3.29 4.8400002 -634.73999
3.8800001 4.8400002 -634.81
4.46 4.8400002 -634.83002
5.04 4.8400002 -634.87
5.6199999 4.8400002 -634.96002
6.21 4.8400002 -635.10999
6.79 4.8400002 -635.14001
7.3699999 4.8400002 -635.16998
7.96 4.8400002 -635.03998
8.54 4.8400002 -634.96002
9.1199999 4.8400002 -634.90997
9.6999998 4.8400002 -634.98999
10.28 4.8400002 -635.03003
10.87 4.8400002 -635.06
11.45 4.8400002 -635.10999
12.03 4.8400002 -635.13
12.61 4.8400002 -635.01001
13.2 4.8400002 -635.02002
13.78 4.8400002 -634.87
14.35 4.8400002 -634.60999
14.93 4.8400002 -634.54999
15.51 4.8400002 -634.40997
16.09 4.8400002 -634.17999
16.67 4.8299999 -634.04999
17.25 4.8299999 -634.03998
17.83 4.8299999 -634.06
18.41 4.8400002 -634.10999
18.99 4.8400002 -634.13
19.58 4.8400002 -634.22998
20.17 4.8400002 -634.38
20.75 4.8400002 -634.35999
21.33 4.8400002 -634.5
21.92 4.8400002 -634.66998
22.51 4.8400002 -634.75
23.09 4.8400002 -634.87
23.68 4.8400002 -634.97998
24.27 4.8400002 -635.21997
24.860001 4.8400002 -635.33002
25.440001 4.8499999 -635.39001
26.040001 4.8499999 -635.66998
26.620001 4.8499999 -635.76001
27.209999 4.8499999 -635.84003
27.799999 4.8499999 -635.94
28.389999 4.8499999 -636.19
28.98 4.8499999 -636.33002
29.58 4.8499999 -636.5
30.17 4.8499999 -636.64001
30.76 4.8600001 -636.84003
31.35 4.8600001 -636.96002
31.950001 4.8600001 -637.21997
32.540001 4.8600001 -637.46002
33.139999 4.8600001 -637.70001
33.75 4.8699999 -638.09003
34.349998 4.8699999 -638.44
34.959999 4.8699999 -638.78998
35.57 4.8699999 -639.17999
36.18 4.8800001 -639.71997
36.799999 4.8800001 -640.21997
37.419998 4.8899999 -640.78998
38.040001 4.8899999 -641.23999
38.66 4.8899999 -641.79999
39.27 4.9000001 -642.23999
39.900002 4.9000001 -642.87
40.52 4.9099998 -643.29999
41.16 4.9099998 -644.04999
41.790001 4.9200001 -644.71997
42.439999 4.9200001 -645.56
43.09 4.9299998 -646.34998
43.75 4.9400001 -647.29999
44.380001 4.9400001 -647.94
45.029999 4.9499998 -648.71997
45.720001 4.96 -650.03998
-152.07001 4.2199998 -629.19
-151.49001 4.2199998 -629.20001
-150.88 4.2199998 -629.08002
-150.3 4.2199998 -629.03998
-149.72 4.2199998 -629.06
-149.14 4.2199998 -629.02002
-148.55 4.2199998 -628.98999
-147.96001 4.2199998 -628.94
-147.39 4.2199998 -628.97998
-146.81 4.2199998 -628.95001
-146.25 4.2199998 -629.03998
-145.7 4.2199998 -629.13
-145.16 4.2199998 -629.28998
-144.66 4.23 -629.62
-144.17999 4.23 -630.08002
-143.66 4.23 -630.28998
-143.17999 4.23 -630.72998
-142.67 4.2399998 -631.06
-142.21001 4.2399998 -631.58002
-141.81 4.2399998 -632.35999
-141.39999 4.25 -633.09003
-140.96001 4.25 -633.72998
-140.42 4.2600002 -633.90997
-139.87 4.2600002 -634.06
-139.27 4.2600002 -634
-138.62 4.25 -633.70001
-138 4.25 -633.48999
-137.28 4.25 -632.89001
-136.69 4.25 -632.81
-136.13 4.25 -632.94
-135.53 4.25 -632.84998
-134.66 4.2399998 -631.53003
-133.88 4.23 -630.59003
-133.17999 4.23 -630.03998
-132.5 4.23 -629.53003
-131.88 4.2199998 -629.33002
-131.21001 4.2199998 -628.91998
-130.57001 4.2199998 -628.62
-129.97 4.2199998 -628.47998
-129.39 4.2199998 -628.51001
-128.82001 4.2199998 -628.53998
-128.31 4.2199998 -628.84998
-127.77 4.2199998 -629.04999
-127.3 4.23 -629.54999
-126.88 4.23 -630.32001
-107.84 4.4200001 -658.59998
-107.27 4.4200001 -658.78998
