# .PCD v0.7 - Point Cloud Data file format
VERSION 0.7
FIELDS x y z
SIZE 4 4 4
TYPE F F F
COUNT 1 1 1
WIDTH 1675
HEIGHT 1
VIEWPOINT 0 0 0 1 0 0 0
POINTS 1675
DATA ascii
-50.759998 49.110001 -593.28998
-50.23 49.119999 -593.46002
-49.700001 49.139999 -593.59998
-49.16 49.139999 -593.65002
-48.630001 49.16 -593.85999
-48.099998 49.169998 -594.03998
-47.57 49.189999 -594.21002
-47.029999 49.200001 -594.33002
-46.5 49.209999 -594.44
-45.959999 49.209999 -594.5
-45.43 49.23 -594.69
-44.880001 49.23 -594.70001
-44.34 49.240002 -594.79999
-43.799999 49.240002 -594.82001
-43.259998 49.240002 -594.90997
-42.73 49.259998 -595.13
-42.200001 49.27 -595.26001
-41.66 49.279999 -595.38
-41.119999 49.290001 -595.46002
-40.580002 49.299999 -595.62
-40.049999 49.32 -595.87
-39.509998 49.330002 -595.89001
-38.98 49.349998 -596.14001
-38.439999 49.360001 -596.28998
-37.91 49.380001 -596.48999
-37.369999 49.389999 -596.62
-36.84 49.400002 -596.81
-36.310001 49.419998 -597.07001
-35.77 49.439999 -597.29999
-35.23 49.450001 -597.39001
-34.700001 49.470001 -597.66998
-34.16 49.490002 -597.90002
-33.630001 49.52 -598.15997
-33.080002 49.509998 -598.08002
-32.540001 49.52 -598.17999
-31.98 49.509998 -598.12
-31.440001 49.52 -598.23999
-13.43 56.84 -685.40002
-12.82 56.91 -686.17999
-12.2 56.950001 -686.63
-11.58 56.990002 -687.21002
-10.95 57.029999 -687.63
-10.33 57.060001 -688.04999
-9.6999998 57.110001 -688.60999
-9.0799999 57.16 -689.12
-8.4499998 57.18 -689.45001
-7.8099999 57.18 -689.46997
-7.1799998 57.209999 -689.79999
-6.5500002 57.220001 -689.94
-5.9200001 57.240002 -690.09003
-5.29 57.259998 -690.39001
-4.6599998 57.279999 -690.62
-4.0300002 57.330002 -691.22998
-3.3900001 57.369999 -691.70001
-2.76 57.419998 -692.25
-2.1300001 57.450001 -692.59003
-1.49 57.450001 -692.67999
-0.85000002 57.459999 -692.72998
-0.22 57.470001 -692.85999
0.41999999 57.490002 -693.08002
1.0599999 57.509998 -693.35999
1.6900001 57.549999 -693.81
2.3299999 57.619999 -694.64001
2.98 57.720001 -695.79999
29.440001 56.990002 -687.14001
30.07 56.970001 -686.95001
30.690001 56.970001 -686.83002
31.309999 56.950001 -686.67999
31.940001 56.950001 -686.64001
32.57 56.950001 -686.63
33.209999 56.959999 -686.78003
33.84 56.959999 -686.77002
34.48 56.98 -686.94
35.110001 56.98 -686.98999
35.75 56.990002 -687.06
36.380001 56.990002 -687.10999
37.02 57 -687.21997
37.66 57.009998 -687.31
38.299999 57.02 -687.44
38.93 57.02 -687.48999
39.57 57.029999 -687.59003
40.189999 57.02 -687.46997
40.82 57.009998 -687.40002
97.940002 57.939999 -698.20001
98.459999 57.869999 -697.35999
98.980003 57.799999 -696.54999
99.540001 57.75 -695.97998
100.12 57.720001 -695.57001
-167.92999 47.110001 -575.65997
-167.35001 47.099998 -575.47998
-166.74001 47.080002 -575.19
-166.2 47.07 -575.15997
-165.67999 47.080002 -575.17999
-165.17 47.080002 -575.21997
-164.66 47.080002 -575.28998
-164.17 47.099998 -575.40997
-163.74001 47.119999 -575.72998
-163.37 47.169998 -576.28998
-163.02 47.220001 -576.88
-162.59 47.25 -577.23999
-162.2 47.290001 -577.71997
-161.78 47.32 -578.12
-161.36 47.349998 -578.47998
-160.89 47.369999 -578.71002
-160.38 47.380001 -578.76001
-159.91 47.400002 -579
-159.47 47.419998 -579.29999
-159.06 47.459999 -579.75
-158.7 47.509998 -580.37
-158.28 47.540001 -580.75
-157.88 47.580002 -581.25
-157.47 47.619999 -581.69
-157.05 47.66 -582.09998
-156.64 47.689999 -582.54999
-156.17999 47.720001 -582.82001
-155.7 47.73 -582.98999
-155.19 47.740002 -583.09003
-154.63 47.73 -583
-154.02 47.709999 -582.73999
-153.50999 47.709999 -582.79999
-153.00999 47.73 -582.92999
-152.52 47.740002 -583.10999
-152.08 47.77 -583.46997
-151.64999 47.799999 -583.84998
-151.23 47.84 -584.27002
-150.82001 47.880001 -584.78003
-150.45 47.93 -585.39001
-150.03999 47.970001 -585.90002
-149.67999 48.029999 -586.56
-149.21001 48.049999 -586.82001
-148.78999 48.09 -587.28003
-148.41 48.139999 -587.89001
-148.09 48.209999 -588.75
-147.75 48.279999 -589.54999
-147.50999 48.380001 -590.72998
-130.50999 47.709999 -582.67999
-129.81 47.650002 -581.95001
-129.14 47.59 -581.32001
-128.5 47.549999 -580.84998
-127.88 47.52 -580.44
-127.28 47.5 -580.15997
-126.68 47.470001 -579.85999
-126.1 47.450001 -579.64001
-125.52 47.439999 -579.41998
-124.96 47.419998 -579.28003
-124.38 47.400002 -579.04999
-123.82 47.389999 -578.91998
-123.27 47.380001 -578.81
-122.72 47.380001 -578.71997
-122.14 47.360001 -578.52002
-121.58 47.349998 -578.34998
-121.04 47.34 -578.32001
-120.49 47.34 -578.22998
-119.92 47.32 -578.04999
-119.38 47.310001 -577.97998
-118.83 47.310001 -577.90997
-118.27 47.299999 -577.77002
-117.73 47.290001 -577.69
-117.17 47.279999 -577.56
-116.62 47.27 -577.45001
-116.07 47.259998 -577.35999
-115.5 47.25 -577.17999
-114.94 47.23 -577.03003
-114.34 47.200001 -576.65002
-113.74 47.169998 -576.29999
-113.15 47.150002 -575.98999
-112.57 47.130001 -575.71997
-112.01 47.110001 -575.56
-111.45 47.099998 -575.41998
-110.89 47.09 -575.26001
-110.35 47.080002 -575.20001
-109.81 47.080002 -575.13
-109.27 47.07 -575.04999
-108.73 47.060001 -574.97998
-108.19 47.060001 -574.90002
-107.68 47.060001 -574.98999
-107.16 47.07 -575.03003
-106.61 47.060001 -574.94
-106.09 47.060001 -574.95001
-105.56 47.060001 -574.96997
-105.05 47.07 -575.02002
-104.5 47.060001 -574.94
-103.95 47.049999 -574.81
-103.42 47.049999 -574.79999
-102.93 47.060001 -574.97998
-102.32 47.02 -574.53003
-101.74 47 -574.21997
-101.2 46.990002 -574.16998
-100.68 47 -574.19
-100.14 46.990002 -574.12
-99.610001 46.990002 -574.09998
-99.080002 46.990002 -574.09003
-98.559998 46.990002 -574.08002
-98.019997 46.98 -574.01001
-97.510002 46.990002 -574.13
-96.989998 46.990002 -574.13
-96.43 46.970001 -573.94
-95.870003 46.959999 -573.77002
-95.339996 46.959999 -573.72998
-94.830002 46.959999 -573.84003
-94.330002 46.98 -573.97998
-93.800003 46.98 -574
-93.25 46.970001 -573.84998
-92.730003 46.970001 -573.85999
-92.220001 46.970001 -573.96002
-91.699997 46.98 -574.02002
-91.199997 46.990002 -574.15997
-90.690002 47 -574.23999
-90.18 47 -574.34003
-89.68 47.02 -574.53998
-89.190002 47.040001 -574.76001
-88.690002 47.060001 -574.96997
-88.190002 47.07 -575.10999
-87.690002 47.080002 -575.27002
-87.169998 47.09 -575.35999
-86.68 47.099998 -575.56
-86.169998 47.119999 -575.72998
-85.660004 47.130001 -575.82001
-85.150002 47.139999 -575.94
-84.629997 47.139999 -576.02002
-84.120003 47.150002 -576.10999
-83.620003 47.169998 -576.29999
-83.120003 47.18 -576.47998
-82.620003 47.200001 -576.69
-82.110001 47.209999 -576.79999
-81.610001 47.220001 -577
-81.110001 47.240002 -577.23999
-80.599998 47.259998 -577.39001
-80.110001 47.27 -577.62
-79.599998 47.290001 -577.79999
-79.110001 47.310001 -578.03998
-78.620003 47.330002 -578.33002
-78.120003 47.349998 -578.54999
-77.610001 47.369999 -578.73999
-77.089996 47.369999 -578.82001
-76.580002 47.380001 -578.95001
-76.07 47.400002 -579.15997
-75.580002 47.419998 -579.42999
-75.089996 47.450001 -579.77002
-74.620003 47.490002 -580.21002
-74.129997 47.52 -580.54999
-73.620003 47.529999 -580.75
-73.110001 47.549999 -580.92999
-72.620003 47.57 -581.23999
-72.139999 47.599998 -581.63
-71.650002 47.639999 -582.03003
-71.169998 47.669998 -582.39001
-70.68 47.700001 -582.78998
-70.190002 47.73 -583.13
-69.699997 47.759998 -583.56
-69.209999 47.790001 -583.89001
-68.730003 47.830002 -584.34003
-68.239998 47.860001 -584.71997
-67.75 47.889999 -585.12
-67.269997 47.93 -585.59998
-66.779999 47.970001 -586.04999
-66.279999 48 -586.38
-65.800003 48.029999 -586.83002
-65.290001 48.060001 -587.12
-64.779999 48.07 -587.32001
-64.239998 48.080002 -587.34003
-63.689999 48.060001 -587.20001
-63.16 48.07 -587.31
-62.650002 48.09 -587.57001
-62.139999 48.119999 -587.87
-61.630001 48.139999 -588.10999
-61.119999 48.16 -588.40997
-60.610001 48.18 -588.65997
-60.099998 48.209999 -588.96002
-59.59 48.23 -589.25
-59.080002 48.259998 -589.57001
-58.580002 48.290001 -589.94
-58.080002 48.32 -590.31
-57.57 48.349998 -590.65997
-57.060001 48.380001 -591.02002
-56.549999 48.400002 -591.29999
-56.049999 48.439999 -591.71997
-55.52 48.450001 -591.91998
-55 48.470001 -592.09003
-54.490002 48.5 -592.53003
-53.98 48.529999 -592.84003
-53.439999 48.540001 -592.94
-52.919998 48.560001 -593.16998
-52.400002 48.580002 -593.39001
-51.880001 48.599998 -593.72998
-51.360001 48.619999 -593.92999
-50.830002 48.639999 -594.17999
-50.310001 48.66 -594.42999
-49.779999 48.669998 -594.59998
-49.25 48.689999 -594.72998
-48.709999 48.689999 -594.78998
-48.189999 48.720001 -595.12
-47.639999 48.720001 -595.15002
-47.110001 48.740002 -595.34003
-46.580002 48.75 -595.48999
-46.040001 48.759998 -595.59003
-45.509998 48.77 -595.79999
-44.970001 48.779999 -595.87
-44.439999 48.790001 -596.02002
-43.900002 48.799999 -596.10999
-43.360001 48.810001 -596.25
-42.810001 48.810001 -596.25
-42.290001 48.830002 -596.51001
-41.759998 48.849998 -596.77002
-41.23 48.880001 -597.10999
-40.689999 48.889999 -597.21002
-40.169998 48.919998 -597.56
-39.650002 48.959999 -598.03003
-39.119999 48.98 -598.28003
-38.580002 48.990002 -598.41998
-38.029999 48.990002 -598.39001
-37.5 49.009998 -598.69
-36.959999 49.02 -598.75
-12.82 56.27 -686.14001
-12.2 56.330002 -686.79999
-11.58 56.380001 -687.39001
-10.96 56.419998 -687.95001
-10.33 56.48 -688.59003
-9.71 56.540001 -689.28998
-9.0799999 56.560001 -689.53998
-8.4499998 56.57 -689.67999
-7.8200002 56.580002 -689.79999
-7.1900001 56.580002 -689.84998
-6.5500002 56.599998 -690.06
-5.9200001 56.619999 -690.31
-5.29 56.650002 -690.65997
-4.6599998 56.68 -690.96997
-4.0300002 56.720001 -691.47998
-3.3900001 56.75 -691.89001
-2.76 56.810001 -692.54999
-2.1300001 56.830002 -692.78998
-1.49 56.82 -692.75
-0.85000002 56.82 -692.73999
-0.22 56.84 -692.90002
0.41999999 56.849998 -693.12
1.0599999 56.880001 -693.47998
1.6900001 56.919998 -693.90002
2.3299999 57.009998 -694.96997
2.98 57.099998 -696.03998
30.719999 56.389999 -687.45001
31.34 56.369999 -687.22998
31.969999 56.369999 -687.21997
32.599998 56.369999 -687.27002
33.23 56.369999 -687.21997
33.869999 56.369999 -687.23999
34.5 56.369999 -687.28003
35.130001 56.369999 -687.26001
35.77 56.380001 -687.37
36.400002 56.380001 -687.33002
37.029999 56.380001 -687.40997
37.66 56.380001 -687.39001
38.299999 56.389999 -687.52002
38.93 56.389999 -687.53998
39.560001 56.389999 -687.51001
-167.92 46.580002 -575.63
-167.3 46.560001 -575.31
-166.73 46.549999 -575.15002
-166.17 46.540001 -575.04999
-165.67 46.540001 -575.13
-165.14 46.540001 -575.13
-164.62 46.549999 -575.15997
-164.14 46.560001 -575.28998
-163.71001 46.59 -575.62
-163.34 46.630001 -576.19
-162.97 46.68 -576.72998
-162.53 46.700001 -577.03998
-162.10001 46.73 -577.37
-161.69 46.759998 -577.78003
-161.31 46.810001 -578.31
-160.85001 46.830002 -578.57001
-160.39999 46.849998 -578.84003
-159.91 46.860001 -578.97998
-159.47 46.889999 -579.31
-159.03 46.919998 -579.63
-158.64 46.959999 -580.12
-158.24001 47 -580.62
-157.85001 47.040001 -581.12
-157.45 47.080002 -581.62
-157.05 47.119999 -582.09003
-156.64 47.16 -582.53003
-156.21001 47.189999 -582.91998
-155.73 47.200001 -583.09998
-155.2 47.209999 -583.15002
-154.67 47.209999 -583.15002
-154.07001 47.189999 -582.90997
-153.55 47.189999 -582.95001
-153.03999 47.200001 -583.03003
-152.55 47.220001 -583.22998
-152.10001 47.240002 -583.52002
-151.64 47.259998 -583.82001
-151.21001 47.299999 -584.22998
-150.78 47.330002 -584.59998
-150.37 47.369999 -585.09998
-149.95 47.41 -585.56
-149.53999 47.450001 -586.03003
-149.07001 47.470001 -586.31
-148.67 47.509998 -586.84003
-148.27 47.560001 -587.35999
-147.89 47.610001 -587.97998
-147.63 47.700001 -589.09003
-131.17999 47.220001 -583.25
-130.41 47.130001 -582.21002
-129.74001 47.09 -581.63
-129.08 47.040001 -581.07001
-128.47 47.009998 -580.71002
-127.85 46.98 -580.31
-127.24 46.950001 -579.96002
-126.65 46.93 -579.72998
-126.07 46.91 -579.47998
-125.49 46.889999 -579.26001
-124.92 46.880001 -579.09998
-124.35 46.860001 -578.92999
-123.79 46.849998 -578.76001
-123.22 46.84 -578.62
-122.67 46.830002 -578.53003
-122.12 46.82 -578.41998
-121.58 46.82 -578.37
-121.03 46.810001 -578.26001
-120.47 46.799999 -578.15997
-119.92 46.790001 -578.06
-119.37 46.779999 -577.95001
-118.81 46.77 -577.82001
-118.26 46.759998 -577.71002
-117.72 46.759998 -577.65002
-117.15 46.740002 -577.47998
-116.61 46.740002 -577.39001
-116.05 46.73 -577.28003
-115.51 46.720001 -577.19
-114.92 46.700001 -576.91998
-114.3 46.66 -576.46002
-113.72 46.639999 -576.19
-113.14 46.619999 -575.94
-112.57 46.599998 -575.75
-111.99 46.580002 -575.48999
-111.45 46.57 -575.41998
-110.9 46.560001 -575.29999
-110.37 46.560001 -575.27002
-109.82 46.549999 -575.19
-109.3 46.560001 -575.21002
-108.77 46.549999 -575.19
-108.23 46.549999 -575.12
-107.69 46.540001 -575.07001
-107.17 46.549999 -575.10999
-106.63 46.540001 -575.01001
-106.1 46.540001 -575.01001
-105.55 46.529999 -574.88
-105.02 46.529999 -574.88
-104.49 46.52 -574.84998
-103.95 46.52 -574.78003
-103.4 46.509998 -574.64001
-102.88 46.509998 -574.72998
-102.33 46.5 -574.58002
-101.73 46.470001 -574.19
-101.19 46.459999 -574.09003
-100.65 46.450001 -574
-100.11 46.450001 -573.95001
-99.580002 46.450001 -573.94
-99.059998 46.450001 -573.92999
-98.529999 46.450001 -573.90997
-98.019997 46.450001 -574.01001
-97.480003 46.450001 -573.92999
-96.959999 46.450001 -573.97998
-96.440002 46.459999 -574.03998
-95.889999 46.439999 -573.85999
-95.349998 46.43 -573.78003
-94.830002 46.439999 -573.81
-94.290001 46.43 -573.77002
-93.790001 46.450001 -573.91998
-93.269997 46.450001 -573.94
-92.720001 46.439999 -573.81
-92.190002 46.43 -573.79999
-91.690002 46.439999 -573.90997
-91.169998 46.450001 -574.01001
-90.669998 46.459999 -574.15002
-90.160004 46.470001 -574.21997
-89.660004 46.490002 -574.44
-89.160004 46.5 -574.57001
-88.660004 46.509998 -574.77002
-88.150002 46.52 -574.89001
-87.669998 46.540001 -575.14001
-87.169998 46.560001 -575.34003
-86.669998 46.57 -575.51001
-86.160004 46.580002 -575.63
-85.669998 46.599998 -575.87
-85.150002 46.610001 -575.91998
-84.610001 46.599998 -575.88
-84.110001 46.610001 -576.02002
-83.610001 46.630001 -576.25
-83.120003 46.650002 -576.48999
-82.629997 46.669998 -576.76001
-82.120003 46.68 -576.89001
-81.629997 46.709999 -577.15997
-81.129997 46.720001 -577.35999
-80.620003 46.740002 -577.53003
-80.120003 46.75 -577.72998
-79.620003 46.77 -577.90002
-79.120003 46.790001 -578.15997
-78.629997 46.810001 -578.42999
-78.129997 46.830002 -578.69
-77.639999 46.849998 -578.96002
-77.110001 46.849998 -578.95001
-76.610001 46.869999 -579.20001
-76.099998 46.889999 -579.39001
-75.610001 46.91 -579.69
-75.110001 46.93 -579.92999
-74.599998 46.939999 -580.06
-74.099998 46.970001 -580.33002
-73.639999 47.009998 -580.85999
-73.150002 47.040001 -581.19
-72.660004 47.060001 -581.52002
-72.150002 47.080002 -581.73999
-71.669998 47.110001 -582.13
-71.18 47.150002 -582.53998
-70.699997 47.18 -582.96002
-70.209999 47.209999 -583.28003
-69.720001 47.240002 -583.71997
-69.239998 47.27 -584.09998
-68.75 47.310001 -584.56
-68.260002 47.34 -584.90002
-67.790001 47.380001 -585.42999
-67.300003 47.419998 -585.84003
-66.809998 47.450001 -586.32001
-66.32 47.490002 -586.71002
-65.830002 47.52 -587.08002
-65.32 47.540001 -587.40997
-64.839996 47.59 -587.94
-64.330002 47.599998 -588.14001
-63.779999 47.599998 -588.03998
-63.23 47.59 -587.98999
-62.700001 47.599998 -588.07001
-62.189999 47.610001 -588.27002
-61.669998 47.630001 -588.5
-61.16 47.66 -588.82001
-60.66 47.68 -589.14001
-60.150002 47.709999 -589.46002
-59.639999 47.740002 -589.77002
-59.150002 47.77 -590.21997
-58.639999 47.799999 -590.5
-58.139999 47.830002 -590.91998
-57.630001 47.860001 -591.32001
-57.130001 47.889999 -591.66998
-56.619999 47.919998 -592.03003
-56.110001 47.950001 -592.38
-55.59 47.970001 -592.65997
-55.080002 48 -592.94
-54.57 48.029999 -593.31
-54.040001 48.040001 -593.52002
-53.529999 48.07 -593.84003
-53.009998 48.09 -594.12
-52.490002 48.119999 -594.44
-51.970001 48.139999 -594.67999
-51.439999 48.16 -594.92999
-50.93 48.18 -595.23999
-50.400002 48.200001 -595.45001
-49.880001 48.220001 -595.71997
-49.349998 48.240002 -595.91998
-48.799999 48.240002 -595.97998
-48.290001 48.27 -596.34998
-47.75 48.279999 -596.41998
-47.220001 48.290001 -596.59998
-46.689999 48.310001 -596.82001
-46.150002 48.32 -596.94
-45.610001 48.330002 -597.03998
-45.07 48.34 -597.21997
-44.610001 48.43 -598.25
-44.16 48.540001 -599.58002
-44.040001 49.02 -605.39001
-41.369999 48.490002 -599
-12.19 55.66 -686.28003
-11.58 55.73 -687.21002
-10.96 55.799999 -688.07001
-10.34 55.880001 -688.98999
-9.7200003 55.93 -689.62
-9.0799999 55.939999 -689.76001
-8.4499998 55.950001 -689.84003
-7.8200002 55.970001 -690.04999
-7.1900001 55.970001 -690.14001
-6.5599999 55.98 -690.28003
-5.9200001 56.009998 -690.56
-5.29 56.029999 -690.88
-4.6599998 56.060001 -691.17999
-4.0300002 56.099998 -691.69
-3.4000001 56.150002 -692.28998
-2.76 56.189999 -692.78998
-2.1300001 56.200001 -692.89001
-1.49 56.200001 -692.87
-0.85000002 56.200001 -692.90997
-0.22 56.209999 -692.97998
0.41999999 56.23 -693.22998
1.0599999 56.27 -693.71997
1.6900001 56.299999 -694.09003
2.3399999 56.380001 -695.14001
-167.86 46.040001 -575.42999
-167.27 46.02 -575.21997
-166.67999 46.009998 -575
-166.14 46 -574.94
-165.60001 46 -574.90997
-165.10001 46.009998 -574.97998
-164.61 46.02 -575.09998
-164.09 46.02 -575.12
-163.67999 46.049999 -575.53003
-163.34 46.099998 -576.19
-162.96001 46.150002 -576.70001
-162.5 46.169998 -576.92999
-162.03 46.18 -577.13
-161.59 46.209999 -577.44
-161.22 46.25 -577.98999
-160.78999 46.279999 -578.35999
-160.35001 46.310001 -578.65997
-159.89999 46.330002 -578.96002
-159.42999 46.349998 -579.16998
-158.99001 46.380001 -579.48999
-158.60001 46.419998 -579.98999
-158.22 46.459999 -580.53998
-157.85001 46.509998 -581.12
-157.45 46.549999 -581.59998
-157.05 46.59 -582.09003
-156.64999 46.630001 -582.59998
-156.25 46.669998 -583.04999
-155.75 46.68 -583.19
-155.23 46.68 -583.26001
-154.67999 46.68 -583.20001
-154.09 46.66 -582.96002
-153.57001 46.66 -583.03003
-153.06 46.669998 -583.10999
-152.57001 46.68 -583.27002
-152.08 46.700001 -583.46997
-151.63 46.720001 -583.76001
-151.17 46.75 -584.07001
-150.71001 46.77 -584.34003
-150.28999 46.810001 -584.79999
-149.86 46.84 -585.20001
-149.42999 46.880001 -585.60999
-148.96001 46.900002 -585.85999
-148.53999 46.93 -586.29999
-148.11 46.970001 -586.71997
-147.72 47.009998 -587.29999
-147.37 47.07 -588.06
-131 46.619999 -582.46002
-130.35001 46.580002 -581.96002
-129.64999 46.52 -581.23999
-129.03 46.490002 -580.84998
-128.39 46.450001 -580.35999
-127.8 46.43 -580.09998
-127.21 46.41 -579.82001
-126.62 46.380001 -579.56
-126.04 46.369999 -579.38
-125.46 46.349998 -579.15997
-124.89 46.34 -578.97998
-124.33 46.32 -578.82001
-123.78 46.32 -578.71002
-123.22 46.310001 -578.59998
-122.67 46.299999 -578.48999
-122.09 46.279999 -578.29999
-121.56 46.279999 -578.28003
-121 46.27 -578.15002
-120.46 46.259998 -578.09998
-119.9 46.25 -577.95001
-119.35 46.25 -577.88
-118.79 46.23 -577.72998
-118.24 46.23 -577.62
-117.7 46.220001 -577.56
-117.14 46.209999 -577.40002
-116.59 46.200001 -577.33002
-116.06 46.200001 -577.31
-115.52 46.200001 -577.26001
-114.96 46.18 -577.09998
-114.36 46.150002 -576.75
-113.75 46.119999 -576.35999
-113.15 46.09 -575.97998
-112.57 46.07 -575.72998
-112 46.049999 -575.5
-111.43 46.040001 -575.31
-110.87 46.02 -575.15002
-110.32 46.009998 -575.03998
-109.77 46 -574.91998
-109.23 46 -574.84998
-108.69 45.990002 -574.75
-108.16 45.990002 -574.73999
-107.64 45.990002 -574.78998
-107.12 45.990002 -574.81
-106.58 45.990002 -574.73999
-106.04 45.98 -574.67999
-105.52 45.990002 -574.72998
-104.98 45.98 -574.65997
-104.46 45.98 -574.66998
-103.91 45.98 -574.58002
-103.37 45.970001 -574.51001
-102.85 45.970001 -574.53998
-102.32 45.970001 -574.52002
-101.69 45.919998 -573.96002
-101.17 45.93 -574
-100.64 45.93 -573.97998
-100.1 45.919998 -573.90002
-99.57 45.919998 -573.85999
-99.040001 45.91 -573.84003
-98.5 45.91 -573.76001
-97.980003 45.91 -573.79999
-97.459999 45.91 -573.83002
-96.93 45.91 -573.79999
-96.419998 45.919998 -573.90002
-95.900002 45.919998 -573.95001
-95.349998 45.91 -573.78998
-94.800003 45.900002 -573.65997
-94.300003 45.91 -573.81
-93.769997 45.91 -573.77002
-93.260002 45.919998 -573.88
-92.739998 45.919998 -573.90997
-92.18 45.900002 -573.73999
-91.68 45.919998 -573.90997
-91.160004 45.919998 -573.91998
-90.639999 45.919998 -573.96997
-90.129997 45.93 -574.08002
-89.629997 45.939999 -574.21997
-89.139999 45.959999 -574.42999
-88.639999 45.98 -574.65997
-88.139999 45.990002 -574.82001
-87.639999 46.009998 -575.01001
-87.150002 46.02 -575.25
-86.660004 46.040001 -575.46997
-86.160004 46.060001 -575.64001
-85.650002 46.07 -575.75
-85.150002 46.080002 -575.94
-84.620003 46.080002 -575.96002
-84.099998 46.09 -576.02002
-83.599998 46.099998 -576.16998
-83.089996 46.110001 -576.32001
-82.599998 46.130001 -576.57001
-82.110001 46.150002 -576.83002
-81.620003 46.169998 -577.09003
-81.139999 46.200001 -577.41998
-80.639999 46.220001 -577.69
-80.139999 46.240002 -577.89001
-79.629997 46.240002 -577.97998
-79.120003 46.259998 -578.12
-78.620003 46.27 -578.35999
-78.129997 46.299999 -578.70001
-77.639999 46.330002 -578.98999
-77.139999 46.34 -579.19
-76.629997 46.349998 -579.34003
-76.120003 46.369999 -579.5
-75.620003 46.389999 -579.73999
-75.120003 46.41 -580
-74.629997 46.43 -580.27002
-74.129997 46.450001 -580.51001
-73.620003 46.470001 -580.73999
-73.139999 46.5 -581.14001
-72.660004 46.529999 -581.56
-72.169998 46.560001 -581.89001
-71.68 46.59 -582.21997
-71.190002 46.619999 -582.62
-70.709999 46.650002 -583.06
-70.220001 46.68 -583.40997
-69.739998 46.720001 -583.84998
-69.260002 46.759998 -584.33002
-68.769997 46.779999 -584.67999
-68.279999 46.810001 -585.04999
-67.809998 46.860001 -585.64001
-67.32 46.900002 -586.08002
-66.849998 46.939999 -586.60999
-66.349998 46.970001 -586.98999
-65.870003 47.009998 -587.46997
-65.360001 47.029999 -587.76001
-64.870003 47.07 -588.19
-64.379997 47.099998 -588.58002
-63.889999 47.139999 -589.07001
-63.380001 47.16 -589.28998
-62.830002 47.16 -589.28003
-62.290001 47.150002 -589.25
-61.759998 47.16 -589.35999
-61.23 47.169998 -589.47998
-60.740002 47.209999 -589.90002
-60.23 47.23 -590.20001
-59.720001 47.259998 -590.53998
-59.209999 47.279999 -590.82001
-58.720001 47.330002 -591.38
-58.23 47.360001 -591.82001
-57.709999 47.389999 -592.13
-57.200001 47.41 -592.46002
-56.700001 47.439999 -592.84003
-56.18 47.470001 -593.13
-55.669998 47.5 -593.51001
-55.16 47.52 -593.83002
-54.650002 47.560001 -594.22998
-54.130001 47.580002 -594.48999
-53.610001 47.599998 -594.77002
-53.09 47.619999 -595.03003
-52.580002 47.650002 -595.45001
-52.07 47.68 -595.78998
-51.549999 47.709999 -596.10999
-51.02 47.73 -596.33002
-50.490002 47.740002 -596.54999
-49.98 47.779999 -596.96997
-49.459999 47.799999 -597.28003
-48.939999 47.830002 -597.58002
-48.400002 47.84 -597.73999
-47.880001 47.860001 -598.02002
-47.779999 48.32 -603.64001
-49.740002 53.400002 -666.15997
-49.380001 53.66 -669.42999
-48.799999 53.700001 -669.87
-48.209999 53.740002 -670.34998
-47.630001 53.77 -670.75
-10.95 55.130001 -687.51001
-10.34 55.25 -689
-9.7200003 55.299999 -689.60999
-9.0900002 55.32 -689.90997
-8.4499998 55.330002 -690.03998
-7.8200002 55.34 -690.13
-7.1900001 55.349998 -690.28998
-6.5599999 55.369999 -690.52002
-5.9299998 55.380001 -690.71002
-5.29 55.419998 -691.10999
-4.6599998 55.450001 -691.56
-4.0300002 55.5 -692.07001
-3.4000001 55.549999 -692.72998
-2.76 55.57 -692.97998
-2.1300001 55.57 -692.96002
-1.49 55.57 -692.96997
-0.85000002 55.57 -692.96997
-0.22 55.580002 -693.09003
0.41999999 55.610001 -693.46997
1.0599999 55.639999 -693.84003
1.6900001 55.68 -694.29999
2.3399999 55.759998 -695.28998
-167.87 45.52 -575.46002
-167.27 45.5 -575.21002
-166.66 45.470001 -574.90997
-166.11 45.470001 -574.84003
-165.58 45.459999 -574.81
-165.06 45.470001 -574.84003
-164.56 45.470001 -574.92999
-164.07001 45.490002 -575.06
-163.66 45.52 -575.47998
-163.31 45.57 -576.09003
-162.92999 45.610001 -576.59998
-162.45 45.619999 -576.75
-161.98 45.639999 -576.96997
-161.52 45.66 -577.19
-161.11 45.689999 -577.60999
-160.72 45.73 -578.09003
-160.3 45.759998 -578.5
-159.87 45.790001 -578.84998
-159.42999 45.82 -579.15002
-158.98 45.84 -579.46002
-158.59 45.880001 -579.96002
-158.17999 45.919998 -580.39001
-157.82001 45.970001 -581.01001
-157.42 46.009998 -581.51001
-157.08 46.060001 -582.20001
-156.67999 46.099998 -582.70001
-156.25999 46.139999 -583.09998
-155.78999 46.150002 -583.33002
-155.3 46.169998 -583.51001
-154.73 46.16 -583.39001
-154.16 46.150002 -583.22998
-153.62 46.139999 -583.20001
-153.09 46.150002 -583.25
-152.59 46.16 -583.34998
-152.09 46.169998 -583.51001
-151.61 46.189999 -583.71002
-151.13 46.200001 -583.91998
-150.67 46.23 -584.21002
-150.22 46.25 -584.52002
-149.77 46.279999 -584.84003
-149.33 46.310001 -585.23999
-148.86 46.330002 -585.48999
-148.42 46.360001 -585.83002
-147.98 46.389999 -586.21002
-147.53999 46.419998 -586.63
-131.64 46.119999 -582.91998
-130.92 46.060001 -582.14001
-130.25999 46.009998 -581.54999
-129.63 45.98 -581.13
-128.98 45.939999 -580.63
-128.37 45.91 -580.27002
-127.77 45.880001 -579.95001
-127.19 45.869999 -579.76001
-126.6 45.849998 -579.51001
-126.02 45.830002 -579.25
-125.45 45.810001 -579.08002
-124.87 45.799999 -578.88
-124.31 45.790001 -578.75
-123.77 45.779999 -578.67999
-123.2 45.77 -578.51001
-122.64 45.759998 -578.39001
-122.1 45.75 -578.31
-121.55 45.75 -578.23999
-120.98 45.73 -578.03998
-120.44 45.73 -577.97998
-119.89 45.720001 -577.89001
-119.34 45.709999 -577.83002
-118.8 45.709999 -577.75
-118.24 45.689999 -577.59998
-117.69 45.689999 -577.48999
-117.15 45.68 -577.44
-116.59 45.669998 -577.29999
-116.05 45.669998 -577.23999
-115.51 45.66 -577.21002
-114.96 45.66 -577.12
-114.41 45.639999 -576.98999
-113.84 45.630001 -576.82001
-113.25 45.599998 -576.48999
-112.64 45.57 -576.09003
-112.01 45.529999 -575.54999
-111.44 45.509998 -575.34003
-110.88 45.5 -575.19
-110.33 45.490002 -575.09998
-109.79 45.48 -574.98999
-109.24 45.48 -574.90002
-108.72 45.48 -574.91998
-108.18 45.470001 -574.84003
-107.63 45.459999 -574.73999
-107.11 45.459999 -574.76001
-106.57 45.459999 -574.71997
-106.03 45.459999 -574.65002
-105.48 45.450001 -574.53003
-104.95 45.439999 -574.51001
-104.42 45.439999 -574.48999
-103.88 45.43 -574.40002
-103.34 45.43 -574.32001
-102.81 45.43 -574.32001
-102.3 45.439999 -574.42999
-101.73 45.419998 -574.16998
-101.15 45.389999 -573.89001
-100.63 45.389999 -573.88
-100.11 45.389999 -573.91998
-99.580002 45.389999 -573.89001
-99.019997 45.380001 -573.75
-98.489998 45.380001 -573.71997
-97.949997 45.369999 -573.63
-97.43 45.380001 -573.67999
-96.93 45.380001 -573.81
-96.400002 45.380001 -573.79999
-95.879997 45.380001 -573.79999
-95.370003 45.389999 -573.90002
-94.830002 45.389999 -573.83002
-94.279999 45.380001 -573.71002
-93.760002 45.380001 -573.75
-93.239998 45.380001 -573.78003
-92.739998 45.389999 -573.92999
-92.209999 45.389999 -573.90997
-91.669998 45.380001 -573.79999
-91.160004 45.389999 -573.90997
-90.650002 45.400002 -574.02002
-90.129997 45.400002 -574.06
-89.629997 45.419998 -574.21997
-89.120003 45.419998 -574.33002
-88.620003 45.439999 -574.51001
-88.120003 45.450001 -574.70001
-87.629997 45.470001 -574.92999
-87.139999 45.490002 -575.13
-86.650002 45.509998 -575.39001
-86.139999 45.52 -575.53003
-85.639999 45.540001 -575.72998
-85.150002 45.549999 -575.94
-84.639999 45.560001 -576.08002
-84.120003 45.57 -576.13
-83.599998 45.57 -576.21002
-83.099998 45.580002 -576.34998
-82.599998 45.599998 -576.59998
-82.099998 45.619999 -576.78998
-81.620003 45.639999 -577.09003
-81.120003 45.66 -577.29999
-80.629997 45.68 -577.58002
-80.139999 45.709999 -577.88
-79.669998 45.740002 -578.26001
-79.160004 45.75 -578.46002
-78.639999 45.759998 -578.53003
-78.139999 45.77 -578.71002
-77.650002 45.799999 -579.03998
-77.150002 45.82 -579.29999
-76.660004 45.84 -579.57001
-76.150002 45.849998 -579.73999
-75.629997 45.860001 -579.84003
-75.129997 45.880001 -580.03998
-74.620003 45.900002 -580.26001
-74.139999 45.919998 -580.59998
-73.650002 45.950001 -580.96002
-73.169998 45.98 -581.35999
-72.669998 46.009998 -581.65002
-72.169998 46.029999 -581.91998
-71.699997 46.060001 -582.35999
-71.209999 46.09 -582.72998
-70.730003 46.130001 -583.20001
-70.239998 46.16 -583.58002
-69.760002 46.200001 -584.04999
-69.279999 46.23 -584.45001
-68.790001 46.27 -584.90002
-68.309998 46.299999 -585.34003
-67.839996 46.349998 -585.89001
-67.360001 46.380001 -586.37
-66.870003 46.419998 -586.84003
-66.400002 46.470001 -587.39001
-65.919998 46.509998 -587.91998
-65.43 46.540001 -588.38
-64.919998 46.560001 -588.58002
-64.43 46.599998 -589.03998
-63.93 46.630001 -589.41998
-63.43 46.650002 -589.76001
-62.919998 46.68 -590.04999
-62.41 46.700001 -590.34003
-61.919998 46.740002 -590.79999
-61.400002 46.759998 -591.06
-60.869999 46.77 -591.19
-60.349998 46.790001 -591.40997
-59.849998 46.82 -591.81
-59.330002 46.84 -592.04999
-58.830002 46.869999 -592.40002
-58.310001 46.889999 -592.69
-57.799999 46.91 -592.96997
-57.290001 46.939999 -593.34003
-56.77 46.959999 -593.59003
-56.259998 46.990002 -593.90002
-55.75 47.02 -594.34998
-55.25 47.060001 -594.78998
-54.73 47.080002 -595.10999
-54.220001 47.110001 -595.44
-53.709999 47.139999 -595.83002
-53.200001 47.169998 -596.21997
-52.68 47.200001 -596.59003
-52.18 47.240002 -597.04999
-51.66 47.27 -597.41998
-51.150002 47.290001 -597.77002
-50.630001 47.32 -598.14001
-50.200001 47.439999 -599.53003
-50.189999 47.950001 -605.96002
-52.93 52.91 -667.70001
-52.32 52.919998 -667.82001
-51.73 52.939999 -668.03998
-51.139999 52.959999 -668.31
-50.560001 52.990002 -668.76001
-49.98 53.029999 -669.25
-49.400002 53.07 -669.73999
-48.830002 53.119999 -670.29999
-48.259998 53.169998 -670.95001
-47.66 53.189999 -671.15997
-9.71 54.630001 -689.15002
-9.0900002 54.689999 -689.96997
-8.46 54.700001 -690.14001
-7.8299999 54.73 -690.46002
-7.1900001 54.740002 -690.54999
-6.5599999 54.759998 -690.85999
-5.9299998 54.77 -690.97998
-5.3000002 54.810001 -691.47998
-4.6599998 54.84 -691.81
-4.0300002 54.889999 -692.51001
-3.4000001 54.93 -693
-2.76 54.939999 -693.10999
-2.1300001 54.950001 -693.15002
-1.49 54.939999 -693.04999
-0.85000002 54.939999 -693.12
-0.22 54.959999 -693.35999
0.41999999 54.98 -693.56
1.0599999 55.009998 -693.97998
1.7 55.07 -694.64001
2.3399999 55.150002 -695.70001
-167.84 44.98 -575.35999
-167.24001 44.959999 -575.12
-166.64 44.939999 -574.84003
-166.07001 44.93 -574.70001
-165.55 44.93 -574.71997
-165.03999 44.939999 -574.78003
-164.53 44.939999 -574.84003
-164.06 44.950001 -575.01001
-163.64 44.990002 -575.40002
-163.28999 45.040001 -576.02002
-162.92999 45.080002 -576.58002
-162.44 45.09 -576.71997
-161.94 45.099998 -576.79999
-161.45 45.110001 -576.94
-161.03999 45.139999 -577.37
-160.61 45.169998 -577.71002
-160.25 45.220001 -578.29999
-159.81 45.240002 -578.63
-159.39 45.27 -579.01001
-158.97 45.310001 -579.40002
-158.57001 45.349998 -579.89001
-158.17 45.380001 -580.34998
-157.8 45.43 -580.94
-157.42 45.470001 -581.51001
-157.08 45.529999 -582.20001
-156.69 45.57 -582.71997
-156.27 45.599998 -583.13
-155.78999 45.619999 -583.34003
-155.28999 45.630001 -583.46997
-154.77 45.630001 -583.52002
-154.17999 45.619999 -583.33002
-153.63 45.610001 -583.26001
-153.10001 45.610001 -583.26001
-152.60001 45.619999 -583.39001
-152.09 45.630001 -583.48999
-151.59 45.639999 -583.63
-151.10001 45.66 -583.78998
-150.63 45.68 -584.03003
-150.16 45.700001 -584.28998
-149.67999 45.709999 -584.51001
-149.24001 45.740002 -584.85999
-148.74001 45.759998 -585.03003
-148.27 45.77 -585.26001
-147.8 45.799999 -585.53998
-147.37 45.830002 -585.92999
-146.89 45.849998 -586.15002
-146.39999 45.860001 -586.35999
-145.86 45.860001 -586.35999
-145.36 45.869999 -586.48999
-133.72 45.75 -585
-133.00999 45.689999 -584.22998
-132.3 45.630001 -583.46002
-131.5 45.540001 -582.31
-130.84 45.5 -581.78998
-130.19 45.459999 -581.25
-129.57001 45.43 -580.87
-128.94 45.389999 -580.42999
-128.34 45.369999 -580.15002
-127.75 45.349998 -579.85999
-127.17 45.330002 -579.66998
-126.56 45.299999 -579.32001
-126 45.290001 -579.15997
-125.42 45.27 -578.96997
-124.85 45.259998 -578.77002
-124.28 45.240002 -578.59003
-123.72 45.23 -578.44
-123.18 45.23 -578.40997
-122.63 45.220001 -578.33002
-122.08 45.220001 -578.25
-121.53 45.209999 -578.14001
-120.97 45.200001 -578
-120.44 45.200001 -578
-119.87 45.18 -577.78998
-119.33 45.18 -577.76001
-118.79 45.18 -577.72998
-118.24 45.169998 -577.60999
-117.67 45.150002 -577.40997
-117.14 45.150002 -577.42999
-116.58 45.139999 -577.25
-116.03 45.130001 -577.17999
-115.47 45.119999 -577.03998
-114.95 45.119999 -577.08002
-114.4 45.110001 -576.96002
-113.84 45.099998 -576.81
-113.3 45.099998 -576.76001
-112.76 45.09 -576.67999
-112.15 45.060001 -576.28998
-111.51 45.009998 -575.70001
-110.86 44.970001 -575.10999
-110.3 44.950001 -574.94
-109.75 44.939999 -574.82001
-109.21 44.939999 -574.72998
-108.67 44.93 -574.65997
-108.14 44.93 -574.64001
-107.61 44.93 -574.64001
-107.07 44.919998 -574.53998
-106.52 44.91 -574.42999
-105.99 44.91 -574.45001
-105.46 44.91 -574.39001
-104.91 44.900002 -574.31
-104.38 44.900002 -574.27002
-103.85 44.900002 -574.25
-103.31 44.889999 -574.16998
-102.8 44.900002 -574.25
-102.26 44.889999 -574.21002
-101.71 44.880001 -574.08002
-101.14 44.860001 -573.81
-100.61 44.860001 -573.78003
-100.08 44.860001 -573.75
-99.550003 44.860001 -573.77002
-99.010002 44.849998 -573.66998
-98.480003 44.849998 -573.64001
-97.940002 44.84 -573.59998
-97.419998 44.84 -573.59003
-96.900002 44.849998 -573.64001
-96.389999 44.849998 -573.72998
-95.860001 44.849998 -573.73999
-95.360001 44.860001 -573.84003
-94.839996 44.860001 -573.89001
-94.290001 44.849998 -573.77002
-93.760002 44.849998 -573.72998
-93.239998 44.860001 -573.78003
-92.730003 44.860001 -573.84003
-92.220001 44.869999 -573.97998
-91.68 44.860001 -573.90002
-91.150002 44.860001 -573.85999
-90.639999 44.869999 -573.94
-90.129997 44.880001 -574.04999
-89.610001 44.880001 -574.13
-89.110001 44.889999 -574.25
-88.620003 44.91 -574.47998
-88.110001 44.919998 -574.58002
-87.610001 44.93 -574.77002
-87.110001 44.950001 -574.95001
-86.629997 44.970001 -575.27002
-86.129997 44.990002 -575.46002
-85.639999 45 -575.66998
-85.129997 45.009998 -575.78998
-84.629997 45.029999 -576.03003
-84.129997 45.040001 -576.17999
-83.589996 45.040001 -576.14001
-83.089996 45.049999 -576.33002
-82.599998 45.07 -576.58002
-82.099998 45.09 -576.76001
-81.610001 45.110001 -577.07001
-81.129997 45.139999 -577.34998
-80.629997 45.150002 -577.59003
-80.139999 45.169998 -577.85999
-79.650002 45.200001 -578.15002
-79.160004 45.220001 -578.46997
-78.660004 45.240002 -578.69
-78.150002 45.25 -578.81
-77.660004 45.27 -579.09003
-77.160004 45.290001 -579.37
-76.68 45.32 -579.72998
-76.190002 45.349998 -580.02002
-75.660004 45.349998 -580.06
-75.150002 45.360001 -580.21002
-74.650002 45.380001 -580.41998
-74.139999 45.400002 -580.65997
-73.650002 45.419998 -580.98999
-73.160004 45.450001 -581.29999
-72.68 45.48 -581.72998
-72.190002 45.5 -582.03003
-71.699997 45.529999 -582.41998
-71.220001 45.57 -582.85999
-70.75 45.610001 -583.35999
-70.260002 45.639999 -583.71002
-69.779999 45.669998 -584.15997
-69.290001 45.709999 -584.59003
-68.82 45.75 -585.09003
-68.339996 45.779999 -585.57001
-67.870003 45.830002 -586.13
-67.379997 45.860001 -586.57001
-66.93 45.919998 -587.29999
-66.440002 45.959999 -587.78998
-65.959999 46 -588.29999
-65.470001 46.029999 -588.73999
-64.959999 46.049999 -588.98999
-64.449997 46.07 -589.20001
-63.93 46.09 -589.42999
-63.419998 46.110001 -589.66998
-62.919998 46.139999 -590.03003
-62.41 46.169998 -590.40997
-61.91 46.189999 -590.72998
-61.41 46.220001 -591.12
-60.889999 46.240002 -591.40002
-60.380001 46.259998 -591.65002
-59.869999 46.290001 -592.01001
-59.360001 46.32 -592.35999
-58.880001 46.360001 -592.90002
-58.349998 46.380001 -593.12
-57.849998 46.41 -593.47998
-57.34 46.439999 -593.90002
-56.84 46.48 -594.35999
-56.34 46.509998 -594.79999
-55.84 46.549999 -595.25
-55.330002 46.580002 -595.64001
-54.830002 46.619999 -596.15002
-54.32 46.650002 -596.51001
-53.810001 46.68 -596.96002
-53.299999 46.720001 -597.40002
-52.830002 46.779999 -598.16998
-52.32 46.82 -598.67999
-51.939999 46.970001 -600.59003
-55.48 51.82 -661.65997
-55.34 52.259998 -667.27002
-54.740002 52.27 -667.37
-54.130001 52.279999 -667.45001
-53.540001 52.299999 -667.69
-52.950001 52.32 -667.95001
-52.349998 52.34 -668.19
-51.77 52.369999 -668.62
-51.18 52.389999 -668.83002
-50.610001 52.43 -669.42999
-50.02 52.459999 -669.81
-49.459999 52.52 -670.48999
-48.889999 52.57 -671.15997
-48.310001 52.610001 -671.65997
-47.700001 52.610001 -671.72998
-9.0799999 54.029999 -689.65002
-8.46 54.07 -690.09003
-7.8299999 54.09 -690.41998
-7.1900001 54.110001 -690.69
-6.5599999 54.150002 -691.09003
-5.9299998 54.169998 -691.34998
-5.3000002 54.200001 -691.76001
-4.6700001 54.220001 -692.08002
-4.04 54.279999 -692.81
-3.4000001 54.299999 -693.06
-2.76 54.310001 -693.09998
-2.1300001 54.310001 -693.15002
-1.49 54.299999 -693.08002
-0.85000002 54.310001 -693.17999
-0.22 54.330002 -693.45001
0.41999999 54.360001 -693.76001
1.0599999 54.380001 -694.07001
1.7 54.439999 -694.83002
2.3399999 54.52 -695.78998
-167.85001 44.459999 -575.38
-167.23 44.43 -575.06
-166.62 44.41 -574.78003
-166.06 44.400002 -574.67999
-165.52 44.389999 -574.59998
-164.99001 44.400002 -574.60999
-164.5 44.400002 -574.71002
-164.02 44.419998 -574.89001
-163.62 44.450001 -575.32001
-163.33 44.52 -576.12
-162.92999 44.549999 -576.57001
-162.45 44.57 -576.76001
-161.94 44.57 -576.82001
-161.42 44.57 -576.84998
-160.98 44.599998 -577.15997
-160.53999 44.619999 -577.47998
-160.16 44.66 -577.97998
-159.75 44.700001 -578.40002
-159.34 44.73 -578.83002
-158.92999 44.759998 -579.26001
-158.55 44.810001 -579.81
-158.17999 44.849998 -580.40997
-157.82001 44.900002 -581.01001
-157.42999 44.939999 -581.53998
-157.11 45 -582.31
-156.72 45.040001 -582.83002
-156.28999 45.080002 -583.21997
-155.82001 45.09 -583.46002
-155.31 45.099998 -583.54999
-154.77 45.099998 -583.5
-154.21001 45.09 -583.44
-153.64 45.080002 -583.29999
-153.10001 45.080002 -583.26001
-152.58 45.09 -583.34003
-152.08 45.09 -583.44
-151.57001 45.099998 -583.53998
-151.05 45.110001 -583.62
-150.57001 45.119999 -583.82001
-150.09 45.139999 -584.03998
-149.63 45.16 -584.29999
-149.14999 45.18 -584.53003
-148.67 45.200001 -584.72998
-148.14999 45.200001 -584.81
-147.66 45.220001 -584.98999
-147.17999 45.23 -585.19
-146.67 45.240002 -585.29999
-146.16 45.25 -585.40997
-145.64999 45.259998 -585.52002
-145.14999 45.27 -585.64001
-144.64999 45.279999 -585.78998
-144.17999 45.299999 -586.07001
-136.67 45.299999 -586.10999
-136.11 45.299999 -586.03998
-135.47 45.259998 -585.59998
-134.87 45.240002 -585.32001
-134.22 45.200001 -584.82001
-133.52 45.150002 -584.12
-132.88 45.110001 -583.66998
-132.17999 45.060001 -582.95001
-131.45 44.990002 -582.12
-130.8 44.950001 -581.60999
-130.14999 44.91 -581.09003
-129.53999 44.880001 -580.72998
-128.91 44.849998 -580.29999
-128.33 44.830002 -580.08002
-127.72 44.810001 -579.75
-127.16 44.790001 -579.60999
-126.55 44.77 -579.27002
-125.99 44.759998 -579.13
-125.4 44.740002 -578.87
-124.85 44.73 -578.78003
-124.29 44.720001 -578.62
-123.72 44.700001 -578.46002
-123.17 44.700001 -578.37
-122.62 44.689999 -578.28003
-122.06 44.68 -578.15002
-121.52 44.68 -578.10999
-120.96 44.66 -577.96002
-120.42 44.66 -577.92999
-119.87 44.650002 -577.82001
-119.34 44.650002 -577.78998
-118.78 44.639999 -577.65002
-118.24 44.639999 -577.63
-117.68 44.630001 -577.46997
-117.14 44.619999 -577.41998
-116.57 44.599998 -577.20001
-116.04 44.610001 -577.23999
-115.5 44.599998 -577.15997
-114.95 44.59 -577.07001
-114.4 44.580002 -576.95001
-113.86 44.580002 -576.89001
-113.32 44.57 -576.84003
-112.79 44.57 -576.83002
-112.24 44.57 -576.71997
-111.66 44.549999 -576.5
-110.99 44.490002 -575.73999
-110.32 44.43 -575.03998
-109.73 44.41 -574.67999
-109.17 44.389999 -574.54999
-108.65 44.400002 -574.57001
-108.12 44.389999 -574.53003
-107.57 44.380001 -574.41998
-107.03 44.380001 -574.37
-106.49 44.369999 -574.28998
-105.95 44.369999 -574.22998
-105.42 44.360001 -574.17999
-104.89 44.360001 -574.15997
-104.35 44.360001 -574.10999
-103.82 44.360001 -574.08002
-103.29 44.360001 -574.08002
-102.77 44.360001 -574.10999
-102.23 44.349998 -574.03003
-101.7 44.349998 -573.98999
-101.13 44.330002 -573.78003
-100.61 44.330002 -573.78003
-100.06 44.32 -573.69
-99.540001 44.32 -573.69
-99 44.32 -573.59998
-98.470001 44.32 -573.58002
-97.940002 44.32 -573.58002
-97.410004 44.310001 -573.56
-96.889999 44.32 -573.59003
-96.379997 44.32 -573.66998
-95.870003 44.330002 -573.75
-95.339996 44.330002 -573.73999
-94.830002 44.34 -573.84003
-94.32 44.34 -573.91998
-93.769997 44.330002 -573.81
-93.239998 44.330002 -573.78998
-92.730003 44.34 -573.87
-92.209999 44.34 -573.91998
-91.699997 44.349998 -573.97998
-91.18 44.349998 -574.04999
-90.650002 44.349998 -574.02002
-90.129997 44.349998 -574.04999
-89.629997 44.360001 -574.20001
-89.120003 44.369999 -574.34003
-88.610001 44.380001 -574.45001
-88.099998 44.389999 -574.57001
-87.610001 44.41 -574.78003
-87.099998 44.419998 -574.90002
-86.610001 44.43 -575.12
-86.120003 44.450001 -575.35999
-85.629997 44.470001 -575.60999
-85.120003 44.48 -575.77002
-84.620003 44.5 -575.96002
-84.129997 44.52 -576.21997
-83.629997 44.529999 -576.41998
-83.099998 44.529999 -576.37
-82.599998 44.549999 -576.59003
-82.099998 44.560001 -576.78003
-81.620003 44.59 -577.09998
-81.120003 44.599998 -577.28003
-80.629997 44.630001 -577.60999
-80.150002 44.650002 -577.91998
-79.639999 44.669998 -578.12
-79.160004 44.689999 -578.45001
-78.669998 44.720001 -578.76001
-78.160004 44.720001 -578.87
-77.669998 44.75 -579.15997
-77.18 44.77 -579.47998
-76.690002 44.799999 -579.82001
-76.199997 44.82 -580.07001
-75.699997 44.84 -580.32001
-75.18 44.84 -580.40002
-74.660004 44.849998 -580.52002
-74.160004 44.869999 -580.77002
-73.68 44.900002 -581.17999
-73.18 44.93 -581.47998
-72.690002 44.950001 -581.81
-72.209999 44.98 -582.20001
-71.730003 45.02 -582.65997
-71.25 45.049999 -583.03998
-70.760002 45.080002 -583.45001
-70.279999 45.119999 -583.89001
-69.809998 45.150002 -584.39001
-69.309998 45.18 -584.75
-68.849998 45.23 -585.33002
-68.370003 45.27 -585.85999
-67.900002 45.310001 -586.44
-67.43 45.360001 -586.96997
-66.959999 45.41 -587.59998
-66.470001 45.439999 -588.01001
-66.010002 45.490002 -588.71002
-65.519997 45.529999 -589.17999
-65.029999 45.560001 -589.59998
-64.519997 45.580002 -589.88
-63.98 45.59 -589.91998
-63.470001 45.599998 -590.14001
-62.950001 45.619999 -590.37
-62.450001 45.650002 -590.76001
-61.950001 45.68 -591.10999
-61.439999 45.700001 -591.42999
-60.939999 45.740002 -591.84003
-60.43 45.759998 -592.20001
-59.93 45.790001 -592.58002
-59.43 45.830002 -593.02002
-58.93 45.860001 -593.42999
-58.43 45.900002 -593.89001
-57.939999 45.939999 -594.40002
-57.43 45.970001 -594.82001
-56.93 46 -595.22998
-56.419998 46.029999 -595.64001
-55.93 46.080002 -596.26001
-55.43 46.119999 -596.71002
-54.939999 46.16 -597.29999
-54.439999 46.200001 -597.78998
-53.950001 46.259998 -598.5
-53.5 46.34 -599.54999
-57.759998 51.619999 -666.88
-57.189999 51.66 -667.40002
-56.580002 51.66 -667.34998
-55.970001 51.66 -667.44
-55.369999 51.68 -667.60999
-54.779999 51.700001 -667.90997
-54.189999 51.720001 -668.14001
-53.599998 51.740002 -668.42999
-53 51.759998 -668.63
-52.419998 51.790001 -669.09003
-51.84 51.82 -669.48999
-51.25 51.849998 -669.83002
-50.669998 51.889999 -670.29999
-50.099998 51.93 -670.84003
-49.529999 51.98 -671.45001
-48.939999 52.009998 -671.90002
-48.360001 52.049999 -672.40997
-47.720001 52.02 -671.98999
-8.4499998 53.400002 -689.71002
-7.8299999 53.459999 -690.42999
-7.1999998 53.490002 -690.84998
-6.5700002 53.529999 -691.28998
-5.9299998 53.549999 -691.56
-5.3000002 53.59 -692.03998
-4.6700001 53.610001 -692.40002
-4.04 53.669998 -693.12
-3.4000001 53.689999 -693.40002
-2.76 53.68 -693.28003
-2.1300001 53.68 -693.28003
-1.49 53.689999 -693.34998
-0.85000002 53.689999 -693.40997
-0.22 53.700001 -693.5
0.41999999 53.73 -693.90002
1.0599999 53.77 -694.39001
1.7 53.84 -695.27002
2.3399999 53.919998 -696.25
-167.85001 43.93 -575.37
-167.21001 43.900002 -574.97998
-166.58 43.869999 -574.64001
-166.02 43.860001 -574.53003
-165.48 43.860001 -574.46997
-164.94 43.849998 -574.41998
-164.46001 43.869999 -574.59003
-164.00999 43.889999 -574.84003
-163.61 43.919998 -575.29999
-163.3 43.98 -576.04999
-162.94 44.029999 -576.59998
-162.44 44.040001 -576.72998
-161.91 44.029999 -576.69
-161.39999 44.040001 -576.76001
-160.94 44.060001 -577.02002
-160.49001 44.080002 -577.29999
-160.11 44.119999 -577.79999
-159.72 44.16 -578.28998
-159.31 44.189999 -578.72998
-158.88 44.220001 -579.09003
-158.5 44.259998 -579.63
-158.14 44.310001 -580.26001
-157.8 44.360001 -580.92999
-157.42 44.41 -581.5
-157.08 44.459999 -582.20001
-156.67999 44.5 -582.66998
-156.28 44.540001 -583.16998
-155.81 44.560001 -583.41998
-155.3 44.560001 -583.48999
-154.77 44.560001 -583.5
-154.19 44.549999 -583.35999
-153.64 44.549999 -583.29999
-153.11 44.549999 -583.28998
-152.58 44.549999 -583.32001
-152.07001 44.560001 -583.40002
-151.56 44.560001 -583.5
-151.03 44.57 -583.52002
-150.53 44.57 -583.64001
-150.03 44.59 -583.78003
-149.57001 44.610001 -584.06
-149.08 44.619999 -584.26001
-148.59 44.639999 -584.41998
-148.07001 44.639999 -584.48999
-147.53999 44.639999 -584.51001
-147.03 44.650002 -584.59998
-146.50999 44.650002 -584.65997
-146.02 44.669998 -584.84003
-145.50999 44.68 -584.94
-145 44.68 -585.04999
-144.48 44.689999 -585.13
-143.97 44.700001 -585.21002
-143.45 44.709999 -585.31
-142.95 44.720001 -585.46002
-142.49001 44.740002 -585.76001
-142.03 44.759998 -586.06
-141.5 44.77 -586.08002
-140.95 44.759998 -586.03998
-139.42999 44.790001 -586.40997
-138.86 44.779999 -586.31
-138.23 44.75 -585.90997
-137.63 44.73 -585.62
-137.05 44.720001 -585.46002
-136.47 44.700001 -585.27002
-135.92 44.700001 -585.20001
-135.34 44.68 -585.03003
-134.7 44.650002 -584.59998
-134.03999 44.610001 -584.07001
-133.44 44.59 -583.78998
-132.75999 44.540001 -583.14001
-132.05 44.48 -582.39001
-131.37 44.43 -581.73999
-130.77 44.41 -581.45001
-130.11 44.360001 -580.90002
-129.50999 44.34 -580.60999
-128.89 44.310001 -580.23999
-128.3 44.290001 -579.96002
-127.71 44.27 -579.71002
-127.14 44.259998 -579.51001
-126.55 44.240002 -579.25
-125.98 44.220001 -579.07001
-125.39 44.200001 -578.82001
-124.85 44.200001 -578.76001
-124.27 44.18 -578.57001
-123.71 44.169998 -578.40002
-123.13 44.150002 -578.20001
-122.6 44.150002 -578.16998
-122.06 44.150002 -578.15997
-121.51 44.139999 -578.03998
-120.96 44.130001 -577.95001
-120.41 44.130001 -577.87
-119.86 44.119999 -577.77002
-119.32 44.119999 -577.71997
-118.78 44.110001 -577.65997
-118.22 44.099998 -577.52002
-117.66 44.09 -577.34998
-117.11 44.080002 -577.27002
-116.57 44.080002 -577.23999
-116.03 44.07 -577.19
-115.48 44.060001 -577.07001
-114.93 44.060001 -576.96997
-114.4 44.049999 -576.94
-113.87 44.060001 -576.97998
-113.31 44.040001 -576.82001
-112.76 44.040001 -576.71002
-112.18 44.02 -576.45001
-111.61 44 -576.21997
-111.03 43.98 -575.96997
-110.43 43.950001 -575.59003
-109.75 43.889999 -574.82001
-109.16 43.860001 -574.47998
-108.61 43.849998 -574.34003
-108.07 43.849998 -574.29999
-107.55 43.849998 -574.29999
-107.01 43.84 -574.22998
-106.46 43.84 -574.15002
-105.93 43.830002 -574.13
-105.4 43.830002 -574.09003
-104.86 43.82 -574
-104.32 43.82 -573.96002
-103.79 43.82 -573.90997
-103.27 43.82 -573.95001
-102.72 43.810001 -573.84998
-102.2 43.810001 -573.84998
-101.66 43.799999 -573.76001
-101.11 43.799999 -573.66998
-100.58 43.790001 -573.59998
-100.05 43.790001 -573.63
-99.519997 43.790001 -573.59998
-98.989998 43.790001 -573.56
-98.459999 43.790001 -573.54999
-97.940002 43.790001 -573.58002
-97.410004 43.790001 -573.57001
-96.879997 43.779999 -573.52002
-96.370003 43.790001 -573.60999
