# .PCD v0.7 - Point Cloud Data file format
VERSION 0.7
FIELDS x y z
SIZE 4 4 4
TYPE F F F
COUNT 1 1 1
WIDTH 1620
HEIGHT 1
VIEWPOINT 0 0 0 1 0 0 0
POINTS 1620
DATA ascii
18.57 -6.8499999 -639.34998
19.16 -6.8600001 -639.48999
19.75 -6.8600001 -639.63
20.34 -6.8600001 -639.71002
20.93 -6.8600001 -639.82001
21.52 -6.8600001 -639.95001
22.110001 -6.8600001 -640.10999
22.709999 -6.8600001 -640.28003
23.299999 -6.8699999 -640.40997
23.889999 -6.8699999 -640.48999
24.469999 -6.8600001 -640.38
43.59 -7.0100002 -653.73999
44.240002 -7.02 -654.57001
44.889999 -7.0300002 -655.25
45.560001 -7.04 -656.17999
46.23 -7.0500002 -657.12
46.880001 -7.0599999 -657.83002
47.549999 -7.0599999 -658.63
48.200001 -7.0700002 -659.25
48.849998 -7.0799999 -659.90002
49.529999 -7.0900002 -660.83002
50.200001 -7.0999999 -661.72998
50.869999 -7.1100001 -662.46002
51.529999 -7.1100001 -663.12
52.189999 -7.1199999 -663.82001
52.91 -7.1399999 -665.15997
53.57 -7.1399999 -665.78998
54.220001 -7.1500001 -666.20001
54.889999 -7.1599998 -666.98999
-167.33 -6.71 -577.15997
-166.8 -6.71 -577.14001
-166.14999 -6.71 -576.73999
-165.45 -6.6999998 -576.15997
-164.86 -6.6999998 -575.95001
-164.36 -6.6999998 -576.02002
-163.86 -6.6999998 -576.10999
-163.39 -6.6999998 -576.32001
-162.91 -6.6999998 -576.5
-162.46001 -6.71 -576.76001
-162.07001 -6.71 -577.22998
-161.67999 -6.7199998 -577.72998
-161.27 -6.7199998 -578.15002
-160.77 -6.7199998 -578.26001
-160.27 -6.73 -578.35999
-159.78999 -6.73 -578.52002
-159.32001 -6.73 -578.75
-158.91 -6.73 -579.15997
-158.48 -6.7399998 -579.53998
-158 -6.7399998 -579.72998
-157.52 -6.7399998 -579.90997
-157.08 -6.75 -580.25
-156.77 -6.7600002 -581.06
-156.35001 -6.7600002 -581.45001
-155.83 -6.7600002 -581.52002
-155.33 -6.7600002 -581.63
-154.82001 -6.77 -581.72998
-154.36 -6.77 -581.98999
-153.91 -6.77 -582.28998
-153.5 -6.7800002 -582.76001
-153.12 -6.7800002 -583.32001
-153.46001 -6.8200002 -586.62
-153.39 -6.8400002 -588.40002
-152.8 -6.8400002 -588.19
-152.27 -6.8400002 -588.22998
-151.75999 -6.8400002 -588.34003
-151.25999 -6.8499999 -588.5
-150.78999 -6.8499999 -588.77002
-150.34 -6.8499999 -589.12
-149.94 -6.8600001 -589.65002
-149.67999 -6.8699999 -590.73999
-150.21001 -6.9200001 -594.90997
-149.78 -6.9299998 -595.39001
-149.35001 -6.9299998 -595.84003
-149.16 -6.9499998 -597.25
-149.31 -6.98 -599.98999
-148.89999 -6.9899998 -600.56
-148.39999 -6.9899998 -600.77002
-147.87 -6.9899998 -600.83002
-147.48 -7 -601.5
-147.35001 -7.02 -603.19
-147.27 -7.04 -605.10999
-147.00999 -7.0599999 -606.29999
-146.64999 -7.0599999 -607.10999
-146.10001 -7.0700002 -607.12
-145.5 -7.0599999 -606.96997
-144.7 -7.0500002 -605.92999
-143.88 -7.04 -604.87
-144.67 -7.0999999 -610.42999
-143.81 -7.0900002 -609.19
-142.48 -7.0500002 -605.96997
-141.03 -7.0100002 -602.19
-140.25 -7 -601.26001
-139.74001 -7 -601.44
-139.24001 -7 -601.65002
-138.74001 -7 -601.87
-138.14999 -7 -601.69
-137.28 -6.98 -600.34003
-136.48 -6.9699998 -599.23999
-135.91 -6.9699998 -599.16998
-135.36 -6.9699998 -599.15002
-134.77 -6.9699998 -598.97998
-134.16 -6.9699998 -598.71002
-133.59 -6.96 -598.60999
-133.06 -6.9699998 -598.72998
-132.55 -6.9699998 -598.90002
-132.05 -6.9699998 -599.09998
-131.53999 -6.9699998 -599.29999
-131.03999 -6.98 -599.53003
-130.53999 -6.98 -599.72998
-130.03 -6.98 -599.94
-129.53 -6.98 -600.13
-128.98 -6.98 -600.14001
-128.28 -6.9699998 -599.46002
-127.62 -6.9699998 -598.96997
-127.09 -6.9699998 -599.06
-126.56 -6.9699998 -599.15002
-126.08 -6.9699998 -599.47998
-125.6 -6.98 -599.78998
-125.12 -6.98 -600.13
-124.56 -6.98 -600.07001
-123.91 -6.98 -599.59003
-123.28 -6.9699998 -599.26001
-121.93 -6.9299998 -595.37
-120.45 -6.8699999 -590.88
-119.67 -6.8600001 -589.72998
-118.98 -6.8499999 -589
-118.27 -6.8400002 -588.15997
-117.53 -6.8299999 -587.17999
-116.83 -6.8200002 -586.40002
-116.16 -6.8099999 -585.73999
-115.5 -6.8000002 -585.12
-114.9 -6.8000002 -584.78003
-114.29 -6.8000002 -584.41998
-113.71 -6.79 -584.17999
-113.14 -6.79 -584.01001
-112.56 -6.79 -583.81
-112.02 -6.79 -583.77002
-111.48 -6.79 -583.75
-110.9 -6.79 -583.51001
-110.33 -6.7800002 -583.33002
-109.78 -6.7800002 -583.26001
-109.22 -6.7800002 -583.13
-108.65 -6.7800002 -582.95001
-108.09 -6.7800002 -582.81
-107.51 -6.77 -582.59003
-106.96 -6.77 -582.47998
-106.4 -6.77 -582.32001
-105.84 -6.77 -582.21002
-105.28 -6.77 -582.04999
-104.72 -6.77 -581.94
-104.17 -6.77 -581.81
-103.61 -6.7600002 -581.66998
-103.05 -6.7600002 -581.54999
-102.48 -6.7600002 -581.34998
-101.94 -6.7600002 -581.28998
-101.38 -6.7600002 -581.13
-100.82 -6.7600002 -581.02002
-100.27 -6.75 -580.88
-99.720001 -6.75 -580.79999
-99.160004 -6.75 -580.65002
-98.599998 -6.75 -580.48999
-98.040001 -6.75 -580.34003
-97.510002 -6.75 -580.34998
-96.959999 -6.75 -580.25
-96.419998 -6.75 -580.15997
-95.889999 -6.75 -580.16998
-95.360001 -6.75 -580.21002
-94.809998 -6.7399998 -580.09998
-94.300003 -6.75 -580.22998
-93.769997 -6.75 -580.25
-93.230003 -6.75 -580.17999
-92.709999 -6.75 -580.27002
-92.18 -6.75 -580.29999
-91.639999 -6.75 -580.23999
-91.120003 -6.75 -580.28998
-90.57 -6.75 -580.21997
-90.010002 -6.7399998 -580.04999
-89.459999 -6.7399998 -579.89001
-88.919998 -6.7399998 -579.85999
-88.400002 -6.7399998 -579.95001
-87.870003 -6.7399998 -579.96002
-87.349998 -6.7399998 -580
-86.839996 -6.7399998 -580.19
-86.32 -6.75 -580.27002
-85.790001 -6.75 -580.27002
-85.290001 -6.75 -580.47998
-84.779999 -6.75 -580.63
-84.269997 -6.75 -580.79999
-83.75 -6.75 -580.90002
-83.25 -6.7600002 -581.09003
-82.739998 -6.7600002 -581.27002
-82.239998 -6.7600002 -581.46997
-81.730003 -6.7600002 -581.62
-81.220001 -6.7600002 -581.82001
-80.720001 -6.77 -582.03003
-80.209999 -6.77 -582.23999
-79.699997 -6.77 -582.40997
-79.190002 -6.77 -582.57001
-78.68 -6.77 -582.71997
-78.160004 -6.7800002 -582.83002
-77.650002 -6.7800002 -583.06
-77.160004 -6.7800002 -583.34998
-76.650002 -6.7800002 -583.53998
-76.139999 -6.79 -583.72998
-75.620003 -6.79 -583.83002
-75.089996 -6.79 -583.91998
-74.559998 -6.79 -583.96997
-74.040001 -6.79 -584.04999
-73.529999 -6.79 -584.28998
-73.019997 -6.79 -584.46002
-72.529999 -6.8000002 -584.84998
-72.019997 -6.8000002 -584.98999
-71.489998 -6.8000002 -585.09003
-70.970001 -6.8000002 -585.23999
-70.449997 -6.8000002 -585.33002
-69.910004 -6.8000002 -585.31
-69.360001 -6.8000002 -585.23999
-68.830002 -6.8000002 -585.29999
-68.300003 -6.8000002 -585.31
-67.769997 -6.8000002 -585.34998
-67.239998 -6.8099999 -585.42999
-66.720001 -6.8099999 -585.57001
-66.199997 -6.8099999 -585.69
-65.68 -6.8099999 -585.85999
-65.160004 -6.8099999 -586.02002
-64.650002 -6.8099999 -586.22998
-64.129997 -6.8200002 -586.46997
-63.619999 -6.8200002 -586.66998
-63.099998 -6.8200002 -586.83002
-62.59 -6.8299999 -587.10999
-62.080002 -6.8299999 -587.34003
-61.560001 -6.8299999 -587.53003
-61.040001 -6.8299999 -587.75
-60.529999 -6.8400002 -587.97998
-60.009998 -6.8400002 -588.15997
-59.490002 -6.8400002 -588.34003
-58.959999 -6.8400002 -588.46997
-58.439999 -6.8400002 -588.65997
-57.919998 -6.8499999 -588.87
-57.400002 -6.8499999 -589.06
-56.869999 -6.8499999 -589.16998
-56.349998 -6.8499999 -589.33002
-55.830002 -6.8499999 -589.53003
-55.299999 -6.8600001 -589.70001
-54.77 -6.8600001 -589.79999
-54.25 -6.8600001 -590.03003
-53.720001 -6.8600001 -590.15997
-53.200001 -6.8600001 -590.33002
-52.669998 -6.8600001 -590.47998
-52.139999 -6.8699999 -590.59003
-51.599998 -6.8699999 -590.66998
-51.080002 -6.8699999 -590.85999
-50.549999 -6.8699999 -591.01001
-50.02 -6.8699999 -591.10999
-49.490002 -6.8699999 -591.21997
-48.950001 -6.8699999 -591.34003
-48.419998 -6.8800001 -591.47998
-47.889999 -6.8800001 -591.56
-47.349998 -6.8800001 -591.63
-46.82 -6.8800001 -591.78998
-46.279999 -6.8800001 -591.84998
-45.75 -6.8800001 -591.94
-45.220001 -6.8800001 -592.09003
-44.68 -6.8800001 -592.19
-44.150002 -6.8899999 -592.29999
-43.610001 -6.8899999 -592.38
-43.07 -6.8899999 -592.40002
-42.529999 -6.8899999 -592.44
-41.990002 -6.8899999 -592.5
-41.450001 -6.8899999 -592.53998
-40.919998 -6.8899999 -592.65002
-40.369999 -6.8899999 -592.59998
-39.830002 -6.8899999 -592.69
-39.290001 -6.8899999 -592.72998
-38.75 -6.8899999 -592.78003
-38.220001 -6.8899999 -592.89001
-37.68 -6.8899999 -592.96002
-37.130001 -6.8899999 -592.95001
-36.599998 -6.8899999 -593.03998
-36.049999 -6.8899999 -593.04999
-35.509998 -6.8899999 -593.08002
-34.970001 -6.8899999 -593.10999
-34.43 -6.8899999 -593.12
-33.880001 -6.8899999 -593.03003
-33.34 -6.8899999 -593.10999
-32.790001 -6.8899999 -593
-32.240002 -6.8899999 -592.94
-31.700001 -6.8899999 -592.90002
-31.15 -6.8899999 -592.90997
-30.610001 -6.8899999 -592.87
-30.059999 -6.8899999 -592.83002
-29.51 -6.8899999 -592.65002
-28.959999 -6.8899999 -592.45001
-28.4 -6.8800001 -592.21002
-27.85 -6.8800001 -592.07001
-27.299999 -6.8800001 -591.88
-26.75 -6.8800001 -591.59998
-26.190001 -6.8699999 -591.17999
-25.639999 -6.8699999 -591
-25.08 -6.8699999 -590.72998
-24.530001 -6.8600001 -590.54999
-23.99 -6.8600001 -590.40997
-23.440001 -6.8600001 -590.34003
-22.9 -6.8600001 -590.26001
-22.360001 -6.8600001 -590.28003
-21.82 -6.8600001 -590.31
-21.280001 -6.8600001 -590.35999
-20.74 -6.8600001 -590.44
-20.209999 -6.8699999 -590.62
-19.67 -6.8699999 -590.88
-19.139999 -6.8699999 -591.07001
-18.610001 -6.8699999 -591.42999
-18.07 -6.8800001 -591.57001
-17.530001 -6.8800001 -591.65002
-16.99 -6.8800001 -591.78003
-16.450001 -6.8800001 -591.72998
-15.91 -6.8800001 -591.71002
-15.37 -6.8800001 -591.81
-14.83 -6.8800001 -591.90997
-14.29 -6.8800001 -592.06
-13.75 -6.8800001 -592.21002
-13.21 -6.8800001 -592.27002
-12.67 -6.8800001 -592.31
-12.12 -6.8800001 -592.26001
-11.58 -6.8800001 -592.28998
-11.04 -6.8899999 -592.42999
-10.5 -6.8899999 -592.54999
-9.96 -6.8899999 -592.78998
-9.4200001 -6.8899999 -593.07001
-8.8900003 -6.9000001 -593.53998
-8.3500004 -6.9000001 -593.95001
-7.8099999 -6.9099998 -594.66998
-7.2800002 -6.9200001 -595.29999
-6.7399998 -6.9299998 -595.94
-6.1999998 -6.9299998 -596.08002
-5.6500001 -6.9299998 -595.84998
-5.0999999 -6.9200001 -595.65002
-4.5500002 -6.9200001 -595.52002
-4.0100002 -6.9200001 -595.46997
-3.46 -6.9200001 -595.31
-2.9100001 -6.9200001 -595.34003
-2.3699999 -6.9200001 -595.39001
-1.8200001 -6.9200001 -595.40002
-1.28 -6.9200001 -595.47998
-0.73000002 -6.9200001 -595.62
-0.19 -6.9200001 -595.60999
0.36000001 -6.9200001 -595.64001
0.91000003 -6.9200001 -595.66998
1.45 -6.9299998 -595.75
2 -6.9299998 -595.92999
2.54 -6.9299998 -596.23999
3.8800001 -7.3899999 -635.07001
4.48 -7.4299998 -638.23999
5.0700002 -7.4299998 -638.20001
5.6500001 -7.4299998 -638.23999
6.2399998 -7.4299998 -638.20001
6.8299999 -7.4299998 -638.31
7.4099998 -7.4299998 -638.29999
8 -7.4299998 -638.21002
8.5799999 -7.4299998 -638.16998
9.1700001 -7.4299998 -638.19
9.75 -7.4299998 -638.19
10.34 -7.4299998 -638.29999
10.93 -7.4299998 -638.37
11.51 -7.4299998 -638.39001
12.1 -7.4299998 -638.37
12.68 -7.4299998 -638.45001
13.27 -7.4299998 -638.54999
13.86 -7.4299998 -638.65997
14.45 -7.4299998 -638.75
15.03 -7.4299998 -638.73999
15.62 -7.4299998 -638.91998
16.209999 -7.4299998 -638.85999
16.799999 -7.4400001 -639
17.389999 -7.4400001 -639.19
17.98 -7.4400001 -639.27002
18.57 -7.4400001 -639.35999
19.15 -7.4400001 -639.40997
19.74 -7.4400001 -639.52002
20.33 -7.4400001 -639.64001
20.92 -7.4400001 -639.72998
21.52 -7.4499998 -639.91998
22.110001 -7.4499998 -639.96997
22.700001 -7.4499998 -640.12
23.290001 -7.4499998 -640.28003
23.879999 -7.4499998 -640.29999
24.459999 -7.4499998 -640.21002
43.57 -7.6100001 -653.41998
44.209999 -7.6100001 -654.08002
44.860001 -7.6199999 -654.82001
45.540001 -7.6399999 -655.96002
46.209999 -7.6500001 -656.85999
46.860001 -7.6599998 -657.56
47.52 -7.6700001 -658.34998
48.189999 -7.6700001 -659.13
48.849998 -7.6799998 -659.90997
49.52 -7.6900001 -660.69
50.169998 -7.6999998 -661.34998
50.849998 -7.71 -662.21002
51.490002 -7.7199998 -662.65002
52.150002 -7.7199998 -663.29999
52.84 -7.7399998 -664.28003
53.48 -7.7399998 -664.66998
54.119999 -7.7399998 -664.98999
54.810001 -7.75 -665.94
-167.36 -7.2399998 -577.27002
-166.84 -7.2399998 -577.29999
-166.22 -7.2399998 -576.98999
-165.56 -7.23 -576.51001
-164.89 -7.23 -576.03998
-164.36 -7.23 -576.03998
-163.89 -7.23 -576.21002
-163.41 -7.23 -576.39001
-162.92999 -7.23 -576.57001
-162.49001 -7.2399998 -576.87
-162.14 -7.2399998 -577.47998
-161.75 -7.25 -577.97998
-161.33 -7.2600002 -578.35999
-160.82001 -7.2600002 -578.44
-160.31 -7.2600002 -578.48999
-159.83 -7.2600002 -578.69
-159.35001 -7.2600002 -578.84003
-158.89 -7.2600002 -579.12
-158.45 -7.27 -579.42999
-157.98 -7.27 -579.65997
-157.53 -7.2800002 -579.95001
-157.09 -7.2800002 -580.28998
-156.84 -7.29 -581.31
-156.34 -7.29 -581.40997
-155.83 -7.3000002 -581.51001
-155.32001 -7.3000002 -581.58002
-154.82001 -7.3000002 -581.71002
-154.35001 -7.3000002 -581.96002
-153.92 -7.3099999 -582.31
-153.48 -7.3099999 -582.65997
-153.56 -7.3400002 -584.96997
-153.91 -7.3800001 -588.31
-153.38 -7.3800001 -588.35999
-152.82001 -7.3800001 -588.26001
-152.28999 -7.3800001 -588.32001
-151.78 -7.3800001 -588.40002
-151.28999 -7.3899999 -588.59003
-150.8 -7.3899999 -588.79999
-150.37 -7.3899999 -589.23999
-149.96001 -7.4000001 -589.71002
-149.89 -7.4200001 -591.53998
-150.32001 -7.4699998 -595.33002
-149.85001 -7.48 -595.65997
-149.46001 -7.48 -596.26001
-149.14999 -7.5 -597.19
-149.41 -7.54 -600.37
-149 -7.54 -600.94
-148.56 -7.5500002 -601.40997
-148.60001 -7.5799999 -603.76001
-148.58 -7.6100001 -605.89001
-148.32001 -7.6199999 -607.09003
-147.91 -7.6300001 -607.67999
-147.42 -7.6300001 -607.97998
-146.88 -7.6300001 -608.06
-146.34 -7.6300001 -608.10999
-148.23 -7.79 -620.53003
-149.7 -7.9000001 -628.97998
-149.42999 -7.9200001 -630.26001
-148.89999 -7.9200001 -630.46002
-148.08 -7.9099998 -629.44
-145.47 -7.8000002 -620.90002
-140.83 -7.5799999 -603.70001
-139.72 -7.5500002 -601.34003
-139.24001 -7.5500002 -601.64001
-138.75 -7.5599999 -601.89001
-138.25999 -7.5599999 -602.19
-137.72 -7.5599999 -602.22998
-136.89 -7.54 -601.01001
-136.05 -7.5300002 -599.77002
-135.42 -7.52 -599.40997
-134.91 -7.5300002 -599.58002
-134.36 -7.5300002 -599.60999
-133.75999 -7.52 -599.39001
-133.14999 -7.52 -599.09003
-132.58 -7.52 -599.03003
-132.06 -7.52 -599.14001
-131.55 -7.52 -599.34998
-131.07001 -7.5300002 -599.65002
-130.56 -7.5300002 -599.84003
-130.06 -7.5300002 -600.06
-129.53999 -7.5300002 -600.21997
-129.03999 -7.54 -600.41998
-128.49001 -7.54 -600.41998
-127.76 -7.5300002 -599.60999
-127.17 -7.52 -599.41998
-126.65 -7.5300002 -599.57001
-126.12 -7.5300002 -599.65002
-125.64 -7.5300002 -599.98999
-125.15 -7.5300002 -600.27002
-124.67 -7.54 -600.62
-124.1 -7.54 -600.53998
-123.46 -7.5300002 -600.09003
-122.83 -7.5300002 -599.70001
-121.67 -7.4899998 -596.77002
-119.97 -7.4200001 -591.20001
-119.22 -7.4099998 -590.19
-118.51 -7.4000001 -589.35999
-117.78 -7.3800001 -588.41998
-117.12 -7.3800001 -587.84003
-116.43 -7.3699999 -587.07001
-115.75 -7.3600001 -586.37
-115.11 -7.3499999 -585.87
-114.49 -7.3400002 -585.42999
-113.87 -7.3400002 -584.98999
-113.28 -7.3400002 -584.75
-112.71 -7.3299999 -584.58002
-112.12 -7.3299999 -584.28998
-111.58 -7.3299999 -584.27002
-111 -7.3299999 -584.03003
-110.44 -7.3299999 -583.94
-109.87 -7.3200002 -583.76001
-109.32 -7.3200002 -583.64001
-108.76 -7.3200002 -583.52002
-108.18 -7.3200002 -583.31
-107.62 -7.3200002 -583.15002
-107.05 -7.3099999 -582.95001
-106.47 -7.3099999 -582.71002
-105.91 -7.3099999 -582.59003
-105.35 -7.3099999 -582.42999
-104.78 -7.3000002 -582.25
-104.21 -7.3000002 -582.07001
-103.66 -7.3000002 -581.95001
-103.1 -7.3000002 -581.83002
-102.54 -7.3000002 -581.65002
-101.99 -7.29 -581.56
-101.43 -7.29 -581.40997
-100.88 -7.29 -581.32001
-100.32 -7.29 -581.20001
-99.760002 -7.29 -581.04999
-99.209999 -7.29 -580.94
-98.650002 -7.2800002 -580.77002
-98.099998 -7.2800002 -580.65997
-97.57 -7.2800002 -580.67999
-97.010002 -7.2800002 -580.51001
-96.459999 -7.2800002 -580.45001
-95.919998 -7.2800002 -580.37
-95.389999 -7.2800002 -580.39001
-94.849998 -7.2800002 -580.35999
-94.32 -7.2800002 -580.38
-93.790001 -7.2800002 -580.35999
-93.25 -7.2800002 -580.34003
-92.739998 -7.2800002 -580.46997
-92.220001 -7.2800002 -580.51001
-91.68 -7.2800002 -580.52002
-91.169998 -7.2800002 -580.59998
-90.650002 -7.2800002 -580.70001
-90.120003 -7.2800002 -580.75
-89.580002 -7.2800002 -580.69
-89.050003 -7.2800002 -580.70001
-88.519997 -7.2800002 -580.71002
-87.980003 -7.2800002 -580.64001
-87.449997 -7.2800002 -580.70001
-86.919998 -7.2800002 -580.71997
-86.379997 -7.2800002 -580.67999
-85.870003 -7.2800002 -580.79999
-85.360001 -7.29 -580.94
-84.830002 -7.29 -581
-84.330002 -7.29 -581.19
-83.82 -7.29 -581.33002
-83.309998 -7.29 -581.47998
-82.800003 -7.29 -581.63
-82.279999 -7.3000002 -581.77002
-81.790001 -7.3000002 -582.03998
-81.269997 -7.3000002 -582.14001
-80.739998 -7.3000002 -582.21002
-80.230003 -7.3000002 -582.35999
-79.720001 -7.3099999 -582.52002
-79.209999 -7.3099999 -582.69
-78.690002 -7.3099999 -582.81
-78.18 -7.3099999 -582.98999
-77.669998 -7.3099999 -583.19
-77.160004 -7.3200002 -583.34003
-76.650002 -7.3200002 -583.51001
-76.139999 -7.3200002 -583.75
-75.629997 -7.3200002 -583.88
-75.099998 -7.3200002 -583.92999
-74.57 -7.3200002 -583.96997
-74.07 -7.3299999 -584.27002
-73.559998 -7.3299999 -584.45001
-73.050003 -7.3299999 -584.71002
-72.529999 -7.3299999 -584.82001
-72.019997 -7.3400002 -585.02002
-71.480003 -7.3400002 -585.01001
-70.949997 -7.3400002 -585.03003
-70.410004 -7.3400002 -585.02002
-69.870003 -7.3400002 -584.97998
-69.339996 -7.3400002 -585.03003
-68.809998 -7.3400002 -585.06
-68.279999 -7.3400002 -585.15997
-67.760002 -7.3400002 -585.31
-67.239998 -7.3400002 -585.41998
-66.720001 -7.3400002 -585.58002
-66.199997 -7.3499999 -585.70001
-65.68 -7.3499999 -585.88
-65.150002 -7.3499999 -585.96997
-64.639999 -7.3499999 -586.21002
-64.120003 -7.3499999 -586.37
-63.610001 -7.3600001 -586.59998
-63.09 -7.3600001 -586.76001
-62.580002 -7.3600001 -587.01001
-62.07 -7.3600001 -587.22998
-61.549999 -7.3699999 -587.42999
-61.029999 -7.3699999 -587.60999
-60.52 -7.3699999 -587.91998
-59.990002 -7.3699999 -588.02002
-59.470001 -7.3800001 -588.17999
-58.959999 -7.3800001 -588.44
-58.43 -7.3800001 -588.54999
-57.91 -7.3800001 -588.73999
-57.389999 -7.3899999 -588.91998
-56.860001 -7.3899999 -589.07001
-56.34 -7.3899999 -589.26001
-55.82 -7.3899999 -589.44
-55.290001 -7.3899999 -589.59003
-54.77 -7.4000001 -589.76001
-54.240002 -7.4000001 -589.94
-53.720001 -7.4000001 -590.09003
-53.189999 -7.4000001 -590.20001
-52.66 -7.4000001 -590.33002
-52.130001 -7.4099998 -590.46002
-51.599998 -7.4099998 -590.62
-51.07 -7.4099998 -590.75
-50.540001 -7.4099998 -590.91998
-50.009998 -7.4099998 -590.97998
-49.48 -7.4099998 -591.10999
-48.950001 -7.4200001 -591.28998
-48.419998 -7.4200001 -591.40002
-47.880001 -7.4200001 -591.47998
-47.34 -7.4200001 -591.53998
-46.82 -7.4200001 -591.72998
-46.279999 -7.4200001 -591.78998
-45.75 -7.4200001 -591.89001
-45.209999 -7.4200001 -591.94
-44.68 -7.4299998 -592.09003
-44.139999 -7.4299998 -592.14001
-43.599998 -7.4299998 -592.26001
-43.060001 -7.4299998 -592.28998
-42.52 -7.4299998 -592.35999
-41.990002 -7.4299998 -592.40997
-41.450001 -7.4299998 -592.51001
-40.91 -7.4299998 -592.56
-40.369999 -7.4299998 -592.60999
-39.830002 -7.4299998 -592.63
-39.290001 -7.4299998 -592.71997
-38.75 -7.4299998 -592.77002
-38.209999 -7.4299998 -592.82001
-37.669998 -7.4400001 -592.88
-37.130001 -7.4400001 -592.88
-36.59 -7.4400001 -592.92999
-36.049999 -7.4400001 -593.01001
-35.509998 -7.4400001 -593.03003
-34.970001 -7.4400001 -593.10999
-34.43 -7.4400001 -593.12
-33.880001 -7.4400001 -593.01001
-33.330002 -7.4400001 -592.96002
-32.779999 -7.4299998 -592.84003
-32.23 -7.4299998 -592.81
-31.690001 -7.4299998 -592.79999
-31.139999 -7.4299998 -592.73999
-30.6 -7.4299998 -592.72998
-30.049999 -7.4299998 -592.63
-29.5 -7.4299998 -592.42999
-28.950001 -7.4299998 -592.32001
-28.389999 -7.4200001 -592.06
-27.85 -7.4200001 -591.96997
-27.290001 -7.4200001 -591.59003
-26.73 -7.4200001 -591.32001
-26.18 -7.4099998 -591.04999
-25.629999 -7.4099998 -590.85999
-25.08 -7.4099998 -590.60999
-24.530001 -7.4000001 -590.44
-23.98 -7.4000001 -590.27002
-23.440001 -7.4000001 -590.17999
-22.889999 -7.4000001 -590.14001
-22.35 -7.4000001 -590.16998
-21.809999 -7.4000001 -590.13
-21.27 -7.4000001 -590.16998
-20.74 -7.4000001 -590.27002
-20.200001 -7.4000001 -590.40002
-19.67 -7.4099998 -590.69
-19.139999 -7.4099998 -590.95001
-18.6 -7.4099998 -591.22998
-18.07 -7.4200001 -591.38
-17.530001 -7.4200001 -591.5
-16.99 -7.4200001 -591.59003
-16.440001 -7.4200001 -591.45001
-15.9 -7.4200001 -591.40997
-15.36 -7.4200001 -591.42999
-14.82 -7.4200001 -591.60999
-14.29 -7.4200001 -591.90997
-13.75 -7.4200001 -592.02002
-13.21 -7.4299998 -592.10999
-12.66 -7.4299998 -592.16998
-12.12 -7.4299998 -592.13
-11.58 -7.4299998 -592.15002
-11.04 -7.4299998 -592.21002
-10.5 -7.4299998 -592.34998
-9.96 -7.4299998 -592.54999
-9.4200001 -7.4299998 -592.84003
-8.8800001 -7.4400001 -593.32001
-8.3500004 -7.4499998 -593.67999
-7.8099999 -7.4499998 -594.34003
-7.27 -7.46 -595
-6.7399998 -7.4699998 -595.66998
-6.1900001 -7.4699998 -595.81
-5.6500001 -7.4699998 -595.70001
-5.0999999 -7.4699998 -595.47998
-4.5500002 -7.4699998 -595.28003
-4 -7.46 -595.20001
-3.46 -7.46 -595.15997
-2.9100001 -7.46 -595.15997
-2.3699999 -7.46 -595.13
-1.8200001 -7.46 -595.20001
-1.28 -7.46 -595.23999
-0.73000002 -7.4699998 -595.32001
-0.19 -7.4699998 -595.38
0.36000001 -7.4699998 -595.40002
0.89999998 -7.4699998 -595.48999
1.45 -7.4699998 -595.60999
2 -7.4699998 -595.73999
2.54 -7.4699998 -595.85999
3.0899999 -7.48 -596.26001
4.48 -8.0100002 -638.15997
5.0700002 -8.0100002 -638.27002
5.6500001 -8.0100002 -638.20001
6.2399998 -8.0100002 -638.15997
6.8200002 -8.0100002 -638.17999
7.4099998 -8.0100002 -638.15997
8 -8.0100002 -638.23999
8.5799999 -8.0100002 -638.22998
9.1700001 -8.0100002 -638.27002
9.75 -8.0100002 -638.29999
10.34 -8.0100002 -638.34003
10.92 -8.0100002 -638.33002
11.51 -8.0100002 -638.37
12.1 -8.0100002 -638.34998
12.68 -8.0200005 -638.53003
13.27 -8.0200005 -638.59998
13.86 -8.0200005 -638.65997
14.45 -8.0200005 -638.66998
15.03 -8.0200005 -638.75
15.62 -8.0200005 -638.78003
16.209999 -8.0200005 -638.95001
16.799999 -8.0200005 -639.01001
17.389999 -8.0200005 -639.17999
17.98 -8.0299997 -639.25
18.559999 -8.0299997 -639.25
19.15 -8.0299997 -639.37
19.74 -8.0299997 -639.44
20.33 -8.0299997 -639.58002
20.92 -8.0299997 -639.59998
21.51 -8.0299997 -639.69
22.110001 -8.0299997 -639.94
22.700001 -8.04 -640.03003
23.290001 -8.04 -640.15002
23.879999 -8.04 -640.20001
24.48 -8.04 -640.67999
43.549999 -8.1999998 -653.12
44.18 -8.21 -653.65997
44.82 -8.2200003 -654.25
45.52 -8.2299995 -655.57001
46.18 -8.2399998 -656.40997
46.84 -8.2600002 -657.28998
47.5 -8.2700005 -658.07001
48.169998 -8.2799997 -658.90002
48.830002 -8.29 -659.64001
49.5 -8.3000002 -660.48999
50.16 -8.3000002 -661.13
50.82 -8.3100004 -661.91998
51.470001 -8.3199997 -662.41998
52.130001 -8.3299999 -663.04999
52.77 -8.3299999 -663.42999
53.41 -8.3400002 -663.85999
54.07 -8.3500004 -664.46997
54.73 -8.3500004 -665
55.439999 -8.3699999 -666.21002
-167.38 -7.77 -577.33002
-166.89 -7.77 -577.45001
-166.25 -7.77 -577.08002
-165.63 -7.7600002 -576.76001
-164.95 -7.7600002 -576.22998
-164.42 -7.7600002 -576.25
-163.92 -7.7600002 -576.31
-163.42999 -7.7600002 -576.46997
-163 -7.7600002 -576.81
-162.56 -7.77 -577.12
-162.23 -7.7800002 -577.81
-161.82001 -7.7800002 -578.21997
-161.39 -7.79 -578.58002
-160.88 -7.79 -578.64001
-160.34 -7.79 -578.60999
-159.83 -7.79 -578.65997
-159.37 -7.79 -578.91998
-158.89999 -7.8000002 -579.14001
-158.45 -7.8000002 -579.41998
-157.97 -7.8000002 -579.60999
-157.50999 -7.8099999 -579.89001
-157.17999 -7.8200002 -580.60999
-156.84 -7.8299999 -581.28998
-156.31 -7.8299999 -581.31
-155.78999 -7.8299999 -581.34998
-155.27 -7.8299999 -581.40002
-154.78 -7.8299999 -581.58002
-154.34 -7.8299999 -581.91998
-153.89 -7.8400002 -582.21997
-153.48 -7.8400002 -582.67999
-153.91 -7.8899999 -586.28998
-153.92 -7.9200001 -588.37
-153.39 -7.9200001 -588.40002
-152.85001 -7.9200001 -588.40002
-152.32001 -7.9200001 -588.40997
-151.8 -7.9200001 -588.48999
-151.33 -7.9299998 -588.75
-150.86 -7.9299998 -589.03998
-150.42999 -7.9400001 -589.45001
-149.99001 -7.9400001 -589.83002
-150.48 -8 -593.84003
-150.37 -8.0200005 -595.53998
-149.89999 -8.0200005 -595.82001
-149.48 -8.0299997 -596.34998
-149.12 -8.04 -597.07001
-149.42999 -8.0900002 -600.46002
-149.32001 -8.1099997 -602.23999
-149.28 -8.1400003 -604.28003
-149.10001 -8.1599998 -605.75
-148.71001 -8.1700001 -606.44
-148.46001 -8.1899996 -607.65002
-148.06 -8.1999998 -608.31
-147.87 -8.2200003 -609.78998
-148.62 -8.29 -615.14001
-149.23 -8.3900003 -622.27002
-148.85001 -8.3999996 -623.06
-149.95 -8.4899998 -630
-149.41 -8.4899998 -630.14001
-148.88 -8.5 -630.37
-148.39999 -8.5 -630.78998
-147.96001 -8.5100002 -631.38
-139.17 -8.1000004 -601.34998
-138.7 -8.1000004 -601.66998
-138.24001 -8.1099997 -602.07001
-137.77 -8.1099997 -602.44
-137.28 -8.1199999 -602.69
-136.53 -8.1099997 -601.84003
-135.61 -8.0799999 -600.26001
-134.95 -8.0799999 -599.77002
-134.42999 -8.0799999 -599.90002
-133.89 -8.0799999 -599.96997
-133.33 -8.0799999 -599.91998
-132.7 -8.0799999 -599.54999
-132.10001 -8.0699997 -599.32001
-131.57001 -8.0699997 -599.44
-131.07001 -8.0799999 -599.65997
-130.57001 -8.0799999 -599.88
-130.09 -8.0799999 -600.17999
-129.56 -8.0900002 -600.31
-129.08 -8.0900002 -600.62
-128.55 -8.0900002 -600.69
-127.96 -8.0900002 -600.54999
-127.26 -8.0799999 -599.83002
-126.7 -8.0799999 -599.78998
-126.17 -8.0799999 -599.90997
-125.66 -8.0799999 -600.09003
-125.17 -8.0900002 -600.37
-124.69 -8.0900002 -600.71997
-124.22 -8.1000004 -601.07001
-123.68 -8.1000004 -601.12
-123.04 -8.0900002 -600.71002
-122.28 -8.0799999 -599.73999
-121.33 -8.0500002 -597.78998
-119.47 -7.96 -591.40002
-118.76 -7.9499998 -590.58002
-118.04 -7.9400001 -589.67999
-117.36 -7.9299998 -589.01001
-116.68 -7.9200001 -588.29999
-115.99 -7.9099998 -587.54999
-115.34 -7.9000001 -586.98999
-114.71 -7.9000001 -586.53003
-114.05 -7.8899999 -585.90002
-113.46 -7.8800001 -585.64001
-112.85 -7.8800001 -585.28998
-112.25 -7.8699999 -584.96002
-111.69 -7.8699999 -584.84998
-111.11 -7.8699999 -584.64001
-110.54 -7.8699999 -584.42999
-109.98 -7.8699999 -584.29999
-109.41 -7.8600001 -584.12
-108.83 -7.8600001 -583.90002
-108.25 -7.8600001 -583.67999
-107.69 -7.8499999 -583.51001
-107.11 -7.8499999 -583.29999
-106.56 -7.8499999 -583.20001
-105.98 -7.8499999 -582.97998
-105.41 -7.8400002 -582.78998
-104.84 -7.8400002 -582.59998
-104.28 -7.8400002 -582.42999
-103.7 -7.8400002 -582.17999
-103.15 -7.8400002 -582.12
-102.58 -7.8299999 -581.90997
-102.03 -7.8299999 -581.78003
-101.48 -7.8299999 -581.71002
-100.91 -7.8299999 -581.48999
-100.34 -7.8200002 -581.32001
-99.809998 -7.8200002 -581.31
-99.239998 -7.8200002 -581.09003
-98.68 -7.8200002 -580.96002
-98.129997 -7.8200002 -580.84998
-97.599998 -7.8200002 -580.84998
-97.059998 -7.8200002 -580.78998
-96.489998 -7.8099999 -580.60999
-95.949997 -7.8099999 -580.53003
-95.419998 -7.8099999 -580.54999
-94.889999 -7.8099999 -580.56
-94.330002 -7.8099999 -580.45001
-93.82 -7.8099999 -580.57001
-93.279999 -7.8099999 -580.51001
-92.75 -7.8099999 -580.51001
-92.230003 -7.8099999 -580.59998
-91.709999 -7.8200002 -580.66998
-91.190002 -7.8200002 -580.73999
-90.650002 -7.8200002 -580.67999
-90.139999 -7.8200002 -580.84998
-89.629997 -7.8200002 -580.97998
-89.089996 -7.8200002 -580.92999
-88.559998 -7.8200002 -580.96002
-88.040001 -7.8200002 -581.03003
-87.510002 -7.8200002 -581.04999
-86.980003 -7.8200002 -581.07001
-86.449997 -7.8200002 -581.08002
-85.940002 -7.8200002 -581.22998
-85.419998 -7.8200002 -581.34998
-84.889999 -7.8200002 -581.40002
-84.370003 -7.8299999 -581.44
-83.860001 -7.8299999 -581.62
-83.349998 -7.8299999 -581.75
-82.830002 -7.8299999 -581.89001
-82.309998 -7.8299999 -581.96997
-81.790001 -7.8299999 -582.07001
-81.269997 -7.8400002 -582.17999
-80.760002 -7.8400002 -582.31
-80.239998 -7.8400002 -582.40002
-79.730003 -7.8400002 -582.57001
-79.209999 -7.8400002 -582.71997
-78.699997 -7.8400002 -582.84998
-78.18 -7.8499999 -582.95001
-77.660004 -7.8499999 -583.12
-77.160004 -7.8499999 -583.35999
-76.650002 -7.8499999 -583.5
-76.129997 -7.8499999 -583.63
-75.610001 -7.8600001 -583.78003
-75.099998 -7.8600001 -583.92999
-74.580002 -7.8600001 -584.04999
-74.07 -7.8600001 -584.26001
-73.550003 -7.8699999 -584.44
-73.040001 -7.8699999 -584.65002
-72.519997 -7.8699999 -584.73999
-71.989998 -7.8699999 -584.75
-71.459999 -7.8699999 -584.83002
-70.93 -7.8699999 -584.91998
-70.389999 -7.8699999 -584.87
-69.870003 -7.8699999 -584.95001
-69.339996 -7.8699999 -585.03998
-68.809998 -7.8699999 -585.09998
-68.279999 -7.8800001 -585.16998
-67.75 -7.8800001 -585.23999
-67.230003 -7.8800001 -585.38
-66.720001 -7.8800001 -585.54999
-66.190002 -7.8800001 -585.64001
-65.669998 -7.8800001 -585.83002
-65.150002 -7.8800001 -585.90002
-64.639999 -7.8899999 -586.14001
-64.110001 -7.8899999 -586.28998
-63.599998 -7.8899999 -586.51001
-63.09 -7.9000001 -586.76001
-62.57 -7.9000001 -586.92999
-62.049999 -7.9000001 -587.09003
-61.540001 -7.9000001 -587.37
-61.02 -7.9099998 -587.54999
-60.509998 -7.9099998 -587.77002
-59.990002 -7.9099998 -587.95001
-59.470001 -7.9099998 -588.12
-58.950001 -7.9200001 -588.34003
-58.43 -7.9200001 -588.53998
-57.900002 -7.9200001 -588.69
-57.380001 -7.9200001 -588.79999
-56.849998 -7.9299998 -588.97998
-56.330002 -7.9299998 -589.16998
-55.810001 -7.9299998 -589.35999
-55.290001 -7.9299998 -589.53003
-54.75 -7.9299998 -589.56
-54.23 -7.9400001 -589.83002
-53.700001 -7.9400001 -589.94
-53.18 -7.9400001 -590.10999
-52.650002 -7.9400001 -590.22998
-52.119999 -7.9499998 -590.37
-51.59 -7.9499998 -590.48999
-51.060001 -7.9499998 -590.65997
-50.529999 -7.9499998 -590.78998
-50 -7.9499998 -590.94
-49.470001 -7.9499998 -591.04999
-48.939999 -7.96 -591.14001
-48.41 -7.96 -591.28998
-47.869999 -7.96 -591.38
-47.34 -7.96 -591.47998
-46.799999 -7.96 -591.56
-46.27 -7.96 -591.62
-45.73 -7.96 -591.71997
-45.200001 -7.9699998 -591.85999
-44.669998 -7.9699998 -591.97998
-44.130001 -7.9699998 -592.08002
-43.59 -7.9699998 -592.14001
-43.049999 -7.9699998 -592.17999
-42.52 -7.9699998 -592.28003
-41.98 -7.9699998 -592.32001
-41.439999 -7.9699998 -592.44
-40.900002 -7.9699998 -592.44
-40.369999 -7.9699998 -592.54999
-39.82 -7.9699998 -592.57001
-39.290001 -7.98 -592.65997
-38.75 -7.98 -592.70001
-38.209999 -7.98 -592.73999
-37.669998 -7.98 -592.84003
-37.130001 -7.98 -592.96002
-36.59 -7.98 -592.89001
-36.049999 -7.98 -592.96002
-35.509998 -7.98 -592.98999
-34.959999 -7.98 -593.01001
-34.419998 -7.98 -593.07001
-33.880001 -7.98 -593
-33.330002 -7.98 -592.94
-32.779999 -7.98 -592.88
-32.240002 -7.98 -592.84003
-31.690001 -7.98 -592.71002
-31.139999 -7.98 -592.69
-30.59 -7.9699998 -592.53998
-30.040001 -7.9699998 -592.45001
-29.49 -7.9699998 -592.23999
-28.93 -7.9699998 -592
-28.379999 -7.96 -591.77002
-27.83 -7.96 -591.62
-27.280001 -7.96 -591.40002
-26.73 -7.96 -591.17999
-26.17 -7.9499998 -590.94
-25.620001 -7.9499998 -590.69
-25.07 -7.9499998 -590.46997
-24.530001 -7.9400001 -590.34998
-23.969999 -7.9400001 -590.10999
-23.43 -7.9400001 -590.13
-22.889999 -7.9400001 -589.98999
-22.34 -7.9400001 -589.89001
-21.809999 -7.9400001 -590.01001
-21.27 -7.9400001 -589.97998
-20.73 -7.9400001 -590.03003
-20.190001 -7.9400001 -590.19
-19.66 -7.9499998 -590.46997
-19.129999 -7.9499998 -590.75
-18.6 -7.9499998 -591
-18.059999 -7.96 -591.21002
-17.52 -7.96 -591.31
-16.98 -7.96 -591.38
-16.440001 -7.96 -591.26001
-15.89 -7.96 -591.19
-15.35 -7.96 -591.28003
-14.82 -7.96 -591.42999
-14.28 -7.96 -591.69
-13.74 -7.96 -591.78003
-13.2 -7.9699998 -591.95001
-12.66 -7.9699998 -591.92999
-12.12 -7.96 -591.88
-11.58 -7.9699998 -591.95001
-11.03 -7.9699998 -592.01001
-10.49 -7.9699998 -592.13
-9.96 -7.9699998 -592.40002
-9.4200001 -7.98 -592.65997
-8.8800001 -7.98 -593.09003
-8.3400002 -7.9899998 -593.48999
-7.8099999 -7.9899998 -593.98999
-7.27 -8 -594.71997
-6.73 -8.0100002 -595.41998
-6.1900001 -8.0100002 -595.51001
-5.6399999 -8.0100002 -595.35999
-5.0900002 -8.0100002 -595.13
-4.5500002 -8.0100002 -595.07001
-4 -8.0100002 -594.91998
-3.46 -8.0100002 -594.88
-2.9100001 -8.0100002 -594.90002
-2.3699999 -8.0100002 -594.94
-1.8200001 -8.0100002 -595.03003
-1.28 -8.0100002 -595.07001
-0.73000002 -8.0100002 -595.10999
-0.19 -8.0100002 -595.09003
0.36000001 -8.0100002 -595.14001
0.89999998 -8.0100002 -595.28003
1.45 -8.0100002 -595.34003
2 -8.0100002 -595.5
2.54 -8.0200005 -595.71002
3.0899999 -8.0200005 -595.89001
3.6400001 -8.0200005 -596.23999
4.4699998 -8.5799999 -636.89001
5.0700002 -8.6000004 -638.26001
5.6500001 -8.6000004 -638.16998
6.2399998 -8.6000004 -638.13
6.8200002 -8.6000004 -638.13
7.4099998 -8.6000004 -638.14001
7.9899998 -8.6000004 -638.12
8.5799999 -8.6000004 -638.21002
9.1700001 -8.6000004 -638.22998
9.75 -8.6000004 -638.32001
10.34 -8.6000004 -638.37
10.93 -8.6000004 -638.40997
11.51 -8.6000004 -638.25
12.09 -8.6000004 -638.28003
12.68 -8.6000004 -638.46997
13.27 -8.6000004 -638.53003
13.86 -8.6000004 -638.62
14.45 -8.6000004 -638.69
15.03 -8.6000004 -638.71002
15.62 -8.6099997 -638.77002
16.209999 -8.6099997 -638.87
16.799999 -8.6099997 -639.03003
17.389999 -8.6099997 -639.07001
17.969999 -8.6099997 -639.10999
18.559999 -8.6099997 -639.21002
19.15 -8.6099997 -639.19
19.74 -8.6099997 -639.35999
20.33 -8.6099997 -639.34998
20.92 -8.6199999 -639.65002
21.51 -8.6199999 -639.70001
22.1 -8.6199999 -639.78998
22.690001 -8.6199999 -639.88
23.280001 -8.6199999 -640.04999
23.870001 -8.6199999 -640.10999
44.150002 -8.8000002 -653.13
44.799999 -8.8100004 -653.92999
45.5 -8.8299999 -655.39001
46.16 -8.8400002 -656.16998
46.830002 -8.8599997 -657.09003
47.470001 -8.8599997 -657.64001
48.16 -8.8800001 -658.71997
48.799999 -8.8900003 -659.26001
49.48 -8.8999996 -660.26001
50.130001 -8.9099998 -660.82001
50.810001 -8.9200001 -661.70001
51.450001 -8.9300003 -662.20001
52.09 -8.9300003 -662.5
52.700001 -8.9300003 -662.53003
53.349998 -8.9399996 -663.09998
54.009998 -8.9499998 -663.66998
54.689999 -8.96 -664.59003
55.369999 -8.9700003 -665.41998
56.060001 -8.9799995 -666.25
-167.48 -8.3000002 -577.65997
-166.94 -8.3000002 -577.65002
-166.31 -8.3000002 -577.29999
-165.71001 -8.3000002 -577.03003
-165.03999 -8.29 -576.56
-164.46001 -8.29 -576.37
-163.96001 -8.29 -576.46997
-163.48 -8.29 -576.63
-163.05 -8.3000002 -576.98999
-162.64 -8.3000002 -577.39001
-162.32001 -8.3100004 -578.10999
-161.96001 -8.3199997 -578.71002
-161.47 -8.3199997 -578.84998
-160.92999 -8.3199997 -578.81
-160.37 -8.3199997 -578.71002
-159.86 -8.3199997 -578.77002
-159.37 -8.3199997 -578.90997
-158.87 -8.3299999 -579.03998
-158.42999 -8.3299999 -579.34003
-157.96001 -8.3299999 -579.56
-157.55 -8.3400002 -580.02002
-157.27 -8.3500004 -580.91998
-156.81 -8.3599997 -581.20001
-156.3 -8.3599997 -581.28003
-155.77 -8.3599997 -581.29999
-155.25999 -8.3599997 -581.38
-154.78999 -8.3599997 -581.59998
-154.33 -8.3699999 -581.85999
-153.89 -8.3699999 -582.21002
-153.46001 -8.3800001 -582.60999
-154 -8.4399996 -586.63
-153.94 -8.46 -588.42999
-153.39999 -8.46 -588.40997
-152.86 -8.46 -588.42999
-152.35001 -8.46 -588.53003
-151.84 -8.4700003 -588.66998
-151.38 -8.4700003 -588.95001
-150.92 -8.4700003 -589.25
-150.5 -8.4799995 -589.72998
-150.07001 -8.4899998 -590.15997
-150.89999 -8.5699997 -595.46002
-150.39999 -8.5699997 -595.65997
-149.94 -8.5699997 -596.01001
-149.5 -8.5799999 -596.40997
-149.10001 -8.5900002 -596.97998
-149.72 -8.6599998 -601.62
-149.78 -8.6899996 -604.03003
-149.5 -8.71 -605.13
-149.16 -8.7200003 -605.98999
-148.85001 -8.7299995 -606.96997
-148.60001 -8.75 -608.21997
-148.34 -8.7700005 -609.41998
-148.87 -8.8299999 -613.84998
-148.78999 -8.8599997 -615.83002
-149.17999 -8.9499998 -622.08002
-149.60001 -9.0100002 -626.15002
-149.99001 -9.0699997 -630.15997
-149.42999 -9.0699997 -630.26001
-148.92 -9.0799999 -630.51001
-148.42 -9.0799999 -630.85999
-147.89999 -9.0900002 -631.12
-138.21001 -8.6599998 -601.94
-137.75 -8.6700001 -602.35999
-137.27 -8.6700001 -602.69
-136.82001 -8.6800003 -603.10999
-136.12 -8.6700001 -602.47998
-135.24001 -8.6499996 -601.03998
-134.45 -8.6300001 -599.97998
-133.95 -8.6300001 -600.20001
-133.42 -8.6400003 -600.33002
-132.89 -8.6400003 -600.39001
-132.25 -8.6300001 -600
-131.64 -8.6300001 -599.71997
-131.09 -8.6300001 -599.76001
-130.59 -8.6300001 -599.96002
-130.08 -8.6300001 -600.15997
-129.59 -8.6400003 -600.42999
-129.10001 -8.6400003 -600.67999
-128.59 -8.6400003 -600.90997
-128.07001 -8.6499996 -601.06
-127.47 -8.6400003 -600.82001
-126.77 -8.6300001 -600.10999
-126.22 -8.6300001 -600.10999
-125.72 -8.6400003 -600.35999
-125.19 -8.6400003 -600.46002
-124.72 -8.6400003 -600.87
-124.26 -8.6499996 -601.28003
-123.79 -8.6599998 -601.67999
-123.25 -8.6599998 -601.73999
-122.61 -8.6499996 -601.29999
-121.87 -8.6400003 -600.41998
-120.85 -8.6000004 -598.09998
-119.05 -8.5100002 -592
-118.27 -8.5 -590.83002
-117.6 -8.4899998 -590.19
-116.89 -8.4799995 -589.33002
-116.24 -8.4700003 -588.82001
-115.57 -8.46 -588.13
-114.92 -8.4499998 -587.59998
-114.26 -8.4399996 -587.01001
-113.64 -8.4300003 -586.57001
-113.03 -8.4300003 -586.19
-112.41 -8.4200001 -585.77002
-111.82 -8.4200001 -585.53003
-111.25 -8.4200001 -585.34998
-110.64 -8.4099998 -584.97998
-110.07 -8.4099998 -584.78998
-109.5 -8.4099998 -584.58002
-108.92 -8.3999996 -584.39001
-108.35 -8.3999996 -584.21002
-107.79 -8.3999996 -584.09003
-107.19 -8.3900003 -583.71997
-106.63 -8.3900003 -583.56
-106.05 -8.3900003 -583.33002
-105.48 -8.3800001 -583.14001
-104.91 -8.3800001 -582.94
-104.34 -8.3800001 -582.78998
-103.77 -8.3800001 -582.54999
-103.22 -8.3699999 -582.46002
-102.63 -8.3699999 -582.20001
-102.09 -8.3699999 -582.12
-101.52 -8.3699999 -581.96002
-100.96 -8.3599997 -581.78003
-100.41 -8.3599997 -581.67999
-99.839996 -8.3599997 -581.46997
-99.290001 -8.3599997 -581.39001
-98.730003 -8.3599997 -581.23999
-98.160004 -8.3500004 -581.03998
-97.629997 -8.3500004 -581.02002
-97.080002 -8.3500004 -580.94
-96.540001 -8.3500004 -580.87
-95.980003 -8.3500004 -580.72998
-95.449997 -8.3500004 -580.77002
-94.919998 -8.3500004 -580.75
-94.379997 -8.3500004 -580.70001
-93.849998 -8.3500004 -580.73999
-93.32 -8.3500004 -580.75
-92.790001 -8.3500004 -580.77002
-92.269997 -8.3500004 -580.82001
-91.739998 -8.3500004 -580.84998
-91.209999 -8.3500004 -580.87
-90.690002 -8.3500004 -580.96997
-90.160004 -8.3500004 -580.97998
-89.629997 -8.3500004 -581.02002
-89.110001 -8.3500004 -581.09003
-88.589996 -8.3500004 -581.15002
-88.059998 -8.3500004 -581.17999
-87.540001 -8.3599997 -581.28998
-87.010002 -8.3599997 -581.29999
-86.489998 -8.3599997 -581.34998
-85.970001 -8.3599997 -581.47998
-85.440002 -8.3599997 -581.48999
-84.919998 -8.3599997 -581.59998
-84.419998 -8.3599997 -581.77002
-83.889999 -8.3599997 -581.81
-83.360001 -8.3599997 -581.85999
-82.839996 -8.3699999 -581.94
-82.32 -8.3699999 -582.06
-81.800003 -8.3699999 -582.14001
-81.279999 -8.3699999 -582.23999
-80.760002 -8.3699999 -582.35999
-80.260002 -8.3699999 -582.53998
-79.739998 -8.3800001 -582.66998
-79.220001 -8.3800001 -582.77002
-78.699997 -8.3800001 -582.89001
-78.190002 -8.3800001 -583.03003
-77.68 -8.3800001 -583.22998
-77.169998 -8.3900003 -583.40002
-76.650002 -8.3900003 -583.5
-76.129997 -8.3900003 -583.62
-75.610001 -8.3900003 -583.79999
-75.099998 -8.3900003 -583.96002
-74.580002 -8.3999996 -584.09003
-74.07 -8.3999996 -584.29999
-73.559998 -8.3999996 -584.46997
-73.050003 -8.3999996 -584.65997
-72.529999 -8.4099998 -584.82001
-72 -8.4099998 -584.85999
-71.470001 -8.4099998 -584.94
-70.93 -8.4099998 -584.87
-70.389999 -8.4099998 -584.88
-69.849998 -8.4099998 -584.79999
-69.309998 -8.4099998 -584.82001
-68.790001 -8.4099998 -584.90997
-68.269997 -8.4099998 -585.03998
-67.739998 -8.4099998 -585.14001
-67.220001 -8.4099998 -585.22998
-66.699997 -8.4099998 -585.39001
-66.18 -8.4200001 -585.53003
-65.660004 -8.4200001 -585.69
-65.150002 -8.4200001 -585.91998
-64.629997 -8.4200001 -586.09003
-64.110001 -8.4300003 -586.28003
-63.599998 -8.4300003 -586.5
-63.080002 -8.4300003 -586.69
-62.57 -8.4399996 -586.92999
-62.049999 -8.4399996 -587.09998
-61.540001 -8.4399996 -587.34998
-61.02 -8.4499998 -587.53003
-60.5 -8.4499998 -587.71997
-59.98 -8.4499998 -587.88
-59.459999 -8.4499998 -588.08002
-58.93 -8.4499998 -588.20001
-58.419998 -8.46 -588.40002
-57.889999 -8.46 -588.57001
-57.369999 -8.46 -588.77002
-56.849998 -8.4700003 -588.95001
-56.330002 -8.4700003 -589.12
-55.799999 -8.4700003 -589.23999
-55.27 -8.4700003 -589.40002
-54.75 -8.4700003 -589.57001
-54.220001 -8.4799995 -589.71997
-53.700001 -8.4799995 -589.89001
-53.169998 -8.4799995 -590.01001
-52.639999 -8.4799995 -590.15002
-52.119999 -8.4899998 -590.34998
-51.59 -8.4899998 -590.44
-51.060001 -8.4899998 -590.59998
-50.52 -8.4899998 -590.64001
-49.990002 -8.4899998 -590.81
-49.459999 -8.4899998 -590.94
-48.93 -8.5 -591.07001
-48.400002 -8.5 -591.16998
-47.860001 -8.5 -591.27002
-47.330002 -8.5 -591.34998
-46.799999 -8.5 -591.5
-46.27 -8.5 -591.64001
-45.73 -8.5100002 -591.71002
-45.200001 -8.5100002 -591.85999
-44.669998 -8.5100002 -591.98999
-44.130001 -8.5100002 -592.08002
-43.59 -8.5100002 -592.09003
-43.049999 -8.5100002 -592.12
-42.509998 -8.5100002 -592.21997
-41.98 -8.5100002 -592.31
-41.439999 -8.5200005 -592.40997
-40.900002 -8.5200005 -592.44
-40.360001 -8.5200005 -592.51001
-39.82 -8.5200005 -592.56
-39.279999 -8.5200005 -592.59003
-38.75 -8.5200005 -592.71997
-38.200001 -8.5200005 -592.71997
-37.669998 -8.5200005 -592.83002
-37.130001 -8.5200005 -592.91998
-36.59 -8.5200005 -592.94
-36.049999 -8.5200005 -593.03003
-35.509998 -8.5200005 -593.03003
-34.959999 -8.5200005 -593.01001
-34.419998 -8.5200005 -592.96002
-33.869999 -8.5200005 -592.98999
-33.330002 -8.5200005 -592.96002
-32.779999 -8.5200005 -592.91998
-32.23 -8.5200005 -592.78003
-31.68 -8.5200005 -592.66998
-31.129999 -8.5200005 -592.53998
-30.58 -8.5100002 -592.40997
-30.030001 -8.5100002 -592.26001
-29.48 -8.5100002 -592
-28.92 -8.5100002 -591.76001
-28.370001 -8.5 -591.60999
-27.83 -8.5 -591.51001
-27.280001 -8.5 -591.33002
-26.719999 -8.4899998 -591.04999
-26.17 -8.4899998 -590.83002
-25.620001 -8.4899998 -590.60999
-25.07 -8.4799995 -590.34998
-24.52 -8.4799995 -590.21002
-23.969999 -8.4799995 -590.09003
-23.43 -8.4799995 -589.94
-22.879999 -8.4799995 -589.82001
-22.34 -8.4799995 -589.79999
-21.799999 -8.4799995 -589.82001
-21.26 -8.4799995 -589.78998
-20.719999 -8.4799995 -589.89001
-20.190001 -8.4799995 -590.03998
-19.65 -8.4799995 -590.22998
-19.120001 -8.4899998 -590.52002
-18.59 -8.4899998 -590.88
-18.059999 -8.5 -591.08002
-17.52 -8.5 -591.14001
-16.98 -8.5 -591.25
-16.440001 -8.5 -591.21002
-15.89 -8.5 -591.13
-15.35 -8.5 -591.20001
-14.81 -8.5 -591.35999
-14.28 -8.5 -591.59003
-13.74 -8.5 -591.69
-13.2 -8.5 -591.75
-12.66 -8.5 -591.73999
-12.11 -8.5 -591.69
-11.57 -8.5 -591.72998
-11.03 -8.5100002 -591.79999
-10.49 -8.5100002 -591.96997
-9.9499998 -8.5100002 -592.21997
-9.4099998 -8.5200005 -592.51001
-8.8800001 -8.5200005 -592.87
-8.3400002 -8.5299997 -593.27002
-7.8000002 -8.5299997 -593.81
-7.27 -8.54 -594.5
-6.73 -8.5500002 -595.12
-6.1900001 -8.5600004 -595.33002
-5.6399999 -8.5500002 -595.14001
-5.0900002 -8.5500002 -594.94
-4.5500002 -8.5500002 -594.78003
-4 -8.5500002 -594.70001
-3.46 -8.5500002 -594.63
-2.9100001 -8.5500002 -594.65002
-2.3699999 -8.5500002 -594.65002
-1.8200001 -8.5500002 -594.71002
-1.28 -8.5500002 -594.78003
-0.73000002 -8.5500002 -594.84998
-0.19 -8.5500002 -594.89001
0.36000001 -8.5500002 -594.96002
0.89999998 -8.5500002 -595.06
1.45 -8.5600004 -595.25
2 -8.5600004 -595.40997
2.54 -8.5600004 -595.52002
3.0899999 -8.5600004 -595.82001
3.6400001 -8.5699997 -596.03003
4.4699998 -9.1599998 -636.38
5.0700002 -9.1800003 -638.21002
5.6500001 -9.1800003 -638.09003
6.2399998 -9.1800003 -638.14001
6.8200002 -9.1800003 -638.14001
7.4099998 -9.1800003 -638.20001
7.9899998 -9.1800003 -638.16998
8.5799999 -9.1800003 -638.15002
9.1700001 -9.1800003 -638.28998
9.75 -9.1800003 -638.32001
10.34 -9.1899996 -638.39001
10.93 -9.1899996 -638.40997
11.51 -9.1800003 -638.32001
12.1 -9.1899996 -638.37
12.68 -9.1899996 -638.46997
13.27 -9.1899996 -638.54999
13.86 -9.1899996 -638.63
14.45 -9.1899996 -638.69
15.03 -9.1899996 -638.71002
15.62 -9.1899996 -638.78003
16.209999 -9.1899996 -638.81
16.799999 -9.1899996 -638.96002
17.389999 -9.1999998 -639.08002
17.969999 -9.1999998 -639.15997
18.559999 -9.1999998 -639.08002
19.15 -9.1999998 -639.19
19.74 -9.1999998 -639.28998
20.33 -9.1999998 -639.44
20.92 -9.1999998 -639.47998
21.51 -9.1999998 -639.57001
22.1 -9.21 -639.76001
22.690001 -9.21 -639.91998
23.280001 -9.21 -639.91998
23.870001 -9.21 -639.96997
44.130001 -9.3999996 -652.96997
44.779999 -9.4099998 -653.67999
45.48 -9.4300003 -655.12
46.150002 -9.4399996 -656.04999
46.810001 -9.46 -656.84003
47.459999 -9.46 -657.45001
48.130001 -9.4799995 -658.41998
48.790001 -9.4899998 -659.13
49.470001 -9.5 -660.04999
50.119999 -9.5100002 -660.59998
50.790001 -9.5200005 -661.44
51.43 -9.5299997 -661.91998
52.040001 -9.5299997 -661.91998
52.66 -9.5299997 -662.04999
53.299999 -9.54 -662.46997
53.959999 -9.5500002 -663.15002
54.650002 -9.5600004 -664.07001
55.330002 -9.5699997 -664.90002
56.02 -9.5900002 -665.78003
56.720001 -9.6000004 -666.84998
-166.96001 -8.8299999 -577.69
-166.37 -8.8299999 -577.5
-165.75 -8.8299999 -577.19
-165.11 -8.8199997 -576.78003
-164.52 -8.8199997 -576.58002
-163.99001 -8.8199997 -576.57001
-163.53 -8.8199997 -576.81
-163.09 -8.8299999 -577.12
-162.67999 -8.8299999 -577.53998
-162.39999 -8.8500004 -578.39001
-162.05 -8.8599997 -579.02002
-161.53 -8.8599997 -579.07001
-161 -8.8599997 -579.07001
-160.42 -8.8500004 -578.88
-159.87 -8.8500004 -578.81
-159.35001 -8.8500004 -578.87
-158.88 -8.8599997 -579.08002
-158.42 -8.8599997 -579.31
-157.96001 -8.8599997 -579.58002
-157.64 -8.8800001 -580.34998
-157.25 -8.8800001 -580.85999
-156.8 -8.8900003 -581.15002
-156.28999 -8.8900003 -581.25
-155.8 -8.8900003 -581.38
-155.3 -8.8900003 -581.53003
-154.8 -8.8999996 -581.63
-154.32001 -8.8999996 -581.82001
-153.89 -8.9099998 -582.21002
-153.49001 -8.9099998 -582.71997
-154.25 -8.9899998 -587.58002
-153.96001 -9 -588.51001
-153.42 -9 -588.48999
-152.87 -9 -588.44
-152.35001 -9 -588.52002
-151.86 -9.0100002 -588.71997
-151.39 -9.0100002 -588.98999
-150.92 -9.0200005 -589.27002
-150.49001 -9.0200005 -589.69
-150.23 -9.04 -590.77002
-150.96001 -9.1199999 -595.72998
-150.47 -9.1199999 -595.95001
-150.02 -9.1199999 -596.32001
-149.53999 -9.1300001 -596.57001
-149.19 -9.1400003 -597.34998
-150.25999 -9.2399998 -603.73999
-149.91 -9.25 -604.56
-149.57001 -9.2700005 -605.41998
-149.25999 -9.2799997 -606.40997
-148.94 -9.3000002 -607.34998
-148.78999 -9.3199997 -609.01001
-148.75999 -9.3599997 -611.15002
-148.98 -9.3999996 -614.31
-148.64 -9.4200001 -615.21997
-151.33 -9.6599998 -630.91998
-150.61 -9.6499996 -630.33002
-150.02 -9.6499996 -630.29999
-149.46001 -9.6499996 -630.38
-148.97 -9.6599998 -630.71997
-148.53 -9.6700001 -631.33002
-137.63 -9.21 -601.82001
-137.24001 -9.2200003 -602.52002
-136.75 -9.2299995 -602.81
-136.28999 -9.2299995 -603.23999
-135.72 -9.2299995 -603.12
-134.83 -9.21 -601.65997
-133.99001 -9.1899996 -600.39001
-133.46001 -9.1899996 -600.46997
-132.94 -9.1899996 -600.60999
-132.42 -9.1899996 -600.78003
-131.81 -9.1899996 -600.51001
-131.17 -9.1800003 -600.09003
-130.61 -9.1800003 -600.07001
-130.11 -9.1899996 -600.27002
-129.59 -9.1899996 -600.44
-129.09 -9.1899996 -600.65997
-128.58 -9.1999998 -600.87
-128.09 -9.1999998 -601.14001
-127.57 -9.1999998 -601.28998
-126.94 -9.1999998 -600.90997
-126.3 -9.1899996 -600.51001
-125.76 -9.1899996 -600.56
-125.25 -9.1899996 -600.72998
-124.75 -9.1999998 -601
-124.26 -9.1999998 -601.27002
-123.83 -9.21 -601.84998
-123.36 -9.2200003 -602.26001
-122.86 -9.2200003 -602.51001
-122.22 -9.21 -602.09998
-121.39 -9.1899996 -600.72998
-120.32 -9.1499996 -598.21002
-118.51 -9.0600004 -591.98999
-117.8 -9.04 -591.19
