# .PCD v0.7 - Point Cloud Data file format
VERSION 0.7
FIELDS x y z
SIZE 4 4 4
TYPE F F F
COUNT 1 1 1
WIDTH 1715
HEIGHT 1
VIEWPOINT 0 0 0 1 0 0 0
POINTS 1715
DATA ascii
-39.060001 -103.5 -588.96997
-38.529999 -103.54 -589.17999
-38.009998 -103.58 -589.46002
-37.490002 -103.64 -589.78003
-36.970001 -103.7 -590.10999
-36.450001 -103.76 -590.46002
-35.939999 -103.85 -590.96997
-35.419998 -103.91 -591.27002
-34.889999 -103.94 -591.46997
-34.360001 -103.97 -591.60999
-33.82 -103.98 -591.69
-33.290001 -104.02 -591.89001
-32.759998 -104.07 -592.20001
-32.240002 -104.13 -592.53003
-31.709999 -104.18 -592.83002
-31.18 -104.24 -593.14001
-30.67 -104.34 -593.71997
-30.139999 -104.39 -593.96997
-29.610001 -104.44 -594.25
-29.07 -104.48 -594.46997
-28.549999 -104.54 -594.84003
-28.02 -104.6 -595.15997
-27.49 -104.66 -595.52002
-26.950001 -104.71 -595.78998
-26.42 -104.76 -596.06
-25.879999 -104.81 -596.32001
-25.360001 -104.89 -596.77002
-24.82 -104.95 -597.09998
-24.290001 -105.01 -597.45001
-23.76 -105.08 -597.87
-23.23 -105.18 -598.42999
-22.700001 -105.25 -598.82001
-22.17 -105.33 -599.28998
-21.629999 -105.41 -599.70001
-21.1 -105.5 -600.20001
-20.57 -105.61 -600.83002
-20.040001 -105.7 -601.32001
-19.5 -105.77 -601.75
-18.969999 -105.87 -602.28998
-18.43 -105.95 -602.71997
-17.9 -106.07 -603.42999
-17.360001 -106.17 -603.98999
-16.83 -106.29 -604.67999
-16.290001 -106.4 -605.27002
-15.75 -106.55 -606.10999
-15.22 -106.71 -606.98999
-14.7 -106.94 -608.31
-14.17 -107.18 -609.65997
-13.62 -107.24 -609.96002
-13.06 -107.24 -609.95001
52.310001 -104.82 -596.34998
52.779999 -104.67 -595.5
53.27 -104.55 -594.87
53.759998 -104.46 -594.33002
54.279999 -104.41 -594.06
54.810001 -104.37 -593.83002
55.360001 -104.38 -593.90997
55.889999 -104.36 -593.78998
56.419998 -104.33 -593.63
56.970001 -104.35 -593.70001
57.52 -104.36 -593.77002
58.09 -104.4 -594.01001
58.669998 -104.47 -594.37
59.279999 -104.57 -594.95001
59.919998 -104.74 -595.88
60.52 -104.84 -596.45001
-164.52 -100.21 -567.87
-163.99001 -100.21 -567.84003
-163.49001 -100.22 -567.89001
-163.00999 -100.24 -568.02002
-162.53999 -100.27 -568.20001
-162.16 -100.36 -568.67999
-160.87 -112.17 -634.37
-160.16 -112.08 -633.87
-159.48 -112.01 -633.48999
-158.85001 -111.98 -633.29999
-158.25999 -111.97 -633.23999
-157.67 -111.97 -633.22998
-157.09 -111.97 -633.22998
-156.55 -112 -633.38
-156.06 -112.06 -633.75
-155.56 -112.12 -634.08002
-155.10001 -112.21 -634.56
-154.66 -112.31 -635.12
-154.24001 -112.43 -635.77002
-153.81 -112.55 -636.41998
-153.55 -112.78 -637.72998
-153.77 -113.81 -643.44
-153.28999 -113.89 -643.90002
-152.75 -113.93 -644.13
-98.589996 -106.52 -602.72998
-97.919998 -106.39 -602
-97.209999 -106.22 -601.06
-96.540001 -106.09 -600.34998
-95.870003 -105.96 -599.59003
-95.220001 -105.84 -598.96997
-94.610001 -105.78 -598.59998
-94.010002 -105.72 -598.27002
-93.349998 -105.59 -597.56
-92.720001 -105.5 -597.07001
-92.07 -105.38 -596.38
-91.379997 -105.22 -595.5
-90.790001 -105.17 -595.19
-90.199997 -105.11 -594.89001
-89.57 -105.02 -594.39001
-88.980003 -104.97 -594.08002
-88.309998 -104.82 -593.27002
-87.68 -104.71 -592.67999
-87.089996 -104.65 -592.34003
-86.510002 -104.61 -592.10999
-85.919998 -104.55 -591.78998
-85.349998 -104.52 -591.62
-84.739998 -104.44 -591.15002
-84.139999 -104.37 -590.72998
-83.529999 -104.28 -590.23999
-82.940002 -104.22 -589.90002
-82.370003 -104.19 -589.73999
-81.82 -104.17 -589.63
-81.279999 -104.17 -589.65997
-80.709999 -104.13 -589.44
-80.089996 -104.03 -588.89001
-79.510002 -103.97 -588.54999
-78.93 -103.93 -588.29999
-78.370003 -103.9 -588.14001
-77.82 -103.89 -588.09003
-77.290001 -103.89 -588.09998
-76.739998 -103.89 -588.08002
-76.129997 -103.78 -587.47998
-75.489998 -103.64 -586.71997
-74.919998 -103.6 -586.5
-74.360001 -103.56 -586.28003
-73.809998 -103.55 -586.20001
-73.25 -103.52 -586.04999
-72.720001 -103.53 -586.07001
-72.18 -103.52 -586.04999
-71.580002 -103.43 -585.56
-70.989998 -103.36 -585.12
-70.43 -103.33 -584.96997
-69.879997 -103.3 -584.82001
-69.339996 -103.3 -584.84003
-68.809998 -103.31 -584.84998
-68.279999 -103.31 -584.88
-67.739998 -103.31 -584.90002
-67.190002 -103.28 -584.71997
-66.629997 -103.26 -584.57001
-66.080002 -103.22 -584.40002
-65.540001 -103.23 -584.40997
-65.010002 -103.24 -584.46997
-64.480003 -103.25 -584.53998
-63.939999 -103.24 -584.48999
-63.380001 -103.2 -584.25
-62.84 -103.19 -584.21002
-62.310001 -103.2 -584.26001
-61.77 -103.19 -584.21002
-61.240002 -103.2 -584.26001
-60.700001 -103.2 -584.26001
-60.18 -103.22 -584.39001
-59.66 -103.25 -584.53003
-59.119999 -103.25 -584.53003
-58.57 -103.22 -584.37
-58.029999 -103.21 -584.32001
-57.490002 -103.2 -584.28998
-56.959999 -103.2 -584.27002
-56.419998 -103.21 -584.32001
-55.900002 -103.23 -584.45001
-55.369999 -103.23 -584.46997
-54.830002 -103.23 -584.44
-54.290001 -103.23 -584.41998
-53.759998 -103.23 -584.44
-53.220001 -103.24 -584.47998
-52.689999 -103.24 -584.52002
-52.16 -103.25 -584.53003
-51.630001 -103.27 -584.65002
-51.099998 -103.28 -584.72998
-50.580002 -103.31 -584.90997
-50.07 -103.36 -585.15997
-49.549999 -103.4 -585.40997
-49.029999 -103.42 -585.51001
-48.48 -103.41 -585.45001
-47.959999 -103.43 -585.56
-47.439999 -103.47 -585.78998
-46.91 -103.49 -585.90997
-46.380001 -103.51 -586.03998
-45.860001 -103.53 -586.15002
-45.330002 -103.56 -586.32001
-44.82 -103.62 -586.63
-44.310001 -103.69 -587.01001
-43.790001 -103.74 -587.28998
-43.279999 -103.8 -587.63
-42.759998 -103.83 -587.83002
-42.23 -103.86 -587.96002
-41.700001 -103.88 -588.09998
-41.169998 -103.9 -588.22998
-40.630001 -103.9 -588.21997
-40.110001 -103.96 -588.53003
-39.580002 -104 -588.73999
-39.07 -104.06 -589.09998
-38.540001 -104.1 -589.31
-38.02 -104.14 -589.56
-37.490002 -104.19 -589.81
-36.98 -104.26 -590.21002
-36.459999 -104.31 -590.5
-35.93 -104.37 -590.81
-35.419998 -104.44 -591.21002
-34.900002 -104.52 -591.65002
-34.380001 -104.57 -591.95001
-33.84 -104.59 -592.04999
-33.299999 -104.6 -592.12
-32.77 -104.64 -592.35999
-32.240002 -104.68 -592.58002
-31.719999 -104.75 -592.94
-31.190001 -104.82 -593.32001
-30.67 -104.88 -593.67999
-30.139999 -104.94 -594.03003
-29.620001 -105.01 -594.40997
-29.08 -105.06 -594.66998
-28.549999 -105.11 -594.98999
-28.02 -105.17 -595.32001
-27.49 -105.23 -595.64001
-26.969999 -105.31 -596.07001
-26.440001 -105.39 -596.5
-25.91 -105.46 -596.92999
-25.370001 -105.5 -597.15002
-24.84 -105.55 -597.40002
-24.299999 -105.61 -597.78003
-23.780001 -105.72 -598.38
-23.25 -105.8 -598.79999
-22.709999 -105.86 -599.14001
-22.18 -105.94 -599.57001
-21.639999 -105.99 -599.87
-21.110001 -106.11 -600.53003
-20.57 -106.17 -600.85999
-20.049999 -106.28 -601.5
-19.51 -106.37 -602.02002
-18.98 -106.49 -602.64001
-18.450001 -106.62 -603.38
-17.91 -106.72 -603.96002
-17.370001 -106.78 -604.29999
-16.84 -106.93 -605.09998
-16.299999 -107.03 -605.69
-15.76 -107.17 -606.48999
-15.23 -107.36 -607.53003
-14.71 -107.61 -608.92999
-14.17 -107.73 -609.57001
-13.6 -107.68 -609.33002
52.290001 -105.34 -596.20001
52.759998 -105.18 -595.33002
53.25 -105.07 -594.69
53.75 -104.98 -594.20001
54.27 -104.93 -593.90002
54.810001 -104.91 -593.83002
55.34 -104.9 -593.76001
55.880001 -104.89 -593.71997
56.41 -104.87 -593.56
56.959999 -104.87 -593.59003
57.52 -104.9 -593.75
58.09 -104.95 -594.01001
58.68 -105.03 -594.46002
59.290001 -105.13 -595.03998
59.91 -105.28 -595.87
-165.47 -100.67 -567.59003
-164.87 -100.62 -567.29999
-164.32001 -100.61 -567.19
-163.78999 -100.6 -567.15002
-163.28999 -100.62 -567.22998
-162.81 -100.64 -567.34998
-162.37 -100.69 -567.60999
-161.96001 -100.76 -568.01001
-161.53999 -100.82 -568.33002
-160.69 -112.63 -633.70001
-160.14 -112.65 -633.78003
-159.47 -112.58 -633.44
-158.81 -112.53 -633.13
-158.17999 -112.5 -632.96002
-157.63 -112.52 -633.06
-157.11 -112.56 -633.28003
-156.60001 -112.61 -633.58002
-156.07001 -112.65 -633.76001
-155.53 -112.68 -633.95001
-155.05 -112.76 -634.35999
-154.59 -112.84 -634.84998
-154.22 -113 -635.71002
-153.8 -113.12 -636.38
-153.47 -113.31 -637.40997
-98.550003 -107.03 -602.52002
-97.800003 -106.81 -601.27002
-97.099998 -106.65 -600.38
-96.449997 -106.54 -599.78998
-95.769997 -106.39 -598.96002
-95.150002 -106.32 -598.56
-94.519997 -106.22 -598.03003
-93.93 -106.17 -597.75
-93.300003 -106.09 -597.28998
-92.690002 -106.02 -596.88
-92.019997 -105.87 -596.09003
-91.309998 -105.69 -595.04999
-90.739998 -105.65 -594.84998
-90.139999 -105.59 -594.53998
-89.510002 -105.49 -593.95001
-88.919998 -105.44 -593.71002
-88.309998 -105.36 -593.21997
-87.660004 -105.24 -592.54999
-87.040001 -105.14 -592.03003
-86.459999 -105.1 -591.79999
-85.870003 -105.04 -591.46997
-85.300003 -105 -591.23999
-84.720001 -104.96 -591.02002
-84.139999 -104.91 -590.75
-83.519997 -104.81 -590.17999
-82.900002 -104.71 -589.65002
-82.32 -104.66 -589.34998
-81.760002 -104.64 -589.26001
-81.220001 -104.64 -589.25
-80.68 -104.64 -589.26001
-80.099998 -104.59 -588.96002
-79.5 -104.51 -588.53998
-78.910004 -104.44 -588.15002
-78.339996 -104.39 -587.88
-77.769997 -104.36 -587.71002
-77.239998 -104.37 -587.75
-76.690002 -104.36 -587.67999
-76.150002 -104.34 -587.62
-75.519997 -104.22 -586.94
-74.910004 -104.13 -586.42999
-74.330002 -104.07 -586.10999
-73.769997 -104.04 -585.94
-73.220001 -104.02 -585.84003
-72.68 -104.01 -585.76001
-72.150002 -104.02 -585.83002
-71.599998 -104 -585.72998
-71.010002 -103.93 -585.34003
-70.43 -103.86 -584.92999
-69.870003 -103.83 -584.76001
-69.32 -103.8 -584.63
-68.779999 -103.8 -584.62
-68.25 -103.81 -584.69
-67.730003 -103.83 -584.78003
-67.190002 -103.83 -584.78998
-66.629997 -103.8 -584.59003
-66.080002 -103.76 -584.39001
-65.529999 -103.75 -584.34003
-65 -103.76 -584.37
-64.470001 -103.76 -584.37
-63.939999 -103.76 -584.41998
-63.389999 -103.74 -584.31
-62.849998 -103.73 -584.25
-62.299999 -103.72 -584.15002
-61.759998 -103.7 -584.09003
-61.23 -103.72 -584.15002
-60.700001 -103.72 -584.17999
-60.169998 -103.73 -584.22998
-59.639999 -103.75 -584.35999
-59.119999 -103.77 -584.47998
-58.580002 -103.77 -584.46997
-58.029999 -103.74 -584.27002
-57.48 -103.72 -584.17999
-56.950001 -103.73 -584.25
-56.419998 -103.73 -584.27002
-55.889999 -103.74 -584.29999
-55.360001 -103.75 -584.38
-54.830002 -103.77 -584.46002
-54.290001 -103.77 -584.45001
-53.759998 -103.76 -584.42999
-53.220001 -103.77 -584.45001
-52.689999 -103.78 -584.53003
-52.16 -103.78 -584.53998
-51.619999 -103.78 -584.54999
-51.099998 -103.81 -584.71002
-50.580002 -103.84 -584.85999
-50.060001 -103.88 -585.09003
-49.549999 -103.93 -585.38
-49.029999 -103.96 -585.53003
-48.5 -103.99 -585.69
-47.970001 -103.99 -585.69
-47.43 -104 -585.75
-46.91 -104.03 -585.90997
-46.380001 -104.05 -586.02002
-45.849998 -104.07 -586.13
-45.34 -104.12 -586.42999
-44.82 -104.15 -586.59003
-44.310001 -104.22 -586.96002
-43.790001 -104.26 -587.21997
-43.27 -104.33 -587.56
-42.759998 -104.37 -587.83002
-42.23 -104.41 -588.03003
-41.709999 -104.45 -588.23999
-41.18 -104.48 -588.45001
-40.66 -104.52 -588.65002
-40.130001 -104.54 -588.77002
-39.59 -104.56 -588.85999
-39.07 -104.61 -589.15002
-38.549999 -104.67 -589.46997
-38.029999 -104.73 -589.81
-37.5 -104.75 -589.92999
-36.98 -104.81 -590.26001
-36.450001 -104.85 -590.47998
-35.939999 -104.93 -590.96002
-35.419998 -104.98 -591.22998
-34.889999 -105.04 -591.53003
-34.369999 -105.1 -591.89001
-33.860001 -105.19 -592.35999
-33.330002 -105.23 -592.58002
-32.790001 -105.25 -592.71002
-32.25 -105.28 -592.85999
-31.73 -105.32 -593.10999
-31.200001 -105.39 -593.46002
-30.67 -105.45 -593.82001
-30.15 -105.5 -594.10999
-29.629999 -105.59 -594.59998
-29.1 -105.65 -594.95001
-28.57 -105.72 -595.34003
-28.040001 -105.79 -595.71002
-27.51 -105.84 -595.97998
-26.98 -105.9 -596.33002
-26.450001 -105.99 -596.79999
-25.93 -106.09 -597.34998
-25.4 -106.14 -597.66998
-24.860001 -106.2 -598
-24.33 -106.26 -598.31
-23.799999 -106.35 -598.79999
-23.27 -106.43 -599.23999
-22.73 -106.5 -599.63
-22.200001 -106.58 -600.09003
-21.67 -106.67 -600.58002
-21.129999 -106.76 -601.07001
-20.6 -106.84 -601.52002
-20.059999 -106.92 -601.96002
-19.52 -106.99 -602.34998
-18.99 -107.1 -602.96997
-18.459999 -107.22 -603.65997
-17.92 -107.33 -604.23999
-17.389999 -107.45 -604.92999
-16.860001 -107.6 -605.76001
-16.32 -107.71 -606.39001
-15.78 -107.86 -607.20001
-15.26 -108.08 -608.44
-14.73 -108.3 -609.65997
52.279999 -105.86 -596.07001
52.759998 -105.72 -595.26001
53.25 -105.61 -594.67999
53.759998 -105.54 -594.27002
54.27 -105.47 -593.88
54.799999 -105.45 -593.81
55.34 -105.44 -593.75
55.880001 -105.43 -593.65997
56.419998 -105.41 -593.58002
56.959999 -105.41 -593.53003
57.52 -105.45 -593.78003
58.09 -105.49 -593.98999
58.68 -105.57 -594.45001
59.279999 -105.66 -594.94
59.91 -105.83 -595.85999
-165.3 -101.09 -567.01001
-164.71001 -101.05 -566.76001
-164.17 -101.03 -566.69
-163.62 -101.02 -566.59003
-163.13 -101.03 -566.67999
-162.67 -101.07 -566.87
-162.2 -101.1 -567.04999
-161.77 -101.15 -567.32001
-161.39 -101.24 -567.81
-160.99001 -101.32 -568.21997
-160.59 -101.4 -568.64001
-160.07001 -113.18 -633.53003
-159.42999 -113.14 -633.31
-158.81 -113.11 -633.15997
-158.23 -113.12 -633.15997
-157.7 -113.15 -633.34003
-157.13 -113.16 -633.38
-156.57001 -113.17 -633.46997
-156.03999 -113.21 -633.65002
-155.52 -113.25 -633.90002
-155.00999 -113.31 -634.21002
-154.60001 -113.43 -634.89001
-154.17999 -113.55 -635.53003
-153.74001 -113.66 -636.10999
-153.28999 -113.76 -636.69
-152.77 -113.81 -636.94
-98.470001 -107.5 -602.02002
-97.730003 -107.29 -600.87
-97 -107.1 -599.81
-96.330002 -106.96 -599.03998
-95.690002 -106.86 -598.48999
-95.059998 -106.77 -598.01001
-94.43 -106.67 -597.46997
-93.849998 -106.63 -597.26001
-93.239998 -106.56 -596.87
-92.629997 -106.49 -596.46002
-91.949997 -106.34 -595.66998
-91.239998 -106.15 -594.58002
-90.669998 -106.13 -594.46002
-90.07 -106.05 -594.07001
-89.440002 -105.96 -593.54999
-88.849998 -105.9 -593.23999
-88.279999 -105.87 -593.07001
-87.68 -105.8 -592.69
-87.019997 -105.66 -591.91998
-86.419998 -105.59 -591.48999
-85.809998 -105.51 -591.07001
-85.25 -105.48 -590.92999
-84.669998 -105.43 -590.63
-84.110001 -105.41 -590.53003
-83.510002 -105.34 -590.15997
-82.889999 -105.24 -589.57001
-82.279999 -105.16 -589.12
-81.720001 -105.13 -588.97998
-81.169998 -105.11 -588.84998
-80.620003 -105.1 -588.82001
-80.080002 -105.1 -588.79999
-79.510002 -105.06 -588.59998
-78.900002 -104.97 -588.07001
-78.300003 -104.89 -587.63
-77.739998 -104.85 -587.46002
-77.199997 -104.85 -587.42999
-76.650002 -104.83 -587.34003
-76.099998 -104.83 -587.31
-75.550003 -104.8 -587.19
-74.940002 -104.71 -586.65002
-74.330002 -104.61 -586.09003
-73.760002 -104.55 -585.79999
-73.199997 -104.53 -585.65002
-72.650002 -104.51 -585.54999
-72.110001 -104.5 -585.51001
-71.580002 -104.51 -585.59003
-71.029999 -104.49 -585.45001
-70.449997 -104.43 -585.15002
-69.860001 -104.35 -584.67999
-69.309998 -104.33 -584.54999
-68.760002 -104.3 -584.44
-68.230003 -104.32 -584.52002
-67.699997 -104.33 -584.57001
-67.18 -104.34 -584.63
-66.629997 -104.33 -584.59003
-66.080002 -104.31 -584.45001
-65.519997 -104.27 -584.22998
-64.980003 -104.26 -584.17999
-64.449997 -104.27 -584.22998
-63.919998 -104.27 -584.25
-63.380001 -104.27 -584.26001
-62.84 -104.26 -584.21002
-62.290001 -104.23 -584.06
-61.759998 -104.24 -584.09998
-61.209999 -104.23 -584.03003
-60.68 -104.23 -584.06
-60.16 -104.26 -584.19
-59.619999 -104.26 -584.17999
-59.099998 -104.27 -584.26001
-58.580002 -104.3 -584.41998
-58.029999 -104.28 -584.34003
-57.48 -104.25 -584.17999
-56.939999 -104.24 -584.09998
-56.400002 -104.24 -584.12
-55.880001 -104.26 -584.19
-55.34 -104.26 -584.20001
-54.82 -104.28 -584.33002
-54.290001 -104.3 -584.41998
-53.75 -104.29 -584.35999
-53.220001 -104.29 -584.40997
-52.689999 -104.31 -584.51001
-52.16 -104.33 -584.58002
-51.630001 -104.33 -584.60999
-51.099998 -104.35 -584.71002
-50.57 -104.37 -584.81
-50.060001 -104.41 -585.02002
-49.540001 -104.45 -585.26001
-49.029999 -104.5 -585.56
-48.52 -104.55 -585.82001
-47.990002 -104.57 -585.90997
-47.439999 -104.56 -585.87
-46.91 -104.56 -585.88
-46.380001 -104.59 -586.03003
-45.860001 -104.62 -586.21002
-45.34 -104.65 -586.38
-44.82 -104.69 -586.59998
-44.299999 -104.75 -586.92999
-43.779999 -104.79 -587.15002
-43.27 -104.84 -587.45001
-42.75 -104.9 -587.73999
-42.240002 -104.96 -588.09003
-41.709999 -105 -588.29999
-41.189999 -105.03 -588.48999
-40.66 -105.08 -588.75
-40.139999 -105.12 -588.97998
-39.610001 -105.15 -589.13
-39.080002 -105.17 -589.28003
-38.560001 -105.23 -589.57001
-38.040001 -105.29 -589.91998
-37.509998 -105.33 -590.13
-36.990002 -105.38 -590.42999
-36.470001 -105.43 -590.67999
-35.939999 -105.48 -590.96002
-35.419998 -105.53 -591.22998
-34.900002 -105.6 -591.64001
-34.380001 -105.66 -591.96002
-33.849998 -105.72 -592.28998
-33.34 -105.8 -592.75
-32.82 -105.88 -593.17999
-32.279999 -105.91 -593.34003
-31.74 -105.9 -593.31
-31.200001 -105.94 -593.53003
-30.68 -106.01 -593.92999
-30.15 -106.08 -594.28003
-29.629999 -106.16 -594.71002
-29.110001 -106.23 -595.12
-28.58 -106.3 -595.52002
-28.049999 -106.37 -595.91998
-27.52 -106.43 -596.23999
-26.99 -106.51 -596.65002
-26.459999 -106.58 -597.06
-25.940001 -106.67 -597.56
-25.41 -106.75 -597.98999
-24.879999 -106.83 -598.42999
-24.35 -106.91 -598.88
-23.82 -106.98 -599.27002
-23.280001 -107.03 -599.54999
-22.75 -107.12 -600.03998
-22.219999 -107.21 -600.54999
-21.690001 -107.32 -601.15997
-21.16 -107.42 -601.71997
-20.620001 -107.52 -602.26001
-20.09 -107.61 -602.71997
-19.540001 -107.66 -603.01001
-19 -107.73 -603.40002
-18.469999 -107.84 -604.01001
-17.93 -107.96 -604.66998
-17.4 -108.08 -605.32001
-16.870001 -108.25 -606.25
-16.33 -108.36 -606.90997
-15.81 -108.57 -608.07001
-15.29 -108.88 -609.77002
51.869999 -106.69 -597.60999
52.27 -106.39 -595.96002
52.75 -106.25 -595.20001
53.240002 -106.13 -594.54999
53.740002 -106.06 -594.12
54.259998 -105.99 -593.78998
54.799999 -105.99 -593.76001
55.34 -105.99 -593.75
55.869999 -105.96 -593.58002
56.41 -105.95 -593.52002
56.950001 -105.95 -593.52002
57.52 -105.98 -593.70001
58.080002 -106.02 -593.90002
58.68 -106.12 -594.46997
59.290001 -106.23 -595.04999
59.919998 -106.39 -595.95001
-165.8 -101.6 -566.96997
-165.19 -101.54 -566.65002
-164.62 -101.51 -566.46997
-164.07001 -101.49 -566.37
-163.55 -101.49 -566.37
-163.05 -101.5 -566.40997
-162.56 -101.52 -566.5
-162.11 -101.56 -566.72998
-161.67 -101.61 -567
-161.25 -101.67 -567.33002
-160.88 -101.77 -567.84003
-160.48 -101.85 -568.25
-160.10001 -101.94 -568.76001
-159.96001 -113.68 -633.09003
-159.37 -113.68 -633.08002
-158.81 -113.69 -633.15002
-158.22 -113.69 -633.10999
-157.64999 -113.7 -633.15997
-157.09 -113.71 -633.23999
-156.57001 -113.75 -633.45001
-156.03 -113.79 -633.64001
-155.53999 -113.85 -633.97998
-155.05 -113.92 -634.34998
-154.56 -113.98 -634.71002
-154.12 -114.09 -635.31
-153.67 -114.19 -635.85999
-153.27 -114.33 -636.59003
-153.11 -114.65 -638.34998
-99.720001 -108.2 -602.84998
-99.040001 -108.06 -602.09998
-98.379997 -107.95 -601.46997
-97.699997 -107.81 -600.69
-96.949997 -107.58 -599.46997
-96.260002 -107.42 -598.59003
-95.620003 -107.33 -598.09003
-94.980003 -107.23 -597.52002
-94.360001 -107.14 -597.04999
-93.769997 -107.09 -596.75
-93.160004 -107.02 -596.39001
-92.550003 -106.94 -595.95001
-91.839996 -106.76 -594.92999
-91.209999 -106.65 -594.37
-90.639999 -106.62 -594.21002
-90.029999 -106.55 -593.81
-89.389999 -106.44 -593.17999
-88.809998 -106.39 -592.91998
-88.220001 -106.34 -592.65997
-87.639999 -106.3 -592.42999
-87.019997 -106.21 -591.91998
-86.400002 -106.11 -591.40002
-85.779999 -106.01 -590.84998
-85.199997 -105.96 -590.58002
-84.620003 -105.92 -590.34003
-84.059998 -105.89 -590.21002
-83.5 -105.86 -590.03998
-82.919998 -105.81 -589.77002
-82.279999 -105.69 -589.07001
-81.690002 -105.63 -588.73999
-81.139999 -105.61 -588.64001
-80.580002 -105.58 -588.5
-80.040001 -105.59 -588.52002
-79.5 -105.59 -588.52002
-78.93 -105.54 -588.27002
-78.309998 -105.44 -587.71997
-77.709999 -105.35 -587.21997
-77.160004 -105.33 -587.14001
-76.599998 -105.31 -587.02002
-76.059998 -105.3 -586.97998
-75.519997 -105.3 -586.97998
-74.959999 -105.27 -586.79999
-74.360001 -105.18 -586.31
-73.760002 -105.1 -585.84998
-73.18 -105.03 -585.48999
-72.629997 -105.02 -585.40997
-72.089996 -105.01 -585.34003
-71.540001 -104.99 -585.26001
-71 -104.99 -585.26001
-70.459999 -104.98 -585.19
-69.889999 -104.93 -584.90002
-69.32 -104.87 -584.60999
-68.75 -104.83 -584.39001
-68.209999 -104.82 -584.34003
-67.68 -104.83 -584.40997
-67.160004 -104.85 -584.46997
-66.629997 -104.86 -584.52002
-66.089996 -104.85 -584.52002
-65.519997 -104.8 -584.23999
-64.980003 -104.79 -584.17999
-64.440002 -104.79 -584.15997
-63.900002 -104.78 -584.12
-63.380001 -104.8 -584.21002
-62.84 -104.79 -584.15002
-62.299999 -104.78 -584.14001
-61.759998 -104.78 -584.09003
-61.220001 -104.77 -584.03998
-60.68 -104.76 -584.03003
-60.150002 -104.77 -584.06
-59.610001 -104.77 -584.06
-59.09 -104.79 -584.15002
-58.560001 -104.8 -584.25
-58.029999 -104.82 -584.33002
-57.490002 -104.81 -584.26001
-56.93 -104.76 -584.03998
-56.400002 -104.76 -584.02002
-55.860001 -104.77 -584.04999
-55.330002 -104.78 -584.12
-54.810001 -104.8 -584.21997
-54.290001 -104.83 -584.38
-53.75 -104.83 -584.39001
-53.220001 -104.83 -584.38
-52.689999 -104.85 -584.48999
-52.16 -104.86 -584.58002
-51.639999 -104.89 -584.73999
-51.110001 -104.9 -584.78003
-50.580002 -104.91 -584.84998
-50.049999 -104.93 -584.97998
-49.540001 -104.98 -585.23999
-49.02 -105.03 -585.5
-48.52 -105.1 -585.90997
-48 -105.14 -586.13
-47.459999 -105.13 -586.04999
-46.919998 -105.13 -586.06
-46.389999 -105.14 -586.13
-45.860001 -105.17 -586.26001
-45.349998 -105.21 -586.48999
-44.82 -105.24 -586.66998
-44.299999 -105.28 -586.89001
-43.790001 -105.34 -587.20001
-43.27 -105.39 -587.48999
-42.75 -105.44 -587.78003
-42.240002 -105.51 -588.15002
-41.720001 -105.56 -588.42999
-41.189999 -105.59 -588.60999
-40.669998 -105.63 -588.84003
-40.16 -105.7 -589.20001
-39.630001 -105.74 -589.40002
-39.099998 -105.77 -589.57001
-38.57 -105.8 -589.75
-38.049999 -105.84 -589.98999
-37.529999 -105.92 -590.39001
-37.009998 -105.97 -590.66998
-36.48 -106.02 -590.94
-35.959999 -106.06 -591.16998
-35.419998 -106.09 -591.34998
-34.900002 -106.15 -591.70001
-34.380001 -106.21 -592.03003
-33.860001 -106.29 -592.45001
-33.34 -106.35 -592.78998
-32.82 -106.44 -593.26001
-32.299999 -106.5 -593.62
-31.77 -106.56 -593.91998
-31.23 -106.58 -594.02002
-30.700001 -106.61 -594.22998
-30.17 -106.67 -594.51001
-29.639999 -106.73 -594.89001
-29.120001 -106.82 -595.37
-28.59 -106.89 -595.76001
-28.059999 -106.96 -596.10999
-27.540001 -107.05 -596.63
-27.01 -107.11 -596.97998
-26.48 -107.19 -597.39001
-25.950001 -107.26 -597.77002
-25.42 -107.36 -598.31
-24.889999 -107.44 -598.77002
-24.370001 -107.53 -599.26001
-23.83 -107.61 -599.70001
-23.299999 -107.69 -600.13
-22.77 -107.76 -600.53003
-22.23 -107.85 -601.03998
-21.700001 -107.95 -601.53998
-21.17 -108.05 -602.12
-20.629999 -108.13 -602.58002
-20.1 -108.22 -603.03003
-19.559999 -108.3 -603.47998
-19.030001 -108.43 -604.20001
-18.49 -108.52 -604.72998
-17.959999 -108.65 -605.40997
-17.42 -108.77 -606.08002
-16.879999 -108.88 -606.66998
-16.34 -108.98 -607.25
-15.83 -109.29 -608.95001
-15.3 -109.52 -610.17999
51.799999 -107.09 -596.83002
52.259998 -106.9 -595.77002
52.740002 -106.78 -595.09003
53.23 -106.67 -594.48999
53.75 -106.61 -594.15997
54.259998 -106.54 -593.79999
54.799999 -106.54 -593.76001
55.330002 -106.51 -593.62
55.869999 -106.51 -593.60999
56.400002 -106.47 -593.40997
56.950001 -106.49 -593.48999
57.52 -106.52 -593.69
58.080002 -106.56 -593.90002
58.689999 -106.67 -594.51001
59.290001 -106.77 -595.06
59.91 -106.91 -595.84003
-165.75 -102.09 -566.78998
-165.13 -102.03 -566.46002
-164.55 -101.99 -566.23999
-164.00999 -101.97 -566.16998
-163.50999 -101.98 -566.21997
-162.99001 -101.98 -566.21002
-162.50999 -102.01 -566.34003
-162.05 -102.05 -566.53003
-161.60001 -102.09 -566.77002
-161.19 -102.16 -567.13
-160.77 -102.22 -567.46002
-160.42 -102.33 -568.07001
-160.02 -102.41 -568.46997
-159.2 -114.13 -632.39001
-158.7 -114.2 -632.72998
-158.23 -114.27 -633.13
-157.66 -114.28 -633.19
-157.12 -114.31 -633.34998
-156.60001 -114.36 -633.59003
-156.07001 -114.39 -633.78003
-155.53999 -114.43 -633.98999
-155.02 -114.48 -634.23999
-154.50999 -114.53 -634.53003
-154.08 -114.64 -635.13
-153.67 -114.78 -635.85999
-153.31 -114.94 -636.77002
-152.95 -115.11 -637.65997
-99.559998 -108.58 -601.90002
-98.900002 -108.46 -601.27002
-98.230003 -108.33 -600.53998
-97.610001 -108.26 -600.15002
-96.919998 -108.1 -599.27002
-96.230003 -107.95 -598.44
-95.529999 -107.77 -597.48999
-94.919998 -107.7 -597.09998
-94.300003 -107.62 -596.67999
-93.690002 -107.55 -596.27002
-93.080002 -107.47 -595.85999
-92.43 -107.36 -595.22998
-91.699997 -107.14 -594.02002
-91.129997 -107.11 -593.90002
-90.580002 -107.11 -593.85999
-89.989998 -107.05 -593.56
-89.349998 -106.93 -592.91998
-88.739998 -106.86 -592.5
-88.160004 -106.81 -592.22998
-87.57 -106.76 -591.96002
-87 -106.72 -591.75
-86.400002 -106.65 -591.34998
-85.760002 -106.52 -590.67999
-85.169998 -106.46 -590.34003
-84.589996 -106.41 -590.08002
-84.010002 -106.37 -589.84998
-83.440002 -106.34 -589.65997
-82.889999 -106.32 -589.59003
-82.300003 -106.25 -589.21002
-81.690002 -106.16 -588.71997
-81.099998 -106.1 -588.37
-80.540001 -106.07 -588.21997
-79.989998 -106.06 -588.14001
-79.449997 -106.05 -588.12
-78.910004 -106.06 -588.16998
-78.330002 -106 -587.79999
-77.699997 -105.88 -587.15002
-77.120003 -105.83 -586.88
-76.57 -105.8 -586.73999
-76.019997 -105.79 -586.70001
-75.480003 -105.78 -586.62
-74.919998 -105.75 -586.48999
-74.370003 -105.74 -586.39001
-73.790001 -105.68 -586.06
-73.18 -105.57 -585.51001
-72.610001 -105.52 -585.23999
-72.059998 -105.5 -585.13
-71.519997 -105.5 -585.09003
-70.980003 -105.49 -585.03998
-70.449997 -105.5 -585.10999
-69.900002 -105.48 -584.98999
-69.330002 -105.42 -584.67999
-68.760002 -105.37 -584.41998
-68.209999 -105.35 -584.29999
-67.669998 -105.35 -584.32001
-67.139999 -105.36 -584.33002
-66.610001 -105.36 -584.37
-66.080002 -105.38 -584.46997
-65.529999 -105.36 -584.33002
-64.980003 -105.33 -584.16998
-64.43 -105.3 -584.01001
-63.889999 -105.29 -584
-63.360001 -105.3 -584.02002
-62.830002 -105.31 -584.08002
-62.290001 -105.3 -584.03003
-61.75 -105.29 -584
-61.200001 -105.28 -583.92999
-60.669998 -105.28 -583.90002
-60.130001 -105.28 -583.90002
-59.599998 -105.28 -583.95001
-59.07 -105.29 -584
-58.540001 -105.3 -584.06
-58.02 -105.33 -584.17999
-57.490002 -105.35 -584.28998
-56.939999 -105.31 -584.09998
-56.389999 -105.29 -584
-55.860001 -105.3 -584.02002
-55.330002 -105.31 -584.08002
-54.799999 -105.32 -584.15997
-54.279999 -105.34 -584.26001
-53.75 -105.36 -584.34998
-53.23 -105.38 -584.5
-52.700001 -105.4 -584.57001
-52.169998 -105.41 -584.64001
-51.639999 -105.43 -584.75
-51.119999 -105.45 -584.88
-50.580002 -105.46 -584.90002
-50.049999 -105.47 -584.98999
-49.540001 -105.52 -585.23999
-49.02 -105.56 -585.46002
-48.509998 -105.61 -585.72998
-48 -105.68 -586.13
-47.48 -105.72 -586.32001
-46.939999 -105.71 -586.28003
-46.400002 -105.71 -586.27002
-45.869999 -105.71 -586.29999
-45.349998 -105.75 -586.53003
-44.82 -105.79 -586.71002
-44.310001 -105.84 -586.98999
-43.790001 -105.88 -587.20001
-43.27 -105.92 -587.46002
-42.759998 -105.99 -587.82001
-42.240002 -106.04 -588.08002
-41.720001 -106.1 -588.41998
-41.200001 -106.15 -588.67999
-40.68 -106.21 -589.03003
-40.16 -106.24 -589.21002
-39.630001 -106.28 -589.42999
-39.110001 -106.34 -589.72998
-38.580002 -106.37 -589.88
-38.060001 -106.41 -590.15002
-37.540001 -106.48 -590.48999
-37.02 -106.53 -590.79999
-36.490002 -106.58 -591.06
-35.98 -106.67 -591.53003
-35.450001 -106.7 -591.73999
-34.919998 -106.75 -592.01001
-34.400002 -106.81 -592.29999
-33.869999 -106.86 -592.57001
-33.349998 -106.94 -593.02002
-32.830002 -107.01 -593.40002
-32.299999 -107.07 -593.72998
-31.790001 -107.18 -594.32001
-31.25 -107.2 -594.46997
-30.719999 -107.24 -594.66998
-30.18 -107.28 -594.85999
-29.65 -107.33 -595.16998
-29.129999 -107.4 -595.54999
-28.6 -107.47 -595.92999
-28.07 -107.55 -596.34998
-27.549999 -107.63 -596.83002
-27.02 -107.72 -597.28998
-26.5 -107.81 -597.78003
-25.969999 -107.89 -598.21997
-25.440001 -107.97 -598.65002
-24.9 -108.02 -598.90997
-24.370001 -108.12 -599.46997
-23.84 -108.2 -599.91998
-23.309999 -108.3 -600.46002
-22.790001 -108.41 -601.08002
-22.26 -108.54 -601.78003
-21.73 -108.63 -602.23999
-21.190001 -108.71 -602.72998
-20.65 -108.75 -602.90997
-20.110001 -108.82 -603.31
-19.57 -108.89 -603.71002
-19.030001 -109.01 -604.37
-18.5 -109.14 -605.03998
-17.969999 -109.26 -605.72998
-17.43 -109.41 -606.52002
-16.9 -109.56 -607.37
-16.370001 -109.73 -608.26001
-15.87 -110.12 -610.40997
51.77 -107.57 -596.44
52.23 -107.39 -595.47998
52.73 -107.3 -594.97998
53.23 -107.21 -594.45001
53.740002 -107.13 -594.03003
54.259998 -107.08 -593.76001
54.799999 -107.08 -593.73999
55.32 -107.03 -593.51001
55.860001 -107.03 -593.47998
56.41 -107.03 -593.46997
56.950001 -107.03 -593.51001
57.509998 -107.06 -593.65997
58.09 -107.12 -593.95001
58.689999 -107.22 -594.53003
59.279999 -107.31 -595.03003
59.900002 -107.44 -595.70001
-165.71001 -102.58 -566.66998
-165.08 -102.51 -566.29999
-164.52 -102.49 -566.15002
-163.98 -102.47 -566.04999
-163.46001 -102.47 -566.03998
-162.96001 -102.49 -566.10999
-162.49001 -102.51 -566.26001
-162.00999 -102.54 -566.40002
-161.55 -102.57 -566.58002
-161.14 -102.65 -566.96997
-160.78 -102.75 -567.5
-160.39999 -102.84 -568
-160.02 -102.93 -568.47998
-159.66 -103.03 -569.03003
-158.64999 -114.74 -632.5
-158.17 -114.81 -632.90002
-157.66 -114.86 -633.16998
-157.12 -114.89 -633.33002
-156.61 -114.94 -633.62
-156.03999 -114.95 -633.66998
-155.50999 -114.99 -633.85999
-155.00999 -115.05 -634.19
-154.52 -115.12 -634.56
-154.08 -115.23 -635.15002
-153.64999 -115.34 -635.77002
-153.17 -115.42 -636.19
-152.69 -115.5 -636.59998
-99.43 -108.99 -601.14001
-98.769997 -108.88 -600.53003
-98.129997 -108.78 -599.96997
-97.5 -108.68 -599.46002
-96.870003 -108.6 -598.98999
-96.230003 -108.49 -598.40997
-95.480003 -108.27 -597.21997
-94.860001 -108.18 -596.72998
-94.239998 -108.1 -596.28998
-93.620003 -108.01 -595.83002
-93 -107.93 -595.35999
-92.300003 -107.75 -594.38
-91.629997 -107.6 -593.58002
-91.07 -107.59 -593.53003
-90.519997 -107.58 -593.47998
-89.940002 -107.54 -593.23999
-89.330002 -107.46 -592.81
-88.709999 -107.36 -592.29999
-88.110001 -107.29 -591.90002
-87.529999 -107.24 -591.65002
-86.959999 -107.21 -591.46997
-86.379997 -107.17 -591.25
-85.760002 -107.07 -590.71002
-85.139999 -106.98 -590.20001
-84.550003 -106.91 -589.84003
-83.970001 -106.86 -589.59003
-83.400002 -106.83 -589.38
-82.839996 -106.8 -589.22998
-82.279999 -106.77 -589.09998
-81.720001 -106.74 -588.91998
-81.089996 -106.62 -588.28998
-80.510002 -106.58 -588.03998
-79.949997 -106.55 -587.85999
-79.400002 -106.53 -587.78003
-78.879997 -106.55 -587.88
-78.330002 -106.55 -587.87
-77.730003 -106.45 -587.35999
-77.120003 -106.36 -586.84003
-76.540001 -106.3 -586.53998
-76.010002 -106.3 -586.56
-75.440002 -106.27 -586.38
-74.889999 -106.25 -586.27002
-74.339996 -106.23 -586.13
-73.800003 -106.23 -586.13
-73.209999 -106.14 -585.67999
-72.620003 -106.08 -585.33002
-72.050003 -106.02 -585.03998
-71.510002 -106.01 -584.96997
-70.959999 -106 -584.90002
-70.43 -106 -584.92999
-69.889999 -106 -584.92999
-69.349998 -106 -584.90002
-68.790001 -105.96 -584.66998
-68.220001 -105.91 -584.40997
-67.669998 -105.88 -584.28003
-67.129997 -105.87 -584.21997
-66.589996 -105.87 -584.23999
-66.07 -105.9 -584.37
-65.540001 -105.9 -584.35999
-64.989998 -105.88 -584.25
-64.43 -105.84 -584.06
-63.880001 -105.82 -583.95001
-63.34 -105.81 -583.90997
-62.810001 -105.82 -583.95001
-62.27 -105.82 -583.91998
-61.740002 -105.82 -583.92999
-61.189999 -105.8 -583.83002
-60.66 -105.81 -583.89001
-60.119999 -105.79 -583.78003
-59.59 -105.8 -583.84003
-59.07 -105.82 -583.96997
-58.540001 -105.83 -584.02002
-58.009998 -105.85 -584.10999
-57.48 -105.86 -584.15002
-56.950001 -105.87 -584.23999
-56.400002 -105.84 -584.03003
-55.860001 -105.82 -583.97998
-55.32 -105.81 -583.92999
-54.799999 -105.85 -584.09998
-54.279999 -105.88 -584.27002
-53.75 -105.89 -584.34998
-53.23 -105.92 -584.5
-52.709999 -105.95 -584.66998
-52.169998 -105.95 -584.66998
-51.639999 -105.97 -584.77002
-51.119999 -106 -584.92999
-50.59 -106.01 -585
-50.060001 -106.03 -585.09003
-49.540001 -106.06 -585.27002
-49.02 -106.09 -585.40997
-48.509998 -106.15 -585.78003
-47.990002 -106.19 -586
-47.490002 -106.26 -586.35999
-46.959999 -106.29 -586.53998
-46.419998 -106.29 -586.52002
-45.880001 -106.28 -586.48999
-45.360001 -106.31 -586.63
-44.830002 -106.34 -586.78998
-44.310001 -106.38 -587.01001
-43.790001 -106.42 -587.22998
-43.27 -106.47 -587.51001
-42.75 -106.52 -587.78998
-42.240002 -106.58 -588.09003
-41.720001 -106.64 -588.40997
-41.209999 -106.71 -588.82001
-40.689999 -106.76 -589.09003
-40.169998 -106.82 -589.41998
-39.639999 -106.85 -589.59998
-39.119999 -106.9 -589.83002
-38.599998 -106.95 -590.13
-38.080002 -107.01 -590.45001
-37.540001 -107.03 -590.58002
-37.02 -107.09 -590.85999
-36.5 -107.14 -591.17999
-35.990002 -107.24 -591.69
-35.470001 -107.31 -592.07001
-34.950001 -107.37 -592.42999
-34.419998 -107.43 -592.72998
-33.889999 -107.47 -592.96997
-33.360001 -107.49 -593.08002
-32.830002 -107.55 -593.38
-32.310001 -107.63 -593.83002
-31.799999 -107.74 -594.45001
-31.280001 -107.83 -594.89001
-30.74 -107.87 -595.13
-30.200001 -107.89 -595.21997
-29.67 -107.94 -595.47998
-29.139999 -107.99 -595.77002
-28.620001 -108.07 -596.23999
-28.09 -108.15 -596.64001
-27.559999 -108.23 -597.09998
-27.040001 -108.31 -597.54999
-26.51 -108.41 -598.08002
-25.99 -108.51 -598.63
-25.450001 -108.58 -598.97998
-24.92 -108.63 -599.26001
-24.379999 -108.71 -599.71002
-23.85 -108.78 -600.08002
-23.33 -108.9 -600.76001
-22.799999 -109.01 -601.32001
-22.27 -109.15 -602.08002
-21.75 -109.27 -602.75
-21.209999 -109.35 -603.16998
-20.67 -109.42 -603.53998
-20.129999 -109.47 -603.84998
-19.59 -109.56 -604.29999
-19.059999 -109.7 -605.09003
-18.52 -109.8 -605.59998
-17.98 -109.92 -606.25
-17.450001 -110.03 -606.90002
-16.91 -110.16 -607.60999
-16.379999 -110.36 -608.67999
51.759998 -108.1 -596.34998
52.209999 -107.91 -595.28998
52.720001 -107.81 -594.78998
53.220001 -107.74 -594.38
53.740002 -107.68 -594.07001
54.259998 -107.63 -593.79999
54.790001 -107.61 -593.70001
55.32 -107.58 -593.5
55.849998 -107.55 -593.38
56.400002 -107.56 -593.41998
56.950001 -107.57 -593.44
57.5 -107.59 -593.56
58.09 -107.66 -593.96002
58.68 -107.75 -594.42999
59.279999 -107.85 -594.98999
59.889999 -107.97 -595.62
-165.71001 -103.1 -566.65997
-165.03999 -103 -566.15002
-164.48 -102.98 -566.03003
-163.95 -102.97 -565.96002
-163.44 -102.98 -565.97998
-162.92999 -102.98 -566.01001
-162.48 -103.02 -566.22998
-162 -103.05 -566.38
-161.58 -103.12 -566.71002
-161.21001 -103.21 -567.21002
-160.81 -103.28 -567.59998
-160.38 -103.34 -567.91998
-159.94 -103.39 -568.19
-159.53999 -103.48 -568.63
-159.13 -103.55 -569.01001
-157.98 -115.25 -632.16998
-157.56 -115.37 -632.81
-157.05 -115.42 -633.07001
-156.49001 -115.44 -633.15002
-155.92 -115.44 -633.17999
-155.42 -115.51 -633.52002
-154.94 -115.58 -633.90997
-154.39 -115.61 -634.03998
-153.91 -115.69 -634.46997
-153.48 -115.8 -635.07001
-152.94 -115.83 -635.23999
-99.269997 -109.37 -600.20001
-98.669998 -109.31 -599.87
-98.010002 -109.19 -599.22998
-97.400002 -109.12 -598.85999
-96.769997 -109.03 -598.38
-96.18 -108.98 -598.12
-95.470001 -108.8 -597.14001
-94.809998 -108.67 -596.40997
-94.190002 -108.58 -595.96002
-93.550003 -108.48 -595.40997
-92.870003 -108.32 -594.53998
-92.150002 -108.12 -593.44
-91.559998 -108.06 -593.12
-91 -108.04 -593.04999
-90.449997 -108.03 -592.98999
-89.879997 -108.01 -592.85999
-89.309998 -107.98 -592.66998
-88.699997 -107.9 -592.26001
-88.07 -107.79 -591.67999
-87.459999 -107.71 -591.22998
-86.900002 -107.68 -591.09998
-86.339996 -107.66 -590.95001
-85.75 -107.59 -590.60999
-85.139999 -107.51 -590.17999
-84.529999 -107.43 -589.71997
-83.940002 -107.36 -589.34003
-83.370003 -107.32 -589.12
-82.800003 -107.28 -588.94
-82.230003 -107.25 -588.76001
-81.690002 -107.25 -588.73999
-81.110001 -107.19 -588.44
-80.519997 -107.12 -588.07001
-79.919998 -107.05 -587.65997
-79.370003 -107.02 -587.53003
-78.809998 -107 -587.40997
-78.290001 -107.02 -587.53003
-77.739998 -107.01 -587.44
-77.139999 -106.93 -587.01001
-76.529999 -106.82 -586.41998
-75.970001 -106.79 -586.27002
-75.419998 -106.78 -586.20001
-74.870003 -106.75 -586.09003
-74.300003 -106.71 -585.82001
-73.760002 -106.71 -585.85999
-73.220001 -106.71 -585.83002
-72.639999 -106.64 -585.47998
-72.050003 -106.56 -585.01001
-71.489998 -106.53 -584.84998
-70.940002 -106.5 -584.70001
-70.410004 -106.5 -584.73999
-69.870003 -106.51 -584.75
-69.339996 -106.51 -584.79999
-68.790001 -106.5 -584.71002
-68.239998 -106.46 -584.52002
-67.669998 -106.41 -584.25
-67.120003 -106.39 -584.14001
-66.580002 -106.39 -584.13
-66.050003 -106.4 -584.20001
-65.519997 -106.41 -584.21002
-64.989998 -106.42 -584.28003
-64.43 -106.38 -584.07001
-63.889999 -106.36 -583.96002
-63.34 -106.34 -583.84003
-62.790001 -106.32 -583.77002
-62.259998 -106.32 -583.73999
-61.720001 -106.32 -583.78003
-61.189999 -106.32 -583.78003
-60.66 -106.34 -583.84003
-60.119999 -106.33 -583.81
-59.59 -106.33 -583.83002
-59.060001 -106.34 -583.84998
-58.52 -106.34 -583.89001
-58 -106.37 -584
-57.470001 -106.37 -584.03003
-56.939999 -106.39 -584.13
-56.400002 -106.39 -584.12
-55.849998 -106.35 -583.92999
-55.310001 -106.34 -583.87
-54.779999 -106.36 -583.96002
-54.27 -106.4 -584.21002
-53.740002 -106.41 -584.27002
-53.220001 -106.45 -584.46002
-52.700001 -106.48 -584.60999
-52.18 -106.51 -584.77002
-51.650002 -106.52 -584.84003
-51.119999 -106.53 -584.91998
-50.59 -106.55 -584.98999
-50.060001 -106.56 -585.04999
-49.540001 -106.59 -585.23999
-49.02 -106.63 -585.41998
-48.509998 -106.68 -585.71002
-47.990002 -106.73 -585.97998
-47.48 -106.79 -586.28998
-46.970001 -106.85 -586.62
-46.450001 -106.88 -586.79999
-45.900002 -106.87 -586.72998
-45.360001 -106.87 -586.72998
-44.84 -106.89 -586.84998
-44.32 -106.94 -587.12
-43.790001 -106.97 -587.28003
-43.279999 -107.03 -587.64001
-42.759998 -107.07 -587.84998
-42.240002 -107.13 -588.15997
-41.720001 -107.17 -588.39001
-41.200001 -107.23 -588.69
-40.689999 -107.31 -589.10999
-40.169998 -107.37 -589.46002
-39.650002 -107.43 -589.77002
-39.130001 -107.48 -590.04999
-38.599998 -107.51 -590.19
-38.080002 -107.57 -590.53998
-37.549999 -107.6 -590.72998
-37.029999 -107.67 -591.08002
-36.509998 -107.71 -591.32001
-35.990002 -107.79 -591.71002
-35.470001 -107.86 -592.09998
-34.950001 -107.94 -592.53003
-34.439999 -108.02 -592.98999
-33.91 -108.07 -593.22998
-33.380001 -108.1 -593.42999
-32.849998 -108.15 -593.67999
-32.32 -108.22 -594.08002
-31.809999 -108.32 -594.62
-31.280001 -108.39 -594.98999
-30.76 -108.46 -595.37
-30.219999 -108.49 -595.53003
-29.690001 -108.55 -595.84003
-29.16 -108.61 -596.15997
-28.629999 -108.66 -596.46002
-28.1 -108.73 -596.84003
-27.57 -108.81 -597.28003
-27.040001 -108.89 -597.71997
-26.52 -109.01 -598.32001
-26 -109.12 -598.91998
-25.469999 -109.19 -599.32001
-24.93 -109.26 -599.67999
-24.4 -109.32 -600.03998
-23.870001 -109.4 -600.46997
-23.34 -109.51 -601.06
-22.809999 -109.63 -601.71002
-22.290001 -109.76 -602.40997
-21.75 -109.84 -602.81
-21.209999 -109.93 -603.31
-20.68 -110.01 -603.76001
-20.15 -110.15 -604.53003
-19.610001 -110.25 -605.06
-19.08 -110.39 -605.81
-18.540001 -110.49 -606.35999
-18 -110.6 -606.96002
-17.469999 -110.72 -607.58002
-16.950001 -111.02 -609.23999
51.73 -108.58 -595.97998
52.209999 -108.45 -595.28998
52.700001 -108.33 -594.64001
53.209999 -108.26 -594.28003
53.720001 -108.2 -593.90997
54.259998 -108.17 -593.76001
54.779999 -108.13 -593.53998
55.310001 -108.11 -593.42999
55.860001 -108.1 -593.40997
56.400002 -108.11 -593.45001
56.950001 -108.11 -593.45001
57.5 -108.13 -593.57001
58.09 -108.22 -594.01001
58.68 -108.29 -594.41998
59.290001 -108.42 -595.09998
59.91 -108.55 -595.78998
-165.7 -103.61 -566.64001
-165.06 -103.54 -566.21997
-164.5 -103.51 -566.07001
-163.96001 -103.5 -566
-163.47 -103.51 -566.08002
-162.97 -103.53 -566.15997
-162.48 -103.54 -566.22998
-162.06 -103.61 -566.57001
-161.63 -103.67 -566.88
-161.17 -103.7 -567.08002
-160.67999 -103.72 -567.17999
-160.17999 -103.73 -567.22998
-159.78999 -103.82 -567.69
-159.42999 -103.92 -568.22998
-159.00999 -103.99 -568.59003
-158.63 -104.08 -569.06
-158.38 -104.26 -570.03003
-157.23 -115.71 -631.5
-156.8 -115.82 -632.08002
-156.23 -115.83 -632.14001
-155.66 -115.83 -632.15002
-155.14 -115.88 -632.38
-154.78999 -116.05 -633.29999
-154.2 -116.05 -633.28003
-98.510002 -109.69 -598.96002
-97.900002 -109.62 -598.57001
-97.279999 -109.54 -598.16998
-96.699997 -109.5 -597.94
-96.099998 -109.44 -597.65002
-95.480003 -109.37 -597.21997
-94.790001 -109.19 -596.29999
-94.160004 -109.1 -595.78998
-93.489998 -108.96 -595.02002
-92.720001 -108.7 -593.63
-92.059998 -108.56 -592.89001
-91.489998 -108.53 -592.71997
-90.940002 -108.51 -592.64001
-90.389999 -108.5 -592.59003
-89.830002 -108.49 -592.52002
-89.279999 -108.48 -592.44
-88.709999 -108.45 -592.31
-88.07 -108.33 -591.66998
-87.43 -108.21 -591.03003
-86.849998 -108.16 -590.75
-86.290001 -108.14 -590.65997
-85.730003 -108.11 -590.47998
-85.150002 -108.06 -590.21997
-84.550003 -107.99 -589.83002
-83.940002 -107.9 -589.32001
-83.339996 -107.83 -588.96002
-82.779999 -107.79 -588.78003
-82.199997 -107.75 -588.52002
-81.650002 -107.73 -588.45001
-81.089996 -107.71 -588.32001
-80.529999 -107.68 -588.15002
-79.919998 -107.58 -587.63
-79.339996 -107.53 -587.34003
-78.790001 -107.5 -587.21997
-78.239998 -107.49 -587.15002
-77.709999 -107.5 -587.21002
-77.169998 -107.5 -587.21002
-76.550003 -107.39 -586.59998
-75.959999 -107.32 -586.23999
-75.400002 -107.28 -586
-74.839996 -107.25 -585.84998
-74.290001 -107.23 -585.73999
-73.730003 -107.2 -585.59003
-73.169998 -107.17 -585.44
-72.650002 -107.19 -585.53998
-72.07 -107.13 -585.21997
-71.5 -107.07 -584.90002
-70.93 -107.02 -584.65002
-70.389999 -107.02 -584.60999
-69.839996 -107 -584.52002
-69.309998 -107.01 -584.57001
-68.779999 -107.02 -584.59998
-68.239998 -107.01 -584.54999
-67.690002 -106.98 -584.40997
-67.139999 -106.96 -584.32001
-66.57 -106.91 -584.06
-66.050003 -106.93 -584.12
-65.519997 -106.94 -584.22998
-64.989998 -106.95 -584.27002
-64.440002 -106.93 -584.14001
-63.889999 -106.9 -584.01001
-63.34 -106.88 -583.85999
-62.790001 -106.85 -583.71002
-62.25 -106.84 -583.65997
-61.709999 -106.84 -583.69
-61.18 -106.85 -583.71997
-60.650002 -106.85 -583.73999
-60.119999 -106.86 -583.77002
-59.580002 -106.85 -583.73999
-59.049999 -106.87 -583.81
-58.52 -106.87 -583.83002
-57.990002 -106.88 -583.90002
-57.459999 -106.89 -583.94
-56.93 -106.9 -584.03003
-56.400002 -106.92 -584.09998
-55.860001 -106.91 -584.03998
-55.310001 -106.88 -583.89001
-54.790001 -106.9 -584.02002
-54.259998 -106.92 -584.13
-53.740002 -106.95 -584.29999
-53.220001 -106.98 -584.46002
-52.709999 -107.03 -584.67999
-52.189999 -107.06 -584.87
-51.66 -107.08 -584.95001
-51.130001 -107.09 -585.03003
-50.599998 -107.09 -585.06
-50.07 -107.12 -585.19
-49.540001 -107.14 -585.28003
-49.02 -107.17 -585.45001
-48.5 -107.21 -585.67999
-48 -107.27 -586.02002
-47.48 -107.31 -586.22998
-46.959999 -107.36 -586.51001
-46.450001 -107.43 -586.87
-45.919998 -107.45 -586.97998
-45.389999 -107.46 -587.02002
-44.849998 -107.47 -587.08002
-44.330002 -107.49 -587.21002
-43.799999 -107.53 -587.41998
-43.290001 -107.59 -587.71997
-42.759998 -107.62 -587.90002
-42.240002 -107.67 -588.16998
-41.720001 -107.71 -588.40002
-41.200001 -107.77 -588.69
-40.689999 -107.85 -589.14001
-40.18 -107.91 -589.47998
-39.66 -107.99 -589.87
-39.150002 -108.06 -590.25
-38.619999 -108.09 -590.41998
-38.09 -108.14 -590.70001
-37.560001 -108.18 -590.90002
-37.040001 -108.23 -591.16998
-36.52 -108.28 -591.46002
-36 -108.35 -591.82001
-35.48 -108.43 -592.25
-34.959999 -108.5 -592.65997
-34.439999 -108.57 -593
-33.93 -108.67 -593.53003
-33.41 -108.74 -593.96002
-32.880001 -108.8 -594.23999
-32.34 -108.84 -594.46002
-31.82 -108.91 -594.84998
-31.290001 -108.96 -595.13
-30.76 -109.01 -595.40002
-30.23 -109.09 -595.83002
-29.709999 -109.18 -596.28003
-29.17 -109.22 -596.5
-28.639999 -109.27 -596.79999
-28.110001 -109.33 -597.09003
-27.59 -109.42 -597.62
-27.059999 -109.51 -598.06
-26.540001 -109.62 -598.65002
-26.01 -109.71 -599.14001
-25.48 -109.8 -599.62
-24.950001 -109.89 -600.10999
-24.42 -109.99 -600.66998
-23.9 -110.1 -601.23999
-23.370001 -110.21 -601.85999
-22.83 -110.28 -602.21002
-22.299999 -110.37 -602.72998
-21.76 -110.46 -603.16998
-21.23 -110.56 -603.76001
-20.690001 -110.64 -604.17999
-20.16 -110.76 -604.81
-19.620001 -110.88 -605.46997
-19.09 -111 -606.08002
-18.549999 -111.08 -606.54999
-18.01 -111.17 -607.02002
-17.48 -111.34 -607.91998
-17 -111.86 -610.71002
51.720001 -109.11 -595.90997
52.200001 -108.96 -595.09998
52.700001 -108.87 -594.59998
53.209999 -108.79 -594.19
53.73 -108.75 -593.95001
54.25 -108.7 -593.67999
54.779999 -108.67 -593.52002
55.310001 -108.65 -593.40997
55.849998 -108.64 -593.37
56.400002 -108.65 -593.44
56.939999 -108.65 -593.40002
57.52 -108.7 -593.67999
58.09 -108.76 -593.98999
58.689999 -108.86 -594.57001
59.299999 -108.98 -595.19
59.950001 -109.18 -596.25
-165.77 -104.18 -566.88
-165.09 -104.08 -566.34003
-164.50999 -104.04 -566.13
-163.98 -104.03 -566.07001
-163.48 -104.04 -566.14001
-163.00999 -104.07 -566.28003
-162.53 -104.09 -566.40997
-162.03999 -104.11 -566.48999
-161.5 -104.1 -566.44
-160.99001 -104.1 -566.45001
-160.55 -104.16 -566.72998
-160.11 -104.21 -566.97998
-159.69 -104.27 -567.34003
-159.3 -104.36 -567.78998
-158.94 -104.47 -568.35999
-158.57001 -104.57 -568.88
-158.2 -104.67 -569.40997
-97.75 -110 -597.69
-97.150002 -109.94 -597.34003
-96.580002 -109.91 -597.21997
-96.010002 -109.89 -597.09003
-95.400002 -109.82 -596.72998
-94.790001 -109.75 -596.33002
-94.129997 -109.61 -595.59998
-93.43 -109.43 -594.65997
-92.589996 -109.08 -592.76001
-91.989998 -109.01 -592.40997
-91.440002 -109.01 -592.39001
-90.889999 -109 -592.32001
-90.330002 -108.97 -592.20001
-89.769997 -108.95 -592.09003
-89.220001 -108.95 -592.09003
-88.669998 -108.94 -592.02002
-88.07 -108.87 -591.63
-87.440002 -108.77 -591.09998
-86.809998 -108.66 -590.5
-86.25 -108.63 -590.34998
-85.68 -108.59 -590.15002
-85.120003 -108.57 -590.02002
-84.550003 -108.53 -589.81
-83.970001 -108.48 -589.53998
-83.349998 -108.38 -589.02002
-82.75 -108.29 -588.56
-82.18 -108.26 -588.35999
-81.610001 -108.22 -588.15997
-81.040001 -108.18 -587.94
-80.489998 -108.17 -587.89001
-79.93 -108.14 -587.71997
-79.360001 -108.09 -587.46002
-78.760002 -108 -587
-78.209999 -107.99 -586.91998
-77.660004 -107.98 -586.87
-77.139999 -107.99 -586.96002
-76.580002 -107.97 -586.84998
-75.989998 -107.89 -586.41998
-75.379997 -107.8 -585.90002
-74.82 -107.76 -585.72998
-74.260002 -107.73 -585.54999
-73.699997 -107.7 -585.38
-73.150002 -107.68 -585.28003
-72.620003 -107.68 -585.29999
-72.080002 -107.68 -585.28998
-71.519997 -107.65 -585.12
-70.93 -107.56 -584.65997
-70.379997 -107.53 -584.51001
-69.830002 -107.51 -584.40002
-69.290001 -107.51 -584.39001
-68.760002 -107.51 -584.40997
-68.230003 -107.53 -584.48999
-67.68 -107.51 -584.40002
-67.150002 -107.51 -584.37
-66.580002 -107.46 -584.09998
-66.040001 -107.45 -584.03998
-65.5 -107.44 -584.03003
-64.970001 -107.46 -584.10999
-64.449997 -107.47 -584.19
-63.91 -107.47 -584.20001
-63.34 -107.42 -583.90002
-62.799999 -107.4 -583.78003
-62.23 -107.35 -583.53998
-61.689999 -107.34 -583.48999
-61.169998 -107.36 -583.59003
-60.639999 -107.37 -583.65002
-60.110001 -107.38 -583.69
-59.580002 -107.39 -583.76001
-59.049999 -107.4 -583.78003
-58.509998 -107.39 -583.75
-57.990002 -107.42 -583.92999
-57.459999 -107.43 -583.97998
-56.93 -107.43 -583.96997
-56.400002 -107.46 -584.10999
-55.860001 -107.45 -584.06
-55.330002 -107.45 -584.09003
-54.799999 -107.45 -584.08002
-54.259998 -107.45 -584.09998
-53.740002 -107.48 -584.22998
-53.220001 -107.5 -584.37
