# .PCD v0.7 - Point Cloud Data file format
VERSION 0.7
FIELDS x y z
SIZE 4 4 4
TYPE F F F
COUNT 1 1 1
WIDTH 1676
HEIGHT 1
VIEWPOINT 0 0 0 1 0 0 0
POINTS 1676
DATA ascii
-29.82 -44.830002 -598.78003
-29.26 -44.810001 -598.46002
-28.700001 -44.790001 -598.27002
-28.15 -44.779999 -598.15997
-27.6 -44.779999 -598.12
-27.049999 -44.790001 -598.21002
-26.52 -44.810001 -598.47998
-25.98 -44.830002 -598.83002
-25.440001 -44.84 -598.88
-24.879999 -44.82 -598.69
-24.32 -44.810001 -598.52002
-23.76 -44.790001 -598.22998
-23.200001 -44.759998 -597.82001
-22.639999 -44.73 -597.52002
-22.09 -44.720001 -597.33002
-21.530001 -44.700001 -597.08002
-20.969999 -44.669998 -596.64001
-20.41 -44.66 -596.52002
-19.870001 -44.650002 -596.46002
-19.32 -44.66 -596.56
-18.77 -44.66 -596.51001
-18.23 -44.66 -596.54999
-17.68 -44.66 -596.56
-17.139999 -44.66 -596.62
-16.6 -44.68 -596.83002
-16.049999 -44.700001 -597.03003
-15.51 -44.709999 -597.27002
-14.97 -44.740002 -597.56
-14.44 -44.77 -598.01001
-13.9 -44.799999 -598.42999
-13.37 -44.849998 -599.09998
-12.83 -44.900002 -599.78003
-12.29 -44.939999 -600.29999
-11.75 -44.990002 -600.90002
-11.22 -45.049999 -601.65997
-10.69 -45.130001 -602.75
-4.5300002 -50.439999 -672.60999
-3.9100001 -50.369999 -671.76001
-3.29 -50.310001 -670.88
-2.6700001 -50.25 -670.12
-2.05 -50.209999 -669.59998
-1.4400001 -50.16 -668.96002
-0.81999999 -50.119999 -668.46002
-0.20999999 -50.07 -667.72998
0.40000001 -50.02 -667.09998
1.01 -49.98 -666.53998
1.63 -49.959999 -666.25
2.24 -49.91 -665.66998
2.8399999 -49.880001 -665.22998
3.45 -49.849998 -664.84003
4.0599999 -49.830002 -664.54999
4.6700001 -49.799999 -664.27002
5.2800002 -49.790001 -664.04999
5.8800001 -49.77 -663.73999
6.4899998 -49.75 -663.60999
7.0999999 -49.740002 -663.39001
7.6999998 -49.709999 -663.01001
8.3100004 -49.669998 -662.54999
8.9099998 -49.66 -662.38
9.5200005 -49.650002 -662.16998
10.12 -49.639999 -662.03998
10.73 -49.619999 -661.81
11.33 -49.599998 -661.59998
11.94 -49.59 -661.5
12.54 -49.59 -661.41998
13.14 -49.57 -661.21997
13.75 -49.560001 -661.07001
14.35 -49.540001 -660.84003
14.95 -49.529999 -660.65997
15.55 -49.509998 -660.41998
16.16 -49.509998 -660.44
16.76 -49.509998 -660.42999
17.370001 -49.52 -660.48999
17.969999 -49.5 -660.23999
18.57 -49.48 -660.01001
19.17 -49.459999 -659.70001
19.76 -49.43 -659.38
20.35 -49.389999 -658.81
20.92 -49.310001 -657.73999
21.49 -49.240002 -656.82001
22.08 -49.189999 -656.21997
22.65 -49.139999 -655.52002
23.25 -49.119999 -655.22998
23.83 -49.080002 -654.66998
24.42 -49.049999 -654.38
25.01 -49.029999 -654.09998
25.6 -49.02 -653.90002
26.190001 -49 -653.65997
26.780001 -48.990002 -653.56
27.379999 -48.98 -653.35999
27.98 -48.98 -653.34998
28.58 -48.98 -653.38
29.190001 -49 -653.63
29.780001 -48.98 -653.41998
30.370001 -48.98 -653.33002
30.969999 -48.970001 -653.19
31.57 -48.98 -653.33002
32.169998 -48.98 -653.31
32.77 -48.970001 -653.23999
33.349998 -48.939999 -652.90997
33.950001 -48.939999 -652.90997
34.549999 -48.950001 -652.95001
35.16 -48.970001 -653.19
35.77 -48.98 -653.42999
36.369999 -48.98 -653.35999
36.970001 -48.98 -653.40002
37.580002 -49 -653.59998
38.200001 -49.02 -653.83002
38.799999 -49.009998 -653.82001
39.400002 -49.02 -653.85999
40.029999 -49.060001 -654.34998
40.639999 -49.07 -654.52002
41.23 -49.049999 -654.29999
41.849998 -49.080002 -654.65997
42.48 -49.110001 -655.02002
43.09 -49.119999 -655.20001
43.700001 -49.130001 -655.32001
44.34 -49.18 -655.95001
44.98 -49.209999 -656.37
45.57 -49.200001 -656.25
46.18 -49.209999 -656.42999
46.810001 -49.23 -656.66998
47.43 -49.25 -656.90997
48.080002 -49.299999 -657.59003
48.700001 -49.32 -657.85999
49.32 -49.34 -658.06
49.959999 -49.369999 -658.45001
50.619999 -49.43 -659.21002
51.27 -49.470001 -659.79999
51.889999 -49.48 -659.96002
52.549999 -49.540001 -660.63
53.209999 -49.580002 -661.23999
53.799999 -49.57 -661.14001
54.43 -49.59 -661.32001
55.080002 -49.630001 -661.89001
55.73 -49.66 -662.32001
56.349998 -49.669998 -662.44
57.040001 -49.75 -663.40997
57.669998 -49.77 -663.64001
58.259998 -49.75 -663.42999
58.880001 -49.759998 -663.53003
59.5 -49.77 -663.67999
60.16 -49.810001 -664.21002
60.880001 -49.900002 -665.42999
61.540001 -49.939999 -665.90002
62.130001 -49.93 -665.73999
62.790001 -49.959999 -666.23999
63.540001 -50.07 -667.69
64.160004 -50.080002 -667.75
64.769997 -50.07 -667.66998
65.470001 -50.139999 -668.56
66.160004 -50.200001 -669.32001
66.82 -50.23 -669.76001
67.540001 -50.310001 -670.82001
68.300003 -50.419998 -672.19
68.949997 -50.439999 -672.46002
69.620003 -50.48 -672.96997
70.360001 -50.57 -674.13
70.970001 -50.560001 -674.09003
-65.790001 -46.759998 -616.58002
-65.230003 -46.759998 -616.60999
-64.650002 -46.75 -616.52002
-64.080002 -46.740002 -616.41998
-63.490002 -46.73 -616.27002
-62.91 -46.720001 -616.12
-58.799999 -44.880001 -592.15997
-58.02 -44.689999 -589.73999
-57.470001 -44.68 -589.65002
-56.919998 -44.68 -589.58002
-56.369999 -44.669998 -589.53003
-55.84 -44.68 -589.58002
-55.32 -44.689999 -589.79999
-54.810001 -44.720001 -590.14001
-54.32 -44.77 -590.72998
-30.950001 -45.43 -599.40997
-30.379999 -45.389999 -598.94
-29.809999 -45.360001 -598.51001
-29.25 -45.34 -598.23999
-28.690001 -45.32 -597.97998
-28.129999 -45.310001 -597.84998
-27.58 -45.310001 -597.83002
-27.040001 -45.310001 -597.89001
-26.5 -45.330002 -598.14001
-25.959999 -45.349998 -598.38
-25.42 -45.349998 -598.45001
-24.870001 -45.349998 -598.40002
-24.32 -45.34 -598.32001
-23.76 -45.330002 -598.15002
-23.200001 -45.310001 -597.84003
-22.639999 -45.279999 -597.44
-22.08 -45.25 -597.15002
-21.52 -45.220001 -596.71002
-20.950001 -45.189999 -596.29999
-20.41 -45.18 -596.27002
-19.860001 -45.18 -596.26001
-19.309999 -45.18 -596.25
-18.77 -45.189999 -596.28003
-18.219999 -45.18 -596.27002
-17.67 -45.189999 -596.28003
-17.129999 -45.189999 -596.40002
-16.59 -45.209999 -596.53998
-16.049999 -45.220001 -596.71002
-15.51 -45.240002 -597
-14.97 -45.259998 -597.26001
-14.43 -45.290001 -597.67999
-13.89 -45.32 -598.06
-13.35 -45.360001 -598.52002
-12.82 -45.41 -599.15002
-12.28 -45.450001 -599.76001
-11.74 -45.5 -600.35999
-11.21 -45.57 -601.23999
-10.68 -45.650002 -602.28003
-4.5300002 -51.02 -672.15002
-3.9100001 -50.970001 -671.46997
-3.29 -50.91 -670.73999
-2.6700001 -50.84 -669.78998
-2.05 -50.790001 -669.19
-1.4400001 -50.740002 -668.47998
-0.81999999 -50.709999 -668.09998
-0.20999999 -50.650002 -667.39001
0.40000001 -50.599998 -666.72998
1.01 -50.57 -666.26001
1.63 -50.549999 -666.09003
2.24 -50.52 -665.70001
2.8399999 -50.48 -665.15002
3.45 -50.439999 -664.62
4.0599999 -50.419998 -664.32001
4.6700001 -50.400002 -664.02002
5.2800002 -50.380001 -663.81
5.8800001 -50.349998 -663.44
6.4899998 -50.34 -663.25
7.0999999 -50.330002 -663.12
7.6999998 -50.32 -663.04999
8.3100004 -50.299999 -662.71997
8.9099998 -50.27 -662.39001
9.5200005 -50.25 -662.10999
10.12 -50.240002 -661.94
10.72 -50.220001 -661.72998
11.33 -50.209999 -661.56
11.93 -50.200001 -661.46997
12.54 -50.18 -661.27002
13.14 -50.18 -661.16998
13.75 -50.169998 -661.12
14.35 -50.16 -660.98999
14.95 -50.139999 -660.75
15.55 -50.119999 -660.46002
16.16 -50.119999 -660.44
16.77 -50.130001 -660.5
17.370001 -50.119999 -660.46997
17.98 -50.119999 -660.44
18.58 -50.110001 -660.31
19.18 -50.080002 -659.96002
19.77 -50.060001 -659.71002
20.370001 -50.049999 -659.47998
20.969999 -50.02 -659.15002
21.540001 -49.950001 -658.15002
22.120001 -49.900002 -657.5
22.690001 -49.82 -656.47998
23.27 -49.779999 -655.96997
23.860001 -49.740002 -655.45001
24.440001 -49.709999 -655.04999
25.030001 -49.68 -654.71997
25.620001 -49.66 -654.41998
26.209999 -49.650002 -654.27002
26.82 -49.650002 -654.32001
27.41 -49.650002 -654.27002
28.01 -49.639999 -654.10999
28.610001 -49.630001 -654.04999
29.200001 -49.610001 -653.81
29.790001 -49.610001 -653.78998
30.389999 -49.599998 -653.71002
30.99 -49.610001 -653.78998
31.59 -49.610001 -653.78998
32.18 -49.59 -653.57001
32.779999 -49.59 -653.46997
33.380001 -49.580002 -653.44
33.98 -49.59 -653.54999
34.599998 -49.619999 -653.84998
35.189999 -49.610001 -653.78998
35.790001 -49.610001 -653.71002
36.389999 -49.599998 -653.64001
37 -49.610001 -653.78998
37.619999 -49.639999 -654.15002
38.209999 -49.630001 -653.98999
38.82 -49.639999 -654.16998
39.439999 -49.669998 -654.54999
40.049999 -49.68 -654.71002
40.650002 -49.68 -654.63
41.259998 -49.68 -654.71997
41.900002 -49.73 -655.33002
42.5 -49.73 -655.34003
43.110001 -49.740002 -655.44
43.740002 -49.779999 -655.95001
44.380001 -49.82 -656.42999
44.98 -49.82 -656.42999
45.610001 -49.849998 -656.79999
46.23 -49.869999 -657.07001
46.84 -49.869999 -657.15997
47.48 -49.91 -657.63
48.110001 -49.939999 -658.04999
48.73 -49.950001 -658.17999
49.360001 -49.98 -658.54999
50 -50.009998 -658.97998
50.669998 -50.080002 -659.84998
51.290001 -50.09 -659.96997
51.93 -50.130001 -660.46002
52.610001 -50.200001 -661.34998
53.220001 -50.200001 -661.40997
53.82 -50.200001 -661.34003
54.48 -50.240002 -661.90002
55.150002 -50.299999 -662.64001
55.759998 -50.299999 -662.70001
56.419998 -50.349998 -663.32001
57.07 -50.389999 -663.79999
57.689999 -50.389999 -663.84998
58.299999 -50.389999 -663.84998
58.93 -50.41 -664.09998
59.59 -50.450001 -664.62
60.259998 -50.5 -665.27002
60.970001 -50.59 -666.39001
61.57 -50.580002 -666.23999
62.169998 -50.57 -666.17999
62.93 -50.68 -667.64001
63.59 -50.73 -668.17999
64.190002 -50.720001 -668.04999
64.870003 -50.759998 -668.67999
65.580002 -50.84 -669.65002
66.25 -50.889999 -670.25
66.949997 -50.950001 -671.04999
67.639999 -51 -671.75
68.360001 -51.080002 -672.79999
69.050003 -51.130001 -673.42999
69.730003 -51.18 -674.03998
-65.199997 -47.299999 -616.33002
-64.610001 -47.290001 -616.15997
-64.019997 -47.27 -615.92999
-63.389999 -47.220001 -615.32001
-58.02 -45.23 -589.72998
-57.459999 -45.220001 -589.62
-56.919998 -45.220001 -589.58002
-56.369999 -45.209999 -589.45001
-55.830002 -45.209999 -589.48999
-55.299999 -45.220001 -589.54999
-54.779999 -45.23 -589.77002
-54.279999 -45.27 -590.28003
-53.799999 -45.32 -590.88
-30.950001 -45.970001 -599.27002
-30.370001 -45.919998 -598.67999
-29.799999 -45.889999 -598.28998
-29.23 -45.860001 -597.90997
-28.67 -45.84 -597.67999
-28.120001 -45.830002 -597.56
-27.57 -45.830002 -597.52002
-27.030001 -45.84 -597.63
-26.49 -45.849998 -597.77002
-25.940001 -45.860001 -597.88
-25.4 -45.860001 -597.94
-24.85 -45.860001 -597.90997
-24.299999 -45.860001 -597.90997
-23.75 -45.860001 -597.87
-23.209999 -45.860001 -597.96002
-22.65 -45.860001 -597.85999
-22.09 -45.82 -597.34003
-21.51 -45.75 -596.54999
-20.950001 -45.720001 -596.15002
-20.4 -45.709999 -596.04999
-19.85 -45.709999 -596.03998
-19.309999 -45.720001 -596.07001
-18.76 -45.709999 -595.97998
-18.209999 -45.709999 -596
-17.67 -45.720001 -596.07001
-17.120001 -45.720001 -596.14001
-16.58 -45.740002 -596.35999
-16.040001 -45.75 -596.52002
-15.5 -45.77 -596.78998
-14.96 -45.790001 -597.04999
-14.42 -45.82 -597.46002
-13.88 -45.849998 -597.79999
-13.35 -45.889999 -598.26001
-12.81 -45.93 -598.81
-12.27 -45.970001 -599.39001
-11.73 -46.009998 -599.89001
-11.2 -46.080002 -600.78003
-10.67 -46.16 -601.81
-10.15 -46.290001 -603.46002
-4.52 -51.57 -671.23999
-3.9100001 -51.540001 -670.94
-3.29 -51.5 -670.35999
-2.6700001 -51.450001 -669.67999
-2.05 -51.389999 -668.92999
-1.4400001 -51.330002 -668.16998
-0.81999999 -51.290001 -667.65997
-0.20999999 -51.23 -666.87
0.40000001 -51.189999 -666.33002
1.01 -51.169998 -666.07001
1.62 -51.150002 -665.88
2.23 -51.130001 -665.64001
2.8399999 -51.110001 -665.31
3.45 -51.060001 -664.71002
4.0599999 -51.009998 -664.12
4.6700001 -50.990002 -663.84003
5.27 -50.970001 -663.59998
5.8800001 -50.959999 -663.38
6.4899998 -50.939999 -663.13
7.0900002 -50.919998 -662.89001
7.6999998 -50.900002 -662.72998
8.3100004 -50.900002 -662.65997
8.9099998 -50.889999 -662.58002
9.5200005 -50.869999 -662.25
10.12 -50.830002 -661.82001
10.72 -50.82 -661.60999
11.33 -50.810001 -661.54999
11.93 -50.799999 -661.32001
12.54 -50.790001 -661.23999
13.14 -50.779999 -661.17999
13.75 -50.779999 -661.15997
14.36 -50.779999 -661.15002
14.96 -50.779999 -661.09003
15.56 -50.759998 -660.79999
16.16 -50.73 -660.48999
16.77 -50.73 -660.53003
17.379999 -50.740002 -660.59003
17.98 -50.740002 -660.65002
18.59 -50.75 -660.66998
19.200001 -50.740002 -660.65997
19.790001 -50.720001 -660.38
20.389999 -50.689999 -659.96002
20.99 -50.669998 -659.72998
21.58 -50.639999 -659.28003
22.16 -50.580002 -658.58002
22.74 -50.52 -657.82001
23.32 -50.48 -657.27002
23.889999 -50.41 -656.40002
24.48 -50.389999 -656.03003
25.08 -50.369999 -655.88
25.66 -50.349998 -655.53003
26.26 -50.330002 -655.29999
26.84 -50.299999 -654.88
27.43 -50.279999 -654.65002
28.030001 -50.27 -654.53003
28.620001 -50.259998 -654.40002
29.219999 -50.25 -654.26001
29.82 -50.25 -654.29999
30.42 -50.25 -654.23999
31.01 -50.23 -654.09003
31.610001 -50.23 -654.04999
32.209999 -50.240002 -654.09998
32.82 -50.25 -654.27002
33.419998 -50.25 -654.29999
34.02 -50.259998 -654.35999
34.610001 -50.240002 -654.15997
35.209999 -50.240002 -654.13
35.810001 -50.240002 -654.10999
36.419998 -50.240002 -654.19
37.040001 -50.27 -654.52002
37.630001 -50.259998 -654.40002
38.240002 -50.27 -654.52002
38.860001 -50.299999 -654.85999
39.470001 -50.310001 -655.08002
40.07 -50.299999 -654.96002
40.68 -50.32 -655.15997
41.310001 -50.349998 -655.59998
41.919998 -50.369999 -655.76001
42.529999 -50.369999 -655.75
43.150002 -50.400002 -656.15997
43.790001 -50.43 -656.59003
44.389999 -50.439999 -656.67999
45.009998 -50.459999 -656.90997
45.639999 -50.48 -657.16998
46.25 -50.490002 -657.32001
46.880001 -50.52 -657.77002
47.52 -50.560001 -658.26001
48.130001 -50.57 -658.32001
48.77 -50.599998 -658.69
49.400002 -50.630001 -659.10999
50.07 -50.689999 -659.85999
50.689999 -50.709999 -660.13
51.330002 -50.740002 -660.53998
52.009998 -50.810001 -661.42999
52.630001 -50.830002 -661.63
53.240002 -50.830002 -661.69
53.880001 -50.860001 -662.03998
54.529999 -50.900002 -662.57001
55.16 -50.919998 -662.84003
55.810001 -50.959999 -663.31
56.5 -51.029999 -664.19
57.09 -51.009998 -664.02002
57.720001 -51.029999 -664.21997
58.34 -51.040001 -664.40002
58.990002 -51.07 -664.78998
59.669998 -51.130001 -665.57001
60.380001 -51.220001 -666.65002
60.990002 -51.220001 -666.64001
61.619999 -51.23 -666.77002
62.290001 -51.279999 -667.39001
63.02 -51.369999 -668.59003
63.630001 -51.369999 -668.60999
64.290001 -51.400002 -669.01001
65.010002 -51.490002 -670.10999
65.68 -51.529999 -670.65002
66.389999 -51.599998 -671.58002
67.059998 -51.650002 -672.13
67.75 -51.700001 -672.82001
68.43 -51.75 -673.44
69.089996 -51.779999 -673.85999
-64.529999 -47.790001 -615.34998
-58.02 -45.77 -589.73999
-57.470001 -45.759998 -589.64001
-56.919998 -45.759998 -589.53998
-56.360001 -45.740002 -589.34998
-55.810001 -45.740002 -589.29999
-55.290001 -45.75 -589.45001
-54.759998 -45.759998 -589.58002
-54.25 -45.790001 -589.97998
-53.75 -45.82 -590.40997
-53.290001 -45.889999 -591.25
-31.52 -46.549999 -599.75
-30.93 -46.490002 -598.89001
-30.35 -46.450001 -598.37
-29.780001 -46.41 -597.98999
-29.219999 -46.389999 -597.65997
-28.66 -46.369999 -597.40997
-28.110001 -46.360001 -597.27002
-27.549999 -46.349998 -597.17999
-27.01 -46.360001 -597.23999
-26.469999 -46.369999 -597.46997
-25.93 -46.389999 -597.65002
-25.389999 -46.389999 -597.71997
-24.84 -46.389999 -597.71997
-24.290001 -46.389999 -597.64001
-23.74 -46.380001 -597.56
-23.190001 -46.389999 -597.65002
-22.65 -46.389999 -597.71997
-22.08 -46.360001 -597.23999
-21.5 -46.27 -596.22998
-20.940001 -46.25 -595.92999
-20.389999 -46.25 -595.84998
-19.84 -46.240002 -595.79999
-19.299999 -46.240002 -595.82001
-18.75 -46.240002 -595.78003
-18.209999 -46.240002 -595.81
-17.66 -46.25 -595.84998
-17.120001 -46.25 -595.94
-16.58 -46.27 -596.10999
-16.040001 -46.279999 -596.29999
-15.49 -46.299999 -596.52002
-14.96 -46.32 -596.83002
-14.42 -46.349998 -597.16998
-13.88 -46.369999 -597.5
-13.34 -46.41 -597.95001
-12.8 -46.439999 -598.40002
-12.27 -46.5 -599.04999
-11.73 -46.540001 -599.58002
-11.2 -46.610001 -600.46997
-10.66 -46.68 -601.40002
-10.14 -46.82 -603.10999
-4.52 -52.130001 -670.53998
-3.9000001 -52.110001 -670.35999
-3.29 -52.080002 -669.89001
-2.6700001 -52.02 -669.21002
-2.05 -51.970001 -668.51001
-1.4400001 -51.91 -667.71997
-0.81999999 -51.860001 -667.10999
-0.20999999 -51.82 -666.57001
0.40000001 -51.779999 -666.15002
1.01 -51.759998 -665.84003
1.62 -51.740002 -665.54999
2.23 -51.709999 -665.26001
2.8399999 -51.700001 -665.12
3.45 -51.669998 -664.71997
4.0599999 -51.630001 -664.25
4.6599998 -51.59 -663.65997
5.27 -51.57 -663.40997
5.8800001 -51.549999 -663.15997
6.4899998 -51.529999 -662.92999
7.0900002 -51.509998 -662.70001
7.6999998 -51.5 -662.59003
8.3000002 -51.48 -662.34998
8.9099998 -51.48 -662.33002
9.5200005 -51.48 -662.32001
10.12 -51.459999 -662.03003
10.72 -51.43 -661.63
11.33 -51.41 -661.38
11.93 -51.400002 -661.23999
12.54 -51.389999 -661.20001
13.14 -51.389999 -661.13
13.75 -51.380001 -660.98999
14.35 -51.380001 -660.98999
14.97 -51.400002 -661.23999
15.57 -51.389999 -661.21002
16.17 -51.380001 -660.98999
16.77 -51.349998 -660.64001
17.379999 -51.360001 -660.71997
17.99 -51.360001 -660.81
18.6 -51.380001 -661
19.209999 -51.389999 -661.10999
19.809999 -51.380001 -661.03998
20.41 -51.360001 -660.78998
21.01 -51.34 -660.58002
21.59 -51.279999 -659.79999
22.190001 -51.25 -659.42999
22.77 -51.200001 -658.75
23.35 -51.16 -658.21002
23.93 -51.110001 -657.59998
24.52 -51.07 -657.09003
25.110001 -51.040001 -656.69
25.700001 -51.02 -656.40997
26.280001 -50.98 -655.91998
26.870001 -50.950001 -655.58002
27.459999 -50.93 -655.34003
28.059999 -50.939999 -655.38
28.66 -50.93 -655.23999
29.25 -50.91 -655.03998
29.83 -50.880001 -654.62
30.43 -50.869999 -654.59998
31.030001 -50.869999 -654.58002
31.639999 -50.880001 -654.65997
32.240002 -50.880001 -654.69
32.84 -50.880001 -654.59003
33.43 -50.869999 -654.53998
34.029999 -50.860001 -654.46002
34.630001 -50.869999 -654.46997
35.240002 -50.869999 -654.56
35.84 -50.869999 -654.57001
36.450001 -50.880001 -654.67999
37.049999 -50.880001 -654.66998
37.66 -50.900002 -654.95001
38.290001 -50.93 -655.31
38.889999 -50.939999 -655.42999
39.5 -50.939999 -655.46002
40.110001 -50.950001 -655.56
40.73 -50.98 -655.88
41.34 -50.990002 -656.01001
41.950001 -51 -656.21997
42.57 -51.02 -656.41998
43.189999 -51.049999 -656.76001
43.799999 -51.049999 -656.84003
44.439999 -51.09 -657.28998
45.060001 -51.119999 -657.60999
45.68 -51.139999 -657.88
46.299999 -51.150002 -658.03003
46.919998 -51.169998 -658.26001
47.540001 -51.189999 -658.51001
48.16 -51.200001 -658.70001
48.810001 -51.25 -659.28003
49.450001 -51.290001 -659.79999
50.110001 -51.34 -660.45001
50.740002 -51.360001 -660.71997
51.41 -51.43 -661.57001
52.040001 -51.450001 -661.79999
52.639999 -51.439999 -661.72998
53.279999 -51.48 -662.17999
53.919998 -51.509998 -662.57001
54.57 -51.540001 -663.01001
55.18 -51.549999 -663.08002
55.889999 -51.639999 -664.26001
56.529999 -51.669998 -664.57001
57.130001 -51.66 -664.42999
57.77 -51.68 -664.76001
58.41 -51.709999 -665.10999
59.060001 -51.740002 -665.51001
59.740002 -51.810001 -666.34003
60.419998 -51.869999 -667.09998
61.049999 -51.880001 -667.25
61.709999 -51.919998 -667.78998
62.41 -51.990002 -668.65997
63.080002 -52.040001 -669.22998
63.720001 -52.060001 -669.53003
64.440002 -52.150002 -670.63
65.110001 -52.18 -671.09998
65.790001 -52.23 -671.75
66.57 -52.360001 -673.37
67.239998 -52.41 -673.96997
67.809998 -52.369999 -673.46997
-57.48 -46.310001 -589.72998
-56.919998 -46.299999 -589.60999
-56.360001 -46.279999 -589.38
-55.810001 -46.27 -589.25
-55.279999 -46.279999 -589.34998
-54.75 -46.290001 -589.47998
-54.23 -46.310001 -589.71997
-53.73 -46.34 -590.13
-53.240002 -46.389999 -590.72998
-31.5 -47.07 -599.38
-30.91 -47.02 -598.65002
-30.34 -46.98 -598.14001
-29.77 -46.950001 -597.77002
-29.209999 -46.93 -597.56
-28.65 -46.900002 -597.19
-28.09 -46.880001 -596.96997
-27.540001 -46.880001 -596.89001
-27 -46.880001 -596.96002
-26.459999 -46.889999 -597.09998
-25.92 -46.91 -597.28998
-25.370001 -46.91 -597.38
-24.83 -46.93 -597.56
-24.290001 -46.93 -597.59003
-23.73 -46.919998 -597.5
-23.18 -46.919998 -597.42999
-22.629999 -46.900002 -597.17999
-22.049999 -46.84 -596.52002
-21.49 -46.799999 -596
-20.93 -46.779999 -595.70001
-20.379999 -46.779999 -595.65002
-19.84 -46.77 -595.58002
-19.290001 -46.77 -595.53003
-18.74 -46.77 -595.56
-18.200001 -46.77 -595.59998
-17.65 -46.77 -595.59003
-17.110001 -46.779999 -595.73999
-16.57 -46.799999 -595.92999
-16.030001 -46.810001 -596.09003
-15.49 -46.830002 -596.40002
-14.95 -46.860001 -596.66998
-14.41 -46.880001 -596.96002
-13.87 -46.91 -597.34003
-13.33 -46.939999 -597.70001
-12.8 -46.970001 -598.15997
-12.26 -47.02 -598.76001
-11.72 -47.07 -599.34998
-11.19 -47.139999 -600.21002
-10.66 -47.209999 -601.10999
-10.13 -47.330002 -602.63
-9.6099997 -47.470001 -604.40997
-4.5100002 -52.689999 -669.84003
-3.9000001 -52.68 -669.78998
-3.28 -52.66 -669.47998
-2.6700001 -52.599998 -668.70001
-2.05 -52.540001 -667.91998
-1.4299999 -52.48 -667.23999
-0.81999999 -52.459999 -666.96002
-0.20999999 -52.419998 -666.52002
0.40000001 -52.389999 -666.08002
1.01 -52.349998 -665.65002
1.62 -52.330002 -665.40002
2.23 -52.310001 -665.06
2.8399999 -52.290001 -664.78998
3.45 -52.27 -664.54999
4.0599999 -52.25 -664.32001
4.6700001 -52.209999 -663.78003
5.27 -52.18 -663.40002
5.8800001 -52.139999 -662.94
6.48 -52.119999 -662.70001
7.0900002 -52.110001 -662.58002
7.6999998 -52.099998 -662.40997
8.3000002 -52.09 -662.37
8.9099998 -52.080002 -662.20001
9.5100002 -52.07 -662.06
10.12 -52.080002 -662.15997
10.73 -52.049999 -661.84003
11.33 -52.029999 -661.63
11.93 -52 -661.22998
12.53 -51.990002 -661.09998
13.14 -51.98 -660.97998
13.75 -51.98 -661.01001
14.35 -51.990002 -661.04999
14.96 -51.990002 -661.03998
15.57 -52 -661.23999
16.18 -52.009998 -661.37
16.790001 -52 -661.25
17.389999 -52 -661.14001
18 -52 -661.22998
18.610001 -52.009998 -661.28003
19.209999 -51.990002 -661.04999
19.82 -51.990002 -661.12
20.42 -51.990002 -661.07001
21.02 -51.970001 -660.85999
21.620001 -51.959999 -660.62
22.209999 -51.93 -660.26001
22.799999 -51.889999 -659.78998
23.4 -51.869999 -659.5
23.98 -51.810001 -658.81
24.559999 -51.759998 -658.15997
25.139999 -51.700001 -657.46997
25.73 -51.68 -657.17999
26.309999 -51.639999 -656.69
26.91 -51.630001 -656.56
27.5 -51.610001 -656.25
28.09 -51.59 -656.01001
28.690001 -51.580002 -655.88
29.280001 -51.57 -655.78003
29.879999 -51.549999 -655.53003
30.469999 -51.540001 -655.34998
31.059999 -51.52 -655.13
31.65 -51.509998 -654.97998
32.25 -51.5 -654.92999
32.849998 -51.5 -654.88
33.450001 -51.5 -654.90002
34.049999 -51.5 -654.89001
34.66 -51.509998 -655.03998
35.259998 -51.509998 -655.02002
35.860001 -51.5 -654.95001
36.470001 -51.52 -655.17999
37.09 -51.549999 -655.48999
37.700001 -51.560001 -655.66998
38.310001 -51.57 -655.70001
38.919998 -51.580002 -655.84998
39.529999 -51.59 -656.04999
40.139999 -51.599998 -656.19
40.759998 -51.619999 -656.44
41.380001 -51.639999 -656.62
41.990002 -51.66 -656.83002
42.599998 -51.66 -656.92999
43.23 -51.689999 -657.28003
43.860001 -51.720001 -657.67999
44.48 -51.75 -657.96002
45.099998 -51.77 -658.20001
45.720001 -51.779999 -658.42999
46.330002 -51.779999 -658.40997
46.950001 -51.810001 -658.71997
47.59 -51.84 -659.09998
48.220001 -51.869999 -659.46997
48.849998 -51.900002 -659.87
49.509998 -51.959999 -660.59003
50.139999 -51.98 -660.87
50.790001 -52.02 -661.42999
51.43 -52.060001 -661.83002
52.060001 -52.07 -662.03998
52.68 -52.09 -662.23999
53.32 -52.119999 -662.64001
53.970001 -52.16 -663.09003
54.599998 -52.18 -663.37
55.27 -52.240002 -664.15997
55.939999 -52.299999 -664.81
56.540001 -52.279999 -664.66998
57.169998 -52.310001 -664.96997
57.830002 -52.349998 -665.46002
58.48 -52.389999 -665.92999
59.16 -52.450001 -666.71002
59.849998 -52.509998 -667.51001
60.459999 -52.509998 -667.53998
61.139999 -52.57 -668.23999
61.799999 -52.610001 -668.69
62.48 -52.66 -669.37
63.189999 -52.740002 -670.39001
63.849998 -52.779999 -670.88
64.550003 -52.849998 -671.71997
65.260002 -52.919998 -672.64001
66 -53.02 -673.90997
66.639999 -53.040001 -674.07001
-57.66 -47.009998 -591.64001
-56.919998 -46.84 -589.59998
-56.369999 -46.830002 -589.51001
-55.82 -46.82 -589.34998
-55.27 -46.82 -589.29999
-54.740002 -46.82 -589.35999
-54.220001 -46.84 -589.59998
-53.700001 -46.860001 -589.87
-53.209999 -46.900002 -590.37
-52.720001 -46.950001 -590.96002
-31.48 -47.59 -598.90997
-30.9 -47.549999 -598.44
-30.33 -47.5 -597.89001
-29.76 -47.470001 -597.46002
-29.200001 -47.450001 -597.20001
-28.629999 -47.419998 -596.88
-28.08 -47.41 -596.73999
-27.530001 -47.400002 -596.58002
-26.98 -47.400002 -596.59003
-26.440001 -47.41 -596.75
-25.91 -47.439999 -597.04999
-25.379999 -47.470001 -597.46997
-24.84 -47.48 -597.65997
-24.280001 -47.470001 -597.46997
-23.719999 -47.439999 -597.14001
-23.16 -47.41 -596.75
-22.6 -47.389999 -596.51001
-22.040001 -47.369999 -596.19
-21.48 -47.330002 -595.73999
-20.92 -47.310001 -595.46997
-20.379999 -47.299999 -595.40002
-19.83 -47.299999 -595.41998
-19.280001 -47.299999 -595.39001
-18.74 -47.299999 -595.37
-18.190001 -47.299999 -595.38
-17.65 -47.299999 -595.42999
-17.110001 -47.310001 -595.53998
-16.559999 -47.32 -595.67999
-16.02 -47.34 -595.92999
-15.49 -47.360001 -596.17999
-14.95 -47.389999 -596.46002
-14.41 -47.419998 -596.82001
-13.87 -47.439999 -597.14001
-13.33 -47.48 -597.57001
-12.79 -47.5 -597.90997
-12.26 -47.560001 -598.58002
-11.72 -47.599998 -599.12
-11.19 -47.669998 -599.98999
-10.65 -47.740002 -600.82001
-10.12 -47.849998 -602.16998
-9.6000004 -47.98 -603.84998
-3.9000001 -53.240002 -669.08002
-3.28 -53.209999 -668.71997
-2.6600001 -53.150002 -667.87
-2.05 -53.09 -667.23999
-1.4299999 -53.060001 -666.84003
-0.81999999 -53.049999 -666.67999
-0.20999999 -53.02 -666.38
0.40000001 -52.990002 -665.89001
1.01 -52.950001 -665.40002
1.62 -52.919998 -665.08002
2.23 -52.889999 -664.77002
2.8399999 -52.869999 -664.52002
3.45 -52.849998 -664.20001
4.0599999 -52.84 -664.07001
4.6700001 -52.830002 -663.90997
5.27 -52.799999 -663.58002
5.8800001 -52.75 -662.92999
6.48 -52.720001 -662.63
7.0900002 -52.709999 -662.47998
7.6900001 -52.689999 -662.25
8.3000002 -52.689999 -662.17999
8.9099998 -52.669998 -662.02002
9.5100002 -52.669998 -661.97998
10.12 -52.66 -661.91998
10.73 -52.66 -661.79999
11.33 -52.650002 -661.71997
11.93 -52.619999 -661.38
12.54 -52.610001 -661.17999
13.14 -52.599998 -661.07001
13.75 -52.59 -660.95001
14.35 -52.59 -660.96997
14.96 -52.59 -661.02002
15.57 -52.599998 -661.09998
16.18 -52.610001 -661.22998
16.790001 -52.639999 -661.58002
17.4 -52.650002 -661.66998
18.01 -52.639999 -661.65002
18.610001 -52.630001 -661.46997
19.209999 -52.599998 -661.15997
19.809999 -52.580002 -660.87
20.41 -52.57 -660.71002
21.02 -52.57 -660.75
21.629999 -52.57 -660.75
22.23 -52.57 -660.66998
22.82 -52.540001 -660.29999
23.43 -52.529999 -660.26001
24.02 -52.5 -659.88
24.610001 -52.48 -659.58002
25.190001 -52.419998 -658.87
25.780001 -52.389999 -658.45001
26.370001 -52.349998 -658.01001
26.950001 -52.310001 -657.47998
27.530001 -52.27 -656.96997
28.120001 -52.25 -656.76001
28.709999 -52.23 -656.47998
29.309999 -52.220001 -656.39001
29.91 -52.209999 -656.23999
30.5 -52.189999 -655.96002
31.09 -52.169998 -655.75
31.68 -52.16 -655.60999
32.279999 -52.150002 -655.51001
32.880001 -52.150002 -655.47998
33.48 -52.139999 -655.40002
34.09 -52.150002 -655.54999
34.689999 -52.16 -655.58002
35.299999 -52.169998 -655.73999
35.91 -52.18 -655.89001
36.509998 -52.18 -655.90002
37.119999 -52.18 -655.90997
37.720001 -52.18 -655.88
38.34 -52.209999 -656.17999
38.950001 -52.220001 -656.38
39.560001 -52.23 -656.52002
40.18 -52.25 -656.69
40.799999 -52.279999 -657.07001
41.41 -52.279999 -657.07001
42.02 -52.290001 -657.23999
42.650002 -52.32 -657.60999
43.279999 -52.349998 -658
43.889999 -52.369999 -658.15002
44.52 -52.389999 -658.48999
45.130001 -52.400002 -658.62
45.740002 -52.41 -658.70001
46.360001 -52.43 -658.89001
47 -52.470001 -659.40997
47.630001 -52.490002 -659.63
48.279999 -52.529999 -660.22998
48.919998 -52.580002 -660.78003
49.549999 -52.599998 -661.02002
50.18 -52.619999 -661.32001
50.84 -52.689999 -662.09003
51.470001 -52.700001 -662.25
52.099998 -52.73 -662.59003
52.740002 -52.75 -662.94
53.380001 -52.790001 -663.33002
54 -52.799999 -663.51001
54.669998 -52.860001 -664.25
55.349998 -52.919998 -664.98999
55.950001 -52.919998 -664.96002
56.580002 -52.93 -665.15002
57.220001 -52.959999 -665.53003
57.889999 -53.009998 -666.09998
58.549999 -53.060001 -666.75
59.259998 -53.150002 -667.81
59.889999 -53.16 -667.92999
60.540001 -53.189999 -668.34003
61.23 -53.259998 -669.14001
61.880001 -53.290001 -669.56
62.610001 -53.389999 -670.72998
63.279999 -53.439999 -671.35999
63.950001 -53.48 -671.92999
64.739998 -53.619999 -673.67999
65.419998 -53.669998 -674.29999
-56.93 -47.389999 -589.67999
-56.380001 -47.380001 -589.53998
-55.82 -47.369999 -589.41998
-55.27 -47.360001 -589.29999
-54.73 -47.360001 -589.33002
-54.200001 -47.369999 -589.40997
-53.689999 -47.389999 -589.70001
-53.189999 -47.43 -590.19
-52.709999 -47.48 -590.88
-31.49 -48.150002 -599.08002
-30.889999 -48.080002 -598.21002
-30.32 -48.040001 -597.71997
-29.75 -48 -597.29999
-29.18 -47.98 -596.95001
-28.620001 -47.950001 -596.67999
-28.07 -47.939999 -596.51001
-27.52 -47.93 -596.39001
-26.969999 -47.93 -596.42999
-26.43 -47.950001 -596.60999
-25.91 -47.98 -597.06
-25.379999 -48.02 -597.53998
-24.83 -48.02 -597.54999
-24.27 -47.990002 -597.20001
-23.700001 -47.959999 -596.75
-23.139999 -47.93 -596.40002
-22.59 -47.900002 -596.09998
-22.030001 -47.880001 -595.78003
-21.469999 -47.849998 -595.48999
-20.92 -47.84 -595.29999
-20.370001 -47.84 -595.26001
-19.82 -47.830002 -595.19
-19.280001 -47.830002 -595.22998
-18.73 -47.830002 -595.19
-18.190001 -47.830002 -595.22998
-17.639999 -47.830002 -595.25
-17.1 -47.84 -595.34003
-16.559999 -47.860001 -595.58002
-16.02 -47.880001 -595.78003
-15.48 -47.900002 -596
-14.94 -47.919998 -596.29999
-14.4 -47.950001 -596.65002
-13.86 -47.970001 -596.94
-13.33 -48 -597.34003
-12.79 -48.029999 -597.70001
-12.25 -48.09 -598.34998
-11.72 -48.139999 -598.98999
-11.18 -48.200001 -599.70001
-10.65 -48.27 -600.57001
-10.12 -48.380001 -601.97998
-9.5900002 -48.509998 -603.59998
-3.8900001 -53.810001 -668.46997
-3.28 -53.77 -668.04999
-2.6600001 -53.720001 -667.38
-2.05 -53.68 -666.95001
-1.4299999 -53.66 -666.63
-0.81999999 -53.639999 -666.46002
-0.20999999 -53.619999 -666.22998
0.40000001 -53.59 -665.84998
1.01 -53.549999 -665.29999
1.62 -53.52 -664.92999
2.23 -53.48 -664.48999
2.8399999 -53.470001 -664.31
3.45 -53.439999 -663.95001
4.0599999 -53.419998 -663.78003
4.6599998 -53.41 -663.65002
5.27 -53.400002 -663.5
5.8800001 -53.389999 -663.34998
6.48 -53.349998 -662.85999
7.0900002 -53.32 -662.44
7.6900001 -53.299999 -662.21997
8.3000002 -53.279999 -662.01001
8.8999996 -53.27 -661.89001
9.5100002 -53.27 -661.84998
10.12 -53.259998 -661.71997
10.72 -53.25 -661.59998
11.33 -53.25 -661.67999
11.94 -53.25 -661.65997
12.54 -53.23 -661.38
13.14 -53.200001 -661.06
13.75 -53.200001 -660.96997
14.35 -53.189999 -660.91998
14.96 -53.200001 -660.97998
15.57 -53.209999 -661.15997
16.18 -53.23 -661.34003
16.799999 -53.25 -661.65997
17.41 -53.27 -661.90002
18.01 -53.259998 -661.78003
18.620001 -53.25 -661.59998
19.209999 -53.209999 -661.17999
19.809999 -53.189999 -660.95001
20.41 -53.169998 -660.62
21.01 -53.150002 -660.46002
21.620001 -53.16 -660.51001
22.23 -53.169998 -660.66998
22.83 -53.150002 -660.45001
23.43 -53.139999 -660.23999
24.030001 -53.130001 -660.21002
24.639999 -53.139999 -660.22998
25.25 -53.139999 -660.28003
25.85 -53.130001 -660.20001
26.43 -53.09 -659.69
27.01 -53.040001 -659.09003
27.59 -52.990002 -658.40997
28.18 -52.959999 -658.04999
28.76 -52.919998 -657.60999
29.360001 -52.91 -657.46997
29.969999 -52.91 -657.47998
30.549999 -52.880001 -657.13
31.139999 -52.860001 -656.81
31.74 -52.849998 -656.71997
32.34 -52.849998 -656.71002
32.939999 -52.849998 -656.71002
33.540001 -52.84 -656.53003
34.139999 -52.830002 -656.48999
34.75 -52.84 -656.59003
35.349998 -52.84 -656.58002
35.950001 -52.830002 -656.48999
36.540001 -52.82 -656.29999
37.150002 -52.830002 -656.44
37.759998 -52.84 -656.58002
38.380001 -52.869999 -656.89001
39.009998 -52.900002 -657.29999
39.630001 -52.919998 -657.60999
40.240002 -52.93 -657.64001
40.84 -52.93 -657.64001
41.450001 -52.939999 -657.81
42.099998 -52.990002 -658.41998
42.700001 -52.990002 -658.42999
43.310001 -53 -658.52002
43.93 -53.02 -658.78003
44.540001 -53.02 -658.78998
45.16 -53.040001 -658.97998
45.790001 -53.07 -659.35999
46.419998 -53.09 -659.65002
47.049999 -53.119999 -660.03003
47.689999 -53.16 -660.5
48.34 -53.209999 -661.04999
48.950001 -53.209999 -661.09998
49.580002 -53.240002 -661.48999
50.240002 -53.290001 -662.09998
50.880001 -53.330002 -662.58002
51.490002 -53.34 -662.59998
52.139999 -53.380001 -663.12
52.790001 -53.41 -663.54999
53.419998 -53.439999 -663.83002
54.060001 -53.470001 -664.22998
54.75 -53.540001 -665.12
55.380001 -53.57 -665.42999
56 -53.57 -665.47998
56.650002 -53.610001 -665.91998
57.299999 -53.650002 -666.42999
57.970001 -53.700001 -667.09998
58.650002 -53.759998 -667.81
59.310001 -53.799999 -668.33002
59.98 -53.860001 -669
60.669998 -53.93 -669.83002
61.330002 -53.970001 -670.28998
61.970001 -53.98 -670.53003
62.66 -54.049999 -671.33002
63.349998 -54.110001 -672.04999
64.110001 -54.23 -673.56
64.760002 -54.259998 -673.90002
-56.950001 -47.939999 -589.83002
-56.389999 -47.93 -589.72998
-55.830002 -47.91 -589.48999
-55.27 -47.900002 -589.32001
-54.73 -47.900002 -589.28003
-54.209999 -47.91 -589.46002
-53.68 -47.93 -589.65997
-53.18 -47.959999 -590.03003
-52.689999 -48.009998 -590.64001
-31.469999 -48.669998 -598.76001
-30.879999 -48.599998 -597.95001
-30.309999 -48.57 -597.51001
-29.74 -48.529999 -597.03998
-29.17 -48.5 -596.67999
-28.610001 -48.470001 -596.34998
-28.049999 -48.459999 -596.19
-27.5 -48.450001 -596.08002
-26.959999 -48.450001 -596.12
-26.42 -48.48 -596.39001
-25.9 -48.52 -596.98999
-25.370001 -48.549999 -597.33002
-24.82 -48.549999 -597.28003
-24.27 -48.529999 -597.09998
-23.700001 -48.490002 -596.56
-23.129999 -48.450001 -596.08002
-22.57 -48.419998 -595.71002
-22.01 -48.389999 -595.40002
-21.459999 -48.380001 -595.19
-20.91 -48.369999 -595.08002
-20.360001 -48.360001 -595.03998
-19.82 -48.360001 -595.01001
-19.27 -48.360001 -594.98999
-18.719999 -48.349998 -594.92999
-18.18 -48.360001 -594.96997
-17.639999 -48.369999 -595.08002
-17.1 -48.369999 -595.15997
-16.559999 -48.389999 -595.34998
-16.02 -48.41 -595.59003
-15.48 -48.43 -595.81
-14.94 -48.450001 -596.09003
-14.4 -48.48 -596.44
-13.86 -48.5 -596.72998
-13.32 -48.540001 -597.15997
-12.78 -48.57 -597.59003
-12.25 -48.619999 -598.14001
-11.71 -48.66 -598.70001
-11.18 -48.73 -599.51001
-10.64 -48.810001 -600.40997
-10.11 -48.900002 -601.62
-9.5900002 -49.029999 -603.14001
-3.8900001 -54.360001 -667.71997
-3.27 -54.34 -667.44
-2.6600001 -54.310001 -667.07001
-2.04 -54.27 -666.60999
-1.4299999 -54.240002 -666.28003
-0.81999999 -54.220001 -666.08002
-0.20999999 -54.200001 -665.81
0.40000001 -54.189999 -665.65997
1.01 -54.16 -665.28003
1.62 -54.119999 -664.84003
2.23 -54.09 -664.44
2.8399999 -54.049999 -663.98999
3.45 -54.029999 -663.71002
4.0500002 -54.009998 -663.52002
4.6599998 -54 -663.32001
5.27 -53.98 -663.19
5.8800001 -53.98 -663.15997
6.4899998 -53.970001 -663.04999
7.0900002 -53.939999 -662.59998
7.6900001 -53.91 -662.25
8.3000002 -53.880001 -661.91998
8.8999996 -53.869999 -661.81
9.5100002 -53.860001 -661.66998
10.12 -53.860001 -661.65997
10.72 -53.860001 -661.65997
11.33 -53.84 -661.46002
11.94 -53.849998 -661.59998
12.55 -53.860001 -661.63
13.15 -53.849998 -661.52002
13.75 -53.830002 -661.27002
14.36 -53.810001 -661.10999
14.96 -53.810001 -661.07001
15.58 -53.84 -661.41998
16.190001 -53.869999 -661.79999
16.799999 -53.869999 -661.79999
17.4 -53.860001 -661.69
18.01 -53.860001 -661.71997
18.620001 -53.860001 -661.65997
19.219999 -53.830002 -661.33002
19.809999 -53.799999 -660.88
20.41 -53.790001 -660.75
21.02 -53.779999 -660.65997
21.610001 -53.759998 -660.40002
22.219999 -53.759998 -660.40997
22.83 -53.779999 -660.64001
23.440001 -53.759998 -660.5
24.030001 -53.740002 -660.21997
24.629999 -53.73 -660.09998
25.24 -53.73 -660.08002
25.84 -53.73 -660.08002
26.459999 -53.75 -660.27002
27.059999 -53.740002 -660.21002
27.65 -53.709999 -659.81
28.24 -53.68 -659.46002
28.83 -53.650002 -659.12
29.41 -53.599998 -658.53998
30.01 -53.59 -658.35999
30.6 -53.57 -658.16998
31.190001 -53.540001 -657.78003
31.780001 -53.52 -657.51001
32.380001 -53.52 -657.47998
32.970001 -53.490002 -657.19
33.57 -53.490002 -657.12
34.169998 -53.48 -657.08002
34.759998 -53.470001 -656.92999
35.360001 -53.459999 -656.75
35.970001 -53.470001 -656.85999
36.580002 -53.48 -656.98999
37.189999 -53.490002 -657.16998
37.830002 -53.540001 -657.75
38.439999 -53.560001 -657.97998
39.060001 -53.57 -658.15002
39.650002 -53.560001 -657.95001
40.259998 -53.560001 -658.02002
40.91 -53.619999 -658.72998
41.52 -53.630001 -658.87
42.130001 -53.639999 -658.98999
42.740002 -53.650002 -659.02002
43.360001 -53.66 -659.22998
43.959999 -53.650002 -659.09003
44.57 -53.66 -659.19
45.209999 -53.700001 -659.65997
45.849998 -53.740002 -660.16998
46.5 -53.790001 -660.78998
47.119999 -53.810001 -660.97998
47.740002 -53.82 -661.15002
48.369999 -53.849998 -661.45001
48.990002 -53.860001 -661.63
49.639999 -53.91 -662.21997
50.27 -53.939999 -662.58002
50.900002 -53.959999 -662.81
51.529999 -53.98 -663.09003
52.18 -54.029999 -663.60999
52.82 -54.049999 -663.95001
53.459999 -54.09 -664.32001
54.139999 -54.16 -665.19
54.779999 -54.18 -665.51001
55.41 -54.200001 -665.71002
56.07 -54.25 -666.34003
56.720001 -54.290001 -666.76001
57.380001 -54.330002 -667.31
58.040001 -54.380001 -667.85999
58.73 -54.450001 -668.69
59.380001 -54.48 -669.06
60.09 -54.57 -670.15997
60.77 -54.630001 -670.90997
61.389999 -54.630001 -670.94
62.009998 -54.639999 -670.96997
62.689999 -54.689999 -671.65002
-56.939999 -48.470001 -589.72998
-56.389999 -48.470001 -589.67999
-55.830002 -48.459999 -589.52002
-55.279999 -48.439999 -589.37
-54.73 -48.439999 -589.28003
-54.209999 -48.450001 -589.44
-53.669998 -48.459999 -589.53998
-53.169998 -48.490002 -589.96997
-52.68 -48.540001 -590.48999
-31.459999 -49.200001 -598.5
-30.870001 -49.139999 -597.79999
-30.299999 -49.099998 -597.27002
-29.719999 -49.049999 -596.76001
-29.16 -49.029999 -596.46002
-28.6 -49 -596.10999
-28.040001 -48.990002 -596
-27.49 -48.98 -595.88
-26.950001 -48.990002 -595.95001
-26.41 -49 -596.13
-25.879999 -49.029999 -596.5
-25.35 -49.060001 -596.84003
-24.799999 -49.060001 -596.84003
-24.26 -49.060001 -596.88
-23.700001 -49.049999 -596.73999
-23.15 -49.040001 -596.60999
-22.59 -49 -596.16998
-22.01 -48.93 -595.32001
-21.450001 -48.900002 -594.98999
-20.9 -48.889999 -594.84998
-20.360001 -48.889999 -594.85999
-19.809999 -48.889999 -594.84003
-19.27 -48.889999 -594.81
-18.719999 -48.889999 -594.82001
-18.18 -48.889999 -594.83002
-17.629999 -48.900002 -594.94
-17.09 -48.91 -595.04999
-16.549999 -48.919998 -595.16998
-16.01 -48.93 -595.33002
-15.47 -48.959999 -595.71002
-14.93 -48.98 -595.94
-14.39 -49.009998 -596.26001
-13.86 -49.040001 -596.62
-13.32 -49.07 -597
-12.78 -49.110001 -597.41998
-12.25 -49.16 -598.01001
-11.71 -49.200001 -598.51001
-11.17 -49.259998 -599.28998
-10.64 -49.330002 -600.15002
-10.11 -49.419998 -601.19
-9.5799999 -49.540001 -602.65002
-3.8800001 -54.93 -667.16998
-3.27 -54.93 -667.23999
-2.6600001 -54.900002 -666.81
-2.04 -54.869999 -666.44
-1.4299999 -54.830002 -666.04999
-0.81999999 -54.799999 -665.71002
-0.20999999 -54.779999 -665.46997
0.40000001 -54.77 -665.33002
1.01 -54.759998 -665.17999
1.62 -54.740002 -664.90997
2.23 -54.689999 -664.38
2.8399999 -54.66 -664.01001
3.45 -54.630001 -663.62
4.0500002 -54.610001 -663.37
4.6599998 -54.59 -663.19
5.27 -54.580002 -663.01001
5.8800001 -54.57 -662.87
6.4899998 -54.57 -662.94
7.0900002 -54.57 -662.87
7.6999998 -54.540001 -662.52002
8.3000002 -54.509998 -662.21997
8.8999996 -54.48 -661.83002
9.5100002 -54.459999 -661.63
10.11 -54.459999 -661.53003
10.72 -54.450001 -661.5
11.33 -54.450001 -661.46997
11.93 -54.450001 -661.40002
12.54 -54.450001 -661.46002
13.15 -54.470001 -661.71997
13.76 -54.48 -661.78003
14.37 -54.470001 -661.67999
14.98 -54.470001 -661.72998
15.59 -54.5 -662.01001
16.200001 -54.5 -662.10999
16.799999 -54.48 -661.78003
17.4 -54.459999 -661.57001
18.01 -54.459999 -661.58002
18.620001 -54.48 -661.78003
19.23 -54.470001 -661.65002
19.82 -54.43 -661.15002
20.41 -54.389999 -660.71997
21.01 -54.369999 -660.5
21.620001 -54.369999 -660.53003
22.219999 -54.369999 -660.45001
22.83 -54.369999 -660.42999
23.440001 -54.369999 -660.48999
24.040001 -54.380001 -660.57001
24.65 -54.380001 -660.56
25.25 -54.360001 -660.38
25.85 -54.349998 -660.22998
26.450001 -54.34 -660.16998
27.059999 -54.34 -660.13
27.66 -54.34 -660.10999
28.27 -54.349998 -660.19
28.870001 -54.32 -659.90002
29.459999 -54.299999 -659.65997
30.049999 -54.27 -659.28003
30.639999 -54.25 -659.03998
31.23 -54.220001 -658.70001
31.82 -54.200001 -658.38
32.419998 -54.18 -658.23999
33.009998 -54.169998 -658.10999
33.610001 -54.16 -657.97998
34.220001 -54.16 -657.96997
34.82 -54.16 -657.92999
35.419998 -54.16 -657.95001
36.040001 -54.18 -658.17999
36.650002 -54.189999 -658.28998
37.27 -54.209999 -658.53998
37.869999 -54.209999 -658.52002
38.470001 -54.189999 -658.34003
39.080002 -54.209999 -658.47998
39.700001 -54.220001 -658.71002
40.330002 -54.259998 -659.10999
40.950001 -54.279999 -659.42999
41.560001 -54.290001 -659.53998
42.169998 -54.290001 -659.47998
42.759998 -54.279999 -659.35999
43.369999 -54.279999 -659.35999
43.990002 -54.299999 -659.56
44.639999 -54.349998 -660.21002
45.27 -54.380001 -660.62
45.919998 -54.43 -661.15002
46.529999 -54.439999 -661.28003
47.150002 -54.450001 -661.39001
47.779999 -54.470001 -661.67999
48.419998 -54.509998 -662.13
49.049999 -54.540001 -662.46002
49.68 -54.560001 -662.71997
50.32 -54.599998 -663.21997
50.950001 -54.619999 -663.38
51.59 -54.650002 -663.78998
52.23 -54.689999 -664.23999
52.889999 -54.740002 -664.78998
53.540001 -54.779999 -665.34003
54.189999 -54.82 -665.77002
54.82 -54.830002 -665.96997
55.48 -54.880001 -666.56
56.139999 -54.93 -667.09003
56.799999 -54.98 -667.67999
57.459999 -55.029999 -668.27002
58.139999 -55.080002 -668.95001
58.799999 -55.130001 -669.54999
59.470001 -55.18 -670.10999
60.189999 -55.279999 -671.29999
60.849998 -55.310001 -671.69
61.52 -55.360001 -672.29999
62.25 -55.470001 -673.54999
-56.400002 -49.02 -589.83002
-55.84 -49 -589.59998
-55.279999 -48.98 -589.35999
-54.740002 -48.98 -589.33002
-54.189999 -48.98 -589.29999
-53.669998 -48.990002 -589.47998
-53.169998 -49.029999 -589.90997
-52.68 -49.080002 -590.46997
-52.259998 -49.189999 -591.83002
-52.18 -49.639999 -597.10999
-31.450001 -49.73 -598.34003
-30.860001 -49.669998 -597.58002
-30.280001 -49.619999 -597.02002
-29.709999 -49.580002 -596.46997
-29.15 -49.549999 -596.16998
-28.59 -49.529999 -595.91998
-28.030001 -49.52 -595.76001
-27.48 -49.509998 -595.63
-26.940001 -49.509998 -595.71997
-26.4 -49.529999 -595.90997
-25.860001 -49.540001 -596.09998
-25.32 -49.549999 -596.12
-24.77 -49.549999 -596.14001
-24.219999 -49.540001 -596.01001
-23.68 -49.549999 -596.22998
-23.15 -49.59 -596.65002
-22.610001 -49.599998 -596.78003
-22.01 -49.470001 -595.26001
-21.450001 -49.439999 -594.84003
-20.9 -49.419998 -594.65002
-20.35 -49.419998 -594.62
-19.809999 -49.419998 -594.69
-19.26 -49.419998 -594.62
-18.709999 -49.419998 -594.59003
-18.17 -49.419998 -594.63
-17.629999 -49.43 -594.71997
-17.09 -49.439999 -594.90997
-16.549999 -49.450001 -594.98999
-16.01 -49.470001 -595.23999
-15.47 -49.5 -595.53003
-14.93 -49.52 -595.78003
-14.39 -49.540001 -596.08002
-13.85 -49.57 -596.40002
-13.31 -49.599998 -596.83002
-12.78 -49.650002 -597.31
-12.24 -49.689999 -597.82001
-11.7 -49.73 -598.32001
-11.17 -49.779999 -598.96997
-10.63 -49.860001 -599.84998
-10.1 -49.939999 -600.85999
-9.5699997 -50.060001 -602.21997
-3.8800001 -55.5 -666.75
-3.27 -55.52 -667
-2.6600001 -55.490002 -666.62
-2.04 -55.450001 -666.16998
-1.4299999 -55.419998 -665.72998
-0.81999999 -55.400002 -665.53003
-0.20999999 -55.369999 -665.17999
0.40000001 -55.360001 -665.09998
1.01 -55.34 -664.82001
1.62 -55.34 -664.77002
2.23 -55.310001 -664.44
2.8399999 -55.27 -664.01001
3.45 -55.23 -663.52002
4.0500002 -55.200001 -663.21002
4.6599998 -55.189999 -662.98999
5.27 -55.18 -662.90002
5.8800001 -55.169998 -662.78998
6.48 -55.16 -662.65002
7.0900002 -55.16 -662.66998
7.6999998 -55.16 -662.72998
8.3000002 -55.130001 -662.34998
8.9099998 -55.099998 -661.92999
9.5100002 -55.080002 -661.67999
10.12 -55.07 -661.59003
10.72 -55.049999 -661.38
11.33 -55.060001 -661.44
11.93 -55.060001 -661.45001
12.54 -55.049999 -661.39001
13.15 -55.07 -661.56
13.77 -55.09 -661.89001
14.38 -55.119999 -662.21997
14.99 -55.130001 -662.34003
15.6 -55.139999 -662.39001
16.200001 -55.119999 -662.21997
16.799999 -55.099998 -661.91998
17.41 -55.080002 -661.73999
18.01 -55.060001 -661.51001
18.610001 -55.049999 -661.41998
19.219999 -55.07 -661.57001
19.83 -55.060001 -661.5
20.42 -55.02 -660.98999
21.01 -54.990002 -660.59998
21.610001 -54.970001 -660.41998
22.219999 -54.959999 -660.32001
22.83 -54.98 -660.47998
23.43 -54.970001 -660.45001
24.040001 -54.98 -660.52002
24.65 -54.990002 -660.59003
25.26 -55 -660.76001
25.870001 -54.990002 -660.66998
26.459999 -54.970001 -660.40997
27.059999 -54.959999 -660.25
27.67 -54.959999 -660.27002
28.27 -54.959999 -660.23999
28.889999 -54.970001 -660.34003
29.49 -54.970001 -660.39001
30.1 -54.970001 -660.44
30.700001 -54.959999 -660.21997
31.299999 -54.939999 -660.08002
31.889999 -54.91 -659.71002
32.48 -54.900002 -659.53003
33.080002 -54.889999 -659.41998
33.689999 -54.889999 -659.40997
34.279999 -54.860001 -659.14001
34.869999 -54.849998 -658.95001
35.48 -54.849998 -659.02002
36.09 -54.869999 -659.15002
36.689999 -54.849998 -659
37.299999 -54.860001 -659.14001
37.900002 -54.849998 -658.96002
38.5 -54.849998 -658.94
39.139999 -54.900002 -659.48999
39.75 -54.900002 -659.59003
40.380001 -54.93 -659.90002
40.98 -54.93 -659.92999
41.59 -54.93 -659.88
42.189999 -54.93 -659.89001
42.799999 -54.93 -659.91998
43.43 -54.970001 -660.34998
44.060001 -55 -660.71002
44.700001 -55.040001 -661.16998
45.32 -55.049999 -661.34998
45.939999 -55.060001 -661.46002
46.57 -55.09 -661.75
47.189999 -55.110001 -662.03003
47.84 -55.150002 -662.52002
48.470001 -55.18 -662.81
49.099998 -55.200001 -663.12
49.73 -55.23 -663.44
50.349998 -55.240002 -663.59998
51 -55.290001 -664.10999
51.639999 -55.32 -664.47998
52.299999 -55.369999 -665.09998
52.950001 -55.419998 -665.63
53.599998 -55.459999 -666.09998
54.23 -55.470001 -666.28003
54.869999 -55.5 -666.65002
55.540001 -55.560001 -667.27002
56.200001 -55.599998 -667.84998
56.869999 -55.66 -668.56
57.540001 -55.720001 -669.19
58.23 -55.790001 -670.01001
58.889999 -55.830002 -670.46997
59.549999 -55.869999 -670.95001
60.27 -55.970001 -672.16998
60.959999 -56.040001 -672.94
-56.41 -49.57 -589.90997
-55.84 -49.540001 -589.59003
-55.279999 -49.529999 -589.42999
-54.740002 -49.52 -589.33002
-54.200001 -49.529999 -589.40002
-53.68 -49.540001 -589.60999
-53.169998 -49.57 -589.94
-52.68 -49.619999 -590.45001
-52.240002 -49.709999 -591.59003
-52.16 -50.16 -596.84998
-31.43 -50.259998 -598.07001
-30.85 -50.200001 -597.34998
-30.27 -50.16 -596.84998
-29.700001 -50.110001 -596.28998
-29.129999 -50.080002 -595.94
-28.57 -50.049999 -595.63
-28.02 -50.040001 -595.45001
-27.469999 -50.029999 -595.40002
-26.93 -50.040001 -595.46997
-26.389999 -50.049999 -595.64001
-25.860001 -50.080002 -595.94
-25.309999 -50.080002 -596.01001
-24.76 -50.07 -595.87
-24.209999 -50.060001 -595.77002
-23.67 -50.07 -595.84998
-23.15 -50.119999 -596.48999
-22.6 -50.119999 -596.47998
-22.01 -50.02 -595.25
-21.440001 -49.970001 -594.66998
-20.889999 -49.959999 -594.54999
-20.35 -49.959999 -594.60999
-19.799999 -49.959999 -594.52002
-19.26 -49.950001 -594.51001
-18.709999 -49.950001 -594.44
-18.17 -49.950001 -594.5
-17.620001 -49.959999 -594.53998
