# .PCD v0.7 - Point Cloud Data file format
VERSION 0.7
FIELDS x y z
SIZE 4 4 4
TYPE F F F
COUNT 1 1 1
WIDTH 1655
HEIGHT 1
VIEWPOINT 0 0 0 1 0 0 0
POINTS 1655
DATA ascii
-91.650002 -48.57 -597.31
-91.139999 -48.59 -597.59003
-90.620003 -48.610001 -597.78003
-90.110001 -48.630001 -597.98999
-89.589996 -48.639999 -598.21002
-89.099998 -48.669998 -598.57001
-88.610001 -48.700001 -598.96002
-88.129997 -48.75 -599.46997
-87.639999 -48.779999 -599.88
-87.169998 -48.830002 -600.42999
-86.68 -48.860001 -600.84003
-86.220001 -48.91 -601.45001
-85.739998 -48.950001 -601.94
-85.279999 -49 -602.59003
-84.82 -49.060001 -603.26001
-84.360001 -49.110001 -603.89001
-83.860001 -49.139999 -604.31
-83.400002 -49.200001 -604.95001
-82.919998 -49.240002 -605.48999
-82.489998 -49.32 -606.40997
-82.029999 -49.380001 -607.13
-81.57 -49.43 -607.79999
-81.110001 -49.490002 -608.52002
-80.669998 -49.560001 -609.40997
-80.199997 -49.619999 -610.08002
-79.739998 -49.68 -610.82001
-79.269997 -49.740002 -611.53998
-78.809998 -49.799999 -612.33002
-78.339996 -49.860001 -613.01001
-77.919998 -49.950001 -614.15002
-77.470001 -50.02 -614.98999
-77.050003 -50.119999 -616.10999
-76.620003 -50.209999 -617.22998
-76.230003 -50.32 -618.59998
-75.769997 -50.400002 -619.52002
-75.330002 -50.48 -620.52002
-74.849998 -50.540001 -621.26001
-74.339996 -50.580002 -621.72998
-3.3 -54.84 -673.59998
-2.6900001 -54.849998 -673.71997
-2.0699999 -54.860001 -673.78998
-1.45 -54.860001 -673.77002
-0.82999998 -54.860001 -673.81
-0.20999999 -54.849998 -673.71997
0.41 -54.869999 -673.89001
1.03 -54.860001 -673.73999
1.64 -54.82 -673.34003
2.26 -54.779999 -672.81
2.8800001 -54.77 -672.66998
3.49 -54.759998 -672.63
4.1100001 -54.75 -672.44
4.73 -54.73 -672.22998
5.3400002 -54.73 -672.20001
5.96 -54.720001 -672.04999
6.5700002 -54.709999 -671.91998
7.1900001 -54.700001 -671.87
7.8099999 -54.689999 -671.69
8.4200001 -54.68 -671.59003
9.04 -54.669998 -671.52002
9.6499996 -54.669998 -671.47998
10.27 -54.669998 -671.42999
10.88 -54.650002 -671.28998
11.49 -54.630001 -671.03003
12.11 -54.619999 -670.85999
12.72 -54.610001 -670.77002
13.33 -54.580002 -670.41998
13.94 -54.57 -670.25
14.55 -54.549999 -670.01001
15.17 -54.549999 -670
15.78 -54.529999 -669.81
16.389999 -54.529999 -669.84003
17 -54.52 -669.60999
17.610001 -54.509998 -669.56
18.23 -54.509998 -669.58002
18.84 -54.509998 -669.5
19.450001 -54.5 -669.42999
20.07 -54.490002 -669.28003
20.68 -54.48 -669.16998
21.290001 -54.48 -669.20001
21.9 -54.48 -669.14001
22.52 -54.48 -669.13
23.120001 -54.459999 -668.91998
23.74 -54.450001 -668.84998
24.34 -54.43 -668.54999
24.950001 -54.43 -668.53003
25.559999 -54.41 -668.32001
26.16 -54.389999 -668.02002
26.76 -54.349998 -667.60999
27.360001 -54.34 -667.44
27.959999 -54.310001 -667.04999
28.57 -54.299999 -666.94
29.17 -54.279999 -666.72998
29.780001 -54.279999 -666.73999
30.379999 -54.259998 -666.52002
30.99 -54.259998 -666.42999
31.6 -54.240002 -666.28998
32.200001 -54.220001 -666.04999
32.799999 -54.209999 -665.88
33.389999 -54.18 -665.56
34 -54.169998 -665.41998
34.599998 -54.16 -665.33002
35.200001 -54.150002 -665.10999
35.82 -54.150002 -665.15002
36.41 -54.119999 -664.78998
37.02 -54.119999 -664.78003
37.619999 -54.110001 -664.71997
38.23 -54.110001 -664.70001
38.84 -54.110001 -664.62
39.459999 -54.119999 -664.79999
40.07 -54.119999 -664.83002
40.68 -54.130001 -664.84003
41.290001 -54.130001 -664.84003
41.900002 -54.119999 -664.75
42.5 -54.110001 -664.64001
43.130001 -54.139999 -665.01001
43.790001 -54.189999 -665.65002
44.389999 -54.18 -665.53998
44.970001 -54.139999 -665.02002
45.560001 -54.119999 -664.78998
46.169998 -54.119999 -664.81
46.799999 -54.150002 -665.10999
47.439999 -54.169998 -665.41998
48.07 -54.200001 -665.71002
48.720001 -54.240002 -666.23999
49.369999 -54.279999 -666.70001
50.049999 -54.349998 -667.57001
50.709999 -54.41 -668.25
51.360001 -54.439999 -668.67999
52 -54.470001 -668.98999
52.639999 -54.5 -669.31
53.240002 -54.490002 -669.22998
53.880001 -54.509998 -669.46002
54.5 -54.509998 -669.5
55.110001 -54.52 -669.53998
55.73 -54.52 -669.58002
56.360001 -54.529999 -669.67999
56.970001 -54.529999 -669.71002
57.619999 -54.560001 -670.02002
58.240002 -54.57 -670.15997
58.91 -54.619999 -670.72998
59.57 -54.66 -671.23999
60.279999 -54.740002 -672.26001
-147.63 -49.529999 -602.09003
-147.19 -49.560001 -602.53998
-146.67 -49.57 -602.65997
-146.14 -49.580002 -602.77002
-145.59 -49.580002 -602.76001
-145.03999 -49.580002 -602.77002
-144.49001 -49.580002 -602.78998
-143.94 -49.59 -602.79999
-143.38 -49.580002 -602.78003
-142.84 -49.59 -602.83002
-142.3 -49.59 -602.90002
-141.75 -49.599998 -602.90997
-141.21001 -49.599998 -602.96002
-140.67 -49.599998 -602.98999
-140.12 -49.599998 -603.03003
-139.56 -49.599998 -603.01001
-139 -49.599998 -602.96002
-138.42 -49.59 -602.87
-137.86 -49.59 -602.83002
-137.28 -49.580002 -602.70001
-136.7 -49.57 -602.57001
-136.11 -49.549999 -602.40997
-135.52 -49.540001 -602.23999
-134.92 -49.52 -602.03998
-134.34 -49.509998 -601.91998
-133.77 -49.509998 -601.84003
-133.21001 -49.5 -601.81
-132.66 -49.5 -601.83002
-132.09 -49.5 -601.76001
-131.52 -49.490002 -601.65002
-130.95 -49.48 -601.59003
-130.36 -49.470001 -601.40997
-129.78 -49.459999 -601.27002
-129.2 -49.450001 -601.16998
-128.62 -49.439999 -601.01001
-128.03999 -49.43 -600.89001
-127.45 -49.41 -600.71997
-126.86 -49.400002 -600.53998
-126.27 -49.380001 -600.32001
-125.66 -49.360001 -600.07001
-125.05 -49.330002 -599.78998
-124.46 -49.32 -599.60999
-123.87 -49.299999 -599.41998
-123.29 -49.290001 -599.25
-122.7 -49.27 -599.06
-122.1 -49.25 -598.83002
-121.53 -49.240002 -598.72998
-120.9 -49.209999 -598.33002
-120.31 -49.189999 -598.10999
-119.72 -49.169998 -597.90002
-119.15 -49.169998 -597.84003
-118.59 -49.16 -597.76001
-118.02 -49.150002 -597.66998
-117.46 -49.150002 -597.59003
-116.89 -49.139999 -597.48999
-116.32 -49.130001 -597.37
-115.76 -49.130001 -597.32001
-115.21 -49.119999 -597.31
-114.66 -49.119999 -597.27002
-114.1 -49.119999 -597.25
-113.55 -49.119999 -597.23999
-112.99 -49.110001 -597.16998
-112.43 -49.110001 -597.09003
-111.86 -49.099998 -597
-111.3 -49.09 -596.90002
-110.73 -49.080002 -596.78998
-110.16 -49.07 -596.67999
-109.59 -49.060001 -596.53998
-109.02 -49.049999 -596.44
-108.46 -49.040001 -596.35999
-107.91 -49.040001 -596.34003
-107.34 -49.029999 -596.20001
-106.78 -49.02 -596.13
-106.21 -49.02 -596.03003
-105.66 -49.009998 -595.98999
-105.08 -49 -595.84003
-104.53 -48.990002 -595.78998
-103.96 -48.98 -595.66998
-103.41 -48.98 -595.64001
-102.85 -48.98 -595.57001
-102.29 -48.970001 -595.52002
-101.74 -48.970001 -595.47998
-101.18 -48.959999 -595.40002
-100.63 -48.959999 -595.34003
-100.07 -48.950001 -595.28998
-99.519997 -48.950001 -595.28003
-98.980003 -48.950001 -595.28003
-98.43 -48.950001 -595.29999
-97.889999 -48.950001 -595.32001
-97.339996 -48.950001 -595.32001
-96.790001 -48.950001 -595.28003
-96.25 -48.950001 -595.32001
-95.720001 -48.959999 -595.42999
-95.199997 -48.970001 -595.57001
-94.68 -48.990002 -595.72998
-94.150002 -48.990002 -595.81
-93.620003 -49.009998 -595.96002
-93.110001 -49.02 -596.15002
-92.589996 -49.029999 -596.31
-92.080002 -49.060001 -596.59998
-91.580002 -49.080002 -596.85999
-91.059998 -49.099998 -597.08002
-90.550003 -49.119999 -597.32001
-90.040001 -49.139999 -597.54999
-89.529999 -49.16 -597.78998
-89.050003 -49.189999 -598.22998
-88.559998 -49.23 -598.66998
-88.099998 -49.279999 -599.21997
-87.620003 -49.32 -599.73999
-87.150002 -49.369999 -600.28998
-86.68 -49.41 -600.81
-86.199997 -49.450001 -601.32001
-85.739998 -49.5 -601.90997
-85.279999 -49.549999 -602.57001
-84.82 -49.610001 -603.23999
-84.349998 -49.66 -603.78998
-83.849998 -49.689999 -604.21002
-83.389999 -49.75 -604.90997
-82.919998 -49.799999 -605.5
-82.470001 -49.860001 -606.28998
-82.019997 -49.93 -607.03003
-81.559998 -49.990002 -607.75
-81.099998 -50.040001 -608.46997
-80.650002 -50.110001 -609.29999
-80.190002 -50.18 -610.03998
-79.739998 -50.240002 -610.81
-79.25 -50.290001 -611.38
-78.790001 -50.349998 -612.17999
-78.349998 -50.43 -613.06
-77.919998 -50.52 -614.15002
-77.459999 -50.580002 -614.91998
-77.040001 -50.669998 -616.03003
-76.650002 -50.790001 -617.46997
-76.239998 -50.900002 -618.71002
-75.760002 -50.959999 -619.40002
-75.269997 -51.009998 -620.03998
-3.3 -55.419998 -673.09998
-2.6800001 -55.43 -673.23999
-2.0699999 -55.450001 -673.42999
-1.45 -55.439999 -673.31
-0.82999998 -55.439999 -673.31
-0.20999999 -55.439999 -673.32001
0.41 -55.43 -673.19
1.02 -55.43 -673.15997
1.64 -55.43 -673.17999
2.26 -55.400002 -672.81
2.8800001 -55.360001 -672.38
3.49 -55.34 -672.15002
4.1100001 -55.330002 -672.03003
4.7199998 -55.32 -671.90002
5.3400002 -55.310001 -671.78003
5.9499998 -55.299999 -671.64001
6.5700002 -55.290001 -671.58002
7.1900001 -55.290001 -671.51001
7.8000002 -55.279999 -671.41998
8.4200001 -55.27 -671.34003
9.0299997 -55.27 -671.22998
9.6499996 -55.259998 -671.21997
10.26 -55.259998 -671.15002
10.88 -55.25 -671.09998
11.49 -55.240002 -670.95001
12.1 -55.23 -670.77002
12.72 -55.220001 -670.65997
13.33 -55.200001 -670.46002
13.94 -55.189999 -670.31
14.55 -55.150002 -669.87
15.16 -55.150002 -669.78998
15.77 -55.139999 -669.70001
16.389999 -55.130001 -669.60999
17 -55.119999 -669.46997
17.610001 -55.110001 -669.40002
18.219999 -55.099998 -669.28003
18.84 -55.099998 -669.25
19.450001 -55.099998 -669.26001
20.07 -55.099998 -669.28998
20.67 -55.080002 -669.03998
21.280001 -55.080002 -668.97998
21.9 -55.080002 -668.97998
22.51 -55.080002 -668.96997
23.129999 -55.080002 -668.96997
23.74 -55.07 -668.92999
24.35 -55.060001 -668.75
24.950001 -55.040001 -668.52002
25.559999 -55.029999 -668.33002
26.16 -55 -668.03998
26.77 -54.98 -667.83002
27.370001 -54.970001 -667.64001
27.969999 -54.939999 -667.34003
28.57 -54.919998 -667.09998
29.17 -54.900002 -666.81
29.780001 -54.889999 -666.77002
30.379999 -54.880001 -666.54999
30.99 -54.869999 -666.47998
31.6 -54.860001 -666.40002
32.209999 -54.849998 -666.27002
32.82 -54.849998 -666.23999
33.419998 -54.830002 -666.03003
34.009998 -54.810001 -665.75
34.619999 -54.799999 -665.60999
35.220001 -54.790001 -665.46002
35.82 -54.77 -665.21997
36.419998 -54.75 -665.04999
37.029999 -54.75 -665.03003
37.630001 -54.740002 -664.84003
38.240002 -54.740002 -664.90002
38.849998 -54.740002 -664.90002
39.470001 -54.75 -665.03998
40.09 -54.759998 -665.13
40.700001 -54.77 -665.20001
41.310001 -54.759998 -665.10999
41.91 -54.75 -664.97998
42.529999 -54.75 -665.03998
43.16 -54.790001 -665.42999
43.790001 -54.799999 -665.64001
44.400002 -54.799999 -665.59998
44.98 -54.77 -665.26001
45.59 -54.77 -665.19
46.200001 -54.759998 -665.15997
46.82 -54.779999 -665.34003
47.459999 -54.810001 -665.65002
48.099998 -54.849998 -666.13
48.759998 -54.889999 -666.70001
49.400002 -54.93 -667.14001
50.09 -55.02 -668.16998
50.740002 -55.049999 -668.63
51.380001 -55.09 -669
52.009998 -55.099998 -669.17999
52.639999 -55.119999 -669.35999
53.25 -55.110001 -669.31
53.880001 -55.119999 -669.46002
54.509998 -55.139999 -669.65002
55.139999 -55.16 -669.84003
55.75 -55.150002 -669.78003
56.369999 -55.150002 -669.79999
56.990002 -55.16 -669.89001
57.610001 -55.169998 -670.01001
58.240002 -55.18 -670.15002
58.889999 -55.209999 -670.48999
59.549999 -55.259998 -671.01001
60.240002 -55.32 -671.83002
60.970001 -55.419998 -673
-146.44 -50.049999 -601.73999
-145.98 -50.080002 -602.09998
-145.42999 -50.080002 -602.12
-144.89 -50.09 -602.19
-144.33 -50.080002 -602.15002
-143.78 -50.080002 -602.15002
-143.27 -50.099998 -602.31
-142.7 -50.09 -602.27002
-142.17 -50.099998 -602.34003
-141.62 -50.099998 -602.34003
-141.08 -50.110001 -602.41998
-140.55 -50.110001 -602.48999
-140 -50.110001 -602.51001
-139.45 -50.119999 -602.53003
-138.91 -50.119999 -602.57001
-138.33 -50.110001 -602.46002
-137.77 -50.110001 -602.41998
-137.19 -50.099998 -602.29999
-136.61 -50.09 -602.21002
-136.02 -50.07 -602.02002
-135.46001 -50.07 -602
-134.87 -50.060001 -601.81
-134.28 -50.040001 -601.65002
-133.71001 -50.029999 -601.58002
-133.14 -50.029999 -601.51001
-132.58 -50.02 -601.45001
-132.00999 -50.02 -601.39001
-131.44 -50.009998 -601.28003
-130.85001 -50 -601.12
-130.25999 -49.98 -600.95001
-129.69 -49.970001 -600.84998
-129.10001 -49.959999 -600.69
-128.52 -49.950001 -600.53998
-127.95 -49.939999 -600.46002
-127.37 -49.93 -600.32001
-126.78 -49.91 -600.13
-126.17 -49.889999 -599.88
-125.57 -49.869999 -599.65002
-124.98 -49.849998 -599.45001
-124.39 -49.84 -599.27002
-123.81 -49.830002 -599.09998
-123.23 -49.810001 -598.96997
-122.63 -49.790001 -598.71997
-122.03 -49.77 -598.5
-121.43 -49.75 -598.22998
-120.83 -49.73 -597.96997
-120.26 -49.720001 -597.85999
-119.65 -49.700001 -597.58002
-119.09 -49.689999 -597.53003
-118.52 -49.68 -597.40002
-117.95 -49.669998 -597.28003
-117.39 -49.669998 -597.21997
-116.82 -49.66 -597.14001
-116.26 -49.650002 -597.08002
-115.7 -49.650002 -597
-115.15 -49.639999 -596.97998
-114.59 -49.639999 -596.94
-114.03 -49.639999 -596.88
-113.48 -49.630001 -596.84998
-112.93 -49.630001 -596.84003
-112.36 -49.619999 -596.70001
-111.8 -49.619999 -596.67999
-111.24 -49.610001 -596.59003
-110.67 -49.599998 -596.47998
-110.11 -49.59 -596.40997
-109.54 -49.580002 -596.26001
-108.97 -49.57 -596.14001
-108.4 -49.560001 -596.01001
-107.84 -49.560001 -595.95001
-107.28 -49.549999 -595.88
-106.71 -49.540001 -595.76001
-106.14 -49.529999 -595.65002
-105.59 -49.529999 -595.64001
-105.02 -49.509998 -595.46002
-104.45 -49.509998 -595.35999
-103.89 -49.5 -595.26001
-103.34 -49.490002 -595.23999
-102.78 -49.490002 -595.17999
-102.23 -49.490002 -595.14001
-101.67 -49.48 -595.04999
-101.11 -49.470001 -595
-100.54 -49.459999 -594.84998
-100 -49.459999 -594.87
-99.449997 -49.459999 -594.88
-98.919998 -49.470001 -594.91998
-98.370003 -49.470001 -594.91998
-97.82 -49.470001 -594.90997
-97.269997 -49.459999 -594.89001
-96.720001 -49.459999 -594.87
-96.190002 -49.459999 -594.90997
-95.650002 -49.470001 -595
-95.129997 -49.48 -595.13
-94.610001 -49.5 -595.28003
-94.080002 -49.5 -595.39001
-93.540001 -49.509998 -595.40997
-93.010002 -49.52 -595.56
-92.489998 -49.529999 -595.71002
-92.010002 -49.57 -596.12
-91.5 -49.59 -596.38
-91 -49.610001 -596.67999
-90.480003 -49.630001 -596.84003
-89.989998 -49.66 -597.20001
-89.489998 -49.68 -597.52002
-89 -49.720001 -597.91998
-88.529999 -49.759998 -598.44
-88.07 -49.810001 -599.07001
-87.610001 -49.860001 -599.64001
-87.139999 -49.91 -600.17999
-86.68 -49.959999 -600.81
-86.209999 -50.009998 -601.39001
-85.739998 -50.049999 -601.90997
-85.269997 -50.099998 -602.53003
-84.809998 -50.150002 -603.14001
-84.330002 -50.200001 -603.65997
-83.839996 -50.240002 -604.12
-83.379997 -50.299999 -604.84003
-82.919998 -50.349998 -605.46997
-82.480003 -50.419998 -606.34998
-82.010002 -50.470001 -606.94
-81.540001 -50.529999 -607.62
-81.099998 -50.599998 -608.44
-80.650002 -50.669998 -609.27002
-80.199997 -50.740002 -610.09998
-79.720001 -50.790001 -610.71997
-79.239998 -50.84 -611.31
-78.800003 -50.919998 -612.23999
-78.370003 -51 -613.23999
-77.949997 -51.099998 -614.33002
-77.489998 -51.169998 -615.15002
-77.07 -51.259998 -616.29999
-76.68 -51.380001 -617.67999
-76.190002 -51.43 -618.34003
-75.660004 -51.459999 -618.60999
-3.3 -56.009998 -672.70001
-2.6800001 -56.02 -672.83002
-2.0599999 -56.029999 -672.97998
-1.45 -56.029999 -672.96997
-0.82999998 -56.02 -672.89001
-0.20999999 -56.02 -672.83002
0.41 -56.02 -672.90002
1.02 -55.990002 -672.54999
1.64 -56 -672.59003
2.26 -55.990002 -672.53998
2.8699999 -55.970001 -672.26001
3.49 -55.93 -671.85999
4.1100001 -55.919998 -671.70001
4.7199998 -55.91 -671.52002
5.3400002 -55.900002 -671.46002
5.9499998 -55.889999 -671.38
6.5700002 -55.880001 -671.20001
7.1799998 -55.869999 -671.13
7.8000002 -55.869999 -671.03998
8.4099998 -55.869999 -671.03998
9.0299997 -55.860001 -671
9.6400003 -55.860001 -670.92999
10.26 -55.849998 -670.83002
10.87 -55.84 -670.71997
11.49 -55.830002 -670.65997
12.1 -55.830002 -670.58002
12.72 -55.82 -670.52002
13.33 -55.82 -670.44
13.94 -55.799999 -670.21997
14.55 -55.77 -669.85999
15.16 -55.75 -669.62
15.77 -55.740002 -669.5
16.379999 -55.73 -669.46997
17 -55.73 -669.48999
17.610001 -55.720001 -669.28003
18.219999 -55.700001 -669.08002
18.83 -55.700001 -669.01001
19.440001 -55.700001 -669.02002
20.059999 -55.700001 -669.09003
20.67 -55.700001 -669.09998
21.290001 -55.700001 -669.02002
21.889999 -55.68 -668.87
22.5 -55.669998 -668.71002
23.120001 -55.669998 -668.71997
23.73 -55.669998 -668.71002
24.35 -55.689999 -668.89001
24.959999 -55.669998 -668.67999
25.559999 -55.650002 -668.41998
26.17 -55.630001 -668.21997
26.76 -55.580002 -667.62
27.370001 -55.580002 -667.59003
27.969999 -55.560001 -667.42999
28.58 -55.549999 -667.28998
29.18 -55.529999 -667.02002
29.790001 -55.509998 -666.83002
30.389999 -55.5 -666.65002
31 -55.490002 -666.56
31.6 -55.48 -666.46997
32.209999 -55.470001 -666.37
32.82 -55.470001 -666.33002
33.419998 -55.459999 -666.15002
34.029999 -55.439999 -666
34.639999 -55.439999 -665.98999
35.240002 -55.43 -665.79999
35.830002 -55.400002 -665.46002
36.43 -55.380001 -665.27002
37.029999 -55.369999 -665.09998
37.639999 -55.360001 -664.98999
38.25 -55.360001 -665.03003
38.860001 -55.360001 -665.04999
39.48 -55.369999 -665.12
40.09 -55.369999 -665.10999
40.709999 -55.389999 -665.35999
41.32 -55.389999 -665.33002
41.919998 -55.369999 -665.07001
42.529999 -55.369999 -665.09998
43.169998 -55.400002 -665.48999
43.790001 -55.41 -665.62
44.400002 -55.41 -665.59003
45 -55.400002 -665.45001
45.599998 -55.389999 -665.29999
46.209999 -55.389999 -665.37
46.84 -55.41 -665.62
47.490002 -55.459999 -666.19
48.139999 -55.5 -666.65002
48.779999 -55.540001 -667.04999
49.459999 -55.610001 -667.88
50.119999 -55.66 -668.51001
50.77 -55.709999 -669.06
51.41 -55.73 -669.32001
52.029999 -55.73 -669.38
52.66 -55.75 -669.54999
53.259998 -55.740002 -669.41998
53.880001 -55.75 -669.53003
54.509998 -55.759998 -669.71997
55.150002 -55.779999 -669.92999
55.77 -55.779999 -669.96997
56.380001 -55.779999 -669.98999
57 -55.779999 -669.97998
57.610001 -55.779999 -669.92999
58.240002 -55.799999 -670.13
58.880001 -55.82 -670.34003
59.52 -55.849998 -670.70001
60.220001 -55.919998 -671.62
60.93 -56.009998 -672.59003
-145.78 -50.560001 -601.28998
-145.23 -50.560001 -601.29999
-144.67 -50.560001 -601.27002
-144.13 -50.57 -601.34003
-143.62 -50.580002 -601.51001
-143.11 -50.59 -601.65002
-142.58 -50.599998 -601.73999
-142.03999 -50.610001 -601.78998
-141.5 -50.610001 -601.84003
-140.97 -50.619999 -601.94
-140.42999 -50.619999 -602
-139.89999 -50.630001 -602.09003
-139.36 -50.639999 -602.15997
-138.81 -50.639999 -602.15997
-138.27 -50.639999 -602.19
-137.7 -50.639999 -602.15002
-137.14 -50.630001 -602.09998
-136.57001 -50.619999 -602.02002
-135.99001 -50.610001 -601.88
-135.41 -50.599998 -601.78003
-134.81 -50.59 -601.56
-134.22 -50.57 -601.40002
-133.66 -50.57 -601.37
-133.09 -50.560001 -601.28003
-132.5 -50.549999 -601.12
-131.95 -50.549999 -601.12
-131.37 -50.529999 -600.96997
-130.77 -50.52 -600.77002
-130.17999 -50.5 -600.58002
-129.62 -50.5 -600.53003
-129.03999 -50.490002 -600.40997
-128.46001 -50.48 -600.28998
-127.87 -50.459999 -600.10999
-127.3 -50.450001 -600
-126.71 -50.439999 -599.81
-126.12 -50.419998 -599.62
-125.52 -50.400002 -599.40997
-124.92 -50.380001 -599.16998
-124.32 -50.360001 -598.91998
-123.74 -50.349998 -598.79999
-123.16 -50.330002 -598.63
-122.56 -50.310001 -598.38
-121.97 -50.290001 -598.16998
-121.38 -50.279999 -597.96997
-120.78 -50.259998 -597.75
-120.2 -50.240002 -597.58002
-119.62 -50.23 -597.40997
-119.03 -50.209999 -597.23999
-118.46 -50.200001 -597.10999
-117.91 -50.200001 -597.12
-117.33 -50.189999 -596.94
-116.75 -50.169998 -596.76001
-116.19 -50.169998 -596.70001
-115.64 -50.169998 -596.67999
-115.08 -50.16 -596.65997
-114.53 -50.16 -596.62
-113.97 -50.16 -596.58002
-113.43 -50.16 -596.58002
-112.87 -50.150002 -596.53003
-112.3 -50.139999 -596.40997
-111.75 -50.139999 -596.38
-111.19 -50.130001 -596.32001
-110.61 -50.119999 -596.15997
-110.05 -50.110001 -596.09003
-109.47 -50.099998 -595.90002
-108.91 -50.09 -595.84998
-108.35 -50.09 -595.76001
-107.79 -50.080002 -595.71002
-107.23 -50.07 -595.63
-106.66 -50.060001 -595.51001
-106.1 -50.060001 -595.41998
-105.54 -50.049999 -595.34003
-104.98 -50.040001 -595.25
-104.4 -50.029999 -595.09003
-103.85 -50.02 -595.03003
-103.29 -50.02 -594.98999
-102.73 -50.009998 -594.90997
-102.18 -50.009998 -594.84998
-101.62 -50 -594.78003
-101.04 -49.98 -594.59003
-100.49 -49.98 -594.53998
-99.940002 -49.98 -594.52002
-99.400002 -49.98 -594.53003
-98.860001 -49.98 -594.58002
-98.309998 -49.98 -594.56
-97.769997 -49.98 -594.58002
-97.209999 -49.98 -594.53003
-96.669998 -49.98 -594.52002
-96.120003 -49.970001 -594.48999
-95.589996 -49.990002 -594.64001
-95.07 -50 -594.75
-94.540001 -50.009998 -594.85999
-94.010002 -50.009998 -594.96997
-93.480003 -50.02 -595.04999
-92.940002 -50.029999 -595.12
-92.43 -50.040001 -595.33002
-91.940002 -50.07 -595.66998
-91.440002 -50.099998 -595.95001
-90.940002 -50.119999 -596.25
-90.43 -50.139999 -596.5
-89.940002 -50.18 -596.90002
-89.449997 -50.209999 -597.28003
-88.970001 -50.25 -597.73999
-88.510002 -50.299999 -598.31
-88.059998 -50.349998 -598.97998
-87.589996 -50.400002 -599.53003
-87.129997 -50.450001 -600.13
-86.669998 -50.5 -600.72998
-86.199997 -50.549999 -601.28003
-85.739998 -50.599998 -601.90997
-85.269997 -50.66 -602.53998
-84.800003 -50.700001 -603.07001
-84.330002 -50.75 -603.65002
-83.839996 -50.790001 -604.15997
-83.379997 -50.849998 -604.78003
-82.910004 -50.900002 -605.42999
-82.480003 -50.98 -606.31
-82 -51.029999 -606.87
-81.550003 -51.09 -607.64001
-81.080002 -51.150002 -608.32001
-80.650002 -51.23 -609.28003
-80.209999 -51.299999 -610.15002
-79.730003 -51.349998 -610.72998
-79.25 -51.41 -611.38
-78.82 -51.5 -612.39001
-78.43 -51.610001 -613.69
-77.959999 -51.669998 -614.46002
-77.519997 -51.75 -615.42999
-77.099998 -51.849998 -616.56
-76.620003 -51.900002 -617.20001
-3.3 -56.599998 -672.39001
-2.6800001 -56.59 -672.35999
-2.0599999 -56.610001 -672.59998
-1.45 -56.619999 -672.65002
-0.82999998 -56.610001 -672.48999
-0.20999999 -56.599998 -672.40002
0.41 -56.59 -672.34003
1.02 -56.580002 -672.21997
1.64 -56.580002 -672.20001
2.26 -56.57 -672.03003
2.8699999 -56.560001 -671.91998
3.49 -56.540001 -671.67999
4.0999999 -56.529999 -671.54999
4.7199998 -56.5 -671.28998
5.3299999 -56.490002 -671.09998
5.9499998 -56.48 -671
6.5700002 -56.48 -671
7.1799998 -56.459999 -670.84998
7.79 -56.459999 -670.78003
8.4099998 -56.459999 -670.81
9.0299997 -56.450001 -670.71997
9.6400003 -56.450001 -670.63
10.25 -56.439999 -670.51001
10.87 -56.43 -670.47998
11.48 -56.43 -670.48999
12.1 -56.43 -670.39001
12.71 -56.419998 -670.28003
13.33 -56.41 -670.19
13.94 -56.41 -670.15997
14.55 -56.389999 -670.01001
15.16 -56.369999 -669.77002
15.77 -56.34 -669.40997
16.379999 -56.34 -669.40002
16.99 -56.330002 -669.26001
17.610001 -56.34 -669.34003
18.219999 -56.32 -669.19
18.83 -56.310001 -669.03998
19.440001 -56.299999 -668.95001
20.049999 -56.299999 -668.88
20.67 -56.299999 -668.88
21.280001 -56.290001 -668.77002
21.889999 -56.290001 -668.78998
22.5 -56.290001 -668.73999
23.120001 -56.290001 -668.72998
23.73 -56.279999 -668.65997
24.34 -56.27 -668.58002
24.959999 -56.279999 -668.66998
25.58 -56.290001 -668.81
26.190001 -56.290001 -668.79999
26.780001 -56.240002 -668.21997
27.379999 -56.220001 -667.94
27.969999 -56.18 -667.42999
28.58 -56.16 -667.28003
29.190001 -56.150002 -667.10999
29.790001 -56.139999 -666.97998
30.4 -56.119999 -666.77002
31.01 -56.119999 -666.82001
31.610001 -56.099998 -666.59003
32.209999 -56.09 -666.37
32.82 -56.09 -666.35999
33.43 -56.07 -666.22998
34.040001 -56.07 -666.15997
34.650002 -56.07 -666.16998
35.259998 -56.060001 -666.09003
35.860001 -56.040001 -665.87
36.459999 -56.040001 -665.82001
37.07 -56.029999 -665.65997
37.669998 -56.009998 -665.48999
38.27 -56 -665.32001
38.880001 -56 -665.32001
39.5 -56.009998 -665.40997
40.110001 -56.009998 -665.44
40.720001 -56.009998 -665.52002
41.34 -56.02 -665.53003
41.939999 -56.009998 -665.46002
42.540001 -55.990002 -665.25
43.169998 -56.02 -665.52002
43.779999 -56.02 -665.59998
44.400002 -56.029999 -665.65002
45 -56.02 -665.53003
45.619999 -56.02 -665.54999
46.240002 -56.040001 -665.73999
46.880001 -56.080002 -666.21997
47.529999 -56.119999 -666.72998
48.189999 -56.169998 -667.35999
48.849998 -56.23 -667.96002
49.509998 -56.279999 -668.64001
50.18 -56.34 -669.28998
50.810001 -56.360001 -669.56
51.43 -56.369999 -669.65002
52.049999 -56.369999 -669.63
52.66 -56.369999 -669.65997
53.279999 -56.369999 -669.60999
53.900002 -56.369999 -669.70001
54.529999 -56.389999 -669.87
55.150002 -56.389999 -669.90997
55.77 -56.400002 -670
56.380001 -56.389999 -669.90002
56.990002 -56.400002 -669.92999
57.619999 -56.41 -670.04999
58.240002 -56.41 -670.10999
58.869999 -56.43 -670.28998
59.509998 -56.450001 -670.59003
60.18 -56.5 -671.13
60.869999 -56.57 -671.97998
-145.58 -51.049999 -600.5
-145.02 -51.040001 -600.44
-144.49001 -51.049999 -600.54999
-144 -51.07 -600.77002
-143.49001 -51.080002 -600.95001
-142.98 -51.099998 -601.13
-142.45 -51.110001 -601.22998
-141.94 -51.119999 -601.37
-141.42999 -51.139999 -601.54999
-140.88 -51.139999 -601.57001
-140.36 -51.150002 -601.71002
-139.85001 -51.16 -601.87
-139.31 -51.169998 -601.91998
-138.75999 -51.169998 -601.91998
-138.2 -51.169998 -601.91998
-137.64999 -51.169998 -601.92999
-137.10001 -51.169998 -601.91998
-136.5 -51.150002 -601.71997
-135.92 -51.139999 -601.59998
-135.34 -51.130001 -601.47998
-134.75999 -51.119999 -601.34003
-134.17999 -51.110001 -601.23999
-133.60001 -51.099998 -601.10999
-133.03999 -51.09 -601.07001
-132.47 -51.09 -600.96997
-131.91 -51.080002 -600.91998
-131.31 -51.060001 -600.71997
-130.72 -51.049999 -600.53998
-130.14 -51.040001 -600.39001
-129.56 -51.029999 -600.27002
-128.98 -51.009998 -600.12
-128.41 -51 -600.03003
-127.82 -50.990002 -599.88
-127.23 -50.970001 -599.67999
-126.64 -50.959999 -599.48999
-126.06 -50.950001 -599.37
-125.45 -50.919998 -599.09003
-124.87 -50.91 -598.90997
-124.26 -50.889999 -598.65997
-123.69 -50.880001 -598.56
-123.09 -50.860001 -598.31
-122.51 -50.84 -598.15002
-121.9 -50.82 -597.84998
-121.33 -50.810001 -597.73999
-120.73 -50.779999 -597.47998
-120.16 -50.779999 -597.39001
-119.57 -50.759998 -597.16998
-118.99 -50.740002 -597.03003
-118.43 -50.740002 -596.95001
-117.84 -50.720001 -596.77002
-117.27 -50.709999 -596.62
-116.71 -50.709999 -596.58002
-116.14 -50.700001 -596.46997
-115.59 -50.689999 -596.42999
-115.03 -50.689999 -596.35999
-114.47 -50.68 -596.34003
-113.92 -50.68 -596.32001
-113.36 -50.68 -596.25
-112.8 -50.669998 -596.16998
-112.26 -50.669998 -596.17999
-111.69 -50.66 -596.07001
-111.13 -50.650002 -596.01001
-110.56 -50.639999 -595.90002
-110.01 -50.639999 -595.85999
-109.43 -50.630001 -595.71002
-108.85 -50.610001 -595.53003
-108.3 -50.610001 -595.5
-107.75 -50.610001 -595.46997
-107.19 -50.599998 -595.37
-106.62 -50.59 -595.27002
-106.05 -50.580002 -595.15002
-105.49 -50.57 -595.03998
-104.92 -50.560001 -594.94
-104.37 -50.560001 -594.89001
-103.8 -50.540001 -594.76001
-103.24 -50.540001 -594.65997
-102.68 -50.529999 -594.59998
-102.12 -50.52 -594.51001
-101.55 -50.509998 -594.38
-100.98 -50.5 -594.22998
-100.41 -50.490002 -594.09003
-99.870003 -50.490002 -594.12
-99.339996 -50.5 -594.21997
-98.800003 -50.5 -594.23999
-98.260002 -50.5 -594.28003
-97.709999 -50.5 -594.21002
-97.169998 -50.5 -594.26001
-96.599998 -50.490002 -594.15002
-96.059998 -50.490002 -594.16998
-95.529999 -50.5 -594.23999
-95.010002 -50.509998 -594.38
-94.480003 -50.52 -594.47998
-93.949997 -50.529999 -594.58002
-93.410004 -50.529999 -594.60999
-92.889999 -50.540001 -594.78003
-92.370003 -50.560001 -594.92999
-91.870003 -50.580002 -595.25
-91.370003 -50.610001 -595.54999
-90.870003 -50.630001 -595.82001
-90.379997 -50.66 -596.19
-89.889999 -50.700001 -596.59003
-89.410004 -50.73 -596.97998
-88.949997 -50.779999 -597.56
-88.470001 -50.830002 -598.07001
-88.040001 -50.889999 -598.87
-87.589996 -50.950001 -599.53998
-87.129997 -51 -600.12
-86.660004 -51.049999 -600.69
-86.199997 -51.099998 -601.28998
-85.739998 -51.16 -601.94
-85.269997 -51.200001 -602.47998
-84.790001 -51.25 -603.03003
-84.32 -51.299999 -603.63
-83.849998 -51.349998 -604.21997
-83.370003 -51.400002 -604.76001
-82.93 -51.470001 -605.56
-82.480003 -51.529999 -606.28998
-82 -51.580002 -606.85999
-81.550003 -51.650002 -607.64001
-81.099998 -51.720001 -608.45001
-80.669998 -51.799999 -609.42999
-80.209999 -51.860001 -610.15002
-79.739998 -51.919998 -610.82001
-79.269997 -51.98 -611.54999
-78.879997 -52.099998 -612.84998
-78.459999 -52.189999 -613.96002
-78 -52.259998 -614.73999
-77.529999 -52.32 -615.46997
-77.019997 -52.360001 -615.88
-3.3 -57.169998 -671.90997
-2.6800001 -57.189999 -672.09003
-2.0599999 -57.200001 -672.19
-1.45 -57.200001 -672.25
-0.82999998 -57.200001 -672.28003
-0.20999999 -57.18 -671.96002
0.41 -57.18 -671.98999
1.02 -57.16 -671.82001
1.64 -57.150002 -671.66998
2.26 -57.16 -671.71002
2.8699999 -57.139999 -671.51001
3.49 -57.119999 -671.28998
4.0999999 -57.119999 -671.34003
4.7199998 -57.099998 -671.10999
5.3299999 -57.09 -670.96997
5.9499998 -57.07 -670.71002
6.5599999 -57.07 -670.69
7.1799998 -57.060001 -670.59998
7.79 -57.060001 -670.57001
8.4099998 -57.040001 -670.41998
9.0200005 -57.049999 -670.45001
9.6400003 -57.049999 -670.46997
10.25 -57.029999 -670.28998
10.87 -57.040001 -670.32001
11.48 -57.02 -670.12
12.09 -57.029999 -670.21002
12.71 -57.02 -670.17999
13.32 -57.02 -670.08002
13.93 -57 -669.90002
14.55 -57 -669.87
15.16 -56.990002 -669.75
15.77 -56.98 -669.62
16.379999 -56.959999 -669.41998
16.99 -56.939999 -669.17999
17.6 -56.939999 -669.15002
18.219999 -56.939999 -669.16998
18.83 -56.93 -669.08002
19.440001 -56.91 -668.85999
20.049999 -56.919998 -668.90997
20.66 -56.91 -668.81
21.280001 -56.900002 -668.73999
21.889999 -56.900002 -668.71002
22.5 -56.900002 -668.70001
23.110001 -56.880001 -668.53003
23.73 -56.889999 -668.59998
24.34 -56.889999 -668.59003
24.950001 -56.880001 -668.54999
25.57 -56.889999 -668.58002
26.18 -56.889999 -668.59003
26.799999 -56.900002 -668.77002
27.41 -56.889999 -668.62
28 -56.84 -668.03998
28.59 -56.799999 -667.58002
29.190001 -56.77 -667.17999
29.790001 -56.75 -667.03003
30.4 -56.75 -666.92999
31.01 -56.740002 -666.90002
31.620001 -56.73 -666.75
32.220001 -56.709999 -666.53003
32.830002 -56.700001 -666.45001
33.43 -56.700001 -666.34998
34.040001 -56.68 -666.20001
34.650002 -56.68 -666.16998
35.25 -56.669998 -666.02002
35.860001 -56.669998 -666.03003
36.48 -56.669998 -666.02002
37.080002 -56.66 -665.95001
37.689999 -56.66 -665.91998
38.299999 -56.650002 -665.84003
38.900002 -56.639999 -665.66998
39.509998 -56.639999 -665.71002
40.119999 -56.630001 -665.59003
40.73 -56.639999 -665.66998
41.349998 -56.650002 -665.73999
41.950001 -56.639999 -665.63
42.560001 -56.630001 -665.52002
43.169998 -56.630001 -665.51001
43.790001 -56.639999 -665.63
44.400002 -56.639999 -665.65997
45.02 -56.639999 -665.71002
45.639999 -56.66 -665.87
46.290001 -56.709999 -666.42999
46.93 -56.740002 -666.84003
47.59 -56.799999 -667.48999
48.240002 -56.84 -668.02002
48.889999 -56.880001 -668.48999
49.560001 -56.950001 -669.23999
50.200001 -56.98 -669.60999
50.830002 -57 -669.82001
51.450001 -57 -669.81
52.049999 -56.990002 -669.71997
52.68 -57 -669.78998
53.290001 -56.990002 -669.72998
53.91 -57 -669.81
54.529999 -57.009998 -669.88
55.150002 -57.009998 -669.91998
55.759998 -57.009998 -669.92999
56.380001 -57.02 -670.01001
56.990002 -57.009998 -669.94
57.610001 -57.02 -669.97998
58.240002 -57.02 -670.06
58.869999 -57.040001 -670.28003
59.509998 -57.07 -670.56
60.150002 -57.080002 -670.76001
60.84 -57.150002 -671.58002
61.560001 -57.25 -672.72998
-165.03 -51.48 -599.21002
-164.42 -51.459999 -598.97998
-163.81 -51.439999 -598.76001
-163.21001 -51.419998 -598.56
-160.67 -51.310001 -597.31
-160.02 -51.279999 -596.94
-159.42 -51.27 -596.73999
-158.83 -51.25 -596.57001
-158.3 -51.259998 -596.63
-156.39999 -51.169998 -595.66998
-155.82001 -51.16 -595.53998
-155.3 -51.169998 -595.60999
-154.74001 -51.169998 -595.58002
-144.84 -51.529999 -599.72998
-144.34 -51.549999 -599.90997
-143.85001 -51.57 -600.16998
-143.37 -51.59 -600.46002
-142.86 -51.610001 -600.63
-142.37 -51.630001 -600.85999
-141.86 -51.639999 -601.04999
-141.35001 -51.66 -601.25
-140.82001 -51.669998 -601.32001
-140.3 -51.68 -601.46002
-139.8 -51.700001 -601.69
-139.27 -51.700001 -601.73999
-138.72 -51.709999 -601.77002
-138.16 -51.700001 -601.71997
-137.61 -51.709999 -601.76001
-137.05 -51.700001 -601.70001
-136.49001 -51.700001 -601.69
-135.91 -51.689999 -601.56
-135.33 -51.68 -601.41998
-134.75 -51.66 -601.28003
-134.14999 -51.650002 -601.07001
-133.57001 -51.639999 -600.96002
-133 -51.630001 -600.89001
-132.42999 -51.619999 -600.77002
-131.83 -51.599998 -600.58002
-131.27 -51.599998 -600.53998
-130.69 -51.59 -600.40997
-130.09 -51.57 -600.19
-129.50999 -51.549999 -600.02002
-128.92999 -51.549999 -599.91998
-128.35001 -51.529999 -599.78998
-127.77 -51.52 -599.63
-127.2 -51.509998 -599.53003
-126.6 -51.490002 -599.28998
-126.03 -51.48 -599.20001
-125.4 -51.450001 -598.84003
-124.82 -51.439999 -598.66998
-124.23 -51.419998 -598.5
-123.65 -51.41 -598.35999
-123.05 -51.389999 -598.12
-122.47 -51.380001 -597.97998
-121.87 -51.349998 -597.71997
-121.29 -51.34 -597.57001
-120.69 -51.32 -597.32001
-120.11 -51.299999 -597.15997
-119.52 -51.279999 -596.92999
-118.96 -51.279999 -596.84998
-118.38 -51.27 -596.72998
-117.81 -51.25 -596.58002
-117.24 -51.240002 -596.46997
-116.66 -51.23 -596.31
-116.1 -51.220001 -596.26001
-115.56 -51.23 -596.28003
-114.99 -51.220001 -596.15997
-114.44 -51.209999 -596.14001
-113.86 -51.200001 -596
-113.32 -51.200001 -596.02002
-112.75 -51.189999 -595.89001
-112.21 -51.200001 -595.94
-111.65 -51.189999 -595.84998
-111.08 -51.18 -595.75
-110.52 -51.169998 -595.69
-109.96 -51.169998 -595.60999
-109.39 -51.150002 -595.46997
-108.83 -51.150002 -595.39001
-108.27 -51.139999 -595.33002
-107.71 -51.130001 -595.25
-107.16 -51.130001 -595.21002
-106.59 -51.119999 -595.13
-106.03 -51.110001 -595.03003
-105.46 -51.099998 -594.90002
-104.89 -51.09 -594.73999
-104.32 -51.080002 -594.60999
-103.75 -51.07 -594.46997
-103.2 -51.060001 -594.44
-102.63 -51.049999 -594.32001
-102.08 -51.049999 -594.28998
-101.5 -51.029999 -594.10999
-100.95 -51.029999 -594.03003
-100.39 -51.02 -593.96997
-99.839996 -51.02 -593.96997
-99.309998 -51.02 -594.02002
-98.769997 -51.029999 -594.07001
-98.220001 -51.02 -594.03003
-97.669998 -51.02 -593.98999
-97.120003 -51.02 -593.94
-96.57 -51.02 -593.92999
-96.010002 -51.009998 -593.84003
-95.480003 -51.009998 -593.90997
-94.949997 -51.02 -594
-94.410004 -51.029999 -594.08002
-93.889999 -51.040001 -594.20001
-93.349998 -51.040001 -594.27002
-92.839996 -51.060001 -594.48999
-92.330002 -51.080002 -594.65997
-91.82 -51.099998 -594.92999
-91.32 -51.130001 -595.23999
-90.830002 -51.16 -595.59998
-90.339996 -51.189999 -595.96002
-89.870003 -51.23 -596.46002
-89.379997 -51.27 -596.84003
-88.93 -51.32 -597.42999
-88.470001 -51.369999 -598.03003
-88.029999 -51.439999 -598.78998
-87.580002 -51.5 -599.46997
-87.120003 -51.549999 -600.03998
-86.650002 -51.59 -600.59998
-86.199997 -51.650002 -601.28998
-85.730003 -51.700001 -601.85999
-85.25 -51.75 -602.38
-84.790001 -51.799999 -603.03003
-84.32 -51.849998 -603.59998
-83.839996 -51.900002 -604.15002
-83.379997 -51.959999 -604.83002
-82.940002 -52.029999 -605.64001
-82.459999 -52.080002 -606.20001
-82 -52.139999 -606.90002
-81.559998 -52.209999 -607.71002
-81.110001 -52.279999 -608.52002
-80.690002 -52.369999 -609.54999
-80.220001 -52.43 -610.21002
-79.75 -52.490002 -610.91998
-79.290001 -52.560001 -611.69
-78.910004 -52.68 -613.08002
-78.43 -52.740002 -613.72998
-77.949997 -52.790001 -614.31
-3.3 -57.799999 -672.03998
-2.6800001 -57.779999 -671.78003
-2.0599999 -57.779999 -671.78003
-1.4400001 -57.790001 -671.85999
-0.82999998 -57.790001 -671.92999
-0.20999999 -57.77 -671.67999
0.41 -57.77 -671.64001
1.02 -57.740002 -671.34998
1.64 -57.740002 -671.28998
2.25 -57.73 -671.21997
2.8699999 -57.720001 -671.15002
3.49 -57.709999 -671.01001
4.0999999 -57.700001 -670.92999
4.7199998 -57.700001 -670.88
5.3299999 -57.689999 -670.79999
5.9499998 -57.68 -670.65002
6.5599999 -57.66 -670.41998
7.1700001 -57.639999 -670.21002
7.79 -57.639999 -670.23999
8.4099998 -57.650002 -670.35999
9.0200005 -57.650002 -670.26001
9.6300001 -57.639999 -670.21997
10.25 -57.639999 -670.21002
10.86 -57.630001 -670.02002
11.48 -57.630001 -670.12
12.09 -57.619999 -670.01001
12.7 -57.619999 -669.92999
13.32 -57.630001 -670.08002
13.94 -57.619999 -669.96997
14.55 -57.610001 -669.87
15.16 -57.59 -669.62
15.77 -57.599998 -669.71997
16.389999 -57.599998 -669.71997
17 -57.57 -669.35999
17.6 -57.549999 -669.17999
18.219999 -57.540001 -669.07001
18.83 -57.549999 -669.09998
19.440001 -57.540001 -669.04999
20.049999 -57.52 -668.83002
20.66 -57.509998 -668.72998
21.27 -57.5 -668.63
21.889999 -57.509998 -668.67999
22.5 -57.509998 -668.70001
23.110001 -57.5 -668.59003
23.719999 -57.490002 -668.48999
24.34 -57.490002 -668.44
24.950001 -57.490002 -668.47998
25.559999 -57.490002 -668.45001
26.18 -57.490002 -668.40997
26.790001 -57.5 -668.51001
27.41 -57.509998 -668.66998
28.030001 -57.509998 -668.72998
28.639999 -57.5 -668.53003
29.219999 -57.450001 -667.96997
29.809999 -57.41 -667.47998
30.41 -57.380001 -667.16998
31.02 -57.369999 -667.04999
31.629999 -57.360001 -666.90997
32.23 -57.34 -666.76001
32.84 -57.330002 -666.64001
33.450001 -57.330002 -666.57001
34.040001 -57.299999 -666.29999
34.650002 -57.299999 -666.28003
35.27 -57.299999 -666.29999
35.869999 -57.299999 -666.21997
36.470001 -57.27 -665.94
37.09 -57.279999 -666.07001
37.700001 -57.279999 -666.06
38.32 -57.299999 -666.21997
38.93 -57.290001 -666.12
39.540001 -57.290001 -666.16998
40.139999 -57.27 -665.92999
40.759998 -57.290001 -666.08002
41.369999 -57.290001 -666.09998
41.98 -57.279999 -666.06
42.59 -57.279999 -665.98999
43.189999 -57.27 -665.85999
43.810001 -57.279999 -665.98999
44.43 -57.290001 -666.09003
45.060001 -57.32 -666.42999
45.689999 -57.34 -666.67999
46.34 -57.380001 -667.19
46.990002 -57.43 -667.69
47.639999 -57.470001 -668.15997
48.279999 -57.5 -668.54999
48.950001 -57.57 -669.27002
49.610001 -57.619999 -669.89001
50.25 -57.650002 -670.19
50.860001 -57.650002 -670.20001
51.459999 -57.630001 -670.01001
52.07 -57.619999 -669.89001
52.689999 -57.630001 -669.96002
53.290001 -57.610001 -669.81
53.91 -57.619999 -669.84003
54.529999 -57.630001 -669.94
55.16 -57.639999 -670.04999
55.779999 -57.639999 -670.14001
56.389999 -57.639999 -670.09003
57 -57.630001 -669.96997
57.610001 -57.630001 -669.96002
58.240002 -57.639999 -670.08002
58.860001 -57.639999 -670.14001
59.5 -57.669998 -670.39001
60.16 -57.709999 -670.88
60.82 -57.75 -671.39001
61.540001 -57.849998 -672.52002
-165.53 -52.009998 -599.01001
-164.8 -51.959999 -598.39001
-164.21001 -51.939999 -598.21002
-163.55 -51.91 -597.81
-162.24001 -51.84 -597.03003
-161.61 -51.810001 -596.73999
-160.99001 -51.790001 -596.48999
-160.36 -51.759998 -596.15997
-159.74001 -51.740002 -595.90002
-159.09 -51.700001 -595.5
-158.52 -51.700001 -595.40997
-157.37 -51.68 -595.19
-156.73 -51.650002 -594.83002
-156.13 -51.630001 -594.64001
-155.57001 -51.619999 -594.58002
-155.03 -51.619999 -594.59998
-154.47 -51.619999 -594.54999
-144.64 -52.009998 -598.90002
-144.2 -52.049999 -599.35999
-143.71001 -52.07 -599.59003
-143.24001 -52.099998 -599.91998
-142.75 -52.119999 -600.16998
-142.25999 -52.139999 -600.44
-141.77 -52.16 -600.65997
-141.27 -52.18 -600.88
-140.75 -52.189999 -601.03003
-140.25 -52.209999 -601.22998
-139.71001 -52.220001 -601.29999
-139.2 -52.23 -601.46997
-138.64 -52.23 -601.41998
-138.10001 -52.23 -601.46002
-137.53999 -52.23 -601.45001
-137.02 -52.240002 -601.56
-136.44 -52.23 -601.45001
-135.86 -52.220001 -601.34003
-135.28 -52.209999 -601.21997
-134.7 -52.200001 -601.09998
-134.12 -52.189999 -600.96997
-133.52 -52.169998 -600.72998
-132.94 -52.16 -600.62
-132.37 -52.150002 -600.53998
-131.78999 -52.139999 -600.40002
-131.21001 -52.130001 -600.25
-130.62 -52.110001 -600.08002
-130.06 -52.110001 -600.06
-129.46001 -52.09 -599.79999
-128.88 -52.07 -599.65997
-128.31 -52.07 -599.58002
-127.72 -52.049999 -599.40997
-127.14 -52.040001 -599.27002
-126.58 -52.029999 -599.21997
-125.97 -52.009998 -598.94
-125.38 -51.990002 -598.72998
-124.79 -51.98 -598.57001
-124.21 -51.959999 -598.39001
-123.6 -51.939999 -598.12
-123.02 -51.919998 -597.96002
-122.43 -51.900002 -597.76001
-121.83 -51.880001 -597.53003
-121.24 -51.869999 -597.32001
-120.66 -51.849998 -597.15002
-120.09 -51.84 -597.02002
-119.49 -51.82 -596.79999
-118.92 -51.810001 -596.66998
-118.34 -51.790001 -596.5
-117.76 -51.779999 -596.34003
-117.2 -51.77 -596.28003
-116.63 -51.759998 -596.15997
-116.06 -51.75 -596.06
-115.51 -51.75 -596.03998
-114.95 -51.740002 -595.96997
-114.38 -51.740002 -595.87
-113.82 -51.73 -595.79999
-113.27 -51.73 -595.75
-112.7 -51.720001 -595.66998
-112.15 -51.720001 -595.65002
-111.61 -51.720001 -595.66998
-111.05 -51.709999 -595.58002
-110.49 -51.700001 -595.5
-109.93 -51.700001 -595.41998
-109.36 -51.689999 -595.34003
-108.8 -51.68 -595.25
-108.23 -51.669998 -595.13
-107.67 -51.66 -595.03003
-107.11 -51.650002 -594.96997
-106.57 -51.66 -594.97998
-105.99 -51.639999 -594.78998
-105.42 -51.630001 -594.69
-104.86 -51.619999 -594.57001
-104.28 -51.610001 -594.40997
-103.72 -51.599998 -594.32001
-103.16 -51.59 -594.20001
-102.6 -51.580002 -594.12
-102.04 -51.57 -594.06
-101.48 -51.57 -593.98999
-100.91 -51.549999 -593.84998
-100.35 -51.549999 -593.75
-99.809998 -51.549999 -593.75
-99.260002 -51.540001 -593.73999
-98.730003 -51.549999 -593.78998
-98.18 -51.549999 -593.77002
-97.629997 -51.549999 -593.77002
-97.080002 -51.540001 -593.72998
-96.519997 -51.540001 -593.65002
-95.970001 -51.529999 -593.59003
-95.440002 -51.540001 -593.65997
-94.900002 -51.540001 -593.71997
-94.379997 -51.549999 -593.84003
-93.839996 -51.560001 -593.90997
-93.32 -51.57 -594.03003
-92.800003 -51.580002 -594.19
-92.279999 -51.599998 -594.38
-91.779999 -51.630001 -594.69
-91.290001 -51.650002 -595.02002
-90.800003 -51.689999 -595.39001
-90.309998 -51.720001 -595.76001
-89.849998 -51.77 -596.28003
-89.370003 -51.810001 -596.75
-88.910004 -51.849998 -597.29999
-88.449997 -51.91 -597.92999
-88.029999 -51.98 -598.75
-87.57 -52.040001 -599.40997
-87.110001 -52.09 -599.97998
-86.650002 -52.150002 -600.60999
-86.190002 -52.200001 -601.23999
-85.720001 -52.25 -601.78003
-85.239998 -52.290001 -602.31
-84.779999 -52.349998 -602.94
-84.330002 -52.41 -603.64001
-83.860001 -52.470001 -604.25
-83.400002 -52.52 -604.91998
-82.949997 -52.59 -605.70001
-82.480003 -52.639999 -606.29999
-82.019997 -52.709999 -607.03998
-81.580002 -52.790001 -607.90002
-81.129997 -52.849998 -608.69
-80.720001 -52.950001 -609.79999
-80.230003 -53 -610.31
-79.779999 -53.07 -611.14001
-79.300003 -53.119999 -611.71997
-78.860001 -53.209999 -612.70001
-3.29 -58.369999 -671.45001
-2.6800001 -58.360001 -671.40002
-2.0599999 -58.380001 -671.65002
-1.4400001 -58.369999 -671.51001
-0.82999998 -58.369999 -671.46002
-0.20999999 -58.360001 -671.40002
0.41 -58.349998 -671.29999
1.02 -58.330002 -671.04999
1.64 -58.32 -670.91998
2.25 -58.310001 -670.87
2.8699999 -58.299999 -670.72998
3.48 -58.299999 -670.70001
4.0999999 -58.299999 -670.65002
4.71 -58.299999 -670.66998
5.3299999 -58.290001 -670.64001
5.9400001 -58.279999 -670.47998
6.5599999 -58.27 -670.32001
7.1700001 -58.25 -670.15002
7.79 -58.240002 -670.04999
8.3999996 -58.240002 -670.04999
9.0200005 -58.25 -670.08002
9.6300001 -58.240002 -669.98999
10.25 -58.240002 -669.96997
10.86 -58.23 -669.85999
11.47 -58.220001 -669.81
12.09 -58.23 -669.87
12.7 -58.220001 -669.79999
13.32 -58.220001 -669.83002
13.93 -58.220001 -669.82001
14.54 -58.209999 -669.70001
15.16 -58.200001 -669.59003
15.77 -58.209999 -669.60999
16.389999 -58.209999 -669.60999
17 -58.200001 -669.60999
17.610001 -58.18 -669.32001
18.219999 -58.16 -669.14001
18.83 -58.150002 -668.96002
19.450001 -58.16 -669.08002
20.059999 -58.169998 -669.15997
20.67 -58.139999 -668.83002
21.27 -58.119999 -668.66998
21.889999 -58.119999 -668.67999
22.5 -58.130001 -668.71002
23.120001 -58.119999 -668.67999
23.73 -58.119999 -668.64001
24.34 -58.110001 -668.53998
24.950001 -58.099998 -668.40997
25.559999 -58.099998 -668.38
26.18 -58.110001 -668.53998
26.790001 -58.110001 -668.5
27.4 -58.099998 -668.42999
28.02 -58.099998 -668.46002
28.639999 -58.119999 -668.64001
29.26 -58.130001 -668.72998
29.860001 -58.110001 -668.52002
30.450001 -58.060001 -667.90002
31.040001 -58.02 -667.46002
31.639999 -57.990002 -667.15002
32.240002 -57.970001 -666.96997
32.849998 -57.959999 -666.81
33.450001 -57.950001 -666.71997
34.060001 -57.950001 -666.70001
34.669998 -57.93 -666.51001
35.279999 -57.93 -666.47998
35.880001 -57.919998 -666.37
36.490002 -57.91 -666.25
37.09 -57.900002 -666.13
37.709999 -57.900002 -666.15002
38.32 -57.900002 -666.13
38.939999 -57.91 -666.27002
39.540001 -57.91 -666.21002
40.16 -57.91 -666.26001
40.779999 -57.919998 -666.35999
41.389999 -57.93 -666.46002
42.009998 -57.939999 -666.58002
42.630001 -57.950001 -666.67999
43.25 -57.959999 -666.78998
43.849998 -57.950001 -666.64001
44.48 -57.959999 -666.77002
45.099998 -57.98 -667.02002
45.75 -58.02 -667.41998
46.389999 -58.049999 -667.83002
47.02 -58.080002 -668.16998
47.669998 -58.130001 -668.66998
48.360001 -58.209999 -669.64001
49.060001 -58.310001 -670.76001
49.700001 -58.349998 -671.16998
50.299999 -58.330002 -670.96002
50.900002 -58.299999 -670.65002
51.490002 -58.279999 -670.34003
52.080002 -58.25 -670.06
52.700001 -58.25 -670.06
53.310001 -58.25 -670.06
53.93 -58.25 -670.04999
54.540001 -58.25 -670.03003
55.16 -58.25 -670.06
55.77 -58.25 -670.07001
56.389999 -58.259998 -670.10999
57.009998 -58.25 -670.09003
57.619999 -58.25 -670.02002
58.240002 -58.259998 -670.09998
58.860001 -58.259998 -670.19
59.48 -58.27 -670.26001
60.119999 -58.299999 -670.53003
60.799999 -58.349998 -671.15997
61.509998 -58.439999 -672.16998
62.23 -58.540001 -673.33002
-165.39 -52.52 -598.53003
-164.62 -52.450001 -597.72998
-163.97 -52.41 -597.34998
-163.33 -52.380001 -597.03003
-162.67999 -52.349998 -596.66998
-161.98 -52.299999 -596.10999
-161.34 -52.27 -595.77002
-160.62 -52.209999 -595.12
-160.07001 -52.209999 -595.12
-157.08 -52.130001 -594.12
-156.49001 -52.110001 -593.96002
-155.87 -52.09 -593.65002
-155.3 -52.080002 -593.57001
-144 -52.52 -598.52002
-143.53999 -52.549999 -598.89001
-143.08 -52.59 -599.27002
-142.60001 -52.610001 -599.57001
-142.14999 -52.650002 -599.96997
-141.64999 -52.669998 -600.20001
-141.14999 -52.689999 -600.37
-140.63 -52.700001 -600.52002
-140.10001 -52.709999 -600.60999
-139.57001 -52.720001 -600.71002
-139.03999 -52.720001 -600.76001
-138.49001 -52.720001 -600.79999
-137.94 -52.720001 -600.79999
-137.39 -52.73 -600.81
-136.84 -52.73 -600.81
-136.28 -52.720001 -600.78003
-135.74001 -52.73 -600.82001
-135.19 -52.73 -600.82001
-134.64999 -52.73 -600.87
-134.09 -52.720001 -600.79999
-133.5 -52.709999 -600.65997
-132.92 -52.700001 -600.53003
-132.35001 -52.689999 -600.42999
-131.75999 -52.68 -600.25
-131.21001 -52.68 -600.26001
-130.61 -52.66 -600.04999
-130.02 -52.639999 -599.87
-129.42 -52.619999 -599.63
-128.85001 -52.610001 -599.52002
-128.27 -52.599998 -599.40002
-127.69 -52.59 -599.28003
-127.12 -52.580002 -599.19
-126.54 -52.57 -599.03998
-125.95 -52.549999 -598.84998
-125.34 -52.52 -598.53998
-124.76 -52.509998 -598.41998
-124.17 -52.490002 -598.19
-123.58 -52.48 -598.03003
-122.99 -52.459999 -597.82001
-122.4 -52.439999 -597.63
-121.79 -52.41 -597.34003
-121.21 -52.400002 -597.17999
-120.62 -52.380001 -596.96002
-120.06 -52.369999 -596.88
-119.46 -52.349998 -596.63
-118.9 -52.34 -596.56
-118.32 -52.330002 -596.42999
-117.74 -52.32 -596.25
-117.16 -52.299999 -596.09998
-116.6 -52.299999 -596.01001
-116.03 -52.279999 -595.89001
-115.47 -52.279999 -595.84003
-114.92 -52.279999 -595.81
-114.34 -52.259998 -595.64001
-113.79 -52.259998 -595.63
-113.24 -52.259998 -595.60999
-112.66 -52.25 -595.46002
-112.13 -52.25 -595.5
