# .PCD v0.7 - Point Cloud Data file format
VERSION 0.7
FIELDS x y z
SIZE 4 4 4
TYPE F F F
COUNT 1 1 1
WIDTH 1704
HEIGHT 1
VIEWPOINT 0 0 0 1 0 0 0
POINTS 1704
DATA ascii
-130.09 -28.360001 -634.62
-129.55 -28.370001 -634.81
-129.02 -28.379999 -635.10999
-128.47 -28.389999 -635.25
-127.86 -28.379999 -635.09998
-127.21 -28.370001 -634.79999
-126.56 -28.35 -634.46997
-125.88 -28.33 -633.96997
-125.24 -28.32 -633.71002
-124.54 -28.290001 -633.09998
-123.88 -28.27 -632.71002
-123.21 -28.25 -632.27002
-122.55 -28.23 -631.84003
-121.89 -28.209999 -631.45001
-121.26 -28.200001 -631.16998
-120.59 -28.18 -630.73999
-119.96 -28.17 -630.45001
-119.34 -28.16 -630.27002
-118.72 -28.15 -630
-118.13 -28.139999 -629.94
-117.56 -28.15 -630.03003
-117.01 -28.15 -630.14001
-116.42 -28.15 -630.09003
-115.92 -28.17 -630.52002
-121.23 -29.76 -665.57001
-120.54 -29.74 -665.10999
-119.85 -29.719999 -664.71002
-119.17 -29.700001 -664.33002
-118.51 -29.690001 -664.07001
-117.83 -29.67 -663.65002
-117.18 -29.66 -663.44
-116.52 -29.65 -663.15002
-115.83 -29.629999 -662.70001
-115.18 -29.620001 -662.46997
-114.54 -29.610001 -662.26001
-113.89 -29.6 -662.07001
-113.24 -29.59 -661.83002
-112.57 -29.57 -661.46997
-111.93 -29.559999 -661.28998
-111.3 -29.559999 -661.15002
-110.65 -29.540001 -660.90002
-110.01 -29.530001 -660.66998
-109.38 -29.530001 -660.53003
-108.75 -29.52 -660.39001
-108.11 -29.51 -660.22998
-107.49 -29.51 -660.15997
-106.85 -29.5 -659.90997
-106.22 -29.49 -659.77002
-105.58 -29.48 -659.56
-104.97 -29.48 -659.57001
-104.36 -29.48 -659.53003
-103.75 -29.48 -659.51001
-103.13 -29.48 -659.40997
-102.51 -29.469999 -659.29999
-101.87 -29.459999 -659.12
-101.25 -29.459999 -658.98999
-100.63 -29.450001 -658.92999
-100.04 -29.459999 -659.02002
-99.449997 -29.459999 -659.09003
-98.82 -29.450001 -658.94
-98.199997 -29.450001 -658.83002
-97.57 -29.440001 -658.71997
-96.959999 -29.440001 -658.65002
-96.309998 -29.43 -658.38
-95.669998 -29.42 -658.14001
-94.989998 -29.389999 -657.64001
-94.260002 -29.35 -656.75
-93.559998 -29.32 -656.04999
-92.839996 -29.290001 -655.28998
-92.160004 -29.26 -654.73999
-91.489998 -29.24 -654.21002
-90.830002 -29.219999 -653.84003
-90.199997 -29.209999 -653.57001
-89.550003 -29.190001 -653.26001
-88.900002 -29.18 -652.87
-88.269997 -29.17 -652.66998
-87.629997 -29.15 -652.33002
-87.010002 -29.15 -652.21997
-86.389999 -29.139999 -652.04999
-85.769997 -29.129999 -651.88
-81.82 -27.99 -626.62
-80.160004 -27.610001 -618.31
-79.43 -27.559999 -617.09998
-78.82 -27.540001 -616.71997
-78.209999 -27.52 -616.40002
-77.599998 -27.51 -616.10999
-77 -27.5 -615.78998
-76.400002 -27.48 -615.53998
-75.790001 -27.469999 -615.15997
-75.18 -27.450001 -614.78998
-74.540001 -27.42 -614.17999
-73.889999 -27.389999 -613.46002
-61.720001 -26.280001 -589
-61.110001 -26.25 -588.33002
-60.48 -26.209999 -587.53003
-59.900002 -26.190001 -587.07001
-59.32 -26.17 -586.65002
-58.639999 -26.110001 -585.26001
-57.470001 -25.83 -579.03998
-56.889999 -25.799999 -578.47998
-56.349998 -25.799999 -578.42999
-55.830002 -25.799999 -578.53998
-55.32 -25.809999 -578.71997
-54.810001 -25.82 -578.97998
-54.330002 -25.85 -579.44
-53.849998 -25.870001 -580.01001
-53.400002 -25.91 -580.84998
-52.939999 -26.209999 -587.51001
-35.560001 -26.9 -602.88
-34.91 -26.84 -601.38
-34.25 -26.75 -599.48999
-32.599998 -26.299999 -589.57001
-32.009998 -26.26 -588.66998
-31.43 -26.23 -587.97998
-30.870001 -26.209999 -587.53003
-30.299999 -26.190001 -587.04999
-29.75 -26.17 -586.76001
-29.200001 -26.16 -586.56
-28.66 -26.16 -586.39001
-28.120001 -26.15 -586.32001
-27.59 -26.16 -586.44
-27.059999 -26.17 -586.70001
-26.540001 -26.18 -587.02002
-26 -26.18 -586.96002
-25.459999 -26.18 -587.01001
-24.93 -26.190001 -587.17999
-24.4 -26.200001 -587.42999
-23.85 -26.190001 -587.12
-23.290001 -26.16 -586.53998
-22.73 -26.139999 -586.04999
-22.190001 -26.129999 -585.78998
-21.65 -26.129999 -585.78998
-21.110001 -26.129999 -585.78998
-20.57 -26.120001 -585.71002
-20.040001 -26.129999 -585.78998
-19.5 -26.129999 -585.83002
-18.969999 -26.129999 -585.78003
-18.43 -26.129999 -585.88
-17.9 -26.139999 -586.08002
-17.370001 -26.15 -586.23999
-16.84 -26.16 -586.46002
-16.309999 -26.17 -586.72998
-15.78 -26.18 -587.03003
-15.25 -26.200001 -587.44
-14.73 -26.219999 -587.83002
-14.2 -26.24 -588.31
-13.67 -26.27 -588.87
-13.14 -26.290001 -589.35999
-12.61 -26.309999 -589.78998
-12.08 -26.33 -590.21002
-11.55 -26.35 -590.62
-11.02 -26.379999 -591.28003
-10.49 -26.4 -591.84998
-9.96 -26.450001 -592.89001
-9.4399996 -26.5 -593.91998
-8.9099998 -26.559999 -595.27002
-8.3900003 -26.629999 -596.81
-7.8699999 -26.709999 -598.60999
-5.27 -27.440001 -614.75
-4.7199998 -27.52 -616.60999
-4.1700001 -27.620001 -618.72998
-3.6099999 -27.75 -621.64001
-2.72 -30.49 -682.14001
-2.0899999 -30.469999 -681.62
-1.47 -30.459999 -681.34998
-0.83999997 -30.450001 -681.12
-0.20999999 -30.440001 -681.01001
0.41 -30.43 -680.85999
1.04 -30.43 -680.89001
1.66 -30.440001 -681.09998
2.29 -30.43 -680.83002
2.9100001 -30.42 -680.65002
3.53 -30.41 -680.31
4.1599998 -30.4 -680.15997
4.7800002 -30.4 -680.07001
5.4000001 -30.389999 -679.96997
6.0300002 -30.389999 -679.84998
6.6500001 -30.389999 -679.84003
7.2800002 -30.41 -680.41998
7.9099998 -30.440001 -680.96997
8.54 -30.440001 -680.96997
9.1599998 -30.440001 -681.03003
9.79 -30.450001 -681.14001
10.42 -30.459999 -681.40002
11.05 -30.469999 -681.65002
11.67 -30.459999 -681.44
12.29 -30.450001 -681.21002
12.91 -30.43 -680.77002
13.53 -30.42 -680.5
14.15 -30.41 -680.44
14.77 -30.4 -680.20001
15.4 -30.4 -680.09998
16.02 -30.4 -680.08002
16.65 -30.41 -680.34998
17.280001 -30.43 -680.65997
17.92 -30.440001 -681.03998
18.549999 -30.459999 -681.39001
19.18 -30.450001 -681.31
19.799999 -30.450001 -681.31
20.43 -30.459999 -681.39001
21.07 -30.469999 -681.69
21.709999 -30.49 -682.19
22.35 -30.52 -682.78003
22.99 -30.530001 -683.02002
23.620001 -30.540001 -683.20001
24.26 -30.549999 -683.42999
24.91 -30.58 -684.03998
25.540001 -30.59 -684.27002
26.190001 -30.610001 -684.70001
26.84 -30.639999 -685.37
27.51 -30.68 -686.22998
28.15 -30.690001 -686.40997
28.77 -30.68 -686.34998
29.41 -30.690001 -686.56
30.08 -30.73 -687.37
30.73 -30.75 -687.75
31.379999 -30.77 -688.27002
32.049999 -30.809999 -689.04999
32.740002 -30.860001 -690.21997
33.400002 -30.879999 -690.77002
34.080002 -30.92 -691.62
34.77 -30.969999 -692.71002
-146.42 -28.950001 -634.69
-145.60001 -28.9 -633.65997
-144.88 -28.870001 -633.06
-144.25 -28.860001 -632.84998
-143.63 -28.85 -632.67999
-143.02 -28.85 -632.54999
-142.42 -28.84 -632.48999
-141.83 -28.84 -632.44
-141.22 -28.83 -632.29999
-140.63 -28.83 -632.26001
-140.03999 -28.83 -632.21002
-139.42999 -28.82 -632.09003
-138.84 -28.82 -632.03003
-138.27 -28.82 -632.09003
-137.71001 -28.83 -632.16998
-137.08 -28.82 -631.94
-136.49001 -28.82 -631.90002
-135.96001 -28.83 -632.13
-135.42 -28.84 -632.33002
-134.96001 -28.860001 -632.89001
-134.49001 -28.889999 -633.41998
-134.09 -28.92 -634.27002
-133.56 -28.940001 -634.5
-132.96001 -28.93 -634.44
-132.38 -28.93 -634.40997
-131.81 -28.940001 -634.5
-131.21001 -28.93 -634.42999
-130.66 -28.940001 -634.58002
-130.07001 -28.940001 -634.53998
-129.53 -28.950001 -634.72998
-128.97 -28.950001 -634.85999
-128.42 -28.959999 -635.02002
-127.79 -28.950001 -634.78998
-127.15 -28.93 -634.47998
-126.5 -28.92 -634.17999
-125.85 -28.9 -633.83002
-125.2 -28.889999 -633.46997
-124.53 -28.870001 -633.03003
-123.88 -28.85 -632.71002
-123.24 -28.84 -632.40002
-122.61 -28.83 -632.15002
-121.93 -28.799999 -631.64001
-121.29 -28.790001 -631.35999
-120.64 -28.77 -630.97998
-120.01 -28.76 -630.71002
-119.4 -28.75 -630.54999
-118.81 -28.75 -630.48999
-118.24 -28.75 -630.53998
-117.68 -28.76 -630.66998
-117.11 -28.76 -630.70001
-116.58 -28.77 -630.92999
-121.99 -30.41 -666.33002
-121.28 -30.379999 -665.84003
-120.59 -30.360001 -665.39001
-119.9 -30.34 -664.98999
-119.24 -30.33 -664.67999
-118.56 -30.309999 -664.34003
-117.88 -30.290001 -663.90997
-117.2 -30.280001 -663.56
-116.54 -30.26 -663.27002
-115.87 -30.25 -662.95001
-115.23 -30.24 -662.77002
-114.55 -30.219999 -662.35999
-113.92 -30.209999 -662.20001
-113.28 -30.200001 -662.03003
-112.65 -30.200001 -661.89001
-111.98 -30.18 -661.53003
-111.34 -30.17 -661.39001
-110.68 -30.16 -661.03998
-110.04 -30.15 -660.89001
-109.42 -30.15 -660.78003
-108.79 -30.139999 -660.63
-108.15 -30.129999 -660.42999
-107.53 -30.129999 -660.39001
-106.88 -30.120001 -660.13
-106.24 -30.1 -659.90002
-105.61 -30.1 -659.75
-105 -30.1 -659.73999
-104.38 -30.09 -659.64001
-103.79 -30.1 -659.71997
-103.16 -30.09 -659.60999
-102.54 -30.09 -659.51001
-101.9 -30.08 -659.29999
-101.27 -30.07 -659.13
-100.66 -30.07 -659.12
-100.07 -30.07 -659.20001
-99.480003 -30.08 -659.31
-98.849998 -30.07 -659.16998
-98.230003 -30.059999 -659.06
-97.610001 -30.059999 -658.96997
-96.989998 -30.059999 -658.87
-96.349998 -30.049999 -658.65997
-95.730003 -30.040001 -658.53003
-95.07 -30.02 -658.16998
-94.290001 -29.969999 -656.97998
-93.550003 -29.92 -655.96997
-92.849998 -29.889999 -655.33002
-92.169998 -29.870001 -654.81
-91.5 -29.84 -654.29999
-90.849998 -29.83 -653.92999
-90.199997 -29.809999 -653.59003
-89.559998 -29.799999 -653.29999
-88.900002 -29.780001 -652.89001
-88.279999 -29.77 -652.70001
-87.639999 -29.75 -652.40997
-87.010002 -29.75 -652.21002
-86.389999 -29.74 -652.03998
-85.790001 -29.74 -652.01001
-80.830002 -28.219999 -619.13
-80.160004 -28.18 -618.32001
-79.449997 -28.129999 -617.27002
-78.830002 -28.110001 -616.82001
-78.220001 -28.09 -616.5
-77.620003 -28.08 -616.23999
-77 -28.059999 -615.82001
-76.410004 -28.049999 -615.56
-75.739998 -28.01 -614.78003
-75.110001 -27.99 -614.22998
-74.470001 -27.959999 -613.59003
-62.259998 -26.82 -589
-61.630001 -26.780001 -588.15997
-61.040001 -26.76 -587.67999
-60.439999 -26.73 -587.06
-59.860001 -26.709999 -586.65997
-59.279999 -26.690001 -586.32001
-58.73 -26.690001 -586.17999
-57.759998 -26.49 -581.85999
-56.939999 -26.360001 -579
-56.389999 -26.35 -578.83002
-55.860001 -26.35 -578.84003
-55.34 -26.35 -578.95001
-54.84 -26.370001 -579.22998
-54.34 -26.379999 -579.60999
-53.849998 -26.4 -580
-53.400002 -26.440001 -580.90002
-36.169998 -27.5 -603.91998
-35.540001 -27.450001 -602.64001
-34.91 -27.379999 -601.28003
-34.259998 -27.299999 -599.58002
-32.610001 -26.85 -589.78998
-32.02 -26.809999 -588.84003
-31.440001 -26.77 -588.14001
-30.879999 -26.75 -587.70001
-30.32 -26.73 -587.28003
-29.76 -26.719999 -586.96002
-29.219999 -26.709999 -586.78998
-28.67 -26.709999 -586.64001
-28.129999 -26.700001 -586.5
-27.59 -26.700001 -586.52002
-27.07 -26.709999 -586.84003
-26.540001 -26.719999 -587.06
-26.01 -26.73 -587.21002
-25.469999 -26.73 -587.17999
-24.93 -26.73 -587.19
-24.4 -26.73 -587.23999
-23.860001 -26.74 -587.44
-23.33 -26.74 -587.46997
-22.76 -26.709999 -586.76001
-22.200001 -26.68 -586.09998
-21.66 -26.67 -585.91998
-21.120001 -26.67 -585.90997
-20.58 -26.67 -585.90997
-20.049999 -26.68 -586.03998
-19.51 -26.67 -586
-18.969999 -26.68 -586.03998
-18.440001 -26.68 -586.10999
-17.91 -26.690001 -586.33002
-17.379999 -26.690001 -586.42999
-16.84 -26.700001 -586.59998
-16.32 -26.719999 -586.92999
-15.79 -26.73 -587.25
-15.26 -26.75 -587.71002
-14.73 -26.77 -588.08002
-14.21 -26.799999 -588.64001
-13.68 -26.82 -589.13
-13.15 -26.84 -589.64001
-12.62 -26.860001 -590
-12.09 -26.879999 -590.38
-11.55 -26.889999 -590.73999
-11.02 -26.92 -591.39001
-10.49 -26.950001 -591.97998
-9.9700003 -26.99 -592.94
-9.4399996 -27.040001 -593.81
-8.9099998 -27.1 -595.19
-8.3900003 -27.17 -596.71002
-7.8699999 -27.26 -598.71997
-4.71 -28.07 -616.28998
-4.1599998 -28.17 -618.46002
-3.6099999 -28.299999 -621.21002
-3.3499999 -31.190001 -683.70001
-2.72 -31.129999 -682.46997
-2.0899999 -31.120001 -682.21002
-1.47 -31.110001 -681.89001
-0.83999997 -31.1 -681.76001
-0.20999999 -31.110001 -681.87
0.41 -31.110001 -681.90002
1.04 -31.09 -681.63
1.66 -31.09 -681.44
2.29 -31.07 -681.20001
2.9100001 -31.059999 -680.96997
3.54 -31.049999 -680.77002
4.1599998 -31.049999 -680.60999
4.7800002 -31.040001 -680.42999
5.4099998 -31.030001 -680.32001
6.0300002 -31.040001 -680.40997
6.6599998 -31.049999 -680.59003
7.29 -31.07 -681.13
7.9099998 -31.059999 -680.96997
8.54 -31.059999 -680.84998
9.1599998 -31.059999 -680.90997
9.79 -31.07 -681.09998
10.42 -31.08 -681.38
11.05 -31.09 -681.60999
11.67 -31.08 -681.41998
12.29 -31.07 -681.14001
12.91 -31.059999 -680.84998
13.54 -31.049999 -680.71997
14.16 -31.040001 -680.53998
14.78 -31.040001 -680.44
15.41 -31.040001 -680.54999
16.040001 -31.059999 -680.90997
16.67 -31.08 -681.29999
17.299999 -31.09 -681.45001
17.93 -31.08 -681.32001
18.549999 -31.08 -681.23999
19.18 -31.08 -681.34003
19.799999 -31.08 -681.32001
20.440001 -31.1 -681.71002
21.09 -31.129999 -682.48999
21.73 -31.15 -682.84998
22.360001 -31.15 -682.84003
22.99 -31.16 -683.03998
23.629999 -31.17 -683.33002
24.27 -31.200001 -683.84998
24.91 -31.209999 -684.15002
25.559999 -31.23 -684.59998
26.23 -31.280001 -685.63
26.870001 -31.299999 -686.03003
27.5 -31.299999 -686.03998
28.139999 -31.299999 -686.14001
28.780001 -31.32 -686.40002
29.43 -31.34 -686.95001
30.08 -31.360001 -687.34003
30.73 -31.379999 -687.87
31.41 -31.42 -688.73999
32.07 -31.459999 -689.45001
32.73 -31.48 -689.92999
33.389999 -31.51 -690.5
34.07 -31.549999 -691.5
34.77 -31.610001 -692.78003
-147.12 -29.549999 -635.20001
-146.35001 -29.51 -634.37
-145.62 -29.48 -633.76001
-144.97 -29.469999 -633.45001
-144.32001 -29.450001 -633.14001
-143.71001 -29.450001 -633.02002
-143.09 -29.440001 -632.85999
-142.50999 -29.440001 -632.89001
-141.89999 -29.440001 -632.72998
-141.3 -29.43 -632.66998
-140.71001 -29.43 -632.62
-140.13 -29.43 -632.64001
-139.53 -29.42 -632.52002
-138.96001 -29.43 -632.58002
-138.35001 -29.42 -632.46002
-137.78 -29.42 -632.48999
-137.2 -29.42 -632.47998
-136.61 -29.42 -632.46002
-136.07001 -29.43 -632.64001
-135.56 -29.450001 -632.96997
-135.08 -29.469999 -633.45001
-134.63 -29.5 -634.07001
-134.13 -29.51 -634.42999
-133.57001 -29.52 -634.54999
-132.95 -29.51 -634.37
-132.37 -29.51 -634.40002
-131.8 -29.52 -634.44
-131.19 -29.51 -634.28998
-130.62 -29.51 -634.35999
-130.03999 -29.51 -634.38
-129.5 -29.52 -634.59003
-128.94 -29.530001 -634.70001
-128.37 -29.530001 -634.73999
-127.75 -29.52 -634.59003
-127.11 -29.51 -634.28998
-126.47 -29.49 -634.02002
-125.85 -29.49 -633.83002
-125.19 -29.469999 -633.45001
-124.55 -29.450001 -633.15997
-123.9 -29.440001 -632.78998
-123.24 -29.42 -632.42999
-122.6 -29.4 -632.12
-121.99 -29.4 -631.92999
-121.34 -29.379999 -631.62
-120.72 -29.370001 -631.38
-120.11 -29.360001 -631.25
-119.51 -29.360001 -631.09998
-118.92 -29.35 -631.06
-118.35 -29.360001 -631.14001
-117.78 -29.360001 -631.20001
-117.22 -29.360001 -631.29999
-122.74 -31.049999 -667.09998
-122.02 -31.030001 -666.52002
-121.32 -31 -666.03998
-120.62 -30.98 -665.58002
-119.95 -30.959999 -665.22998
-119.27 -30.950001 -664.89001
-118.59 -30.93 -664.46997
-117.93 -30.92 -664.20001
-117.24 -30.9 -663.78003
-116.59 -30.879999 -663.52002
-115.93 -30.870001 -663.23999
-115.26 -30.860001 -662.91998
-114.6 -30.84 -662.64001
-113.95 -30.83 -662.39001
-113.29 -30.809999 -662.07001
-112.65 -30.809999 -661.94
-112 -30.799999 -661.70001
-111.37 -30.790001 -661.57001
-110.73 -30.780001 -661.34003
-110.09 -30.77 -661.14001
-109.44 -30.76 -660.89001
-108.8 -30.75 -660.71997
-108.17 -30.74 -660.59998
-107.55 -30.74 -660.51001
-106.91 -30.73 -660.32001
-106.28 -30.719999 -660.14001
-105.64 -30.709999 -659.96997
-105.03 -30.709999 -659.94
-104.42 -30.709999 -659.88
-103.81 -30.709999 -659.84998
-103.19 -30.709999 -659.79999
-102.56 -30.700001 -659.65997
-101.94 -30.690001 -659.57001
-101.29 -30.68 -659.28998
-100.69 -30.68 -659.28998
-100.08 -30.68 -659.27002
-99.489998 -30.690001 -659.40997
-98.870003 -30.68 -659.27002
-98.25 -30.68 -659.21002
-97.629997 -30.67 -659.07001
-97.019997 -30.67 -659.07001
-96.410004 -30.67 -659
-95.769997 -30.66 -658.83002
-95.110001 -30.639999 -658.45001
-94.309998 -30.58 -657.09998
-93.550003 -30.52 -656.01001
-92.839996 -30.49 -655.28998
-92.169998 -30.469999 -654.81
-91.519997 -30.450001 -654.40997
-90.860001 -30.43 -654
-90.209999 -30.41 -653.65002
-89.580002 -30.4 -653.45001
-88.93 -30.389999 -653.07001
-88.290001 -30.370001 -652.78998
-87.669998 -30.360001 -652.62
-87.029999 -30.35 -652.33002
-86.410004 -30.34 -652.20001
-85.849998 -30.360001 -652.48999
-80.860001 -28.790001 -619.37
-80.190002 -28.76 -618.59998
-79.5 -28.709999 -617.59998
-78.839996 -28.68 -616.91998
-78.230003 -28.66 -616.60999
-77.629997 -28.65 -616.32001
-77.010002 -28.629999 -615.89001
-76.389999 -28.610001 -615.40997
-62.799999 -27.360001 -589.01001
-62.18 -27.32 -588.26001
-61.57 -27.290001 -587.56
-60.970001 -27.27 -587.06
-60.389999 -27.25 -586.60999
-59.830002 -27.23 -586.37
-59.25 -27.219999 -586.03998
-58.700001 -27.209999 -585.87
-57.869999 -27.07 -582.92999
-57 -26.91 -579.58002
-56.450001 -26.9 -579.37
-55.900002 -26.9 -579.21997
-55.380001 -26.9 -579.28998
-54.860001 -26.91 -579.46002
-54.360001 -26.92 -579.75
-53.869999 -26.940001 -580.22998
-53.419998 -26.98 -581.03998
-52.959999 -27.02 -581.90997
-37.369999 -28.120001 -605.31
-36.75 -28.08 -604.35999
-36.139999 -28.030001 -603.40002
-35.52 -27.98 -602.27002
-34.900002 -27.93 -601.16998
-34.25 -27.85 -599.41998
-32.610001 -27.4 -589.87
-32.029999 -27.360001 -589.06
-31.450001 -27.32 -588.27002
-30.879999 -27.299999 -587.79999
-30.32 -27.280001 -587.41998
-29.77 -27.27 -587.12
-29.219999 -27.25 -586.89001
-28.68 -27.25 -586.78003
-28.129999 -27.24 -586.65002
-27.6 -27.24 -586.65997
-27.07 -27.25 -586.89001
-26.540001 -27.26 -587.08002
-26.01 -27.27 -587.15002
-25.459999 -27.26 -587.09003
-24.93 -27.27 -587.19
-24.4 -27.280001 -587.41998
-23.870001 -27.290001 -587.59998
-23.33 -27.290001 -587.56
-22.780001 -27.26 -587.12
-22.209999 -27.23 -586.38
-21.66 -27.219999 -586.13
-21.120001 -27.219999 -586.09998
-20.59 -27.219999 -586.13
-20.049999 -27.219999 -586.15997
-19.52 -27.219999 -586.22998
-18.98 -27.219999 -586.23999
-18.450001 -27.219999 -586.28003
-17.91 -27.23 -586.46002
-17.379999 -27.24 -586.63
-16.85 -27.25 -586.84998
-16.32 -27.27 -587.16998
-15.79 -27.280001 -587.5
-15.26 -27.299999 -587.81
-14.74 -27.32 -588.34003
-14.21 -27.35 -588.91998
-13.68 -27.370001 -589.38
-13.16 -27.389999 -589.90002
-12.62 -27.41 -590.15997
-12.09 -27.42 -590.47998
-11.55 -27.440001 -590.90997
-11.03 -27.469999 -591.59003
-10.49 -27.5 -592.12
-9.96 -27.540001 -592.89001
-9.4399996 -27.58 -593.82001
-8.9099998 -27.639999 -595.16998
-8.3900003 -27.709999 -596.63
-7.8699999 -27.799999 -598.44
-7.3499999 -27.91 -600.85999
-4.71 -28.629999 -616.03003
-4.1599998 -28.709999 -617.78003
-3.3599999 -31.84 -684.21997
-2.72 -31.780001 -682.98999
-2.0999999 -31.780001 -682.88
-1.47 -31.77 -682.70001
-0.83999997 -31.77 -682.71997
-0.20999999 -31.77 -682.59003
0.41 -31.75 -682.21997
1.04 -31.73 -681.90997
1.66 -31.719999 -681.69
2.29 -31.719999 -681.57001
2.9100001 -31.709999 -681.38
3.54 -31.690001 -681.06
4.1599998 -31.690001 -681.04999
4.79 -31.690001 -681.09003
5.4200001 -31.700001 -681.29999
6.04 -31.700001 -681.26001
6.6700001 -31.700001 -681.19
7.29 -31.690001 -680.92999
7.9099998 -31.690001 -681.06
8.54 -31.68 -680.83002
9.1700001 -31.690001 -681.03003
9.79 -31.700001 -681.20001
10.42 -31.709999 -681.51001
11.05 -31.719999 -681.66998
11.67 -31.709999 -681.51001
12.3 -31.709999 -681.34003
12.92 -31.700001 -681.09998
13.54 -31.68 -680.84998
14.16 -31.690001 -680.90997
14.8 -31.700001 -681.15997
15.43 -31.719999 -681.54999
16.059999 -31.719999 -681.58002
16.68 -31.719999 -681.53003
17.299999 -31.709999 -681.41998
17.93 -31.709999 -681.31
18.549999 -31.709999 -681.29999
19.18 -31.719999 -681.53003
19.83 -31.74 -682.09003
20.469999 -31.77 -682.63
21.1 -31.77 -682.63
21.719999 -31.77 -682.70001
22.360001 -31.780001 -682.94
23 -31.799999 -683.25
23.639999 -31.82 -683.69
24.280001 -31.84 -684.14001
24.93 -31.870001 -684.70001
25.59 -31.9 -685.38
26.219999 -31.91 -685.56
26.860001 -31.92 -685.76001
27.5 -31.93 -686.03998
28.139999 -31.940001 -686.27002
28.790001 -31.959999 -686.64001
29.43 -31.98 -687.02002
30.09 -32 -687.46997
30.76 -32.049999 -688.48999
31.41 -32.060001 -688.90002
32.060001 -32.080002 -689.16998
32.709999 -32.09 -689.53998
33.389999 -32.139999 -690.52002
34.080002 -32.189999 -691.59998
34.75 -32.23 -692.39001
-147.89 -30.17 -635.96997
-147.08 -30.129999 -635.01001
-146.34 -30.09 -634.34003
-145.69 -30.08 -634.07001
-145.07001 -30.07 -633.87
-144.44 -30.059999 -633.65997
-143.83 -30.059999 -633.53998
-143.22 -30.049999 -633.42999
-142.63 -30.049999 -633.40997
-142 -30.040001 -633.16998
-141.41 -30.040001 -633.14001
-140.82001 -30.030001 -633.08002
-140.24001 -30.030001 -633.10999
-139.62 -30.030001 -632.96002
-139.03999 -30.030001 -632.92999
-138.46001 -30.030001 -632.96997
-137.89 -30.030001 -633
-137.32001 -30.030001 -633.07001
-136.75 -30.030001 -633.10999
-136.25 -30.049999 -633.46997
-135.73 -30.059999 -633.73999
-135.23 -30.08 -634.13
-134.73 -30.1 -634.5
-134.17999 -30.110001 -634.69
-133.56 -30.1 -634.52002
-132.98 -30.1 -634.51001
-132.39 -30.1 -634.5
-131.78999 -30.1 -634.40002
-131.2 -30.09 -634.37
-130.62 -30.09 -634.38
-130.03999 -30.09 -634.39001
-129.48 -30.1 -634.52002
-128.94 -30.110001 -634.67999
-128.36 -30.110001 -634.73999
-127.74 -30.1 -634.53998
-127.12 -30.09 -634.34998
-126.48 -30.08 -634.03998
-125.84 -30.059999 -633.76001
-125.21 -30.049999 -633.54999
-124.58 -30.040001 -633.32001
-123.92 -30.02 -632.89001
-123.26 -30 -632.51001
-122.63 -29.99 -632.27002
-122.04 -29.99 -632.21002
-121.42 -29.98 -632
-120.81 -29.969999 -631.84003
-120.21 -29.959999 -631.72998
-119.61 -29.959999 -631.64001
-119.06 -29.969999 -631.79999
-118.47 -29.959999 -631.72998
-117.92 -29.969999 -631.89001
-123.46 -31.690001 -667.67999
-122.76 -31.67 -667.17999
-122.05 -31.639999 -666.65002
-121.35 -31.620001 -666.20001
-120.69 -31.610001 -665.92999
-119.98 -31.58 -665.41998
-119.31 -31.57 -665.09998
-118.63 -31.549999 -664.72998
-117.97 -31.540001 -664.45001
-117.28 -31.52 -663.97998
-116.59 -31.5 -663.57001
-115.96 -31.49 -663.40002
-115.31 -31.48 -663.21002
-114.64 -31.459999 -662.85999
-114 -31.450001 -662.69
-113.34 -31.440001 -662.37
-112.71 -31.43 -662.27002
-112.04 -31.42 -661.92999
-111.42 -31.41 -661.84998
-110.78 -31.4 -661.64001
-110.14 -31.389999 -661.45001
-109.49 -31.379999 -661.20001
-108.87 -31.379999 -661.13
-108.21 -31.360001 -660.82001
-107.58 -31.35 -660.67999
-106.95 -31.35 -660.54999
-106.32 -31.34 -660.38
-105.69 -31.33 -660.26001
-105.07 -31.33 -660.15997
-104.45 -31.33 -660.09998
-103.85 -31.33 -660.13
-103.23 -31.32 -660.06
-102.6 -31.309999 -659.87
-101.96 -31.299999 -659.65002
-101.35 -31.299999 -659.62
-100.74 -31.299999 -659.60999
-100.11 -31.290001 -659.46997
-99.510002 -31.299999 -659.47998
-98.889999 -31.290001 -659.39001
-98.269997 -31.290001 -659.29999
-97.639999 -31.280001 -659.15002
-97.019997 -31.27 -659.06
-96.410004 -31.27 -659.02002
-95.769997 -31.26 -658.77002
-95.120003 -31.25 -658.46997
-94.360001 -31.200001 -657.45001
-93.599998 -31.139999 -656.34998
-92.870003 -31.1 -655.45001
-92.220001 -31.08 -655.09998
-91.540001 -31.059999 -654.54999
-90.889999 -31.040001 -654.21002
-90.239998 -31.030001 -653.90002
-89.610001 -31.01 -653.65002
-88.940002 -30.99 -653.19
-88.309998 -30.98 -652.92999
-87.690002 -30.969999 -652.78003
-87.059998 -30.959999 -652.56
-86.440002 -30.950001 -652.41998
-85.910004 -30.98 -652.95001
-81.360001 -29.540001 -623.09003
-80.230003 -29.34 -618.85999
-79.529999 -29.290001 -617.87
-78.879997 -29.26 -617.25
-78.260002 -29.24 -616.77002
-77.620003 -29.209999 -616.22998
-76.970001 -29.18 -615.56
-76.309998 -29.139999 -614.81
-63.950001 -27.93 -589.69
-63.34 -27.9 -589.03003
-62.709999 -27.860001 -588.17999
-62.110001 -27.83 -587.64001
-61.509998 -27.809999 -587.08002
-60.93 -27.790001 -586.69
-60.349998 -27.77 -586.27002
-59.799999 -27.76 -586.12
-59.23 -27.74 -585.76001
-58.639999 -27.719999 -585.31
-57.779999 -27.559999 -582.04999
-57.07 -27.48 -580.31
-56.5 -27.459999 -579.92999
-55.950001 -27.450001 -579.71997
-55.419998 -27.450001 -579.71997
-54.889999 -27.450001 -579.71997
-54.389999 -27.469999 -580.08002
-53.900002 -27.49 -580.48999
-53.439999 -27.530001 -581.27002
-52.990002 -27.57 -582.21997
-37.93 -28.690001 -605.5
-37.330002 -28.65 -604.78003
-36.720001 -28.610001 -603.90002
-36.119999 -28.57 -603.10999
-35.509998 -28.52 -602.07001
-34.889999 -28.469999 -600.96997
-34.25 -28.389999 -599.39001
-32.619999 -27.950001 -590.06
-32.029999 -27.9 -589.15002
-31.450001 -27.870001 -588.41998
-30.889999 -27.85 -587.98999
-30.33 -27.83 -587.58002
-29.780001 -27.809999 -587.29999
-29.23 -27.799999 -587.10999
-28.690001 -27.799999 -586.96002
-28.139999 -27.790001 -586.90002
-27.610001 -27.790001 -586.91998
-27.07 -27.799999 -586.96002
-26.549999 -27.809999 -587.20001
-26.01 -27.809999 -587.26001
-25.48 -27.82 -587.42999
-24.959999 -27.84 -587.94
-24.42 -27.84 -587.90002
-23.870001 -27.82 -587.44
-23.32 -27.809999 -587.17999
-22.77 -27.799999 -587.01001
-22.219999 -27.780001 -586.60999
-21.67 -27.77 -586.42999
-21.139999 -27.77 -586.38
-20.6 -27.77 -586.39001
-20.059999 -27.77 -586.35999
-19.52 -27.77 -586.40997
-18.99 -27.77 -586.40997
-18.450001 -27.780001 -586.56
-17.92 -27.780001 -586.73999
-17.389999 -27.790001 -586.95001
-16.860001 -27.799999 -587.09998
-16.33 -27.809999 -587.37
-15.8 -27.83 -587.76001
-15.27 -27.85 -588.19
-14.75 -27.870001 -588.62
-14.22 -27.9 -589.16998
-13.69 -27.92 -589.62
-13.16 -27.940001 -590.04999
-12.63 -27.959999 -590.32001
-12.09 -27.969999 -590.71997
-11.56 -27.99 -591.12
-11.03 -28.02 -591.58002
-10.49 -28.040001 -592.12
-9.9700003 -28.09 -593.03003
-9.4399996 -28.120001 -593.79999
-8.9099998 -28.18 -595.08002
-8.3900003 -28.26 -596.54999
-7.8600001 -28.34 -598.35999
-7.3400002 -28.440001 -600.39001
-6.3000002 -28.700001 -605.73999
-4.1599998 -29.27 -617.63
-3.99 -32.5 -684.84998
-3.3599999 -32.5 -684.78998
-2.73 -32.470001 -684.17999
-2.0999999 -32.450001 -683.84998
-1.47 -32.439999 -683.58002
-0.83999997 -32.419998 -683.22998
-0.20999999 -32.41 -682.96002
0.41 -32.389999 -682.62
1.04 -32.380001 -682.29999
1.66 -32.369999 -682.08002
2.29 -32.360001 -681.96002
2.9200001 -32.360001 -681.84998
3.54 -32.360001 -681.90002
4.1700001 -32.360001 -681.85999
4.79 -32.360001 -681.85999
5.4200001 -32.34 -681.59998
6.04 -32.330002 -681.39001
6.6700001 -32.32 -681.15002
7.29 -32.32 -681.02002
7.9099998 -32.310001 -680.94
8.54 -32.310001 -680.89001
9.1700001 -32.32 -681.07001
9.79 -32.330002 -681.34003
10.43 -32.349998 -681.66998
11.06 -32.380001 -682.25
11.69 -32.369999 -682.21997
12.31 -32.360001 -681.89001
12.93 -32.349998 -681.64001
13.56 -32.349998 -681.72998
14.18 -32.360001 -681.84003
14.81 -32.369999 -682.03998
15.44 -32.360001 -681.85999
16.059999 -32.349998 -681.71997
16.68 -32.34 -681.52002
17.309999 -32.34 -681.51001
17.93 -32.349998 -681.60999
18.57 -32.360001 -681.95001
19.209999 -32.389999 -682.5
19.84 -32.400002 -682.66998
20.469999 -32.389999 -682.57001
21.09 -32.389999 -682.60999
21.73 -32.400002 -682.78003
22.370001 -32.419998 -683.15997
23.01 -32.439999 -683.53003
23.66 -32.470001 -684.17999
24.309999 -32.5 -684.84998
24.950001 -32.52 -685.27002
25.58 -32.52 -685.28003
26.219999 -32.529999 -685.46997
26.860001 -32.540001 -685.69
27.51 -32.560001 -686.13
28.15 -32.580002 -686.53998
28.790001 -32.599998 -686.81
29.450001 -32.619999 -687.35999
30.120001 -32.66 -688.22998
30.77 -32.68 -688.56
31.41 -32.689999 -688.72998
32.049999 -32.700001 -689.03003
32.709999 -32.73 -689.62
33.400002 -32.779999 -690.67999
34.07 -32.82 -691.5
34.759998 -32.869999 -692.44
35.450001 -32.919998 -693.51001
-148.66 -30.790001 -636.76001
-147.81 -30.74 -635.64001
-147.10001 -30.709999 -635.09003
-146.39 -30.690001 -634.54999
-145.75 -30.67 -634.28003
-145.13 -30.67 -634.15002
-144.53 -30.66 -634.07001
-143.92 -30.66 -633.96002
-143.33 -30.65 -633.90002
-142.71001 -30.65 -633.75
-142.13 -30.65 -633.76001
-141.50999 -30.639999 -633.57001
-140.92 -30.639999 -633.53003
-140.32001 -30.629999 -633.46002
-139.75 -30.639999 -633.53003
-139.14999 -30.629999 -633.40997
-138.55 -30.629999 -633.35999
-138 -30.629999 -633.48999
-137.42999 -30.639999 -633.56
-136.89 -30.65 -633.76001
-136.35001 -30.66 -633.94
-135.82001 -30.67 -634.19
-135.33 -30.690001 -634.59998
-134.75999 -30.690001 -634.65002
-134.13 -30.68 -634.42999
-133.56 -30.68 -634.51001
-132.97 -30.68 -634.47998
-132.39 -30.68 -634.46997
-131.78 -30.67 -634.33002
-131.21001 -30.68 -634.41998
-130.64 -30.68 -634.45001
-130.07001 -30.68 -634.52002
-129.50999 -30.690001 -634.62
-128.92999 -30.690001 -634.66998
-128.35001 -30.690001 -634.67999
-127.73 -30.68 -634.48999
-127.1 -30.67 -634.26001
-126.48 -30.66 -634.08002
-125.85 -30.65 -633.83002
-125.22 -30.639999 -633.57001
-124.6 -30.629999 -633.38
-123.97 -30.610001 -633.13
-123.33 -30.6 -632.84003
-122.7 -30.59 -632.59003
-122.09 -30.58 -632.45001
-121.48 -30.57 -632.32001
-120.87 -30.57 -632.15997
-120.31 -30.57 -632.26001
-119.74 -30.57 -632.32001
-119.19 -30.58 -632.46002
-118.61 -30.58 -632.51001
-124.23 -32.349998 -668.47998
-123.49 -32.310001 -667.81
-122.81 -32.299999 -667.45001
-122.12 -32.279999 -667.04999
-121.39 -32.25 -666.41998
-120.71 -32.23 -666.04999
-120.03 -32.209999 -665.66998
-119.33 -32.189999 -665.21002
-118.66 -32.169998 -664.84998
-117.99 -32.150002 -664.56
-117.32 -32.139999 -664.21997
-116.65 -32.119999 -663.85999
-115.99 -32.110001 -663.59998
-115.35 -32.099998 -663.40002
-114.69 -32.080002 -663.12
-114.03 -32.07 -662.84003
-113.38 -32.060001 -662.63
-112.75 -32.049999 -662.46997
-112.08 -32.029999 -662.12
-111.46 -32.029999 -662.07001
-110.8 -32.009998 -661.73999
-110.15 -32 -661.51001
-109.52 -32 -661.35999
-108.89 -31.99 -661.26001
-108.24 -31.98 -661
-107.62 -31.969999 -660.90997
-106.98 -31.959999 -660.69
-106.35 -31.959999 -660.57001
-105.7 -31.940001 -660.34003
-105.09 -31.940001 -660.28998
-104.5 -31.950001 -660.40002
-103.87 -31.940001 -660.25
-103.22 -31.93 -659.97998
-102.58 -31.92 -659.76001
-101.97 -31.91 -659.75
-101.33 -31.9 -659.53998
-100.7 -31.9 -659.39001
-100.11 -31.9 -659.45001
-99.470001 -31.889999 -659.23999
-98.82 -31.879999 -658.96997
-98.18 -31.860001 -658.76001
-97.559998 -31.860001 -658.64001
-96.949997 -31.860001 -658.58002
-96.349998 -31.860001 -658.62
-95.730003 -31.85 -658.52002
-95.089996 -31.84 -658.28003
-94.330002 -31.790001 -657.23999
-93.610001 -31.75 -656.42999
-92.900002 -31.709999 -655.70001
-92.230003 -31.690001 -655.21002
-91.580002 -31.67 -654.88
-90.919998 -31.65 -654.41998
-90.260002 -31.629999 -654.02002
-89.620003 -31.620001 -653.76001
-88.989998 -31.610001 -653.51001
-88.360001 -31.59 -653.28003
-87.709999 -31.58 -652.95001
-87.080002 -31.57 -652.75
-86.470001 -31.559999 -652.59998
-85.889999 -31.57 -652.78003
-80.230003 -29.91 -618.90002
-79.540001 -29.860001 -617.96002
-78.900002 -29.83 -617.34003
-78.220001 -29.790001 -616.48999
-77.550003 -29.75 -615.71997
-63.880001 -28.440001 -589.02002
-63.25 -28.4 -588.15002
-62.650002 -28.370001 -587.63
-62.060001 -28.35 -587.13
-61.470001 -28.32 -586.63
-60.889999 -28.299999 -586.23999
-60.32 -28.290001 -585.91998
-59.75 -28.27 -585.62
-59.16 -28.25 -585.08002
-58.540001 -28.209999 -584.33002
-57.84 -28.129999 -582.67999
-57.130001 -28.040001 -580.94
-56.549999 -28.02 -580.44
-56 -28.01 -580.21002
-55.439999 -28 -579.97998
-54.93 -28 -580.16998
-54.419998 -28.02 -580.44
-53.93 -28.040001 -580.83002
-53.470001 -28.08 -581.66998
-53.029999 -28.129999 -582.67999
-38.509998 -29.26 -605.83002
-37.900002 -29.209999 -604.91998
-37.299999 -29.18 -604.28003
-36.700001 -29.15 -603.57001
-36.110001 -29.120001 -602.94
-35.490002 -29.059999 -601.84003
-34.880001 -29.01 -600.81
-34.240002 -28.940001 -599.31
-32.650002 -28.5 -590.45001
-32.040001 -28.450001 -589.28998
-31.469999 -28.42 -588.67999
-30.9 -28.389999 -588.16998
-30.34 -28.370001 -587.78003
-29.790001 -28.360001 -587.51001
-29.24 -28.35 -587.29999
-28.690001 -28.34 -587.13
-28.15 -28.34 -587.03998
-27.610001 -28.34 -587
-27.08 -28.34 -587.19
-26.549999 -28.35 -587.31
-26.030001 -28.370001 -587.78003
-25.530001 -28.41 -588.48999
-24.99 -28.41 -588.58002
-24.440001 -28.389999 -588.19
-23.860001 -28.35 -587.35999
-23.32 -28.34 -587.14001
-22.77 -28.34 -587.03003
-22.219999 -28.32 -586.77002
-21.68 -28.32 -586.63
-21.139999 -28.309999 -586.54999
-20.610001 -28.32 -586.59998
-20.07 -28.309999 -586.54999
-19.530001 -28.32 -586.63
-18.99 -28.32 -586.63
-18.459999 -28.32 -586.79999
-17.93 -28.33 -586.94
-17.4 -28.34 -587.09003
-16.860001 -28.35 -587.31
-16.33 -28.360001 -587.60999
-15.8 -28.379999 -587.90997
-15.28 -28.4 -588.40002
-14.75 -28.42 -588.82001
-14.22 -28.450001 -589.35999
-13.69 -28.469999 -589.81
-13.17 -28.49 -590.28003
-12.63 -28.51 -590.56
-12.1 -28.530001 -590.90002
-11.56 -28.540001 -591.26001
-11.03 -28.559999 -591.69
-10.5 -28.59 -592.21002
-9.9700003 -28.629999 -593.07001
-9.4399996 -28.67 -593.87
-8.9099998 -28.73 -595.03003
-8.3900003 -28.799999 -596.41998
-7.8600001 -28.879999 -598.12
-7.3400002 -28.98 -600.26001
-6.29 -29.23 -605.34998
-5.7600002 -29.360001 -607.84003
-3.99 -33.119999 -684.59998
-3.3599999 -33.139999 -684.98999
-2.73 -33.139999 -685.04999
-2.0999999 -33.110001 -684.38
-1.47 -33.080002 -683.89001
-0.83999997 -33.060001 -683.48999
-0.20999999 -33.049999 -683.15997
0.41 -33.029999 -682.90997
1.04 -33.02 -682.59998
1.67 -33.02 -682.58002
2.29 -33.02 -682.51001
2.9200001 -33.02 -682.70001
3.55 -33.02 -682.56
4.1700001 -33.009998 -682.34003
4.8000002 -32.990002 -682.03003
5.4200001 -32.98 -681.78998
6.04 -32.970001 -681.65002
6.6700001 -32.959999 -681.33002
7.29 -32.950001 -681.23999
7.9200001 -32.950001 -681.08002
8.54 -32.950001 -681.14001
9.1700001 -32.950001 -681.23999
9.8000002 -32.970001 -681.67999
10.44 -33.009998 -682.48999
11.07 -33.02 -682.64001
11.7 -33.029999 -682.73999
12.32 -33.029999 -682.84003
12.95 -33.029999 -682.71997
13.57 -33.02 -682.57001
14.19 -33 -682.27002
14.81 -32.990002 -682
15.43 -32.98 -681.77002
16.059999 -32.98 -681.78998
16.68 -32.98 -681.69
17.32 -32.990002 -681.91998
17.950001 -33.009998 -682.34003
18.59 -33.02 -682.70001
19.209999 -33.02 -682.59003
19.84 -33.02 -682.58002
20.459999 -33.009998 -682.48999
21.1 -33.029999 -682.75
21.74 -33.049999 -683.20001
22.379999 -33.07 -683.57001
23.02 -33.09 -684.04999
23.68 -33.130001 -684.88
24.309999 -33.139999 -684.96997
24.940001 -33.139999 -684.97998
25.58 -33.150002 -685.14001
26.219999 -33.169998 -685.59998
26.870001 -33.18 -685.95001
27.51 -33.200001 -686.26001
28.15 -33.209999 -686.53003
28.809999 -33.25 -687.28003
29.48 -33.290001 -688
30.120001 -33.299999 -688.26001
30.75 -33.299999 -688.28003
31.389999 -33.310001 -688.46997
32.060001 -33.34 -689.08002
32.740002 -33.389999 -690.09003
33.41 -33.43 -690.84998
34.07 -33.450001 -691.40002
34.75 -33.5 -692.33002
35.459999 -33.57 -693.73999
-148.52 -31.35 -636.15997
-147.78999 -31.32 -635.54999
-147.14 -31.299999 -635.26001
-146.49001 -31.290001 -634.97998
-145.83 -31.27 -634.65002
-145.25999 -31.280001 -634.71997
-144.62 -31.26 -634.46997
-144.03 -31.26 -634.40002
-143.42 -31.26 -634.31
-142.84 -31.26 -634.29999
-142.23 -31.25 -634.17999
-141.63 -31.25 -634.09998
-141.02 -31.24 -634.01001
-140.42999 -31.24 -633.96002
-139.83 -31.23 -633.87
-139.25 -31.24 -633.90997
-138.66 -31.23 -633.84998
-138.05 -31.23 -633.73999
-137.49001 -31.23 -633.84003
-136.94 -31.24 -633.96997
-136.42999 -31.26 -634.31
-135.89 -31.26 -634.48999
-135.33 -31.27 -634.62
-134.75 -31.27 -634.59998
-134.17999 -31.27 -634.69
-133.62 -31.280001 -634.76001
-133.02 -31.27 -634.67999
-132.39 -31.26 -634.47998
-131.82001 -31.27 -634.51001
-131.22 -31.26 -634.45001
-130.66 -31.27 -634.53998
-130.08 -31.27 -634.58002
-129.53 -31.280001 -634.71002
-128.95 -31.280001 -634.72998
-128.36 -31.280001 -634.73999
-127.77 -31.27 -634.67999
-127.14 -31.26 -634.44
-126.52 -31.25 -634.28003
-125.91 -31.24 -634.10999
-125.26 -31.23 -633.79999
-124.66 -31.219999 -633.67999
-124.03 -31.209999 -633.46997
-123.41 -31.200001 -633.25
-122.81 -31.200001 -633.15997
-122.18 -31.18 -632.90002
-121.6 -31.190001 -632.94
-121 -31.18 -632.83002
-120.45 -31.190001 -633.01001
-119.89 -31.190001 -633.09998
-120.07 -31.389999 -637.09998
-124.19 -32.630001 -661.79999
-125.02 -33.009998 -669.42999
-124.26 -32.970001 -668.64001
-123.54 -32.939999 -668.09998
-122.84 -32.919998 -667.63
-122.14 -32.889999 -667.15997
-121.41 -32.860001 -666.52002
-120.75 -32.849998 -666.28998
-120.06 -32.830002 -665.82001
-119.4 -32.810001 -665.57001
-118.71 -32.790001 -665.13
-118.04 -32.779999 -664.84003
-117.36 -32.759998 -664.42999
-116.68 -32.740002 -664.07001
-116.04 -32.73 -663.87
-115.37 -32.709999 -663.57001
-114.72 -32.700001 -663.28998
-114.05 -32.68 -662.96002
-113.4 -32.669998 -662.72998
-112.77 -32.669998 -662.59998
-112.11 -32.650002 -662.32001
-111.48 -32.639999 -662.19
-110.83 -32.630001 -661.92999
-110.2 -32.619999 -661.81
-109.52 -32.599998 -661.38
-108.89 -32.599998 -661.27002
-108.27 -32.59 -661.17999
-107.62 -32.580002 -660.91998
-107 -32.580002 -660.85999
-106.36 -32.57 -660.65997
-105.71 -32.549999 -660.37
-105.09 -32.549999 -660.32001
-104.47 -32.540001 -660.21002
-103.86 -32.540001 -660.15997
-103.21 -32.529999 -659.90002
-102.59 -32.52 -659.81
-101.94 -32.509998 -659.53003
-101.29 -32.490002 -659.23999
-100.65 -32.48 -659.03998
-100.03 -32.48 -658.91998
-99.339996 -32.450001 -658.42999
-98.669998 -32.43 -657.96997
-97.989998 -32.400002 -657.46002
-97.360001 -32.400002 -657.27002
-96.760002 -32.400002 -657.31
-96.129997 -32.389999 -657.15997
-95.510002 -32.380001 -657.03003
-94.910004 -32.380001 -657.03003
-94.290001 -32.380001 -656.92999
-93.589996 -32.349998 -656.28998
-92.910004 -32.32 -655.77002
-92.269997 -32.310001 -655.51001
-91.610001 -32.279999 -655.07001
-90.959999 -32.27 -654.71002
-90.309998 -32.25 -654.35999
-89.650002 -32.23 -653.95001
-89.019997 -32.220001 -653.72998
-88.389999 -32.209999 -653.54999
-87.75 -32.189999 -653.21002
-87.120003 -32.18 -653.03998
-86.489998 -32.169998 -652.81
-85.900002 -32.169998 -652.85999
-80.25 -30.48 -618.98999
-79.559998 -30.43 -618.07001
-78.849998 -30.379999 -616.98999
-64.419998 -28.98 -589.03998
-63.799999 -28.940001 -588.25
-63.200001 -28.92 -587.73999
-62.59 -28.879999 -587.10999
-62 -28.860001 -586.63
-61.419998 -28.84 -586.17999
-60.849998 -28.82 -585.87
-60.259998 -28.799999 -585.41998
-59.689999 -28.780001 -585.07001
-59.09 -28.75 -584.46002
-58.5 -28.719999 -583.90002
-57.849998 -28.67 -582.79999
-57.200001 -28.610001 -581.58002
-56.599998 -28.57 -580.89001
-56.040001 -28.559999 -580.66998
-55.5 -28.559999 -580.54999
-54.970001 -28.559999 -580.62
-54.459999 -28.57 -580.82001
-53.98 -28.6 -581.37
-53.52 -28.629999 -582.13
-53.060001 -28.67 -582.92999
-39.09 -29.83 -606.17999
-38.48 -29.790001 -605.40997
-37.869999 -29.75 -604.58002
-37.290001 -29.73 -604.08002
-36.700001 -29.700001 -603.51001
-36.110001 -29.67 -602.90002
-35.490002 -29.610001 -601.78998
-34.869999 -29.549999 -600.63
-34.240002 -29.48 -599.20001
-32.66 -29.049999 -590.62
-32.060001 -29 -589.57001
-31.48 -28.969999 -588.89001
-30.92 -28.940001 -588.41998
-30.360001 -28.92 -588.03003
-29.799999 -28.91 -587.73999
-29.25 -28.9 -587.52002
-28.709999 -28.889999 -587.38
-28.16 -28.889999 -587.28003
-27.629999 -28.889999 -587.27002
-27.09 -28.889999 -587.34003
-26.559999 -28.9 -587.53998
-26.049999 -28.93 -588.13
-25.530001 -28.950001 -588.5
-25 -28.959999 -588.69
-24.459999 -28.959999 -588.72998
-23.879999 -28.91 -587.67999
-23.32 -28.879999 -587.21002
-22.77 -28.879999 -587.07001
-22.23 -28.870001 -586.89001
-21.690001 -28.860001 -586.78998
-21.15 -28.870001 -586.85999
-20.610001 -28.860001 -586.83002
-20.07 -28.860001 -586.76001
-19.540001 -28.860001 -586.78998
-19 -28.870001 -586.89001
-18.469999 -28.879999 -587.07001
-17.940001 -28.879999 -587.17999
-17.4 -28.889999 -587.34998
-16.870001 -28.9 -587.59003
-16.34 -28.91 -587.84998
-15.81 -28.93 -588.10999
-15.28 -28.950001 -588.58002
-14.76 -28.98 -589.09998
-14.23 -29.01 -589.69
-13.7 -29.030001 -590.15002
-13.17 -29.049999 -590.62
-12.64 -29.059999 -590.83002
-12.1 -29.08 -591.09998
-11.56 -29.09 -591.40002
-11.03 -29.110001 -591.84003
-10.5 -29.15 -592.46997
-9.9700003 -29.18 -593.17999
-9.4399996 -29.219999 -593.95001
-8.9099998 -29.27 -595.02002
-8.3900003 -29.34 -596.41998
-7.8600001 -29.42 -598.04999
-7.3400002 -29.52 -599.97998
-6.8099999 -29.629999 -602.10999
-6.29 -29.77 -605.07001
-5.7600002 -29.879999 -607.23999
-5.2199998 -29.98 -609.16998
-3.98 -33.709999 -683.94
-3.3599999 -33.779999 -685.31
-2.73 -33.779999 -685.35999
-2.0999999 -33.77 -685.02002
-1.47 -33.73 -684.32001
-0.83999997 -33.720001 -684.02002
-0.20999999 -33.700001 -683.59998
0.41 -33.700001 -683.64001
1.04 -33.689999 -683.53998
1.67 -33.689999 -683.51001
2.3 -33.689999 -683.41998
2.9200001 -33.669998 -683.07001
3.55 -33.650002 -682.67999
4.1700001 -33.639999 -682.48999
4.8000002 -33.619999 -682.15002
5.4200001 -33.619999 -682.04999
6.0500002 -33.610001 -681.95001
6.6700001 -33.599998 -681.75
7.29 -33.59 -681.48999
7.9200001 -33.59 -681.51001
8.5500002 -33.59 -681.57001
9.1800003 -33.610001 -681.91998
9.8100004 -33.650002 -682.58002
10.44 -33.66 -682.78998
11.07 -33.66 -682.78998
11.7 -33.66 -682.87
12.33 -33.66 -682.90997
12.95 -33.650002 -682.77002
13.57 -33.639999 -682.53998
14.19 -33.630001 -682.28998
14.82 -33.619999 -682.04999
15.44 -33.619999 -681.97998
16.07 -33.619999 -682.08002
16.700001 -33.619999 -682.14001
17.33 -33.650002 -682.62
17.959999 -33.650002 -682.70001
18.59 -33.650002 -682.63
19.209999 -33.639999 -682.54999
19.84 -33.650002 -682.63
20.48 -33.66 -682.84998
21.110001 -33.68 -683.16998
21.75 -33.689999 -683.53998
22.4 -33.73 -684.32001
23.049999 -33.759998 -684.84003
23.68 -33.759998 -684.87
24.309999 -33.759998 -684.78003
24.950001 -33.77 -685.10999
25.59 -33.790001 -685.37
26.23 -33.810001 -685.77002
26.870001 -33.82 -686.03998
27.530001 -33.849998 -686.65997
28.18 -33.869999 -687.09998
28.83 -33.900002 -687.71997
29.469999 -33.91 -687.87
30.110001 -33.919998 -687.96997
30.75 -33.919998 -688.12
31.41 -33.959999 -688.84003
32.080002 -34 -689.62
32.75 -34.029999 -690.29999
33.389999 -34.049999 -690.59003
34.07 -34.09 -691.40997
34.75 -34.130001 -692.26001
35.439999 -34.18 -693.29999
-149.33 -31.98 -637.10999
-148.53999 -31.940001 -636.23999
-147.83 -31.91 -635.72998
-147.2 -31.9 -635.51001
-146.57001 -31.889999 -635.33002
-145.95 -31.879999 -635.15997
-145.3 -31.870001 -634.85999
-144.73 -31.870001 -634.92999
-144.14 -31.870001 -634.91998
-143.5 -31.860001 -634.65997
-142.92999 -31.860001 -634.71997
-142.28999 -31.85 -634.46002
-141.71001 -31.85 -634.46002
-141.10001 -31.84 -634.34003
-140.5 -31.84 -634.26001
-139.92 -31.84 -634.28998
-139.31 -31.83 -634.15002
-138.74001 -31.83 -634.21997
-138.14999 -31.83 -634.15002
-137.59 -31.84 -634.28003
-137.00999 -31.84 -634.28003
-136.46001 -31.84 -634.42999
-135.91 -31.85 -634.58002
-135.36 -31.860001 -634.71997
-134.75999 -31.860001 -634.65002
-134.2 -31.860001 -634.75
-133.62 -31.860001 -634.77002
-133.02 -31.860001 -634.71002
-132.41 -31.85 -634.59003
-131.83 -31.85 -634.58002
-131.25 -31.85 -634.59998
-130.67999 -31.860001 -634.66998
-130.11 -31.860001 -634.72998
-129.53999 -31.860001 -634.79999
-128.97 -31.860001 -634.84003
-128.39 -31.860001 -634.84003
-127.8 -31.860001 -634.84998
-127.2 -31.860001 -634.75
-126.58 -31.85 -634.56
-125.96 -31.84 -634.34998
-125.35 -31.83 -634.22998
-124.72 -31.82 -633.97998
-124.1 -31.809999 -633.79999
-123.51 -31.809999 -633.75
-122.9 -31.799999 -633.60999
-122.3 -31.799999 -633.53998
-121.69 -31.790001 -633.40997
-121.17 -31.799999 -633.69
-120.62 -31.809999 -633.85999
-125.76 -33.490002 -666.88
-125.81 -33.669998 -670.35999
-125.09 -33.639999 -669.77002
-124.35 -33.610001 -669.12
-123.59 -33.57 -668.37
-122.89 -33.540001 -667.87
-122.17 -33.509998 -667.31
-121.46 -33.490002 -666.78998
-120.78 -33.470001 -666.42999
-120.09 -33.450001 -665.98999
-119.42 -33.43 -665.69
-118.72 -33.41 -665.21002
-118.04 -33.389999 -664.81
-117.36 -33.369999 -664.40997
-116.69 -33.349998 -664.13
-116 -33.330002 -663.67999
-115.32 -33.310001 -663.28003
-114.65 -33.290001 -662.89001
-114.02 -33.279999 -662.78003
-113.37 -33.27 -662.56
-112.71 -33.259998 -662.26001
-112.07 -33.25 -662.08002
-111.43 -33.240002 -661.85999
-110.76 -33.220001 -661.53998
-110.13 -33.209999 -661.37
-109.49 -33.200001 -661.17999
-108.84 -33.189999 -660.96002
-108.2 -33.18 -660.72998
-107.56 -33.169998 -660.53998
-106.95 -33.169998 -660.51001
-106.32 -33.16 -660.37
-105.67 -33.150002 -660.12
-105.02 -33.130001 -659.89001
-104.4 -33.130001 -659.76001
-103.77 -33.119999 -659.62
-103.11 -33.099998 -659.28003
-102.48 -33.099998 -659.14001
-101.82 -33.080002 -658.79999
-101.15 -33.060001 -658.39001
-100.48 -33.029999 -657.94
-99.830002 -33.02 -657.62
-93.459999 -32.900002 -655.38
-92.889999 -32.91 -655.59998
-92.269997 -32.91 -655.45001
-91.620003 -32.889999 -655.15002
-90.980003 -32.880001 -654.87
-90.349998 -32.869999 -654.66998
-89.709999 -32.849998 -654.40997
-89.07 -32.84 -654.09003
-88.43 -32.82 -653.84003
-87.800003 -32.810001 -653.58002
-87.18 -32.799999 -653.44
-86.550003 -32.790001 -653.23999
-85.93 -32.779999 -653.09003
-85.029999 -32.669998 -650.79999
-80.220001 -31.040001 -618.83002
-79.510002 -30.98 -617.71997
-64.970001 -29.52 -589.08002
-64.349998 -29.49 -588.34003
-63.740002 -29.450001 -587.72998
-63.150002 -29.43 -587.23999
-62.549999 -29.4 -586.70001
-61.959999 -29.379999 -586.19
-61.380001 -29.360001 -585.81
-60.799999 -29.34 -585.44
-60.220001 -29.309999 -584.96002
-59.630001 -29.290001 -584.44
-59.040001 -29.26 -583.96997
-58.459999 -29.24 -583.46997
-57.84 -29.200001 -582.69
-57.240002 -29.16 -582.02002
-56.639999 -29.129999 -581.37
-56.07 -29.110001 -580.98999
-55.529999 -29.1 -580.89001
-55.009998 -29.110001 -581.01001
-54.509998 -29.129999 -581.31
-54.02 -29.15 -581.77002
-53.560001 -29.190001 -582.53003
-53.09 -29.23 -583.27002
-39.669998 -30.41 -606.51001
-39.049999 -30.360001 -605.65002
-38.459999 -30.33 -605.08002
-37.860001 -30.290001 -604.33002
-37.279999 -30.27 -603.88
-36.689999 -30.24 -603.29999
-36.099998 -30.209999 -602.66998
-35.48 -30.16 -601.62
-34.869999 -30.1 -600.60999
-34.220001 -30.02 -598.88
-32.66 -29.6 -590.73999
-32.07 -29.559999 -589.83002
-31.49 -29.52 -589.13
-30.93 -29.5 -588.69
-30.360001 -29.469999 -588.20001
-29.809999 -29.459999 -587.90002
-29.27 -29.450001 -587.79999
-28.719999 -29.440001 -587.59003
-28.17 -29.43 -587.42999
-27.639999 -29.440001 -587.47998
-27.1 -29.440001 -587.57001
-26.57 -29.450001 -587.70001
-26.049999 -29.459999 -588.04999
-25.51 -29.469999 -588.21002
-24.99 -29.49 -588.5
-24.459999 -29.5 -588.77002
-23.91 -29.49 -588.60999
-23.360001 -29.469999 -588.13
-22.780001 -29.42 -587.21002
-22.23 -29.41 -587.01001
-21.700001 -29.41 -587
-21.16 -29.41 -587.02002
-20.620001 -29.41 -587.03003
-20.08 -29.41 -587.07001
-19.549999 -29.41 -587.07001
-19.01 -29.42 -587.12
-18.48 -29.42 -587.20001
-17.940001 -29.43 -587.34003
-17.41 -29.440001 -587.60999
-16.879999 -29.450001 -587.76001
-16.35 -29.459999 -588.03998
-15.82 -29.48 -588.34998
-15.29 -29.51 -588.90002
-14.76 -29.530001 -589.34998
-14.24 -29.559999 -589.98999
-13.71 -29.58 -590.39001
-13.18 -29.6 -590.81
-12.64 -29.610001 -590.98999
-12.1 -29.620001 -591.21997
-11.57 -29.639999 -591.53998
-11.04 -29.67 -592.09003
-10.5 -29.700001 -592.63
-9.9700003 -29.73 -593.26001
-9.4399996 -29.76 -593.96997
-8.9099998 -29.82 -594.98999
-8.3800001 -29.879999 -596.25
-7.8600001 -29.969999 -597.96002
-7.3299999 -30.049999 -599.63
-6.8099999 -30.15 -601.65002
-6.29 -30.309999 -604.59998
-5.75 -30.4 -606.53003
-5.21 -30.52 -608.72998
-4 -34.459999 -686.34998
-3.3599999 -34.439999 -685.95001
-2.73 -34.439999 -685.90997
-2.0999999 -34.439999 -685.90997
-1.47 -34.41 -685.31
-0.83999997 -34.389999 -684.91998
-0.20999999 -34.369999 -684.58002
0.41 -34.360001 -684.39001
1.04 -34.360001 -684.35999
1.67 -34.34 -683.88
2.3 -34.32 -683.56
2.9200001 -34.310001 -683.38
3.55 -34.290001 -682.96002
4.1700001 -34.27 -682.64001
4.8000002 -34.259998 -682.34998
