# .PCD v0.7 - Point Cloud Data file format
VERSION 0.7
FIELDS x y z
SIZE 4 4 4
TYPE F F F
COUNT 1 1 1
WIDTH 1892
HEIGHT 1
VIEWPOINT 0 0 0 1 0 0 0
POINTS 1892
DATA ascii
-92.589996 12.11 -566.51001
-92.080002 12.11 -566.60999
-91.580002 12.11 -566.70001
-91.07 12.11 -566.77002
-90.559998 12.11 -566.81
-90.059998 12.12 -566.91998
-89.559998 12.12 -567.07001
-89.059998 12.12 -567.17999
-88.559998 12.13 -567.31
-88.07 12.13 -567.5
-87.559998 12.13 -567.58002
-87.059998 12.13 -567.67999
-86.559998 12.14 -567.82001
-86.07 12.14 -568.03998
-85.57 12.14 -568.21002
-85.080002 12.15 -568.40002
-84.599998 12.15 -568.67999
-84.110001 12.16 -568.85999
-83.610001 12.16 -569
-83.120003 12.17 -569.22998
-82.639999 12.17 -569.48999
-82.160004 12.18 -569.77002
-81.669998 12.18 -570
-81.169998 12.19 -570.20001
-80.690002 12.19 -570.44
-80.209999 12.2 -570.73999
-79.730003 12.21 -571.06
-79.239998 12.21 -571.29999
-78.75 12.22 -571.56
-78.260002 12.22 -571.83002
-77.779999 12.23 -572.10999
-77.290001 12.23 -572.38
-76.809998 12.24 -572.67999
-76.330002 12.25 -573
-75.839996 12.25 -573.32001
-75.370003 12.26 -573.70001
-74.889999 12.27 -574.06
-74.400002 12.28 -574.38
-73.93 12.29 -574.77002
-73.459999 12.29 -575.19
-72.970001 12.3 -575.5
-72.489998 12.31 -575.88
-72.029999 12.32 -576.38
-71.540001 12.33 -576.71002
-71.059998 12.34 -577.14001
-70.599998 12.35 -577.62
-70.129997 12.36 -578.19
-69.660004 12.37 -578.66998
-69.220001 12.38 -579.34998
-68.75 12.4 -579.87
-68.300003 12.41 -580.59003
-67.839996 12.42 -581.15997
-67.410004 12.44 -582.03998
-66.949997 12.46 -582.72998
-66.519997 12.48 -583.59003
-66.080002 12.49 -584.45001
-65.650002 12.51 -585.37
-65.209999 12.53 -586.25
-64.809998 12.56 -587.46997
-64.389999 12.58 -588.52002
-64.010002 12.61 -589.94
-63.619999 12.64 -591.34003
-63.259998 12.68 -593.01001
-62.950001 12.73 -595.15997
-66.849998 13.63 -636.95001
-67.040001 13.79 -644.29999
-66.440002 13.79 -644.22998
-65.849998 13.79 -644.28998
-65.25 13.79 -644.19
-64.639999 13.79 -644.02002
-64.040001 13.78 -643.92999
-63.450001 13.78 -643.91998
-62.860001 13.78 -643.88
-62.27 13.78 -643.89001
-61.689999 13.79 -644.03003
-61.119999 13.79 -644.21997
-60.540001 13.79 -644.40997
-59.959999 13.8 -644.56
-59.400002 13.8 -644.82001
-58.830002 13.81 -645.13
-58.259998 13.82 -645.38
-57.689999 13.82 -645.56
-57.110001 13.82 -645.71002
-56.52 13.82 -645.70001
-55.93 13.83 -645.83002
-55.349998 13.83 -645.96002
-54.779999 13.83 -646.23999
-54.209999 13.84 -646.52002
-53.639999 13.84 -646.71002
-53.080002 13.85 -647.15997
-52.52 13.86 -647.62
-51.990002 13.88 -648.31
-51.5 13.91 -649.66998
-51.009998 13.94 -651
-39.049999 14.37 -671.10999
-38.389999 14.36 -670.39001
-37.75 14.35 -669.95001
-37.110001 14.34 -669.51001
-36.470001 14.33 -669.08002
-35.849998 14.32 -668.84998
-35.23 14.32 -668.78998
-34.630001 14.33 -669.06
-34.029999 14.33 -669.37
-33.43 14.34 -669.75
-32.84 14.35 -670.09998
-32.25 14.36 -670.66998
-31.65 14.37 -670.91998
-31.049999 14.38 -671.31
-30.450001 14.39 -671.75
-29.85 14.4 -672.16998
-29.25 14.4 -672.47998
-28.65 14.41 -672.90002
-28.049999 14.42 -673.28998
-27.450001 14.43 -673.84998
-26.860001 14.44 -674.33002
-26.25 14.45 -674.72998
-25.65 14.46 -675.06
-25.040001 14.47 -675.54999
-24.440001 14.48 -676.08002
-23.84 14.49 -676.51001
-23.23 14.5 -677.03998
-22.629999 14.51 -677.56
-22.02 14.52 -678.04999
-21.41 14.53 -678.37
-20.799999 14.54 -678.84998
-20.200001 14.55 -679.40997
-19.58 14.56 -679.78003
-18.969999 14.57 -680.22998
-18.360001 14.58 -680.62
-17.75 14.59 -681.09998
-17.129999 14.59 -681.35999
-16.51 14.6 -681.76001
-15.9 14.61 -682.14001
-15.27 14.62 -682.34998
-14.65 14.62 -682.56
-14.03 14.62 -682.60999
-13.4 14.63 -682.79999
-12.78 14.63 -682.98999
-12.16 14.63 -683.12
-11.53 14.63 -683.09998
-10.9 14.63 -682.97998
-10.26 14.62 -682.53998
-9.6300001 14.61 -682.03998
-9 14.6 -681.59998
-8.3699999 14.6 -681.41998
-7.7399998 14.59 -681.20001
-7.1199999 14.59 -681.09998
-6.4899998 14.59 -681.04999
-5.8600001 14.59 -680.97998
-5.2399998 14.59 -680.96002
-4.6100001 14.59 -681
-3.99 14.59 -681.10999
-3.3599999 14.59 -681.09003
-2.74 14.59 -681.32001
-2.1099999 14.59 -681.37
-1.49 14.6 -681.53998
-0.86000001 14.6 -681.81
-0.23999999 14.61 -682.20001
0.38999999 14.62 -682.45001
1.02 14.62 -682.71997
1.64 14.63 -683.21002
2.27 14.65 -683.89001
2.9000001 14.66 -684.17999
3.53 14.67 -684.82001
4.1700001 14.69 -685.57001
4.8000002 14.7 -686.31
5.4400001 14.71 -686.71002
6.0700002 14.72 -687.37
6.6999998 14.72 -687.22998
7.3299999 14.71 -686.47998
7.9499998 14.69 -686.01001
8.5600004 14.66 -684.46997
9.1700001 14.63 -682.96002
9.75 14.56 -679.95001
10.34 14.51 -677.67999
10.95 14.49 -676.57001
11.55 14.47 -675.46997
12.15 14.45 -674.52002
12.76 14.43 -673.97998
13.37 14.42 -673.53998
13.98 14.42 -673.10999
14.58 14.4 -672.56
15.19 14.39 -672.14001
15.8 14.39 -671.72998
16.41 14.38 -671.58002
17.02 14.37 -671.12
17.629999 14.37 -671.06
18.24 14.36 -670.72998
18.85 14.36 -670.58002
19.459999 14.36 -670.42999
20.08 14.36 -670.42999
20.700001 14.36 -670.57001
21.309999 14.36 -670.5
21.93 14.36 -670.48999
22.540001 14.36 -670.58002
23.16 14.36 -670.71997
23.790001 14.37 -670.91998
24.41 14.37 -670.98999
25.040001 14.38 -671.42999
25.66 14.38 -671.59998
26.280001 14.39 -671.71997
26.92 14.4 -672.17999
27.540001 14.4 -672.34003
28.16 14.4 -672.26001
28.780001 14.4 -672.41998
29.389999 14.4 -672.34003
30.02 14.4 -672.46997
30.629999 14.4 -672.40002
31.25 14.4 -672.45001
31.879999 14.41 -672.62
32.5 14.41 -672.65002
33.119999 14.41 -672.81
33.740002 14.41 -672.85999
34.369999 14.42 -673.12
35 14.42 -673.38
35.630001 14.43 -673.59998
36.27 14.43 -673.90997
36.889999 14.43 -673.97998
37.52 14.44 -674.08002
38.139999 14.44 -674.14001
38.759998 14.44 -674.09003
39.380001 14.44 -674.16998
40.009998 14.44 -674.42999
40.650002 14.45 -674.62
41.290001 14.46 -674.95001
41.959999 14.47 -675.76001
42.599998 14.48 -676.15002
43.23 14.49 -676.32001
43.849998 14.48 -676.25
44.470001 14.48 -676.20001
45.099998 14.49 -676.31
45.709999 14.48 -676.23999
46.330002 14.48 -676.25
46.959999 14.49 -676.31
47.59 14.49 -676.46997
48.23 14.49 -676.65997
48.869999 14.5 -676.95001
49.509998 14.51 -677.21002
50.16 14.51 -677.59998
50.82 14.52 -678.08002
51.48 14.54 -678.60999
52.18 14.56 -679.59998
52.880001 14.58 -680.45001
53.580002 14.6 -681.51001
54.259998 14.61 -682.12
89.050003 14.99 -699.15002
89.339996 14.93 -696.44
89.470001 14.84 -692.53003
89.470001 14.74 -687.75
89.779999 14.68 -685.25
90.129997 14.64 -683.15997
90.599998 14.61 -682.03003
91.019997 14.58 -680.46997
91.459999 14.55 -679.15997
91.910004 14.52 -677.85999
92.400002 14.5 -676.88
92.809998 14.47 -675.40002
93.269997 14.44 -674.21997
93.720001 14.42 -673.04999
94.209999 14.4 -672.12
94.720001 14.38 -671.34998
95.260002 14.37 -670.84003
95.809998 14.36 -670.35999
96.349998 14.35 -669.84998
96.919998 14.34 -669.54999
97.519997 14.34 -669.45001
98.190002 14.35 -669.84003
98.879997 14.36 -670.33002
99.610001 14.38 -671.09998
100.45 14.41 -672.56
101.82 14.52 -677.46002
103.11 14.61 -681.83002
104.3 14.69 -685.46002
105.41 14.76 -688.60999
-165.88 11.6 -566.79999
-165.31 11.59 -566.63
-164.78 11.59 -566.59998
-164.24001 11.59 -566.53998
-163.75 11.59 -566.60999
-163.35001 11.6 -567.01001
-162.95 11.61 -567.45001
-162.7 11.63 -568.37
-162.42999 11.65 -569.21002
-162.03999 11.66 -569.65997
-161.56 11.66 -569.81
-161.03 11.66 -569.78998
-160.42 11.65 -569.48999
-159.86 11.65 -569.34998
-159.35001 11.65 -569.39001
-158.87 11.65 -569.53003
-158.38 11.66 -569.65002
-157.91 11.66 -569.83002
-157.44 11.66 -570.02002
-157 11.67 -570.29999
-156.64999 11.68 -570.90997
-156.2 11.69 -571.17999
-155.84 11.7 -571.76001
-155.44 11.71 -572.21997
-155.07001 11.72 -572.77002
-154.74001 11.74 -573.46997
-154.39 11.75 -574.13
-154.17999 11.77 -575.28998
-153.8 11.79 -575.84003
-153.28 11.79 -575.84998
-152.77 11.79 -575.92999
-152.25999 11.79 -575.98999
-151.69 11.79 -575.82001
-151.07001 11.78 -575.48999
-150.52 11.78 -575.40002
-149.99001 11.78 -575.38
-149.47 11.78 -575.40002
-148.98 11.78 -575.58002
-148.5 11.78 -575.73999
-147.92999 11.78 -575.59003
-147.31 11.77 -575.21997
-146.77 11.77 -575.17999
-146.25 11.77 -575.19
-145.75 11.77 -575.28998
-145.28999 11.78 -575.54999
-144.78 11.78 -575.62
-144.22 11.78 -575.51001
-143.63 11.77 -575.28003
-143.09 11.77 -575.21002
-142.57001 11.77 -575.22998
-142.07001 11.78 -575.37
-141.61 11.78 -575.63
-141.08 11.78 -575.62
-140.53 11.78 -575.51001
-139.99001 11.78 -575.48999
-139.47 11.78 -575.5
-139 11.78 -575.73999
-138.5 11.79 -575.84003
-137.95 11.78 -575.76001
-137.38 11.78 -575.59998
-136.86 11.78 -575.60999
-136.36 11.78 -575.71002
-135.81 11.78 -575.65997
-135.24001 11.78 -575.46997
-134.67 11.77 -575.28998
-134.14999 11.77 -575.32001
-133.63 11.78 -575.34998
-133.08 11.77 -575.27002
-132.48 11.77 -574.95001
-131.86 11.76 -574.53003
-131.25 11.75 -574.16998
-130.62 11.74 -573.76001
-130.00999 11.73 -573.35999
-129.41 11.73 -573.06
-128.82001 11.72 -572.77002
-128.22 11.71 -572.45001
-127.66 11.71 -572.28998
-127.08 11.71 -572.04999
-126.51 11.7 -571.84003
-125.94 11.7 -571.65002
-125.38 11.69 -571.47998
-124.81 11.69 -571.25
-124.26 11.69 -571.14001
-123.7 11.68 -570.98999
-123.13 11.68 -570.78998
-122.58 11.68 -570.64001
-122.04 11.68 -570.57001
-121.5 11.67 -570.47998
-120.96 11.67 -570.40997
-120.42 11.67 -570.34998
-119.88 11.67 -570.27002
-119.35 11.67 -570.21997
-118.81 11.67 -570.13
-118.27 11.67 -570.07001
-117.74 11.66 -570.02002
-117.2 11.66 -569.94
-116.66 11.66 -569.84003
-116.12 11.66 -569.78003
-115.6 11.66 -569.77002
-115.04 11.65 -569.59003
-114.47 11.65 -569.37
-113.9 11.65 -569.15997
-113.35 11.64 -569.02002
-112.82 11.64 -568.95001
-112.24 11.64 -568.67999
-111.58 11.62 -567.97998
-110.94 11.61 -567.34998
-110.32 11.6 -566.88
-109.77 11.6 -566.73999
-109.24 11.59 -566.64001
-108.71 11.59 -566.59998
-108.18 11.59 -566.58002
-107.65 11.59 -566.51001
-107.12 11.59 -566.44
-106.6 11.59 -566.42999
-106.06 11.59 -566.34003
-105.54 11.59 -566.34998
-105 11.58 -566.23999
-104.48 11.58 -566.21997
-103.95 11.58 -566.15002
-103.43 11.58 -566.15002
-102.91 11.58 -566.15997
-102.39 11.58 -566.16998
-101.88 11.58 -566.17999
-101.35 11.58 -566.12
-100.83 11.58 -566.12
-100.31 11.58 -566.10999
-99.779999 11.58 -566.07001
-99.269997 11.58 -566.10999
-98.75 11.58 -566.10999
-98.239998 11.58 -566.15997
-97.709999 11.58 -566.10999
-97.199997 11.58 -566.15002
-96.68 11.58 -566.16998
-96.169998 11.58 -566.21997
-95.660004 11.58 -566.25
-95.160004 11.59 -566.34003
-94.629997 11.59 -566.33002
-94.129997 11.59 -566.40997
-93.610001 11.59 -566.42999
-93.110001 11.59 -566.54999
-92.610001 11.59 -566.66998
-92.110001 11.59 -566.78998
-91.589996 11.59 -566.79999
-91.089996 11.6 -566.90002
-90.599998 11.6 -567.06
-90.080002 11.6 -567.06
-89.580002 11.6 -567.17999
-89.080002 11.61 -567.31
-88.580002 11.61 -567.45001
-88.080002 11.61 -567.59003
-87.589996 11.61 -567.77002
-87.080002 11.62 -567.87
-86.589996 11.62 -568.01001
-86.089996 11.62 -568.15002
-85.589996 11.63 -568.31
-85.110001 11.63 -568.58002
-84.610001 11.63 -568.73999
-84.129997 11.64 -568.96997
-83.650002 11.65 -569.25
-83.150002 11.65 -569.39001
-82.669998 11.65 -569.71997
-82.169998 11.66 -569.88
-81.68 11.66 -570.10999
-81.190002 11.67 -570.33002
-80.709999 11.67 -570.64001
-80.220001 11.68 -570.83002
-79.739998 11.68 -571.16998
-79.260002 11.69 -571.44
-78.769997 11.7 -571.69
-78.290001 11.7 -572
-77.800003 11.71 -572.28003
-77.32 11.71 -572.57001
-76.830002 11.72 -572.84003
-76.349998 11.73 -573.15997
-75.870003 11.73 -573.53998
-75.389999 11.74 -573.84003
-74.919998 11.75 -574.27002
-74.440002 11.76 -574.60999
-73.970001 11.76 -575.06
-73.480003 11.77 -575.35999
-73.019997 11.78 -575.85999
-72.529999 11.79 -576.17999
-72.050003 11.8 -576.59003
-71.57 11.8 -576.96997
-71.110001 11.82 -577.52002
-70.639999 11.83 -577.98999
-70.169998 11.83 -578.42999
-69.709999 11.85 -579.02002
-69.239998 11.86 -579.58002
-68.790001 11.87 -580.21997
-68.339996 11.88 -580.88
-67.879997 11.9 -581.53998
-67.440002 11.92 -582.33002
-66.989998 11.93 -583.03003
-66.559998 11.95 -583.94
-66.129997 11.97 -584.84998
-65.699997 11.99 -585.83002
-65.269997 12.01 -586.72998
-64.860001 12.03 -587.85999
-64.449997 12.05 -589.03998
-64.07 12.08 -590.5
-63.689999 12.11 -591.97998
-63.34 12.15 -593.77002
-63.580002 12.3 -601.06
-67.620003 13.2 -644.16998
-67.050003 13.2 -644.41998
-66.449997 13.2 -644.34998
-65.870003 13.2 -644.45001
-65.269997 13.2 -644.31
-64.669998 13.2 -644.23999
-64.07 13.2 -644.15002
-63.459999 13.2 -644.04999
-62.869999 13.2 -644.07001
-62.290001 13.2 -644.10999
-61.700001 13.2 -644.15997
-61.119999 13.2 -644.28998
-60.540001 13.2 -644.41998
-59.970001 13.21 -644.63
-59.41 13.21 -644.90997
-58.84 13.22 -645.21997
-58.279999 13.23 -645.53998
-57.700001 13.23 -645.70001
-57.119999 13.23 -645.78003
-56.529999 13.23 -645.82001
-55.939999 13.23 -645.85999
-55.369999 13.24 -646.13
-54.790001 13.24 -646.31
-54.209999 13.25 -646.51001
-53.650002 13.25 -646.87
-53.09 13.26 -647.21997
-52.529999 13.27 -647.63
-52 13.29 -648.46997
-51.48 13.31 -649.46997
-51 13.34 -650.89001
-50.540001 13.37 -652.65997
-39.599998 13.73 -670.03003
-38.959999 13.72 -669.58002
-38.330002 13.72 -669.34998
-37.709999 13.72 -669.19
-37.080002 13.71 -668.96997
-36.459999 13.71 -668.88
-35.849998 13.71 -668.88
-35.25 13.71 -669.12
-34.650002 13.72 -669.48999
-34.060001 13.73 -669.87
-33.459999 13.74 -670.21002
-32.869999 13.75 -670.73999
-32.27 13.76 -671.16998
-31.68 13.76 -671.53998
-31.08 13.77 -671.96997
-30.48 13.78 -672.39001
-29.879999 13.79 -672.82001
-29.280001 13.8 -673.21002
-28.690001 13.81 -673.71997
-28.09 13.82 -674.22998
-27.49 13.83 -674.59998
-26.879999 13.84 -675.02002
-26.290001 13.85 -675.57001
-25.68 13.86 -675.98999
-25.08 13.87 -676.38
-24.48 13.88 -677.03998
-23.860001 13.88 -677.28003
-23.26 13.9 -677.84998
-22.66 13.91 -678.34003
-22.049999 13.92 -678.83002
-21.440001 13.92 -679.13
-20.83 13.93 -679.72998
-20.219999 13.94 -680.12
-19.6 13.95 -680.46002
-18.99 13.96 -680.90002
-18.379999 13.97 -681.40002
-17.77 13.98 -681.78998
-17.15 13.98 -682.07001
-16.530001 13.99 -682.42999
-15.91 14 -682.64001
-15.28 14 -682.81
-14.66 14 -682.92999
-14.03 14 -682.91998
-13.41 14 -683.04999
-12.78 14.01 -683.14001
-12.16 14.01 -683.38
-11.53 14.01 -683.40002
-10.91 14.01 -683.41998
-10.27 14 -682.96997
-9.6400003 13.99 -682.54999
-9 13.98 -681.91998
-8.3699999 13.97 -681.65997
-7.75 13.97 -681.53998
-7.1199999 13.97 -681.45001
-6.4899998 13.97 -681.31
-5.8699999 13.97 -681.28998
-5.2399998 13.97 -681.38
-4.6199999 13.97 -681.35999
-3.99 13.97 -681.34003
-3.3699999 13.97 -681.53003
-2.74 13.97 -681.63
-2.1099999 13.98 -681.76001
-1.49 13.98 -682.01001
-0.86000001 13.99 -682.21002
-0.23999999 13.99 -682.56
0.38999999 14 -682.90997
1.02 14.01 -683.35999
1.65 14.02 -683.78998
2.28 14.03 -684.40997
2.9100001 14.04 -684.94
3.54 14.06 -685.62
4.1700001 14.07 -686.28003
4.8099999 14.09 -687.07001
5.4499998 14.1 -687.79999
6.0799999 14.11 -688.28998
6.7199998 14.12 -688.72998
7.3499999 14.12 -688.59003
7.98 14.11 -688.14001
8.6000004 14.09 -687.20001
9.2200003 14.07 -686.40997
9.8199997 14.04 -684.90002
10.43 14.01 -683.38
11.03 13.98 -681.96002
11.63 13.94 -680.09003
12.21 13.9 -677.92999
12.82 13.88 -677.09003
13.42 13.86 -676.22998
14.03 13.84 -675.32001
14.63 13.83 -674.46997
15.24 13.82 -674.25
15.85 13.81 -673.94
16.459999 13.81 -673.53998
17.07 13.8 -673.14001
17.68 13.79 -672.77002
18.299999 13.79 -672.78998
18.9 13.78 -672.48999
19.52 13.78 -672.37
20.139999 13.78 -672.37
20.75 13.78 -672.23999
21.370001 13.78 -672.21002
21.99 13.78 -672.48999
22.610001 13.78 -672.40002
23.219999 13.78 -672.44
23.84 13.78 -672.46997
24.469999 13.79 -672.62
25.1 13.79 -672.95001
25.719999 13.8 -673.13
26.34 13.8 -673.15002
26.959999 13.8 -673.20001
27.58 13.8 -673.21002
28.200001 13.8 -673.40002
28.82 13.8 -673.25
29.43 13.8 -673.21997
30.049999 13.8 -673.21002
30.67 13.8 -673.13
31.290001 13.8 -673.20001
31.9 13.8 -673.14001
32.529999 13.8 -673.38
33.16 13.81 -673.66998
33.790001 13.81 -673.79999
34.419998 13.82 -674.07001
35.060001 13.82 -674.39001
35.689999 13.83 -674.63
36.32 13.83 -674.78003
36.939999 13.83 -674.82001
37.560001 13.83 -674.84003
38.18 13.83 -674.83002
38.810001 13.84 -674.98999
39.439999 13.84 -675.17999
40.080002 13.85 -675.53998
40.73 13.86 -675.97998
41.389999 13.87 -676.62
42.029999 13.88 -676.90002
42.650002 13.88 -676.97998
43.27 13.88 -676.87
43.889999 13.88 -676.81
44.509998 13.88 -676.82001
45.139999 13.88 -676.94
45.77 13.88 -677.04999
46.41 13.89 -677.31
47.029999 13.89 -677.35999
47.669998 13.89 -677.57001
48.32 13.9 -677.89001
48.950001 13.9 -678.10999
49.59 13.91 -678.28003
50.23 13.91 -678.5
50.889999 13.92 -678.92999
51.560001 13.93 -679.64001
52.259998 13.95 -680.60999
52.970001 13.97 -681.59003
53.630001 13.98 -682.01001
89.699997 14.34 -699.21997
89.980003 14.29 -696.45001
89.970001 14.18 -691.5
90.139999 14.11 -687.98999
90.410004 14.06 -685.29999
90.779999 14.02 -683.39001
91.239998 13.99 -682.14001
91.690002 13.96 -680.81
92.139999 13.94 -679.53998
92.629997 13.92 -678.56
93.080002 13.89 -677.34998
93.57 13.87 -676.34003
94.040001 13.85 -675.28003
94.519997 13.83 -674.29999
95.040001 13.81 -673.58002
95.550003 13.8 -672.83002
96.099998 13.79 -672.37
96.650002 13.78 -671.92999
97.260002 13.78 -671.84003
97.870003 13.78 -671.78998
98.5 13.78 -671.88
99.260002 13.8 -672.84998
100.02 13.82 -673.77002
101.08 13.88 -676.70001
102.42 13.98 -681.41998
103.48 14.04 -684.27002
104.57 14.1 -687.22998
105.67 14.16 -690.28003
-165.92 11.08 -566.96002
-165.34 11.08 -566.75
-164.81 11.07 -566.69
-164.28 11.07 -566.66998
-163.8 11.08 -566.78003
-163.39 11.08 -567.16998
-162.99001 11.09 -567.58002
-162.71001 11.11 -568.38
-162.42999 11.13 -569.21002
-162.07001 11.14 -569.76001
-161.62 11.14 -570.03998
-161.07001 11.14 -569.92999
-160.52 11.14 -569.81
-159.89999 11.13 -569.48999
-159.36 11.13 -569.41998
-158.86 11.13 -569.51001
-158.36 11.13 -569.58002
-157.94 11.14 -569.91998
-157.53 11.15 -570.33002
-157.17 11.16 -570.91998
-156.77 11.17 -571.34998
-156.35001 11.18 -571.70001
-155.91 11.18 -572.03003
-155.53999 11.19 -572.57001
-155.12 11.2 -572.96002
-154.75 11.21 -573.51001
-154.42 11.23 -574.22998
-154.25 11.25 -575.56
-153.83 11.26 -575.92999
-153.3 11.26 -575.94
-152.78 11.26 -575.96997
-152.27 11.26 -576.03998
-151.7 11.26 -575.87
-151.10001 11.25 -575.59998
-150.55 11.25 -575.52002
-150 11.25 -575.40997
-149.49001 11.25 -575.5
-148.99001 11.25 -575.60999
-148.50999 11.26 -575.78003
-147.95 11.25 -575.65997
-147.35001 11.25 -575.37
-146.8 11.25 -575.27002
-146.25 11.25 -575.20001
-145.77 11.25 -575.35999
-145.28 11.25 -575.52002
-144.78999 11.25 -575.65997
-144.22 11.25 -575.53003
-143.64999 11.25 -575.32001
-143.10001 11.25 -575.26001
-142.58 11.25 -575.28003
-142.09 11.25 -575.44
-141.62 11.25 -575.65997
-141.10001 11.26 -575.70001
-140.55 11.25 -575.59003
-139.99001 11.25 -575.46997
-139.48 11.25 -575.53998
-138.99001 11.26 -575.70001
-138.49001 11.26 -575.82001
-137.94 11.26 -575.71997
-137.38 11.25 -575.59003
-136.85001 11.25 -575.58002
-136.34 11.25 -575.65997
-135.81 11.25 -575.65002
-135.23 11.25 -575.41998
-134.7 11.25 -575.39001
-134.13 11.25 -575.22998
-133.61 11.25 -575.27002
-133.08 11.25 -575.22998
-132.48 11.24 -574.95001
-131.88 11.23 -574.65002
-131.28999 11.23 -574.37
-130.66 11.22 -573.92999
-130.05 11.21 -573.56
-129.45 11.21 -573.25
-128.84 11.2 -572.84998
-128.25 11.19 -572.58002
-127.68 11.19 -572.38
-127.09 11.18 -572.08002
-126.52 11.18 -571.89001
-125.97 11.18 -571.77002
-125.42 11.17 -571.63
-124.85 11.17 -571.44
-124.26 11.16 -571.15997
-123.71 11.16 -571.01001
-123.16 11.16 -570.92999
-122.6 11.16 -570.76001
-122.05 11.15 -570.64001
-121.52 11.15 -570.57001
-120.97 11.15 -570.45001
-120.43 11.15 -570.37
-119.89 11.15 -570.32001
-119.35 11.15 -570.22998
-118.83 11.15 -570.26001
-118.28 11.14 -570.09998
-117.74 11.14 -570.03003
-117.21 11.14 -569.97998
-116.68 11.14 -569.95001
-116.13 11.14 -569.82001
-115.61 11.14 -569.83002
-115.08 11.14 -569.82001
-114.54 11.14 -569.71997
-113.98 11.13 -569.53003
-113.44 11.13 -569.44
-112.87 11.13 -569.22998
-112.3 11.12 -568.96002
-111.68 11.11 -568.5
-111.05 11.1 -567.92999
-110.34 11.08 -566.98999
-109.75 11.07 -566.63
-109.22 11.07 -566.54999
-108.69 11.07 -566.52002
-108.17 11.07 -566.48999
-107.63 11.07 -566.40997
-107.11 11.07 -566.38
-106.59 11.07 -566.40002
-106.05 11.07 -566.28998
-105.53 11.07 -566.27002
-104.99 11.06 -566.17999
-104.47 11.06 -566.17999
-103.95 11.06 -566.15997
-103.43 11.06 -566.15002
-102.91 11.06 -566.15997
-102.4 11.07 -566.21997
-101.88 11.06 -566.17999
-101.35 11.06 -566.15997
-100.83 11.06 -566.15997
-100.32 11.06 -566.15997
-99.790001 11.06 -566.14001
-99.269997 11.06 -566.10999
-98.760002 11.06 -566.17999
-98.25 11.06 -566.21002
-97.730003 11.06 -566.22998
-97.220001 11.07 -566.27002
-96.699997 11.07 -566.27002
-96.190002 11.07 -566.34003
-95.68 11.07 -566.39001
-95.150002 11.07 -566.34003
-94.639999 11.07 -566.39001
-94.129997 11.07 -566.41998
-93.629997 11.07 -566.56
-93.110001 11.07 -566.53998
-92.610001 11.07 -566.66998
-92.110001 11.07 -566.77002
-91.610001 11.08 -566.90002
-91.099998 11.08 -566.96002
-90.599998 11.08 -567.04999
-90.099998 11.08 -567.17999
-89.610001 11.09 -567.38
-89.099998 11.09 -567.41998
-88.589996 11.09 -567.51001
-88.089996 11.09 -567.66998
-87.599998 11.1 -567.84003
-87.099998 11.1 -568
-86.620003 11.1 -568.21997
-86.110001 11.11 -568.33002
-85.620003 11.11 -568.47998
-85.129997 11.11 -568.70001
-84.629997 11.12 -568.88
-84.139999 11.12 -569.08002
-83.660004 11.13 -569.34998
-83.169998 11.13 -569.53003
-82.68 11.13 -569.81
-82.190002 11.14 -570.01001
-81.709999 11.14 -570.27002
-81.209999 11.15 -570.45001
-80.730003 11.15 -570.77002
-80.239998 11.16 -570.95001
-79.75 11.16 -571.22998
-79.269997 11.17 -571.52002
-78.779999 11.17 -571.73999
-78.290001 11.18 -572.02002
-77.82 11.19 -572.42999
-77.330002 11.19 -572.67999
-76.849998 11.2 -573
-76.370003 11.2 -573.34003
-75.900002 11.21 -573.72998
-75.410004 11.22 -574.03003
-74.93 11.22 -574.40002
-74.470001 11.23 -574.87
-73.989998 11.24 -575.25
-73.510002 11.25 -575.58002
-73.040001 11.26 -576.01001
-72.559998 11.26 -576.39001
-72.07 11.27 -576.72998
-71.599998 11.28 -577.22998
-71.139999 11.29 -577.76001
-70.669998 11.3 -578.20001
-70.209999 11.31 -578.76001
-69.739998 11.32 -579.26001
-69.279999 11.33 -579.88
-68.830002 11.35 -580.53998
-68.379997 11.36 -581.21997
-67.93 11.37 -581.90997
-67.489998 11.39 -582.70001
-67.040001 11.4 -583.42999
-66.599998 11.42 -584.28998
-66.150002 11.44 -585.07001
-65.75 11.46 -586.20001
-65.32 11.48 -587.15002
-64.900002 11.5 -588.27002
-64.5 11.52 -589.47998
-64.120003 11.55 -590.96997
-63.77 11.59 -592.70001
-63.439999 11.63 -594.67999
-67.660004 12.62 -644.60999
-67.07 12.62 -644.59998
-66.470001 12.62 -644.53998
-65.870003 12.61 -644.45001
-65.290001 12.61 -644.53003
-64.68 12.61 -644.40997
-64.089996 12.61 -644.38
-63.490002 12.61 -644.27002
-62.889999 12.61 -644.21997
-62.299999 12.61 -644.22998
-61.709999 12.61 -644.28003
-61.139999 12.61 -644.47998
-60.560001 12.62 -644.60999
-59.990002 12.62 -644.81
-59.419998 12.63 -645.10999
-58.849998 12.63 -645.29999
-58.290001 12.64 -645.59998
-57.709999 12.64 -645.81
-57.139999 12.64 -646
-56.549999 12.64 -646.04999
-55.959999 12.64 -646.08002
-55.369999 12.65 -646.20001
-54.799999 12.65 -646.40997
-54.220001 12.65 -646.54999
-53.650002 12.66 -646.90997
-53.09 12.67 -647.27002
-52.529999 12.68 -647.75
-52 12.69 -648.45001
-51.48 12.71 -649.44
-50.990002 12.74 -650.76001
-50.540001 12.78 -652.67999
-50.07 12.81 -654.29999
-40.790001 13.11 -669.33002
-40.16 13.1 -669.06
-39.52 13.09 -668.69
-38.889999 13.09 -668.48999
-38.279999 13.09 -668.54999
-37.669998 13.09 -668.60999
-37.07 13.09 -668.73999
-36.470001 13.1 -669.01001
-35.869999 13.1 -669.32001
-35.27 13.11 -669.60999
-34.68 13.12 -669.96002
-34.080002 13.13 -670.41998
-33.490002 13.14 -670.87
-32.900002 13.14 -671.34003
-32.299999 13.15 -671.70001
-31.709999 13.16 -672.27002
-31.110001 13.17 -672.66998
-30.51 13.18 -673.06
-29.92 13.19 -673.65002
-29.32 13.2 -674.16998
-28.719999 13.2 -674.39001
-28.110001 13.21 -674.78003
-27.52 13.23 -675.41998
-26.92 13.24 -675.90997
-26.32 13.24 -676.37
-25.719999 13.25 -676.90002
-25.110001 13.26 -677.39001
-24.51 13.27 -677.84003
-23.9 13.28 -678.33002
-23.290001 13.29 -678.71997
-22.690001 13.3 -679.25
-22.08 13.31 -679.59003
-21.469999 13.32 -680.09003
-20.860001 13.33 -680.5
-20.25 13.34 -680.97998
-19.639999 13.35 -681.57001
-19.02 13.35 -681.94
-18.4 13.36 -682.15002
-17.790001 13.37 -682.58002
-17.16 13.37 -682.67999
-16.540001 13.37 -682.82001
-15.91 13.37 -682.84003
-15.29 13.38 -683.06
-14.66 13.38 -683.01001
-14.04 13.38 -683.10999
-13.41 13.38 -683.13
-12.79 13.38 -683.28003
-12.16 13.39 -683.51001
-11.54 13.39 -683.63
-10.91 13.39 -683.76001
-10.28 13.38 -683.42999
-9.6400003 13.37 -682.83002
-9.0100002 13.36 -682.26001
-8.3800001 13.35 -681.96002
-7.75 13.35 -681.78003
-7.1199999 13.35 -681.77002
-6.5 13.35 -681.71997
-5.8699999 13.35 -681.58002
-5.2399998 13.35 -681.57001
-4.6199999 13.35 -681.69
-3.99 13.35 -681.71002
-3.3699999 13.35 -681.95001
-2.74 13.35 -681.96997
-2.1199999 13.36 -682.13
-1.49 13.36 -682.21997
-0.86000001 13.37 -682.48999
-0.23999999 13.37 -682.90997
0.38999999 13.38 -683.34003
1.02 13.39 -683.94
1.65 13.4 -684.28998
2.28 13.41 -684.97998
2.9100001 13.43 -685.59998
3.54 13.44 -686.25
4.1799998 13.45 -686.88
4.8099999 13.47 -687.62
5.4499998 13.48 -688.22998
6.0900002 13.49 -688.91998
6.7199998 13.5 -689.37
7.3600001 13.5 -689.28998
7.98 13.49 -688.70001
8.6099997 13.48 -688.14001
9.2299995 13.47 -687.56
9.8599997 13.46 -687.10999
10.48 13.44 -686.37
11.09 13.42 -685.37
11.7 13.4 -684.26001
12.31 13.38 -683
12.9 13.35 -681.56
13.5 13.32 -680.17999
14.11 13.3 -679.40997
14.72 13.29 -678.60999
15.33 13.28 -678.04999
15.92 13.26 -676.94
16.540001 13.25 -676.58002
17.139999 13.24 -676.07001
17.75 13.22 -675.32001
18.360001 13.22 -675.03998
18.959999 13.21 -674.57001
19.58 13.21 -674.42999
20.190001 13.2 -674.03003
20.799999 13.2 -674.02002
21.42 13.2 -673.97998
22.040001 13.2 -673.91998
22.66 13.2 -674.10999
23.280001 13.2 -674.06
23.91 13.2 -674.21997
24.52 13.2 -674.16998
25.139999 13.2 -674.17999
25.76 13.2 -674.17999
26.379999 13.2 -674.10999
27 13.2 -674.08002
27.610001 13.2 -674.01001
28.23 13.2 -673.96002
28.85 13.2 -673.96997
29.469999 13.2 -673.96997
30.08 13.2 -673.96002
30.700001 13.19 -673.87
31.32 13.2 -674
31.950001 13.2 -674.15002
32.57 13.2 -674.26001
33.209999 13.21 -674.59003
33.849998 13.22 -675.03003
34.490002 13.23 -675.45001
35.119999 13.23 -675.65002
35.75 13.23 -675.70001
36.369999 13.23 -675.71002
36.990002 13.23 -675.73999
37.599998 13.23 -675.57001
38.25 13.24 -675.98999
38.91 13.25 -676.66998
39.57 13.27 -677.41998
40.23 13.28 -677.97998
40.849998 13.28 -678.03003
41.48 13.28 -678.10999
42.09 13.28 -677.96997
42.709999 13.27 -677.85999
43.34 13.28 -677.98999
43.970001 13.28 -678.13
44.610001 13.28 -678.34003
45.220001 13.28 -678.21002
45.860001 13.28 -678.34998
46.490002 13.29 -678.46997
47.119999 13.29 -678.58002
47.740002 13.29 -678.59998
48.369999 13.29 -678.63
48.990002 13.29 -678.65997
49.639999 13.3 -678.91998
50.279999 13.3 -679.22998
50.950001 13.31 -679.76001
51.619999 13.33 -680.44
52.349998 13.35 -681.76001
53.009998 13.36 -682.19
90.330002 13.7 -699.10999
90.510002 13.63 -695.58002
90.5 13.53 -690.67999
90.68 13.47 -687.32001
91.059998 13.43 -685.46002
91.470001 13.4 -683.82001
91.900002 13.37 -682.37
92.360001 13.34 -681.12
92.839996 13.32 -680.10999
93.290001 13.3 -678.85999
93.800003 13.28 -677.98999
94.300003 13.26 -677.14001
94.809998 13.25 -676.35999
95.339996 13.24 -675.69
95.879997 13.22 -675.12
96.43 13.21 -674.64001
96.980003 13.21 -674.16998
97.550003 13.2 -673.84003
98.230003 13.21 -674.27002
98.889999 13.21 -674.56
99.660004 13.23 -675.53003
100.56 13.27 -677.40002
101.59 13.32 -680.04999
102.72 13.39 -683.41998
103.75 13.44 -686.03003
104.83 13.5 -688.92999
105.86 13.55 -691.5
-166 10.57 -567.21997
-165.39999 10.56 -566.95001
-164.87 10.56 -566.91998
-164.36 10.56 -566.90997
-163.87 10.56 -567.02002
-163.48 10.57 -567.46997
-163.02 10.57 -567.67999
-162.69 10.59 -568.32001
-162.46001 10.61 -569.34003
-162.12 10.62 -569.96002
-161.69 10.62 -570.28003
-161.16 10.62 -570.25
-160.62 10.62 -570.16998
-160 10.62 -569.82001
-159.42 10.61 -569.62
-158.89999 10.61 -569.62
-158.46001 10.62 -569.92999
-158.09 10.63 -570.46997
-157.64999 10.63 -570.75
-157.19 10.64 -570.97998
-156.74001 10.64 -571.22998
-156.28 10.65 -571.46997
-155.85001 10.65 -571.82001
-155.46001 10.66 -572.28998
-155.08 10.67 -572.81
-154.71001 10.68 -573.38
-154.48 10.7 -574.46997
-154.35001 10.73 -575.90002
-153.89 10.74 -576.17999
-153.36 10.74 -576.16998
-152.81 10.73 -576.08002
-152.33 10.74 -576.23999
-151.74001 10.73 -576.02002
-151.11 10.73 -575.65002
-150.56 10.72 -575.54999
-150.00999 10.72 -575.46997
-149.50999 10.73 -575.59003
-149.03 10.73 -575.73999
-148.52 10.73 -575.82001
-147.97 10.73 -575.71997
-147.39 10.72 -575.52002
-146.81 10.72 -575.31
-146.28 10.72 -575.32001
-145.78999 10.72 -575.45001
-145.3 10.73 -575.59003
-144.8 10.73 -575.73999
-144.25 10.73 -575.63
-143.66 10.72 -575.37
-143.12 10.72 -575.34003
-142.61 10.72 -575.39001
-142.10001 10.72 -575.46997
-141.62 10.73 -575.66998
-141.10001 10.73 -575.67999
-140.55 10.73 -575.60999
-140.00999 10.72 -575.53998
-139.46001 10.72 -575.47998
-138.98 10.73 -575.65002
-138.49001 10.73 -575.82001
-137.94 10.73 -575.72998
-137.39999 10.73 -575.67999
-136.85001 10.73 -575.59003
-136.37 10.73 -575.76001
-135.81 10.73 -575.65002
-135.24001 10.72 -575.45001
-134.67999 10.72 -575.33002
-134.14999 10.72 -575.33002
-133.63 10.72 -575.33002
-133.09 10.72 -575.31
-132.5 10.71 -575.01001
-131.88 10.71 -574.62
-131.3 10.7 -574.38
-130.67 10.69 -573.95001
-130.09 10.69 -573.71997
-129.47 10.68 -573.31
-128.88 10.68 -573.02002
-128.28 10.67 -572.71002
-127.71 10.67 -572.48999
-127.13 10.66 -572.27002
-126.56 10.66 -572.03998
-125.99 10.65 -571.84003
-125.43 10.65 -571.67999
-124.87 10.65 -571.52002
-124.31 10.64 -571.34998
-123.73 10.64 -571.14001
-123.18 10.64 -570.98999
-122.61 10.63 -570.79999
-122.08 10.63 -570.73999
-121.52 10.63 -570.59003
-120.99 10.63 -570.56
-120.45 10.63 -570.46997
-119.92 10.63 -570.42999
-119.36 10.62 -570.28998
-118.83 10.62 -570.22998
-118.29 10.62 -570.15997
-117.76 10.62 -570.14001
-117.21 10.62 -570.02002
-116.69 10.62 -570.01001
-116.15 10.62 -569.91998
-115.62 10.62 -569.90002
-115.09 10.62 -569.84003
-114.57 10.62 -569.85999
-114.01 10.61 -569.67999
-113.44 10.61 -569.44
-112.87 10.6 -569.22998
-112.28 10.6 -568.87
-111.72 10.59 -568.67999
-111.05 10.58 -567.95001
-110.45 10.57 -567.52002
-109.87 10.57 -567.21997
-109.28 10.56 -566.88
-108.72 10.56 -566.65997
-108.17 10.55 -566.52002
-107.67 10.55 -566.59003
-107.12 10.55 -566.45001
-106.59 10.55 -566.40002
-106.05 10.55 -566.31
-105.53 10.55 -566.27002
-105.01 10.55 -566.28998
-104.5 10.55 -566.34003
-103.97 10.55 -566.28998
-103.46 10.55 -566.29999
-102.93 10.55 -566.28998
-102.41 10.55 -566.25
-101.89 10.55 -566.26001
-101.37 10.55 -566.26001
-100.85 10.55 -566.25
-100.32 10.55 -566.20001
-99.809998 10.55 -566.26001
-99.300003 10.55 -566.31
-98.769997 10.55 -566.21997
-98.260002 10.55 -566.27002
-97.75 10.55 -566.32001
-97.230003 10.55 -566.31
-96.720001 10.55 -566.39001
-96.190002 10.55 -566.34998
-95.690002 10.55 -566.42999
-95.169998 10.55 -566.44
-94.68 10.55 -566.58002
-94.169998 10.55 -566.65997
-93.650002 10.55 -566.66998
-93.150002 10.56 -566.77002
-92.629997 10.56 -566.78003
-92.139999 10.56 -566.92999
-91.629997 10.56 -566.98999
-91.120003 10.56 -567.07001
-90.620003 10.56 -567.19
-90.120003 10.57 -567.33002
-89.620003 10.57 -567.45001
-89.120003 10.57 -567.58002
-88.629997 10.57 -567.76001
-88.120003 10.58 -567.83002
-87.629997 10.58 -568.01001
-87.129997 10.58 -568.15997
-86.629997 10.58 -568.28998
-86.129997 10.59 -568.41998
-85.650002 10.59 -568.67999
-85.150002 10.59 -568.85999
-84.669998 10.6 -569.10999
-84.18 10.6 -569.31
-83.690002 10.61 -569.53998
-83.190002 10.61 -569.71002
-82.699997 10.61 -569.94
-82.209999 10.62 -570.15997
-81.720001 10.62 -570.38
-81.239998 10.63 -570.69
-80.75 10.63 -570.90997
-80.269997 10.64 -571.15997
-79.779999 10.64 -571.40997
-79.279999 10.65 -571.62
-78.800003 10.65 -571.91998
-78.32 10.66 -572.21002
-77.839996 10.66 -572.52002
-77.349998 10.67 -572.79999
-76.879997 10.68 -573.20001
-76.400002 10.68 -573.52002
-75.919998 10.69 -573.88
-75.43 10.69 -574.19
-74.970001 10.7 -574.64001
-74.489998 10.71 -574.98999
-74.010002 10.72 -575.39001
-73.529999 10.72 -575.76001
-73.059998 10.73 -576.19
-72.589996 10.74 -576.65997
-72.099998 10.75 -576.97998
-71.639999 10.76 -577.51001
-71.18 10.77 -578.06
-70.699997 10.78 -578.5
-70.239998 10.79 -579.06
-69.769997 10.8 -579.57001
-69.330002 10.81 -580.29999
-68.870003 10.82 -580.91998
-68.419998 10.83 -581.60999
-67.970001 10.85 -582.26001
-67.529999 10.86 -583.08002
-67.080002 10.88 -583.81
-66.639999 10.89 -584.65002
-66.209999 10.91 -585.53003
-65.790001 10.93 -586.59003
-65.370003 10.95 -587.59003
-64.959999 10.97 -588.78998
-64.57 10.99 -590.09003
-64.209999 11.03 -591.73999
-63.830002 11.05 -593.29999
-63.700001 11.13 -597.03998
-67.360001 11.87 -636.23999
-67.699997 12.03 -644.98999
-67.099998 12.03 -644.85999
-66.489998 12.03 -644.66998
-65.900002 12.03 -644.70001
-65.309998 12.03 -644.72998
-64.709999 12.03 -644.63
-64.110001 12.02 -644.59003
-63.5 12.02 -644.41998
-62.91 12.02 -644.40002
-62.310001 12.02 -644.37
-61.73 12.02 -644.46997
-61.150002 12.02 -644.54999
-60.57 12.03 -644.73999
-60 12.03 -644.90997
-59.43 12.03 -645.15002
-58.860001 12.04 -645.39001
-58.299999 12.05 -645.78998
-57.720001 12.05 -645.88
-57.139999 12.05 -646.08002
-56.560001 12.05 -646.20001
-55.970001 12.06 -646.26001
-55.389999 12.06 -646.38
-54.810001 12.06 -646.57001
-54.240002 12.07 -646.82001
-53.66 12.07 -646.97998
-53.09 12.07 -647.29999
-52.540001 12.08 -647.82001
-52 12.1 -648.44
-51.470001 12.11 -649.34003
-50.970001 12.14 -650.48999
-50.509998 12.17 -652.31
-50.049999 12.2 -654.01001
-49.619999 12.24 -656.28998
-49.150002 12.28 -658.03003
-48.639999 12.3 -659.32001
-40.689999 12.46 -667.78998
-40.07 12.46 -667.65002
-39.459999 12.46 -667.65997
-38.84 12.46 -667.57001
-38.259998 12.47 -668.16998
-37.68 12.48 -668.79999
-37.09 12.49 -669.09998
-36.5 12.49 -669.5
-35.900002 12.5 -669.90997
-35.299999 12.51 -670.19
-34.720001 12.52 -670.75
-34.119999 12.53 -671.17999
-33.529999 12.53 -671.56
-32.93 12.54 -671.97998
-32.330002 12.55 -672.42999
-31.74 12.56 -672.87
-31.139999 12.57 -673.32001
-30.540001 12.57 -673.77002
-29.959999 12.59 -674.45001
-29.360001 12.59 -674.85999
-28.76 12.6 -675.37
-28.15 12.61 -675.78003
-27.559999 12.62 -676.37
-26.950001 12.63 -676.63
-26.360001 12.64 -677.42999
-25.74 12.65 -677.64001
-25.139999 12.66 -678.20001
-24.540001 12.67 -678.78998
-23.93 12.68 -679.13
-23.33 12.69 -679.76001
-22.719999 12.7 -680.21997
-22.120001 12.71 -680.91998
-21.51 12.72 -681.38
-20.91 12.73 -682.14001
-20.290001 12.74 -682.34003
-19.67 12.74 -682.65997
-19.049999 12.74 -682.78003
-18.42 12.75 -682.90997
-17.799999 12.75 -682.90997
-17.17 12.75 -682.87
-16.540001 12.75 -683.03003
-15.92 12.75 -683.10999
-15.29 12.75 -683.16998
-14.67 12.75 -683.23999
-14.04 12.76 -683.38
-13.42 12.76 -683.42999
-12.79 12.76 -683.60999
-12.17 12.76 -683.71002
-11.54 12.77 -683.96002
-10.92 12.77 -684.03003
-10.28 12.76 -683.79999
-9.6499996 12.76 -683.40997
-9.0100002 12.74 -682.64001
-8.3800001 12.73 -682.29999
-7.75 12.73 -682.06
-7.1300001 12.73 -682.07001
-6.5 12.73 -682.02002
-5.8699999 12.73 -682
-5.25 12.73 -681.90997
-4.6199999 12.73 -682.02002
-4 12.73 -682.13
-3.3699999 12.73 -682.25
-2.74 12.74 -682.40002
-2.1199999 12.74 -682.51001
-1.49 12.75 -682.84998
-0.86000001 12.75 -683.15002
-0.23999999 12.76 -683.58002
0.38999999 12.77 -683.96002
1.02 12.78 -684.51001
1.65 12.78 -684.88
2.28 12.79 -685.45001
2.9100001 12.8 -685.98999
3.54 12.82 -686.69
4.1799998 12.83 -687.09998
4.8099999 12.84 -687.76001
5.4499998 12.86 -688.66998
6.0900002 12.88 -689.76001
6.73 12.88 -690.09003
7.3499999 12.86 -688.94
9.2200003 12.81 -686.46002
9.8400002 12.81 -686.21997
10.48 12.82 -686.71002
11.11 12.82 -686.90002
11.73 12.81 -686.12
12.37 12.81 -686.38
12.99 12.8 -685.88
13.6 12.78 -684.83002
14.21 12.77 -683.90997
14.8 12.74 -682.32001
15.4 12.72 -681.39001
16.01 12.7 -680.38
16.620001 12.69 -679.96002
17.23 12.68 -679.47998
17.84 12.67 -678.91998
18.450001 12.66 -678.21997
19.049999 12.65 -677.59998
19.66 12.64 -677.13
20.27 12.63 -676.78003
20.879999 12.63 -676.54999
21.5 12.62 -676.34998
22.110001 12.62 -675.97998
22.719999 12.61 -675.73999
23.33 12.61 -675.57001
23.959999 12.61 -675.59003
24.57 12.6 -675.38
25.18 12.6 -675.15997
25.799999 12.6 -675.27002
26.41 12.6 -675.03003
27.030001 12.59 -674.81
27.639999 12.59 -674.72998
28.26 12.59 -674.72998
28.879999 12.59 -674.78003
29.5 12.59 -674.70001
30.120001 12.59 -674.73999
30.74 12.59 -674.78998
31.370001 12.6 -674.92999
32.009998 12.6 -675.28998
32.630001 12.61 -675.46002
33.279999 12.62 -676
33.93 12.63 -676.53998
34.560001 12.63 -676.76001
35.18 12.63 -676.79999
35.810001 12.63 -676.79999
36.439999 12.64 -677.01001
37.110001 12.65 -677.90002
37.810001 12.68 -679.20001
38.490002 12.7 -680.19
39.169998 12.72 -681.27002
39.810001 12.72 -681.35999
40.450001 12.73 -681.76001
41.09 12.73 -681.87
41.720001 12.73 -682.01001
42.32 12.72 -681.54999
42.93 12.72 -681.22998
43.540001 12.71 -680.97998
44.119999 12.7 -680.37
44.73 12.7 -680.13
45.330002 12.69 -679.82001
45.939999 12.68 -679.51001
46.549999 12.68 -679.35999
47.169998 12.68 -679.28998
47.790001 12.68 -679.19
48.400002 12.68 -679.08002
49.040001 12.68 -679.23999
49.68 12.68 -679.46002
50.330002 12.69 -679.87
51.009998 12.7 -680.52002
51.700001 12.72 -681.37
52.380001 12.73 -682.07001
90.870003 13.04 -698.34998
91.050003 12.98 -694.85999
90.980003 12.88 -689.53998
91.300003 12.83 -687.22998
91.699997 12.8 -685.51001
92.160004 12.78 -684.26001
92.589996 12.75 -682.81
93.050003 12.73 -681.58002
93.519997 12.71 -680.52002
94.07 12.7 -679.91998
94.559998 12.68 -678.96997
95.080002 12.66 -678.25
95.599998 12.65 -677.54999
96.139999 12.64 -676.92999
96.730003 12.64 -676.75
97.32 12.63 -676.53003
97.919998 12.63 -676.35999
98.559998 12.63 -676.48999
99.269997 12.64 -677.07001
100.07 12.66 -678.29999
101.04 12.71 -680.56
102.03 12.75 -682.96002
103.03 12.8 -685.42999
103.98 12.84 -687.53003
105.03 12.89 -690.22998
105.94 12.93 -692.03003
-166.06 10.05 -567.42999
-165.45 10.04 -567.10999
-164.91 10.04 -567.03003
-164.39999 10.04 -567.04999
-163.92999 10.05 -567.22998
-163.50999 10.05 -567.54999
-163.06 10.06 -567.82001
-162.75999 10.07 -568.54999
-162.48 10.09 -569.40997
-162.16 10.1 -570.07001
-161.71001 10.1 -570.32001
-161.21001 10.1 -570.40997
-160.67999 10.1 -570.39001
-160.09 10.1 -570.14001
-159.50999 10.1 -569.92999
-158.99001 10.1 -569.96002
-158.59 10.1 -570.38
-158.14 10.11 -570.63
-157.64 10.11 -570.70001
-157.13 10.11 -570.77002
-156.64999 10.11 -570.92999
-156.19 10.12 -571.15997
-155.78 10.12 -571.56
-155.41 10.13 -572.09998
-155.03 10.14 -572.64001
-154.82001 10.16 -573.76001
-154.7 10.19 -575.26001
-154.45 10.21 -576.28998
-153.92 10.21 -576.28003
-153.38 10.21 -576.23999
-152.85001 10.21 -576.22998
-152.37 10.21 -576.38
-151.8 10.21 -576.25
-151.16 10.2 -575.82001
-150.58 10.2 -575.62
-150.03999 10.2 -575.59998
-149.52 10.2 -575.60999
-149.05 10.2 -575.84003
-148.55 10.2 -575.95001
-148.00999 10.2 -575.87
-147.39999 10.2 -575.59003
-146.85001 10.2 -575.46997
-146.3 10.19 -575.40997
-145.78999 10.2 -575.46002
-145.32001 10.2 -575.67999
-144.84 10.2 -575.88
-144.28 10.2 -575.73999
-143.7 10.2 -575.54999
-143.14999 10.2 -575.46002
-142.62 10.2 -575.45001
-142.12 10.2 -575.53003
-141.62 10.2 -575.67999
-141.11 10.2 -575.71997
-140.58 10.2 -575.71997
-140.02 10.2 -575.60999
-139.49001 10.2 -575.59003
-138.99001 10.2 -575.71002
-138.5 10.2 -575.87
-137.99001 10.2 -575.90997
-137.41 10.2 -575.70001
-136.86 10.2 -575.60999
-136.34 10.2 -575.65002
-135.83 10.2 -575.72998
-135.25999 10.2 -575.53003
-134.7 10.19 -575.40002
-134.13 10.19 -575.23999
-133.64 10.19 -575.39001
-133.11 10.19 -575.40002
-132.50999 10.19 -575.09003
-131.92 10.18 -574.78003
-131.33 10.18 -574.53003
-130.71001 10.17 -574.10999
-130.12 10.17 -573.87
-129.49001 10.16 -573.39001
-128.89 10.15 -573.09003
-128.31 10.15 -572.85999
-127.73 10.14 -572.59998
-127.16 10.14 -572.37
-126.58 10.14 -572.16998
-126.01 10.13 -571.92999
-125.45 10.13 -571.79999
-124.89 10.13 -571.62
-124.33 10.12 -571.46002
-123.76 10.12 -571.25
-123.21 10.12 -571.15997
-122.65 10.11 -570.96002
-122.1 10.11 -570.85999
-121.54 10.11 -570.66998
-121.01 10.11 -570.63
-120.46 10.11 -570.5
-119.92 10.1 -570.42999
-119.38 10.1 -570.34998
-118.85 10.1 -570.33002
-118.31 10.1 -570.22998
-117.77 10.1 -570.15997
-117.23 10.1 -570.08002
-116.7 10.1 -570.04999
-116.16 10.1 -569.95001
-115.64 10.1 -569.96997
-115.11 10.1 -569.95001
-114.56 10.09 -569.79999
-113.97 10.09 -569.47998
-113.4 10.08 -569.22998
-112.82 10.08 -568.97998
-112.22 10.07 -568.57001
-111.56 10.06 -567.88
-111 10.05 -567.67999
-110.43 10.05 -567.41998
-109.88 10.05 -567.26001
-109.29 10.04 -566.94
-108.72 10.04 -566.67999
-108.18 10.03 -566.58002
-107.66 10.03 -566.53998
-107.12 10.03 -566.44
-106.59 10.03 -566.38
-106.06 10.03 -566.34998
-105.54 10.03 -566.32001
-105.02 10.03 -566.33002
-104.5 10.03 -566.31
-103.98 10.03 -566.29999
-103.47 10.03 -566.38
-102.94 10.03 -566.32001
-102.4 10.03 -566.21002
-101.89 10.03 -566.23999
-101.39 10.03 -566.35999
-100.86 10.03 -566.28998
-100.33 10.03 -566.22998
-99.82 10.03 -566.31
-99.300003 10.03 -566.28998
-98.779999 10.03 -566.27002
-98.25 10.03 -566.23999
-97.760002 10.03 -566.37
-97.239998 10.03 -566.38
-96.720001 10.03 -566.37
-96.199997 10.03 -566.40002
-95.699997 10.03 -566.52002
-95.190002 10.03 -566.57001
-94.68 10.03 -566.59003
-94.169998 10.03 -566.63
-93.660004 10.04 -566.71997
-93.150002 10.04 -566.78998
-92.650002 10.04 -566.90002
-92.139999 10.04 -566.97998
-91.639999 10.04 -567.09003
-91.150002 10.05 -567.26001
-90.629997 10.05 -567.27002
-90.139999 10.05 -567.45001
-89.639999 10.05 -567.58002
-89.129997 10.05 -567.65997
-88.639999 10.06 -567.83002
-88.139999 10.06 -567.98999
-87.650002 10.06 -568.15997
-87.150002 10.06 -568.27002
-86.650002 10.07 -568.41998
-86.160004 10.07 -568.60999
-85.669998 10.07 -568.81
-85.169998 10.08 -569
-84.690002 10.08 -569.23999
-84.190002 10.08 -569.40002
-83.709999 10.09 -569.67999
-83.220001 10.09 -569.87
-82.730003 10.1 -570.13
-82.230003 10.1 -570.29999
-81.75 10.1 -570.59998
-81.260002 10.11 -570.77002
-80.769997 10.11 -571.03998
-80.279999 10.12 -571.25
-79.800003 10.12 -571.56
-79.309998 10.13 -571.84998
-78.830002 10.13 -572.12
-78.330002 10.14 -572.33002
-77.860001 10.14 -572.67999
-77.370003 10.15 -572.95001
-76.889999 10.15 -573.29999
-76.410004 10.16 -573.63
-75.93 10.16 -573.97998
-75.449997 10.17 -574.34003
-74.980003 10.18 -574.77002
-74.5 10.19 -575.12
-74.029999 10.19 -575.54999
-73.559998 10.2 -576.02002
-73.089996 10.21 -576.44
-72.610001 10.22 -576.79999
-72.139999 10.22 -577.28003
-71.669998 10.23 -577.77002
-71.199997 10.24 -578.21002
-70.730003 10.25 -578.67999
-70.269997 10.26 -579.28998
-69.82 10.27 -579.91998
-69.370003 10.28 -580.65997
-68.900002 10.29 -581.16998
-68.470001 10.31 -582.01001
-68 10.32 -582.56
-67.559998 10.33 -583.37
-67.120003 10.35 -584.15997
-66.690002 10.36 -585.03998
-66.260002 10.38 -586
-65.839996 10.4 -587.02002
-65.419998 10.42 -588.06
-65.029999 10.44 -589.39001
-64.620003 10.46 -590.60999
-64.269997 10.49 -592.33002
-63.91 10.52 -594.01001
-68.25 11.43 -644.59003
-67.720001 11.44 -645.10999
-67.120003 11.44 -645.03998
-66.5 11.44 -644.84003
-65.93 11.44 -644.96997
-65.330002 11.44 -644.94
-64.720001 11.44 -644.77002
-64.120003 11.43 -644.65997
-63.52 11.43 -644.65997
-62.919998 11.43 -644.51001
-62.330002 11.43 -644.56
-61.75 11.43 -644.66998
-61.169998 11.44 -644.73999
-60.59 11.44 -644.89001
-60.009998 11.44 -645.08002
-59.439999 11.44 -645.23999
-58.869999 11.45 -645.53003
-58.310001 11.46 -645.88
-57.73 11.46 -646.02002
-57.150002 11.46 -646.15997
-56.560001 11.46 -646.23999
-55.970001 11.46 -646.28003
-55.389999 11.46 -646.40002
-54.810001 11.47 -646.58002
-54.240002 11.47 -646.84998
-53.669998 11.48 -647.15002
-53.110001 11.48 -647.51001
-52.540001 11.49 -647.84998
-52 11.5 -648.5
-51.470001 11.52 -649.25
-50.970001 11.54 -650.46002
-50.48 11.56 -651.88
-50.02 11.59 -653.63
-49.580002 11.63 -655.76001
-49.09 11.66 -657.16998
-48.59 11.68 -658.59003
-48.060001 11.7 -659.65002
-47.540001 11.72 -660.71997
-41.240002 11.83 -666.72998
-40.610001 11.82 -666.46997
-40 11.82 -666.40997
-39.389999 11.83 -666.58002
-38.82 11.84 -667.28998
-38.290001 11.86 -668.64001
-37.709999 11.87 -669.25
-37.119999 11.88 -669.63
-36.52 11.89 -669.95001
-35.939999 11.9 -670.54999
-35.34 11.9 -670.90997
-34.75 11.91 -671.37
-34.169998 11.92 -672.02002
-33.57 11.93 -672.39001
-32.970001 11.94 -672.70001
-32.380001 11.95 -673.31
-31.780001 11.96 -673.78998
-31.18 11.96 -674.09003
-30.58 11.97 -674.58002
-29.99 11.98 -675.28998
-29.389999 11.99 -675.60999
-28.790001 12 -676.19
-28.190001 12.01 -676.63
-27.59 12.02 -677.22998
-26.99 12.03 -677.69
-26.389999 12.04 -678.26001
-25.790001 12.04 -678.71997
-25.18 12.05 -679.28998
-24.58 12.06 -679.73999
-23.98 12.07 -680.37
-23.370001 12.09 -680.97998
-22.77 12.1 -681.78003
-22.16 12.11 -682.21002
-21.549999 12.12 -682.75
-20.940001 12.12 -683.08002
-20.309999 12.12 -683.15002
-19.68 12.12 -683.07001
-19.049999 12.12 -683.04999
-18.43 12.12 -683.07001
-17.799999 12.12 -683.07001
-17.17 12.12 -683.10999
-16.549999 12.12 -683.13
-15.92 12.13 -683.27002
-15.3 12.13 -683.38
-14.67 12.13 -683.27002
-14.04 12.13 -683.5
-13.42 12.13 -683.53998
-12.8 12.14 -683.89001
-12.17 12.14 -684.03998
-11.55 12.14 -684.22998
-10.92 12.14 -684.32001
-10.29 12.14 -684.25
-9.6599998 12.14 -683.78003
-9.0200005 12.12 -683.09998
-8.3900003 12.12 -682.66998
-7.7600002 12.11 -682.40002
-7.1300001 12.11 -682.31
-6.5 12.11 -682.27002
-5.8800001 12.11 -682.28998
-5.25 12.11 -682.31
-4.6199999 12.11 -682.27002
-4 12.11 -682.40002
-3.3699999 12.12 -682.66998
-2.75 12.12 -682.85999
-2.1199999 12.12 -682.95001
-1.49 12.12 -683.16998
-0.87 12.13 -683.54999
-0.23999999 12.14 -683.89001
0.38999999 12.14 -684.25
1.02 12.15 -684.72998
1.65 12.16 -685.12
2.28 12.17 -685.83002
2.9100001 12.18 -686.34003
3.54 12.19 -686.72998
4.1799998 12.2 -687.42999
4.8200002 12.22 -688.46002
5.46 12.24 -689.44
6.0999999 12.26 -690.48999
6.73 12.25 -690.34003
12.99 12.18 -686.07001
13.71 12.26 -690.59998
14.33 12.25 -689.98999
14.92 12.21 -687.67999
15.52 12.18 -686.48999
16.120001 12.16 -685.08002
16.73 12.14 -684.21002
17.309999 12.11 -682.47998
17.93 12.11 -682.28003
18.51 12.08 -680.75
19.129999 12.07 -680.26001
19.74 12.06 -679.84003
20.34 12.05 -679.09998
20.950001 12.04 -678.56
21.559999 12.04 -678.21002
22.16 12.02 -677.60999
22.77 12.02 -677.25
23.379999 12.01 -676.91998
23.99 12.01 -676.53998
24.6 12 -676.33002
25.219999 12 -676.21997
25.83 12 -676.03003
26.440001 11.99 -675.72998
27.059999 11.99 -675.65002
27.68 11.99 -675.71002
28.299999 11.99 -675.58002
28.92 11.99 -675.64001
29.540001 11.99 -675.71002
30.16 11.99 -675.71997
30.790001 11.99 -675.94
31.43 12 -676.20001
32.080002 12.01 -676.88
32.720001 12.02 -677.27002
33.369999 12.03 -677.71002
34.009998 12.03 -678.10999
34.650002 12.04 -678.5
35.290001 12.05 -678.81
35.970001 12.06 -679.81
36.650002 12.08 -680.82001
37.310001 12.09 -681.44
37.970001 12.1 -682.02002
38.599998 12.11 -682.09998
39.240002 12.11 -682.40997
39.889999 12.12 -682.83002
40.540001 12.12 -683.12
41.169998 12.13 -683.17999
41.810001 12.13 -683.40002
42.439999 12.13 -683.38
43.049999 12.13 -683.21002
43.619999 12.11 -682.26001
44.189999 12.09 -681.40002
44.77 12.08 -680.78003
45.369999 12.07 -680.34003
