# .PCD v0.7 - Point Cloud Data file format
VERSION 0.7
FIELDS x y z
SIZE 4 4 4
TYPE F F F
COUNT 1 1 1
WIDTH 1610
HEIGHT 1
VIEWPOINT 0 0 0 1 0 0 0
POINTS 1610
DATA ascii
-82.839996 -93.290001 -589.27002
-82.339996 -93.339996 -589.53003
-81.849998 -93.400002 -589.90997
-81.370003 -93.470001 -590.35999
-80.889999 -93.529999 -590.76001
-80.400002 -93.589996 -591.13
-79.879997 -93.620003 -591.28998
-79.389999 -93.68 -591.66998
-78.889999 -93.730003 -591.98999
-78.400002 -93.800003 -592.40997
-77.910004 -93.849998 -592.76001
-77.400002 -93.910004 -593.09003
-76.910004 -93.970001 -593.46997
-76.449997 -94.07 -594.09998
-75.970001 -94.150002 -594.62
-75.470001 -94.199997 -594.92999
-74.970001 -94.260002 -595.33002
-74.5 -94.360001 -595.92999
-74.019997 -94.449997 -596.46002
-73.529999 -94.519997 -596.91998
-73.07 -94.629997 -597.58002
-72.599998 -94.739998 -598.27002
-72.120003 -94.830002 -598.83002
-71.690002 -94.980003 -599.77002
-71.199997 -95.059998 -600.28998
-70.779999 -95.239998 -601.40997
-70.300003 -95.330002 -601.96002
-69.870003 -95.5 -603.03998
-69.449997 -95.690002 -604.17999
-69 -95.82 -605.02002
-68.540001 -95.959999 -605.90997
-68.019997 -96.010002 -606.19
-67.589996 -96.18 -607.28998
-67.169998 -96.389999 -608.56
-66.599998 -96.370003 -608.42999
-66.110001 -96.459999 -609.03003
-65.639999 -96.599998 -609.89001
-65.169998 -96.730003 -610.71002
-64.739998 -96.919998 -611.87
-64.309998 -97.120003 -613.14001
-63.830002 -97.25 -613.92999
-63.41 -97.480003 -615.33002
-62.98 -97.68 -616.62
-62.779999 -98.260002 -620.19
-65.949997 -107.09 -675.13
-65.459999 -107.31 -676.52002
-65.010002 -107.59 -678.26001
-64.540001 -107.85 -679.89001
-64.089996 -108.14 -681.71002
-63.669998 -108.49 -683.89001
-63.380001 -109.07 -687.5
-62.98 -109.47 -689.98999
-154.47 -105.08 -658.81
-153.67999 -104.94 -657.97998
-152.92999 -104.85 -657.39001
-152.2 -104.76 -656.82001
-151.42 -104.64 -656.08002
-150.78 -104.61 -655.92999
-150.12 -104.57 -655.69
-149.47 -104.54 -655.47998
-148.83 -104.51 -655.28998
-148.21001 -104.5 -655.21002
-147.50999 -104.43 -654.77002
-146.87 -104.4 -654.60999
-146.3 -104.42 -654.73999
-145.71001 -104.43 -654.81
-145.08 -104.41 -654.65997
-144.53 -104.44 -654.87
-143.96001 -104.47 -655.03998
-143.37 -104.48 -655.08002
-142.81 -104.51 -655.28003
-142.25999 -104.55 -655.51001
-141.72 -104.59 -655.78998
-141.19 -104.65 -656.12
-140.63 -104.67 -656.28998
-140.06 -104.7 -656.44
-139.44 -104.69 -656.39001
-116.35 -93.410004 -586.62
-115.66 -93.290001 -585.85999
-115.02 -93.209999 -585.34998
-114.37 -93.110001 -584.77002
-113.74 -93.040001 -584.31
-113.14 -92.980003 -583.96997
-112.53 -92.919998 -583.59003
-111.96 -92.889999 -583.39001
-111.37 -92.849998 -583.14001
-110.8 -92.82 -582.94
-110.24 -92.800003 -582.83002
-109.71 -92.800003 -582.81
-109.14 -92.760002 -582.60999
-108.57 -92.739998 -582.44
-108.02 -92.720001 -582.37
-107.49 -92.720001 -582.37
-107 -92.760002 -582.60999
-106.47 -92.760002 -582.62
-105.84 -92.68 -582.13
-105.28 -92.660004 -581.96002
-104.75 -92.660004 -581.97998
-104.25 -92.690002 -582.16998
-103.75 -92.720001 -582.34998
-103.2 -92.699997 -582.25
-102.63 -92.68 -582.07001
-102.1 -92.68 -582.09998
-101.6 -92.709999 -582.28003
-101.08 -92.720001 -582.37
-100.57 -92.75 -582.52002
-100.04 -92.75 -582.51001
-99.510002 -92.75 -582.54999
-99 -92.779999 -582.70001
-98.510002 -92.809998 -582.92999
-98 -92.830002 -583.06
-97.480003 -92.849998 -583.15997
-96.970001 -92.879997 -583.34998
-96.449997 -92.889999 -583.39001
-95.940002 -92.910004 -583.53998
-95.419998 -92.93 -583.65002
-94.900002 -92.940002 -583.72998
-94.389999 -92.970001 -583.90002
-93.900002 -93.010002 -584.15002
-93.400002 -93.050003 -584.40997
-92.910004 -93.099998 -584.69
-92.389999 -93.110001 -584.77002
-91.860001 -93.120003 -584.81
-91.360001 -93.150002 -585.03003
-90.860001 -93.190002 -585.26001
-90.32 -93.190002 -585.28003
-89.82 -93.220001 -585.46002
-89.309998 -93.260002 -585.67999
-88.82 -93.309998 -585.97998
-88.309998 -93.339996 -586.16998
-87.82 -93.379997 -586.46997
-87.309998 -93.410004 -586.63
-86.809998 -93.459999 -586.91998
-86.330002 -93.510002 -587.28003
-85.839996 -93.57 -587.62
-85.339996 -93.610001 -587.88
-84.830002 -93.639999 -588.08002
-84.330002 -93.690002 -588.37
-83.860001 -93.760002 -588.79999
-83.379997 -93.830002 -589.21997
-82.870003 -93.860001 -589.45001
-82.379997 -93.919998 -589.78998
-81.879997 -93.970001 -590.10999
-81.400002 -94.040001 -590.54999
-80.900002 -94.089996 -590.87
-80.419998 -94.160004 -591.29999
-79.910004 -94.199997 -591.51001
-79.400002 -94.239998 -591.78998
-78.900002 -94.290001 -592.08002
-78.419998 -94.360001 -592.51001
-77.910004 -94.410004 -592.81
-77.43 -94.480003 -593.26001
-76.93 -94.529999 -593.60999
-76.459999 -94.620003 -594.15002
-75.980003 -94.709999 -594.66998
-75.5 -94.790001 -595.16998
-74.989998 -94.839996 -595.5
-74.5 -94.900002 -595.89001
-74.019997 -94.989998 -596.45001
-73.559998 -95.110001 -597.16998
-73.089996 -95.199997 -597.71997
-72.639999 -95.330002 -598.52002
-72.160004 -95.419998 -599.09003
-71.699997 -95.540001 -599.85999
-71.209999 -95.629997 -600.38
-70.809998 -95.82 -601.59003
-70.330002 -95.919998 -602.22998
-69.919998 -96.120003 -603.46002
-69.480003 -96.279999 -604.41998
-69.019997 -96.410004 -605.25
-68.550003 -96.529999 -605.96997
-68.040001 -96.599998 -606.40997
-67.650002 -96.830002 -607.83002
-67.150002 -96.919998 -608.38
-66.610001 -96.940002 -608.51001
-66.139999 -97.07 -609.29999
-65.660004 -97.18 -610.01001
-65.199997 -97.339996 -610.96997
-64.790001 -97.57 -612.39001
-64.309998 -97.690002 -613.15997
-63.849998 -97.839996 -614.07001
-63.419998 -98.050003 -615.35999
-63.009998 -98.290001 -616.88
-62.799999 -98.849998 -620.34998
-65.550003 -108.08 -677.41998
-65.099998 -108.37 -679.23999
-64.639999 -108.64 -680.91998
-64.160004 -108.89 -682.47998
-63.799999 -109.35 -685.29999
-63.490002 -109.89 -688.65997
-63.060001 -110.26 -690.90997
-154.64 -105.79 -659.5
-153.82001 -105.64 -658.58002
-153.03999 -105.53 -657.84998
-152.36 -105.47 -657.52002
-151.61 -105.37 -656.90997
-150.84 -105.25 -656.15997
-150.17 -105.21 -655.89001
-149.55 -105.2 -655.82001
-148.98 -105.22 -655.94
-148.31 -105.17 -655.64001
-147.7 -105.16 -655.59003
-147.06 -105.14 -655.45001
-146.39999 -105.1 -655.20001
-145.82001 -105.11 -655.28998
-145.2 -105.1 -655.21002
-144.63 -105.12 -655.34003
-144.07001 -105.15 -655.52002
-143.50999 -105.18 -655.72998
-142.92 -105.19 -655.73999
-142.39 -105.24 -656.09998
-141.84 -105.28 -656.32001
-141.27 -105.31 -656.46997
-140.71001 -105.34 -656.67999
-140.14999 -105.37 -656.88
-139.42 -105.28 -656.29999
-116.28 -93.889999 -586.28003
-115.61 -93.779999 -585.60999
-114.96 -93.690002 -585.04999
-114.33 -93.620003 -584.57001
-113.68 -93.519997 -583.97998
-113.05 -93.440002 -583.48999
-112.45 -93.389999 -583.19
-111.89 -93.370003 -583.03003
-111.32 -93.339996 -582.85999
-110.73 -93.290001 -582.59998
-110.18 -93.279999 -582.5
-109.65 -93.279999 -582.51001
-109.13 -93.290001 -582.58002
-108.55 -93.25 -582.34003
-107.99 -93.230003 -582.17999
-107.44 -93.220001 -582.14001
-106.91 -93.220001 -582.14001
-106.43 -93.269997 -582.42999
-105.89 -93.260002 -582.38
-105.29 -93.199997 -582.02002
-104.72 -93.169998 -581.82001
-104.19 -93.169998 -581.85999
-103.7 -93.209999 -582.07001
-103.2 -93.239998 -582.28003
-102.64 -93.220001 -582.13
-102.09 -93.199997 -582.02002
-101.57 -93.209999 -582.09003
-101.06 -93.239998 -582.27002
-100.54 -93.25 -582.34003
-100.03 -93.279999 -582.48999
-99.5 -93.279999 -582.5
-98.980003 -93.290001 -582.58002
-98.489998 -93.330002 -582.79999
-97.980003 -93.360001 -582.97998
-97.459999 -93.370003 -583.08002
-96.949997 -93.400002 -583.21997
-96.43 -93.410004 -583.28998
-95.919998 -93.43 -583.42999
-95.410004 -93.449997 -583.58002
-94.889999 -93.470001 -583.66998
-94.400002 -93.519997 -583.96997
-93.900002 -93.550003 -584.15997
-93.400002 -93.589996 -584.40997
-92.900002 -93.620003 -584.62
-92.400002 -93.660004 -584.84998
-91.860001 -93.650002 -584.82001
-91.349998 -93.68 -584.98999
-90.849998 -93.709999 -585.19
-90.339996 -93.75 -585.39001
-89.82 -93.769997 -585.51001
-89.32 -93.800003 -585.71997
-88.809998 -93.830002 -585.90997
-88.32 -93.879997 -586.21002
-87.830002 -93.93 -586.5
-87.330002 -93.970001 -586.77002
-86.830002 -94.010002 -587.03003
-86.339996 -94.07 -587.35999
-85.860001 -94.120003 -587.71997
-85.349998 -94.160004 -587.94
-84.839996 -94.190002 -588.14001
-84.349998 -94.239998 -588.46997
-83.870003 -94.309998 -588.88
-83.389999 -94.379997 -589.33002
-82.919998 -94.459999 -589.77002
-82.419998 -94.510002 -590.08002
-81.910004 -94.550003 -590.34003
-81.410004 -94.589996 -590.62
-80.919998 -94.650002 -590.95001
-80.440002 -94.730003 -591.44
-79.93 -94.760002 -591.64001
-79.419998 -94.800003 -591.88
-78.919998 -94.849998 -592.19
-78.419998 -94.900002 -592.52002
-77.919998 -94.959999 -592.87
-77.43 -95.029999 -593.29999
-76.949997 -95.099998 -593.72998
-76.470001 -95.18 -594.23999
-75.980003 -95.25 -594.69
-75.5 -95.330002 -595.15997
-75 -95.400002 -595.57001
-74.519997 -95.480003 -596.09998
-74.050003 -95.57 -596.65002
-73.57 -95.669998 -597.25
-73.099998 -95.769997 -597.87
-72.660004 -95.900002 -598.69
-72.169998 -95.989998 -599.20001
-71.709999 -96.110001 -599.96997
-71.239998 -96.209999 -600.58002
-70.849998 -96.43 -601.96002
-70.370003 -96.540001 -602.59998
-69.949997 -96.709999 -603.66998
-69.489998 -96.849998 -604.53998
-69.059998 -97.019997 -605.53998
-68.550003 -97.089996 -606.01001
-68.059998 -97.18 -606.54999
-67.68 -97.440002 -608.14001
-67.150002 -97.470001 -608.34003
-66.620003 -97.510002 -608.58002
-66.160004 -97.669998 -609.54999
-65.660004 -97.75 -610.07001
-65.260002 -97.980003 -611.5
-64.790001 -98.129997 -612.38
-64.300003 -98.239998 -613.07001
-63.860001 -98.419998 -614.17999
-63.470001 -98.690002 -615.82001
-63.040001 -98.900002 -617.16998
-62.68 -99.239998 -619.21002
-65.650002 -108.86 -678.42999
-65.18 -109.12 -680.02002
-64.739998 -109.43 -681.92999
-64.339996 -109.83 -684.35999
-63.950001 -110.23 -686.82001
-63.57 -110.68 -689.59003
-154.66 -106.42 -659.59998
-153.92999 -106.33 -659.04999
-153.24001 -106.27 -658.69
-152.52 -106.19 -658.19
-151.81 -106.11 -657.76001
-151.13 -106.06 -657.44
-150.39999 -105.97 -656.88
-149.71001 -105.91 -656.51001
-149.11 -105.91 -656.5
-148.49001 -105.9 -656.45001
-147.88 -105.89 -656.38
-147.25 -105.88 -656.28998
-146.59 -105.84 -656.03998
-145.96001 -105.82 -655.91998
-145.39999 -105.84 -656.08002
-144.81 -105.85 -656.14001
-144.24001 -105.88 -656.29999
-143.67 -105.9 -656.42999
-143.06 -105.9 -656.40002
-142.50999 -105.93 -656.63
-141.92999 -105.95 -656.73999
-141.37 -105.99 -656.94
-140.82001 -106.02 -657.16998
-140.25 -106.05 -657.33002
-139.64999 -106.05 -657.34998
-116.14 -94.32 -585.57001
-115.46 -94.199997 -584.87
-114.82 -94.120003 -584.35999
-114.25 -94.089996 -584.19
-113.64 -94.019997 -583.79999
-113.01 -93.940002 -583.28998
-112.4 -93.879997 -582.94
-111.81 -93.839996 -582.64001
-111.25 -93.809998 -582.48999
-110.68 -93.790001 -582.33002
-110.13 -93.769997 -582.25
-109.59 -93.769997 -582.21002
-109.07 -93.779999 -582.28998
-108.56 -93.800003 -582.39001
-107.99 -93.769997 -582.21002
-107.41 -93.730003 -581.97998
-106.89 -93.730003 -582
-106.35 -93.730003 -582
-105.86 -93.769997 -582.21997
-105.35 -93.790001 -582.33002
-104.73 -93.720001 -581.90997
-104.17 -93.690002 -581.75
-103.66 -93.709999 -581.84998
-103.15 -93.730003 -582.01001
-102.66 -93.769997 -582.25
-102.09 -93.730003 -582.01001
-101.56 -93.739998 -582.03998
-101.03 -93.75 -582.09998
-100.54 -93.779999 -582.31
-100.01 -93.790001 -582.34003
-99.519997 -93.830002 -582.59003
-99 -93.839996 -582.66998
-98.470001 -93.849998 -582.70001
-97.970001 -93.879997 -582.89001
-97.470001 -93.910004 -583.09003
-96.940002 -93.919998 -583.16998
-96.440002 -93.949997 -583.34998
-95.93 -93.980003 -583.5
-95.419998 -93.989998 -583.62
-94.900002 -94.019997 -583.76001
-94.410004 -94.059998 -584.01001
-93.900002 -94.089996 -584.19
-93.410004 -94.129997 -584.41998
-92.900002 -94.150002 -584.59003
-92.389999 -94.190002 -584.79999
-91.889999 -94.220001 -584.97998
-91.360001 -94.230003 -585.04999
-90.860001 -94.260002 -585.23999
-90.360001 -94.300003 -585.5
-89.849998 -94.330002 -585.66998
-89.339996 -94.349998 -585.83002
-88.82 -94.379997 -585.97998
-88.330002 -94.43 -586.28998
-87.839996 -94.480003 -586.62
-87.360001 -94.540001 -586.96002
-86.870003 -94.589996 -587.29999
-86.349998 -94.620003 -587.45001
-85.849998 -94.660004 -587.71002
-85.370003 -94.720001 -588.04999
-84.870003 -94.769997 -588.34998
-84.370003 -94.809998 -588.63
-83.879997 -94.860001 -588.94
-83.419998 -94.959999 -589.53998
-82.940002 -95.019997 -589.92999
-82.43 -95.059998 -590.13
-81.93 -95.110001 -590.42999
-81.43 -95.160004 -590.73999
-80.940002 -95.209999 -591.09998
-80.440002 -95.269997 -591.46002
-79.949997 -95.330002 -591.82001
-79.459999 -95.389999 -592.17999
-78.940002 -95.419998 -592.37
-78.43 -95.459999 -592.59003
-77.93 -95.519997 -592.97998
-77.459999 -95.610001 -593.53003
-76.959999 -95.660004 -593.84998
-76.470001 -95.730003 -594.26001
-75.989998 -95.809998 -594.73999
-75.510002 -95.889999 -595.22998
-75.029999 -95.970001 -595.76001
-74.550003 -96.059998 -596.27002
-74.059998 -96.139999 -596.78003
-73.589996 -96.239998 -597.40002
-73.110001 -96.330002 -597.92999
-72.68 -96.480003 -598.87
-72.190002 -96.57 -599.39001
-71.730003 -96.68 -600.10999
-71.269997 -96.800003 -600.82001
-70.889999 -97.040001 -602.28998
-70.389999 -97.120003 -602.75
-69.980003 -97.32 -603.97998
-69.510002 -97.440002 -604.71002
-69.080002 -97.610001 -605.78003
-68.57 -97.669998 -606.13
-68.129997 -97.830002 -607.14001
-67.699997 -98.010002 -608.25
-67.139999 -98.019997 -608.28998
-66.650002 -98.120003 -608.90002
-66.18 -98.25 -609.67999
-65.720001 -98.400002 -610.59998
-65.300003 -98.610001 -611.91998
-64.779999 -98.669998 -612.28998
-64.309998 -98.809998 -613.15002
-63.869999 -99 -614.31
-63.5 -99.309998 -616.16998
-63.02 -99.43 -616.94
-62.68 -99.800003 -619.15997
-65.760002 -109.68 -679.58002
-65.32 -109.98 -681.41998
-64.889999 -110.31 -683.46002
-64.5 -110.72 -685.95001
-64.120003 -111.16 -688.64001
-63.66 -111.46 -690.46997
-154.82001 -107.13 -660.26001
-154.03 -107 -659.5
-153.31 -106.92 -659
-152.62 -106.86 -658.65002
-151.91 -106.79 -658.17999
-151.27 -106.76 -658.01001
-150.59 -106.71 -657.69
-149.91 -106.65 -657.34998
-149.33 -106.67 -657.47998
-148.64999 -106.61 -657.12
-148.02 -106.6 -657.02002
-147.45 -106.62 -657.15997
-146.84 -106.62 -657.13
-146.16 -106.56 -656.79999
-145.53999 -106.55 -656.72998
-144.97 -106.57 -656.84998
-144.42999 -106.62 -657.13
-143.83 -106.62 -657.15997
-143.23 -106.63 -657.17999
-142.62 -106.62 -657.12
-142.06 -106.65 -657.33002
-141.48 -106.67 -657.44
-140.89999 -106.69 -657.57001
-140.35001 -106.73 -657.81
-139.88 -106.83 -658.42999
-116.64 -94.82 -585.40002
-116 -94.739998 -584.88
-115.4 -94.690002 -584.57001
-114.76 -94.599998 -584.03003
-114.14 -94.529999 -583.60999
-113.53 -94.470001 -583.23999
-112.97 -94.449997 -583.12
-112.38 -94.400002 -582.81
-111.78 -94.339996 -582.46997
-111.19 -94.300003 -582.21002
-110.64 -94.279999 -582.09003
-110.08 -94.260002 -581.96997
-109.55 -94.260002 -581.98999
-109.01 -94.260002 -581.95001
-108.5 -94.279999 -582.07001
-108 -94.309998 -582.26001
-107.42 -94.260002 -581.98999
-106.84 -94.220001 -581.75
-106.31 -94.230003 -581.78003
-105.78 -94.230003 -581.78003
-105.29 -94.269997 -582.03998
-104.76 -94.279999 -582.08002
-104.18 -94.230003 -581.78003
-103.63 -94.209999 -581.70001
-103.11 -94.220001 -581.75
-102.62 -94.269997 -582.01001
-102.11 -94.290001 -582.15997
-101.54 -94.25 -581.94
-101.01 -94.260002 -581.97998
-100.51 -94.290001 -582.17999
-100 -94.309998 -582.28998
-99.489998 -94.330002 -582.40997
-98.989998 -94.370003 -582.64001
-98.480003 -94.389999 -582.76001
-97.959999 -94.400002 -582.83002
-97.459999 -94.440002 -583.04999
-96.940002 -94.449997 -583.12
-96.43 -94.480003 -583.28998
-95.919998 -94.5 -583.45001
-95.419998 -94.540001 -583.65002
-94.900002 -94.550003 -583.75
-94.419998 -94.599998 -584.04999
-93.900002 -94.620003 -584.17999
-93.389999 -94.650002 -584.33002
-92.889999 -94.68 -584.53998
-92.400002 -94.730003 -584.85999
-91.900002 -94.769997 -585.08002
-91.389999 -94.800003 -585.25
-90.870003 -94.809998 -585.33002
-90.370003 -94.849998 -585.56
-89.889999 -94.910004 -585.95001
-89.370003 -94.93 -586.04999
-88.839996 -94.940002 -586.10999
-88.339996 -94.970001 -586.33002
-87.849998 -95.019997 -586.64001
-87.360001 -95.080002 -586.97998
-86.889999 -95.160004 -587.44
-86.379997 -95.18 -587.60999
-85.860001 -95.209999 -587.77002
-85.370003 -95.269997 -588.10999
-84.889999 -95.330002 -588.51001
-84.400002 -95.379997 -588.79999
-83.910004 -95.440002 -589.15002
-83.440002 -95.519997 -589.65002
-82.970001 -95.599998 -590.12
-82.459999 -95.639999 -590.39001
-81.940002 -95.660004 -590.51001
-81.440002 -95.720001 -590.84998
-80.940002 -95.760002 -591.14001
-80.449997 -95.82 -591.51001
-79.970001 -95.889999 -591.92999
-79.470001 -95.949997 -592.28998
-78.959999 -95.989998 -592.51001
-78.449997 -96.029999 -592.75
-77.949997 -96.080002 -593.09998
-77.470001 -96.160004 -593.59003
-76.989998 -96.239998 -594.03003
-76.489998 -96.300003 -594.40997
-75.989998 -96.360001 -594.77002
-75.519997 -96.449997 -595.34998
-75.050003 -96.550003 -595.94
-74.57 -96.629997 -596.45001
-74.080002 -96.709999 -596.92999
-73.620003 -96.82 -597.58002
-73.129997 -96.900002 -598.09998
-72.699997 -97.059998 -599.03998
-72.209999 -97.139999 -599.54999
-71.739998 -97.25 -600.21997
-71.309998 -97.410004 -601.16998
-70.910004 -97.629997 -602.48999
-70.419998 -97.709999 -602.96997
-70.040001 -97.949997 -604.46002
-69.559998 -98.059998 -605.10999
-69.089996 -98.18 -605.84998
-68.57 -98.230003 -606.15002
-68.199997 -98.489998 -607.73999
-67.690002 -98.57 -608.22998
-67.169998 -98.610001 -608.5
-66.68 -98.720001 -609.15002
-66.199997 -98.839996 -609.90002
-65.809998 -99.099998 -611.45001
-65.300003 -99.169998 -611.89001
-64.769997 -99.220001 -612.21997
-64.32 -99.389999 -613.21997
-63.939999 -99.68 -614.98999
-63.490002 -99.849998 -616.02002
-63.040001 -100.03 -617.14001
-62.669998 -100.34 -619.03998
-65.910004 -110.54 -681.04999
-65.470001 -110.86 -682.97998
-65.010002 -111.15 -684.73999
-64.629997 -111.59 -687.40997
-64.220001 -111.96 -689.67999
-154.92 -107.8 -660.67999
-154.19 -107.72 -660.15997
-153.53 -107.68 -659.90997
-152.78999 -107.59 -659.37
-152.07001 -107.5 -658.85999
-151.44 -107.49 -658.77002
-150.78 -107.45 -658.53003
-150.13 -107.42 -658.32001
-149.48 -107.39 -658.14001
-148.86 -107.37 -658.03003
-148.19 -107.32 -657.73999
-147.48 -107.25 -657.31
-146.91 -107.28 -657.46002
-146.31 -107.28 -657.46997
-145.74001 -107.3 -657.59998
-145.14 -107.3 -657.62
-144.50999 -107.28 -657.48999
-143.92 -107.3 -657.58002
-143.35001 -107.32 -657.71002
-142.75 -107.33 -657.75
-142.19 -107.35 -657.92999
-141.60001 -107.37 -658
-141.05 -107.41 -658.26001
-140.39999 -107.37 -658.03998
-139.75999 -107.35 -657.88
-118.11 -95.68 -587.34998
-117.29 -95.449997 -585.94
-116.48 -95.230003 -584.62
-115.88 -95.169998 -584.26001
-115.27 -95.110001 -583.90002
-114.65 -95.050003 -583.48999
-114.05 -94.989998 -583.15997
-113.46 -94.940002 -582.89001
-112.88 -94.910004 -582.65997
-112.33 -94.889999 -582.57001
-111.77 -94.870003 -582.42999
-111.19 -94.830002 -582.17999
-110.61 -94.790001 -581.96997
-110.04 -94.760002 -581.78003
-109.51 -94.760002 -581.78003
-108.98 -94.769997 -581.79999
-108.45 -94.769997 -581.81
-107.94 -94.790001 -581.92999
-107.43 -94.809998 -582.09003
-106.86 -94.779999 -581.85999
-106.29 -94.739998 -581.64001
-105.76 -94.75 -581.70001
-105.23 -94.75 -581.71997
-104.74 -94.790001 -581.94
-104.21 -94.790001 -581.96002
-103.62 -94.739998 -581.64001
-103.09 -94.739998 -581.65997
-102.58 -94.760002 -581.78003
-102.08 -94.800003 -582
-101.56 -94.809998 -582.04999
-101.01 -94.790001 -581.97998
-100.49 -94.809998 -582.06
-99.980003 -94.830002 -582.17999
-99.5 -94.879997 -582.48999
-98.989998 -94.900002 -582.59998
-98.470001 -94.919998 -582.71997
-97.970001 -94.949997 -582.90997
-97.449997 -94.959999 -583.01001
-96.93 -94.980003 -583.09003
-96.43 -95.010002 -583.29999
-95.919998 -95.029999 -583.41998
-95.43 -95.080002 -583.69
-94.919998 -95.099998 -583.84998
-94.410004 -95.129997 -584.03003
-93.910004 -95.160004 -584.21997
-93.400002 -95.190002 -584.40002
-92.889999 -95.220001 -584.56
-92.400002 -95.260002 -584.82001
-91.910004 -95.309998 -585.09998
-91.43 -95.370003 -585.48999
-90.900002 -95.379997 -585.53003
-90.379997 -95.400002 -585.65002
-89.910004 -95.459999 -586.03998
-89.419998 -95.510002 -586.34998
-88.879997 -95.519997 -586.38
-88.370003 -95.550003 -586.53003
-87.870003 -95.589996 -586.78998
-87.389999 -95.650002 -587.15002
-86.900002 -95.709999 -587.5
-86.410004 -95.760002 -587.83002
-85.889999 -95.779999 -587.95001
-85.400002 -95.830002 -588.28003
-84.910004 -95.889999 -588.60999
-84.419998 -95.940002 -588.94
-83.940002 -96.010002 -589.34998
-83.489998 -96.120003 -590.02002
-82.989998 -96.160004 -590.28003
-82.480003 -96.199997 -590.5
-81.959999 -96.230003 -590.65997
-81.449997 -96.269997 -590.90997
-80.949997 -96.32 -591.21002
-80.459999 -96.379997 -591.59998
-79.980003 -96.449997 -592.03998
-79.510002 -96.540001 -592.53998
-79.010002 -96.589996 -592.87
-78.480003 -96.610001 -592.98999
-77.970001 -96.650002 -593.26001
-77.489998 -96.730003 -593.73999
-77.010002 -96.809998 -594.21997
-76.519997 -96.879997 -594.59998
-76.010002 -96.93 -594.90002
-75.550003 -97.029999 -595.53003
-75.07 -97.129997 -596.12
-74.580002 -97.190002 -596.53003
-74.099998 -97.290001 -597.09998
-73.639999 -97.400002 -597.79999
-73.160004 -97.489998 -598.29999
-72.720001 -97.639999 -599.23999
-72.230003 -97.709999 -599.66998
-71.769997 -97.830002 -600.40997
-71.370003 -98.050003 -601.67999
-70.959999 -98.239998 -602.88
-70.480003 -98.349998 -603.53003
-70.089996 -98.57 -604.84998
-69.620003 -98.699997 -605.64001
-69.089996 -98.739998 -605.85999
-68.599998 -98.82 -606.35999
-68.220001 -99.089996 -607.97998
-67.690002 -99.129997 -608.23999
-67.18 -99.190002 -608.63
-66.690002 -99.290001 -609.21002
-66.269997 -99.510002 -610.52002
-65.809998 -99.660004 -611.45001
-65.269997 -99.690002 -611.65997
-64.790001 -99.82 -612.40997
-64.379997 -100.05 -613.82001
-63.959999 -100.27 -615.16998
-63.5 -100.44 -616.17999
-63.080002 -100.67 -617.54999
-62.669998 -100.92 -619.07001
-62.380001 -101.38 -621.84998
-66.029999 -111.37 -682.27002
-65.599998 -111.72 -684.38
-65.190002 -112.08 -686.59003
-64.790001 -112.49 -689.02002
-64.25 -112.65 -690.02002
-155.05 -108.5 -661.22998
-154.34 -108.43 -660.81
-153.64999 -108.37 -660.42999
-152.92 -108.29 -659.92999
-152.23 -108.23 -659.57001
-151.53 -108.16 -659.15997
-150.92999 -108.16 -659.19
-150.28 -108.13 -658.98999
-149.64 -108.1 -658.79999
-149.03999 -108.1 -658.82001
-148.39999 -108.08 -658.69
-147.72 -108.02 -658.33002
-147.07001 -107.99 -658.13
-146.47 -108 -658.17999
-145.92999 -108.04 -658.42999
-145.33 -108.05 -658.46997
-144.73 -108.05 -658.48999
-144.12 -108.05 -658.46997
-143.50999 -108.04 -658.42999
-142.91 -108.05 -658.45001
-142.33 -108.07 -658.58002
-141.73 -108.07 -658.59998
-141.16 -108.1 -658.76001
-140.47 -108.03 -658.34998
-117.27 -95.970001 -585.84998
-116.39 -95.690002 -584.16998
-115.76 -95.610001 -583.70001
-115.16 -95.550003 -583.34003
-114.53 -95.480003 -582.89001
-113.95 -95.440002 -582.64001
-113.4 -95.419998 -582.54999
-112.82 -95.389999 -582.35999
-112.24 -95.339996 -582.08002
-111.69 -95.330002 -582.01001
-111.15 -95.330002 -581.98999
-110.61 -95.330002 -581.96997
-110.03 -95.279999 -581.71997
-109.48 -95.260002 -581.59998
-108.94 -95.260002 -581.58002
-108.42 -95.269997 -581.64001
-107.88 -95.269997 -581.64001
-107.38 -95.290001 -581.77002
-106.88 -95.330002 -581.97998
-106.29 -95.269997 -581.65997
-105.73 -95.25 -581.51001
-105.2 -95.260002 -581.54999
-104.69 -95.279999 -581.66998
-104.19 -95.309998 -581.84998
-103.64 -95.290001 -581.77002
-103.08 -95.269997 -581.63
-102.56 -95.279999 -581.66998
-102.05 -95.300003 -581.82001
-101.55 -95.330002 -582
-101.01 -95.330002 -581.97998
-100.48 -95.330002 -582
-99.980003 -95.360001 -582.17999
-99.489998 -95.400002 -582.44
-98.980003 -95.43 -582.57001
-98.480003 -95.459999 -582.75
-97.970001 -95.489998 -582.94
-97.449997 -95.5 -583.01001
-96.940002 -95.519997 -583.15002
-96.440002 -95.550003 -583.33002
-95.940002 -95.589996 -583.53003
-95.43 -95.610001 -583.69
-94.93 -95.650002 -583.92999
-94.410004 -95.669998 -584.01001
-93.910004 -95.699997 -584.22998
-93.410004 -95.739998 -584.44
-92.900002 -95.760002 -584.59003
-92.400002 -95.800003 -584.83002
-91.900002 -95.839996 -585.06
-91.419998 -95.889999 -585.39001
-90.93 -95.949997 -585.70001
-90.410004 -95.970001 -585.83002
-89.900002 -95.989998 -585.98999
-89.419998 -96.050003 -586.34998
-88.910004 -96.089996 -586.57001
-88.410004 -96.120003 -586.78003
-87.889999 -96.139999 -586.89001
-87.389999 -96.190002 -587.15002
-86.910004 -96.25 -587.53998
-86.449997 -96.339996 -588.06
-85.93 -96.370003 -588.23999
-85.419998 -96.389999 -588.40997
-84.93 -96.449997 -588.75
-84.459999 -96.540001 -589.26001
-83.980003 -96.599998 -589.64001
-83.489998 -96.660004 -590.01001
-82.980003 -96.699997 -590.25
-82.489998 -96.75 -590.57001
-81.970001 -96.779999 -590.75
-81.459999 -96.82 -590.97998
-80.940002 -96.849998 -591.15997
-80.459999 -96.919998 -591.57001
-79.989998 -97 -592.07001
-79.519997 -97.099998 -592.66998
-79.040001 -97.169998 -593.08002
-78.519997 -97.209999 -593.32001
-78 -97.230003 -593.45001
-77.510002 -97.300003 -593.84998
-77.029999 -97.379997 -594.34998
-76.540001 -97.459999 -594.81
-76.029999 -97.5 -595.06
-75.57 -97.610001 -595.71002
-75.089996 -97.690002 -596.22998
-74.620003 -97.800003 -596.88
-74.120003 -97.860001 -597.25
-73.660004 -97.970001 -597.90997
-73.18 -98.059998 -598.46997
-72.75 -98.230003 -599.45001
-72.260002 -98.309998 -599.95001
-71.800003 -98.43 -600.70001
-71.440002 -98.690002 -602.26001
-70.980003 -98.830002 -603.08002
-70.559998 -99.010002 -604.17999
-70.139999 -99.190002 -605.27002
-69.620003 -99.260002 -605.65002
-69.099998 -99.290001 -605.87
-68.660004 -99.470001 -606.96002
-68.239998 -99.669998 -608.15997
-67.699997 -99.690002 -608.26001
-67.199997 -99.779999 -608.79999
-66.720001 -99.889999 -609.47998
-66.32 -100.14 -610.96997
-65.790001 -100.18 -611.20001
-65.269997 -100.25 -611.59998
-64.809998 -100.41 -612.58002
-64.440002 -100.7 -614.31
-63.939999 -100.8 -614.94
-63.560001 -101.09 -616.69
-63.07 -101.21 -617.42999
-62.700001 -101.54 -619.39001
-62.380001 -101.94 -621.81
-65.739998 -112.57 -685.73999
-65.339996 -112.98 -688.15997
-64.830002 -113.19 -689.41998
-64.230003 -113.25 -689.78998
-155.23 -109.23 -661.97998
-154.48 -109.13 -661.38
-153.81 -109.09 -661.10999
-153.12 -109.03 -660.77002
-152.39999 -108.95 -660.28003
-151.67999 -108.87 -659.78998
-151.05 -108.85 -659.69
-150.42999 -108.84 -659.60999
-149.82001 -108.84 -659.59003
-149.23 -108.85 -659.65997
-148.59 -108.83 -659.53998
-147.97 -108.82 -659.46002
-147.33 -108.79 -659.29999
-146.73 -108.8 -659.33002
-146.09 -108.77 -659.15002
-145.5 -108.78 -659.23999
-144.91 -108.79 -659.28003
-144.28 -108.77 -659.16998
-143.67999 -108.78 -659.20001
-143.03 -108.74 -658.98999
-142.49001 -108.79 -659.29999
-141.92 -108.82 -659.46002
-141.34 -108.84 -659.57001
-140.69 -108.8 -659.35999
-116.33 -96.169998 -583.84998
-115.7 -96.099998 -583.39001
-115.07 -96.019997 -582.91998
-114.46 -95.949997 -582.53998
-113.88 -95.919998 -582.32001
-113.31 -95.889999 -582.13
-112.78 -95.889999 -582.15002
-112.23 -95.870003 -582.03003
-111.65 -95.830002 -581.82001
-111.08 -95.800003 -581.63
-110.55 -95.800003 -581.60999
-110.03 -95.82 -581.72998
-109.49 -95.809998 -581.65002
-108.92 -95.779999 -581.48999
-108.39 -95.779999 -581.46997
-107.86 -95.779999 -581.51001
-107.33 -95.779999 -581.52002
-106.83 -95.82 -581.71997
-106.33 -95.839996 -581.88
-105.74 -95.790001 -581.56
-105.19 -95.779999 -581.46997
-104.66 -95.779999 -581.52002
-104.15 -95.800003 -581.60999
-103.64 -95.830002 -581.76001
-103.11 -95.830002 -581.78998
-102.53 -95.779999 -581.52002
-102.02 -95.809998 -581.64001
-101.53 -95.839996 -581.87
-101.03 -95.870003 -582.04999
-100.52 -95.900002 -582.23999
-100 -95.919998 -582.32001
-99.480003 -95.919998 -582.35999
-98.959999 -95.940002 -582.46997
-98.470001 -95.980003 -582.67999
-97.970001 -96.019997 -582.94
-97.459999 -96.050003 -583.08002
-96.940002 -96.059998 -583.15997
-96.449997 -96.099998 -583.41998
-95.93 -96.110001 -583.47998
-95.43 -96.150002 -583.67999
-94.940002 -96.190002 -583.97998
-94.43 -96.220001 -584.14001
-93.919998 -96.25 -584.29999
-93.43 -96.290001 -584.54999
-92.93 -96.330002 -584.78003
-92.410004 -96.349998 -584.91998
-91.900002 -96.379997 -585.09003
-91.419998 -96.440002 -585.41998
-90.93 -96.489998 -585.73999
-90.43 -96.529999 -585.96997
-89.900002 -96.529999 -586.02002
-89.419998 -96.599998 -586.39001
-88.940002 -96.660004 -586.76001
-88.43 -96.690002 -586.94
-87.910004 -96.699997 -587.02002
-87.410004 -96.75 -587.31
-86.940002 -96.82 -587.73999
-86.470001 -96.900002 -588.19
-85.980003 -96.959999 -588.53998
-85.459999 -96.989998 -588.71002
-84.980003 -97.050003 -589.09998
-84.519997 -97.139999 -589.64001
-84.019997 -97.18 -589.90002
-83.5 -97.209999 -590.09003
-83 -97.260002 -590.35999
-82.489998 -97.300003 -590.60999
-81.989998 -97.349998 -590.87
-81.480003 -97.379997 -591.10999
-80.959999 -97.410004 -591.23999
-80.470001 -97.470001 -591.63
-80 -97.559998 -592.14001
-79.519997 -97.639999 -592.65002
-79.040001 -97.720001 -593.10999
-78.540001 -97.769997 -593.45001
-78.019997 -97.800003 -593.63
-77.519997 -97.860001 -593.97998
-77.050003 -97.959999 -594.53998
-76.57 -98.029999 -595
-76.059998 -98.080002 -595.27002
-75.57 -98.150002 -595.69
-75.129997 -98.290001 -596.53998
-74.639999 -98.370003 -597
-74.150002 -98.449997 -597.46997
-73.690002 -98.559998 -598.13
-73.190002 -98.629997 -598.57001
-72.790001 -98.830002 -599.78998
-72.300003 -98.919998 -600.28003
-71.860001 -99.059998 -601.14001
-71.5 -99.330002 -602.73999
-71.040001 -99.459999 -603.57001
-70.650002 -99.699997 -604.95001
-70.18 -99.809998 -605.60999
-69.639999 -99.830002 -605.77002
-69.120003 -99.889999 -606.12
-68.730003 -100.13 -607.56
-68.239998 -100.22 -608.10999
-67.709999 -100.27 -608.38
-67.230003 -100.39 -609.09003
-66.82 -100.61 -610.41998
-66.32 -100.69 -610.90997
-65.769997 -100.72 -611.08002
-65.300003 -100.85 -611.88
-64.879997 -101.08 -613.22998
-64.419998 -101.23 -614.15997
-63.990002 -101.45 -615.46997
-63.560001 -101.66 -616.70001
-63.080002 -101.81 -617.59003
-62.75 -102.19 -619.87
-62.389999 -102.53 -621.89001
-65.910004 -113.51 -687.58002
-65.489998 -113.87 -689.75
-155.34 -109.92 -662.45001
-154.64 -109.86 -662.07001
-153.98 -109.82 -661.84998
-153.25999 -109.74 -661.35999
-152.60001 -109.7 -661.14001
-151.96001 -109.68 -661
-151.25 -109.6 -660.53998
-150.59 -109.56 -660.31
-150.06 -109.62 -660.63
-149.42 -109.6 -660.52002
-148.75 -109.55 -660.22998
-148.17999 -109.58 -660.40002
-147.50999 -109.53 -660.09998
-146.91 -109.53 -660.10999
-146.28999 -109.52 -660.03998
-145.69 -109.53 -660.07001
-145.05 -109.51 -659.95001
-144.44 -109.5 -659.90997
-143.84 -109.51 -659.95001
-143.21001 -109.49 -659.83002
-142.61 -109.49 -659.85999
-142.03 -109.51 -659.96997
-141.44 -109.53 -660.04999
-140.83 -109.52 -660.03003
-116.91 -96.75 -584.09998
-116.3 -96.68 -583.70001
-115.7 -96.629997 -583.35999
-115.03 -96.519997 -582.70001
-114.39 -96.43 -582.16998
-113.81 -96.389999 -581.92999
-113.24 -96.360001 -581.77002
-112.7 -96.349998 -581.71002
-112.18 -96.360001 -581.77002
-111.63 -96.349998 -581.71997
-111.05 -96.309998 -581.47998
-110.5 -96.290001 -581.38
-109.97 -96.300003 -581.39001
-109.46 -96.32 -581.52002
-108.92 -96.309998 -581.48999
-108.35 -96.279999 -581.28003
-107.81 -96.269997 -581.26001
-107.29 -96.290001 -581.33002
-106.77 -96.300003 -581.40002
-106.28 -96.339996 -581.63
-105.77 -96.360001 -581.75
-105.18 -96.309998 -581.45001
-104.64 -96.300003 -581.39001
-104.12 -96.309998 -581.47998
-103.6 -96.32 -581.53998
-103.1 -96.349998 -581.70001
-102.57 -96.349998 -581.72998
-102.01 -96.330002 -581.59998
-101.5 -96.349998 -581.71997
-101.01 -96.389999 -581.96002
-100.53 -96.440002 -582.25
-100 -96.449997 -582.29999
-99.480003 -96.459999 -582.34998
-98.970001 -96.489998 -582.52002
-98.480003 -96.519997 -582.75
-97.970001 -96.550003 -582.92999
-97.470001 -96.580002 -583.10999
-96.970001 -96.620003 -583.29999
-96.459999 -96.639999 -583.45001
-95.949997 -96.669998 -583.60999
-95.440002 -96.699997 -583.77002
-94.940002 -96.730003 -583.97998
-94.440002 -96.769997 -584.21002
-93.93 -96.790001 -584.34003
-93.43 -96.830002 -584.59003
-92.940002 -96.879997 -584.88
-92.440002 -96.910004 -585.07001
-91.919998 -96.93 -585.17999
-91.43 -96.980003 -585.46997
-90.940002 -97.029999 -585.75
-90.449997 -97.080002 -586.07001
-89.919998 -97.089996 -586.15002
-89.440002 -97.150002 -586.48999
-88.949997 -97.199997 -586.78003
-88.470001 -97.269997 -587.20001
-87.949997 -97.290001 -587.28003
-87.459999 -97.349998 -587.65002
-86.980003 -97.410004 -588
-86.510002 -97.489998 -588.48999
-86.010002 -97.529999 -588.77002
-85.529999 -97.599998 -589.17999
-85.029999 -97.639999 -589.42999
-84.529999 -97.690002 -589.71002
-84.019997 -97.730003 -589.91998
-83.510002 -97.760002 -590.13
-83 -97.800003 -590.35999
-82.489998 -97.839996 -590.57001
-81.989998 -97.889999 -590.90002
-81.489998 -97.940002 -591.16998
-80.980003 -97.970001 -591.38
-80.480003 -98.019997 -591.67999
-79.989998 -98.099998 -592.13
-79.519997 -98.18 -592.60999
-79.040001 -98.269997 -593.13
-78.559998 -98.339996 -593.59998
-78.040001 -98.370003 -593.78003
-77.529999 -98.419998 -594.04999
-77.07 -98.519997 -594.65002
-76.589996 -98.610001 -595.15997
-76.089996 -98.660004 -595.48999
-75.589996 -98.720001 -595.85999
-75.160004 -98.879997 -596.78998
-74.68 -98.970001 -597.29999
-74.190002 -99.040001 -597.77002
-73.709999 -99.139999 -598.35999
-73.239998 -99.239998 -598.94
-72.849998 -99.459999 -600.23999
-72.339996 -99.510002 -600.56
-71.93 -99.709999 -601.73999
-71.550003 -99.959999 -603.21002
-71.150002 -100.17 -604.45001
-70.720001 -100.34 -605.46997
-70.18 -100.36 -605.62
-69.639999 -100.39 -605.78003
-69.220001 -100.59 -606.95001
-68.779999 -100.75 -607.94
-68.239998 -100.78 -608.13
-67.720001 -100.84 -608.46997
-67.330002 -101.1 -610
-66.830002 -101.18 -610.51001
-66.290001 -101.21 -610.64001
-65.779999 -101.28 -611.10999
-65.349998 -101.5 -612.37
-64.900002 -101.67 -613.40997
-64.440002 -101.84 -614.39001
-64.050003 -102.11 -616
-63.540001 -102.19 -616.51001
-63.099998 -102.39 -617.71002
-62.77 -102.78 -620.01001
-62.389999 -103.1 -621.90002
-61.91 -103.25 -622.82001
-155.39 -110.57 -662.67999
-154.78999 -110.58 -662.71997
-154.06 -110.49 -662.20001
-153.37 -110.43 -661.84003
-152.7 -110.38 -661.56
-152.08 -110.37 -661.52002
-151.45 -110.36 -661.42999
-150.82001 -110.34 -661.29999
-150.23 -110.35 -661.38
-149.61 -110.34 -661.32001
-149.03 -110.36 -661.42999
-148.38 -110.33 -661.25
-147.75 -110.32 -661.15997
-147.13 -110.3 -661.08002
-146.48 -110.28 -660.91998
-145.87 -110.27 -660.90002
-145.33 -110.32 -661.17999
-144.67 -110.28 -660.94
-144.03 -110.26 -660.79999
-143.44 -110.27 -660.88
-142.81 -110.25 -660.78003
-142.23 -110.27 -660.90002
-141.60001 -110.25 -660.78003
-140.84 -110.13 -660.04999
-118.8 -97.519997 -585.47998
-118.1 -97.379997 -584.67999
-117.43 -97.269997 -583.98999
-116.78 -97.18 -583.45001
-116.16 -97.099998 -583.02002
-115.57 -97.059998 -582.75
-115.02 -97.040001 -582.66998
-114.38 -96.949997 -582.10999
-113.76 -96.879997 -581.71997
-113.19 -96.849998 -581.51001
-112.64 -96.830002 -581.40002
-112.11 -96.830002 -581.41998
-111.59 -96.849998 -581.52002
-111.05 -96.849998 -581.48999
-110.47 -96.800003 -581.22998
-109.93 -96.800003 -581.19
-109.4 -96.800003 -581.21002
-108.91 -96.830002 -581.40997
-108.37 -96.82 -581.35999
-107.79 -96.779999 -581.13
-107.26 -96.790001 -581.15997
-106.75 -96.809998 -581.29999
-106.24 -96.830002 -581.39001
-105.75 -96.870003 -581.60999
-105.22 -96.870003 -581.65997
-104.64 -96.830002 -581.38
-104.1 -96.830002 -581.37
-103.58 -96.830002 -581.41998
-103.08 -96.860001 -581.59998
-102.58 -96.889999 -581.78003
-102.05 -96.900002 -581.79999
-101.51 -96.900002 -581.78998
-101.01 -96.919998 -581.95001
-100.52 -96.959999 -582.19
-100.03 -97.010002 -582.46002
-99.5 -97.019997 -582.51001
-98.989998 -97.029999 -582.59998
-98.489998 -97.07 -582.79999
-97.980003 -97.089996 -582.96002
-97.480003 -97.129997 -583.16998
-96.980003 -97.169998 -583.40002
-96.480003 -97.199997 -583.56
-95.959999 -97.209999 -583.65997
-95.459999 -97.25 -583.89001
-94.959999 -97.290001 -584.09998
-94.470001 -97.330002 -584.38
-93.949997 -97.349998 -584.48999
-93.440002 -97.379997 -584.63
-92.949997 -97.43 -584.92999
-92.480003 -97.489998 -585.32001
-91.959999 -97.510002 -585.40997
-91.43 -97.519997 -585.48999
-90.949997 -97.580002 -585.85999
-90.449997 -97.620003 -586.09003
-89.93 -97.639999 -586.20001
-89.459999 -97.709999 -586.62
-88.970001 -97.769997 -586.95001
-88.489998 -97.830002 -587.28998
-88 -97.889999 -587.65002
-87.510002 -97.940002 -587.96002
-87.010002 -97.980003 -588.21997
-86.550003 -98.07 -588.76001
-86.050003 -98.110001 -589.01001
-85.540001 -98.150002 -589.22998
-85.040001 -98.199997 -589.5
-84.550003 -98.25 -589.82001
-84.040001 -98.290001 -590.06
-83.519997 -98.32 -590.21997
-83 -98.339996 -590.33002
-82.5 -98.389999 -590.65002
-82 -98.440002 -590.94
-81.510002 -98.510002 -591.33002
-81 -98.540001 -591.53998
-80.480003 -98.57 -591.71997
-79.989998 -98.639999 -592.09998
-79.519997 -98.720001 -592.63
-79.050003 -98.82 -593.19
-78.580002 -98.910004 -593.71997
-78.080002 -98.959999 -594.02002
-77.559998 -98.989998 -594.21997
-77.089996 -99.099998 -594.83002
-76.620003 -99.199997 -595.42999
-76.110001 -99.239998 -595.65997
-75.629997 -99.330002 -596.21002
-75.190002 -99.459999 -597
-74.709999 -99.559998 -597.58002
-74.209999 -99.620003 -597.95001
-73.75 -99.75 -598.67999
-73.309998 -99.889999 -599.53003
-72.889999 -100.07 -600.62
-72.389999 -100.14 -601.03003
-72.029999 -100.41 -602.60999
-71.610001 -100.59 -603.67999
-71.239998 -100.85 -605.22998
-70.720001 -100.91 -605.53998
-70.18 -100.93 -605.66998
-69.690002 -101.02 -606.23999
-69.300003 -101.26 -607.62
-68.779999 -101.31 -607.95001
-68.260002 -101.36 -608.26001
-67.790001 -101.51 -609.09003
-67.349998 -101.68 -610.12
-66.809998 -101.71 -610.31
-66.300003 -101.79 -610.75
-65.82 -101.91 -611.51001
-65.370003 -102.09 -612.53998
-64.879997 -102.2 -613.22998
-64.519997 -102.52 -615.09003
-64.010002 -102.61 -615.65997
-63.52 -102.73 -616.35999
-63.099998 -102.97 -617.77002
-62.830002 -103.45 -620.62
-62.400002 -103.69 -622.01001
-61.889999 -103.79 -622.59998
-155.45 -111.22 -662.91998
-154.81 -111.2 -662.79999
-154.19 -111.19 -662.73999
-153.52 -111.14 -662.46002
-152.87 -111.11 -662.31
-152.2 -111.06 -662.01001
-151.55 -111.04 -661.84998
-150.95 -111.04 -661.85999
-150.37 -111.06 -661.97998
-149.77 -111.07 -662.01001
-149.16 -111.07 -662.01001
-148.53 -111.05 -661.91998
-147.92999 -111.05 -661.94
-147.28999 -111.03 -661.81
-146.72 -111.06 -661.95001
-146.09 -111.05 -661.88
-145.52 -111.07 -662.03998
-144.88 -111.05 -661.88
-144.25 -111.03 -661.78003
-143.63 -111.03 -661.76001
-143.02 -111.02 -661.70001
-142.41 -111.02 -661.72998
-141.71001 -110.94 -661.28003
-118.7 -97.970001 -584.96997
-118.01 -97.839996 -584.22998
-117.31 -97.709999 -583.42999
-116.64 -97.589996 -582.73999
-116.07 -97.559998 -582.57001
-115.49 -97.519997 -582.32001
-114.93 -97.5 -582.20001
-114.38 -97.489998 -582.15002
-113.77 -97.43 -581.77002
-113.17 -97.370003 -581.41998
-112.59 -97.32 -581.15002
-112.05 -97.32 -581.13
-111.5 -97.309998 -581.07001
-111.01 -97.339996 -581.26001
-110.48 -97.339996 -581.28003
-109.9 -97.300003 -581.01001
-109.35 -97.290001 -580.96002
-108.84 -97.309998 -581.07001
-108.35 -97.339996 -581.27002
-107.79 -97.32 -581.14001
-107.25 -97.309998 -581.09998
-106.74 -97.330002 -581.21002
-106.22 -97.349998 -581.31
-105.7 -97.360001 -581.35999
-105.19 -97.379997 -581.51001
-104.68 -97.400002 -581.64001
-104.12 -97.370003 -581.46997
-103.56 -97.349998 -581.32001
-103.06 -97.379997 -581.48999
-102.56 -97.410004 -581.66998
-102.08 -97.459999 -581.97998
-101.53 -97.449997 -581.89001
-101.01 -97.459999 -581.94
-100.5 -97.480003 -582.09998
-100.02 -97.540001 -582.40997
-99.519997 -97.57 -582.62
-99 -97.580002 -582.66998
-98.489998 -97.610001 -582.83002
-98 -97.639999 -583.06
-97.480003 -97.669998 -583.19
-96.989998 -97.709999 -583.41998
-96.5 -97.75 -583.70001
-95.980003 -97.769997 -583.78003
-95.470001 -97.790001 -583.92999
-94.949997 -97.82 -584.06
-94.459999 -97.860001 -584.33002
-93.970001 -97.910004 -584.62
-93.459999 -97.93 -584.72998
-92.959999 -97.970001 -584.96997
-92.489998 -98.040001 -585.40997
-91.980003 -98.07 -585.57001
-91.449997 -98.080002 -585.62
-90.959999 -98.120003 -585.87
-90.470001 -98.18 -586.21997
-89.970001 -98.220001 -586.41998
-89.459999 -98.25 -586.63
-88.980003 -98.309998 -586.98999
-88.519997 -98.400002 -587.48999
-88.040001 -98.459999 -587.89001
-87.550003 -98.519997 -588.20001
-87.040001 -98.550003 -588.41998
-86.57 -98.639999 -588.90997
-86.059998 -98.660004 -589.06
-85.550003 -98.709999 -589.29999
-85.040001 -98.739998 -589.48999
-84.540001 -98.779999 -589.77002
-84.040001 -98.830002 -590.06
-83.550003 -98.889999 -590.38
-83.010002 -98.900002 -590.42999
-82.510002 -98.940002 -590.69
-82.010002 -99 -591.02002
-81.510002 -99.050003 -591.33002
-81.010002 -99.099998 -591.62
-80.510002 -99.150002 -591.90002
-80.010002 -99.199997 -592.22998
-79.519997 -99.269997 -592.65002
-79.050003 -99.360001 -593.15002
-78.589996 -99.470001 -593.82001
-78.089996 -99.529999 -594.16998
-77.580002 -99.57 -594.41998
-77.110001 -99.669998 -594.98999
-76.650002 -99.779999 -595.62
-76.150002 -99.830002 -595.96002
-75.660004 -99.910004 -596.42999
-75.239998 -100.08 -597.41998
-74.75 -100.16 -597.89001
-74.25 -100.22 -598.23999
-73.800003 -100.35 -599.03003
-73.410004 -100.57 -600.32001
-72.93 -100.67 -600.88
-72.470001 -100.79 -601.60999
-72.129997 -101.09 -603.37
-71.709999 -101.29 -604.53998
-71.260002 -101.43 -605.38
-70.720001 -101.45 -605.5
-70.190002 -101.49 -605.72998
-69.769997 -101.69 -606.90997
-69.32 -101.84 -607.79999
-68.769997 -101.86 -607.85999
-68.279999 -101.95 -608.42999
-67.860001 -102.16 -609.65002
-67.330002 -102.21 -609.94
-66.809998 -102.27 -610.31
-66.349998 -102.43 -611.25
-65.860001 -102.54 -611.89001
-65.360001 -102.63 -612.41998
-64.940002 -102.85 -613.73999
-64.510002 -103.07 -615.03003
-63.990002 -103.15 -615.46002
-63.529999 -103.31 -616.42999
-63.110001 -103.54 -617.79999
-62.860001 -104.08 -620.95001
-62.41 -104.27 -622.09003
-154.87 -111.84 -663.03003
-154.23 -111.82 -662.90997
-153.64999 -111.85 -663.03003
-153.02 -111.83 -662.95001
-152.42999 -111.84 -663.01001
-151.75999 -111.8 -662.73999
-151.02 -111.7 -662.17999
-150.38 -111.68 -662.04999
-149.78 -111.69 -662.08002
-149.17 -111.68 -662.06
-148.59 -111.7 -662.16998
-148.08 -111.78 -662.60999
-147.47 -111.78 -662.60999
-146.89999 -111.8 -662.77002
-146.28 -111.8 -662.75
-145.67999 -111.81 -662.78003
-145.11 -111.83 -662.92999
-144.5 -111.83 -662.94
-143.88 -111.83 -662.88
-143.28 -111.83 -662.89001
-142.57001 -111.75 -662.46002
-141.92 -111.72 -662.23999
-118.51 -98.349998 -584.03998
-117.9 -98.290001 -583.69
-117.29 -98.220001 -583.32001
-116.6 -98.089996 -582.53003
-115.97 -98.010002 -582.08002
-115.38 -97.970001 -581.82001
-114.82 -97.940002 -581.67999
-114.3 -97.949997 -581.71002
-113.77 -97.949997 -581.72998
-113.21 -97.93 -581.59003
-112.63 -97.889999 -581.35999
-112 -97.809998 -580.90002
-111.46 -97.800003 -580.84003
-110.93 -97.800003 -580.84998
-110.43 -97.830002 -581.03003
-109.91 -97.839996 -581.06
-109.35 -97.809998 -580.91998
-108.81 -97.809998 -580.90002
-108.3 -97.830002 -581.03003
-107.8 -97.860001 -581.17999
-107.25 -97.839996 -581.09998
-106.72 -97.839996 -581.09998
-106.2 -97.860001 -581.16998
-105.68 -97.870003 -581.27002
-105.17 -97.900002 -581.39001
-104.67 -97.919998 -581.54999
-104.17 -97.959999 -581.75
-103.6 -97.919998 -581.53003
-103.05 -97.900002 -581.45001
-102.55 -97.93 -581.62
-102.06 -97.980003 -581.88
-101.56 -98.010002 -582.06
-101.02 -98 -582.03003
-100.5 -98.019997 -582.10999
-100.01 -98.059998 -582.35999
-99.540001 -98.120003 -582.72998
-99.019997 -98.139999 -582.81
-98.489998 -98.139999 -582.79999
-97.989998 -98.18 -583.04999
-97.489998 -98.209999 -583.23999
-96.989998 -98.25 -583.45001
-96.519997 -98.309998 -583.81
-96.010002 -98.330002 -583.95001
-95.489998 -98.349998 -584.04999
-94.980003 -98.379997 -584.22998
-94.489998 -98.419998 -584.47998
-93.980003 -98.449997 -584.65997
-93.510002 -98.519997 -585.03998
-93 -98.550003 -585.25
-92.510002 -98.599998 -585.53003
-92.010002 -98.639999 -585.77002
-91.489998 -98.650002 -585.84003
-90.989998 -98.699997 -586.09003
-90.489998 -98.739998 -586.34998
-89.989998 -98.779999 -586.56
-89.489998 -98.82 -586.82001
-89.019997 -98.889999 -587.25
-88.57 -98.989998 -587.82001
-88.080002 -99.050003 -588.17999
-87.589996 -99.110001 -588.51001
-87.089996 -99.150002 -588.75
-86.589996 -99.199997 -589.03003
-86.07 -99.220001 -589.16998
-85.550003 -99.239998 -589.29999
-85.029999 -99.269997 -589.42999
-84.540001 -99.330002 -589.78003
-84.040001 -99.379997 -590.09003
-83.540001 -99.43 -590.37
-83.019997 -99.449997 -590.52002
-82.510002 -99.489998 -590.72998
-82.019997 -99.540001 -591.06
-81.529999 -99.610001 -591.44
-81.019997 -99.650002 -591.70001
-80.519997 -99.709999 -592.03003
-80.019997 -99.760002 -592.31
-79.540001 -99.830002 -592.73999
-79.059998 -99.919998 -593.26001
-78.599998 -100.03 -593.88
-78.129997 -100.12 -594.41998
-77.629997 -100.18 -594.79999
-77.150002 -100.26 -595.23999
-76.690002 -100.38 -595.92999
-76.190002 -100.44 -596.29999
-75.739998 -100.57 -597.04999
-75.279999 -100.68 -597.71997
-74.769997 -100.73 -598.01001
-74.279999 -100.81 -598.46997
-73.870003 -101.01 -599.64001
-73.480003 -101.22 -600.89001
-72.980003 -101.3 -601.32001
-72.610001 -101.55 -602.78998
-72.230003 -101.8 -604.23999
-71.800003 -101.96 -605.22998
-71.260002 -101.99 -605.34998
-70.730003 -102.02 -605.56
-70.279999 -102.17 -606.46002
-69.830002 -102.34 -607.42999
-69.300003 -102.37 -607.59003
-68.779999 -102.43 -607.95001
-68.360001 -102.64 -609.16998
-67.860001 -102.72 -609.65997
-67.330002 -102.77 -609.96997
-66.879997 -102.93 -610.90997
-66.379997 -103.03 -611.5
-65.849998 -103.09 -611.79999
-65.400002 -103.26 -612.79999
-64.989998 -103.5 -614.20001
-64.480003 -103.58 -614.70001
-63.970001 -103.67 -615.21002
-63.529999 -103.88 -616.44
-63.09 -104.08 -617.59998
-62.919998 -104.74 -621.48999
-62.419998 -104.86 -622.17999
-61.889999 -104.93 -622.59003
-153.05 -112.46 -663.04999
-152.55 -112.54 -663.53003
-151.92 -112.53 -663.46002
-151.32001 -112.54 -663.48999
-150.67 -112.5 -663.28003
-149.98 -112.45 -662.96002
-149.31 -112.39 -662.65997
-148.78 -112.45 -663.01001
-148.21001 -112.49 -663.20001
-147.67 -112.54 -663.5
-147.06 -112.54 -663.48999
-146.42999 -112.52 -663.40997
-145.83 -112.53 -663.45001
-145.24001 -112.54 -663.53003
-144.61 -112.53 -663.41998
-144.02 -112.55 -663.53003
-143.45 -112.57 -663.66998
-142.78 -112.52 -663.39001
-142.05 -112.43 -662.84998
-119.01 -98.860001 -583.89001
-118.4 -98.790001 -583.52002
-117.74 -98.690002 -582.91998
-117.18 -98.669998 -582.78003
-116.59 -98.620003 -582.5
-115.95 -98.529999 -581.96997
-115.31 -98.440002 -581.46002
-114.76 -98.419998 -581.34998
-114.22 -98.410004 -581.32001
-113.67 -98.400002 -581.23999
-113.16 -98.419998 -581.34003
-112.65 -98.440002 -581.47998
-112.02 -98.349998 -580.96002
-111.44 -98.309998 -580.71997
-110.9 -98.309998 -580.71002
-110.36 -98.300003 -580.65002
-109.87 -98.339996 -580.88
-109.35 -98.349998 -580.92999
-108.79 -98.330002 -580.79999
-108.26 -98.32 -580.78998
-107.77 -98.370003 -581.03003
-107.24 -98.370003 -581.07001
-106.7 -98.360001 -581
-106.19 -98.379997 -581.12
-105.67 -98.389999 -581.19
-105.15 -98.400002 -581.23999
-104.63 -98.419998 -581.32001
