# .PCD v0.7 - Point Cloud Data file format
VERSION 0.7
FIELDS x y z
SIZE 4 4 4
TYPE F F F
COUNT 1 1 1
WIDTH 1681
HEIGHT 1
VIEWPOINT 0 0 0 1 0 0 0
POINTS 1681
DATA ascii
77.150002 49.200001 -643.42999
77.669998 49.150002 -642.83002
78.160004 49.09 -642.03998
78.660004 49.029999 -641.28998
79.160004 48.98 -640.62
79.660004 48.919998 -639.89001
80.169998 48.869999 -639.26001
80.650002 48.810001 -638.42999
81.160004 48.77 -637.84998
81.639999 48.700001 -637
82.129997 48.650002 -636.32001
82.599998 48.580002 -635.42999
83.120003 48.540001 -634.97998
83.610001 48.490002 -634.28003
84.089996 48.43 -633.53998
84.580002 48.380001 -632.82001
85.07 48.330002 -632.15997
85.559998 48.279999 -631.54999
86.059998 48.23 -630.97998
86.559998 48.189999 -630.39001
87.059998 48.139999 -629.79999
87.559998 48.099998 -629.23999
88.07 48.060001 -628.76001
88.57 48.02 -628.21997
89.080002 47.990002 -627.81
89.589996 47.950001 -627.33002
90.120003 47.93 -627.01001
90.629997 47.900002 -626.58002
91.160004 47.869999 -626.27002
91.709999 47.849998 -626.04999
92.239998 47.84 -625.81
92.790001 47.82 -625.63
93.360001 47.82 -625.60999
93.93 47.82 -625.53998
94.5 47.82 -625.56
95.099998 47.830002 -625.70001
95.699997 47.84 -625.89001
96.339996 47.869999 -626.27002
96.989998 47.91 -626.73999
97.660004 47.959999 -627.37
98.360001 48.02 -628.14001
99.129997 48.110001 -629.34998
99.870003 48.189999 -630.33002
-109.56 44.790001 -593.5
-108.93 44.75 -593
-108.24 44.689999 -592.21997
-94.559998 42.23 -560.03003
-93.870003 42.139999 -558.96002
-92.879997 41.93 -556.14001
-92.290001 41.889999 -555.65997
-91.720001 41.869999 -555.34003
-91.139999 41.830002 -554.85999
-90.550003 41.799999 -554.41998
-90.040001 41.790001 -554.37
-89.540001 41.790001 -554.40997
-89.050003 41.799999 -554.53003
-88.559998 41.810001 -554.64001
-88.07 41.82 -554.78998
-87.589996 41.84 -554.96002
-87.099998 41.84 -555.03998
-86.610001 41.849998 -555.16998
-86.110001 41.860001 -555.25
-85.57 41.84 -555.01001
-85.019997 41.82 -554.73999
-84.400002 41.77 -554.07001
-83.779999 41.709999 -553.31
-83.169998 41.66 -552.64001
-82.620003 41.630001 -552.34998
-82 41.580002 -551.63
-81.449997 41.549999 -551.28003
-80.870003 41.52 -550.82001
-80.330002 41.5 -550.57001
-79.790001 41.48 -550.34998
-79.269997 41.470001 -550.23999
-78.769997 41.470001 -550.25
-78.290001 41.48 -550.39001
-77.809998 41.5 -550.60999
-77.349998 41.52 -550.90997
-76.93 41.560001 -551.46997
-76.5 41.610001 -552.01001
-76.040001 41.630001 -552.35999
-75.550003 41.639999 -552.45001
-74.989998 41.610001 -552.06
-74.449997 41.59 -551.83002
-73.940002 41.59 -551.77002
-73.43 41.59 -551.78003
-72.93 41.59 -551.79999
-72.43 41.59 -551.84998
-71.919998 41.59 -551.81
-71.419998 41.59 -551.87
-70.910004 41.59 -551.78998
-70.379997 41.580002 -551.65997
-69.849998 41.560001 -551.46997
-69.339996 41.560001 -551.44
-68.839996 41.560001 -551.45001
-68.360001 41.57 -551.63
-67.889999 41.599998 -551.90997
-67.410004 41.610001 -552.10999
-66.940002 41.639999 -552.45001
-66.480003 41.66 -552.77002
-66.019997 41.689999 -553.21002
-65.57 41.73 -553.70001
-65.110001 41.759998 -554.03003
-64.620003 41.77 -554.20001
-64.129997 41.779999 -554.39001
-63.650002 41.799999 -554.63
-63.189999 41.830002 -554.96997
-62.720001 41.860001 -555.38
-62.310001 41.919998 -556.22998
-61.889999 41.990002 -557.03003
-61.41 42.009998 -557.29999
-60.919998 42.02 -557.48999
-60.439999 42.040001 -557.70001
-59.959999 42.060001 -558.06
-59.5 42.09 -558.45001
-59.029999 42.130001 -558.87
-58.560001 42.16 -559.29999
-58.09 42.189999 -559.71997
-57.66 42.25 -560.46997
-57.240002 42.32 -561.35999
-56.799999 42.369999 -562.12
-56.310001 42.389999 -562.37
-55.82 42.41 -562.60999
-60.869999 47.110001 -624.01001
-60.310001 47.119999 -624.14001
-59.740002 47.130001 -624.22998
-59.18 47.139999 -624.34003
-58.630001 47.16 -624.54999
-58.060001 47.16 -624.64001
-57.5 47.169998 -624.77002
-56.939999 47.18 -624.88
-56.380001 47.189999 -624.98999
-55.82 47.200001 -625.19
-55.27 47.220001 -625.40997
-54.709999 47.23 -625.59003
-54.150002 47.240002 -625.71002
-53.580002 47.25 -625.83002
-53.02 47.259998 -625.96002
-52.459999 47.27 -626.10999
-51.900002 47.279999 -626.27002
-51.34 47.299999 -626.46002
-50.77 47.310001 -626.58002
-50.209999 47.32 -626.75
-49.650002 47.330002 -626.91998
-49.09 47.349998 -627.09998
-48.52 47.349998 -627.20001
-47.959999 47.369999 -627.35999
-47.389999 47.380001 -627.51001
-46.82 47.380001 -627.58002
-46.25 47.389999 -627.62
-45.68 47.389999 -627.65002
-45.099998 47.389999 -627.65002
-44.529999 47.400002 -627.75
-43.959999 47.400002 -627.84003
-43.389999 47.41 -627.91998
-42.82 47.41 -627.97998
-42.25 47.419998 -628.01001
-41.68 47.419998 -628.08002
-41.110001 47.43 -628.21997
-40.540001 47.439999 -628.35999
-39.970001 47.450001 -628.5
-39.41 47.459999 -628.65997
-38.84 47.470001 -628.76001
-38.259998 47.470001 -628.78003
-37.689999 47.48 -628.87
-37.110001 47.48 -628.85999
-36.540001 47.48 -628.84998
-35.959999 47.490002 -628.94
-35.389999 47.48 -628.92999
-34.82 47.490002 -629.03003
-34.240002 47.490002 -629.06
-33.669998 47.509998 -629.26001
-33.099998 47.52 -629.35999
-32.529999 47.52 -629.44
-31.959999 47.529999 -629.59003
-31.389999 47.549999 -629.73999
-30.82 47.560001 -629.95001
-30.26 47.580002 -630.23999
-29.690001 47.599998 -630.41998
-29.129999 47.630001 -630.79999
-28.559999 47.650002 -631.12
-28 47.68 -631.45001
-27.43 47.700001 -631.76001
-26.870001 47.720001 -632.08002
-26.290001 47.73 -632.20001
-25.719999 47.740002 -632.29999
-25.139999 47.75 -632.46002
-24.58 47.779999 -632.78003
-24 47.790001 -632.96997
-23.440001 47.82 -633.32001
-22.860001 47.84 -633.59003
-22.299999 47.880001 -634.17999
-21.73 47.91 -634.52002
-21.17 47.959999 -635.13
-20.610001 48.009998 -635.82001
-20.049999 48.060001 -636.47998
-19.49 48.110001 -637.09003
-18.92 48.139999 -637.53003
-18.34 48.150002 -637.71002
-17.75 48.169998 -637.84998
-17.18 48.18 -638.06
-16.6 48.200001 -638.35999
-16.02 48.240002 -638.78003
-15.46 48.299999 -639.58002
-14.88 48.330002 -640.04999
-14.3 48.349998 -640.33002
-13.72 48.369999 -640.52002
-13.13 48.380001 -640.65002
-12.55 48.389999 -640.72998
-11.96 48.389999 -640.81
-11.37 48.400002 -640.95001
-10.79 48.419998 -641.19
-10.21 48.439999 -641.46997
-9.6199999 48.459999 -641.67999
-9.0299997 48.470001 -641.79999
-8.4399996 48.459999 -641.73999
-7.8499999 48.439999 -641.44
-7.25 48.369999 -640.51001
-6.6500001 48.27 -639.20001
-6.0500002 48.169998 -637.91998
-5.46 48.09 -636.89001
-4.8699999 48.009998 -635.84003
-4.2800002 47.939999 -634.96997
-3.6900001 47.900002 -634.35999
-3.1099999 47.849998 -633.69
-2.52 47.799999 -633.07001
-1.9400001 47.759998 -632.60999
-1.36 47.73 -632.14001
-0.77999997 47.689999 -631.71997
-0.2 47.66 -631.23999
0.38 47.639999 -630.97998
0.95999998 47.610001 -630.66998
1.54 47.59 -630.34998
2.1099999 47.560001 -630.02002
2.6900001 47.549999 -629.83002
3.27 47.540001 -629.70001
3.8399999 47.529999 -629.60999
4.4200001 47.52 -629.47998
5 47.52 -629.46002
5.5700002 47.5 -629.10999
6.1500001 47.470001 -628.71997
6.7199998 47.419998 -628.15002
7.29 47.380001 -627.63
7.8600001 47.360001 -627.32001
8.4300003 47.349998 -627.17999
9.0100002 47.34 -627.13
9.5799999 47.34 -627.06
10.16 47.34 -627.14001
10.73 47.360001 -627.29999
11.32 47.380001 -627.63
11.9 47.41 -627.98999
12.48 47.439999 -628.40997
13.06 47.450001 -628.53003
13.64 47.450001 -628.46997
14.21 47.43 -628.21997
14.78 47.41 -627.98999
15.35 47.389999 -627.69
15.91 47.360001 -627.40002
16.48 47.34 -627.13
17.040001 47.299999 -626.58002
17.59 47.220001 -625.54999
18.129999 47.150002 -624.57001
18.690001 47.110001 -624.01001
19.25 47.07 -623.59003
19.809999 47.049999 -623.28003
20.370001 47.029999 -623.04999
20.93 47 -622.67999
21.5 46.990002 -622.53003
22.059999 46.98 -622.34003
22.629999 46.970001 -622.28003
23.200001 46.959999 -622.13
23.77 46.959999 -622.14001
24.34 46.959999 -622.07001
24.91 46.959999 -622.07001
25.48 46.970001 -622.21002
26.049999 46.970001 -622.22998
26.629999 46.990002 -622.46002
27.209999 47 -622.65002
27.799999 47.029999 -622.97998
28.389999 47.049999 -623.32001
28.969999 47.080002 -623.59998
29.559999 47.099998 -623.96002
30.15 47.130001 -624.34998
30.75 47.169998 -624.78003
31.34 47.200001 -625.16998
31.940001 47.23 -625.65002
32.540001 47.27 -626.10999
33.139999 47.310001 -626.63
33.740002 47.34 -627.04999
34.349998 47.389999 -627.69
34.950001 47.43 -628.21002
35.560001 47.48 -628.84998
36.169998 47.52 -629.38
36.779999 47.560001 -629.94
37.400002 47.610001 -630.53998
38.009998 47.650002 -631.07001
38.619999 47.689999 -631.64001
39.240002 47.740002 -632.25
39.849998 47.77 -632.67999
40.450001 47.799999 -633.06
41.060001 47.830002 -633.46997
41.66 47.860001 -633.78003
42.259998 47.880001 -634.09003
42.869999 47.900002 -634.37
43.459999 47.919998 -634.58002
44.060001 47.939999 -634.82001
44.66 47.950001 -635.03998
45.259998 47.970001 -635.23999
45.849998 47.98 -635.42999
46.450001 48 -635.62
47.040001 48.009998 -635.76001
47.650002 48.029999 -635.98999
48.240002 48.040001 -636.08002
48.84 48.049999 -636.28998
49.43 48.060001 -636.38
50.02 48.07 -636.53003
50.599998 48.07 -636.47998
51.169998 48.049999 -636.29999
51.75 48.049999 -636.21997
52.310001 48.02 -635.90002
52.880001 48.009998 -635.75
53.439999 48 -635.56
54.02 47.990002 -635.44
54.59 47.98 -635.28003
55.169998 47.970001 -635.26001
55.759998 47.98 -635.34998
56.34 47.98 -635.29999
56.93 47.98 -635.38
57.529999 48 -635.59998
58.130001 48.009998 -635.73999
58.740002 48.040001 -636.08002
59.369999 48.07 -636.54999
60 48.110001 -637.01001
60.630001 48.150002 -637.52002
61.27 48.189999 -638.03003
61.939999 48.25 -638.90002
62.639999 48.34 -640
63.349998 48.439999 -641.32001
64.019997 48.5 -642.09998
64.660004 48.540001 -642.58002
65.279999 48.560001 -642.85999
65.900002 48.580002 -643.19
66.510002 48.599998 -643.35999
67.129997 48.619999 -643.60999
67.739998 48.630001 -643.83002
68.370003 48.66 -644.10999
68.980003 48.669998 -644.35999
69.599998 48.689999 -644.58002
70.209999 48.700001 -644.71997
70.830002 48.720001 -644.97998
71.440002 48.73 -645.13
72.040001 48.740002 -645.27002
72.660004 48.759998 -645.46002
73.25 48.759998 -645.48999
73.860001 48.77 -645.56
74.449997 48.77 -645.53998
75.029999 48.759998 -645.47998
75.589996 48.740002 -645.20001
76.169998 48.73 -645.06
76.699997 48.689999 -644.57001
77.199997 48.639999 -643.84998
77.709999 48.59 -643.15997
78.209999 48.529999 -642.40002
78.709999 48.470001 -641.65997
79.209999 48.419998 -641.02002
79.690002 48.349998 -640.12
80.190002 48.299999 -639.42999
80.669998 48.240002 -638.62
81.190002 48.200001 -638.09003
81.669998 48.139999 -637.29999
82.160004 48.080002 -636.53998
82.629997 48.009998 -635.66998
83.129997 47.970001 -635.07001
83.610001 47.91 -634.29999
84.120003 47.860001 -633.71997
84.599998 47.810001 -632.98999
85.089996 47.759998 -632.28998
85.57 47.700001 -631.60999
86.07 47.66 -631.03003
86.559998 47.610001 -630.38
87.080002 47.580002 -629.96002
87.580002 47.529999 -629.38
88.07 47.490002 -628.78003
88.57 47.450001 -628.22998
89.089996 47.419998 -627.88
89.589996 47.369999 -627.28998
90.120003 47.349998 -626.97998
90.639999 47.32 -626.59003
91.169998 47.299999 -626.28003
91.699997 47.279999 -626
92.239998 47.259998 -625.75
92.790001 47.25 -625.62
93.349998 47.240002 -625.54999
93.910004 47.23 -625.44
94.489998 47.23 -625.45001
95.089996 47.25 -625.60999
95.699997 47.27 -625.84998
96.32 47.290001 -626.13
96.959999 47.32 -626.58002
97.639999 47.369999 -627.27002
98.330002 47.43 -627.92999
99.059998 47.5 -628.91998
99.82 47.59 -630.08002
-109.04 44.259998 -593.64001
-108.52 44.27 -593.73999
-94.550003 41.709999 -559.95001
-93.949997 41.669998 -559.45001
-93.18 41.549999 -557.89001
-92.370003 41.419998 -556.16998
-91.779999 41.380001 -555.65997
-91.209999 41.349998 -555.28998
-90.650002 41.330002 -555.01001
-90.139999 41.330002 -555
-89.629997 41.330002 -554.98999
-89.129997 41.330002 -555.03998
-88.629997 41.34 -555.09998
-88.129997 41.34 -555.16998
-87.650002 41.349998 -555.31
-87.150002 41.360001 -555.40002
-86.629997 41.349998 -555.32001
-86.089996 41.34 -555.12
-85.510002 41.299999 -554.65997
-84.900002 41.25 -553.97998
-84.25 41.18 -553.07001
-83.660004 41.139999 -552.53003
-83.129997 41.130001 -552.39001
-82.540001 41.09 -551.87
-81.959999 41.049999 -551.34998
-81.389999 41.02 -550.94
-80.839996 40.990002 -550.58002
-80.309998 40.98 -550.42999
-79.790001 40.98 -550.34998
-79.279999 40.970001 -550.28003
-78.800003 40.98 -550.44
-78.32 40.990002 -550.59998
-77.849998 41.02 -550.89001
-77.419998 41.049999 -551.40002
-77.010002 41.099998 -552.06
-76.540001 41.130001 -552.34003
-76.059998 41.139999 -552.5
-75.519997 41.119999 -552.23999
-74.959999 41.09 -551.84003
-74.43 41.07 -551.67999
-73.919998 41.07 -551.66998
-73.43 41.080002 -551.72998
-72.919998 41.080002 -551.71997
-72.419998 41.080002 -551.75
-71.910004 41.080002 -551.72998
-71.400002 41.080002 -551.73999
-70.879997 41.07 -551.63
-70.339996 41.049999 -551.35999
-69.809998 41.029999 -551.15997
-69.300003 41.029999 -551.08002
-68.790001 41.029999 -551.09003
-68.300003 41.040001 -551.20001
-67.839996 41.060001 -551.53998
-67.370003 41.080002 -551.83002
-66.900002 41.110001 -552.14001
-66.470001 41.150002 -552.70001
-66.040001 41.200001 -553.38
-65.580002 41.23 -553.73999
-65.099998 41.240002 -553.92999
-64.599998 41.25 -554.08002
-64.120003 41.27 -554.27002
-63.639999 41.290001 -554.53003
-63.18 41.32 -554.92999
-62.720001 41.349998 -555.35999
-62.310001 41.41 -556.21997
-61.880001 41.470001 -556.96002
-61.389999 41.48 -557.09998
-60.889999 41.490002 -557.15997
-60.41 41.5 -557.41998
-59.93 41.529999 -557.72998
-59.459999 41.560001 -558.09003
-58.990002 41.59 -558.51001
-58.540001 41.630001 -559.03998
-58.07 41.66 -559.47998
-57.630001 41.720001 -560.22998
-57.209999 41.779999 -561.08002
-56.779999 41.84 -561.87
-56.279999 41.849998 -562.03998
-55.790001 41.869999 -562.33002
-55.759998 42.240002 -567.15002
-60.849998 46.529999 -623.82001
-60.290001 46.540001 -623.96997
-59.73 46.549999 -624.09003
-59.169998 46.549999 -624.17999
-58.599998 46.560001 -624.31
-58.049999 46.57 -624.46002
-57.490002 46.59 -624.66998
-56.919998 46.59 -624.71002
-56.369999 46.610001 -624.90997
-55.810001 46.619999 -625.04999
-55.240002 46.630001 -625.15997
-54.689999 46.639999 -625.35999
-54.130001 46.650002 -625.53003
-53.560001 46.66 -625.60999
-53.009998 46.68 -625.83002
-52.439999 46.68 -625.90997
-51.880001 46.689999 -626.06
-51.32 46.700001 -626.20001
-50.759998 46.720001 -626.42999
-50.200001 46.73 -626.57001
-49.639999 46.75 -626.78003
-49.07 46.759998 -626.90002
-48.509998 46.77 -627.06
-47.939999 46.779999 -627.17999
-47.380001 46.790001 -627.32001
-46.810001 46.790001 -627.40002
-46.240002 46.799999 -627.47998
-45.669998 46.810001 -627.56
-45.099998 46.810001 -627.57001
-44.52 46.810001 -627.62
-43.950001 46.82 -627.70001
-43.380001 46.82 -627.71997
-42.799999 46.82 -627.71997
-42.240002 46.830002 -627.88
-41.669998 46.84 -628
-41.099998 46.849998 -628.15002
-40.529999 46.860001 -628.22998
-39.970001 46.869999 -628.46997
-39.400002 46.880001 -628.56
-38.84 46.889999 -628.72998
-38.259998 46.900002 -628.81
-37.689999 46.900002 -628.83002
-37.110001 46.900002 -628.82001
-36.529999 46.900002 -628.78003
-35.959999 46.900002 -628.83002
-35.389999 46.91 -628.90997
-34.810001 46.91 -628.94
-34.240002 46.91 -629.02002
-33.66 46.919998 -629.04999
-33.09 46.93 -629.19
-32.52 46.93 -629.26001
-31.950001 46.950001 -629.46002
-31.379999 46.959999 -629.59003
-30.809999 46.970001 -629.77002
-30.25 46.990002 -630.06
-29.68 47.009998 -630.25
-29.120001 47.029999 -630.60999
-28.549999 47.049999 -630.89001
-27.99 47.080002 -631.28003
-27.42 47.099998 -631.53003
-26.860001 47.130001 -631.83002
-26.290001 47.139999 -632.04999
-25.709999 47.150002 -632.16998
-25.139999 47.16 -632.32001
-24.57 47.18 -632.48999
-23.99 47.189999 -632.73999
-23.43 47.220001 -633.14001
-22.860001 47.25 -633.5
-22.299999 47.290001 -633.96997
-21.73 47.32 -634.39001
-21.17 47.360001 -634.92999
-20.6 47.41 -635.54999
-20.040001 47.459999 -636.28998
-19.48 47.509998 -636.95001
-18.91 47.540001 -637.38
-18.33 47.560001 -637.52002
-17.75 47.560001 -637.65002
-17.17 47.59 -637.96002
-16.6 47.619999 -638.38
-16.02 47.650002 -638.81
-15.45 47.709999 -639.52002
-14.88 47.75 -640.04999
-14.3 47.759998 -640.21002
-13.71 47.77 -640.33002
-13.13 47.77 -640.42999
-12.54 47.779999 -640.51001
-11.96 47.790001 -640.60999
-11.37 47.799999 -640.76001
-10.79 47.82 -640.97998
-10.2 47.84 -641.23999
-9.6199999 47.860001 -641.5
-9.0299997 47.869999 -641.64001
-8.4399996 47.849998 -641.44
-7.8499999 47.830002 -641.15002
-7.25 47.75 -640.15997
-6.6500001 47.66 -638.90997
-6.0500002 47.560001 -637.54999
-5.4499998 47.48 -636.48999
-4.8600001 47.400002 -635.52002
-4.2800002 47.349998 -634.78003
-3.6900001 47.290001 -634.07001
-3.0999999 47.240002 -633.42999
-2.52 47.200001 -632.78998
-1.9400001 47.169998 -632.44
-1.36 47.130001 -631.89001
-0.77999997 47.099998 -631.46997
-0.2 47.07 -631.06
0.38 47.040001 -630.78003
0.95999998 47.009998 -630.39001
1.54 47 -630.15002
2.1099999 46.98 -629.96002
2.6900001 46.970001 -629.77002
3.27 46.950001 -629.53998
3.8399999 46.939999 -629.42999
4.4200001 46.939999 -629.39001
5 46.93 -629.29999
5.5700002 46.91 -629.07001
6.1500001 46.889999 -628.72998
6.7199998 46.84 -628.09998
7.29 46.799999 -627.59003
7.8600001 46.779999 -627.25
8.4300003 46.77 -627.15997
9 46.759998 -626.98999
9.5799999 46.759998 -627.02002
10.16 46.759998 -627.07001
10.73 46.779999 -627.22998
11.32 46.799999 -627.60999
11.9 46.830002 -627.96002
12.48 46.849998 -628.21002
13.06 46.860001 -628.34003
13.63 46.849998 -628.20001
14.2 46.830002 -627.96997
14.77 46.810001 -627.71002
15.34 46.790001 -627.47998
15.91 46.779999 -627.21002
16.48 46.759998 -627
17.040001 46.720001 -626.44
17.59 46.650002 -625.53003
18.129999 46.57 -624.51001
18.690001 46.529999 -623.96002
19.25 46.5 -623.52002
19.809999 46.470001 -623.23999
20.370001 46.450001 -622.95001
20.93 46.43 -622.65997
21.5 46.419998 -622.5
22.059999 46.41 -622.40002
22.629999 46.400002 -622.23999
23.200001 46.400002 -622.19
23.77 46.389999 -622.12
24.34 46.389999 -622.12
24.91 46.389999 -622.15002
25.48 46.389999 -622.15997
26.059999 46.41 -622.33002
26.629999 46.419998 -622.45001
27.219999 46.439999 -622.71997
27.799999 46.450001 -622.96002
28.379999 46.48 -623.27002
28.969999 46.5 -623.58002
29.559999 46.529999 -623.96997
30.15 46.560001 -624.28998
30.74 46.59 -624.69
31.33 46.610001 -625.06
31.93 46.650002 -625.54999
32.529999 46.689999 -626.02002
33.130001 46.73 -626.54999
33.740002 46.77 -627.04999
34.34 46.799999 -627.57001
34.939999 46.84 -628.08002
35.549999 46.889999 -628.65002
36.16 46.93 -629.17999
36.77 46.970001 -629.70001
37.380001 47.009998 -630.27002
37.990002 47.049999 -630.83002
38.599998 47.09 -631.32001
39.209999 47.130001 -631.82001
39.82 47.16 -632.32001
40.43 47.189999 -632.70001
41.029999 47.220001 -633.07001
41.639999 47.25 -633.48999
42.240002 47.279999 -633.78998
42.849998 47.299999 -634.07001
43.439999 47.310001 -634.26001
44.049999 47.34 -634.65997
44.650002 47.360001 -634.85999
45.240002 47.369999 -635.08002
45.84 47.389999 -635.27002
46.439999 47.41 -635.48999
47.029999 47.419998 -635.62
47.630001 47.43 -635.79999
48.23 47.439999 -636
48.82 47.459999 -636.14001
49.419998 47.470001 -636.34998
50.009998 47.48 -636.41998
50.59 47.470001 -636.35999
51.169998 47.459999 -636.22998
51.73 47.450001 -636.03003
52.290001 47.43 -635.71997
52.860001 47.41 -635.56
53.43 47.400002 -635.41998
54 47.389999 -635.26001
54.57 47.380001 -635.13
55.150002 47.380001 -635.08002
55.740002 47.380001 -635.10999
56.32 47.380001 -635.12
56.919998 47.389999 -635.27002
57.52 47.400002 -635.42999
58.119999 47.419998 -635.60999
58.73 47.439999 -635.90997
59.349998 47.470001 -636.34003
59.98 47.509998 -636.81
60.610001 47.540001 -637.22998
61.240002 47.580002 -637.75
61.919998 47.650002 -638.71002
62.599998 47.720001 -639.64001
63.330002 47.830002 -641.03003
64 47.889999 -641.88
64.639999 47.93 -642.39001
65.25 47.950001 -642.62
65.879997 47.98 -642.95001
66.5 48 -643.21997
67.110001 48.009998 -643.44
67.720001 48.029999 -643.62
68.339996 48.049999 -643.91998
68.949997 48.060001 -644.09003
69.57 48.080002 -644.34998
70.18 48.099998 -644.53003
70.800003 48.119999 -644.78003
71.410004 48.130001 -644.91998
72.019997 48.139999 -645.08002
72.629997 48.150002 -645.23999
73.239998 48.16 -645.35999
73.839996 48.16 -645.40002
74.440002 48.169998 -645.47998
75.019997 48.16 -645.35999
75.589996 48.150002 -645.21997
76.160004 48.130001 -645
76.699997 48.099998 -644.54999
77.209999 48.049999 -643.88
77.730003 48 -643.28998
78.230003 47.950001 -642.59998
78.709999 47.880001 -641.70001
79.220001 47.84 -641.09998
79.709999 47.779999 -640.26001
80.209999 47.73 -639.60999
80.68 47.66 -638.70001
81.199997 47.619999 -638.20001
81.690002 47.560001 -637.45001
82.18 47.509998 -636.71997
82.639999 47.439999 -635.78003
83.150002 47.400002 -635.22998
83.620003 47.330002 -634.39001
84.110001 47.279999 -633.63
84.599998 47.23 -632.96002
85.089996 47.18 -632.31
85.57 47.119999 -631.60999
86.07 47.080002 -631.04999
86.57 47.040001 -630.42999
87.07 46.990002 -629.87
87.57 46.950001 -629.29999
88.080002 46.91 -628.82001
88.559998 46.860001 -628.16998
89.080002 46.830002 -627.78003
89.589996 46.799999 -627.34003
90.120003 46.77 -626.97998
90.620003 46.740002 -626.51001
91.160004 46.720001 -626.26001
91.690002 46.700001 -625.95001
92.230003 46.68 -625.69
92.779999 46.669998 -625.53003
93.339996 46.66 -625.42999
93.889999 46.650002 -625.32001
94.470001 46.650002 -625.34003
95.07 46.66 -625.5
95.669998 46.68 -625.67999
96.290001 46.700001 -626
96.940002 46.740002 -626.45001
97.610001 46.779999 -627.07001
98.290001 46.830002 -627.71997
99.040001 46.91 -628.77002
99.800003 47 -629.90002
100.66 47.130001 -631.64001
-94.529999 41.18 -559.81
-93.949997 41.16 -559.46002
-93.309998 41.099998 -558.70001
-92.599998 41.009998 -557.53003
-91.889999 40.919998 -556.31
-91.309998 40.889999 -555.91998
-90.760002 40.869999 -555.64001
-90.239998 40.869999 -555.58002
-89.730003 40.869999 -555.57001
-89.230003 40.869999 -555.67999
-88.720001 40.869999 -555.64001
-88.220001 40.880001 -555.71002
-87.699997 40.869999 -555.62
-87.150002 40.849998 -555.40002
-86.580002 40.82 -554.97998
-86 40.790001 -554.53998
-85.370003 40.73 -553.73999
-84.739998 40.669998 -552.96997
-84.169998 40.639999 -552.59998
-83.629997 40.619999 -552.35999
-83.050003 40.59 -551.90002
-82.480003 40.560001 -551.46002
-81.919998 40.529999 -551.07001
-81.360001 40.5 -550.71002
-80.82 40.48 -550.5
-80.309998 40.48 -550.44
-79.800003 40.48 -550.42999
-79.309998 40.48 -550.48999
-78.839996 40.5 -550.71002
-78.370003 40.52 -550.96997
-77.949997 40.560001 -551.58002
-77.519997 40.599998 -552.08002
-77.050003 40.619999 -552.34998
-76.580002 40.639999 -552.57001
-76.050003 40.619999 -552.40997
-75.480003 40.59 -551.96002
-74.940002 40.57 -551.73999
-74.43 40.57 -551.66998
-73.919998 40.57 -551.67999
-73.419998 40.57 -551.67999
-72.910004 40.57 -551.65002
-72.400002 40.57 -551.63
-71.889999 40.560001 -551.60999
-71.379997 40.560001 -551.54999
-70.849998 40.549999 -551.39001
-70.32 40.529999 -551.14001
-69.790001 40.52 -550.96997
-69.290001 40.52 -551.02002
-68.800003 40.529999 -551.14001
-68.32 40.540001 -551.34003
-67.849998 40.57 -551.65002
-67.379997 40.59 -551.94
-66.93 40.619999 -552.37
-66.510002 40.669998 -553.03998
-66.050003 40.700001 -553.45001
-65.57 40.709999 -553.65002
-65.080002 40.73 -553.84003
-64.599998 40.740002 -554.01001
-64.110001 40.759998 -554.21002
-63.639999 40.779999 -554.5
-63.18 40.810001 -554.91998
-62.73 40.849998 -555.42999
-62.32 40.91 -556.34003
-61.869999 40.950001 -556.79999
-61.369999 40.950001 -556.89001
-60.860001 40.959999 -556.92999
-60.380001 40.98 -557.17999
-59.91 41 -557.52002
-59.439999 41.029999 -557.90997
-58.959999 41.060001 -558.27002
-58.509998 41.099998 -558.84998
-58.060001 41.139999 -559.38
-57.610001 41.18 -559.96997
-57.18 41.25 -560.84003
-56.740002 41.299999 -561.53998
-56.25 41.32 -561.77002
-55.77 41.34 -562.09003
-55.59 41.59 -565.46997
-60.830002 45.939999 -623.65997
-60.279999 45.959999 -623.88
-59.709999 45.959999 -623.90002
-59.150002 45.970001 -624.03998
-58.59 45.98 -624.20001
-58.029999 45.990002 -624.29999
-57.470001 46 -624.41998
-56.91 46.009998 -624.59998
-56.349998 46.02 -624.71002
-55.790001 46.029999 -624.84003
-55.23 46.040001 -625
-54.68 46.060001 -625.28998
-54.119999 46.07 -625.41998
-53.560001 46.080002 -625.54999
-53 46.09 -625.71997
-52.43 46.099998 -625.83002
-51.869999 46.110001 -625.96002
-51.310001 46.130001 -626.14001
-50.75 46.139999 -626.31
-50.189999 46.150002 -626.47998
-49.630001 46.169998 -626.70001
-49.07 46.169998 -626.79999
-48.5 46.189999 -626.98999
-47.939999 46.200001 -627.13
-47.380001 46.209999 -627.27002
-46.810001 46.209999 -627.34998
-46.23 46.220001 -627.40002
-45.66 46.220001 -627.46002
-45.09 46.23 -627.51001
-44.52 46.23 -627.53003
-43.950001 46.23 -627.60999
-43.380001 46.240002 -627.66998
-42.810001 46.25 -627.77002
-42.23 46.25 -627.81
-41.66 46.25 -627.87
-41.099998 46.27 -628.08002
-40.529999 46.279999 -628.19
-39.970001 46.290001 -628.40997
-39.400002 46.310001 -628.59003
-38.830002 46.310001 -628.64001
-38.259998 46.32 -628.78998
-37.689999 46.32 -628.84998
-37.110001 46.330002 -628.85999
-36.540001 46.330002 -628.87
-35.959999 46.32 -628.84998
-35.380001 46.32 -628.84998
-34.810001 46.330002 -628.85999
-34.23 46.330002 -628.96002
-33.66 46.34 -629.09003
-33.09 46.34 -629.09998
-32.52 46.349998 -629.26001
-31.950001 46.360001 -629.37
-31.379999 46.380001 -629.59003
-30.809999 46.389999 -629.69
-30.24 46.400002 -629.92999
-29.68 46.419998 -630.19
-29.110001 46.439999 -630.40997
-28.549999 46.459999 -630.72998
-27.98 46.490002 -631.10999
-27.42 46.509998 -631.39001
-26.85 46.540001 -631.75
-26.280001 46.549999 -631.91998
-25.709999 46.560001 -632.03003
-25.129999 46.57 -632.21002
-24.559999 46.580002 -632.33002
-23.99 46.599998 -632.59998
-23.42 46.630001 -632.90997
-22.860001 46.66 -633.34003
-22.290001 46.689999 -633.72998
-21.719999 46.720001 -634.20001
-21.16 46.759998 -634.69
-20.6 46.810001 -635.31
-20.040001 46.880001 -636.25
-19.48 46.91 -636.78003
-18.91 46.950001 -637.25
-18.32 46.959999 -637.34003
-17.75 46.98 -637.60999
-17.17 46.990002 -637.84003
-16.59 47.029999 -638.26001
-16.030001 47.07 -638.90002
-15.45 47.119999 -639.52002
-14.88 47.150002 -639.91998
-14.29 47.16 -640.03998
-13.71 47.169998 -640.15002
-13.12 47.169998 -640.23999
-12.54 47.18 -640.34003
-11.95 47.189999 -640.44
-11.37 47.200001 -640.59998
-10.78 47.220001 -640.81
-10.2 47.240002 -641.09998
-9.6099997 47.25 -641.26001
-9.0299997 47.259998 -641.44
-8.4399996 47.240002 -641.17999
-7.8400002 47.209999 -640.79999
-7.25 47.150002 -639.96997
-6.6399999 47.049999 -638.63
-6.0500002 46.959999 -637.34003
-5.4499998 46.889999 -636.40002
-4.8600001 46.799999 -635.29999
-4.27 46.75 -634.62
-3.6900001 46.700001 -633.90002
-3.0999999 46.650002 -633.31
-2.52 46.610001 -632.69
-1.9400001 46.580002 -632.28003
-1.36 46.540001 -631.76001
-0.77999997 46.509998 -631.39001
-0.2 46.470001 -630.90997
0.38 46.459999 -630.64001
0.95999998 46.43 -630.26001
1.54 46.419998 -630.10999
2.1099999 46.400002 -629.88
2.6900001 46.389999 -629.76001
3.27 46.369999 -629.5
3.8399999 46.360001 -629.39001
4.4200001 46.360001 -629.29999
5 46.349998 -629.20001
5.5700002 46.330002 -629.01001
6.1500001 46.32 -628.78003
6.7199998 46.27 -628.20001
7.29 46.23 -627.59998
7.8600001 46.200001 -627.26001
8.4300003 46.189999 -627.13
9 46.18 -627.01001
9.5799999 46.18 -627.01001
10.16 46.189999 -627.07001
10.73 46.200001 -627.23999
11.31 46.23 -627.57001
11.9 46.25 -627.84003
12.47 46.259998 -628.02002
13.05 46.27 -628.09998
13.62 46.25 -627.88
14.19 46.23 -627.65997
14.77 46.220001 -627.52002
15.34 46.200001 -627.23999
15.91 46.189999 -627.06
16.469999 46.169998 -626.77002
17.040001 46.130001 -626.32001
17.59 46.09 -625.76001
18.139999 46.009998 -624.67999
18.690001 45.959999 -624.04999
19.25 45.93 -623.62
19.809999 45.900002 -623.22998
20.370001 45.880001 -622.95001
20.940001 45.869999 -622.78003
21.5 45.849998 -622.53998
22.07 45.84 -622.44
22.629999 45.830002 -622.29999
23.200001 45.830002 -622.21002
23.77 45.82 -622.15997
24.34 45.82 -622.13
24.91 45.82 -622.14001
25.48 45.830002 -622.23999
26.059999 45.84 -622.37
26.639999 45.849998 -622.53998
27.219999 45.869999 -622.73999
27.799999 45.889999 -623.03003
28.389999 45.91 -623.33002
28.969999 45.93 -623.53998
29.559999 45.959999 -623.98999
30.15 45.98 -624.27002
30.75 46.02 -624.84003
31.34 46.049999 -625.15002
31.940001 46.080002 -625.63
32.529999 46.119999 -626.08002
33.139999 46.16 -626.60999
33.73 46.189999 -627.03003
34.34 46.220001 -627.52002
34.939999 46.259998 -627.94
35.549999 46.299999 -628.57001
36.150002 46.34 -629.08002
36.759998 46.380001 -629.58002
37.369999 46.41 -630.03998
37.98 46.459999 -630.59998
38.59 46.490002 -631.09998
39.189999 46.529999 -631.53003
39.810001 46.560001 -632.02002
40.419998 46.599998 -632.51001
41.02 46.619999 -632.84003
41.619999 46.650002 -633.21002
42.23 46.68 -633.58002
42.830002 46.700001 -633.90997
43.43 46.720001 -634.17999
44.029999 46.740002 -634.45001
44.630001 46.759998 -634.69
45.240002 46.779999 -634.96997
45.830002 46.799999 -635.13
46.43 46.810001 -635.32001
47.029999 46.830002 -635.54999
47.630001 46.84 -635.76001
48.23 46.860001 -635.97998
48.82 46.869999 -636.09998
49.41 46.880001 -636.20001
50.009998 46.889999 -636.32001
50.59 46.880001 -636.31
51.16 46.869999 -636.09003
51.73 46.860001 -635.94
52.279999 46.830002 -635.57001
52.849998 46.82 -635.41998
53.419998 46.810001 -635.28998
53.990002 46.799999 -635.09003
54.560001 46.790001 -635.03003
55.139999 46.790001 -634.96997
55.720001 46.779999 -634.94
56.310001 46.779999 -634.94
56.900002 46.790001 -635.02002
57.490002 46.799999 -635.16998
58.110001 46.830002 -635.5
58.709999 46.849998 -635.77002
59.34 46.880001 -636.17999
59.950001 46.900002 -636.52002
60.580002 46.939999 -636.96997
61.209999 46.970001 -637.45001
61.880001 47.040001 -638.29999
62.560001 47.110001 -639.22998
63.310001 47.23 -640.84003
63.98 47.290001 -641.67999
64.629997 47.330002 -642.25
65.239998 47.349998 -642.5
65.870003 47.380001 -642.84998
66.480003 47.389999 -643.03003
67.099998 47.41 -643.28998
67.709999 47.43 -643.46997
68.330002 47.450001 -643.78998
68.940002 47.459999 -643.97998
69.559998 47.48 -644.17999
70.18 47.5 -644.46002
70.779999 47.509998 -644.58002
71.400002 47.52 -644.78998
72.010002 47.540001 -645
72.620003 47.549999 -645.13
73.220001 47.560001 -645.22998
73.830002 47.57 -645.34003
74.43 47.57 -645.40002
75.019997 47.57 -645.39001
75.589996 47.560001 -645.21002
76.160004 47.540001 -645.01001
76.709999 47.509998 -644.63
77.230003 47.470001 -644.07001
77.730003 47.419998 -643.31
78.25 47.369999 -642.76001
78.739998 47.32 -641.96002
79.260002 47.27 -641.38
79.720001 47.200001 -640.35999
80.230003 47.150002 -639.72998
80.699997 47.080002 -638.84003
81.220001 47.040001 -638.33002
81.699997 46.990002 -637.53003
82.18 46.919998 -636.67999
82.669998 46.869999 -635.95001
83.150002 46.810001 -635.17999
83.629997 46.759998 -634.46002
84.110001 46.700001 -633.70001
84.599998 46.650002 -633.01001
85.099998 46.599998 -632.39001
85.57 46.540001 -631.60999
86.059998 46.5 -630.96002
86.559998 46.450001 -630.40002
87.080002 46.419998 -629.92999
87.559998 46.369999 -629.22998
88.07 46.330002 -628.77002
88.57 46.299999 -628.26001
89.089996 46.259998 -627.84003
89.599998 46.23 -627.35999
90.120003 46.200001 -627.02002
90.639999 46.169998 -626.64001
91.18 46.16 -626.38
91.699997 46.130001 -626.01001
92.239998 46.110001 -625.77002
92.769997 46.09 -625.51001
93.330002 46.080002 -625.41998
93.900002 46.080002 -625.37
94.480003 46.080002 -625.38
95.050003 46.080002 -625.40997
95.669998 46.099998 -625.65002
96.279999 46.119999 -625.92999
96.919998 46.150002 -626.34003
97.599998 46.200001 -626.96002
98.269997 46.25 -627.57001
99.010002 46.32 -628.60999
99.75 46.400002 -629.59003
100.63 46.540001 -631.45001
-95.120003 40.700001 -560.26001
-94.480003 40.650002 -559.56
-93.910004 40.619999 -559.20001
-93.290001 40.580002 -558.54999
-92.660004 40.52 -557.84998
-91.989998 40.459999 -556.94
-91.410004 40.43 -556.53003
-90.849998 40.400002 -556.19
-90.349998 40.41 -556.26001
-89.82 40.400002 -556.14001
-89.290001 40.389999 -556.03998
-88.75 40.380001 -555.84998
-88.209999 40.360001 -555.62
-87.650002 40.34 -555.29999
-87.059998 40.299999 -554.82001
-86.43 40.240002 -554.03003
-85.830002 40.200001 -553.45001
-85.220001 40.150002 -552.78003
-84.720001 40.16 -552.88
-84.129997 40.110001 -552.31
-83.559998 40.09 -551.92999
-82.980003 40.049999 -551.42999
-82.440002 40.029999 -551.20001
-81.889999 40.009998 -550.88
-81.349998 39.990002 -550.65997
-80.830002 39.98 -550.54999
-80.32 39.98 -550.51001
-79.82 39.98 -550.53003
-79.339996 40 -550.72998
-78.889999 40.02 -551.09003
-78.459999 40.060001 -551.62
-78.040001 40.099998 -552.19
-77.57 40.119999 -552.47998
-77.099998 40.139999 -552.66998
-76.57 40.130001 -552.51001
-75.989998 40.09 -551.97998
-75.459999 40.07 -551.79999
-74.919998 40.060001 -551.60999
-74.419998 40.060001 -551.62
-73.910004 40.060001 -551.57001
-73.400002 40.049999 -551.53998
-72.900002 40.060001 -551.56
-72.400002 40.060001 -551.59998
-71.879997 40.049999 -551.53003
-71.360001 40.040001 -551.40997
-70.809998 40.02 -551.04999
-70.279999 40 -550.85999
-69.760002 40 -550.78998
-69.260002 40 -550.82001
-68.779999 40.009998 -550.97998
-68.300003 40.02 -551.15002
-67.839996 40.049999 -551.53998
-67.379997 40.080002 -551.89001
-66.949997 40.119999 -552.47998
-66.5 40.16 -553.01001
-66.040001 40.18 -553.34998
-65.550003 40.189999 -553.46002
-65.07 40.209999 -553.73999
-64.589996 40.23 -553.92999
-64.110001 40.25 -554.16998
-63.630001 40.259998 -554.44
-63.169998 40.299999 -554.88
-62.740002 40.34 -555.5
-62.32 40.400002 -556.34003
-61.84 40.419998 -556.59998
-61.360001 40.439999 -556.81
-60.849998 40.439999 -556.84998
-60.369999 40.459999 -557.14001
-59.900002 40.490002 -557.47998
-59.43 40.52 -557.85999
-58.950001 40.540001 -558.16998
-58.490002 40.57 -558.58002
-58.029999 40.599998 -559.07001
-57.580002 40.650002 -559.66998
-57.16 40.720001 -560.60999
-56.709999 40.759998 -561.21002
-56.23 40.790001 -561.52002
-55.75 40.810001 -561.85999
-55.52 41.029999 -564.79999
-60.82 45.360001 -623.51001
-60.259998 45.369999 -623.63
-59.709999 45.380001 -623.84998
-59.139999 45.389999 -623.91998
-58.580002 45.400002 -624.02002
-58.02 45.41 -624.15002
-57.459999 45.419998 -624.28003
-56.900002 45.43 -624.45001
-56.34 45.439999 -624.57001
-55.779999 45.450001 -624.72998
-55.23 45.459999 -624.95001
-54.66 45.470001 -625.02002
-54.099998 45.48 -625.21997
-53.540001 45.5 -625.37
-52.98 45.509998 -625.56
-52.419998 45.52 -625.66998
-51.860001 45.529999 -625.82001
-51.299999 45.540001 -626
-50.740002 45.549999 -626.19
-50.18 45.57 -626.37
-49.619999 45.580002 -626.51001
-49.049999 45.580002 -626.59998
-48.5 45.610001 -626.89001
-47.93 45.619999 -627.03998
-47.360001 45.619999 -627.13
-46.790001 45.630001 -627.19
-46.23 45.639999 -627.32001
-45.66 45.639999 -627.41998
-45.09 45.650002 -627.44
-44.509998 45.650002 -627.5
-43.939999 45.650002 -627.52002
-43.369999 45.66 -627.58002
-42.799999 45.66 -627.65002
-42.23 45.669998 -627.73999
-41.66 45.68 -627.84998
-41.09 45.68 -627.97998
-40.529999 45.689999 -628.12
-39.959999 45.709999 -628.29999
-39.400002 45.720001 -628.53003
-38.84 45.740002 -628.77002
-38.27 45.75 -628.88
-37.689999 45.75 -628.90997
-37.119999 45.75 -628.92999
-36.540001 45.75 -628.90002
-35.959999 45.75 -628.89001
-35.380001 45.75 -628.84998
-34.810001 45.75 -628.92999
-34.23 45.759998 -628.96002
-33.66 45.759998 -629.03003
-33.080002 45.759998 -629.03998
-32.52 45.77 -629.21997
-31.950001 45.790001 -629.37
-31.379999 45.790001 -629.47998
-30.809999 45.799999 -629.62
-30.24 45.82 -629.87
-29.67 45.830002 -630.03998
-29.1 45.849998 -630.27002
-28.540001 45.869999 -630.57001
-27.98 45.900002 -630.91998
-27.41 45.919998 -631.26001
-26.85 45.950001 -631.66998
-26.280001 45.970001 -631.82001
-25.700001 45.98 -631.96002
-25.129999 45.990002 -632.12
-24.559999 46 -632.27002
-23.99 46.02 -632.51001
-23.42 46.040001 -632.83002
-22.85 46.060001 -633.10999
-22.280001 46.099998 -633.59003
-21.719999 46.130001 -634.02002
-21.15 46.169998 -634.57001
-20.59 46.209999 -635.15002
-20.040001 46.279999 -636.09003
-19.469999 46.32 -636.63
-18.9 46.349998 -637.01001
-18.32 46.369999 -637.28998
-17.74 46.380001 -637.52002
-17.17 46.400002 -637.72998
-16.6 46.450001 -638.38
-16.030001 46.490002 -638.96002
-15.45 46.529999 -639.52002
-14.87 46.549999 -639.82001
-14.29 46.560001 -639.90997
-13.71 46.57 -640.01001
-13.12 46.57 -640.08002
-12.53 46.580002 -640.19
-11.95 46.59 -640.28998
-11.36 46.599998 -640.46997
-10.78 46.619999 -640.71002
-10.2 46.639999 -640.91998
-9.6099997 46.650002 -641.06
-9.0200005 46.650002 -641.13
-8.4300003 46.639999 -640.94
-7.8400002 46.610001 -640.53998
-7.2399998 46.529999 -639.53998
-6.6399999 46.439999 -638.31
-6.04 46.34 -636.95001
-5.4499998 46.27 -636.03998
-4.8600001 46.200001 -635.03998
-4.27 46.16 -634.44
-3.6900001 46.099998 -633.70001
-3.0999999 46.060001 -633.10999
-2.52 46.009998 -632.51001
-1.9400001 45.990002 -632.14001
-1.36 45.959999 -631.72998
-0.77999997 45.919998 -631.28998
-0.2 45.889999 -630.81
0.38 45.860001 -630.45001
0.95999998 45.84 -630.21002
1.54 45.830002 -630.03998
2.1099999 45.82 -629.84003
2.6900001 45.799999 -629.65002
3.27 45.790001 -629.51001
3.8399999 45.779999 -629.34998
4.4200001 45.77 -629.25
5 45.77 -629.15002
5.5700002 45.759998 -629.03998
6.1500001 45.740002 -628.81
6.7199998 45.709999 -628.33002
7.29 45.66 -627.75
7.8600001 45.630001 -627.31
8.4300003 45.619999 -627.14001
9.0100002 45.619999 -627.10999
9.5799999 45.610001 -627.01001
10.15 45.610001 -627.03998
10.73 45.619999 -627.20001
11.31 45.650002 -627.5
11.89 45.66 -627.71997
12.47 45.669998 -627.82001
13.05 45.669998 -627.78998
13.62 45.66 -627.64001
14.19 45.639999 -627.42999
14.76 45.630001 -627.27002
15.33 45.610001 -627.03003
15.9 45.599998 -626.83002
16.469999 45.57 -626.52002
17.030001 45.549999 -626.21002
17.59 45.509998 -625.71997
18.139999 45.459999 -624.95001
18.690001 45.400002 -624.13
19.25 45.360001 -623.70001
19.809999 45.34 -623.29999
20.370001 45.310001 -622.98999
20.940001 45.299999 -622.81
21.5 45.279999 -622.57001
22.059999 45.259998 -622.34003
22.629999 45.259998 -622.23999
23.200001 45.25 -622.19
23.77 45.25 -622.16998
24.34 45.25 -622.16998
24.91 45.259998 -622.25
25.49 45.27 -622.38
26.059999 45.27 -622.41998
26.639999 45.279999 -622.56
27.219999 45.299999 -622.81
27.799999 45.32 -623.09998
28.389999 45.349998 -623.42999
28.98 45.369999 -623.70001
29.57 45.389999 -624.08002
30.16 45.419998 -624.41998
30.75 45.450001 -624.82001
31.34 45.48 -625.27002
31.940001 45.52 -625.75
32.540001 45.549999 -626.12
33.139999 45.59 -626.67999
33.740002 45.619999 -627.12
34.34 45.650002 -627.52002
34.939999 45.68 -627.98999
35.540001 45.720001 -628.52002
36.150002 45.75 -628.92999
36.759998 45.790001 -629.48999
37.360001 45.830002 -629.95001
37.970001 45.869999 -630.47998
38.580002 45.900002 -630.90997
39.189999 45.939999 -631.45001
39.790001 45.970001 -631.82001
40.400002 46.009998 -632.33002
41.009998 46.029999 -632.67999
41.610001 46.060001 -633.07001
42.220001 46.080002 -633.40002
42.82 46.110001 -633.72998
43.419998 46.130001 -633.98999
44.02 46.150002 -634.31
44.630001 46.169998 -634.59003
45.23 46.200001 -634.89001
45.830002 46.209999 -635.08002
46.43 46.23 -635.29999
47.02 46.240002 -635.45001
47.619999 46.25 -635.64001
48.209999 46.259998 -635.79999
48.82 46.279999 -636.03003
49.41 46.290001 -636.16998
50 46.299999 -636.27002
50.580002 46.290001 -636.16998
51.139999 46.27 -635.90002
51.709999 46.259998 -635.71997
52.27 46.240002 -635.42999
52.830002 46.220001 -635.22998
53.400002 46.209999 -635.07001
53.98 46.200001 -634.96002
54.549999 46.189999 -634.84003
55.130001 46.189999 -634.81
55.709999 46.189999 -634.79999
56.310001 46.200001 -634.95001
56.900002 46.209999 -635.03003
57.490002 46.220001 -635.21002
58.09 46.240002 -635.39001
58.700001 46.259998 -635.66998
59.310001 46.279999 -635.92999
59.93 46.299999 -636.28998
60.560001 46.34 -636.72998
61.200001 46.380001 -637.28003
61.849998 46.43 -637.96997
62.540001 46.509998 -639.07001
63.290001 46.619999 -640.64001
63.959999 46.689999 -641.5
64.599998 46.73 -642.01001
65.230003 46.75 -642.34003
65.860001 46.779999 -642.72998
66.459999 46.790001 -642.90997
67.080002 46.810001 -643.14001
67.690002 46.82 -643.34003
68.309998 46.84 -643.59003
68.919998 46.860001 -643.79999
69.540001 46.880001 -644.04999
70.150002 46.889999 -644.26001
70.769997 46.91 -644.46997
71.389999 46.93 -644.71002
72 46.939999 -644.84003
72.599998 46.950001 -644.96002
73.220001 46.959999 -645.15997
73.82 46.970001 -645.23999
74.419998 46.970001 -645.31
75 46.970001 -645.25
75.589996 46.959999 -645.19
76.160004 46.950001 -644.98999
76.690002 46.91 -644.51001
77.230003 46.880001 -644.08002
77.739998 46.830002 -643.42999
78.25 46.779999 -642.72998
78.730003 46.720001 -641.89001
79.25 46.68 -641.28998
79.720001 46.610001 -640.35999
80.209999 46.549999 -639.64001
80.699997 46.5 -638.85999
81.199997 46.450001 -638.19
81.690002 46.389999 -637.42999
82.18 46.34 -636.71002
82.650002 46.27 -635.83002
83.139999 46.220001 -635.15002
83.620003 46.169998 -634.38
84.110001 46.119999 -633.65997
84.580002 46.049999 -632.84003
85.080002 46.009998 -632.26001
85.559998 45.959999 -631.54999
86.059998 45.91 -630.92999
86.550003 45.869999 -630.29999
87.050003 45.830002 -629.77002
87.550003 45.790001 -629.21997
88.07 45.759998 -628.78003
88.57 45.720001 -628.22998
89.080002 45.68 -627.78998
89.589996 45.650002 -627.34003
90.120003 45.619999 -626.97998
90.650002 45.599998 -626.65997
91.169998 45.580002 -626.34998
91.699997 45.560001 -626.03998
92.25 45.540001 -625.83002
92.779999 45.52 -625.53003
93.339996 45.509998 -625.47998
93.910004 45.509998 -625.41998
94.470001 45.509998 -625.37
95.059998 45.509998 -625.45001
95.650002 45.52 -625.58002
96.279999 45.549999 -625.92999
96.910004 45.57 -626.26001
97.580002 45.619999 -626.87
98.260002 45.669998 -627.53003
98.989998 45.740002 -628.46002
99.730003 45.810001 -629.47998
100.56 45.93 -631.04999
-95.040001 40.16 -559.82001
-94.440002 40.119999 -559.29999
-93.839996 40.080002 -558.81
-93.25 40.049999 -558.34998
-92.669998 40.02 -557.95001
-92.059998 39.98 -557.34998
-91.489998 39.950001 -556.96002
-90.93 39.93 -556.66998
-90.379997 39.91 -556.42999
-89.82 39.889999 -556.13
-89.25 39.860001 -555.76001
-88.669998 39.830002 -555.37
-88.089996 39.799999 -554.89001
-87.459999 39.740002 -554.16998
-86.830002 39.689999 -553.39001
-86.209999 39.630001 -552.63
-85.690002 39.630001 -552.59998
-85.190002 39.630001 -552.62
-84.639999 39.610001 -552.34003
-84.050003 39.57 -551.82001
-83.489998 39.540001 -551.42999
-82.940002 39.52 -551.14001
-82.410004 39.509998 -550.97998
-81.870003 39.490002 -550.77002
-81.360001 39.490002 -550.71002
-80.839996 39.48 -550.62
-80.349998 39.490002 -550.71997
-79.879997 39.509998 -550.95001
-79.440002 39.540001 -551.37
-79.010002 39.580002 -551.90002
-78.57 39.610001 -552.37
-78.089996 39.619999 -552.54999
-77.599998 39.630001 -552.67999
-77.080002 39.619999 -552.53003
-76.519997 39.599998 -552.16998
-75.959999 39.57 -551.78003
-75.440002 39.560001 -551.71002
-74.919998 39.549999 -551.58002
-74.410004 39.549999 -551.58002
-73.910004 39.549999 -551.58002
-73.410004 39.549999 -551.59998
-72.900002 39.549999 -551.57001
-72.389999 39.549999 -551.53003
-71.870003 39.540001 -551.44
-71.339996 39.529999 -551.25
-70.800003 39.509998 -551
-70.269997 39.5 -550.82001
-69.760002 39.490002 -550.72998
-69.260002 39.490002 -550.78003
-68.769997 39.5 -550.91998
-68.300003 39.52 -551.21997
-67.849998 39.549999 -551.59998
-67.410004 39.59 -552.17999
-66.970001 39.630001 -552.70001
-66.510002 39.66 -553.03003
-66.029999 39.669998 -553.28003
-65.550003 39.689999 -553.47998
-65.07 39.709999 -553.73999
-64.589996 39.720001 -553.95001
-64.110001 39.740002 -554.21997
-63.639999 39.759998 -554.51001
-63.18 39.799999 -554.96997
-62.759998 39.849998 -555.73999
-62.32 39.889999 -556.27002
-61.82 39.900002 -556.34998
-61.310001 39.900002 -556.40997
-60.810001 39.91 -556.48999
-60.330002 39.919998 -556.75
-59.849998 39.939999 -556.96997
-59.369999 39.959999 -557.31
-58.919998 40 -557.83002
-58.459999 40.040001 -558.34998
-57.990002 40.07 -558.77002
-57.549999 40.119999 -559.42999
-57.139999 40.189999 -560.37
-56.689999 40.23 -560.98999
-56.200001 40.25 -561.22998
-55.720001 40.279999 -561.60999
-55.849998 40.75 -568.06
-60.810001 44.779999 -623.46997
-60.25 44.790001 -623.51001
-59.689999 44.799999 -623.66998
-59.130001 44.810001 -623.83002
-58.57 44.82 -623.96997
-58.009998 44.830002 -624.09998
-57.450001 44.84 -624.20001
-56.889999 44.84 -624.31
-56.330002 44.860001 -624.47998
-55.77 44.869999 -624.64001
-55.209999 44.880001 -624.81
-54.650002 44.889999 -624.91998
-54.099998 44.91 -625.15997
-53.540001 44.919998 -625.31
-52.970001 44.93 -625.44
-52.41 44.939999 -625.62
-51.849998 44.950001 -625.75
-51.290001 44.959999 -625.92999
-50.73 44.970001 -626.10999
-50.169998 44.990002 -626.28003
-49.610001 44.990002 -626.38
-49.040001 45.009998 -626.53998
-48.48 45.02 -626.69
-47.919998 45.029999 -626.84998
-47.360001 45.049999 -627.12
-46.790001 45.049999 -627.20001
-46.220001 45.060001 -627.25
-45.650002 45.060001 -627.34998
-45.080002 45.07 -627.40997
-44.509998 45.07 -627.41998
-43.939999 45.07 -627.46002
-43.369999 45.080002 -627.52002
-42.799999 45.080002 -627.63
-42.23 45.09 -627.70001
-41.66 45.099998 -627.82001
-41.09 45.099998 -627.92999
-40.529999 45.119999 -628.15997
-39.959999 45.130001 -628.29999
-39.400002 45.150002 -628.54999
-38.84 45.169998 -628.82001
-38.27 45.18 -628.96002
-37.700001 45.18 -629
-37.119999 45.18 -628.95001
-36.540001 45.169998 -628.90002
-35.959999 45.169998 -628.89001
-35.389999 45.18 -628.91998
-34.810001 45.18 -628.92999
-34.240002 45.18 -629.03003
-33.66 45.18 -629.03003
-33.09 45.189999 -629.14001
-32.52 45.200001 -629.19
-31.940001 45.200001 -629.25
-31.379999 45.220001 -629.46997
-30.809999 45.23 -629.65002
-30.24 45.240002 -629.79999
-29.67 45.259998 -630.09998
-29.1 45.27 -630.21002
-28.530001 45.290001 -630.48999
-27.969999 45.310001 -630.79999
-27.4 45.330002 -631.09998
-26.84 45.360001 -631.47998
-26.27 45.380001 -631.72998
-25.700001 45.389999 -631.88
-25.120001 45.400002 -631.96997
-24.549999 45.41 -632.15997
-23.98 45.43 -632.46997
-23.41 45.450001 -632.67999
-22.84 45.470001 -633.04999
-22.280001 45.509998 -633.47998
-21.709999 45.540001 -633.92999
-21.15 45.580002 -634.46997
-20.59 45.619999 -635.09003
-20.030001 45.68 -635.90002
-19.469999 45.73 -636.52002
-18.9 45.759998 -636.90997
-18.32 45.779999 -637.17999
-17.74 45.799999 -637.46002
-17.17 45.82 -637.84003
-16.6 45.869999 -638.46002
-16.030001 45.91 -639.08002
-15.45 45.939999 -639.46002
-14.87 45.950001 -639.60999
-14.29 45.959999 -639.76001
-13.7 45.959999 -639.78998
-13.12 45.970001 -639.88
-12.53 45.98 -640
-11.95 45.990002 -640.09003
-11.36 46 -640.29999
-10.78 46.02 -640.52002
-10.19 46.029999 -640.73999
-9.6099997 46.049999 -640.90997
-9.0200005 46.049999 -640.94
-8.4300003 46.040001 -640.78998
-7.8400002 46.009998 -640.45001
-7.2399998 45.950001 -639.53003
-6.6399999 45.849998 -638.20001
-6.04 45.75 -636.87
-5.4499998 45.689999 -635.96002
-4.8600001 45.619999 -635.08002
-4.27 45.57 -634.32001
-3.6900001 45.52 -633.65997
-3.0999999 45.48 -633.12
-2.52 45.43 -632.42999
-1.9400001 45.400002 -632.03998
-1.36 45.369999 -631.59998
-0.77999997 45.34 -631.19
-0.2 45.310001 -630.75
0.38 45.279999 -630.45001
0.95999998 45.27 -630.26001
1.54 45.259998 -630.08002
2.1099999 45.240002 -629.84998
2.6900001 45.23 -629.65997
3.27 45.220001 -629.53998
3.8399999 45.209999 -629.45001
4.4200001 45.200001 -629.33002
5 45.200001 -629.29999
5.5700002 45.189999 -629.10999
6.1500001 45.18 -629.03003
6.7199998 45.139999 -628.53003
