# .PCD v0.7 - Point Cloud Data file format
VERSION 0.7
FIELDS x y z
SIZE 4 4 4
TYPE F F F
COUNT 1 1 1
WIDTH 1639
HEIGHT 1
VIEWPOINT 0 0 0 1 0 0 0
POINTS 1639
DATA ascii
-155.87 -91.150002 -554.12
-155.34 -91.139999 -554.03998
-154.83 -91.139999 -554.03003
-154.32001 -91.139999 -554.01001
-153.82001 -91.139999 -554.03998
-153.33 -91.160004 -554.10999
-152.85001 -91.169998 -554.20001
-152.37 -91.190002 -554.29999
-151.89 -91.199997 -554.35999
-151.42999 -91.230003 -554.53998
-151 -91.279999 -554.81
-150.55 -91.32 -555.03998
-150.12 -91.360001 -555.31
-149.74001 -91.440002 -555.78998
-149.32001 -91.5 -556.09998
-120.27 -90.330002 -548.96002
-119.52 -90.139999 -547.84003
-118.9 -90.050003 -547.29999
-118.29 -89.970001 -546.84003
-117.71 -89.910004 -546.46997
-117.15 -89.860001 -546.17999
-116.61 -89.830002 -546.01001
-116.08 -89.809998 -545.84998
-115.58 -89.800003 -545.83002
-115.08 -89.809998 -545.85999
-114.57 -89.800003 -545.82001
-114.08 -89.800003 -545.82001
-113.59 -89.809998 -545.87
-113.07 -89.800003 -545.78003
-112.59 -89.809998 -545.85999
-112.11 -89.830002 -545.96002
-111.62 -89.839996 -546.03003
-111.15 -89.860001 -546.15997
-110.67 -89.879997 -546.27002
-110.19 -89.889999 -546.34998
-109.72 -89.919998 -546.51001
-109.24 -89.93 -546.59998
-108.75 -89.940002 -546.65002
-108.28 -89.970001 -546.81
-107.8 -89.989998 -546.91998
-107.34 -90.019997 -547.14001
-106.87 -90.040001 -547.26001
-106.41 -90.080002 -547.46997
-105.94 -90.099998 -547.62
-105.48 -90.139999 -547.84003
-105.01 -90.169998 -548.02002
-104.56 -90.220001 -548.29999
-104.11 -90.260002 -548.53998
-103.66 -90.309998 -548.82001
-103.23 -90.370003 -549.19
-102.77 -90.410004 -549.44
-102.32 -90.459999 -549.71997
-101.88 -90.510002 -550.03998
-101.42 -90.550003 -550.26001
-100.98 -90.599998 -550.60999
-100.55 -90.669998 -550.98999
-100.14 -90.760002 -551.53998
-99.720001 -90.839996 -552
-99.309998 -90.93 -552.53003
-98.910004 -91.019997 -553.10999
-98.529999 -91.139999 -553.78998
-98.169998 -91.279999 -554.64001
-97.839996 -91.440002 -555.60999
-97.43 -91.529999 -556.16998
-97.879997 -92.440002 -561.56
-92.480003 -95.910004 -582.34003
-91.879997 -95.839996 -581.89001
-91.260002 -95.75 -581.40002
-90.620003 -95.639999 -580.71002
-89.919998 -95.459999 -579.65997
-89.120003 -95.169998 -577.89001
-88.43 -94.989998 -576.85999
-87.769997 -94.860001 -576.06
-87.160004 -94.769997 -575.51001
-86.559998 -94.690002 -575.04999
-85.959999 -94.599998 -574.53003
-85.370003 -94.540001 -574.14001
-84.779999 -94.459999 -573.66998
-84.18 -94.379997 -573.20001
-83.610001 -94.330002 -572.90997
-83.07 -94.309998 -572.81
-82.529999 -94.290001 -572.66998
-81.839996 -94.099998 -571.53003
-80.730003 -93.43 -567.48999
-79.779999 -92.93 -564.52002
-79.169998 -92.809998 -563.83002
-78.589996 -92.75 -563.42999
-78.029999 -92.690002 -563.09003
-77.470001 -92.639999 -562.81
-76.910004 -92.589996 -562.48999
-76.389999 -92.580002 -562.46002
-75.879997 -92.589996 -562.48999
-75.370003 -92.589996 -562.51001
-74.860001 -92.599998 -562.56
-74.339996 -92.589996 -562.53003
-73.839996 -92.610001 -562.60999
-73.339996 -92.629997 -562.73999
-72.849998 -92.660004 -562.90997
-72.339996 -92.669998 -563.02002
-71.849998 -92.709999 -563.21002
-71.360001 -92.730003 -563.34998
-70.860001 -92.75 -563.47998
-70.360001 -92.769997 -563.62
-69.849998 -92.790001 -563.71002
-69.370003 -92.830002 -563.96997
-68.879997 -92.870003 -564.19
-68.389999 -92.910004 -564.42999
-67.889999 -92.93 -564.57001
-67.400002 -92.959999 -564.75
-66.910004 -93 -564.97998
-66.400002 -93.019997 -565.09998
-65.910004 -93.050003 -565.28003
-65.419998 -93.089996 -565.53003
-64.919998 -93.120003 -565.69
-64.410004 -93.139999 -565.82001
-63.919998 -93.18 -566.03998
-63.43 -93.220001 -566.28998
-62.950001 -93.269997 -566.62
-62.459999 -93.32 -566.90002
-61.970001 -93.360001 -567.10999
-61.48 -93.410004 -567.44
-61.009998 -93.480003 -567.84998
-60.529999 -93.540001 -568.21002
-60.029999 -93.580002 -568.44
-59.560001 -93.650002 -568.87
-59.07 -93.709999 -569.23999
-58.599998 -93.790001 -569.70001
-58.119999 -93.860001 -570.12
-57.639999 -93.919998 -570.51001
-57.150002 -93.980003 -570.84003
-56.68 -94.059998 -571.34003
-56.200001 -94.139999 -571.84003
-55.73 -94.230003 -572.33002
-55.25 -94.309998 -572.82001
-54.779999 -94.410004 -573.40997
-54.32 -94.510002 -574.01001
-53.849998 -94.599998 -574.59003
-53.349998 -94.669998 -574.96997
-52.869999 -94.75 -575.45001
-52.400002 -94.839996 -576
-51.919998 -94.93 -576.53003
-51.439999 -95.029999 -577.14001
-50.970001 -95.129997 -577.71002
-50.490002 -95.220001 -578.29999
-50.02 -95.349998 -579.03998
-49.540001 -95.43 -579.56
-49.049999 -95.510002 -580.03003
-48.57 -95.620003 -580.65002
-48.080002 -95.699997 -581.14001
-47.59 -95.790001 -581.67999
-47.099998 -95.870003 -582.15002
-46.599998 -95.93 -582.56
-46.099998 -96.019997 -583.04999
-45.599998 -96.099998 -583.52002
-45.110001 -96.190002 -584.07001
-44.630001 -96.290001 -584.71997
-44.220001 -96.57 -586.39001
-43.830002 -96.889999 -588.28998
-43.41 -97.160004 -589.91998
-42.959999 -97.379997 -591.21997
-42.529999 -97.639999 -592.75
-42.150002 -98.019997 -595.02002
-41.799999 -98.470001 -597.76001
-41.869999 -102.68 -622.88
-41.330002 -102.75 -623.28998
-40.759998 -102.77 -623.42999
-40.18 -102.74 -623.28003
-39.630001 -102.78 -623.51001
-39.080002 -102.84 -623.84998
-38.52 -102.88 -624.13
-37.970001 -102.94 -624.45001
-37.41 -102.98 -624.71002
-36.84 -102.97 -624.66998
-36.32 -103.13 -625.58002
-36.080002 -104.11 -631.44
-35.580002 -104.32 -632.73999
-35.049999 -104.47 -633.64001
-34.48 -104.53 -633.97998
-33.91 -104.55 -634.09998
-33.34 -104.58 -634.26001
-32.759998 -104.59 -634.31
-32.189999 -104.62 -634.54999
18.41 -104.34 -632.84003
18.98 -104.25 -632.29999
19.530001 -104.12 -631.56
20.1 -104.03 -631.01001
20.65 -103.91 -630.28998
21.209999 -103.83 -629.82001
21.77 -103.75 -629.31
22.34 -103.68 -628.92999
22.9 -103.6 -628.44
23.459999 -103.54 -628.06
24.02 -103.47 -627.63
24.58 -103.43 -627.39001
25.139999 -103.35 -626.94
25.709999 -103.32 -626.77002
26.280001 -103.3 -626.60999
26.84 -103.26 -626.38
27.4 -103.19 -625.96997
27.969999 -103.17 -625.84003
28.530001 -103.13 -625.63
29.1 -103.13 -625.58002
29.67 -103.1 -625.41998
30.24 -103.08 -625.32001
30.809999 -103.07 -625.25
31.379999 -103.05 -625.15997
31.950001 -103.05 -625.12
32.52 -103.04 -625.09003
33.09 -103.05 -625.10999
33.669998 -103.05 -625.12
34.25 -103.06 -625.19
34.82 -103.05 -625.15002
35.389999 -103.05 -625.13
35.970001 -103.08 -625.29999
36.560001 -103.1 -625.44
37.130001 -103.1 -625.42999
37.720001 -103.14 -625.65997
38.299999 -103.16 -625.79999
38.880001 -103.17 -625.84003
39.459999 -103.2 -626.02002
40.029999 -103.2 -626
40.619999 -103.22 -626.13
41.209999 -103.26 -626.38
41.790001 -103.29 -626.54999
42.380001 -103.31 -626.65997
42.950001 -103.32 -626.71002
43.540001 -103.34 -626.83002
44.119999 -103.36 -626.94
44.709999 -103.4 -627.17999
45.299999 -103.41 -627.27002
45.889999 -103.45 -627.52002
46.48 -103.48 -627.70001
47.07 -103.52 -627.90002
47.66 -103.55 -628.12
48.25 -103.57 -628.22998
48.860001 -103.64 -628.62
49.459999 -103.71 -629.03003
50.060001 -103.74 -629.21997
50.66 -103.8 -629.58002
51.259998 -103.84 -629.83002
51.889999 -103.95 -630.46002
52.490002 -103.99 -630.71997
53.119999 -104.08 -631.22998
53.720001 -104.12 -631.5
54.349998 -104.22 -632.09998
54.970001 -104.3 -632.54999
55.610001 -104.41 -633.23999
56.240002 -104.49 -633.71997
56.889999 -104.63 -634.51001
57.52 -104.72 -635.04999
102.45 -103.6 -628.28998
102.96 -103.53 -627.87
103.49 -103.48 -627.59998
104.01 -103.43 -627.28003
104.53 -103.37 -626.94
105.12 -103.39 -627.04999
105.75 -103.44 -627.33002
106.37 -103.49 -627.60999
106.97 -103.51 -627.78003
107.59 -103.55 -627.98999
-157.62 -91.790001 -554.92999
-157.03 -91.75 -554.65997
-156.45 -91.699997 -554.38
-155.87 -91.660004 -554.13
-155.3 -91.629997 -553.91998
-154.78 -91.620003 -553.84998
-154.27 -91.620003 -553.85999
-153.75 -91.610001 -553.81
-153.25999 -91.620003 -553.84003
-152.77 -91.629997 -553.90997
-152.28999 -91.650002 -554.02002
-151.78999 -91.650002 -554.03003
-151.33 -91.68 -554.17999
-150.88 -91.709999 -554.38
-150.42999 -91.75 -554.59998
-150 -91.800003 -554.87
-149.57001 -91.849998 -555.15997
-149.17 -91.910004 -555.53003
-148.77 -91.980003 -555.95001
-148.37 -92.050003 -556.34998
-120.29 -90.839996 -549.03998
-119.55 -90.660004 -547.96997
-118.9 -90.550003 -547.32001
-118.3 -90.470001 -546.84003
-117.72 -90.410004 -546.47998
-117.15 -90.360001 -546.16998
-116.62 -90.339996 -546.03998
-116.1 -90.32 -545.95001
-115.59 -90.32 -545.90997
-115.1 -90.32 -545.92999
-114.59 -90.32 -545.90997
-114.1 -90.32 -545.94
-113.58 -90.309998 -545.85999
-113.08 -90.309998 -545.84998
-112.59 -90.32 -545.90997
-112.1 -90.32 -545.90997
-111.63 -90.349998 -546.09003
-111.15 -90.360001 -546.15997
-110.68 -90.389999 -546.32001
-110.21 -90.410004 -546.46002
-109.73 -90.43 -546.58002
-109.24 -90.440002 -546.63
-108.77 -90.459999 -546.73999
-108.29 -90.480003 -546.88
-107.83 -90.510002 -547.03998
-107.36 -90.529999 -547.20001
-106.88 -90.559998 -547.34003
-106.42 -90.589996 -547.53003
-105.94 -90.610001 -547.64001
-105.48 -90.650002 -547.87
-105.04 -90.699997 -548.15997
-104.59 -90.739998 -548.41998
-104.13 -90.779999 -548.66998
-103.69 -90.839996 -549
-103.25 -90.889999 -549.29999
-102.81 -90.940002 -549.63
-102.35 -90.980003 -549.85999
-101.9 -91.029999 -550.15997
-101.46 -91.089996 -550.47998
-101.03 -91.150002 -550.88
-100.59 -91.220001 -551.26001
-100.18 -91.300003 -551.75
-99.760002 -91.379997 -552.21002
-99.370003 -91.489998 -552.84998
-98.970001 -91.580002 -553.41998
-98.610001 -91.720001 -554.23999
-98.25 -91.860001 -555.04999
-97.879997 -91.989998 -555.85999
-97.480003 -92.089996 -556.45001
-92.089996 -96.589996 -583.21002
-91.5 -96.529999 -582.87
-90.830002 -96.389999 -581.98999
-90.18 -96.269997 -581.29999
-89.459999 -96.07 -580.09998
-88.690002 -95.800003 -578.53003
-88.010002 -95.639999 -577.57001
-87.379997 -95.529999 -576.90002
-86.739998 -95.410004 -576.17999
-86.150002 -95.339996 -575.78998
-85.540001 -95.25 -575.23999
-84.970001 -95.199997 -574.96002
-84.349998 -95.099998 -574.34003
-83.760002 -95.029999 -573.92999
-83.190002 -94.980003 -573.63
-82.669998 -94.980003 -573.63
-82.110001 -94.949997 -573.44
-81.57 -94.919998 -573.32001
-80.580002 -94.379997 -570.08002
-79.43 -93.639999 -565.67999
-78.699997 -93.389999 -564.19
-78.129997 -93.330002 -563.83002
-77.559998 -93.269997 -563.46002
-77.010002 -93.209999 -563.15997
-76.459999 -93.18 -562.91998
-75.919998 -93.150002 -562.79999
-75.410004 -93.150002 -562.78998
-74.900002 -93.160004 -562.84003
-74.379997 -93.160004 -562.84998
-73.870003 -93.169998 -562.87
-73.370003 -93.18 -562.96997
-72.860001 -93.190002 -563.01001
-72.360001 -93.209999 -563.13
-71.860001 -93.239998 -563.28998
-71.370003 -93.269997 -563.46002
-70.870003 -93.290001 -563.59003
-70.379997 -93.32 -563.77002
-69.870003 -93.32 -563.82001
-69.379997 -93.360001 -564.06
-68.879997 -93.379997 -564.17999
-68.389999 -93.43 -564.41998
-67.900002 -93.459999 -564.64001
-67.400002 -93.489998 -564.78998
-66.900002 -93.510002 -564.91998
-66.410004 -93.550003 -565.16998
-65.919998 -93.589996 -565.39001
-65.43 -93.629997 -565.62
-64.93 -93.650002 -565.77002
-64.440002 -93.690002 -566.01001
-63.950001 -93.739998 -566.28998
-63.450001 -93.769997 -566.46002
-62.970001 -93.830002 -566.81
-62.48 -93.860001 -567.03003
-61.990002 -93.900002 -567.28998
-61.5 -93.959999 -567.59998
-61.02 -94.019997 -567.95001
-60.540001 -94.080002 -568.34998
-60.060001 -94.139999 -568.71997
-59.57 -94.199997 -569.03998
-59.09 -94.260002 -569.37
-58.610001 -94.330002 -569.83002
-58.130001 -94.389999 -570.15002
-57.650002 -94.459999 -570.62
-57.169998 -94.529999 -570.98999
-56.689999 -94.610001 -571.47998
-56.209999 -94.68 -571.90002
-55.740002 -94.769997 -572.45001
-55.27 -94.860001 -572.96997
-54.799999 -94.959999 -573.59998
-54.32 -95.040001 -574.06
-53.84 -95.120003 -574.54999
-53.360001 -95.199997 -575
-52.869999 -95.279999 -575.45001
-52.400002 -95.370003 -575.98999
-51.93 -95.480003 -576.65997
-51.459999 -95.580002 -577.26001
-50.970001 -95.669998 -577.78998
-50.509998 -95.790001 -578.48999
-50.040001 -95.900002 -579.16998
-49.549999 -95.980003 -579.63
-49.07 -96.080002 -580.27002
-48.580002 -96.160004 -580.73999
-48.09 -96.25 -581.22998
-47.59 -96.32 -581.65997
-47.09 -96.379997 -582.06
-46.580002 -96.440002 -582.38
-46.07 -96.5 -582.71997
-45.580002 -96.57 -583.15997
-45.080002 -96.660004 -583.71997
-44.59 -96.760002 -584.27002
-44.139999 -96.940002 -585.40002
-43.810001 -97.389999 -588.02002
-43.400002 -97.68 -589.77002
-42.950001 -97.879997 -590.96997
-42.509998 -98.129997 -592.41998
-42.130001 -98.5 -594.63
-41.790001 -98.989998 -597.56
-41.360001 -103.41 -623.83002
-40.810001 -103.45 -624.07001
-40.240002 -103.45 -624.07001
-39.669998 -103.47 -624.21997
-39.119999 -103.54 -624.59003
-38.560001 -103.56 -624.71997
-37.990002 -103.57 -624.79999
-37.43 -103.62 -625.08002
-36.950001 -103.87 -626.59998
-36.669998 -104.71 -631.56
-36.16 -104.92 -632.79999
-35.619999 -105.02 -633.42999
-35.080002 -105.15 -634.19
-34.509998 -105.19 -634.41998
-33.93 -105.19 -634.44
-33.349998 -105.2 -634.47998
-32.759998 -105.19 -634.45001
19.58 -104.93 -632.90002
20.129999 -104.8 -632.14001
20.700001 -104.73 -631.71997
21.26 -104.62 -631.09003
21.809999 -104.49 -630.28998
22.370001 -104.42 -629.85999
22.940001 -104.36 -629.53998
23.5 -104.28 -629.03998
24.059999 -104.22 -628.65997
24.620001 -104.17 -628.37
25.18 -104.1 -627.94
25.75 -104.06 -627.71002
26.299999 -103.98 -627.25
26.870001 -103.96 -627.13
27.440001 -103.91 -626.85999
28 -103.85 -626.46997
28.57 -103.85 -626.46002
29.129999 -103.8 -626.21002
29.700001 -103.79 -626.10999
30.27 -103.77 -626.01001
30.84 -103.75 -625.90997
31.41 -103.74 -625.78998
31.969999 -103.7 -625.59998
32.549999 -103.7 -625.60999
33.119999 -103.71 -625.66998
33.700001 -103.71 -625.64001
34.279999 -103.74 -625.81
34.84 -103.71 -625.63
35.43 -103.74 -625.84003
36.009998 -103.75 -625.89001
36.580002 -103.76 -625.90997
37.16 -103.78 -626.02002
37.740002 -103.79 -626.10999
38.32 -103.8 -626.15002
38.91 -103.83 -626.32001
39.490002 -103.84 -626.42999
40.07 -103.86 -626.54999
40.66 -103.89 -626.71002
41.23 -103.89 -626.72998
41.82 -103.92 -626.87
42.400002 -103.95 -627.03003
42.990002 -103.97 -627.16998
43.580002 -104.01 -627.38
44.169998 -104.04 -627.58002
44.759998 -104.08 -627.84003
45.34 -104.09 -627.85999
45.93 -104.13 -628.10999
46.529999 -104.16 -628.32001
47.130001 -104.22 -628.63
47.720001 -104.24 -628.79999
48.32 -104.3 -629.13
48.919998 -104.36 -629.46997
49.529999 -104.41 -629.81
50.130001 -104.47 -630.09998
50.740002 -104.53 -630.46997
51.360001 -104.61 -630.95001
51.970001 -104.67 -631.32001
52.57 -104.72 -631.59998
53.189999 -104.81 -632.12
53.82 -104.89 -632.63
54.439999 -104.98 -633.15997
55.110001 -105.14 -634.13
55.73 -105.22 -634.59998
56.380001 -105.35 -635.33002
102.96 -104.11 -627.90002
103.49 -104.06 -627.60999
104.04 -104.04 -627.46997
104.58 -104 -627.22998
105.16 -104.01 -627.28998
105.79 -104.06 -627.59003
106.39 -104.08 -627.72998
106.99 -104.1 -627.84003
-157.57001 -92.279999 -554.78998
-157.07001 -92.279999 -554.79999
-156.47 -92.220001 -554.45001
-155.86 -92.169998 -554.10999
-155.28999 -92.129997 -553.87
-154.75 -92.110001 -553.76001
-154.22 -92.089996 -553.65997
-153.7 -92.089996 -553.60999
-153.2 -92.089996 -553.65002
-152.7 -92.099998 -553.66998
-152.22 -92.110001 -553.72998
-151.73 -92.120003 -553.79999
-151.25 -92.139999 -553.89001
-150.78999 -92.169998 -554.06
-150.32001 -92.190002 -554.21002
-149.87 -92.230003 -554.41998
-149.45 -92.279999 -554.71997
-149.02 -92.330002 -554.98999
-148.63 -92.400002 -555.44
-148.21001 -92.449997 -555.73999
-120.29 -91.349998 -549.08002
-119.57 -91.18 -548.09003
-118.92 -91.07 -547.40997
-118.31 -90.989998 -546.91998
-117.74 -90.93 -546.58002
-117.17 -90.879997 -546.28998
-116.62 -90.839996 -546.03998
-116.1 -90.82 -545.94
-115.59 -90.809998 -545.89001
-115.09 -90.809998 -545.90002
-114.59 -90.809998 -545.88
-114.08 -90.809998 -545.84998
-113.59 -90.809998 -545.89001
-113.09 -90.809998 -545.89001
-112.59 -90.809998 -545.89001
-112.11 -90.82 -545.96002
-111.63 -90.839996 -546.08002
-111.17 -90.879997 -546.26001
-110.69 -90.900002 -546.38
-110.22 -90.919998 -546.5
-109.74 -90.93 -546.59003
-109.25 -90.940002 -546.65997
-108.76 -90.949997 -546.71002
-108.29 -90.980003 -546.88
-107.83 -91.010002 -547.08002
-107.38 -91.059998 -547.33002
-106.9 -91.07 -547.42999
-106.44 -91.110001 -547.63
-105.96 -91.129997 -547.76001
-105.5 -91.160004 -547.95001
-105.06 -91.220001 -548.27002
-104.6 -91.260002 -548.5
-104.15 -91.290001 -548.72998
-103.72 -91.360001 -549.14001
-103.27 -91.410004 -549.41998
-102.83 -91.470001 -549.73999
-102.38 -91.510002 -550.01001
-101.95 -91.580002 -550.40002
-101.5 -91.629997 -550.71002
-101.07 -91.690002 -551.09003
-100.65 -91.769997 -551.53998
-100.22 -91.839996 -551.96997
-99.800003 -91.919998 -552.44
-99.419998 -92.040001 -553.14001
-99.029999 -92.139999 -553.73999
-98.690002 -92.300003 -554.66998
-98.309998 -92.419998 -555.39001
-97.949997 -92.559998 -556.20001
-99.120003 -94.160004 -565.65002
-91.040001 -97.150002 -583.33002
-90.410004 -97.050003 -582.75
-89.699997 -96.849998 -581.59998
-89.040001 -96.720001 -580.81
-88.32 -96.510002 -579.57001
-87.610001 -96.309998 -578.39001
-86.959999 -96.190002 -577.66998
-86.360001 -96.099998 -577.15997
-85.730003 -95.989998 -576.48999
-85.160004 -95.940002 -576.21002
-84.580002 -95.879997 -575.88
-83.980003 -95.800003 -575.37
-83.400002 -95.739998 -575.02002
-82.830002 -95.690002 -574.75
-82.269997 -95.660004 -574.53003
-81.699997 -95.599998 -574.22998
-81.150002 -95.57 -574.02002
-80.449997 -95.370003 -572.84003
-79.099998 -94.379997 -567.02002
-78.269997 -94.010002 -564.81
-77.68 -93.919998 -564.26001
-77.129997 -93.879997 -564.02002
-76.540001 -93.800003 -563.54999
-76 -93.769997 -563.37
-75.470001 -93.75 -563.27002
-74.949997 -93.739998 -563.23999
-74.43 -93.739998 -563.21002
-73.919998 -93.75 -563.27002
-73.410004 -93.75 -563.29999
-72.910004 -93.779999 -563.42999
-72.410004 -93.790001 -563.5
-71.900002 -93.800003 -563.54999
-71.389999 -93.809998 -563.63
-70.889999 -93.830002 -563.73999
-70.389999 -93.849998 -563.89001
-69.900002 -93.879997 -564.04999
-69.400002 -93.910004 -564.21997
-68.900002 -93.940002 -564.39001
-68.410004 -93.970001 -564.60999
-67.919998 -94 -564.78998
-67.410004 -94.019997 -564.84998
-66.93 -94.07 -565.19
-66.419998 -94.080002 -565.23999
-65.919998 -94.110001 -565.42999
-65.440002 -94.160004 -565.69
-64.93 -94.18 -565.81
-64.449997 -94.220001 -566.08002
-63.959999 -94.269997 -566.40002
-63.470001 -94.32 -566.65002
-62.98 -94.360001 -566.89001
-62.509998 -94.43 -567.32001
-62.009998 -94.470001 -567.53998
-61.529999 -94.519997 -567.83002
-61.040001 -94.57 -568.15997
-60.560001 -94.639999 -568.53998
-60.080002 -94.690002 -568.84998
-59.599998 -94.760002 -569.25
-59.119999 -94.82 -569.65997
-58.619999 -94.870003 -569.92999
-58.139999 -94.93 -570.31
-57.669998 -95.019997 -570.82001
-57.189999 -95.089996 -571.25
-56.709999 -95.169998 -571.70001
-56.25 -95.269997 -572.27002
-55.759998 -95.339996 -572.69
-55.279999 -95.410004 -573.13
-54.810001 -95.5 -573.66998
-54.330002 -95.580002 -574.12
-53.84 -95.650002 -574.56
-53.360001 -95.739998 -575.04999
-52.889999 -95.830002 -575.59998
-52.41 -95.919998 -576.16998
-51.950001 -96.040001 -576.83002
-51.470001 -96.129997 -577.39001
-51 -96.239998 -578.03003
-50.52 -96.349998 -578.66998
-50.049999 -96.449997 -579.29999
-49.549999 -96.519997 -579.71997
-49.060001 -96.610001 -580.21997
-48.580002 -96.699997 -580.78003
-48.099998 -96.800003 -581.39001
-47.59 -96.839996 -581.62
-47.080002 -96.889999 -581.91998
-46.57 -96.940002 -582.19
-46.060001 -97.010002 -582.59998
-45.560001 -97.07 -582.96997
-45.060001 -97.150002 -583.44
-44.57 -97.230003 -583.91998
-44.099998 -97.389999 -584.84003
-43.799999 -97.900002 -587.89001
-43.380001 -98.190002 -589.59003
-42.93 -98.400002 -590.81
-42.509998 -98.68 -592.46997
-42.110001 -99 -594.37
-41.77 -99.5 -597.31
-41.41 -104.09 -624.46997
-40.849998 -104.12 -624.66998
-40.299999 -104.19 -625.08002
-39.720001 -104.18 -625.03003
-39.18 -104.26 -625.5
-38.610001 -104.27 -625.57001
-38.060001 -104.32 -625.85999
-37.619999 -104.7 -628.09998
-37.290001 -105.4 -632.23999
-36.77 -105.58 -633.27002
-36.200001 -105.61 -633.45001
-35.66 -105.74 -634.21997
-35.099998 -105.81 -634.65997
-34.529999 -105.83 -634.79999
-33.939999 -105.83 -634.75
-33.349998 -105.79 -634.57001
-32.759998 -105.77 -634.44
20.74 -105.54 -633.06
21.299999 -105.44 -632.47998
21.870001 -105.35 -631.95001
22.43 -105.26 -631.40002
22.98 -105.16 -630.82001
23.540001 -105.07 -630.32001
24.110001 -105.02 -630
24.66 -104.92 -629.40997
25.23 -104.88 -629.15002
25.790001 -104.82 -628.81
26.360001 -104.78 -628.57001
26.93 -104.74 -628.35999
27.49 -104.68 -628
28.049999 -104.64 -627.73999
28.610001 -104.58 -627.40002
29.190001 -104.58 -627.39001
29.74 -104.51 -626.96002
30.309999 -104.49 -626.85999
30.879999 -104.48 -626.77002
31.450001 -104.43 -626.51001
32.009998 -104.4 -626.31
32.59 -104.41 -626.38
33.16 -104.41 -626.40997
33.740002 -104.41 -626.40997
34.310001 -104.41 -626.34998
34.889999 -104.41 -626.35999
35.470001 -104.43 -626.5
36.049999 -104.45 -626.59003
36.619999 -104.45 -626.59003
37.209999 -104.47 -626.71997
37.790001 -104.48 -626.78998
38.360001 -104.48 -626.77002
38.939999 -104.5 -626.91998
39.52 -104.52 -626.98999
40.119999 -104.57 -627.33002
40.700001 -104.58 -627.34998
41.279999 -104.59 -627.46002
41.860001 -104.62 -627.58002
42.459999 -104.66 -627.84003
43.049999 -104.69 -628.01001
43.630001 -104.71 -628.12
44.220001 -104.73 -628.28003
44.810001 -104.78 -628.56
45.41 -104.82 -628.78998
46 -104.85 -628.96002
46.59 -104.88 -629.13
47.200001 -104.95 -629.53003
47.790001 -104.98 -629.72998
48.389999 -105.03 -630.02002
49 -105.09 -630.40002
49.610001 -105.17 -630.85999
50.220001 -105.24 -631.28003
50.830002 -105.29 -631.54999
51.43 -105.35 -631.89001
52.049999 -105.43 -632.35999
52.669998 -105.51 -632.83002
53.32 -105.63 -633.57001
53.950001 -105.74 -634.21002
54.560001 -105.79 -634.48999
102.93 -104.65 -627.70001
103.49 -104.63 -627.59003
104.06 -104.63 -627.59998
104.64 -104.64 -627.62
105.19 -104.61 -627.45001
105.82 -104.66 -627.75
106.39 -104.66 -627.71997
106.96 -104.65 -627.70001
-157.00999 -92.75 -554.58002
-156.49001 -92.739998 -554.53003
-155.88 -92.690002 -554.19
-155.28999 -92.639999 -553.88
-154.74001 -92.610001 -553.71997
-154.19 -92.580002 -553.56
-153.67 -92.57 -553.5
-153.14 -92.559998 -553.44
-152.64 -92.57 -553.46002
-152.14999 -92.580002 -553.52002
-151.66 -92.580002 -553.54999
-151.17999 -92.599998 -553.64001
-150.7 -92.620003 -553.72998
-150.25 -92.650002 -553.94
-149.78 -92.68 -554.07001
-149.33 -92.709999 -554.28998
-148.89 -92.760002 -554.53998
-148.49001 -92.82 -554.90002
-148.07001 -92.870003 -555.21997
-147.67999 -92.949997 -555.67999
-120.31 -91.860001 -549.14001
-119.59 -91.699997 -548.15997
-118.92 -91.57 -547.39001
-118.32 -91.489998 -546.95001
-117.76 -91.440002 -546.65997
-117.18 -91.379997 -546.31
-116.63 -91.339996 -546.08002
-116.1 -91.32 -545.96002
-115.59 -91.309998 -545.89001
-115.08 -91.309998 -545.85999
-114.59 -91.309998 -545.88
-114.09 -91.309998 -545.87
-113.59 -91.32 -545.90997
-113.1 -91.32 -545.92999
-112.6 -91.32 -545.94
-112.12 -91.339996 -546.03003
-111.65 -91.360001 -546.17999
-111.17 -91.379997 -546.26001
-110.69 -91.389999 -546.37
-110.23 -91.43 -546.58002
-109.74 -91.43 -546.59998
-109.24 -91.440002 -546.63
-108.75 -91.440002 -546.65997
-108.28 -91.470001 -546.78998
-107.82 -91.510002 -547.02002
-107.38 -91.559998 -547.34003
-106.91 -91.580002 -547.47998
-106.44 -91.610001 -547.65002
-105.99 -91.650002 -547.87
-105.53 -91.690002 -548.09998
-105.07 -91.730003 -548.33002
-104.63 -91.779999 -548.65997
-104.17 -91.82 -548.88
-103.74 -91.879997 -549.23999
-103.29 -91.93 -549.5
-102.85 -91.980003 -549.82001
-102.4 -92.029999 -550.10999
-101.97 -92.099998 -550.5
-101.53 -92.160004 -550.84998
-101.11 -92.239998 -551.33002
-100.68 -92.300003 -551.70001
-100.27 -92.389999 -552.21997
-99.849998 -92.470001 -552.71002
-99.470001 -92.589996 -553.40997
-99.099998 -92.720001 -554.16998
-98.760002 -92.870003 -555.07001
-98.389999 -93 -555.83002
-98 -93.120003 -556.52002
-90.639999 -97.830002 -584.17999
-89.93 -97.639999 -583.06
-89.25 -97.480003 -582.15002
-88.599998 -97.360001 -581.41998
-87.889999 -97.160004 -580.27002
-87.18 -96.959999 -579.07001
-86.559998 -96.860001 -578.5
-86 -96.82 -578.26001
-85.370003 -96.709999 -577.59998
-84.769997 -96.629997 -577.15002
-84.18 -96.559998 -576.77002
-83.57 -96.470001 -576.21002
-83.019997 -96.43 -576.01001
-82.419998 -96.349998 -575.53003
-81.830002 -96.290001 -575.14001
-81.269997 -96.239998 -574.84998
-80.709999 -96.209999 -574.66998
-80.190002 -96.209999 -574.66998
-79.139999 -95.580002 -571.01001
-77.900002 -94.709999 -565.84998
-77.260002 -94.550003 -564.96002
-76.660004 -94.459999 -564.40997
-76.099998 -94.400002 -564.04999
-75.550003 -94.360001 -563.84003
-75 -94.32 -563.56
-74.480003 -94.32 -563.57001
-73.970001 -94.32 -563.59998
-73.449997 -94.32 -563.58002
-72.93 -94.309998 -563.56
-72.43 -94.330002 -563.65997
-71.919998 -94.339996 -563.70001
-71.419998 -94.370003 -563.87
-70.919998 -94.389999 -563.98999
-70.43 -94.410004 -564.15002
-69.919998 -94.43 -564.21997
-69.43 -94.459999 -564.45001
-68.93 -94.489998 -564.60999
-68.43 -94.510002 -564.73999
-67.93 -94.529999 -564.85999
-67.440002 -94.57 -565.09998
-66.940002 -94.610001 -565.28998
-66.449997 -94.639999 -565.51001
-65.940002 -94.660004 -565.58002
-65.449997 -94.690002 -565.79999
-64.959999 -94.730003 -566.03998
-64.480003 -94.790001 -566.38
-63.98 -94.809998 -566.5
-63.490002 -94.860001 -566.81
-63 -94.900002 -567.03998
-62.52 -94.959999 -567.40002
-62.029999 -95.010002 -567.67999
-61.549999 -95.07 -568.03003
-61.07 -95.129997 -568.37
-60.580002 -95.190002 -568.72998
-60.099998 -95.239998 -569.04999
-59.619999 -95.309998 -569.45001
-59.139999 -95.379997 -569.82001
-58.639999 -95.419998 -570.09998
-58.169998 -95.5 -570.53998
-57.689999 -95.580002 -571.03003
-57.209999 -95.650002 -571.41998
-56.740002 -95.730003 -571.94
-56.259998 -95.82 -572.42999
-55.77 -95.879997 -572.77002
-55.290001 -95.949997 -573.17999
-54.82 -96.040001 -573.76001
-54.330002 -96.110001 -574.14001
-53.849998 -96.199997 -574.67999
-53.369999 -96.269997 -575.09003
-52.900002 -96.379997 -575.76001
-52.43 -96.480003 -576.32001
-51.959999 -96.580002 -576.95001
-51.48 -96.690002 -577.56
-51.009998 -96.800003 -578.22998
-50.529999 -96.900002 -578.81
-50.049999 -96.989998 -579.33002
-49.560001 -97.07 -579.83002
-49.07 -97.150002 -580.29999
-48.580002 -97.239998 -580.79999
-48.09 -97.32 -581.28998
-47.580002 -97.370003 -581.59003
-47.07 -97.410004 -581.83002
-46.560001 -97.459999 -582.09003
-46.049999 -97.510002 -582.41998
-45.540001 -97.57 -582.75
-45.040001 -97.639999 -583.19
-44.549999 -97.730003 -583.70001
-44.09 -97.889999 -584.64001
-43.73 -98.300003 -587.08002
-43.369999 -98.690002 -589.37
-42.919998 -98.910004 -590.64001
-42.5 -99.18 -592.26001
-42.080002 -99.480003 -594
-41.77 -100.04 -597.29999
-41.439999 -104.75 -625.01001
-40.880001 -104.79 -625.21002
-40.330002 -104.85 -625.56
-39.759998 -104.85 -625.59998
-39.209999 -104.92 -625.97998
-38.650002 -104.96 -626.21002
-38.41 -105.87 -631.56
-37.950001 -106.2 -633.52002
-37.389999 -106.26 -633.88
-36.810001 -106.29 -634.02002
-36.240002 -106.32 -634.20001
-35.689999 -106.39 -634.63
-35.130001 -106.48 -635.17999
-34.540001 -106.46 -635.06
-33.950001 -106.43 -634.85999
-33.360001 -106.4 -634.67999
22.49 -106.12 -633.04999
23.030001 -105.97 -632.17999
23.6 -105.9 -631.75
24.16 -105.82 -631.31
24.719999 -105.73 -630.78003
25.280001 -105.66 -630.34003
25.85 -105.64 -630.27002
26.41 -105.57 -629.82001
26.98 -105.51 -629.46002
27.540001 -105.45 -629.15002
28.1 -105.4 -628.84998
28.67 -105.37 -628.65002
29.23 -105.3 -628.27002
29.799999 -105.29 -628.20001
30.370001 -105.25 -627.96002
30.93 -105.2 -627.64001
31.5 -105.19 -627.59003
32.07 -105.18 -627.53003
32.639999 -105.16 -627.44
33.209999 -105.14 -627.28998
33.790001 -105.13 -627.25
34.349998 -105.1 -627.03003
34.93 -105.13 -627.20001
35.5 -105.11 -627.10999
36.080002 -105.12 -627.15002
36.66 -105.14 -627.28003
37.240002 -105.15 -627.35999
37.82 -105.16 -627.40997
38.41 -105.2 -627.62
38.990002 -105.21 -627.72998
39.580002 -105.23 -627.83002
40.16 -105.26 -627.98999
40.75 -105.29 -628.14001
41.34 -105.32 -628.34998
41.919998 -105.34 -628.45001
42.52 -105.38 -628.71997
43.110001 -105.43 -628.98999
43.700001 -105.45 -629.10999
44.290001 -105.48 -629.25
44.889999 -105.53 -629.54999
45.470001 -105.54 -629.63
46.07 -105.58 -629.89001
46.669998 -105.64 -630.19
47.27 -105.68 -630.46002
47.880001 -105.76 -630.89001
48.48 -105.81 -631.17999
49.09 -105.87 -631.59003
49.689999 -105.92 -631.87
50.32 -106.02 -632.46002
50.93 -106.08 -632.82001
51.540001 -106.15 -633.22998
52.169998 -106.25 -633.78003
52.810001 -106.37 -634.5
103.49 -105.21 -627.58002
104.09 -105.24 -627.78003
104.67 -105.24 -627.78003
105.22 -105.22 -627.64001
105.81 -105.23 -627.72998
106.39 -105.23 -627.72998
-156.45 -93.230003 -554.40997
-155.92999 -93.220001 -554.34003
-155.32001 -93.160004 -553.98999
-154.75 -93.120003 -553.76001
-154.17999 -93.089996 -553.54999
-153.64 -93.059998 -553.40002
-153.12 -93.059998 -553.37
-152.61 -93.050003 -553.34003
-152.08 -93.040001 -553.27002
-151.59 -93.050003 -553.33002
-151.10001 -93.059998 -553.35999
-150.62 -93.080002 -553.46997
-150.17 -93.110001 -553.65997
-149.7 -93.129997 -553.78003
-149.25 -93.169998 -553.97998
-148.78 -93.199997 -554.14001
-148.36 -93.25 -554.42999
-147.92 -93.290001 -554.69
-147.53 -93.360001 -555.12
-147.11 -93.419998 -555.46002
-120.33 -92.379997 -549.22998
-119.61 -92.220001 -548.28003
-118.95 -92.089996 -547.53998
-118.34 -92.010002 -547.03003
-117.77 -91.959999 -546.73999
-117.2 -91.900002 -546.41998
-116.66 -91.860001 -546.21002
-116.12 -91.839996 -546.03003
-115.6 -91.82 -545.96002
-115.09 -91.82 -545.91998
-114.59 -91.809998 -545.90002
-114.1 -91.82 -545.95001
-113.62 -91.839996 -546.03003
-113.11 -91.830002 -546
-112.62 -91.839996 -546.03003
-112.15 -91.860001 -546.15002
-111.67 -91.870003 -546.25
-111.19 -91.889999 -546.35999
-110.71 -91.910004 -546.46997
-110.24 -91.93 -546.59998
-109.74 -91.93 -546.59003
-109.24 -91.940002 -546.62
-108.75 -91.949997 -546.67999
-108.27 -91.959999 -546.73999
-107.85 -92.029999 -547.19
-107.4 -92.07 -547.40997
-106.93 -92.099998 -547.56
-106.47 -92.129997 -547.76001
-106.01 -92.169998 -547.97998
-105.55 -92.209999 -548.22998
-105.09 -92.25 -548.45001
-104.65 -92.300003 -548.76001
-104.2 -92.349998 -549.02002
-103.76 -92.410004 -549.34998
-103.3 -92.440002 -549.58002
-102.87 -92.510002 -549.94
-102.43 -92.559998 -550.27002
-101.99 -92.620003 -550.63
-101.57 -92.699997 -551.06
-101.15 -92.779999 -551.54999
-100.73 -92.860001 -552.01001
-100.33 -92.949997 -552.54999
-99.919998 -93.040001 -553.07001
-99.550003 -93.169998 -553.82001
-99.160004 -93.290001 -554.5
-98.839996 -93.459999 -555.52002
-98.489998 -93.610001 -556.38
-89.529999 -98.32 -583.96002
-88.809998 -98.110001 -582.73999
-88.199997 -98.029999 -582.23999
-87.470001 -97.809998 -580.97998
-86.800003 -97.660004 -580.08002
-86.18 -97.550003 -579.46997
-85.599998 -97.5 -579.15997
-85 -97.43 -578.71997
-84.419998 -97.370003 -578.39001
-83.82 -97.279999 -577.89001
-83.220001 -97.199997 -577.38
-82.610001 -97.110001 -576.88
-82.029999 -97.050003 -576.52002
-81.440002 -96.970001 -576.08002
-80.870003 -96.919998 -575.76001
-80.279999 -96.839996 -575.33002
-79.75 -96.839996 -575.29999
-78.860001 -96.400002 -572.73999
-77.620003 -95.519997 -567.59003
-76.809998 -95.160004 -565.46997
-76.209999 -95.050003 -564.84998
-75.650002 -95 -564.53003
-75.099998 -94.959999 -564.28998
-74.550003 -94.919998 -564.09998
-74.040001 -94.919998 -564.09998
-73.510002 -94.910004 -564.03998
-72.989998 -94.900002 -563.98999
-72.470001 -94.900002 -563.98999
-71.980003 -94.93 -564.15002
-71.470001 -94.949997 -564.22998
-70.959999 -94.959999 -564.31
-70.459999 -94.980003 -564.42999
-69.959999 -95 -564.57001
-69.459999 -95.019997 -564.70001
-68.959999 -95.050003 -564.87
-68.449997 -95.059998 -564.92999
-67.959999 -95.089996 -565.09998
-67.470001 -95.129997 -565.32001
-66.970001 -95.169998 -565.54999
-66.480003 -95.199997 -565.71002
-65.980003 -95.230003 -565.90002
-65.5 -95.279999 -566.19
-65.010002 -95.330002 -566.46997
-64.5 -95.339996 -566.58002
-64.010002 -95.379997 -566.76001
-63.529999 -95.440002 -567.12
-63.040001 -95.480003 -567.40002
-62.549999 -95.529999 -567.66998
-62.060001 -95.580002 -567.96997
-61.580002 -95.639999 -568.34003
-61.099998 -95.699997 -568.66998
-60.610001 -95.760002 -569
-60.130001 -95.82 -569.38
-59.650002 -95.879997 -569.71997
-59.16 -95.93 -570.03003
-58.68 -96.010002 -570.46997
-58.189999 -96.059998 -570.79999
-57.720001 -96.150002 -571.33002
-57.240002 -96.220001 -571.72998
-56.759998 -96.290001 -572.14001
-56.279999 -96.370003 -572.58002
-55.790001 -96.43 -572.91998
-55.310001 -96.510002 -573.40002
-54.84 -96.599998 -573.95001
-54.34 -96.660004 -574.27002
-53.860001 -96.739998 -574.75
-53.389999 -96.839996 -575.32001
-52.919998 -96.940002 -575.92999
-52.439999 -97.040001 -576.5
-51.970001 -97.150002 -577.14001
-51.5 -97.25 -577.75
-51.029999 -97.360001 -578.37
-50.549999 -97.449997 -578.91998
-50.060001 -97.529999 -579.39001
-49.560001 -97.599998 -579.82001
-49.07 -97.690002 -580.33002
-48.599998 -97.800003 -580.96002
-48.099998 -97.870003 -581.34998
-47.580002 -97.900002 -581.53998
-47.07 -97.940002 -581.77002
-46.549999 -97.980003 -582.03998
-46.049999 -98.040001 -582.37
-45.540001 -98.089996 -582.67999
-45.040001 -98.169998 -583.10999
-44.540001 -98.25 -583.63
-44.07 -98.379997 -584.39001
-43.700001 -98.779999 -586.67999
-43.360001 -99.209999 -589.23999
-42.91 -99.419998 -590.44
-42.48 -99.68 -592
-42.060001 -99.980003 -593.75
-41.75 -100.55 -597.06
-40.93 -105.48 -625.89001
-40.369999 -105.52 -626.14001
-39.810001 -105.56 -626.38
-39.25 -105.61 -626.65997
-38.799999 -105.93 -628.53998
-38.490002 -106.68 -632.90002
-37.970001 -106.85 -633.92999
-37.439999 -107 -634.81
-36.880001 -107.06 -635.16998
-36.299999 -107.06 -635.13
-35.73 -107.09 -635.34003
-35.150002 -107.1 -635.39001
-34.549999 -107.05 -635.09003
-33.939999 -106.98 -634.65997
24.209999 -106.63 -632.66998
24.780001 -106.59 -632.41998
25.34 -106.49 -631.84003
25.91 -106.45 -631.59003
26.469999 -106.36 -631.09003
27.040001 -106.32 -630.84003
27.59 -106.24 -630.39001
28.16 -106.2 -630.09998
28.719999 -106.13 -629.73999
29.290001 -106.11 -629.59003
29.85 -106.05 -629.23999
30.43 -106.03 -629.15002
30.99 -105.99 -628.88
31.559999 -105.97 -628.76001
32.130001 -105.93 -628.52002
32.689999 -105.9 -628.39001
33.27 -105.9 -628.35999
33.84 -105.87 -628.19
34.419998 -105.88 -628.25
34.990002 -105.86 -628.15997
35.560001 -105.85 -628.04999
36.139999 -105.86 -628.12
36.720001 -105.87 -628.19
37.299999 -105.88 -628.23999
37.880001 -105.9 -628.34998
38.470001 -105.94 -628.57001
39.049999 -105.93 -628.52002
39.630001 -105.96 -628.67999
40.220001 -105.99 -628.90002
40.810001 -106.01 -629.03003
41.400002 -106.05 -629.22998
41.990002 -106.08 -629.44
42.580002 -106.12 -629.65997
43.169998 -106.15 -629.83002
43.779999 -106.21 -630.17999
44.369999 -106.25 -630.40997
44.970001 -106.3 -630.71997
45.549999 -106.3 -630.66998
46.150002 -106.35 -631
46.759998 -106.42 -631.40997
47.369999 -106.49 -631.78003
47.98 -106.55 -632.15997
48.580002 -106.62 -632.53003
49.189999 -106.66 -632.82001
49.799999 -106.73 -633.19
50.419998 -106.81 -633.66998
51.049999 -106.91 -634.23999
51.669998 -106.99 -634.71002
103.48 -105.77 -627.53003
104.07 -105.79 -627.65002
104.67 -105.82 -627.78003
105.25 -105.82 -627.78998
105.82 -105.81 -627.75
106.38 -105.8 -627.65002
-155.87 -93.690002 -554.13
-155.35001 -93.690002 -554.10999
-154.75999 -93.639999 -553.81
-154.17999 -93.589996 -553.56
-153.62 -93.559998 -553.35999
-153.09 -93.550003 -553.28003
-152.55 -93.519997 -553.14001
-152.05 -93.529999 -553.14001
-151.53999 -93.529999 -553.14001
-151.03 -93.519997 -553.10999
-150.56 -93.540001 -553.22998
-150.08 -93.559998 -553.34998
-149.62 -93.589996 -553.5
-149.16 -93.620003 -553.66998
-148.69 -93.650002 -553.79999
-148.25 -93.68 -554.02002
-147.81 -93.730003 -554.28998
-147.38 -93.779999 -554.57001
-146.98 -93.849998 -554.97998
-146.62 -93.940002 -555.5
-120.31 -92.870003 -549.13
-119.61 -92.720001 -548.25
-118.96 -92.599998 -547.58002
-118.34 -92.510002 -547.03003
-117.77 -92.449997 -546.71002
-117.21 -92.410004 -546.46002
-116.65 -92.360001 -546.20001
-116.13 -92.339996 -546.08002
-115.61 -92.32 -545.96997
-115.1 -92.32 -545.96002
-114.61 -92.330002 -545.98999
-114.11 -92.330002 -545.98999
-113.62 -92.339996 -546.03003
-113.11 -92.330002 -546.01001
-112.64 -92.349998 -546.10999
-112.15 -92.360001 -546.15997
-111.67 -92.370003 -546.25
-111.19 -92.400002 -546.38
-110.71 -92.410004 -546.45001
-110.24 -92.440002 -546.62
-109.76 -92.449997 -546.69
-109.23 -92.43 -546.59003
-108.72 -92.419998 -546.5
-108.29 -92.480003 -546.84998
-107.88 -92.559998 -547.34003
-107.42 -92.589996 -547.53003
-106.95 -92.620003 -547.70001
-106.49 -92.660004 -547.89001
-106.02 -92.68 -548.04999
-105.58 -92.739998 -548.34998
-105.12 -92.769997 -548.56
-104.67 -92.82 -548.83002
-104.23 -92.879997 -549.16998
-103.77 -92.919998 -549.40997
-103.34 -92.980003 -549.75
-102.9 -93.040001 -550.12
-102.45 -93.089996 -550.39001
-102.04 -93.169998 -550.87
-101.61 -93.239998 -551.27002
-101.19 -93.32 -551.76001
-100.77 -93.400002 -552.21997
-100.37 -93.5 -552.79999
-99.970001 -93.599998 -553.35999
-99.610001 -93.730003 -554.15002
-99.25 -93.879997 -554.98999
-98.919998 -94.040001 -555.92999
-98.580002 -94.199997 -556.87
-88.389999 -98.779999 -583.48999
-87.720001 -98.629997 -582.62
-87.089996 -98.519997 -582.01001
-86.379997 -98.32 -580.84003
-85.769997 -98.230003 -580.29999
-85.209999 -98.190002 -580.09998
-84.629997 -98.129997 -579.75
-84.019997 -98.050003 -579.26001
-83.419998 -97.959999 -578.73999
-82.790001 -97.849998 -578.09003
-82.190002 -97.760002 -577.57001
-81.57 -97.660004 -577
-80.989998 -97.589996 -576.59998
-80.440002 -97.57 -576.46002
-79.870003 -97.510002 -576.14001
-79.309998 -97.470001 -575.90002
-78.57 -97.209999 -574.40997
-77.279999 -96.269997 -568.90997
-76.400002 -95.82 -566.28998
-75.769997 -95.669998 -565.44
-75.18 -95.580002 -564.91998
-74.629997 -95.529999 -564.65002
-74.099998 -95.519997 -564.56
-73.559998 -95.489998 -564.40997
-73.040001 -95.489998 -564.38
-72.529999 -95.5 -564.41998
-72.029999 -95.519997 -564.53998
-71.5 -95.510002 -564.5
-70.989998 -95.510002 -564.53003
-70.489998 -95.540001 -564.67999
-69.989998 -95.559998 -564.78998
-69.5 -95.599998 -565.04999
-69 -95.610001 -565.12
-68.480003 -95.620003 -565.14001
-67.989998 -95.660004 -565.35999
-67.5 -95.699997 -565.59003
-67 -95.730003 -565.78003
-66.519997 -95.769997 -566.03998
-66.019997 -95.800003 -566.21002
-65.519997 -95.839996 -566.40997
-65.019997 -95.870003 -566.59003
-64.529999 -95.910004 -566.82001
-64.040001 -95.949997 -567.08002
-63.560001 -96 -567.37
-63.060001 -96.040001 -567.62
-62.59 -96.110001 -568.03003
-62.099998 -96.160004 -568.33002
-61.619999 -96.220001 -568.63
-61.130001 -96.269997 -568.96997
-60.650002 -96.339996 -569.33002
-60.169998 -96.400002 -569.70001
-59.68 -96.449997 -570.02002
-59.189999 -96.510002 -570.33002
-58.720001 -96.589996 -570.82001
-58.23 -96.639999 -571.13
-57.75 -96.720001 -571.56
-57.27 -96.790001 -571.96997
-56.779999 -96.849998 -572.31
-56.290001 -96.910004 -572.70001
-55.810001 -96.980003 -573.10999
-55.32 -97.059998 -573.54999
-54.84 -97.139999 -574.01001
-54.349998 -97.199997 -574.38
-53.880001 -97.290001 -574.90997
-53.41 -97.400002 -575.53003
-52.939999 -97.5 -576.10999
-52.470001 -97.610001 -576.72998
-51.990002 -97.709999 -577.34003
-51.52 -97.809998 -577.95001
-51.060001 -97.940002 -578.70001
-50.560001 -98.010002 -579.07001
-50.060001 -98.07 -579.46997
-49.57 -98.150002 -579.90002
-49.099998 -98.269997 -580.58002
-48.599998 -98.349998 -581.04999
-48.09 -98.379997 -581.26001
-47.580002 -98.43 -581.53003
-47.07 -98.470001 -581.79999
-46.549999 -98.510002 -581.98999
-46.040001 -98.57 -582.34003
-45.529999 -98.610001 -582.60999
-45.040001 -98.699997 -583.12
-44.540001 -98.790001 -583.62
-44.060001 -98.910004 -584.32001
-43.720001 -99.349998 -586.90997
-43.349998 -99.730003 -589.14001
-42.900002 -99.949997 -590.35999
-42.459999 -100.19 -591.78003
-42.029999 -100.45 -593.29999
-41.73 -101.03 -596.66998
-40.950001 -106.11 -626.25
-40.41 -106.19 -626.67999
-39.849998 -106.24 -627
-39.310001 -106.34 -627.59003
-38.919998 -106.84 -630.48999
-38.52 -107.33 -633.31
-38.009998 -107.53 -634.48999
-37.5 -107.76 -635.82001
-36.959999 -107.88 -636.53998
-36.360001 -107.83 -636.23999
-35.779999 -107.83 -636.26001
-35.16 -107.72 -635.62
25.959999 -107.22 -632.69
26.530001 -107.19 -632.5
27.1 -107.15 -632.31
27.66 -107.05 -631.73999
28.219999 -106.99 -631.35999
28.780001 -106.94 -631.07001
29.35 -106.9 -630.83002
29.92 -106.86 -630.58002
30.48 -106.81 -630.29999
31.049999 -106.76 -630.02002
31.620001 -106.75 -629.96002
32.189999 -106.71 -629.71997
32.75 -106.67 -629.5
33.32 -106.63 -629.27002
33.900002 -106.65 -629.37
34.470001 -106.62 -629.21997
35.040001 -106.61 -629.13
35.610001 -106.57 -628.90002
36.189999 -106.58 -628.95001
36.77 -106.6 -629.06
37.360001 -106.63 -629.23999
37.939999 -106.64 -629.31
38.52 -106.64 -629.34003
39.099998 -106.64 -629.33002
39.689999 -106.68 -629.56
40.290001 -106.74 -629.87
40.869999 -106.76 -630.03003
41.470001 -106.8 -630.25
42.049999 -106.82 -630.38
42.66 -106.88 -630.71002
43.25 -106.92 -630.95001
43.849998 -106.97 -631.25
44.439999 -107 -631.41998
45.040001 -107.04 -631.65002
45.650002 -107.11 -632.04999
46.259998 -107.19 -632.46997
46.869999 -107.25 -632.84003
47.470001 -107.3 -633.13
48.080002 -107.36 -633.46997
48.689999 -107.42 -633.84998
49.290001 -107.48 -634.16998
49.919998 -107.57 -634.72998
104.07 -106.37 -627.60999
104.62 -106.34 -627.47998
105.19 -106.34 -627.47998
105.73 -106.3 -627.26001
-155.33 -94.18 -554.03003
-154.81 -94.169998 -553.96997
-154.21001 -94.110001 -553.64001
-153.64999 -94.080002 -553.45001
-153.09 -94.050003 -553.27002
-152.53999 -94.019997 -553.09998
-152.02 -94.010002 -553.03003
-151.5 -94.010002 -553.01001
-150.99001 -94.010002 -552.98999
-150.5 -94.019997 -553.03998
-150.03 -94.029999 -553.14001
-149.55 -94.050003 -553.22998
-149.07001 -94.07 -553.33002
-148.61 -94.099998 -553.51001
-148.14999 -94.129997 -553.66998
-147.67999 -94.160004 -553.82001
-147.25 -94.199997 -554.08002
-146.84 -94.269997 -554.45001
-146.47 -94.349998 -554.95001
-146.07001 -94.419998 -555.34003
-120.33 -93.379997 -549.21997
-119.6 -93.209999 -548.20001
-118.98 -93.120003 -547.66998
-118.37 -93.029999 -547.19
-117.79 -92.970001 -546.81
-117.22 -92.910004 -546.48999
-116.68 -92.889999 -546.33002
-116.13 -92.849998 -546.10999
-115.62 -92.839996 -546.03998
-115.12 -92.839996 -546.03003
-114.63 -92.839996 -546.08002
-114.13 -92.839996 -546.07001
-113.63 -92.839996 -546.06
-113.13 -92.849998 -546.09998
-112.65 -92.860001 -546.16998
-112.18 -92.889999 -546.32001
-111.69 -92.889999 -546.37
-111.22 -92.919998 -546.51001
-110.74 -92.940002 -546.63
-110.26 -92.949997 -546.69
-109.77 -92.959999 -546.75
-109.28 -92.970001 -546.83002
-108.81 -93 -546.95001
-108.36 -93.040001 -547.21997
-107.91 -93.080002 -547.45001
-107.46 -93.129997 -547.71997
-106.98 -93.150002 -547.84003
-106.54 -93.199997 -548.12
-106.06 -93.220001 -548.22998
-105.6 -93.260002 -548.47998
-105.14 -93.300003 -548.70001
-104.7 -93.349998 -549
-104.25 -93.400002 -549.27002
-103.81 -93.459999 -549.63
-103.36 -93.510002 -549.90002
-102.92 -93.559998 -550.21997
-102.49 -93.629997 -550.59003
-102.07 -93.709999 -551.04999
-101.64 -93.769997 -551.42999
-101.25 -93.879997 -552.04999
-100.82 -93.949997 -552.48999
-100.45 -94.080002 -553.19
-100.06 -94.190002 -553.84003
-99.669998 -94.300003 -554.51001
-99.32 -94.449997 -555.34998
-98.989998 -94.620003 -556.34998
-99.370003 -95.470001 -561.28003
-87.949997 -99.419998 -584.10999
-87.339996 -99.330002 -583.59003
-86.68 -99.190002 -582.81
-86.019997 -99.040001 -581.94
-85.400002 -98.940002 -581.35999
-84.800003 -98.870003 -580.92999
-84.209999 -98.800003 -580.51001
-83.620003 -98.730003 -580.14001
-83.019997 -98.650002 -579.65002
-82.410004 -98.559998 -579.15002
-81.800003 -98.459999 -578.57001
-81.209999 -98.389999 -578.17999
-80.589996 -98.279999 -577.53003
-80.010002 -98.220001 -577.16998
-79.440002 -98.160004 -576.84003
-78.889999 -98.129997 -576.67999
-78.32 -98.080002 -576.40002
-77.139999 -97.269997 -571.65997
-76.019997 -96.5 -567.27002
-75.330002 -96.300003 -566.06
-74.730003 -96.190002 -565.42999
-74.18 -96.139999 -565.15002
-73.650002 -96.129997 -565.08002
-73.129997 -96.120003 -565.03003
-72.599998 -96.110001 -564.96997
-72.080002 -96.099998 -564.94
-71.550003 -96.089996 -564.90002
-71.050003 -96.110001 -564.97998
-70.550003 -96.129997 -565.13
-70.040001 -96.139999 -565.19
-69.529999 -96.160004 -565.28998
-69.029999 -96.18 -565.40997
-68.529999 -96.209999 -565.58002
-68.029999 -96.230003 -565.70001
-67.540001 -96.269997 -565.94
-67.040001 -96.300003 -566.09003
-66.540001 -96.330002 -566.28003
-66.050003 -96.370003 -566.52002
-65.559998 -96.410004 -566.72998
-65.07 -96.449997 -566.98999
-64.580002 -96.5 -567.25
-64.089996 -96.540001 -567.47998
-63.599998 -96.580002 -567.71997
-63.110001 -96.639999 -568.06
-62.630001 -96.690002 -568.34003
-62.130001 -96.730003 -568.60999
-61.650002 -96.779999 -568.90997
-61.16 -96.849998 -569.27002
-60.689999 -96.919998 -569.67999
-60.200001 -96.980003 -570.01001
-59.720001 -97.040001 -570.40002
-59.23 -97.089996 -570.67999
-58.73 -97.139999 -570.97998
-58.259998 -97.230003 -571.46997
-57.77 -97.279999 -571.78003
-57.279999 -97.339996 -572.10999
-56.799999 -97.410004 -572.54999
-56.310001 -97.470001 -572.87
-55.830002 -97.559998 -573.38
-55.34 -97.610001 -573.71002
-54.860001 -97.690002 -574.14001
-54.380001 -97.769997 -574.62
-53.91 -97.879997 -575.23999
-53.43 -97.959999 -575.75
-52.950001 -98.059998 -576.28003
-52.48 -98.169998 -576.94
-52.02 -98.290001 -577.64001
-51.549999 -98.400002 -578.26001
-51.07 -98.489998 -578.82001
-50.57 -98.559998 -579.20001
-50.09 -98.660004 -579.77002
-49.599998 -98.739998 -580.22998
-49.110001 -98.830002 -580.73999
-48.610001 -98.889999 -581.09998
-48.110001 -98.949997 -581.46997
-47.59 -98.980003 -581.65002
-47.080002 -99.019997 -581.89001
-46.560001 -99.059998 -582.08002
-46.049999 -99.120003 -582.42999
-45.540001 -99.169998 -582.71997
-45.040001 -99.239998 -583.12
-44.540001 -99.32 -583.59998
-44.07 -99.459999 -584.40002
-43.75 -99.959999 -587.31
-43.34 -100.25 -588.96997
-42.889999 -100.45 -590.17999
-42.450001 -100.69 -591.53998
-42 -100.92 -592.89001
-40.41 -106.76 -626.69
-39.889999 -106.91 -627.53998
-39.360001 -107.05 -628.34003
-39.029999 -107.71 -632.16998
-38.560001 -108.03 -634.02002
-38.049999 -108.23 -635.19
-37.549999 -108.48 -636.63
-37.009998 -108.62 -637.40997
-36.450001 -108.67 -637.70001
-35.84 -108.6 -637.28998
28.290001 -107.83 -632.84998
28.860001 -107.82 -632.78998
29.42 -107.74 -632.34998
29.99 -107.69 -632.04999
30.559999 -107.66 -631.87
31.120001 -107.59 -631.46002
31.700001 -107.58 -631.40002
32.259998 -107.54 -631.19
32.830002 -107.5 -630.94
33.389999 -107.44 -630.62
33.970001 -107.44 -630.62
34.529999 -107.38 -630.27002
35.110001 -107.39 -630.28998
35.689999 -107.41 -630.42999
36.27 -107.4 -630.37
36.84 -107.39 -630.29999
37.419998 -107.4 -630.34003
38.02 -107.44 -630.57001
38.59 -107.43 -630.53003
39.189999 -107.47 -630.78003
39.77 -107.49 -630.90002
40.369999 -107.53 -631.13
40.959999 -107.56 -631.32001
41.549999 -107.6 -631.5
42.150002 -107.64 -631.72998
42.75 -107.71 -632.14001
43.360001 -107.76 -632.46002
43.959999 -107.81 -632.75
44.560001 -107.86 -633
45.169998 -107.95 -633.53998
45.77 -107.99 -633.78003
46.369999 -108.03 -634
