# .PCD v0.7 - Point Cloud Data file format
VERSION 0.7
FIELDS x y z
SIZE 4 4 4
TYPE F F F
COUNT 1 1 1
WIDTH 1658
HEIGHT 1
VIEWPOINT 0 0 0 1 0 0 0
POINTS 1658
DATA ascii
-123.3 -2.48 -574.40002
-122.74 -2.48 -574.22998
-122.17 -2.48 -574.04999
-121.61 -2.48 -573.85999
-121.05 -2.47 -573.71997
-120.49 -2.47 -573.58002
-119.95 -2.47 -573.48999
-119.42 -2.47 -573.46997
-118.88 -2.47 -573.40997
-118.38 -2.47 -573.53003
-117.86 -2.47 -573.53998
-117.33 -2.47 -573.52002
-116.81 -2.47 -573.56
-116.3 -2.47 -573.64001
-115.79 -2.47 -573.71997
-115.26 -2.47 -573.71997
-114.75 -2.48 -573.78998
-114.24 -2.48 -573.84998
-113.74 -2.48 -573.97998
-113.22 -2.48 -574.01001
-112.71 -2.48 -574.10999
-112.19 -2.48 -574.15002
-111.71 -2.48 -574.38
-111.2 -2.48 -574.44
-110.71 -2.48 -574.60999
-110.23 -2.48 -574.87
-109.76 -2.48 -575.16998
-109.29 -2.48 -575.45001
-108.83 -2.48 -575.79999
-108.36 -2.49 -576.10999
-107.88 -2.49 -576.38
-107.41 -2.49 -576.69
-106.96 -2.49 -577.10999
-106.5 -2.49 -577.46002
-106.05 -2.49 -577.89001
-105.61 -2.5 -578.35999
-105.16 -2.5 -578.82001
-104.73 -2.5 -579.34003
-104.29 -2.5 -579.84998
-103.84 -2.5 -580.29999
-103.44 -2.51 -581.03003
-103.06 -2.51 -581.90997
-102.65 -2.51 -582.58002
-102.24 -2.52 -583.27002
-101.85 -2.52 -584.09003
-101.45 -2.52 -584.85999
-101.07 -2.53 -585.78003
-100.7 -2.53 -586.71002
-96.129997 -2.75 -637.76001
-95.699997 -2.76 -638.83002
-95.220001 -2.76 -639.52002
-94.699997 -2.76 -639.97998
-94.18 -2.77 -640.41998
-93.610001 -2.77 -640.52002
-93.040001 -2.77 -640.66998
-92.480003 -2.77 -640.84998
-91.93 -2.77 -641.09998
-91.349998 -2.77 -641.19
-90.790001 -2.77 -641.35999
-90.199997 -2.77 -641.38
-89.650002 -2.77 -641.62
-89.089996 -2.77 -641.81
-88.519997 -2.77 -642
-87.959999 -2.77 -642.20001
-87.389999 -2.77 -642.29999
-86.82 -2.78 -642.48999
-86.25 -2.78 -642.60999
-85.650002 -2.78 -642.53003
-85.07 -2.78 -642.60999
-84.480003 -2.78 -642.59998
-83.879997 -2.78 -642.57001
-83.260002 -2.77 -642.31
-82.620003 -2.77 -641.92999
-82 -2.77 -641.65997
-81.349998 -2.77 -641.21997
-80.699997 -2.77 -640.77002
-80.040001 -2.77 -640.19
-79.400002 -2.76 -639.71997
-78.709999 -2.76 -638.90002
-77.989998 -2.76 -637.89001
-76.82 -2.73 -633.15002
-75.790001 -2.72 -629.42999
-75.07 -2.71 -628.22998
-74.389999 -2.71 -627.41998
-73.739998 -2.71 -626.77002
-73.099998 -2.7 -626.27002
-72.449997 -2.7 -625.58002
-71.82 -2.7 -625.13
-71.209999 -2.7 -624.76001
-70.589996 -2.7 -624.42999
-69.980003 -2.6900001 -624.07001
-69.379997 -2.6900001 -623.84998
-68.779999 -2.6900001 -623.59003
-68.190002 -2.6900001 -623.37
-67.599998 -2.6900001 -623.21997
-67.019997 -2.6900001 -623.20001
-66.449997 -2.6900001 -623.14001
-65.870003 -2.6900001 -623.08002
-65.279999 -2.6900001 -622.95001
-64.699997 -2.6900001 -622.89001
-64.129997 -2.6900001 -622.90997
-63.57 -2.6900001 -622.98999
-63 -2.6900001 -622.98999
-62.43 -2.6900001 -623.03998
-61.869999 -2.6900001 -623.13
-61.310001 -2.6900001 -623.25
-60.740002 -2.6900001 -623.27002
-60.189999 -2.6900001 -623.5
-59.630001 -2.6900001 -623.59998
-59.080002 -2.6900001 -623.82001
-58.529999 -2.6900001 -624.03998
-57.98 -2.7 -624.28998
-57.439999 -2.7 -624.60999
-56.880001 -2.7 -624.81
-56.330002 -2.7 -625.06
-55.790001 -2.7 -625.41998
-55.259998 -2.7 -625.88
-54.720001 -2.7 -626.27002
-54.189999 -2.71 -626.75
-53.66 -2.71 -627.28003
-53.119999 -2.71 -627.78003
-52.599998 -2.71 -628.34998
-52.07 -2.72 -628.96002
-51.560001 -2.72 -629.73999
-51.049999 -2.72 -630.56
-50.52 -2.73 -631.20001
-50.029999 -2.73 -632.26001
-49.529999 -2.73 -633.32001
-49.029999 -2.74 -634.31
-48.529999 -2.74 -635.32001
-48.02 -2.75 -636.37
-47.52 -2.75 -637.38
-46.98 -2.76 -638.01001
-46.439999 -2.76 -638.63
-45.91 -2.76 -639.33002
-45.380001 -2.76 -640.19
-44.900002 -2.77 -641.66998
-44.450001 -2.78 -643.70001
-44.07 -2.79 -646.71997
-43.66 -2.8 -649.34998
-43.169998 -2.8099999 -650.95001
-42.630001 -2.8199999 -651.87
-42.080002 -2.8199999 -652.63
-41.52 -2.8199999 -653.15002
-40.950001 -2.8199999 -653.69
-40.369999 -2.8199999 -653.95001
-39.48 -2.8 -649.34998
-33.509998 -2.4200001 -560.77002
-32.639999 -2.3900001 -554.75
-32.049999 -2.3800001 -553.47998
-31.49 -2.3800001 -552.57001
-30.969999 -2.3800001 -552.15997
-30.440001 -2.3800001 -551.78003
-29.92 -2.3800001 -551.53003
-29.4 -2.3800001 -551.31
-28.889999 -2.3699999 -551.20001
-28.389999 -2.3699999 -551.21002
-27.889999 -2.3800001 -551.33002
-27.389999 -2.3800001 -551.51001
-26.9 -2.3800001 -551.76001
-26.4 -2.3800001 -551.76001
-25.879999 -2.3800001 -551.39001
-25.370001 -2.3800001 -551.35999
-24.879999 -2.3800001 -551.64001
-24.389999 -2.3800001 -552
-23.9 -2.3800001 -552.31
-23.4 -2.3800001 -552.47998
-22.9 -2.3800001 -552.75
-22.41 -2.3800001 -553.09998
-21.92 -2.3800001 -553.39001
-21.43 -2.3900001 -553.84998
-20.940001 -2.3900001 -554.25
-20.450001 -2.3900001 -554.60999
-19.950001 -2.3900001 -555.03003
-19.459999 -2.3900001 -555.32001
-18.959999 -2.3900001 -555.62
-18.459999 -2.4000001 -555.98999
-17.959999 -2.4000001 -556.25
-17.459999 -2.4000001 -556.53998
-16.959999 -2.4000001 -556.85999
-16.459999 -2.4000001 -557.23999
-15.97 -2.4000001 -557.63
-15.47 -2.4000001 -558.14001
-14.97 -2.4100001 -558.58002
-14.47 -2.4100001 -559.03998
-13.97 -2.4100001 -559.48999
-13.47 -2.4100001 -560.03998
-12.97 -2.4200001 -560.56
-12.47 -2.4200001 -561.17999
-11.98 -2.4200001 -562
-0.68000001 -2.49 -577.87
-0.15000001 -2.49 -578.15997
0.38 -2.49 -578.42999
0.91000003 -2.5 -578.77002
1.4400001 -2.5 -579.09003
1.97 -2.5 -579.44
2.5 -2.5 -579.77002
3.04 -2.5 -580.19
3.5699999 -2.5 -580.67999
4.1100001 -2.51 -581.35999
4.6500001 -2.51 -582.08002
5.1799998 -2.51 -582.47998
23.32 -2.8399999 -656.59998
23.91 -2.8299999 -656.29999
24.5 -2.8299999 -655.90002
25.08 -2.8299999 -655.45001
25.67 -2.8299999 -655.15002
26.27 -2.8299999 -654.96002
26.870001 -2.8299999 -655.02002
27.469999 -2.8299999 -655.08002
28.08 -2.8299999 -655.20001
28.690001 -2.8299999 -655.45001
29.299999 -2.8299999 -655.59003
29.92 -2.8299999 -655.90997
30.530001 -2.8299999 -656.14001
31.139999 -2.8399999 -656.35999
31.75 -2.8399999 -656.54999
32.369999 -2.8399999 -656.77002
32.98 -2.8399999 -656.92999
33.59 -2.8399999 -657.09003
34.200001 -2.8399999 -657.28003
34.810001 -2.8399999 -657.40002
35.41 -2.8399999 -657.37
36.02 -2.8399999 -657.44
36.619999 -2.8399999 -657.41998
37.220001 -2.8399999 -657.28998
37.82 -2.8399999 -657.23999
38.419998 -2.8399999 -657.16998
39.009998 -2.8399999 -657.01001
39.610001 -2.8399999 -656.96997
40.209999 -2.8399999 -656.94
40.810001 -2.8399999 -656.87
41.419998 -2.8399999 -656.96002
42.029999 -2.8399999 -657.03003
42.630001 -2.8399999 -657
43.23 -2.8399999 -656.92999
93.870003 -2.8900001 -669.52002
94.260002 -2.8900001 -667.94
94.720001 -2.8800001 -666.89001
95.209999 -2.8800001 -666.09003
95.790001 -2.8800001 -665.84998
96.400002 -2.8800001 -665.79999
97 -2.8800001 -665.72998
97.620003 -2.8800001 -665.79999
98.339996 -2.8800001 -666.53998
99.019997 -2.8800001 -666.98999
99.709999 -2.8900001 -667.5
100.31 -2.8800001 -667.38
-155.37 -3.25 -619.72998
-154.97 -3.25 -620.41998
-154.49001 -3.25 -620.73999
-153.92999 -3.25 -620.79999
-153.39999 -3.25 -620.95001
-152.85001 -3.25 -621.04999
-152.3 -3.25 -621.09003
-151.75 -3.25 -621.20001
-151.22 -3.25 -621.37
-150.66 -3.25 -621.38
-150.12 -3.25 -621.5
-149.60001 -3.26 -621.71002
-149.08 -3.26 -621.91998
-148.56 -3.26 -622.13
-148.06 -3.26 -622.41998
-147.53999 -3.26 -622.64001
-147.03999 -3.26 -622.94
-146.55 -3.26 -623.29999
-146.08 -3.27 -623.71997
-145.62 -3.27 -624.16998
-145.14999 -3.27 -624.62
-144.00999 -3.26 -622.21997
-136.81 -3.1099999 -593.87
-134.06 -3.0599999 -584.41998
-133.34 -3.05 -583.59998
-132.50999 -3.05 -582.34003
-131.78 -3.04 -581.46997
-130.92999 -3.03 -580.09003
-130.19 -3.03 -579.17999
-129.42 -3.02 -578.15997
-128.8 -3.02 -577.76001
-128.16 -3.02 -577.27002
-127.58 -3.02 -577.03998
-126.98 -3.02 -576.70001
-126.38 -3.01 -576.37
-125.79 -3.01 -576.10999
-125.2 -3.01 -575.84998
-124.6 -3.01 -575.51001
-124 -3.01 -575.17999
-123.4 -3.01 -574.85999
-122.83 -3.01 -574.64001
-122.27 -3 -574.47998
-121.69 -3 -574.21997
-121.12 -3 -574.02002
-120.58 -3 -573.96002
-120 -3 -573.73999
-119.46 -3 -573.65002
-118.92 -3 -573.58002
-118.42 -3 -573.70001
-117.88 -3 -573.65997
-117.36 -3 -573.69
-116.85 -3 -573.76001
-116.33 -3 -573.79999
-115.81 -3 -573.81
-115.27 -3 -573.72998
-114.78 -3 -573.90002
-114.26 -3 -573.94
-113.75 -3 -574.04999
-113.23 -3 -574.08002
-112.74 -3 -574.22998
-112.22 -3 -574.27002
-111.72 -3 -574.41998
-111.22 -3 -574.54999
-110.73 -3.01 -574.71997
-110.25 -3.01 -574.95001
-109.78 -3.01 -575.26001
-109.31 -3.01 -575.57001
-108.84 -3.01 -575.89001
-108.35 -3.01 -576.06
-107.89 -3.01 -576.40997
-107.41 -3.02 -576.71002
-106.97 -3.02 -577.14001
-106.49 -3.02 -577.42999
-106.04 -3.02 -577.87
-105.6 -3.02 -578.29999
-105.17 -3.03 -578.85999
-104.71 -3.03 -579.23999
-104.25 -3.03 -579.65997
-103.81 -3.03 -580.17999
-103.39 -3.04 -580.78998
-103.03 -3.04 -581.75
-102.63 -3.05 -582.47998
-102.21 -3.05 -583.12
-101.8 -3.05 -583.82001
-101.39 -3.0599999 -584.53003
-101.04 -3.0599999 -585.59998
-100.65 -3.0699999 -586.41998
-100.25 -3.0699999 -587.22998
-95.25 -3.3499999 -639.71997
-94.75 -3.3499999 -640.28003
-94.230003 -3.3599999 -640.71997
-93.68 -3.3599999 -641.03003
-93.139999 -3.3599999 -641.34998
-92.57 -3.3599999 -641.47998
-92.029999 -3.3599999 -641.77002
-91.449997 -3.3599999 -641.88
-90.879997 -3.3599999 -642.03003
-90.330002 -3.3599999 -642.25
-89.75 -3.3599999 -642.32001
-89.169998 -3.3599999 -642.42999
-88.629997 -3.3699999 -642.72998
-88.059998 -3.3699999 -642.90002
-87.480003 -3.3699999 -642.96997
-86.910004 -3.3699999 -643.13
-86.339996 -3.3699999 -643.25
-85.75 -3.3699999 -643.27002
-85.169998 -3.3699999 -643.37
-84.57 -3.3699999 -643.27002
-83.989998 -3.3699999 -643.34998
-83.379997 -3.3699999 -643.21997
-82.760002 -3.3699999 -643.02002
-82.139999 -3.3699999 -642.73999
-81.489998 -3.3599999 -642.28003
-80.779999 -3.3599999 -641.39001
-80.099998 -3.3499999 -640.60999
-79.440002 -3.3499999 -640.03998
-78.769997 -3.3499999 -639.40002
-78.099998 -3.3399999 -638.71997
-77.330002 -3.3399999 -637.22998
-76.160004 -3.3099999 -632.42999
-75.220001 -3.3 -629.5
-74.529999 -3.29 -628.60999
-73.839996 -3.29 -627.59998
-73.190002 -3.28 -627.03003
-72.559998 -3.28 -626.48999
-71.93 -3.28 -626.03998
-71.309998 -3.28 -625.65997
-70.690002 -3.27 -625.26001
-70.080002 -3.27 -624.96997
-69.470001 -3.27 -624.64001
-68.870003 -3.27 -624.40002
-68.279999 -3.27 -624.21002
-67.690002 -3.27 -624.07001
-67.110001 -3.27 -623.96002
-66.5 -3.26 -623.65997
-65.940002 -3.26 -623.77002
-65.360001 -3.26 -623.72998
-64.790001 -3.26 -623.66998
-64.220001 -3.26 -623.72998
-63.639999 -3.26 -623.70001
-63.07 -3.26 -623.71997
-62.52 -3.27 -623.92999
-61.959999 -3.27 -623.97998
-61.380001 -3.27 -623.94
-60.84 -3.27 -624.22998
-60.279999 -3.27 -624.40997
-59.720001 -3.27 -624.51001
-59.150002 -3.27 -624.54999
-58.610001 -3.27 -624.85999
-58.049999 -3.27 -625.01001
-57.509998 -3.27 -625.44
-56.959999 -3.28 -625.69
-56.41 -3.28 -625.96002
-55.869999 -3.28 -626.28003
-55.32 -3.28 -626.52002
-54.779999 -3.28 -626.95001
-54.25 -3.28 -627.46002
-53.720001 -3.29 -627.96002
-53.189999 -3.29 -628.53998
-52.650002 -3.29 -629.02002
-52.150002 -3.3 -629.83002
-51.630001 -3.3 -630.53998
-51.119999 -3.3099999 -631.39001
-50.610001 -3.3099999 -632.31
-50.110001 -3.3199999 -633.28998
-49.599998 -3.3199999 -634.16998
-49.110001 -3.3299999 -635.28003
-48.59 -3.3299999 -636.09003
-48.080002 -3.3399999 -637.07001
-47.540001 -3.3399999 -637.71002
-47.009998 -3.3399999 -638.38
-46.459999 -3.3499999 -638.92999
-45.939999 -3.3499999 -639.75
-45.41 -3.3499999 -640.56
-44.939999 -3.3599999 -642.26001
-44.48 -3.3699999 -644.17999
-44.139999 -3.3900001 -647.71997
-43.73 -3.4100001 -650.42999
-43.23 -3.4100001 -651.83002
-42.68 -3.4200001 -652.66998
-42.139999 -3.4200001 -653.5
-41.57 -3.4200001 -653.91998
-41 -3.4300001 -654.40997
-40.419998 -3.4300001 -654.76001
-39.84 -3.4300001 -655.04999
-32.68 -2.9000001 -555.42999
-32.099998 -2.8900001 -554.20001
-31.52 -2.8900001 -553.09998
-30.99 -2.8900001 -552.58002
-30.450001 -2.8800001 -552.03998
-29.93 -2.8800001 -551.75
-29.42 -2.8800001 -551.62
-28.91 -2.8800001 -551.46002
-28.4 -2.8800001 -551.38
-27.9 -2.8800001 -551.45001
-27.4 -2.8800001 -551.62
-26.9 -2.8800001 -551.79999
-26.4 -2.8800001 -551.88
-25.889999 -2.8800001 -551.65997
-25.379999 -2.8800001 -551.58002
-24.879999 -2.8800001 -551.77002
-24.4 -2.8800001 -552.15002
-23.9 -2.8900001 -552.47998
-23.41 -2.8900001 -552.67999
-22.92 -2.8900001 -553.01001
-22.43 -2.8900001 -553.40997
-21.93 -2.8900001 -553.71002
-21.440001 -2.8900001 -554.04999
-20.950001 -2.9000001 -554.40002
-20.450001 -2.9000001 -554.76001
-19.959999 -2.9000001 -555.15997
-19.459999 -2.9000001 -555.48999
-18.959999 -2.9000001 -555.73999
-18.459999 -2.9000001 -556.04999
-17.959999 -2.9100001 -556.28998
-17.459999 -2.9100001 -556.57001
-16.959999 -2.9100001 -556.78998
-16.459999 -2.9100001 -557.17999
-15.96 -2.9100001 -557.56
-15.46 -2.9100001 -557.97998
-14.97 -2.9200001 -558.40002
-14.46 -2.9200001 -558.77002
-13.96 -2.9200001 -559.22998
-13.47 -2.9200001 -559.72998
-12.96 -2.9300001 -560.10999
-12.46 -2.9300001 -560.64001
-11.96 -2.9300001 -561.23999
-11.47 -2.9400001 -562.28998
0.91000003 -3.02 -578.01001
1.4400001 -3.02 -578.53003
1.97 -3.03 -579.07001
2.5 -3.03 -579.5
3.04 -3.03 -580.04999
3.5699999 -3.03 -580.59003
4.1100001 -3.04 -581.35999
4.6399999 -3.04 -581.87
23.93 -3.4400001 -656.75
24.52 -3.4400001 -656.51001
25.110001 -3.4400001 -656.21002
25.700001 -3.4300001 -655.84998
26.290001 -3.4300001 -655.56
26.879999 -3.4300001 -655.31
27.49 -3.4300001 -655.38
28.1 -3.4300001 -655.54999
28.700001 -3.4300001 -655.64001
29.309999 -3.4300001 -655.78998
29.92 -3.4400001 -656.01001
30.540001 -3.4400001 -656.38
31.15 -3.4400001 -656.41998
31.76 -3.4400001 -656.75
32.369999 -3.4400001 -656.78998
32.98 -3.4400001 -656.97998
33.59 -3.4400001 -657.16998
34.209999 -3.4400001 -657.35999
34.810001 -3.4400001 -657.37
35.419998 -3.4400001 -657.42999
36.02 -3.4400001 -657.40997
36.619999 -3.4400001 -657.42999
37.23 -3.4400001 -657.47998
37.82 -3.4400001 -657.34003
38.419998 -3.4400001 -657.28003
39.029999 -3.4400001 -657.33002
39.630001 -3.4400001 -657.27002
40.23 -3.4400001 -657.20001
40.84 -3.4400001 -657.29999
41.439999 -3.4400001 -657.32001
42.040001 -3.4400001 -657.22998
94.970001 -3.5 -668.65997
95.419998 -3.5 -667.53003
96.010002 -3.5 -667.32001
96.550003 -3.49 -666.83002
97.129997 -3.49 -666.63
97.730003 -3.49 -666.56
98.400002 -3.49 -666.94
99.019997 -3.5 -666.95001
-155 -3.8199999 -620.52002
-154.55 -3.8199999 -620.97998
-154.03999 -3.8199999 -621.21997
-153.48 -3.8199999 -621.28998
-152.92999 -3.8199999 -621.34998
-152.39 -3.8199999 -621.48999
-151.84 -3.8299999 -621.53998
-151.28999 -3.8299999 -621.62
-150.77 -3.8299999 -621.84998
-150.23 -3.8299999 -621.96002
-149.67999 -3.8299999 -622.03998
-149.14999 -3.8299999 -622.20001
-148.62 -3.8299999 -622.40002
-148.14 -3.8299999 -622.76001
-147.61 -3.8299999 -622.92999
-147.14 -3.8399999 -623.37
-146.64 -3.8399999 -623.65997
-146.17999 -3.8399999 -624.14001
-145.69 -3.8399999 -624.47998
-145.23 -3.8499999 -624.95001
-144.81 -3.8499999 -625.60999
-143.05 -3.8199999 -620.54999
-134.94 -3.6199999 -588.20001
-133.5 -3.5899999 -584.31
-132.75 -3.5899999 -583.35999
-132.02 -3.5799999 -582.52002
-131.06 -3.5699999 -580.67999
-130.31 -3.5599999 -579.72998
-129.53 -3.5599999 -578.60999
-128.85001 -3.55 -577.97998
-128.22 -3.55 -577.53003
-127.64 -3.55 -577.28998
-127.04 -3.55 -576.96997
-126.43 -3.54 -576.59998
-125.84 -3.54 -576.34998
-125.26 -3.54 -576.09003
-124.67 -3.54 -575.82001
-124.1 -3.54 -575.63
-123.48 -3.54 -575.21002
-122.89 -3.53 -574.94
-122.32 -3.53 -574.71002
-121.74 -3.53 -574.5
-121.15 -3.53 -574.20001
-120.61 -3.53 -574.13
-120.06 -3.53 -574.03003
-119.49 -3.53 -573.82001
-118.96 -3.53 -573.79999
-118.45 -3.53 -573.84003
-117.91 -3.53 -573.79999
-117.38 -3.53 -573.78998
-116.88 -3.53 -573.90997
-116.36 -3.53 -573.90997
-115.82 -3.53 -573.85999
-115.29 -3.53 -573.85999
-114.78 -3.53 -573.90997
-114.27 -3.53 -574.01001
-113.77 -3.53 -574.15002
-113.27 -3.53 -574.25
-112.75 -3.53 -574.28003
-112.26 -3.53 -574.46002
-111.74 -3.53 -574.53003
-111.24 -3.53 -574.63
-110.74 -3.53 -574.81
-110.26 -3.53 -575.02002
-109.78 -3.54 -575.27002
-109.3 -3.54 -575.52002
-108.84 -3.54 -575.85999
-108.36 -3.54 -576.12
-107.9 -3.54 -576.5
-107.43 -3.55 -576.79999
-106.97 -3.55 -577.13
-106.5 -3.55 -577.45001
-106.04 -3.55 -577.84998
-105.59 -3.55 -578.29999
-105.15 -3.5599999 -578.73999
-104.69 -3.5599999 -579.16998
-104.24 -3.5599999 -579.57001
-103.78 -3.5699999 -580.01001
-103.37 -3.5699999 -580.66998
-103 -3.5699999 -581.54999
-102.6 -3.5799999 -582.31
-102.19 -3.5799999 -583.02002
-101.76 -3.5899999 -583.59998
-101.36 -3.5899999 -584.39001
-100.96 -3.5999999 -585.15002
-100.58 -3.5999999 -586.02002
-100.19 -3.6099999 -586.90997
-94.699997 -3.9400001 -639.95001
-94.220001 -3.9400001 -640.70001
-93.699997 -3.95 -641.15002
-93.18 -3.95 -641.62
-92.639999 -3.95 -641.91998
-92.099998 -3.95 -642.27002
-91.559998 -3.96 -642.64001
-90.989998 -3.96 -642.72998
-90.410004 -3.96 -642.87
-89.860001 -3.96 -643.10999
-89.290001 -3.96 -643.27002
-88.720001 -3.96 -643.40997
-88.160004 -3.96 -643.65002
-87.580002 -3.96 -643.73999
-87.010002 -3.96 -643.88
-86.410004 -3.96 -643.83002
-85.830002 -3.96 -643.84998
-85.25 -3.96 -643.96002
-84.650002 -3.96 -643.88
-84.059998 -3.96 -643.90997
-83.480003 -3.96 -644
-82.889999 -3.96 -643.96002
-82.300003 -3.96 -643.98999
-81.629997 -3.96 -643.41998
-80.900002 -3.95 -642.33002
-80.160004 -3.95 -641.10999
-79.480003 -3.9400001 -640.39001
-78.790001 -3.9400001 -639.57001
-78.129997 -3.9300001 -638.98999
-77.419998 -3.9300001 -638.01001
-76.660004 -3.9200001 -636.57001
-75.400002 -3.8800001 -630.96002
-74.68 -3.8800001 -629.84998
-73.989998 -3.8699999 -628.89001
-73.330002 -3.8599999 -628.15002
-72.660004 -3.8599999 -627.40997
-72.040001 -3.8599999 -627.02002
-71.400002 -3.8499999 -626.46997
-70.800003 -3.8499999 -626.26001
-70.18 -3.8499999 -625.83002
-69.580002 -3.8499999 -625.59998
-68.970001 -3.8499999 -625.29999
-68.370003 -3.8399999 -625.02002
-67.760002 -3.8399999 -624.71002
-67.18 -3.8399999 -624.59003
-66.599998 -3.8399999 -624.57001
-66.010002 -3.8399999 -624.46002
-65.43 -3.8399999 -624.32001
-64.870003 -3.8399999 -624.44
-64.300003 -3.8399999 -624.52002
-63.73 -3.8399999 -624.5
-63.16 -3.8399999 -624.56
-62.59 -3.8399999 -624.62
-62.029999 -3.8399999 -624.71002
-61.470001 -3.8399999 -624.83002
-60.91 -3.8399999 -624.95001
-60.34 -3.8399999 -625.03003
-59.779999 -3.8499999 -625.20001
-59.23 -3.8499999 -625.35999
-58.68 -3.8499999 -625.66998
-58.130001 -3.8499999 -625.85999
-57.580002 -3.8499999 -626.16998
-57.029999 -3.8499999 -626.40002
-56.48 -3.8499999 -626.65002
-55.939999 -3.8599999 -627.07001
-55.400002 -3.8599999 -627.40997
-54.849998 -3.8599999 -627.78998
-54.34 -3.8699999 -628.5
-53.799999 -3.8699999 -628.89001
-53.27 -3.8699999 -629.42999
-52.740002 -3.8800001 -630.06
-52.23 -3.8800001 -630.78998
-51.720001 -3.8900001 -631.65997
-51.200001 -3.8900001 -632.38
-50.700001 -3.9000001 -633.34003
-50.189999 -3.9000001 -634.25
-49.669998 -3.9100001 -635.07001
-49.16 -3.9100001 -636
-48.639999 -3.9200001 -636.77002
-48.110001 -3.9200001 -637.45001
-47.560001 -3.9200001 -637.90997
-47.029999 -3.9300001 -638.67999
-46.48 -3.9300001 -639.22998
-45.959999 -3.9400001 -640.08002
-45.459999 -3.95 -641.26001
-44.990002 -3.96 -643.03998
-44.560001 -3.97 -645.22998
-44.209999 -3.99 -648.78003
-43.779999 -4.0100002 -651.20001
-43.279999 -4.02 -652.56
-42.73 -4.02 -653.34003
-42.169998 -4.0300002 -654
-41.599998 -4.0300002 -654.44
-41.029999 -4.0300002 -654.84998
-40.439999 -4.0300002 -655.03003
-39.84 -4.0300002 -655.17999
-38.740002 -3.98 -646.84003
-32.700001 -3.4100001 -555.84003
-32.139999 -3.4100001 -554.90997
-31.559999 -3.4000001 -553.63
-31.01 -3.3900001 -553.03003
-30.48 -3.3900001 -552.58002
-29.959999 -3.3900001 -552.17999
-29.440001 -3.3900001 -551.90997
-28.92 -3.3900001 -551.66998
-28.41 -3.3900001 -551.62
-27.91 -3.3900001 -551.65002
-27.4 -3.3900001 -551.71002
-26.9 -3.3900001 -551.77002
-26.41 -3.3900001 -551.96002
-25.9 -3.3900001 -551.89001
-25.389999 -3.3900001 -551.83002
-24.889999 -3.3900001 -551.96997
-24.4 -3.3900001 -552.33002
-23.91 -3.3900001 -552.71002
-23.42 -3.3900001 -552.91998
-22.93 -3.4000001 -553.26001
-22.43 -3.4000001 -553.60999
-21.940001 -3.4000001 -553.83002
-21.440001 -3.4000001 -554.16998
-20.950001 -3.4000001 -554.51001
-20.459999 -3.4100001 -554.88
-19.959999 -3.4100001 -555.22998
-19.459999 -3.4100001 -555.53003
-18.959999 -3.4100001 -555.72998
-18.459999 -3.4100001 -556.01001
-17.959999 -3.4100001 -556.27002
-17.459999 -3.4200001 -556.52002
-16.959999 -3.4200001 -556.71002
-16.459999 -3.4200001 -557.14001
-15.96 -3.4200001 -557.44
-15.46 -3.4200001 -557.87
-14.96 -3.4300001 -558.15997
-14.46 -3.4300001 -558.58002
-13.96 -3.4300001 -558.96002
-13.46 -3.4300001 -559.34003
-12.95 -3.4400001 -559.71997
-12.45 -3.4400001 -560.14001
-11.95 -3.4400001 -560.62
-11.45 -3.45 -561.39001
-10.95 -3.45 -562.13
-10.45 -3.46 -562.84003
1.97 -3.55 -578.39001
2.5 -3.5599999 -579.09998
3.03 -3.5599999 -579.81
3.5699999 -3.5699999 -580.42999
4.1100001 -3.5699999 -581.28003
4.6399999 -3.5699999 -581.33002
24.540001 -4.04 -656.95001
25.129999 -4.04 -656.64001
25.719999 -4.04 -656.41998
26.32 -4.04 -656.15002
26.91 -4.04 -655.97998
27.51 -4.04 -655.84998
28.110001 -4.04 -655.89001
28.719999 -4.04 -655.95001
29.33 -4.04 -656.15997
29.93 -4.04 -656.19
30.549999 -4.04 -656.47998
31.15 -4.04 -656.58002
31.76 -4.04 -656.70001
32.369999 -4.04 -656.85999
32.990002 -4.04 -657.10999
33.599998 -4.04 -657.20001
34.200001 -4.0500002 -657.28003
34.810001 -4.0500002 -657.34998
35.41 -4.0500002 -657.33002
36.02 -4.0500002 -657.39001
36.619999 -4.0500002 -657.44
37.23 -4.0500002 -657.42999
37.830002 -4.0500002 -657.40997
38.43 -4.0500002 -657.44
39.029999 -4.0500002 -657.39001
39.639999 -4.0500002 -657.45001
40.25 -4.0500002 -657.47998
40.860001 -4.0500002 -657.60999
41.450001 -4.0500002 -657.47998
-154.94 -4.3899999 -620.28998
-154.57001 -4.3899999 -621.07001
-154.11 -4.4000001 -621.51001
-153.60001 -4.4000001 -621.76001
-153.06 -4.4000001 -621.87
-152.50999 -4.4000001 -621.94
-151.94 -4.4000001 -621.96997
-151.41 -4.4000001 -622.10999
-150.85001 -4.4000001 -622.17999
-150.33 -4.4000001 -622.37
-149.78999 -4.4000001 -622.51001
-149.25999 -4.4000001 -622.65002
-148.73 -4.4000001 -622.82001
-148.23 -4.4099998 -623.14001
-147.75 -4.4099998 -623.52002
-147.24001 -4.4099998 -623.78998
-146.75 -4.4099998 -624.12
-146.27 -4.4200001 -624.52002
-145.8 -4.4200001 -624.96997
-145.33 -4.4200001 -625.38
-144.89 -4.4299998 -625.96997
-144.45 -4.4299998 -626.53003
-133.7 -4.1300001 -585.17999
-132.91 -4.1300001 -584.08002
-132.24001 -4.1199999 -583.46997
-131.35001 -4.1100001 -581.92999
-130.48 -4.0999999 -580.47998
-129.67 -4.0900002 -579.23999
-128.94 -4.0900002 -578.35999
-128.3 -4.0799999 -577.87
-127.7 -4.0799999 -577.56
-127.1 -4.0799999 -577.25
-126.5 -4.0700002 -576.91998
-125.89 -4.0700002 -576.53998
-125.32 -4.0700002 -576.38
-124.72 -4.0700002 -576.06
-124.14 -4.0700002 -575.79999
-123.55 -4.0599999 -575.53003
-122.94 -4.0599999 -575.16998
-122.36 -4.0599999 -574.89001
-121.78 -4.0599999 -574.65997
-121.21 -4.0599999 -574.45001
-120.65 -4.0599999 -574.32001
-120.1 -4.0599999 -574.21002
-119.55 -4.0500002 -574.07001
-119 -4.0500002 -573.95001
-118.47 -4.0500002 -573.94
-117.95 -4.0500002 -573.96002
-117.43 -4.0500002 -574
-116.92 -4.0500002 -574.08002
-116.39 -4.0500002 -574.06
-115.85 -4.0500002 -574.02002
-115.33 -4.0500002 -574.03998
-114.8 -4.0500002 -574.02002
-114.3 -4.0500002 -574.15002
-113.78 -4.0500002 -574.16998
-113.27 -4.0599999 -574.27002
-112.76 -4.0599999 -574.33002
-112.26 -4.0599999 -574.48999
-111.75 -4.0599999 -574.58002
-111.25 -4.0599999 -574.67999
-110.75 -4.0599999 -574.83002
-110.27 -4.0599999 -575.06
-109.78 -4.0599999 -575.28003
-109.3 -4.0599999 -575.53998
-108.84 -4.0700002 -575.89001
-108.36 -4.0700002 -576.13
-107.89 -4.0700002 -576.44
-107.42 -4.0700002 -576.73999
-106.96 -4.0799999 -577.12
-106.48 -4.0799999 -577.39001
-106.02 -4.0799999 -577.76001
-105.58 -4.0799999 -578.21002
-105.12 -4.0900002 -578.62
-104.66 -4.0900002 -579.01001
-104.22 -4.0900002 -579.5
-103.78 -4.0999999 -579.96997
-103.38 -4.0999999 -580.69
-102.98 -4.1100001 -581.46997
-102.56 -4.1100001 -582.09998
-102.15 -4.1199999 -582.78003
-101.74 -4.1199999 -583.46997
-101.32 -4.1300001 -584.12
-100.92 -4.1300001 -584.92999
-100.53 -4.1399999 -585.77002
-100.16 -4.1399999 -586.72998
-93.650002 -4.5300002 -640.77002
-93.190002 -4.54 -641.69
-92.699997 -4.54 -642.32001
-92.169998 -4.5500002 -642.76001
-91.639999 -4.5500002 -643.16998
-91.099998 -4.5500002 -643.53003
-90.550003 -4.5500002 -643.78998
-89.970001 -4.5500002 -643.89001
-89.400002 -4.5599999 -644.03998
-88.830002 -4.5599999 -644.21002
-88.269997 -4.5599999 -644.40002
-87.68 -4.5599999 -644.46997
-87.110001 -4.5599999 -644.59003
-86.519997 -4.5599999 -644.64001
-85.93 -4.5599999 -644.64001
-85.339996 -4.5599999 -644.60999
-84.760002 -4.5599999 -644.75
-84.199997 -4.5599999 -644.95001
-83.610001 -4.5599999 -644.97998
-83.019997 -4.5599999 -645.02002
-82.419998 -4.5599999 -644.96997
-81.800003 -4.5599999 -644.73999
-81.139999 -4.5599999 -644.19
-80.260002 -4.54 -641.92999
-79.529999 -4.5300002 -640.76001
-78.849998 -4.5300002 -640.08002
-78.18 -4.52 -639.41998
-77.5 -4.52 -638.62
-76.800003 -4.5100002 -637.69
-75.93 -4.4899998 -635.37
-74.919998 -4.4699998 -631.82001
-74.129997 -4.4499998 -630.03998
-73.449997 -4.4499998 -629.21002
-72.82 -4.4400001 -628.71002
-72.18 -4.4400001 -628.15997
-71.529999 -4.4400001 -627.58002
-70.910004 -4.4299998 -627.20001
-70.290001 -4.4299998 -626.78998
-69.669998 -4.4299998 -626.35999
-69.059998 -4.4299998 -626.08002
-68.470001 -4.4200001 -625.92999
-67.870003 -4.4200001 -625.71002
-67.279999 -4.4200001 -625.56
-66.690002 -4.4200001 -625.38
-66.110001 -4.4200001 -625.34003
-65.519997 -4.4200001 -625.21997
-64.959999 -4.4200001 -625.35999
-64.400002 -4.4200001 -625.41998
-63.82 -4.4200001 -625.35999
-63.25 -4.4200001 -625.40002
-62.68 -4.4200001 -625.44
-62.119999 -4.4200001 -625.58002
-61.549999 -4.4200001 -625.67999
-61 -4.4200001 -625.84998
-60.43 -4.4200001 -625.96002
-59.860001 -4.4200001 -625.98999
-59.310001 -4.4299998 -626.26001
-58.77 -4.4299998 -626.54999
-58.209999 -4.4299998 -626.76001
-57.669998 -4.4299998 -627.10999
-57.119999 -4.4299998 -627.34003
-56.580002 -4.4400001 -627.79999
-56.040001 -4.4400001 -628.13
-55.490002 -4.4400001 -628.5
-54.959999 -4.4499998 -629.01001
-54.419998 -4.4499998 -629.40002
-53.889999 -4.4499998 -629.90002
-53.349998 -4.46 -630.40997
-52.830002 -4.46 -631.07001
-52.330002 -4.4699998 -632.03003
-51.82 -4.4699998 -632.83002
-51.299999 -4.48 -633.64001
-50.779999 -4.48 -634.35999
-50.259998 -4.4899998 -635.17999
-49.740002 -4.5 -635.95001
-49.220001 -4.5 -636.71002
-48.669998 -4.5 -637.21002
-48.130001 -4.5100002 -637.78998
-47.59 -4.5100002 -638.40997
-47.049999 -4.52 -638.92999
-46.509998 -4.52 -639.56
-45.990002 -4.5300002 -640.48999
-45.490002 -4.54 -641.69
-45.040001 -4.5500002 -643.73999
-44.639999 -4.5700002 -646.35999
-44.259998 -4.5900002 -649.52002
-43.810001 -4.6100001 -651.67999
-43.310001 -4.6199999 -653.04999
-42.77 -4.6199999 -653.89001
-42.209999 -4.6300001 -654.51001
-41.630001 -4.6300001 -654.90997
-41.040001 -4.6300001 -655.09003
-40.439999 -4.6300001 -655.15002
-39.84 -4.6300001 -655.17999
-39.27 -4.6399999 -655.57001
-32.169998 -3.9200001 -555.38
-31.6 -3.9100001 -554.34003
-31.049999 -3.9100001 -553.64001
-30.51 -3.9000001 -553.02002
-29.98 -3.9000001 -552.65002
-29.459999 -3.9000001 -552.29999
-28.940001 -3.8900001 -552.04999
-28.42 -3.8900001 -551.88
-27.91 -3.8900001 -551.79999
-27.41 -3.8900001 -551.89001
-26.91 -3.8900001 -551.94
-26.41 -3.8900001 -552
-25.91 -3.8900001 -552.09003
-25.4 -3.8900001 -552.03003
-24.9 -3.8900001 -552.16998
-24.41 -3.9000001 -552.53003
-23.92 -3.9000001 -552.87
-23.43 -3.9000001 -553.26001
-22.940001 -3.9000001 -553.57001
-22.440001 -3.9100001 -553.79999
-21.950001 -3.9100001 -554.03998
-21.450001 -3.9100001 -554.38
-20.959999 -3.9100001 -554.67999
-20.459999 -3.9200001 -555.03003
-19.959999 -3.9200001 -555.20001
-19.459999 -3.9200001 -555.52002
-18.959999 -3.9200001 -555.78003
-18.459999 -3.9200001 -556.01001
-17.959999 -3.9200001 -556.21002
-17.459999 -3.9300001 -556.52002
-16.959999 -3.9300001 -556.77002
-16.459999 -3.9300001 -557.01001
-15.96 -3.9300001 -557.33002
-15.46 -3.9300001 -557.65997
-14.96 -3.9400001 -558.02002
-14.45 -3.9400001 -558.34003
-13.95 -3.9400001 -558.59003
-13.45 -3.9400001 -558.92999
-12.94 -3.95 -559.27002
-12.44 -3.95 -559.59003
-11.93 -3.95 -560.01001
-11.43 -3.96 -560.59998
-10.94 -3.96 -561.32001
-10.44 -3.97 -562.03998
-9.9300003 -3.97 -562.73999
-9.4300003 -3.98 -563.58002
-8.9300003 -3.98 -564.39001
3.03 -4.0900002 -579.15002
3.5699999 -4.0900002 -580.09003
4.0999999 -4.0999999 -580.5
25.15 -4.6500001 -657.17999
25.74 -4.6500001 -656.90002
26.33 -4.6399999 -656.59998
26.93 -4.6399999 -656.53998
27.530001 -4.6399999 -656.42999
28.129999 -4.6399999 -656.28003
28.73 -4.6399999 -656.35999
29.34 -4.6399999 -656.40997
29.940001 -4.6399999 -656.5
30.559999 -4.6399999 -656.71002
31.16 -4.6399999 -656.72998
31.780001 -4.6500001 -656.98999
32.389999 -4.6500001 -657.14001
32.990002 -4.6500001 -657.21997
33.599998 -4.6500001 -657.35999
34.209999 -4.6500001 -657.35999
34.82 -4.6500001 -657.56
35.43 -4.6500001 -657.65002
36.02 -4.6500001 -657.52002
36.630001 -4.6500001 -657.52002
37.240002 -4.6500001 -657.60999
37.84 -4.6500001 -657.65002
38.450001 -4.6500001 -657.70001
39.049999 -4.6500001 -657.65997
39.650002 -4.6500001 -657.65002
40.259998 -4.6500001 -657.65002
-154.39 -4.96 -620.38
-154.09 -4.96 -621.44
-153.64 -4.9699998 -621.90002
-153.17 -4.9699998 -622.32001
-152.61 -4.9699998 -622.37
-152.06 -4.9699998 -622.44
-151.50999 -4.9699998 -622.52002
-150.98 -4.9699998 -622.67999
-150.44 -4.98 -622.83002
-149.91 -4.98 -623
-149.38 -4.98 -623.15002
-148.88 -4.98 -623.45001
-148.36 -4.98 -623.69
-147.84 -4.98 -623.89001
-147.36 -4.9899998 -624.28003
-146.87 -4.9899998 -624.63
-146.38 -4.9899998 -624.96997
-145.89999 -5 -625.38
-145.41 -5 -625.73999
-144.97 -5 -626.31
-144.52 -5.0100002 -626.84003
-144.11 -5.0100002 -627.54999
-133.11 -4.6700001 -584.90997
-132.33 -4.6599998 -583.90002
-131.57001 -4.6500001 -582.88
-130.67999 -4.6399999 -581.34003
-129.84 -4.6300001 -579.98999
-129.07001 -4.6199999 -578.94
-128.38 -4.6100001 -578.25
-127.74 -4.6100001 -577.75
-127.16 -4.6100001 -577.51001
-126.57 -4.6100001 -577.23999
-125.95 -4.5999999 -576.83002
-125.35 -4.5999999 -576.51001
-124.76 -4.5999999 -576.23999
-124.19 -4.5999999 -576.04999
-123.6 -4.5900002 -575.77002
-123 -4.5900002 -575.45001
-122.4 -4.5900002 -575.08002
-121.82 -4.5900002 -574.85999
-121.25 -4.5900002 -574.66998
-120.69 -4.5799999 -574.47998
-120.14 -4.5799999 -574.40002
-119.58 -4.5799999 -574.21002
-119.02 -4.5799999 -574.03998
-118.47 -4.5799999 -573.97998
-117.97 -4.5799999 -574.06
-117.44 -4.5799999 -574.04999
-116.92 -4.5799999 -574.09998
-116.4 -4.5799999 -574.13
-115.87 -4.5799999 -574.12
-115.35 -4.5799999 -574.15997
-114.81 -4.5799999 -574.08002
-114.31 -4.5799999 -574.17999
-113.8 -4.5799999 -574.28003
-113.28 -4.5799999 -574.31
-112.77 -4.5799999 -574.40002
-112.27 -4.5799999 -574.54999
-111.75 -4.5799999 -574.57001
-111.25 -4.5900002 -574.69
-110.75 -4.5900002 -574.84003
-110.25 -4.5900002 -575
-109.79 -4.5900002 -575.31
-109.31 -4.5900002 -575.54999
-108.85 -4.5900002 -575.90002
-108.36 -4.5999999 -576.12
-107.88 -4.5999999 -576.39001
-107.42 -4.5999999 -576.73999
-106.95 -4.5999999 -577.04999
-106.47 -4.6100001 -577.33002
-106.02 -4.6100001 -577.73999
-105.56 -4.6100001 -578.13
-105.1 -4.6199999 -578.48999
-104.64 -4.6199999 -578.90002
-104.21 -4.6199999 -579.45001
-103.77 -4.6300001 -579.91998
-103.36 -4.6300001 -580.58002
-102.93 -4.6399999 -581.19
-102.53 -4.6399999 -581.89001
-102.11 -4.6500001 -582.53998
-101.7 -4.6500001 -583.23999
-101.29 -4.6599998 -583.95001
-100.89 -4.6700001 -584.71997
-100.51 -4.6700001 -585.64001
-100.11 -4.6799998 -586.45001
-99.660004 -4.6799998 -586.96002
-92.68 -5.1300001 -642.17999
-92.220001 -5.1399999 -643.09003
-91.720001 -5.1399999 -643.71997
-91.190002 -5.1500001 -644.14001
-90.660004 -5.1500001 -644.57001
-90.07 -5.1500001 -644.59003
-89.510002 -5.1500001 -644.81
-88.940002 -5.1500001 -644.96997
-88.389999 -5.1599998 -645.26001
-87.82 -5.1599998 -645.46997
-87.25 -5.1599998 -645.59998
-86.68 -5.1599998 -645.75
-86.099998 -5.1599998 -645.88
-85.529999 -5.1599998 -646.02002
-84.910004 -5.1599998 -645.84998
-84.330002 -5.1599998 -645.96997
-83.730003 -5.1599998 -645.90997
-83.120003 -5.1599998 -645.78998
-82.529999 -5.1599998 -645.77002
-81.889999 -5.1599998 -645.44
-81.239998 -5.1500001 -644.98999
-80.419998 -5.1399999 -643.15997
-79.57 -5.1199999 -641.14001
-78.870003 -5.1100001 -640.25
-78.220001 -5.1100001 -639.69
-77.550003 -5.0999999 -639.02002
-76.879997 -5.0999999 -638.34998
-76.139999 -5.0900002 -637.12
-75.32 -5.0700002 -635.12
-74.349998 -5.0500002 -631.89001
-73.629997 -5.04 -630.69
-72.940002 -5.0300002 -629.78003
-72.309998 -5.0300002 -629.28003
-71.650002 -5.02 -628.57001
-71.019997 -5.02 -628.16998
-70.400002 -5.0100002 -627.78998
-69.790001 -5.0100002 -627.46997
-69.169998 -5.0100002 -627.07001
-68.57 -5.0100002 -626.87
-67.980003 -5 -626.69
-67.400002 -5 -626.60999
-66.800003 -5 -626.40997
-66.220001 -5 -626.34998
-65.629997 -5 -626.17999
-65.059998 -5 -626.29999
-64.480003 -5 -626.22998
-63.91 -5 -626.28003
-63.349998 -5 -626.42999
-62.779999 -5 -626.45001
-62.220001 -5 -626.58002
-61.650002 -5 -626.60999
-61.080002 -5 -626.70001
-60.529999 -5.0100002 -626.97998
-59.98 -5.0100002 -627.15997
-59.419998 -5.0100002 -627.32001
-58.869999 -5.0100002 -627.60999
-58.310001 -5.0100002 -627.82001
-57.77 -5.02 -628.16998
-57.209999 -5.02 -628.37
-56.669998 -5.02 -628.76001
-56.130001 -5.02 -629.21002
-55.59 -5.0300002 -629.62
-55.040001 -5.0300002 -629.94
-54.5 -5.0300002 -630.33002
-53.98 -5.04 -630.98999
-53.470001 -5.0500002 -631.75
-52.950001 -5.0500002 -632.45001
-52.43 -5.0599999 -633.25
-51.91 -5.0599999 -633.89001
-51.389999 -5.0700002 -634.65002
-50.849998 -5.0700002 -635.16998
-50.32 -5.0799999 -635.90002
-49.790001 -5.0799999 -636.51001
-49.25 -5.0900002 -637.09998
-48.700001 -5.0900002 -637.53998
-48.150002 -5.0999999 -637.98999
-47.610001 -5.0999999 -638.64001
-47.07 -5.1100001 -639.26001
-46.540001 -5.1100001 -640.01001
-46.02 -5.1199999 -640.97998
-45.540001 -5.1300001 -642.35999
-45.110001 -5.1500001 -644.71997
-44.68 -5.1700001 -646.90997
-44.299999 -5.1900001 -650.09003
-43.849998 -5.21 -652.20001
-43.34 -5.2199998 -653.58002
-42.799999 -5.23 -654.37
-42.23 -5.23 -654.90002
-41.650002 -5.23 -655.15997
-41.049999 -5.2399998 -655.23999
-40.450001 -5.2399998 -655.23999
-39.849998 -5.23 -655.21997
-39.25 -5.2399998 -655.35999
-32.200001 -4.4299998 -556
-31.629999 -4.4200001 -554.90997
-31.08 -4.4200001 -554.19
-30.540001 -4.4099998 -553.60999
-30.01 -4.4099998 -553.19
-29.48 -4.4000001 -552.71997
-28.959999 -4.4000001 -552.39001
-28.440001 -4.4000001 -552.28003
-27.93 -4.4000001 -552.14001
-27.42 -4.4000001 -552.09003
-26.92 -4.4000001 -552.12
-26.41 -4.4000001 -552.09003
-25.91 -4.4000001 -552.12
-25.41 -4.4000001 -552.15002
-24.91 -4.4000001 -552.28998
-24.42 -4.4000001 -552.71997
-23.93 -4.4099998 -553.14001
-23.440001 -4.4099998 -553.47998
-22.950001 -4.4099998 -553.71002
-22.450001 -4.4099998 -554.02002
-21.950001 -4.4200001 -554.22998
-21.459999 -4.4200001 -554.48999
-20.959999 -4.4200001 -554.82001
-20.459999 -4.4200001 -555.09998
-19.959999 -4.4200001 -555.21002
-19.459999 -4.4299998 -555.53003
-18.959999 -4.4299998 -555.79999
-18.469999 -4.4299998 -556.13
-17.959999 -4.4299998 -556.28998
-17.459999 -4.4400001 -556.52002
-16.959999 -4.4400001 -556.75
-16.459999 -4.4400001 -556.98999
-15.96 -4.4400001 -557.27002
-15.45 -4.4400001 -557.58002
-14.95 -4.4499998 -557.82001
-14.45 -4.4499998 -558.10999
-13.94 -4.4499998 -558.39001
-13.44 -4.4499998 -558.65997
-12.93 -4.4499998 -558.90002
-12.43 -4.46 -559.25
-11.93 -4.46 -559.58002
-11.42 -4.46 -560.06
-10.92 -4.4699998 -560.60999
-10.42 -4.4699998 -561.35999
-9.9200001 -4.48 -561.90997
-9.4200001 -4.4899998 -562.84003
-8.9099998 -4.4899998 -563.37
-8.4099998 -4.5 -564.21997
26.35 -5.25 -656.90002
26.950001 -5.25 -656.94
27.549999 -5.25 -656.83002
28.15 -5.25 -656.76001
28.75 -5.25 -656.82001
29.360001 -5.25 -656.79999
29.959999 -5.25 -656.89001
30.57 -5.25 -656.95001
31.18 -5.25 -657.10999
31.790001 -5.25 -657.23999
32.389999 -5.25 -657.27002
33 -5.25 -657.44
33.610001 -5.25 -657.47998
34.220001 -5.25 -657.58002
34.82 -5.25 -657.57001
35.43 -5.2600002 -657.75
36.040001 -5.2600002 -657.85999
36.639999 -5.2600002 -657.79999
37.25 -5.2600002 -657.83002
37.860001 -5.2600002 -657.89001
38.459999 -5.2600002 -657.91998
39.060001 -5.2600002 -657.90997
-154.08 -5.5300002 -621.38
-153.69 -5.54 -622.09998
-153.22 -5.54 -622.48999
-152.72 -5.5500002 -622.79999
-152.19 -5.5500002 -622.97998
-151.63 -5.5500002 -623.01001
-151.10001 -5.5500002 -623.16998
-150.55 -5.5500002 -623.26001
-150.00999 -5.5500002 -623.40997
-149.49001 -5.5500002 -623.60999
-148.97 -5.5599999 -623.83002
-148.45 -5.5599999 -624.04999
-147.96001 -5.5599999 -624.40997
-147.46001 -5.5599999 -624.70001
-146.96001 -5.5700002 -625
-146.47 -5.5700002 -625.34998
-146.02 -5.5700002 -625.85999
-145.53999 -5.5799999 -626.27002
-145.10001 -5.5799999 -626.84003
-144.61 -5.5900002 -627.20001
-144.21001 -5.5900002 -627.98999
-143.77 -5.5999999 -628.53998
-132.58 -5.1999998 -584.94
-131.74001 -5.1900001 -583.63
-130.87 -5.1799998 -582.19
-130.02 -5.1700001 -580.78998
-129.23 -5.1599998 -579.65002
-128.47 -5.1500001 -578.63
-127.84 -5.1399999 -578.16998
-127.19 -5.1399999 -577.65997
-126.6 -5.1399999 -577.38
-126 -5.1300001 -577.07001
-125.43 -5.1300001 -576.88
-124.82 -5.1300001 -576.48999
-124.24 -5.1300001 -576.28998
-123.64 -5.1199999 -575.96002
-123.07 -5.1199999 -575.73999
-122.45 -5.1199999 -575.33002
-121.86 -5.1100001 -575.02002
-121.29 -5.1100001 -574.82001
-120.72 -5.1100001 -574.62
-120.17 -5.1100001 -574.53998
-119.61 -5.1100001 -574.39001
-119.06 -5.1100001 -574.26001
-118.52 -5.1100001 -574.19
-117.98 -5.1100001 -574.13
-117.45 -5.1100001 -574.10999
-116.94 -5.1100001 -574.19
-116.41 -5.1100001 -574.15997
-115.88 -5.1100001 -574.15997
-115.37 -5.1100001 -574.21002
-114.84 -5.1100001 -574.21002
-114.32 -5.1100001 -574.27002
-113.81 -5.1100001 -574.33002
-113.31 -5.1100001 -574.45001
-112.78 -5.1100001 -574.44
-112.28 -5.1100001 -574.59998
-111.77 -5.1100001 -574.65997
-111.27 -5.1100001 -574.78003
-110.77 -5.1100001 -574.91998
-110.26 -5.1100001 -575.03003
-109.79 -5.1199999 -575.31
-109.3 -5.1199999 -575.53003
-108.83 -5.1199999 -575.84003
-108.35 -5.1199999 -576.08002
-107.88 -5.1300001 -576.39001
-107.41 -5.1300001 -576.69
-106.94 -5.1300001 -577.01001
-106.46 -5.1300001 -577.28003
-105.99 -5.1399999 -577.57001
-105.53 -5.1399999 -577.92999
-105.09 -5.1500001 -578.45001
-104.65 -5.1500001 -578.91998
-104.21 -5.1500001 -579.44
-103.77 -5.1599998 -579.90997
-103.34 -5.1599998 -580.46997
-102.91 -5.1700001 -581.04999
-102.5 -5.1799998 -581.75
-102.08 -5.1799998 -582.35999
-101.67 -5.1900001 -583.07001
-101.24 -5.1900001 -583.66998
-100.85 -5.1999998 -584.51001
-100.48 -5.21 -585.44
-100.07 -5.2199998 -586.21002
-99.68 -5.2199998 -587.06
-92.199997 -5.73 -642.96997
-91.739998 -5.7399998 -643.84998
-91.239998 -5.7399998 -644.53003
-90.730003 -5.75 -645.08002
-90.209999 -5.75 -645.57001
-89.660004 -5.75 -645.90002
-89.089996 -5.7600002 -646.06
-88.529999 -5.7600002 -646.29999
-87.970001 -5.7600002 -646.56
-87.400002 -5.7600002 -646.73999
-86.839996 -5.7600002 -646.92999
-86.269997 -5.7600002 -647.15002
-85.709999 -5.77 -647.39001
-85.120003 -5.77 -647.45001
-84.519997 -5.77 -647.40002
-83.910004 -5.77 -647.28998
-83.300003 -5.7600002 -647.14001
-82.650002 -5.7600002 -646.73999
-82.010002 -5.7600002 -646.33002
-81.349998 -5.75 -645.84003
-80.580002 -5.7399998 -644.41998
-79.690002 -5.7199998 -642.08002
-78.93 -5.71 -640.70001
-78.260002 -5.6999998 -640.02002
-77.57 -5.6900001 -639.17999
-76.910004 -5.6900001 -638.64001
-76.220001 -5.6799998 -637.77002
-75.529999 -5.6700001 -636.89001
-74.730003 -5.6599998 -635.07001
-73.870003 -5.6300001 -632.76001
-73.129997 -5.6199999 -631.34003
-72.470001 -5.6199999 -630.66998
-71.809998 -5.6100001 -630.01001
-71.18 -5.5999999 -629.51001
-70.550003 -5.5999999 -629.08002
-69.940002 -5.5999999 -628.77002
-69.32 -5.5999999 -628.41998
-68.720001 -5.5900002 -628.15997
-68.120003 -5.5900002 -627.95001
-67.519997 -5.5900002 -627.73999
-66.93 -5.5900002 -627.60999
-66.339996 -5.5900002 -627.46997
-65.760002 -5.5900002 -627.40997
-65.169998 -5.5799999 -627.31
-64.589996 -5.5799999 -627.28998
-64.029999 -5.5900002 -627.40002
-63.470001 -5.5900002 -627.58002
-62.900002 -5.5900002 -627.59998
-62.34 -5.5900002 -627.78003
-61.759998 -5.5900002 -627.78003
-61.209999 -5.5900002 -627.97998
-60.639999 -5.5900002 -628.03003
-60.080002 -5.5900002 -628.21002
-59.529999 -5.5999999 -628.53998
-58.970001 -5.5999999 -628.70001
-58.41 -5.5999999 -628.87
-57.869999 -5.5999999 -629.28998
-57.32 -5.5999999 -629.51001
-56.77 -5.6100001 -629.89001
-56.23 -5.6100001 -630.25
-55.689999 -5.6100001 -630.64001
-55.139999 -5.6199999 -631.06
-54.610001 -5.6199999 -631.54999
-54.09 -5.6300001 -632.23999
-53.57 -5.6399999 -632.98999
-53.029999 -5.6399999 -633.45001
-52.509998 -5.6500001 -634.20001
-51.98 -5.6500001 -634.73999
-51.439999 -5.6599998 -635.28998
-50.900002 -5.6599998 -635.89001
-50.360001 -5.6700001 -636.41998
-49.810001 -5.6700001 -636.84003
-49.259998 -5.6700001 -637.23999
-48.720001 -5.6799998 -637.75
-48.189999 -5.6900001 -638.51001
-47.639999 -5.6900001 -639.04999
-47.110001 -5.6999998 -639.77002
-46.57 -5.6999998 -640.44
-46.07 -5.71 -641.64001
-45.599998 -5.73 -643.26001
-45.18 -5.75 -645.59998
-44.740002 -5.77 -647.88
-44.349998 -5.8000002 -650.81
-43.880001 -5.8099999 -652.63
-43.380001 -5.8299999 -654.13
-42.82 -5.8299999 -654.75
-42.25 -5.8400002 -655.17999
-41.66 -5.8400002 -655.29999
-41.060001 -5.8400002 -655.41998
-40.459999 -5.8400002 -655.37
-39.860001 -5.8400002 -655.35999
-39.259998 -5.8400002 -655.41998
-32.32 -4.96 -558.08002
-31.68 -4.9400001 -555.75
-31.110001 -4.9299998 -554.76001
-30.57 -4.9200001 -554.15997
-30.040001 -4.9200001 -553.65997
-29.5 -4.9099998 -553.19
-28.98 -4.9099998 -552.84998
-28.459999 -4.9099998 -552.52002
-27.940001 -4.9099998 -552.37
-27.440001 -4.9099998 -552.40002
-26.93 -4.9099998 -552.34998
-26.43 -4.9099998 -552.33002
-25.92 -4.9099998 -552.40002
-25.42 -4.9099998 -552.45001
-24.92 -4.9099998 -552.59998
-24.43 -4.9099998 -552.96997
-23.950001 -4.9200001 -553.40997
-23.450001 -4.9200001 -553.63
-22.959999 -4.9200001 -553.94
-22.459999 -4.9200001 -554.23999
-21.959999 -4.9299998 -554.41998
-21.459999 -4.9299998 -554.65997
-20.969999 -4.9299998 -554.94
-20.469999 -4.9299998 -555.17999
-19.969999 -4.9299998 -555.34998
-19.469999 -4.9400001 -555.70001
-18.969999 -4.9400001 -555.84998
-18.469999 -4.9400001 -556.09003
-17.959999 -4.9400001 -556.32001
-17.459999 -4.9400001 -556.47998
-16.959999 -4.9499998 -556.78003
-16.459999 -4.9499998 -556.96997
-15.95 -4.9499998 -557.23999
-15.45 -4.9499998 -557.52002
-14.95 -4.96 -557.71997
-14.44 -4.96 -557.83002
-13.94 -4.96 -558.06
-13.43 -4.96 -558.29999
-12.92 -4.96 -558.53003
-12.42 -4.9699998 -558.84003
-11.92 -4.9699998 -559.15002
-11.41 -4.9699998 -559.62
-10.91 -4.98 -560.04999
-10.41 -4.98 -560.66998
-9.9099998 -4.9899998 -561.39001
-9.4099998 -5 -562.21997
-8.8999996 -5 -562.84998
-8.3999996 -5.0100002 -563.37
-7.8899999 -5.0100002 -564.03998
-7.3800001 -5.02 -564.62
-6.8699999 -5.02 -565.27002
-6.3600001 -5.0300002 -566
27.559999 -5.8499999 -657.19
28.18 -5.8600001 -657.41998
28.77 -5.8499999 -657.25
29.370001 -5.8499999 -657.14001
29.98 -5.8499999 -657.20001
30.58 -5.8499999 -657.28003
31.190001 -5.8600001 -657.38
31.790001 -5.8600001 -657.37
32.400002 -5.8600001 -657.48999
33.009998 -5.8600001 -657.56
33.619999 -5.8600001 -657.63
34.220001 -5.8600001 -657.69
34.830002 -5.8600001 -657.79999
35.439999 -5.8600001 -657.84003
36.049999 -5.8600001 -657.91998
36.650002 -5.8600001 -657.91998
37.259998 -5.8600001 -658.09003
37.849998 -5.8600001 -657.71997
-153.58 -6.1100001 -621.65997
-153.23 -6.1199999 -622.54999
-152.78999 -6.1199999 -623.07001
-152.28999 -6.1199999 -623.37
-151.77 -6.1300001 -623.58002
-151.21001 -6.1300001 -623.64001
-150.69 -6.1300001 -623.84003
-150.14999 -6.1300001 -623.98999
-149.61 -6.1300001 -624.10999
-149.10001 -6.1300001 -624.38
-148.59 -6.1399999 -624.62
-148.10001 -6.1399999 -624.98999
-147.58 -6.1399999 -625.21997
-147.09 -6.1500001 -625.54999
-146.61 -6.1500001 -625.94
-146.14999 -6.1500001 -626.42999
-145.67999 -6.1599998 -626.89001
-145.23 -6.1599998 -627.39001
-144.75 -6.1700001 -627.79999
-144.31 -6.1700001 -628.38
-143.87 -6.1799998 -628.97998
-142 -6.1199999 -623.38
-133.84 -5.8000002 -590.41998
-131.89999 -5.73 -584.34003
-131.07001 -5.7199998 -583.03998
-130.2 -5.71 -581.58002
-129.38 -5.6900001 -580.29999
-128.59 -5.6799998 -579.15997
-127.92 -5.6799998 -578.53003
-127.25 -5.6700001 -577.92999
-126.65 -5.6700001 -577.59998
-126.05 -5.6599998 -577.31
-125.45 -5.6599998 -576.98999
-124.86 -5.6599998 -576.71002
-124.28 -5.6599998 -576.44
-123.69 -5.6500001 -576.15997
-123.11 -5.6500001 -575.95001
-122.5 -5.6500001 -575.53998
-121.89 -5.6399999 -575.19
-121.32 -5.6399999 -574.96002
-120.76 -5.6399999 -574.81
-120.21 -5.6399999 -574.72998
-119.65 -5.6399999 -574.56
-119.07 -5.6300001 -574.32001
-118.54 -5.6300001 -574.28003
-118 -5.6300001 -574.21002
-117.46 -5.6300001 -574.15997
-116.94 -5.6300001 -574.19
-116.43 -5.6300001 -574.26001
-115.9 -5.6300001 -574.27002
-115.38 -5.6300001 -574.28998
-114.86 -5.6300001 -574.29999
-114.35 -5.6399999 -574.40002
-113.82 -5.6399999 -574.40002
-113.33 -5.6399999 -574.53998
-112.81 -5.6399999 -574.59003
-112.28 -5.6399999 -574.59998
-111.78 -5.6399999 -574.71997
-111.27 -5.6399999 -574.79999
-110.77 -5.6399999 -574.91998
-110.26 -5.6399999 -575.04999
-109.77 -5.6399999 -575.23999
-109.29 -5.6500001 -575.47998
-108.83 -5.6500001 -575.81
-108.34 -5.6500001 -576.03998
-107.87 -5.6500001 -576.34003
-107.39 -5.6599998 -576.59003
-106.93 -5.6599998 -576.92999
-106.45 -5.6599998 -577.17999
-105.96 -5.6700001 -577.40997
-105.5 -5.6700001 -577.78998
-105.07 -5.6700001 -578.31
-104.62 -5.6799998 -578.73999
-104.18 -5.6799998 -579.25
-103.75 -5.6900001 -579.79999
-103.32 -5.6900001 -580.38
-102.88 -5.6999998 -580.87
-102.46 -5.71 -581.54999
-102.03 -5.71 -582.12
-101.64 -5.7199998 -582.94
-101.21 -5.73 -583.53003
-100.84 -5.73 -584.42999
-100.45 -5.7399998 -585.28003
-100.05 -5.75 -586.09003
-99.650002 -5.7600002 -586.88
-91.25 -6.3299999 -644.58002
-90.800003 -6.3400002 -645.56
-90.290001 -6.3499999 -646.14001
-89.769997 -6.3499999 -646.65997
-89.239998 -6.3600001 -647.10999
-88.669998 -6.3600001 -647.27002
-88.120003 -6.3600001 -647.65002
-87.559998 -6.3699999 -647.85999
-87 -6.3699999 -648.12
-86.43 -6.3699999 -648.32001
-85.839996 -6.3699999 -648.38
-85.279999 -6.3699999 -648.62
-84.690002 -6.3699999 -648.65997
-84.089996 -6.3699999 -648.65997
-83.480003 -6.3699999 -648.48999
-82.870003 -6.3699999 -648.44
-82.199997 -6.3699999 -647.84998
-81.510002 -6.3600001 -647.07001
-80.669998 -6.3400002 -645.16998
-79.800003 -6.3200002 -642.95001
-78.989998 -6.3000002 -641.15997
-78.300003 -6.29 -640.39001
-77.599998 -6.2800002 -639.44
-76.940002 -6.2800002 -638.88
-76.269997 -6.27 -638.17999
-75.620003 -6.2600002 -637.59003
-74.919998 -6.25 -636.69
-74.169998 -6.2399998 -635.28003
-73.349998 -6.2199998 -633.21997
-72.629997 -6.21 -632.09003
-71.970001 -6.1999998 -631.34998
-71.339996 -6.1999998 -630.92999
-70.720001 -6.1900001 -630.59998
