# .PCD v0.7 - Point Cloud Data file format
VERSION 0.7
FIELDS x y z
SIZE 4 4 4
TYPE F F F
COUNT 1 1 1
WIDTH 1717
HEIGHT 1
VIEWPOINT 0 0 0 1 0 0 0
POINTS 1717
DATA ascii
-119.7 -95.910004 -582.31
-119.12 -95.870003 -582.10999
-118.56 -95.849998 -581.97998
-118.02 -95.849998 -581.95001
-117.47 -95.830002 -581.84003
-116.92 -95.82 -581.78998
-116.38 -95.809998 -581.72998
-115.84 -95.809998 -581.72998
-115.3 -95.800003 -581.67999
-114.78 -95.809998 -581.73999
-114.25 -95.82 -581.77002
-113.7 -95.800003 -581.67999
-113.18 -95.809998 -581.73999
-112.65 -95.809998 -581.75
-112.13 -95.82 -581.82001
-111.61 -95.839996 -581.88
-111.1 -95.849998 -581.98999
-110.58 -95.870003 -582.09998
-110.07 -95.889999 -582.20001
-109.56 -95.910004 -582.33002
-109.06 -95.940002 -582.52002
-108.56 -95.970001 -582.67999
-108.09 -96.019997 -583.01001
-107.59 -96.059998 -583.21002
-107.11 -96.099998 -583.47998
-106.61 -96.139999 -583.70001
-106.16 -96.209999 -584.13
-105.68 -96.269997 -584.45001
-105.21 -96.32 -584.79999
-104.74 -96.389999 -585.19
-104.29 -96.459999 -585.62
-103.81 -96.519997 -585.97998
-103.39 -96.629997 -586.60999
-102.96 -96.730003 -587.21997
-102.53 -96.830002 -587.81
-102.04 -96.879997 -588.09998
-101.57 -96.949997 -588.53003
-101.19 -97.099998 -589.44
-100.83 -97.269997 -590.47998
-100.43 -97.410004 -591.28003
-100.09 -97.599998 -592.42999
-99.660004 -97.709999 -593.09998
-99.230003 -97.830002 -593.79999
-98.849998 -97.989998 -594.73999
-98.510002 -98.190002 -595.96002
-98.110001 -98.339996 -596.89001
-86.919998 -109.02 -660.70001
-85.720001 -109.03 -660.78003
-85.059998 -108.96 -660.38
-84.419998 -108.91 -660.09998
-83.800003 -108.91 -660.04999
-83.190002 -108.89 -659.96997
-82.529999 -108.82 -659.53998
-81.900002 -108.79 -659.34998
-81.290001 -108.79 -659.35999
-80.68 -108.79 -659.34003
-80.029999 -108.72 -658.95001
-79.379997 -108.66 -658.60999
-78.779999 -108.67 -658.62
-78.160004 -108.64 -658.48999
-77.529999 -108.6 -658.25
-76.900002 -108.58 -658.09003
-76.290001 -108.57 -658.03003
-75.68 -108.56 -658
-75.059998 -108.54 -657.87
-74.43 -108.5 -657.63
-73.830002 -108.5 -657.65002
-73.199997 -108.46 -657.40002
-72.599998 -108.46 -657.40997
-72 -108.47 -657.46997
-71.349998 -108.41 -657.08002
-70.709999 -108.35 -656.73999
-70.099998 -108.34 -656.65997
-69.480003 -108.31 -656.53998
-68.849998 -108.26 -656.21997
-68.239998 -108.26 -656.19
-67.620003 -108.22 -655.98999
-67.019997 -108.22 -656.01001
-66.419998 -108.23 -656.06
-65.82 -108.23 -656.04999
-65.199997 -108.2 -655.87
-64.599998 -108.21 -655.91998
-63.990002 -108.2 -655.85999
-63.380001 -108.19 -655.79999
-62.790001 -108.2 -655.85999
-62.189999 -108.21 -655.91998
-61.560001 -108.16 -655.65002
-60.959999 -108.17 -655.66998
-60.389999 -108.21 -655.96002
-59.82 -108.27 -656.29999
-59.240002 -108.31 -656.52002
-58.630001 -108.31 -656.54999
-58.060001 -108.36 -656.82001
-57.48 -108.41 -657.13
-56.880001 -108.4 -657.10999
-56.290001 -108.44 -657.33002
-55.709999 -108.49 -657.64001
-55.099998 -108.48 -657.56
-54.52 -108.51 -657.76001
-53.950001 -108.58 -658.15997
-53.369999 -108.63 -658.45001
-52.759998 -108.62 -658.42999
-52.169998 -108.66 -658.64001
-51.580002 -108.69 -658.83002
-51 -108.74 -659.14001
-50.43 -108.82 -659.62
-49.830002 -108.84 -659.70001
-49.23 -108.84 -659.71997
-48.66 -108.91 -660.15002
-48.07 -108.96 -660.44
-138.64999 -98.919998 -597.09998
-137.92999 -98.790001 -596.34998
-137.22 -98.68 -595.65997
-136.5 -98.559998 -594.92999
-135.84 -98.470001 -594.40997
-135.12 -98.339996 -593.64001
-134.42999 -98.239998 -593.03003
-133.75 -98.139999 -592.42999
-133.08 -98.040001 -591.85999
-132.39 -97.93 -591.21997
-131.72 -97.839996 -590.65002
-131.05 -97.739998 -590.06
-130.39999 -97.660004 -589.60999
-129.71001 -97.550003 -588.94
-129.07001 -97.470001 -588.46002
-128.42 -97.389999 -587.96002
-127.78 -97.309998 -587.51001
-127.13 -97.230003 -586.98999
-126.48 -97.139999 -586.51001
-125.8 -97.040001 -585.85999
-125.16 -96.959999 -585.38
-124.51 -96.870003 -584.84998
-123.92 -96.82 -584.58002
-123.27 -96.739998 -584.07001
-122.65 -96.669998 -583.66998
-122.05 -96.610001 -583.34003
-121.45 -96.559998 -583.02002
-120.84 -96.5 -582.69
-120.26 -96.459999 -582.45001
-119.69 -96.43 -582.27002
-119.12 -96.400002 -582.09998
-118.55 -96.379997 -581.95001
-118 -96.360001 -581.84003
-117.46 -96.360001 -581.84003
-116.93 -96.360001 -581.83002
-116.39 -96.349998 -581.78998
-115.84 -96.339996 -581.73999
-115.31 -96.339996 -581.71002
-114.79 -96.349998 -581.78998
-114.25 -96.349998 -581.77002
-113.7 -96.339996 -581.69
-113.19 -96.349998 -581.77002
-112.66 -96.360001 -581.82001
-112.13 -96.360001 -581.83002
-111.63 -96.379997 -581.96997
-111.11 -96.400002 -582.06
-110.58 -96.400002 -582.06
-110.08 -96.43 -582.26001
-109.57 -96.449997 -582.39001
-109.09 -96.5 -582.65002
-108.59 -96.529999 -582.84998
-108.07 -96.550003 -582.92999
-107.57 -96.57 -583.09003
-107.09 -96.620003 -583.39001
-106.6 -96.660004 -583.63
-106.13 -96.720001 -583.96002
-105.69 -96.809998 -584.46997
-105.23 -96.879997 -584.89001
-104.75 -96.93 -585.23999
-104.27 -96.980003 -585.53998
-103.81 -97.050003 -585.95001
-103.4 -97.18 -586.67999
-102.95 -97.260002 -587.15997
-102.51 -97.349998 -587.71002
-102.04 -97.410004 -588.09003
-101.59 -97.510002 -588.64001
-101.17 -97.620003 -589.32001
-100.85 -97.830002 -590.56
-100.42 -97.940002 -591.22998
-100.06 -98.120003 -592.28998
-99.639999 -98.230003 -592.96997
-99.230003 -98.370003 -593.78998
-98.839996 -98.529999 -594.70001
-98.470001 -98.699997 -595.72998
-98.019997 -98.800003 -596.34998
-97.650002 -98.980003 -597.38
-85.68 -109.59 -660.51001
-85.029999 -109.54 -660.19
-84.400002 -109.5 -659.96002
-83.779999 -109.48 -659.88
-83.169998 -109.48 -659.84003
-82.519997 -109.42 -659.52002
-81.889999 -109.38 -659.27002
-81.269997 -109.37 -659.20001
-80.650002 -109.35 -659.09998
-80.010002 -109.3 -658.81
-79.379997 -109.27 -658.60999
-78.769997 -109.26 -658.56
-78.160004 -109.25 -658.51001
-77.529999 -109.21 -658.28003
-76.910004 -109.19 -658.15997
-76.300003 -109.18 -658.07001
-75.709999 -109.2 -658.20001
-75.089996 -109.18 -658.08002
-74.459999 -109.14 -657.87
-73.849998 -109.14 -657.84998
-73.220001 -109.1 -657.59003
-72.599998 -109.06 -657.40997
-71.989998 -109.06 -657.40997
-71.349998 -109 -657.04999
-70.709999 -108.94 -656.70001
-70.089996 -108.92 -656.53998
-69.470001 -108.9 -656.42999
-68.849998 -108.86 -656.22998
-68.230003 -108.84 -656.10999
-67.639999 -108.85 -656.15002
-67 -108.8 -655.85999
-66.410004 -108.82 -655.96002
-65.809998 -108.82 -655.95001
-65.199997 -108.8 -655.85999
-64.610001 -108.82 -655.98999
-64 -108.81 -655.91998
-63.380001 -108.78 -655.75
-62.779999 -108.79 -655.82001
-62.189999 -108.81 -655.90997
-61.57 -108.78 -655.75
-60.970001 -108.78 -655.75
-60.389999 -108.82 -656
-59.84 -108.91 -656.51001
-59.23 -108.9 -656.46002
-58.630001 -108.91 -656.5
-58.07 -108.98 -656.95001
-57.490002 -109.03 -657.21997
-56.880001 -109.01 -657.14001
-56.290001 -109.03 -657.26001
-55.740002 -109.14 -657.89001
-55.119999 -109.12 -657.79999
-54.529999 -109.14 -657.85999
-53.959999 -109.22 -658.37
-53.380001 -109.26 -658.59998
-52.779999 -109.27 -658.67999
-52.189999 -109.29 -658.79999
-51.59 -109.31 -658.92999
-51.02 -109.39 -659.37
-50.459999 -109.49 -659.96997
-49.860001 -109.5 -660.07001
-49.259998 -109.51 -660.13
-139.25999 -99.519997 -597.38
-138.53 -99.379997 -596.59998
-137.78999 -99.25 -595.78998
-137.10001 -99.139999 -595.13
-136.39 -99.019997 -594.45001
-135.73 -98.93 -593.92999
-135.02 -98.809998 -593.21997
-134.33 -98.709999 -592.59998
-133.66 -98.610001 -592.02002
-132.97 -98.510002 -591.40997
-132.32001 -98.419998 -590.90002
-131.63 -98.32 -590.27002
-131 -98.239998 -589.84003
-130.34 -98.160004 -589.34003
-129.67 -98.059998 -588.77002
-129.02 -97.980003 -588.27002
-128.36 -97.879997 -587.70001
-127.72 -97.809998 -587.26001
-127.07 -97.720001 -586.75
-126.43 -97.639999 -586.27002
-125.77 -97.550003 -585.71002
-125.14 -97.470001 -585.27002
-124.5 -97.389999 -584.78998
-123.88 -97.330002 -584.40002
-123.25 -97.25 -583.94
-122.62 -97.18 -583.52002
-122.01 -97.110001 -583.14001
-121.41 -97.07 -582.87
-120.81 -97.010002 -582.56
-120.24 -96.980003 -582.34998
-119.66 -96.940002 -582.14001
-119.11 -96.93 -582.04999
-118.53 -96.889999 -581.84003
-118 -96.889999 -581.84003
-117.46 -96.889999 -581.83002
-116.93 -96.889999 -581.81
-116.39 -96.889999 -581.82001
-115.86 -96.889999 -581.78998
-115.3 -96.870003 -581.70001
-114.78 -96.879997 -581.77002
-114.26 -96.889999 -581.79999
-113.71 -96.879997 -581.73999
-113.18 -96.879997 -581.73999
-112.66 -96.889999 -581.83002
-112.14 -96.900002 -581.90002
-111.63 -96.919998 -581.97998
-111.11 -96.93 -582.07001
-110.6 -96.959999 -582.20001
-110.1 -96.980003 -582.37
-109.6 -97.010002 -582.53998
-109.1 -97.040001 -582.70001
-108.59 -97.059998 -582.83002
-108.07 -97.080002 -582.91998
-107.56 -97.099998 -583.03998
-107.05 -97.120003 -583.19
-106.58 -97.18 -583.51001
-106.13 -97.260002 -583.97998
-105.67 -97.330002 -584.41998
-105.23 -97.419998 -584.91998
-104.74 -97.459999 -585.15997
-104.28 -97.529999 -585.59003
-103.83 -97.610001 -586.08002
-103.41 -97.720001 -586.72998
-102.94 -97.779999 -587.09998
-102.52 -97.900002 -587.76001
-102.04 -97.949997 -588.09998
-101.61 -98.059998 -588.71997
-101.21 -98.199997 -589.54999
-100.83 -98.360001 -590.47998
-100.41 -98.470001 -591.17999
-100.03 -98.629997 -592.09003
-99.620003 -98.760002 -592.88
-99.220001 -98.900002 -593.70001
-98.82 -99.050003 -594.59003
-98.440002 -99.220001 -595.58002
-97.989998 -99.32 -596.15002
-97.650002 -99.519997 -597.35999
-85.019997 -110.13 -660.09998
-84.389999 -110.1 -659.91998
-83.779999 -110.08 -659.84998
-83.160004 -110.07 -659.77002
-82.519997 -110.02 -659.46002
-81.879997 -109.98 -659.23999
-81.260002 -109.96 -659.14001
-80.660004 -109.96 -659.12
-80.019997 -109.92 -658.88
-79.379997 -109.87 -658.60999
-78.769997 -109.86 -658.51001
-78.18 -109.88 -658.65002
-77.529999 -109.81 -658.27002
-76.919998 -109.82 -658.27002
-76.330002 -109.83 -658.35999
-75.739998 -109.85 -658.46002
-75.099998 -109.8 -658.19
-74.470001 -109.75 -657.91998
-73.870003 -109.77 -658.03003
-73.260002 -109.76 -657.95001
-72.610001 -109.69 -657.57001
-72.010002 -109.69 -657.52002
-71.370003 -109.64 -657.27002
-70.720001 -109.57 -656.81
-70.080002 -109.51 -656.47998
-69.489998 -109.53 -656.62
-68.839996 -109.46 -656.15997
-68.230003 -109.44 -656.03998
-67.639999 -109.46 -656.19
-67.010002 -109.41 -655.90002
-66.410004 -109.41 -655.90002
-65.800003 -109.41 -655.87
-65.190002 -109.39 -655.79999
-64.599998 -109.41 -655.90997
-63.990002 -109.4 -655.85999
-63.400002 -109.42 -655.96997
-62.799999 -109.42 -655.94
-62.18 -109.4 -655.83002
-61.59 -109.42 -655.96997
-61 -109.44 -656.06
-60.419998 -109.47 -656.25
-59.84 -109.52 -656.57001
-59.259998 -109.56 -656.77002
-58.650002 -109.55 -656.71002
-58.09 -109.62 -657.14001
-57.509998 -109.67 -657.44
-56.900002 -109.66 -657.37
-56.299999 -109.68 -657.47998
-55.759998 -109.78 -658.10999
-55.16 -109.79 -658.17999
-54.549999 -109.79 -658.15997
-53.990002 -109.87 -658.63
-53.41 -109.93 -659.01001
-52.799999 -109.91 -658.89001
-52.209999 -109.95 -659.10999
-51.630001 -110 -659.41998
-51.049999 -110.06 -659.76001
-139.05 -99.910004 -596.46997
-138.35001 -99.800003 -595.82001
-137.66 -99.690002 -595.21002
-136.96001 -99.580002 -594.54999
-136.27 -99.480003 -593.94
-135.60001 -99.379997 -593.37
-134.88 -99.260002 -592.64001
-134.22 -99.169998 -592.12
-133.53999 -99.07 -591.51001
-132.89 -98.980003 -591.03003
-132.21001 -98.879997 -590.42999
-131.56 -98.800003 -589.96002
-130.91 -98.720001 -589.45001
-130.25 -98.629997 -588.91998
-129.60001 -98.550003 -588.45001
-128.97 -98.470001 -588.02002
-128.31 -98.379997 -587.47998
-127.67 -98.300003 -587
-127.01 -98.209999 -586.44
-126.4 -98.150002 -586.12
-125.71 -98.040001 -585.44
-125.08 -97.959999 -585.01001
-124.44 -97.879997 -584.51001
-123.82 -97.82 -584.14001
-123.19 -97.739998 -583.70001
-122.57 -97.669998 -583.28003
-121.97 -97.620003 -582.96997
-121.39 -97.580002 -582.75
-120.78 -97.519997 -582.40002
-120.21 -97.489998 -582.23999
-119.65 -97.470001 -582.08002
-119.09 -97.449997 -581.96997
-118.52 -97.419998 -581.79999
-117.99 -97.419998 -581.81
-117.45 -97.410004 -581.77002
-116.92 -97.419998 -581.78003
-116.37 -97.400002 -581.70001
-115.84 -97.410004 -581.72998
-115.31 -97.410004 -581.71997
-114.78 -97.410004 -581.73999
-114.24 -97.410004 -581.71002
-113.71 -97.410004 -581.73999
-113.18 -97.410004 -581.75
-112.67 -97.43 -581.84003
-112.14 -97.440002 -581.88
-111.63 -97.459999 -582.01001
-111.11 -97.470001 -582.06
-110.62 -97.510002 -582.31
-110.09 -97.510002 -582.29999
-109.6 -97.540001 -582.51001
-109.08 -97.559998 -582.59003
-108.57 -97.580002 -582.73999
-108.04 -97.589996 -582.77002
-107.54 -97.620003 -582.95001
-107.05 -97.650002 -583.15997
-106.57 -97.709999 -583.46997
-106.11 -97.779999 -583.89001
-105.68 -97.870003 -584.42999
-105.2 -97.919998 -584.75
-104.75 -98 -585.21997
-104.28 -98.059998 -585.57001
-103.81 -98.129997 -585.95001
-103.39 -98.239998 -586.59998
-102.93 -98.32 -587.08002
-102.5 -98.419998 -587.67999
-102.04 -98.489998 -588.09003
-101.64 -98.629997 -588.90002
-101.22 -98.739998 -589.57001
-100.81 -98.879997 -590.35999
-100.39 -98.989998 -591.02002
-100 -99.150002 -591.94
-99.599998 -99.290001 -592.77002
-99.209999 -99.440002 -593.65002
-98.800003 -99.57 -594.46002
-98.400002 -99.720001 -595.33002
-97.970001 -99.839996 -596.01001
-97.620003 -100.04 -597.20001
-97.550003 -100.53 -600.08002
-85.010002 -110.72 -660.01001
-84.389999 -110.7 -659.89001
-83.769997 -110.68 -659.79999
-83.18 -110.7 -659.90997
-82.540001 -110.66 -659.67999
-81.889999 -110.59 -659.27002
-81.279999 -110.59 -659.27002
-80.68 -110.6 -659.31
-80.050003 -110.56 -659.09998
-79.400002 -110.5 -658.75
-78.760002 -110.46 -658.48999
-78.160004 -110.45 -658.46997
-77.550003 -110.46 -658.47998
-76.93 -110.43 -658.32001
-76.32 -110.42 -658.28998
-75.739998 -110.45 -658.47998
-75.110001 -110.42 -658.27002
-74.489998 -110.39 -658.12
-73.870003 -110.37 -658
-73.290001 -110.4 -658.17999
-72.610001 -110.29 -657.52002
-71.989998 -110.26 -657.34003
-71.379997 -110.26 -657.33002
-70.730003 -110.18 -656.90002
-70.080002 -110.11 -656.47998
-69.5 -110.15 -656.70001
-68.849998 -110.07 -656.23999
-68.230003 -110.04 -656.03998
-67.639999 -110.05 -656.14001
-67.019997 -110.04 -656.06
-66.410004 -110.02 -655.95001
-65.809998 -110.02 -655.94
-65.199997 -110.01 -655.84998
-64.589996 -110 -655.82001
-64 -110.01 -655.90002
-63.400002 -110.02 -655.96002
-62.790001 -110.01 -655.85999
-62.200001 -110.02 -655.96002
-61.610001 -110.05 -656.13
-61.029999 -110.08 -656.32001
-60.43 -110.1 -656.42999
-59.869999 -110.17 -656.82001
-59.290001 -110.21 -657.09003
-58.669998 -110.19 -656.96997
-58.110001 -110.26 -657.35999
-57.540001 -110.33 -657.75
-56.93 -110.32 -657.71002
-56.349998 -110.36 -657.96997
-55.790001 -110.45 -658.47998
-55.18 -110.45 -658.5
-54.57 -110.43 -658.40002
-54.040001 -110.59 -659.28998
-53.459999 -110.63 -659.53003
-52.84 -110.61 -659.41998
-52.240002 -110.61 -659.42999
-141.10001 -100.75 -598.19
-140.31 -100.58 -597.19
-139.58 -100.45 -596.41998
-138.88 -100.33 -595.76001
-138.2 -100.24 -595.21997
-137.5 -100.12 -594.53003
-136.83 -100.03 -593.98999
-136.14 -99.93 -593.38
-135.46001 -99.82 -592.78003
-134.78 -99.730003 -592.19
-134.13 -99.639999 -591.71002
-133.45 -99.540001 -591.12
-132.81 -99.470001 -590.67999
-132.13 -99.370003 -590.09003
-131.49001 -99.290001 -589.65002
-130.83 -99.199997 -589.13
-130.19 -99.120003 -588.65997
-129.55 -99.050003 -588.22998
-128.89999 -98.959999 -587.70001
-128.25999 -98.879997 -587.25
-127.61 -98.800003 -586.77002
-126.95 -98.699997 -586.21002
-126.32 -98.629997 -585.77002
-125.67 -98.540001 -585.22998
-125.04 -98.470001 -584.81
-124.4 -98.379997 -584.31
-123.77 -98.309998 -583.90997
-123.14 -98.230003 -583.42999
-122.53 -98.169998 -583.09003
-121.93 -98.120003 -582.77002
-121.34 -98.07 -582.5
-120.76 -98.040001 -582.28998
-120.19 -98.010002 -582.14001
-119.61 -97.970001 -581.90002
-119.06 -97.959999 -581.82001
-118.52 -97.949997 -581.77002
-117.97 -97.940002 -581.71002
-117.44 -97.940002 -581.70001
-116.9 -97.93 -581.69
-116.37 -97.93 -581.67999
-115.82 -97.919998 -581.62
-115.29 -97.93 -581.64001
-114.76 -97.919998 -581.63
-114.23 -97.93 -581.65997
-113.7 -97.93 -581.65997
-113.19 -97.959999 -581.81
-112.67 -97.970001 -581.87
-112.16 -97.980003 -581.96002
-111.65 -98.010002 -582.10999
-111.11 -98 -582.03998
-110.61 -98.029999 -582.25
-110.1 -98.050003 -582.37
-109.59 -98.07 -582.48999
-109.09 -98.110001 -582.67999
-108.57 -98.110001 -582.72998
-108.05 -98.129997 -582.81
-107.53 -98.139999 -582.87
-107.03 -98.169998 -583.04999
-106.54 -98.220001 -583.32001
-106.1 -98.300003 -583.78998
-105.65 -98.379997 -584.29999
-105.19 -98.449997 -584.71997
-104.74 -98.529999 -585.16998
-104.27 -98.589996 -585.53998
-103.83 -98.68 -586.06
-103.39 -98.769997 -586.59003
-102.93 -98.849998 -587.03998
-102.51 -98.970001 -587.71002
-102.05 -99.040001 -588.15002
-101.65 -99.18 -588.96997
-101.21 -99.279999 -589.54999
-100.79 -99.400002 -590.22998
-100.36 -99.5 -590.84998
-99.959999 -99.650002 -591.70001
-99.57 -99.800003 -592.56
-99.220001 -99.989998 -593.71997
-98.800003 -100.12 -594.47998
-98.379997 -100.25 -595.22998
-97.940002 -100.35 -595.83002
-97.610001 -100.58 -597.13
-97.489998 -101.02 -599.72998
-83.769997 -111.28 -659.77002
-83.169998 -111.3 -659.84998
-82.519997 -111.24 -659.51001
-81.900002 -111.21 -659.35999
-81.260002 -111.17 -659.09998
-80.660004 -111.17 -659.10999
-80.050003 -111.17 -659.10999
-79.410004 -111.12 -658.83002
-78.760002 -111.06 -658.46997
-78.18 -111.1 -658.69
-77.580002 -111.09 -658.67999
-76.949997 -111.06 -658.48999
-76.32 -111.03 -658.28003
-75.739998 -111.06 -658.46997
-75.120003 -111.04 -658.35999
-74.489998 -111 -658.15997
-73.889999 -111.01 -658.16998
-73.309998 -111.03 -658.34003
-72.650002 -110.95 -657.84003
-72.010002 -110.9 -657.53998
-71.410004 -110.91 -657.60999
-70.760002 -110.84 -657.17999
-70.110001 -110.76 -656.75
-69.489998 -110.74 -656.59003
-68.879997 -110.72 -656.53003
-68.25 -110.67 -656.23999
-67.639999 -110.66 -656.15997
-67.050003 -110.69 -656.33002
-66.43 -110.66 -656.13
-65.830002 -110.66 -656.15997
-65.220001 -110.64 -656.07001
-64.610001 -110.64 -656.03998
-64 -110.63 -655.97998
-63.419998 -110.66 -656.16998
-62.810001 -110.65 -656.10999
-62.220001 -110.66 -656.16998
-61.639999 -110.7 -656.40002
-61.060001 -110.76 -656.72998
-60.470001 -110.78 -656.88
-59.91 -110.86 -657.33002
-59.32 -110.88 -657.46997
-58.720001 -110.89 -657.5
-58.150002 -110.96 -657.90002
-57.59 -111.03 -658.32001
-56.990002 -111.05 -658.44
-56.419998 -111.11 -658.84003
-55.830002 -111.14 -659.01001
-55.209999 -111.11 -658.81
-54.619999 -111.13 -658.92999
-140.77 -101.06 -596.83002
-140.09 -100.97 -596.28003
-139.42999 -100.88 -595.77002
-138.7 -100.75 -595.03003
-138.03999 -100.67 -594.52002
-137.35001 -100.56 -593.89001
-136.69 -100.47 -593.39001
-136 -100.37 -592.78998
-135.33 -100.27 -592.21997
-134.67 -100.18 -591.70001
-134 -100.09 -591.16998
-133.35001 -100.01 -590.66998
-132.7 -99.93 -590.21997
-132.05 -99.839996 -589.71997
-131.41 -99.769997 -589.28998
-130.75 -99.68 -588.76001
-130.13 -99.610001 -588.38
-129.47 -99.519997 -587.84003
-128.82001 -99.440002 -587.35999
-128.17 -99.349998 -586.84998
-127.5 -99.25 -586.27002
-126.87 -99.18 -585.82001
-126.23 -99.089996 -585.34998
-125.6 -99.019997 -584.90002
-124.97 -98.949997 -584.48999
-124.32 -98.860001 -583.96002
-123.7 -98.790001 -583.58002
-123.08 -98.720001 -583.17999
-122.47 -98.660004 -582.79999
-121.87 -98.610001 -582.52002
-121.3 -98.580002 -582.34003
-120.72 -98.540001 -582.09998
-120.15 -98.510002 -581.91998
-119.6 -98.489998 -581.84998
-119.05 -98.480003 -581.75
-118.5 -98.470001 -581.67999
-117.97 -98.470001 -581.69
-117.42 -98.449997 -581.59998
-116.87 -98.449997 -581.56
-116.33 -98.440002 -581.52002
-115.81 -98.449997 -581.57001
-115.28 -98.449997 -581.58002
-114.74 -98.440002 -581.54999
-114.22 -98.449997 -581.59998
-113.7 -98.470001 -581.66998
-113.2 -98.5 -581.84998
-112.68 -98.510002 -581.90997
-112.16 -98.519997 -581.96997
-111.64 -98.529999 -582.04999
-111.14 -98.559998 -582.20001
-110.63 -98.580002 -582.35999
-110.11 -98.589996 -582.40002
-109.61 -98.620003 -582.57001
-109.11 -98.650002 -582.77002
-108.58 -98.660004 -582.77002
-108.07 -98.68 -582.90002
-107.55 -98.690002 -582.98999
-107.03 -98.709999 -583.08002
-106.53 -98.739998 -583.23999
-106.09 -98.830002 -583.77002
-105.65 -98.919998 -584.28003
-105.22 -99.010002 -584.85999
-104.73 -99.059998 -585.12
-104.27 -99.129997 -585.54999
-103.83 -99.230003 -586.09003
-103.37 -99.290001 -586.47998
-102.92 -99.379997 -586.98999
-102.49 -99.489998 -587.60999
-102.05 -99.580002 -588.14001
-101.63 -99.699997 -588.85999
-101.19 -99.800003 -589.44
-100.77 -99.919998 -590.10999
-100.31 -100 -590.60999
-99.93 -100.16 -591.52002
-99.550003 -100.32 -592.44
-99.209999 -100.53 -593.65997
-98.769997 -100.64 -594.29999
-98.349998 -100.76 -595.03003
-97.910004 -100.87 -595.65997
-97.57 -101.09 -596.91998
-97.339996 -101.42 -598.83002
-97.419998 -102.08 -602.67999
-106.11 -111.81 -659.28998
-81.889999 -111.8 -659.26001
-81.260002 -111.78 -659.12
-80.650002 -111.77 -659.08002
-80.07 -111.8 -659.28003
-79.449997 -111.78 -659.15997
-78.779999 -111.68 -658.57001
-78.18 -111.69 -658.62
-77.580002 -111.7 -658.70001
-76.949997 -111.67 -658.5
-76.309998 -111.62 -658.21997
-75.739998 -111.66 -658.44
-75.129997 -111.66 -658.42999
-74.510002 -111.63 -658.27002
-73.900002 -111.62 -658.21002
-73.32 -111.65 -658.41998
-72.699997 -111.63 -658.28003
-72.040001 -111.55 -657.81
-71.419998 -111.53 -657.71002
-70.830002 -111.54 -657.78003
-70.129997 -111.4 -656.94
-69.510002 -111.36 -656.71997
-68.910004 -111.38 -656.84003
-68.260002 -111.3 -656.37
-67.669998 -111.31 -656.46002
-67.089996 -111.35 -656.65997
-66.480003 -111.34 -656.58002
-65.860001 -111.31 -656.42999
-65.260002 -111.32 -656.5
-64.669998 -111.33 -656.58002
-64.040001 -111.29 -656.32001
-63.439999 -111.3 -656.39001
-62.84 -111.3 -656.40997
-62.240002 -111.31 -656.46002
-61.66 -111.34 -656.63
-61.080002 -111.39 -656.92999
-60.52 -111.46 -657.33002
-59.970001 -111.56 -657.90002
-59.369999 -111.58 -658
-58.77 -111.59 -658.04999
-58.240002 -111.72 -658.83002
-57.66 -111.77 -659.15002
-57.060001 -111.77 -659.15002
-55.27 -111.83 -659.46002
-141.28 -101.58 -596.69
-140.58 -101.47 -596.01001
-139.87 -101.35 -595.34003
-139.22 -101.28 -594.90002
-138.55 -101.19 -594.38
-137.87 -101.08 -593.78998
-137.21001 -101 -593.28003
-136.53999 -100.91 -592.75
-135.87 -100.81 -592.21002
-135.22 -100.74 -591.76001
-134.53999 -100.63 -591.14001
-133.91 -100.57 -590.78003
-133.25999 -100.48 -590.28003
-132.61 -100.4 -589.82001
-131.97 -100.32 -589.38
-131.33 -100.25 -588.91998
-130.67 -100.15 -588.39001
-130.03999 -100.09 -588
-129.37 -99.989998 -587.40997
-128.72 -99.900002 -586.92999
-128.08 -99.82 -586.42999
-127.43 -99.730003 -585.91998
-126.77 -99.629997 -585.37
-126.13 -99.550003 -584.90002
-125.52 -99.489998 -584.54999
-124.9 -99.43 -584.17999
-124.24 -99.330002 -583.60999
-123.65 -99.290001 -583.34998
-123.02 -99.209999 -582.90002
-122.42 -99.160004 -582.59998
-121.83 -99.110001 -582.32001
-121.25 -99.07 -582.09998
-120.68 -99.040001 -581.91998
-120.11 -99.010002 -581.76001
-119.56 -98.989998 -581.64001
-119.02 -98.989998 -581.62
-118.48 -98.980003 -581.58002
-117.94 -98.980003 -581.56
-117.4 -98.970001 -581.51001
-116.86 -98.959999 -581.46997
-116.32 -98.959999 -581.44
-115.79 -98.959999 -581.46997
-115.26 -98.959999 -581.47998
-114.74 -98.970001 -581.53003
-114.21 -98.980003 -581.57001
-113.7 -99 -581.67999
-113.2 -99.029999 -581.83002
-112.68 -99.040001 -581.90997
-112.16 -99.050003 -581.96002
-111.64 -99.07 -582.06
-111.14 -99.089996 -582.20001
-110.62 -99.099998 -582.26001
-110.11 -99.129997 -582.41998
-109.6 -99.150002 -582.53998
-109.12 -99.199997 -582.81
-108.6 -99.209999 -582.90997
-108.08 -99.230003 -582.97998
-107.56 -99.239998 -583.07001
-107.06 -99.269997 -583.21997
-106.55 -99.290001 -583.33002
-106.12 -99.389999 -583.90997
-105.66 -99.459999 -584.35999
-105.19 -99.519997 -584.71002
-104.72 -99.580002 -585.04999
-104.28 -99.68 -585.62
-103.81 -99.739998 -585.94
-103.36 -99.830002 -586.46002
-102.91 -99.910004 -586.96002
-102.48 -100.02 -587.54999
-102.03 -100.1 -588.04999
-101.63 -100.24 -588.83002
-101.18 -100.33 -589.34998
-100.72 -100.41 -589.84003
-100.28 -100.51 -590.41998
-99.900002 -100.67 -591.32001
-99.550003 -100.87 -592.46997
-99.18 -101.04 -593.5
-98.75 -101.16 -594.16998
-98.330002 -101.28 -594.89001
-97.860001 -101.37 -595.39001
-97.510002 -101.57 -596.56
-97.209999 -101.83 -598.03998
-106.01 -112.32 -658.71997
-105.53 -112.44 -659.44
-81.910004 -112.43 -659.41998
-81.269997 -112.39 -659.16998
-80.650002 -112.37 -659.08002
-80.080002 -112.42 -659.35999
-79.459999 -112.4 -659.23999
-78.809998 -112.34 -658.85999
-78.190002 -112.31 -658.72998
-77.610001 -112.35 -658.94
-77 -112.34 -658.90002
-76.360001 -112.28 -658.56
-75.75 -112.28 -658.56
-75.169998 -112.32 -658.76001
-74.519997 -112.25 -658.39001
-73.910004 -112.25 -658.37
-73.330002 -112.27 -658.51001
-72.730003 -112.28 -658.57001
-72.07 -112.2 -658.09003
-71.449997 -112.18 -658
-70.879997 -112.24 -658.28998
-70.230003 -112.16 -657.84003
-69.559998 -112.05 -657.21997
-68.959999 -112.05 -657.22998
-68.339996 -112.02 -657.07001
-67.709999 -111.98 -656.81
-67.110001 -111.99 -656.90002
-66.559998 -112.07 -657.37
-65.910004 -112 -656.96002
-65.309998 -112.01 -656.98999
-64.720001 -112.03 -657.13
-64.089996 -111.97 -656.78998
-63.5 -112.01 -656.98999
-62.919998 -112.05 -657.20001
-62.299999 -112.03 -657.09003
-61.709999 -112.04 -657.20001
-61.150002 -112.13 -657.69
-60.57 -112.17 -657.91998
-60.049999 -112.32 -658.77002
-59.439999 -112.31 -658.72998
-58.830002 -112.31 -658.75
-145.13 -102.53 -598.97998
-143.73 -102.31 -597.76001
-141.72 -102.05 -596.23999
-141.02 -101.94 -595.58002
-140.35001 -101.85 -595.08002
-139.7 -101.77 -594.64001
-139.06 -101.71 -594.23999
-138.37 -101.6 -593.59998
-137.74001 -101.54 -593.27002
-137.05 -101.42 -592.60999
-136.42 -101.36 -592.26001
-135.75 -101.27 -591.70001
-135.09 -101.18 -591.21002
-134.42999 -101.09 -590.66998
-133.8 -101.02 -590.28003
-133.14999 -100.94 -589.83002
-132.50999 -100.86 -589.35999
-131.87 -100.79 -588.92999
-131.22 -100.71 -588.46002
-130.57001 -100.62 -587.96002
-129.92 -100.54 -587.47998
-129.25999 -100.44 -586.94
-128.62 -100.36 -586.46002
-127.96 -100.26 -585.89001
-127.32 -100.18 -585.41998
-126.65 -100.08 -584.84003
-126.04 -100.02 -584.47998
-125.41 -99.940002 -584.07001
-124.79 -99.870003 -583.65002
-124.19 -99.82 -583.34003
-123.56 -99.75 -582.91998
-122.95 -99.68 -582.53998
-122.36 -99.639999 -582.28998
-121.76 -99.580002 -581.98999
-121.19 -99.559998 -581.84003
-120.62 -99.529999 -581.65002
-120.07 -99.510002 -581.53998
-119.52 -99.489998 -581.45001
-118.98 -99.489998 -581.41998
-118.44 -99.480003 -581.38
-117.89 -99.470001 -581.33002
-117.35 -99.470001 -581.31
-116.82 -99.470001 -581.32001
-116.28 -99.459999 -581.28003
-115.75 -99.459999 -581.25
-115.23 -99.470001 -581.33002
-114.71 -99.480003 -581.40002
-114.21 -99.510002 -581.56
-113.67 -99.5 -581.52002
-113.16 -99.529999 -581.64001
-112.66 -99.550003 -581.78003
-112.14 -99.559998 -581.84998
-111.63 -99.589996 -581.98999
-111.14 -99.629997 -582.21002
-110.63 -99.639999 -582.32001
-110.13 -99.68 -582.5
-109.61 -99.690002 -582.58002
-109.11 -99.720001 -582.73999
-108.59 -99.730003 -582.82001
-108.09 -99.769997 -583.03998
-107.57 -99.779999 -583.09003
-107.07 -99.809998 -583.26001
-106.58 -99.860001 -583.53003
-106.12 -99.93 -583.95001
-105.66 -100 -584.34998
-105.2 -100.06 -584.72998
-104.72 -100.12 -585.06
-104.24 -100.18 -585.39001
-103.79 -100.26 -585.84003
-103.34 -100.34 -586.34003
-102.9 -100.44 -586.88
-102.47 -100.54 -587.48999
-102.02 -100.64 -588.02002
-101.61 -100.76 -588.71997
-101.16 -100.84 -589.21997
-100.68 -100.9 -589.57001
-100.23 -101 -590.13
-99.860001 -101.17 -591.12
-99.550003 -101.41 -592.46997
-99.160004 -101.57 -593.38
-98.709999 -101.66 -593.92999
-98.269997 -101.77 -594.56
-97.809998 -101.86 -595.07001
-97.480003 -102.09 -596.38
-97.18 -102.35 -597.88
-96.860001 -102.58 -599.23999
-105.99 -112.9 -658.57001
-78.82 -112.96 -658.96002
-78.209999 -112.95 -658.90002
-77.620003 -112.97 -659.04999
-77.029999 -112.99 -659.12
-76.379997 -112.93 -658.81
-75.769997 -112.92 -658.77002
-75.190002 -112.96 -658.95001
-74.57 -112.94 -658.84003
-73.949997 -112.91 -658.69
-73.349998 -112.91 -658.70001
-72.769997 -112.95 -658.91998
-72.120003 -112.89 -658.56
-71.480003 -112.83 -658.23999
-70.889999 -112.85 -658.32001
-70.300003 -112.88 -658.53003
-69.610001 -112.74 -657.71002
-69 -112.73 -657.65002
-68.410004 -112.75 -657.76001
-67.760002 -112.67 -657.34003
-67.160004 -112.68 -657.40002
-66.589996 -112.74 -657.70001
-65.980003 -112.72 -657.62
-65.349998 -112.68 -657.37
-64.779999 -112.73 -657.66998
-64.169998 -112.73 -657.66998
-63.580002 -112.75 -657.79999
-63 -112.8 -658.04999
-62.389999 -112.79 -658.01001
-61.799999 -112.81 -658.13
-61.23 -112.87 -658.46997
-60.669998 -112.96 -659.01001
-59.470001 -112.98 -659.09003
-146.19 -103.05 -598.84003
-145.58 -103.01 -598.62
-144.82001 -102.86 -597.73999
-144.22 -102.82 -597.51001
-143.5 -102.7 -596.81
-142.85001 -102.63 -596.40002
-142.11 -102.49 -595.60999
-141.47 -102.41 -595.19
-140.8 -102.33 -594.69
-140.19 -102.28 -594.40002
-139.5 -102.17 -593.78003
-138.87 -102.11 -593.40997
-138.21001 -102.03 -592.96002
-137.53 -101.92 -592.34998
-136.92 -101.88 -592.09003
-136.25999 -101.79 -591.57001
-135.60001 -101.7 -591.08002
-134.97 -101.63 -590.66998
-134.32001 -101.55 -590.21002
-133.67 -101.46 -589.71002
-133.03 -101.39 -589.29999
-132.39999 -101.32 -588.88
-131.75 -101.23 -588.40002
-131.11 -101.16 -587.95001
-130.45 -101.06 -587.41998
-129.8 -100.98 -586.94
-129.14 -100.88 -586.38
-128.49001 -100.8 -585.90002
-127.84 -100.71 -585.37
-127.2 -100.62 -584.88
-126.56 -100.54 -584.42999
-125.94 -100.47 -584.03998
-125.32 -100.4 -583.63
-124.7 -100.34 -583.25
-124.08 -100.27 -582.84998
-123.47 -100.21 -582.5
-122.89 -100.17 -582.31
-122.31 -100.13 -582.06
-121.71 -100.08 -581.77002
-121.15 -100.06 -581.64001
-120.58 -100.02 -581.44
-120.03 -100.01 -581.38
-119.47 -99.989998 -581.23999
-118.94 -99.989998 -581.22998
-118.39 -99.980003 -581.16998
-117.87 -99.980003 -581.20001
-117.33 -99.980003 -581.16998
-116.78 -99.970001 -581.12
-116.25 -99.959999 -581.09998
-115.73 -99.980003 -581.16998
-115.19 -99.970001 -581.15002
-114.67 -99.980003 -581.21002
-114.17 -100.01 -581.35999
-113.66 -100.03 -581.46997
-113.16 -100.06 -581.65002
-112.64 -100.07 -581.70001
-112.15 -100.11 -581.92999
-111.64 -100.13 -582.02002
-111.12 -100.15 -582.14001
-110.61 -100.16 -582.23999
-110.12 -100.21 -582.46997
-109.61 -100.22 -582.58002
-109.1 -100.25 -582.71002
-108.58 -100.26 -582.81
-108.09 -100.3 -583.02002
-107.59 -100.33 -583.19
-107.09 -100.36 -583.38
-106.6 -100.4 -583.60999
-106.13 -100.47 -583.96997
-105.66 -100.53 -584.33002
-105.18 -100.59 -584.65002
-104.69 -100.63 -584.89001
-104.23 -100.7 -585.33002
-103.77 -100.78 -585.76001
-103.32 -100.87 -586.25
-102.88 -100.96 -586.78003
-102.44 -101.05 -587.32001
-102 -101.15 -587.87
-101.57 -101.26 -588.51001
-101.11 -101.34 -588.97998
-100.65 -101.42 -589.44
-100.19 -101.5 -589.87
-99.830002 -101.68 -590.91998
-99.5 -101.9 -592.17999
-99.110001 -102.06 -593.09003
-98.660004 -102.16 -593.64001
-98.230003 -102.27 -594.28998
-97.779999 -102.37 -594.85999
-97.43 -102.58 -596.09003
-97.110001 -102.82 -597.44
-96.760002 -103.03 -598.64001
-96.459999 -103.3 -600.16998
-105.42 -113.53 -658.76001
-104.87 -113.6 -659.09998
-73.379997 -113.57 -659.02002
-72.160004 -113.56 -658.94
-71.519997 -113.5 -658.62
-70.93 -113.53 -658.75
-70.339996 -113.55 -658.87
-69.730003 -113.53 -658.79999
-69.07 -113.44 -658.26001
-68.470001 -113.45 -658.34003
-67.849998 -113.43 -658.19
-67.220001 -113.39 -657.97998
-66.650002 -113.43 -658.22998
-66.059998 -113.47 -658.46002
-65.419998 -113.41 -658.10999
-64.839996 -113.44 -658.28003
-64.279999 -113.53 -658.77002
-63.66 -113.49 -658.56
-63.060001 -113.51 -658.66998
-62.450001 -113.5 -658.64001
-147.96001 -103.69 -599.37
-147.25 -103.57 -598.70001
-146.64 -103.53 -598.46002
-145.89 -103.39 -597.65002
-145.3 -103.36 -597.46997
-144.60001 -103.25 -596.87
-143.92 -103.15 -596.31
-143.25 -103.06 -595.78998
-142.52 -102.93 -595.04999
-141.89999 -102.88 -594.73999
-141.25 -102.8 -594.28998
-140.60001 -102.72 -593.84003
-139.96001 -102.66 -593.46997
-139.33 -102.59 -593.09003
-138.69 -102.52 -592.65997
-138.00999 -102.42 -592.12
-137.42 -102.38 -591.89001
-136.73 -102.27 -591.25
-136.09 -102.2 -590.85999
-135.47 -102.14 -590.48999
-134.81 -102.05 -589.98999
-134.17999 -101.98 -589.60999
-133.53 -101.9 -589.10999
-132.87 -101.81 -588.60999
-132.25999 -101.75 -588.29999
-131.59 -101.65 -587.71997
-130.96001 -101.58 -587.31
-130.31 -101.5 -586.82001
-129.64999 -101.4 -586.27002
-129 -101.31 -585.75
-128.35001 -101.22 -585.23999
-127.71 -101.14 -584.79999
-127.07 -101.05 -584.29999
-126.45 -100.99 -583.90997
-125.82 -100.91 -583.48999
-125.2 -100.85 -583.10999
-124.61 -100.8 -582.83002
-123.98 -100.72 -582.40002
-123.4 -100.68 -582.16998
-122.81 -100.64 -581.91998
-122.24 -100.61 -581.73999
-121.66 -100.57 -581.52002
-121.1 -100.55 -581.40002
-120.53 -100.52 -581.22998
-119.99 -100.51 -581.16998
-119.45 -100.5 -581.14001
-118.91 -100.49 -581.08002
-118.36 -100.48 -581.03003
-117.83 -100.49 -581.03998
-117.29 -100.47 -580.96997
-116.74 -100.46 -580.90997
-116.21 -100.46 -580.90002
-115.69 -100.48 -580.97998
-115.18 -100.49 -581.09003
-114.66 -100.5 -581.15002
-114.14 -100.52 -581.23999
-113.63 -100.54 -581.32001
-113.12 -100.56 -581.45001
-112.61 -100.58 -581.57001
-112.11 -100.61 -581.73999
-111.59 -100.62 -581.81
-111.11 -100.67 -582.07001
-110.61 -100.69 -582.21997
-110.1 -100.72 -582.37
-109.58 -100.73 -582.41998
-109.08 -100.76 -582.59998
-108.59 -100.8 -582.83002
-108.07 -100.82 -582.94
-107.57 -100.85 -583.10999
-107.08 -100.9 -583.35999
-106.6 -100.94 -583.63
-106.12 -100.99 -583.90002
-105.63 -101.04 -584.15997
-105.16 -101.1 -584.51001
-104.68 -101.15 -584.81
-104.21 -101.22 -585.19
-103.76 -101.3 -585.66998
-103.29 -101.37 -586.08002
-102.84 -101.45 -586.53998
-102.41 -101.56 -587.15002
-101.97 -101.66 -587.70001
-101.54 -101.77 -588.34003
-101.07 -101.84 -588.75
-100.62 -101.93 -589.26001
-100.18 -102.03 -589.82001
-99.82 -102.21 -590.85999
-99.459999 -102.4 -591.91998
-99.050003 -102.54 -592.71002
-98.620003 -102.66 -593.41998
-98.190002 -102.78 -594.08002
-97.75 -102.89 -594.70001
-97.389999 -103.08 -595.79999
-97.050003 -103.3 -597.04999
-96.699997 -103.52 -598.28998
-96.339996 -103.72 -599.42999
-105.35 -114.07 -658.34998
-104.82 -114.15 -658.82001
-68.519997 -114.13 -658.78003
-148.31 -104.09 -598.54999
-147.73 -104.08 -598.45001
-147.02 -103.96 -597.78998
-146.36 -103.88 -597.33002
-145.67 -103.78 -596.76001
-145.03 -103.71 -596.35999
-144.36 -103.62 -595.85999
-143.67999 -103.53 -595.32001
-143.03 -103.45 -594.90997
-142.34 -103.35 -594.28998
-141.71001 -103.28 -593.92999
-141.03999 -103.19 -593.40997
-140.42999 -103.14 -593.14001
-139.78999 -103.07 -592.73999
-139.12 -102.98 -592.21997
-138.5 -102.92 -591.88
-137.87 -102.86 -591.5
-137.2 -102.76 -590.97998
-136.59 -102.71 -590.65002
-135.96001 -102.64 -590.27002
-135.27 -102.53 -589.66998
-134.67 -102.48 -589.39001
-133.99001 -102.38 -588.79999
-133.36 -102.31 -588.39001
-132.74001 -102.25 -588.04999
-132.07001 -102.15 -587.46997
-131.44 -102.08 -587.07001
-130.8 -102 -586.60999
-130.13 -101.89 -586.01001
-129.52 -101.83 -585.67999
-128.82001 -101.71 -584.96997
-128.22 -101.65 -584.66998
-127.56 -101.55 -584.09998
-126.94 -101.49 -583.71997
-126.31 -101.41 -583.29999
-125.71 -101.36 -582.97998
-125.1 -101.3 -582.65002
-124.5 -101.24 -582.34003
-123.89 -101.18 -581.98999
-123.32 -101.15 -581.82001
-122.75 -101.12 -581.62
-122.17 -101.08 -581.41998
-121.6 -101.05 -581.25
-121.04 -101.03 -581.10999
-120.49 -101.01 -581.02002
-119.95 -101.01 -580.96997
-119.4 -100.99 -580.89001
-118.87 -100.99 -580.90002
-118.32 -100.98 -580.83002
-117.79 -100.98 -580.83002
-117.24 -100.96 -580.72998
-116.71 -100.97 -580.75
-116.17 -100.96 -580.70001
-115.65 -100.97 -580.78998
-115.15 -101 -580.94
-114.65 -101.03 -581.09003
-114.14 -101.04 -581.19
-113.63 -101.07 -581.31
-113.1 -101.07 -581.34998
-112.61 -101.11 -581.56
-112.1 -101.13 -581.67999
-111.59 -101.15 -581.81
-111.1 -101.19 -582
-110.59 -101.21 -582.14001
-110.08 -101.24 -582.27002
-109.58 -101.26 -582.40997
-109.06 -101.28 -582.52002
-108.56 -101.31 -582.70001
-108.08 -101.36 -582.98999
-107.58 -101.39 -583.15002
-107.09 -101.43 -583.38
-106.58 -101.46 -583.54999
-106.11 -101.52 -583.84998
-105.62 -101.56 -584.10999
-105.14 -101.62 -584.44
-104.67 -101.68 -584.77002
-104.2 -101.75 -585.16998
-103.74 -101.82 -585.57001
-103.27 -101.89 -585.96997
-102.83 -101.98 -586.46997
-102.38 -102.07 -587
-101.94 -102.16 -587.51001
-101.51 -102.28 -588.15002
-101.07 -102.37 -588.71002
-100.61 -102.46 -589.19
-100.16 -102.55 -589.70001
-99.779999 -102.71 -590.62
-99.410004 -102.89 -591.64001
-98.989998 -103.02 -592.39001
-98.589996 -103.17 -593.22998
-98.139999 -103.27 -593.81
-97.720001 -103.41 -594.54999
-97.379997 -103.61 -595.72998
-97 -103.8 -596.78998
-96.660004 -104.02 -598.03003
-96.309998 -104.24 -599.26001
-105.33 -114.65 -658.21997
-149.37 -104.62 -598.40997
-148.75999 -104.57 -598.17999
-148.10001 -104.5 -597.72998
-147.42 -104.4 -597.19
-146.78999 -104.35 -596.88
-146.07001 -104.22 -596.19
-145.44 -104.16 -595.82001
-144.78999 -104.09 -595.40997
-144.09 -103.97 -594.77002
-143.42999 -103.89 -594.32001
-142.75999 -103.8 -593.79999
-142.09 -103.71 -593.28998
-141.48 -103.66 -592.97998
-140.87 -103.61 -592.70001
-140.2 -103.52 -592.16998
-139.58 -103.46 -591.84998
-138.95 -103.4 -591.5
-138.28999 -103.31 -590.98999
-137.67 -103.25 -590.65997
-137.05 -103.19 -590.34998
-136.39 -103.1 -589.84003
-135.77 -103.04 -589.47998
-135.14 -102.97 -589.09998
-134.46001 -102.87 -588.48999
-133.82001 -102.79 -588.04999
-133.19 -102.71 -587.63
-132.52 -102.62 -587.09003
-131.89 -102.55 -586.67999
-131.25 -102.47 -586.23999
-130.62 -102.39 -585.82001
-129.99001 -102.32 -585.38
-129.33 -102.22 -584.84998
-128.71001 -102.16 -584.47998
-128.05 -102.06 -583.92999
-127.42 -101.98 -583.46997
-126.82 -101.93 -583.17999
-126.2 -101.85 -582.77002
-125.61 -101.81 -582.51001
-125 -101.75 -582.17999
-124.4 -101.69 -581.85999
-123.82 -101.66 -581.65002
-123.24 -101.62 -581.42999
-122.67 -101.59 -581.25
-122.11 -101.57 -581.14001
-121.53 -101.53 -580.90997
-120.98 -101.51 -580.81
-120.43 -101.49 -580.71997
-119.88 -101.48 -580.65997
-119.34 -101.48 -580.62
-118.81 -101.47 -580.60999
-118.27 -101.47 -580.59998
-117.74 -101.47 -580.58002
-117.2 -101.46 -580.54999
-116.67 -101.47 -580.57001
-116.14 -101.47 -580.59003
-115.64 -101.49 -580.71002
-115.11 -101.5 -580.75
-114.59 -101.51 -580.79999
-114.09 -101.54 -580.96997
-113.58 -101.56 -581.08002
-113.08 -101.58 -581.21997
-112.57 -101.61 -581.38
-112.07 -101.64 -581.53003
-111.57 -101.67 -581.69
-111.07 -101.69 -581.84003
-110.56 -101.72 -581.96997
-110.06 -101.75 -582.15997
-109.55 -101.77 -582.26001
-109.04 -101.79 -582.38
-108.54 -101.82 -582.54999
-108.06 -101.88 -582.85999
-107.55 -101.9 -583.02002
-107.08 -101.96 -583.33002
-106.57 -101.99 -583.47998
-106.07 -102.01 -583.64001
-105.6 -102.08 -584.01001
-105.12 -102.13 -584.32001
-104.65 -102.2 -584.66998
-104.17 -102.25 -584.98999
-103.7 -102.32 -585.37
-103.27 -102.42 -585.92999
-102.8 -102.49 -586.34003
-102.35 -102.58 -586.84003
-101.91 -102.67 -587.34998
-101.48 -102.78 -587.96002
-101.03 -102.88 -588.48999
-100.59 -102.98 -589.09003
-100.16 -103.09 -589.71002
-99.769997 -103.24 -590.56
-99.370003 -103.4 -591.42999
-98.949997 -103.52 -592.14001
-98.529999 -103.66 -592.88
-98.110001 -103.79 -593.63
-97.709999 -103.94 -594.48999
-97.349998 -104.13 -595.56
-97 -104.34 -596.73999
-96.650002 -104.56 -597.97998
-96.300003 -104.78 -599.20001
-151.2 -105.3 -599.15997
-150.44 -105.15 -598.33002
-149.85001 -105.12 -598.17999
-149.16 -105.02 -597.59003
-148.49001 -104.93 -597.09998
-147.83 -104.85 -596.65997
-147.19 -104.79 -596.31
-146.53 -104.71 -595.83002
-145.85001 -104.61 -595.31
-145.17999 -104.52 -594.77002
-144.53999 -104.45 -594.39001
-143.84 -104.34 -593.78003
-143.19 -104.26 -593.34003
-142.53999 -104.18 -592.89001
-141.92999 -104.14 -592.63
-141.25999 -104.05 -592.10999
-140.64 -103.98 -591.75
-140.03 -103.94 -591.48999
-139.39 -103.86 -591.07001
-138.74001 -103.78 -590.60999
-138.13 -103.73 -590.31
-137.49001 -103.66 -589.91998
-136.84 -103.57 -589.42999
-136.22 -103.52 -589.12
-135.59 -103.44 -588.70001
-134.91 -103.34 -588.13
-134.28999 -103.27 -587.75
-133.61 -103.17 -587.15997
-132.99001 -103.1 -586.76001
-132.34 -103.02 -586.29999
-131.71001 -102.94 -585.87
-131.08 -102.87 -585.48999
-130.44 -102.79 -585.03003
-129.8 -102.7 -584.53003
-129.2 -102.65 -584.26001
-128.56 -102.57 -583.78998
-127.92 -102.49 -583.33002
-127.31 -102.42 -582.96002
-126.7 -102.36 -582.64001
-126.1 -102.31 -582.34998
-125.5 -102.25 -582.02002
-124.91 -102.21 -581.76001
-124.33 -102.17 -581.56
-123.74 -102.13 -581.29999
-123.19 -102.11 -581.20001
-122.61 -102.07 -581
-122.03 -102.03 -580.78003
-121.48 -102.01 -580.65997
-120.93 -102 -580.59003
-120.38 -101.98 -580.48999
-119.84 -101.97 -580.44
-119.3 -101.97 -580.42999
-118.76 -101.97 -580.39001
-118.22 -101.96 -580.35999
-117.68 -101.95 -580.31
-117.16 -101.96 -580.35999
-116.63 -101.96 -580.37
-116.1 -101.96 -580.37
-115.59 -101.99 -580.5
-115.07 -101.99 -580.53998
-114.57 -102.03 -580.71997
-114.06 -102.04 -580.81
-113.56 -102.07 -580.96997
-113.05 -102.09 -581.07001
-112.55 -102.12 -581.23999
-112.04 -102.15 -581.38
-111.54 -102.17 -581.52002
-111.03 -102.19 -581.64001
-110.53 -102.22 -581.82001
-110.03 -102.26 -582
-109.53 -102.28 -582.15997
-109.02 -102.31 -582.31
-108.52 -102.34 -582.46997
-108.03 -102.38 -582.69
-107.54 -102.43 -582.96002
-107.05 -102.46 -583.15997
-106.56 -102.51 -583.42999
-106.07 -102.55 -583.64001
-105.58 -102.6 -583.90002
-105.11 -102.66 -584.28003
-104.63 -102.71 -584.54999
-104.18 -102.8 -585.03003
-103.7 -102.85 -585.34003
-103.23 -102.92 -585.73999
-102.79 -103.02 -586.26001
-102.34 -103.11 -586.77002
-101.87 -103.18 -587.15997
-101.43 -103.28 -587.71002
-100.99 -103.38 -588.28998
-100.57 -103.5 -588.95001
-100.14 -103.61 -589.57001
-99.739998 -103.75 -590.38
-99.309998 -103.87 -591.04999
-98.910004 -104.02 -591.90002
-98.489998 -104.15 -592.59998
-98.089996 -104.31 -593.5
-97.690002 -104.46 -594.34998
-97.330002 -104.66 -595.46002
-96.970001 -104.86 -596.57001
-96.639999 -105.1 -597.92999
-96.279999 -105.3 -599.04999
-151.55 -105.71 -598.39001
-150.89999 -105.63 -597.96997
-150.23 -105.55 -597.51001
-149.57001 -105.47 -597.06
-148.91 -105.39 -596.63
-148.25 -105.31 -596.15997
-147.58 -105.23 -595.69
-146.92999 -105.15 -595.25
-146.25 -105.05 -594.71002
-145.63 -104.99 -594.39001
-144.92999 -104.89 -593.78998
-144.28 -104.81 -593.34998
-143.62 -104.73 -592.89001
-142.99001 -104.66 -592.52002
-142.33 -104.57 -592.03998
-141.7 -104.51 -591.69
-141.09 -104.46 -591.39001
-140.47 -104.4 -591.06
-139.81 -104.31 -590.57001
-139.19 -104.26 -590.26001
-138.58 -104.2 -589.94
-137.92 -104.12 -589.46002
-137.27 -104.03 -589
-136.66 -103.98 -588.69
-136.00999 -103.89 -588.19
-135.39 -103.83 -587.84998
-134.73 -103.73 -587.32001
-134.09 -103.66 -586.90002
-133.42999 -103.56 -586.38
-132.78 -103.47 -585.85999
-132.14999 -103.4 -585.46002
-131.52 -103.33 -585.07001
-130.88 -103.25 -584.59998
-130.28 -103.2 -584.31
-129.64 -103.11 -583.84998
-129.03999 -103.06 -583.56
-128.42 -102.99 -583.15997
-127.8 -102.93 -582.79999
-127.2 -102.87 -582.46002
-126.61 -102.82 -582.21002
-125.98 -102.75 -581.81
-125.4 -102.71 -581.59003
-124.82 -102.67 -581.37
-124.25 -102.64 -581.19
-123.68 -102.61 -581
-123.11 -102.58 -580.84003
-122.56 -102.56 -580.72998
-121.97 -102.51 -580.46997
-121.4 -102.48 -580.32001
-120.86 -102.48 -580.27002
-120.32 -102.47 -580.21002
-119.78 -102.46 -580.16998
-119.26 -102.47 -580.21002
-118.71 -102.45 -580.15002
-118.16 -102.44 -580.06
-117.64 -102.45 -580.10999
-117.1 -102.44 -580.07001
-116.6 -102.47 -580.20001
-116.07 -102.47 -580.23999
-115.57 -102.5 -580.37
-115.05 -102.51 -580.46002
-114.53 -102.52 -580.52002
-114.03 -102.55 -580.67999
-113.53 -102.58 -580.84003
-113.02 -102.6 -580.96002
-112.53 -102.63 -581.13
-112.02 -102.65 -581.25
-111.51 -102.68 -581.37
-111.01 -102.71 -581.56
-110.51 -102.74 -581.72998
-110 -102.76 -581.83002
-109.49 -102.78 -581.97998
-108.99 -102.81 -582.14001
-108.49 -102.85 -582.34003
-108.02 -102.91 -582.65002
-107.53 -102.95 -582.89001
-107.05 -103 -583.15002
-106.55 -103.04 -583.37
-106.06 -103.08 -583.59998
-105.56 -103.11 -583.79999
-105.08 -103.17 -584.09998
-104.61 -103.23 -584.45001
-104.14 -103.3 -584.83002
-103.67 -103.36 -585.19
-103.22 -103.44 -585.65002
-102.75 -103.51 -586.03003
-102.29 -103.6 -586.48999
-101.83 -103.67 -586.90997
-101.4 -103.78 -587.52002
-100.97 -103.9 -588.16998
-100.54 -104.01 -588.78003
-100.11 -104.12 -589.41998
-99.709999 -104.26 -590.21997
-99.290001 -104.39 -590.94
-98.879997 -104.54 -591.72998
-98.470001 -104.67 -592.47998
-98.059998 -104.82 -593.28998
-97.650002 -104.97 -594.13
-97.309998 -105.18 -595.31
-96.959999 -105.39 -596.5
-96.650002 -105.65 -597.96002
-96.290001 -105.86 -599.14001
-152.64999 -106.26 -598.41998
-151.99001 -106.18 -597.98999
-151.32001 -106.09 -597.51001
-150.66 -106.02 -597.07001
-149.97 -105.91 -596.5
-149.31 -105.83 -596.06
-148.64 -105.74 -595.54999
-147.98 -105.67 -595.12
-147.34 -105.59 -594.70001
-146.64999 -105.49 -594.15002
-146.02 -105.43 -593.78003
-145.37 -105.35 -593.34998
-144.7 -105.26 -592.85999
-144.08 -105.2 -592.52002
-143.42999 -105.13 -592.09003
-142.75999 -105.03 -591.59003
-142.14999 -104.98 -591.28998
-141.53 -104.92 -590.96002
-140.85001 -104.82 -590.40997
-140.25 -104.78 -590.16998
-139.64 -104.73 -589.88
-138.99001 -104.65 -589.41998
-138.35001 -104.57 -588.98999
-137.72 -104.5 -588.60999
-137.08 -104.42 -588.15997
-136.44 -104.35 -587.73999
-135.82001 -104.29 -587.40002
-135.17 -104.2 -586.92999
-134.55 -104.13 -586.53998
-133.91 -104.06 -586.12
-133.23 -103.94 -585.5
-132.62 -103.89 -585.20001
-131.99001 -103.81 -584.75
-131.36 -103.74 -584.37
-130.74001 -103.67 -583.97998
-130.13 -103.62 -583.66998
-129.52 -103.55 -583.31
-128.92 -103.5 -583
-128.3 -103.43 -582.64001
-127.71 -103.38 -582.37
-127.11 -103.33 -582.07001
-126.51 -103.27 -581.77002
-125.9 -103.21 -581.40997
-125.33 -103.18 -581.23999
-124.74 -103.14 -581.01001
-124.17 -103.11 -580.83002
-123.61 -103.08 -580.69
-123.06 -103.07 -580.60999
-122.49 -103.03 -580.42999
-121.91 -102.99 -580.19
-121.36 -102.97 -580.09003
-120.81 -102.96 -580.03003
-120.28 -102.96 -580.01001
-119.73 -102.95 -579.95001
-119.2 -102.95 -579.92999
-118.67 -102.95 -579.94
-118.14 -102.95 -579.94
-117.61 -102.96 -579.97998
-117.09 -102.96 -580
-116.57 -102.97 -580.07001
-116.04 -102.98 -580.10999
-115.53 -102.99 -580.19
-115.02 -103.01 -580.28998
-114.51 -103.03 -580.40002
-114.01 -103.06 -580.56
-113.5 -103.09 -580.69
-113 -103.11 -580.84003
-112.5 -103.14 -580.98999
-112 -103.17 -581.17999
-111.49 -103.19 -581.28003
-110.99 -103.22 -581.44
-110.49 -103.25 -581.59003
-109.98 -103.28 -581.76001
-109.47 -103.3 -581.88
-108.99 -103.35 -582.14001
-108.5 -103.39 -582.34998
-108 -103.42 -582.53003
-107.51 -103.46 -582.76001
-107.01 -103.5 -582.96002
-106.51 -103.53 -583.16998
-106.04 -103.59 -583.48999
-105.56 -103.64 -583.78003
-105.08 -103.7 -584.09998
-104.59 -103.75 -584.35999
-104.12 -103.81 -584.67999
-103.65 -103.88 -585.09998
-103.18 -103.94 -585.44
-102.72 -104.02 -585.85999
-102.27 -104.11 -586.34003
-101.82 -104.2 -586.84003
-101.37 -104.29 -587.38
-100.94 -104.4 -587.96002
-100.5 -104.5 -588.54999
-100.07 -104.62 -589.19
-99.660004 -104.75 -589.92999
-99.230003 -104.87 -590.59998
-98.839996 -105.04 -591.5
