# .PCD v0.7 - Point Cloud Data file format
VERSION 0.7
FIELDS x y z
SIZE 4 4 4
TYPE F F F
COUNT 1 1 1
WIDTH 1590
HEIGHT 1
VIEWPOINT 0 0 0 1 0 0 0
POINTS 1590
DATA ascii
-57.98 -3.3699999 -549.51001
-57.5 -3.3800001 -549.79999
-57.029999 -3.3800001 -550.03998
-56.560001 -3.3800001 -550.45001
-56.099998 -3.3800001 -550.78998
-55.619999 -3.3800001 -551.09998
-55.150002 -3.3900001 -551.40997
-54.68 -3.3900001 -551.76001
-54.209999 -3.3900001 -552.07001
-53.740002 -3.3900001 -552.44
-53.27 -3.3900001 -552.84003
-52.82 -3.4000001 -553.37
-52.349998 -3.4000001 -553.82001
-51.900002 -3.4000001 -554.39001
-51.43 -3.4100001 -554.84003
-50.990002 -3.4100001 -555.51001
-50.540001 -3.4100001 -556.16998
-50.119999 -3.4200001 -557.09003
-49.669998 -3.4300001 -557.79999
-49.240002 -3.4300001 -558.66998
-48.790001 -3.4300001 -559.34998
-48.360001 -3.4400001 -560.28998
-47.919998 -3.45 -561.16998
-47.470001 -3.45 -561.94
-47.02 -3.46 -562.70001
-46.630001 -3.46 -564.15997
-51.700001 -3.8800001 -631.46997
-51.189999 -3.8900001 -632.28003
-50.669998 -3.8900001 -633.01001
-50.169998 -3.9000001 -633.95001
-49.630001 -3.9000001 -634.56
-49.110001 -3.9100001 -635.35999
-48.580002 -3.9100001 -635.97998
-48.040001 -3.9200001 -636.53998
-47.5 -3.9200001 -637.19
-46.959999 -3.9200001 -637.69
-46.41 -3.9300001 -638.26001
-45.91 -3.9300001 -639.34003
-45.43 -3.9400001 -640.94
-44.959999 -3.95 -642.53003
-44.490002 -3.96 -644.19
-44 -3.97 -645.71002
-43.48 -3.98 -646.78998
-43.009998 -3.99 -648.60999
-42.57 -4.0100002 -651.02002
-42.060001 -4.0100002 -652.33002
-41.52 -4.02 -653.14001
-40.950001 -4.02 -653.65997
-40.380001 -4.0300002 -654.21002
-39.82 -4.0300002 -654.72998
-39.240002 -4.0300002 -655.20001
-38.669998 -4.04 -655.63
-38.110001 -4.04 -656.33002
-37.540001 -4.04 -656.90002
-36.970001 -4.0500002 -657.51001
-36.43 -4.0500002 -658.58002
-35.869999 -4.0599999 -659.48999
-35.299999 -4.0599999 -660.15997
-34.720001 -4.0700002 -660.59003
-34.139999 -4.0700002 -661.01001
-33.540001 -4.0700002 -661.12
-32.93 -4.0700002 -661.21002
-32.330002 -4.0700002 -661.21002
-31.719999 -4.0700002 -661.21997
-31.120001 -4.0700002 -661.26001
-30.52 -4.0700002 -661.37
-29.9 -4.0700002 -661.21002
-29.299999 -4.0700002 -661.28998
-28.690001 -4.0700002 -661.34998
-28.09 -4.0700002 -661.32001
-27.48 -4.0700002 -661.28998
-26.870001 -4.0700002 -661.31
-26.26 -4.0700002 -661.28003
-25.66 -4.0700002 -661.32001
-25.049999 -4.0700002 -661.32001
-24.450001 -4.0700002 -661.46002
-23.84 -4.0700002 -661.46997
-23.23 -4.0700002 -661.34003
-22.629999 -4.0700002 -661.45001
-22.02 -4.0700002 -661.53998
-21.42 -4.0700002 -661.57001
-20.809999 -4.0700002 -661.63
-20.209999 -4.0700002 -661.76001
-19.6 -4.0700002 -661.73999
-19 -4.0700002 -661.90997
-18.389999 -4.0700002 -661.96997
-17.790001 -4.0799999 -662.21997
-17.190001 -4.0799999 -662.45001
-16.59 -4.0799999 -662.66998
-15.99 -4.0799999 -662.96997
-15.38 -4.0799999 -663.08002
-14.78 -4.0799999 -663.17999
-14.17 -4.0799999 -663.19
-13.56 -4.0799999 -663.13
-12.95 -4.0799999 -663.10999
-12.34 -4.0799999 -663.13
-11.73 -4.0799999 -663.09998
-11.13 -4.0799999 -663.12
-10.52 -4.0799999 -663.14001
-9.9099998 -4.0799999 -663.14001
-9.3000002 -4.0799999 -663.22998
-8.6899996 -4.0799999 -663.29999
-8.0900002 -4.0799999 -663.41998
-7.48 -4.0799999 -663.54999
-6.8699999 -4.0900002 -663.85999
-6.27 -4.0900002 -663.94
-5.6599998 -4.0900002 -664.26001
-5.0500002 -4.0900002 -664.72998
-4.4499998 -4.0999999 -665.31
-3.8399999 -4.0999999 -665.88
-3.23 -4.0999999 -666.48999
-2.6199999 -4.1100001 -667.27002
-2.01 -4.1100001 -667.81
-1.4 -4.1100001 -668.41998
-0.79000002 -4.1199999 -668.98999
-0.17 -4.1199999 -669.46997
0.44 -4.1199999 -669.78003
1.05 -4.1300001 -670.17999
1.67 -4.1300001 -670.78003
22.91 -4.0700002 -661.90997
23.5 -4.0700002 -661.53003
24.09 -4.0700002 -661.03998
24.68 -4.0700002 -660.65002
25.280001 -4.0599999 -660.35999
25.879999 -4.0599999 -660.25
26.48 -4.0599999 -660.25
27.1 -4.0700002 -660.47998
27.700001 -4.0700002 -660.5
28.32 -4.0700002 -660.79999
28.950001 -4.0700002 -661.19
29.57 -4.0700002 -661.5
30.190001 -4.0700002 -661.87
30.809999 -4.0700002 -662.01001
31.43 -4.0799999 -662.41998
32.049999 -4.0799999 -662.58002
32.66 -4.0799999 -662.63
33.279999 -4.0799999 -662.92999
33.91 -4.0799999 -663.19
34.52 -4.0799999 -663.25
35.130001 -4.0799999 -663.41998
35.740002 -4.0799999 -663.44
36.360001 -4.0799999 -663.52002
36.970001 -4.0799999 -663.57001
37.57 -4.0799999 -663.45001
38.169998 -4.0799999 -663.29999
38.779999 -4.0799999 -663.21002
39.380001 -4.0799999 -663.10999
39.98 -4.0799999 -663.02002
40.59 -4.0799999 -662.96997
41.169998 -4.0799999 -662.65002
41.779999 -4.0799999 -662.60999
42.380001 -4.0799999 -662.53003
42.990002 -4.0799999 -662.53998
43.59 -4.0799999 -662.37
44.209999 -4.0799999 -662.51001
44.790001 -4.0799999 -662.21002
96.75 -4.1399999 -672.40997
97.339996 -4.1399999 -672.21997
97.959999 -4.1399999 -672.21997
98.610001 -4.1399999 -672.46997
99.269997 -4.1399999 -672.75
-159.2 -3.8399999 -544.69
-158.67999 -3.8399999 -544.60999
-158.06 -3.8399999 -544.21002
-157.42 -3.8399999 -543.73999
-156.89 -3.8399999 -543.63
-156.41 -3.8399999 -543.65997
-155.91 -3.8399999 -543.65002
-155.46001 -3.8399999 -543.81
-154.98 -3.8399999 -543.89001
-154.53 -3.8399999 -544.06
-154.08 -3.8399999 -544.20001
-153.63 -3.8399999 -544.37
-153.19 -3.8399999 -544.59998
-152.77 -3.8399999 -544.84003
-152.31 -3.8499999 -545
-151.89 -3.8499999 -545.25
-151.46001 -3.8499999 -545.51001
-150.99001 -3.8499999 -545.60999
-150.53999 -3.8499999 -545.78998
-150.07001 -3.8499999 -545.88
-149.59 -3.8499999 -545.96997
-149.12 -3.8499999 -546.08002
-148.64999 -3.8499999 -546.17999
-148.17999 -3.8499999 -546.26001
-147.71001 -3.8599999 -546.37
-147.25 -3.8599999 -546.52002
-146.8 -3.8599999 -546.71002
-146.32001 -3.8599999 -546.78998
-145.88 -3.8599999 -547.01001
-145.42999 -3.8599999 -547.20001
-144.96001 -3.8599999 -547.32001
-144.50999 -3.8599999 -547.5
-144.05 -3.8699999 -547.66998
-143.59 -3.8699999 -547.81
-143.16 -3.8699999 -548.06
-142.73 -3.8699999 -548.35999
-142.31 -3.8699999 -548.65002
-141.92 -3.8800001 -549.08002
-141.52 -3.8800001 -549.46997
-141.2 -3.8800001 -550.17999
-140.85001 -3.8900001 -550.75
-142.82001 -3.96 -560.32001
-156.98 -4.3600001 -617.17999
-156.35001 -4.3600001 -616.91998
-155.73 -4.3600001 -616.71997
-155.17999 -4.3600001 -616.78003
-154.61 -4.3600001 -616.72998
-154.03 -4.3600001 -616.69
-153.47 -4.3600001 -616.72998
-152.94 -4.3600001 -616.84998
-152.39 -4.3600001 -616.90997
-151.99001 -4.3699999 -617.59003
-132.83 -3.8499999 -544.88
-132.09 -3.8399999 -543.90002
-131.47 -3.8299999 -543.40997
-130.91 -3.8299999 -543.14001
-130.35001 -3.8299999 -542.89001
-129.82001 -3.8299999 -542.73999
-129.27 -3.8299999 -542.53998
-128.71001 -3.8299999 -542.26001
-128.12 -3.8199999 -541.89001
-127.57 -3.8199999 -541.66998
-127.06 -3.8199999 -541.59998
-126.59 -3.8199999 -541.71997
-126.12 -3.8199999 -541.82001
-125.64 -3.8199999 -541.89001
-125.13 -3.8199999 -541.81
-124.64 -3.8199999 -541.85999
-124.13 -3.8199999 -541.77002
-123.63 -3.8199999 -541.78998
-123.12 -3.8199999 -541.71997
-122.64 -3.8199999 -541.77002
-122.14 -3.8199999 -541.77002
-121.65 -3.8199999 -541.78998
-121.17 -3.8199999 -541.87
-120.71 -3.8199999 -542.01001
-120.23 -3.8199999 -542.08002
-119.77 -3.8299999 -542.26001
-119.31 -3.8299999 -542.40997
-118.84 -3.8299999 -542.53003
-118.39 -3.8299999 -542.76001
-117.93 -3.8299999 -542.91998
-117.47 -3.8299999 -543.08002
-117.01 -3.8299999 -543.23999
-116.56 -3.8399999 -543.48999
-116.12 -3.8399999 -543.73999
-115.69 -3.8399999 -544.04999
-115.24 -3.8399999 -544.28998
-114.8 -3.8399999 -544.57001
-114.36 -3.8399999 -544.82001
-113.94 -3.8499999 -545.21997
-113.51 -3.8499999 -545.53998
-113.08 -3.8499999 -545.89001
-112.68 -3.8599999 -546.32001
-112.29 -3.8599999 -546.85999
-111.89 -3.8599999 -547.37
-111.53 -3.8699999 -548.04999
-111.17 -3.8699999 -548.71997
-110.81 -3.8800001 -549.45001
-110.46 -3.8800001 -550.15997
-90.370003 -3.8599999 -547.59003
-89.779999 -3.8599999 -547.09003
-89.220001 -3.8599999 -546.75
-88.68 -3.8599999 -546.48999
-88.129997 -3.8499999 -546.19
-87.610001 -3.8499999 -546.06
-87.07 -3.8499999 -545.84003
-86.550003 -3.8499999 -545.69
-86.019997 -3.8499999 -545.48999
-85.5 -3.8499999 -545.37
-84.970001 -3.8499999 -545.20001
-84.459999 -3.8499999 -545.09998
-83.940002 -3.8499999 -545.02002
-83.440002 -3.8399999 -544.96997
-82.93 -3.8399999 -544.90002
-82.419998 -3.8399999 -544.84003
-81.919998 -3.8399999 -544.84003
-81.419998 -3.8399999 -544.81
-80.919998 -3.8399999 -544.78998
-80.419998 -3.8399999 -544.82001
-79.919998 -3.8399999 -544.79999
-79.410004 -3.8399999 -544.73999
-78.910004 -3.8399999 -544.75
-78.419998 -3.8399999 -544.78003
-77.919998 -3.8399999 -544.81
-77.43 -3.8399999 -544.84998
-76.940002 -3.8399999 -544.90997
-76.449997 -3.8399999 -544.96002
-75.949997 -3.8399999 -544.97998
-75.459999 -3.8399999 -545.02002
-74.959999 -3.8399999 -545.03003
-74.470001 -3.8499999 -545.08002
-73.980003 -3.8499999 -545.12
-73.480003 -3.8499999 -545.17999
-72.989998 -3.8499999 -545.21997
-72.5 -3.8499999 -545.25
-72 -3.8499999 -545.28003
-71.519997 -3.8499999 -545.40997
-71.019997 -3.8499999 -545.41998
-70.529999 -3.8499999 -545.51001
-70.040001 -3.8499999 -545.53998
-69.559998 -3.8499999 -545.67999
-69.07 -3.8499999 -545.77002
-68.580002 -3.8499999 -545.83002
-68.080002 -3.8499999 -545.84998
-67.589996 -3.8499999 -545.90997
-67.089996 -3.8499999 -545.95001
-66.599998 -3.8499999 -546.04999
-66.120003 -3.8499999 -546.15997
-65.620003 -3.8499999 -546.16998
-65.139999 -3.8499999 -546.33002
-64.660004 -3.8599999 -546.52002
-64.190002 -3.8599999 -546.75
-63.709999 -3.8599999 -546.92999
-63.240002 -3.8599999 -547.17999
-62.759998 -3.8599999 -547.38
-62.279999 -3.8599999 -547.53998
-61.799999 -3.8599999 -547.71997
-61.32 -3.8699999 -547.95001
-60.84 -3.8699999 -548.16998
-60.360001 -3.8699999 -548.35999
-59.889999 -3.8699999 -548.60999
-59.41 -3.8699999 -548.85999
-58.939999 -3.8699999 -549.10999
-58.459999 -3.8800001 -549.34003
-57.990002 -3.8800001 -549.59998
-57.52 -3.8800001 -549.91998
-57.040001 -3.8800001 -550.16998
-56.580002 -3.8800001 -550.59003
-56.099998 -3.8900001 -550.84998
-55.630001 -3.8900001 -551.16998
-55.150002 -3.8900001 -551.40997
-54.68 -3.8900001 -551.77002
-54.209999 -3.8900001 -552.12
-53.75 -3.9000001 -552.53003
-53.290001 -3.9000001 -553
-52.82 -3.9000001 -553.41998
-52.360001 -3.9100001 -553.87
-51.91 -3.9100001 -554.46002
-51.439999 -3.9100001 -554.84998
-51 -3.9200001 -555.59998
-50.560001 -3.9300001 -556.34003
-50.110001 -3.9300001 -557.04999
-49.669998 -3.9400001 -557.79999
-49.240002 -3.9400001 -558.64001
-48.790001 -3.95 -559.42999
-48.360001 -3.95 -560.34003
-47.93 -3.96 -561.28998
-47.48 -3.97 -562.01001
-47.040001 -3.97 -562.94
-46.650002 -3.98 -564.34998
-51.709999 -4.46 -631.59003
-51.200001 -4.4699998 -632.40997
-50.68 -4.48 -633.10999
-50.169998 -4.48 -633.98999
-49.650002 -4.4899998 -634.76001
-49.130001 -4.4899998 -635.54999
-48.580002 -4.5 -636.04999
-48.049999 -4.5 -636.73999
-47.509998 -4.5100002 -637.27002
-46.98 -4.5100002 -637.97998
-46.459999 -4.52 -638.89001
-45.990002 -4.5300002 -640.46002
-45.509998 -4.54 -642.03003
-45.040001 -4.5500002 -643.63
-44.540001 -4.5599999 -644.98999
-44.029999 -4.5700002 -646.19
-43.509998 -4.5799999 -647.17999
-43.060001 -4.5900002 -649.37
-42.66 -4.6100001 -652.25
-42.150002 -4.6199999 -653.62
-41.59 -4.6300001 -654.31
-41.040001 -4.6300001 -655.03998
-40.459999 -4.6399999 -655.47998
-39.91 -4.6399999 -656.31
-39.349998 -4.6500001 -656.90997
-38.779999 -4.6500001 -657.52002
-38.220001 -4.6599998 -658.27002
-37.689999 -4.6599998 -659.47998
-37.119999 -4.6700001 -660.07001
-36.540001 -4.6700001 -660.63
-35.959999 -4.6799998 -660.97998
-35.360001 -4.6799998 -661.09003
-34.75 -4.6799998 -661.10999
-34.150002 -4.6799998 -661.21997
-33.540001 -4.6799998 -661.17999
-32.939999 -4.6799998 -661.26001
-32.330002 -4.6799998 -661.15002
-31.719999 -4.6799998 -661.22998
-31.120001 -4.6799998 -661.25
-30.51 -4.6799998 -661.34998
-29.9 -4.6799998 -661.28003
-29.299999 -4.6799998 -661.32001
-28.690001 -4.6799998 -661.38
-28.08 -4.6799998 -661.31
-27.48 -4.6799998 -661.35999
-26.870001 -4.6799998 -661.38
-26.27 -4.6799998 -661.34003
-25.66 -4.6799998 -661.41998
-25.049999 -4.6799998 -661.40002
-24.440001 -4.6799998 -661.32001
-23.84 -4.6799998 -661.44
-23.23 -4.6799998 -661.40997
-22.629999 -4.6799998 -661.46002
-22.02 -4.6799998 -661.48999
-21.42 -4.6799998 -661.56
-20.82 -4.6799998 -661.72998
-20.209999 -4.6799998 -661.73999
-19.610001 -4.6799998 -661.92999
-19 -4.6799998 -662.04999
-18.4 -4.6799998 -662.19
-17.799999 -4.6799998 -662.37
-17.200001 -4.6900001 -662.75
-16.6 -4.6900001 -662.89001
-15.99 -4.6900001 -662.97998
-15.38 -4.6900001 -663
-14.77 -4.6900001 -663.02002
-14.17 -4.6900001 -663.08002
-13.56 -4.6900001 -663.13
-12.95 -4.6900001 -663.09998
-12.34 -4.6900001 -663.12
-11.73 -4.6900001 -663.10999
-11.13 -4.6900001 -663.23999
-10.52 -4.6900001 -663.31
-9.9099998 -4.6900001 -663.34003
-9.3100004 -4.6900001 -663.51001
-8.6999998 -4.6900001 -663.65997
-8.1000004 -4.6999998 -664.14001
-7.4899998 -4.6999998 -664.45001
-6.8899999 -4.6999998 -665.09998
-6.2800002 -4.71 -665.5
-5.6799998 -4.71 -666.19
-5.0700002 -4.71 -666.44
-4.46 -4.7199998 -666.89001
-3.8499999 -4.7199998 -667.34998
-3.24 -4.7199998 -667.78003
-2.6300001 -4.73 -668.28003
-2.02 -4.73 -668.63
-1.4 -4.73 -668.98999
-0.79000002 -4.73 -669.31
-0.17 -4.7399998 -669.53998
0.44 -4.7399998 -669.77002
1.05 -4.7399998 -669.71002
23.540001 -4.6900001 -662.59998
24.120001 -4.6799998 -661.96002
24.709999 -4.6799998 -661.38
25.299999 -4.6799998 -661.08002
25.9 -4.6700001 -660.84003
26.5 -4.6700001 -660.75
27.110001 -4.6700001 -660.77002
27.719999 -4.6700001 -660.90002
28.33 -4.6799998 -661.03003
28.950001 -4.6799998 -661.29999
29.57 -4.6799998 -661.57001
30.190001 -4.6799998 -661.87
30.809999 -4.6799998 -662.15002
31.43 -4.6799998 -662.37
32.049999 -4.6900001 -662.63
32.669998 -4.6900001 -662.90997
33.290001 -4.6900001 -662.98999
33.900002 -4.6900001 -663.15002
34.52 -4.6900001 -663.37
35.139999 -4.6900001 -663.58002
35.75 -4.6900001 -663.48999
36.360001 -4.6900001 -663.54999
36.970001 -4.6900001 -663.53998
37.580002 -4.6900001 -663.53003
38.18 -4.6900001 -663.46997
38.790001 -4.6900001 -663.38
39.389999 -4.6900001 -663.32001
39.990002 -4.6900001 -663.19
40.59 -4.6900001 -663.06
41.189999 -4.6900001 -662.91998
41.790001 -4.6900001 -662.82001
42.400002 -4.6900001 -662.78998
43.02 -4.6900001 -662.96997
43.610001 -4.6900001 -662.73999
-159.25999 -4.3400002 -544.90002
-158.78 -4.3400002 -544.96002
-158.23 -4.3400002 -544.78998
-157.59 -4.3400002 -544.32001
-157 -4.3400002 -544
-156.47 -4.3400002 -543.87
-155.97 -4.3400002 -543.85999
-155.50999 -4.3400002 -543.97998
-155.03999 -4.3400002 -544.09998
-154.59 -4.3400002 -544.26001
-154.14999 -4.3400002 -544.45001
-153.71001 -4.3400002 -544.65997
-153.28 -4.3400002 -544.89001
-152.83 -4.3499999 -545.07001
-152.41 -4.3499999 -545.34998
-152 -4.3499999 -545.64001
-151.53 -4.3499999 -545.76001
-151.09 -4.3499999 -545.95001
-150.63 -4.3499999 -546.09998
-150.14999 -4.3499999 -546.19
-149.69 -4.3600001 -546.33002
-149.2 -4.3600001 -546.37
-148.72 -4.3600001 -546.44
-148.25999 -4.3600001 -546.56
-147.81 -4.3600001 -546.77002
-147.34 -4.3600001 -546.85999
-146.89 -4.3600001 -547.03003
-146.41 -4.3600001 -547.13
-145.98 -4.3600001 -547.38
-145.5 -4.3600001 -547.47998
-145.03 -4.3699999 -547.58002
-144.57001 -4.3699999 -547.72998
-144.10001 -4.3699999 -547.85999
-143.66 -4.3699999 -548.07001
-143.21001 -4.3699999 -548.27002
-142.78999 -4.3699999 -548.59003
-142.39 -4.3800001 -548.95001
-141.99001 -4.3800001 -549.34998
-141.63 -4.3800001 -549.89001
-141.3 -4.3899999 -550.57001
-141.12 -4.4000001 -551.82001
-156.97 -4.9299998 -617.14001
-156.38 -4.9299998 -617.03003
-155.8 -4.9299998 -616.97998
-155.25 -4.9299998 -617.06
-154.67 -4.9299998 -616.96997
-154.10001 -4.9299998 -616.97998
-153.53999 -4.9299998 -616.97998
-153.14 -4.9299998 -617.66998
-153.10001 -4.9499998 -619.73999
-153.39999 -4.98 -623.22998
-153.17999 -4.9899998 -624.65997
-132.98 -4.3499999 -545.46997
-132.17999 -4.3400002 -544.23999
-131.50999 -4.3299999 -543.57001
-130.96001 -4.3299999 -543.34003
-130.38 -4.3299999 -543.02002
-129.84 -4.3299999 -542.83002
-129.3 -4.3299999 -542.63
-128.74001 -4.3200002 -542.40997
-128.17999 -4.3200002 -542.13
-127.62 -4.3200002 -541.85999
-127.1 -4.3200002 -541.75
-126.62 -4.3200002 -541.83002
-126.15 -4.3200002 -541.95001
-125.66 -4.3200002 -541.97998
-125.14 -4.3200002 -541.87
-124.64 -4.3200002 -541.84998
-124.14 -4.3200002 -541.84003
-123.63 -4.3200002 -541.75
-123.13 -4.3200002 -541.75
-122.64 -4.3200002 -541.76001
-122.13 -4.3200002 -541.71002
-121.65 -4.3200002 -541.79999
-121.16 -4.3200002 -541.82001
-120.68 -4.3200002 -541.87
-120.21 -4.3200002 -542.01001
-119.75 -4.3200002 -542.15997
-119.29 -4.3200002 -542.33002
-118.83 -4.3200002 -542.48999
-118.36 -4.3299999 -542.63
-117.9 -4.3299999 -542.79999
-117.44 -4.3299999 -542.94
-116.98 -4.3299999 -543.13
-116.54 -4.3299999 -543.38
-116.09 -4.3299999 -543.59998
-115.65 -4.3400002 -543.88
-115.21 -4.3400002 -544.13
-114.76 -4.3400002 -544.39001
-114.33 -4.3400002 -544.67999
-113.9 -4.3400002 -545.03003
-113.47 -4.3499999 -545.34003
-113.05 -4.3499999 -545.72998
-112.63 -4.3499999 -546.12
-112.26 -4.3600001 -546.71997
-111.84 -4.3600001 -547.10999
-111.47 -4.3699999 -547.77002
-111.1 -4.3699999 -548.37
-110.74 -4.3800001 -549.10999
-110.4 -4.3800001 -549.89001
-110.06 -4.3899999 -550.69
-90.879997 -4.3699999 -547.65002
-90.279999 -4.3600001 -547.04999
-89.709999 -4.3600001 -546.65997
-89.160004 -4.3600001 -546.37
-88.620003 -4.3499999 -546.13
-88.080002 -4.3499999 -545.89001
-87.559998 -4.3499999 -545.76001
-87.040001 -4.3499999 -545.60999
-86.510002 -4.3499999 -545.44
-85.980003 -4.3499999 -545.27002
-85.459999 -4.3400002 -545.14001
-84.940002 -4.3400002 -545
-84.43 -4.3400002 -544.91998
-83.910004 -4.3400002 -544.81
-83.400002 -4.3400002 -544.75
-82.889999 -4.3400002 -544.66998
-82.400002 -4.3400002 -544.69
-81.900002 -4.3400002 -544.66998
-81.400002 -4.3400002 -544.66998
-80.889999 -4.3400002 -544.62
-80.389999 -4.3400002 -544.63
-79.889999 -4.3400002 -544.62
-79.389999 -4.3400002 -544.62
-78.889999 -4.3400002 -544.59998
-78.400002 -4.3400002 -544.64001
-77.910004 -4.3400002 -544.69
-77.419998 -4.3400002 -544.75
-76.919998 -4.3400002 -544.77002
-76.43 -4.3400002 -544.79999
-75.93 -4.3400002 -544.83002
-75.43 -4.3400002 -544.84003
-74.940002 -4.3400002 -544.84998
-74.449997 -4.3400002 -544.91998
-73.949997 -4.3400002 -544.96002
-73.470001 -4.3400002 -545.03998
-72.959999 -4.3400002 -545.02002
-72.480003 -4.3400002 -545.10999
-71.980003 -4.3400002 -545.15997
-71.5 -4.3499999 -545.23999
-71.010002 -4.3499999 -545.32001
-70.510002 -4.3499999 -545.35999
-70.019997 -4.3499999 -545.42999
-69.529999 -4.3499999 -545.5
-69.040001 -4.3499999 -545.59003
-68.559998 -4.3499999 -545.71997
-68.07 -4.3499999 -545.79999
-67.57 -4.3499999 -545.81
-67.089996 -4.3499999 -545.92999
-66.599998 -4.3499999 -546.04999
-66.099998 -4.3499999 -546.06
-65.620003 -4.3499999 -546.15997
-65.139999 -4.3499999 -546.32001
-64.650002 -4.3499999 -546.46002
-64.18 -4.3600001 -546.71002
-63.700001 -4.3600001 -546.89001
-63.23 -4.3600001 -547.14001
-62.759998 -4.3600001 -547.40997
-62.279999 -4.3600001 -547.59003
-61.790001 -4.3600001 -547.71997
-61.310001 -4.3699999 -547.84003
-60.84 -4.3699999 -548.09998
-60.369999 -4.3699999 -548.40997
-59.880001 -4.3699999 -548.56
-59.41 -4.3699999 -548.84998
-58.939999 -4.3800001 -549.09998
-58.459999 -4.3800001 -549.37
-57.990002 -4.3800001 -549.63
-57.52 -4.3800001 -549.96997
-57.040001 -4.3800001 -550.21002
-56.580002 -4.3899999 -550.57001
-56.099998 -4.3899999 -550.81
-55.630001 -4.3899999 -551.17999
-55.150002 -4.3899999 -551.40997
-54.68 -4.4000001 -551.75
-54.209999 -4.4000001 -552.09003
-53.740002 -4.4000001 -552.51001
-53.279999 -4.4099998 -552.90002
-52.82 -4.4099998 -553.46002
-52.360001 -4.4099998 -553.92999
-51.91 -4.4200001 -554.45001
-51.439999 -4.4200001 -554.92999
-51.009998 -4.4299998 -555.77002
-50.57 -4.4400001 -556.44
-50.110001 -4.4400001 -557.01001
-49.669998 -4.4499998 -557.78998
-49.240002 -4.4499998 -558.72998
-48.799999 -4.46 -559.5
-48.360001 -4.4699998 -560.38
-47.939999 -4.48 -561.38
-47.48 -4.48 -562.02002
-47.049999 -4.4899998 -563.01001
-46.68 -4.5 -564.70001
-51.5 -5.02 -629.03998
-51.220001 -5.0500002 -632.65997
-50.700001 -5.0599999 -633.32001
-50.18 -5.0599999 -634.16998
-49.66 -5.0700002 -634.84998
-49.130001 -5.0799999 -635.62
-48.599998 -5.0799999 -636.21002
-48.07 -5.0900002 -636.98999
-47.529999 -5.0900002 -637.59003
-47.02 -5.0999999 -638.59003
-46.529999 -5.1100001 -639.82001
-46.080002 -5.1300001 -641.70001
-45.59 -5.1399999 -643.12
-45.099998 -5.1500001 -644.57001
-44.580002 -5.1599998 -645.47998
-44.049999 -5.1599998 -646.46997
-43.560001 -5.1799998 -647.89001
-43.130001 -5.1999998 -650.45001
-42.740002 -5.2199998 -653.45001
-42.23 -5.23 -654.84003
-41.68 -5.2399998 -655.69
-41.150002 -5.25 -656.88
-40.580002 -5.25 -657.39001
-40.029999 -5.2600002 -658.13
-39.459999 -5.2600002 -658.66998
-38.919998 -5.27 -659.78998
-38.34 -5.2800002 -660.34003
-37.759998 -5.2800002 -660.76001
-37.169998 -5.2800002 -660.94
-36.57 -5.2800002 -661.14001
-35.970001 -5.2800002 -661.28003
-35.360001 -5.2800002 -661.23999
-34.75 -5.2800002 -661.15997
-34.150002 -5.2800002 -661.20001
-33.540001 -5.2800002 -661.27002
-32.939999 -5.2800002 -661.29999
-32.330002 -5.2800002 -661.28003
-31.719999 -5.2800002 -661.25
-31.120001 -5.2800002 -661.21997
-30.51 -5.2800002 -661.29999
-29.9 -5.2800002 -661.27002
-29.299999 -5.2800002 -661.34998
-28.690001 -5.2800002 -661.29999
-28.08 -5.2800002 -661.21997
-27.48 -5.2800002 -661.27002
-26.870001 -5.2800002 -661.23999
-26.26 -5.2800002 -661.25
-25.66 -5.2800002 -661.32001
-25.049999 -5.2800002 -661.39001
-24.450001 -5.2800002 -661.35999
-23.84 -5.2800002 -661.39001
-23.23 -5.2800002 -661.39001
-22.629999 -5.2800002 -661.40002
-22.02 -5.29 -661.53998
-21.42 -5.29 -661.60999
-20.809999 -5.29 -661.67999
-20.209999 -5.29 -661.84003
-19.610001 -5.29 -662.04999
-19.01 -5.29 -662.15002
-18.41 -5.29 -662.37
-17.809999 -5.29 -662.64001
-17.209999 -5.3000002 -662.92999
-16.6 -5.3000002 -662.90997
-15.99 -5.3000002 -662.95001
-15.38 -5.3000002 -662.96002
-14.78 -5.3000002 -663.07001
-14.17 -5.3000002 -663.03998
-13.56 -5.3000002 -663.09998
-12.95 -5.3000002 -663.06
-12.34 -5.3000002 -663.15002
-11.73 -5.3000002 -663.17999
-11.13 -5.3000002 -663.25
-10.52 -5.3000002 -663.41998
-9.9200001 -5.3000002 -663.59998
-9.3100004 -5.3000002 -663.83002
-8.71 -5.3099999 -664.21002
-8.1000004 -5.3099999 -664.64001
-7.5 -5.3200002 -665.22998
-6.8899999 -5.3200002 -665.67999
-6.29 -5.3200002 -666.31
-5.6799998 -5.3299999 -666.54999
-5.0700002 -5.3299999 -667
-4.46 -5.3299999 -667.37
-3.8499999 -5.3400002 -667.78998
-3.24 -5.3400002 -668.31
-2.6300001 -5.3400002 -668.58002
-2.02 -5.3400002 -668.79999
-1.4 -5.3499999 -669.06
-0.79000002 -5.3499999 -669.15997
-0.17 -5.3499999 -669.31
0.44 -5.3499999 -669.17999
24.16 -5.3000002 -662.96002
24.75 -5.29 -662.46002
25.33 -5.29 -661.78003
25.93 -5.29 -661.62
26.530001 -5.2800002 -661.34998
27.120001 -5.2800002 -661.12
27.73 -5.2800002 -661.16998
28.35 -5.2800002 -661.34003
28.959999 -5.29 -661.51001
29.58 -5.29 -661.69
30.200001 -5.29 -661.96997
30.809999 -5.29 -662.08002
31.440001 -5.29 -662.45001
32.049999 -5.3000002 -662.65997
32.669998 -5.3000002 -662.91998
33.290001 -5.3000002 -663.10999
33.91 -5.3000002 -663.23999
34.52 -5.3000002 -663.33002
35.139999 -5.3000002 -663.57001
35.759998 -5.3000002 -663.71002
36.360001 -5.3000002 -663.58002
36.970001 -5.3000002 -663.63
37.580002 -5.3000002 -663.60999
38.189999 -5.3000002 -663.59998
38.790001 -5.3000002 -663.48999
39.389999 -5.3000002 -663.32001
39.990002 -5.3000002 -663.17999
40.599998 -5.3000002 -663.21002
41.209999 -5.3000002 -663.19
41.82 -5.3000002 -663.20001
42.419998 -5.3000002 -663.03998
43.009998 -5.3000002 -662.87
-159.28999 -4.8400002 -544.98999
-158.83 -4.8400002 -545.13
-158.35001 -4.8499999 -545.20001
-157.78999 -4.8400002 -545
-157.17999 -4.8400002 -544.59998
-156.62 -4.8400002 -544.40002
-156.08 -4.8400002 -544.23999
-155.58 -4.8400002 -544.21997
-155.12 -4.8400002 -544.34998
-154.67 -4.8400002 -544.54999
-154.21001 -4.8400002 -544.67999
-153.8 -4.8400002 -544.95001
-153.36 -4.8499999 -545.17999
-152.92999 -4.8499999 -545.41998
-152.50999 -4.8499999 -545.67999
-152.08 -4.8499999 -545.95001
-151.61 -4.8499999 -546.04999
-151.19 -4.8600001 -546.31
-150.72 -4.8600001 -546.42999
-150.25999 -4.8600001 -546.57001
-149.78999 -4.8600001 -546.69
-149.31 -4.8600001 -546.73999
-148.84 -4.8600001 -546.88
-148.37 -4.8600001 -546.97998
-147.89999 -4.8600001 -547.06
-147.45 -4.8600001 -547.25
-146.97 -4.8600001 -547.33002
-146.50999 -4.8699999 -547.47998
-146.03999 -4.8699999 -547.62
-145.57001 -4.8699999 -547.72998
-145.10001 -4.8699999 -547.84003
-144.63 -4.8699999 -547.96002
-144.17999 -4.8699999 -548.15002
-143.73 -4.8699999 -548.35999
-143.28 -4.8800001 -548.52002
-142.87 -4.8800001 -548.89001
-142.45 -4.8800001 -549.20001
-142.07001 -4.8899999 -549.65002
-141.71001 -4.8899999 -550.21002
-141.52 -4.9000001 -551.40002
-141.34 -4.9099998 -552.67999
-157.34 -5.4899998 -616.37
-156.99001 -5.5 -617.21997
-156.42999 -5.5 -617.25
-155.89999 -5.5 -617.35999
-155.31 -5.5 -617.28003
-154.77 -5.5 -617.35999
-154.61 -5.5100002 -619
-154.59 -5.5300002 -621.14001
-154.59 -5.5500002 -623.41998
-154.36 -5.5599999 -624.78003
-153.8 -5.5700002 -624.82001
-153.24001 -5.5700002 -624.88
-132.28 -4.8400002 -544.65997
-131.57001 -4.8299999 -543.78003
-130.98 -4.8299999 -543.42999
-130.41 -4.8299999 -543.14001
-129.86 -4.8200002 -542.90997
-129.33 -4.8200002 -542.75
-128.8 -4.8200002 -542.62
-128.23 -4.8200002 -542.34998
-127.71 -4.8200002 -542.23999
-127.2 -4.8200002 -542.20001
-126.7 -4.8200002 -542.15997
-126.18 -4.8200002 -542.06
-125.68 -4.8200002 -542.07001
-125.16 -4.8200002 -541.96002
-124.64 -4.8200002 -541.84998
-124.13 -4.8200002 -541.81
-123.64 -4.8200002 -541.81
-123.15 -4.8200002 -541.83002
-122.64 -4.8099999 -541.79999
-122.14 -4.8099999 -541.76001
-121.64 -4.8099999 -541.75
-121.14 -4.8099999 -541.75
-120.67 -4.8200002 -541.84003
-120.19 -4.8200002 -541.92999
-119.73 -4.8200002 -542.09003
-119.28 -4.8200002 -542.28998
-118.83 -4.8200002 -542.48999
-118.35 -4.8200002 -542.54999
-117.88 -4.8200002 -542.69
-117.43 -4.8200002 -542.90002
-116.95 -4.8299999 -543
-116.51 -4.8299999 -543.27002
-116.06 -4.8299999 -543.48999
-115.63 -4.8299999 -543.79999
-115.18 -4.8299999 -544.02002
-114.74 -4.8400002 -544.29999
-114.3 -4.8400002 -544.54999
-113.86 -4.8400002 -544.84003
-113.43 -4.8400002 -545.14001
-113.02 -4.8499999 -545.58002
-112.58 -4.8499999 -545.88
-112.2 -4.8600001 -546.42999
-111.79 -4.8600001 -546.89001
-111.4 -4.8699999 -547.42999
-111.03 -4.8699999 -548.04999
-110.68 -4.8800001 -548.78998
-110.3 -4.8800001 -549.39001
-109.97 -4.8899999 -550.22998
-92.029999 -4.8699999 -548.53003
-91.379997 -4.8699999 -547.65002
-90.790001 -4.8600001 -547.15002
-90.209999 -4.8600001 -546.64001
-89.660004 -4.8499999 -546.33002
-89.110001 -4.8499999 -546.03998
-88.580002 -4.8499999 -545.89001
-88.050003 -4.8499999 -545.69
-87.529999 -4.8499999 -545.57001
-87 -4.8499999 -545.40997
-86.480003 -4.8499999 -545.28003
-85.949997 -4.8400002 -545.08002
-85.440002 -4.8400002 -544.97998
-84.919998 -4.8400002 -544.84998
-84.400002 -4.8400002 -544.76001
-83.889999 -4.8400002 -544.67999
-83.379997 -4.8400002 -544.59003
-82.879997 -4.8400002 -544.57001
-82.370003 -4.8400002 -544.51001
-81.870003 -4.8400002 -544.51001
-81.370003 -4.8400002 -544.52002
-80.870003 -4.8400002 -544.47998
-80.370003 -4.8400002 -544.46997
-79.860001 -4.8400002 -544.41998
-79.370003 -4.8400002 -544.45001
-78.870003 -4.8400002 -544.46997
-78.379997 -4.8400002 -544.5
-77.879997 -4.8400002 -544.52002
-77.389999 -4.8400002 -544.56
-76.900002 -4.8400002 -544.59998
-76.400002 -4.8400002 -544.64001
-75.910004 -4.8400002 -544.67999
-75.419998 -4.8400002 -544.71997
-74.919998 -4.8400002 -544.71002
-74.43 -4.8400002 -544.78998
-73.940002 -4.8400002 -544.82001
-73.449997 -4.8400002 -544.90997
-72.949997 -4.8400002 -544.94
-72.449997 -4.8400002 -544.94
-71.970001 -4.8400002 -545.03003
-71.480003 -4.8400002 -545.12
-70.989998 -4.8400002 -545.19
-70.510002 -4.8400002 -545.33002
-70.010002 -4.8400002 -545.33002
-69.519997 -4.8499999 -545.37
-69.040001 -4.8499999 -545.52002
-68.550003 -4.8499999 -545.64001
-68.059998 -4.8499999 -545.73999
-67.57 -4.8499999 -545.82001
-67.089996 -4.8499999 -545.96002
-66.599998 -4.8499999 -545.98999
-66.099998 -4.8499999 -546.06
-65.610001 -4.8499999 -546.14001
-65.139999 -4.8499999 -546.33002
-64.650002 -4.8499999 -546.46002
-64.190002 -4.8600001 -546.73999
-63.709999 -4.8600001 -546.94
-63.23 -4.8600001 -547.14001
-62.759998 -4.8600001 -547.35999
-62.279999 -4.8600001 -547.53998
-61.790001 -4.8699999 -547.67999
-61.310001 -4.8699999 -547.87
-60.84 -4.8699999 -548.15002
-60.369999 -4.8699999 -548.40002
-59.889999 -4.8699999 -548.63
-59.41 -4.8800001 -548.87
-58.939999 -4.8800001 -549.09998
-58.470001 -4.8800001 -549.40997
-57.990002 -4.8800001 -549.69
-57.529999 -4.8899999 -550.02002
-57.040001 -4.8899999 -550.21002
-56.580002 -4.8899999 -550.58002
-56.099998 -4.8899999 -550.85999
-55.630001 -4.9000001 -551.15002
-55.150002 -4.9000001 -551.42999
-54.68 -4.9000001 -551.79999
-54.209999 -4.9099998 -552.15002
-53.75 -4.9099998 -552.54999
-53.279999 -4.9099998 -552.94
-52.82 -4.9200001 -553.44
-52.360001 -4.9200001 -553.88
-51.919998 -4.9299998 -554.56
-51.459999 -4.9299998 -555.07001
-51.009998 -4.9400001 -555.76001
-50.560001 -4.9400001 -556.35999
-50.110001 -4.9499998 -557.02002
-49.669998 -4.96 -557.84003
-49.25 -4.9699998 -558.78998
-48.799999 -4.9699998 -559.52002
-48.380001 -4.98 -560.57001
-47.93 -4.9899998 -561.28998
-47.48 -4.9899998 -562.02002
-47.060001 -5 -563.15997
-46.73 -5.0300002 -565.38
-51.759998 -5.6300001 -632.09003
-51.240002 -5.6300001 -632.87
-50.720001 -5.6399999 -633.65002
-50.200001 -5.6500001 -634.42999
-49.669998 -5.6500001 -635.06
-49.139999 -5.6599998 -635.73999
-48.619999 -5.6700001 -636.56
-48.099998 -5.6700001 -637.33002
-47.59 -5.6799998 -638.34003
-47.09 -5.6900001 -639.53003
-46.610001 -5.71 -640.94
-46.139999 -5.7199998 -642.5
-45.639999 -5.73 -643.82001
-45.130001 -5.7399998 -644.90002
-44.599998 -5.75 -645.84003
-44.09 -5.7600002 -646.95001
-43.599998 -5.7800002 -648.51001
-43.220001 -5.8000002 -651.66998
-42.82 -5.8299999 -654.72998
-42.330002 -5.8499999 -656.40002
-41.810001 -5.8600001 -657.73999
-41.259998 -5.8699999 -658.53003
-40.689999 -5.8699999 -659.12
-40.130001 -5.8800001 -659.87
-39.560001 -5.8800001 -660.40002
-38.990002 -5.8899999 -660.96002
-38.389999 -5.8899999 -661.17999
-37.790001 -5.8899999 -661.21997
-37.189999 -5.8899999 -661.28003
-36.580002 -5.8899999 -661.33002
-35.970001 -5.8899999 -661.20001
-35.369999 -5.8899999 -661.29999
-34.759998 -5.8899999 -661.21997
-34.150002 -5.8899999 -661.26001
-33.549999 -5.8899999 -661.29999
-32.939999 -5.8899999 -661.40002
-32.330002 -5.8899999 -661.27002
-31.73 -5.8899999 -661.34998
-31.120001 -5.8899999 -661.40002
-30.51 -5.8899999 -661.28998
-29.91 -5.8899999 -661.31
-29.299999 -5.8899999 -661.33002
-28.690001 -5.8899999 -661.34003
-28.09 -5.8899999 -661.34003
-27.48 -5.8899999 -661.35999
-26.879999 -5.8899999 -661.40997
-26.26 -5.8899999 -661.28998
-25.66 -5.8899999 -661.28998
-25.049999 -5.8899999 -661.34003
-24.450001 -5.8899999 -661.37
-23.84 -5.8899999 -661.41998
-23.24 -5.8899999 -661.51001
-22.639999 -5.8899999 -661.72998
-22.030001 -5.8899999 -661.71002
-21.42 -5.8899999 -661.76001
-20.82 -5.9000001 -661.84998
-20.219999 -5.9000001 -662.10999
-19.620001 -5.9000001 -662.31
-19.02 -5.9000001 -662.53003
-18.41 -5.9000001 -662.67999
-17.809999 -5.9099998 -662.90002
-17.209999 -5.9099998 -662.95001
-16.6 -5.9000001 -662.87
-15.99 -5.9000001 -662.88
-15.38 -5.9099998 -662.95001
-14.77 -5.9099998 -662.92999
-14.16 -5.9099998 -662.97998
-13.56 -5.9099998 -663.09003
-12.95 -5.9099998 -663.03003
-12.34 -5.9099998 -663.21997
-11.74 -5.9099998 -663.34003
-11.13 -5.9099998 -663.40997
-10.53 -5.9099998 -663.65997
-9.9200001 -5.9099998 -663.96002
-9.3199997 -5.9200001 -664.20001
-8.71 -5.9200001 -664.71002
-8.1099997 -5.9299998 -665.40002
-7.5100002 -5.9299998 -665.85999
-6.9000001 -5.9299998 -666.21002
-6.29 -5.9400001 -666.52002
-5.6799998 -5.9400001 -666.85999
-5.0700002 -5.9400001 -667.19
-4.46 -5.9499998 -667.69
-3.8499999 -5.9499998 -668.31
-3.24 -5.96 -668.73999
-2.6300001 -5.96 -669
-2.02 -5.96 -668.96997
-1.4 -5.96 -668.82001
-0.79000002 -5.96 -668.78998
-0.17 -5.96 -668.65002
24.77 -5.9099998 -663.07001
25.360001 -5.9000001 -662.56
25.950001 -5.9000001 -662.16998
26.549999 -5.9000001 -662
27.16 -5.9000001 -661.85999
27.76 -5.8899999 -661.76001
28.370001 -5.9000001 -661.85999
28.98 -5.9000001 -661.96997
29.59 -5.9000001 -662.02002
30.209999 -5.9000001 -662.15997
30.82 -5.9000001 -662.37
31.440001 -5.9000001 -662.64001
32.060001 -5.9000001 -662.82001
32.68 -5.9099998 -663.01001
33.299999 -5.9099998 -663.28003
33.919998 -5.9099998 -663.46997
34.529999 -5.9099998 -663.47998
35.150002 -5.9099998 -663.65002
35.759998 -5.9099998 -663.70001
36.369999 -5.9099998 -663.73999
36.98 -5.9099998 -663.73999
37.59 -5.9099998 -663.77002
38.189999 -5.9099998 -663.65997
38.799999 -5.9099998 -663.54999
39.400002 -5.9099998 -663.40997
40.02 -5.9099998 -663.57001
40.619999 -5.9099998 -663.54999
41.23 -5.9099998 -663.46002
41.82 -5.9099998 -663.29999
-159.33 -5.3400002 -545.15002
-158.88 -5.3499999 -545.31
-158.42 -5.3499999 -545.42999
-157.92999 -5.3499999 -545.44
-157.33 -5.3400002 -545.13
-156.75 -5.3400002 -544.84003
-156.19 -5.3400002 -544.62
-155.67999 -5.3400002 -544.57001
-155.2 -5.3400002 -544.64001
-154.75999 -5.3400002 -544.85999
-154.33 -5.3400002 -545.07001
-153.88 -5.3400002 -545.22998
-153.44 -5.3499999 -545.46002
-153.00999 -5.3499999 -545.70001
-152.59 -5.3499999 -545.96997
-152.14999 -5.3499999 -546.17999
-151.71001 -5.3600001 -546.40997
-151.28 -5.3600001 -546.63
-150.82001 -5.3600001 -546.77002
-150.35001 -5.3600001 -546.90997
-149.86 -5.3600001 -546.90997
-149.41 -5.3600001 -547.10999
-148.92 -5.3600001 -547.14001
-148.46001 -5.3699999 -547.28003
-147.97 -5.3699999 -547.32001
-147.49001 -5.3699999 -547.40997
-147.03 -5.3699999 -547.56
-146.59 -5.3699999 -547.77002
-146.11 -5.3699999 -547.84003
-145.61 -5.3699999 -547.88
-145.14999 -5.3699999 -548.01001
-144.69 -5.3699999 -548.19
-144.24001 -5.3800001 -548.34998
-143.77 -5.3800001 -548.48999
-143.34 -5.3800001 -548.77002
-142.92 -5.3800001 -549.04999
-142.50999 -5.3899999 -549.40002
-142.14999 -5.3899999 -549.95001
-141.84 -5.4000001 -550.71002
-141.74001 -5.4200001 -552.26001
-157.66 -6.0700002 -617.60999
-157.08 -6.0700002 -617.53998
-156.53999 -6.0700002 -617.65997
-156.13 -6.0700002 -618.26001
-156.07001 -6.0900002 -620.27002
-156.10001 -6.1199999 -622.59003
-156.03 -6.1399999 -624.59003
-155.60001 -6.1399999 -625.15002
-154.99001 -6.1399999 -625
-154.41 -6.1399999 -624.96997
-153.83 -6.1399999 -624.95001
-153.25 -6.1399999 -624.92999
-132.39 -5.3400002 -545.10999
-131.62 -5.3299999 -544
-131.03 -5.3299999 -543.62
-130.42999 -5.3200002 -543.21002
-129.88 -5.3200002 -543
-129.35001 -5.3200002 -542.84998
-128.82001 -5.3200002 -542.71002
-128.28 -5.3200002 -542.53998
-127.75 -5.3200002 -542.40002
-127.24 -5.3200002 -542.34998
-126.74 -5.3200002 -542.33002
-126.2 -5.3099999 -542.16998
-125.69 -5.3099999 -542.09003
-125.19 -5.3099999 -542.07001
-124.66 -5.3099999 -541.94
-124.16 -5.3099999 -541.92999
-123.65 -5.3099999 -541.87
-123.16 -5.3099999 -541.85999
-122.65 -5.3099999 -541.81
-122.15 -5.3099999 -541.78998
-121.64 -5.3099999 -541.73999
-121.14 -5.3099999 -541.71997
-120.65 -5.3099999 -541.75
-120.17 -5.3099999 -541.82001
-119.7 -5.3099999 -541.92999
-119.26 -5.3099999 -542.20001
-118.8 -5.3200002 -542.34003
-118.32 -5.3200002 -542.45001
-117.86 -5.3200002 -542.59003
-117.4 -5.3200002 -542.76001
-116.93 -5.3200002 -542.88
-116.49 -5.3200002 -543.17999
-116.03 -5.3299999 -543.34003
-115.59 -5.3299999 -543.60999
-115.15 -5.3299999 -543.87
-114.7 -5.3299999 -544.10999
-114.27 -5.3400002 -544.39001
-113.84 -5.3400002 -544.72998
-113.39 -5.3400002 -544.94
-112.97 -5.3499999 -545.34003
-112.54 -5.3499999 -545.67999
-112.14 -5.3499999 -546.15002
-111.74 -5.3600001 -546.62
-111.34 -5.3600001 -547.14001
-110.96 -5.3699999 -547.71997
-110.6 -5.3800001 -548.40002
-110.23 -5.3800001 -549.06
-109.92 -5.3899999 -549.98999
-109.59 -5.4000001 -550.88
-92.510002 -5.3800001 -548.40002
-91.900002 -5.3699999 -547.73999
-91.300003 -5.3600001 -547.15002
-90.720001 -5.3600001 -546.71002
-90.139999 -5.3499999 -546.22998
-89.599998 -5.3499999 -545.98999
-89.050003 -5.3499999 -545.71002
-88.529999 -5.3499999 -545.59003
-88.010002 -5.3499999 -545.46002
-87.489998 -5.3499999 -545.34998
-86.959999 -5.3400002 -545.15997
-86.449997 -5.3400002 -545.06
-85.93 -5.3400002 -544.92999
-85.410004 -5.3400002 -544.83002
-84.889999 -5.3400002 -544.70001
-84.379997 -5.3400002 -544.60999
-83.870003 -5.3400002 -544.54999
-83.360001 -5.3400002 -544.44
-82.849998 -5.3400002 -544.40002
-82.349998 -5.3400002 -544.38
-81.849998 -5.3299999 -544.35999
-81.339996 -5.3299999 -544.28003
-80.839996 -5.3299999 -544.29999
-80.339996 -5.3299999 -544.31
-79.849998 -5.3299999 -544.29999
-79.339996 -5.3299999 -544.26001
-78.849998 -5.3299999 -544.28003
-78.349998 -5.3299999 -544.32001
-77.860001 -5.3299999 -544.37
-77.370003 -5.3400002 -544.40002
-76.870003 -5.3400002 -544.40997
-76.379997 -5.3400002 -544.46002
-75.889999 -5.3400002 -544.53003
-75.389999 -5.3400002 -544.54999
-74.900002 -5.3400002 -544.56
-74.410004 -5.3400002 -544.62
-73.919998 -5.3400002 -544.67999
-73.419998 -5.3400002 -544.73999
-72.93 -5.3400002 -544.78998
-72.440002 -5.3400002 -544.87
-71.959999 -5.3400002 -544.96997
-71.470001 -5.3400002 -545.02002
-70.980003 -5.3400002 -545.09003
-70.489998 -5.3400002 -545.17999
-70.010002 -5.3400002 -545.28998
-69.510002 -5.3400002 -545.34998
-69.019997 -5.3400002 -545.41998
-68.550003 -5.3499999 -545.60999
-68.050003 -5.3499999 -545.65997
-67.57 -5.3499999 -545.76001
-67.080002 -5.3499999 -545.90002
-66.589996 -5.3499999 -545.92999
-66.099998 -5.3499999 -546.06
-65.620003 -5.3499999 -546.15997
-65.139999 -5.3499999 -546.32001
-64.660004 -5.3600001 -546.52002
-64.18 -5.3600001 -546.69
-63.700001 -5.3600001 -546.89001
-63.23 -5.3600001 -547.10999
-62.75 -5.3600001 -547.27002
-62.279999 -5.3699999 -547.56
-61.799999 -5.3699999 -547.75
-61.32 -5.3699999 -547.94
-60.84 -5.3699999 -548.13
-60.369999 -5.3699999 -548.40997
-59.889999 -5.3800001 -548.63
-59.41 -5.3800001 -548.84003
-58.93 -5.3800001 -549.06
-58.470001 -5.3800001 -549.42999
-57.990002 -5.3899999 -549.67999
-57.52 -5.3899999 -549.96997
-57.040001 -5.3899999 -550.21002
-56.580002 -5.4000001 -550.56
-56.110001 -5.4000001 -550.89001
-55.630001 -5.4000001 -551.21002
-55.150002 -5.4000001 -551.45001
-54.689999 -5.4099998 -551.82001
-54.220001 -5.4099998 -552.15997
-53.75 -5.4200001 -552.58002
-53.290001 -5.4200001 -552.98999
-52.830002 -5.4200001 -553.5
-52.369999 -5.4299998 -553.97998
-51.919998 -5.4400001 -554.59003
-51.470001 -5.4400001 -555.15997
-51.02 -5.4499998 -555.84998
-50.57 -5.4499998 -556.46002
-50.130001 -5.46 -557.19
-49.68 -5.4699998 -557.88
-49.25 -5.48 -558.81
-48.810001 -5.4899998 -559.62
-48.369999 -5.4899998 -560.42999
-47.919998 -5.5 -561.15997
-47.490002 -5.5100002 -562.10999
-47.09 -5.52 -563.46002
-46.77 -5.5500002 -565.88
-51.799999 -6.21 -632.58002
-51.279999 -6.2199998 -633.35999
-50.75 -6.23 -633.97998
-50.23 -6.23 -634.71997
-49.700001 -6.2399998 -635.45001
-49.18 -6.25 -636.16998
-48.66 -6.2600002 -637.03998
-48.150002 -6.27 -638.03003
-47.639999 -6.2800002 -638.96997
-47.169998 -6.29 -640.58002
-46.68 -6.3099999 -641.95001
-46.200001 -6.3200002 -643.34998
-45.689999 -6.3299999 -644.47998
-45.16 -6.3400002 -645.37
-44.619999 -6.3499999 -646.15997
-44.130001 -6.3600001 -647.59003
-43.66 -6.3800001 -649.35999
-43.32 -6.4200001 -653.17999
-42.919998 -6.4499998 -656.26001
-42.419998 -6.46 -657.84003
-41.889999 -6.4699998 -658.94
-41.34 -6.48 -659.77002
-40.77 -6.4899998 -660.32001
-40.189999 -6.4899998 -660.79999
-39.599998 -6.4899998 -660.97998
-39.009998 -6.5 -661.33002
-38.41 -6.5 -661.40002
-37.799999 -6.5 -661.35999
-37.189999 -6.5 -661.32001
-36.580002 -6.5 -661.31
-35.970001 -6.5 -661.32001
-35.360001 -6.5 -661.20001
-34.759998 -6.5 -661.31
-34.150002 -6.5 -661.33002
-33.549999 -6.5 -661.35999
-32.939999 -6.5 -661.28003
-32.330002 -6.5 -661.29999
-31.719999 -6.5 -661.28003
-31.120001 -6.5 -661.31
-30.51 -6.5 -661.35999
-29.9 -6.5 -661.28003
-29.299999 -6.5 -661.28998
-28.690001 -6.5 -661.31
-28.08 -6.5 -661.28998
-27.48 -6.5 -661.38
-26.870001 -6.5 -661.28998
-26.27 -6.5 -661.41998
-25.66 -6.5 -661.34003
-25.059999 -6.5 -661.42999
-24.450001 -6.5 -661.40997
-23.84 -6.5 -661.52002
-23.24 -6.5 -661.53003
-22.639999 -6.5 -661.65997
-22.040001 -6.5 -661.87
-21.43 -6.5 -661.90002
-20.83 -6.5100002 -662.09003
-20.23 -6.5100002 -662.33002
-19.629999 -6.5100002 -662.60999
-19.030001 -6.5100002 -662.87
-18.42 -6.5100002 -662.85999
-17.809999 -6.5100002 -662.84003
-17.200001 -6.5100002 -662.83002
-16.59 -6.5100002 -662.82001
-15.99 -6.5100002 -662.83002
-15.38 -6.5100002 -662.97998
-14.77 -6.5100002 -662.90997
-14.16 -6.5100002 -662.89001
-13.56 -6.5100002 -662.98999
-12.95 -6.52 -663.13
-12.34 -6.52 -663.20001
-11.74 -6.52 -663.38
-11.13 -6.52 -663.65997
-10.53 -6.52 -663.89001
-9.9300003 -6.5300002 -664.29999
-9.3199997 -6.5300002 -664.76001
-8.7200003 -6.54 -665.45001
-8.1199999 -6.54 -665.71002
-7.5100002 -6.5500002 -666.09998
-6.9000001 -6.5500002 -666.34998
-6.29 -6.5500002 -666.75
-5.6799998 -6.5500002 -667.06
-5.0700002 -6.5599999 -667.44
-4.4699998 -6.5599999 -668.09003
-3.8599999 -6.5700002 -668.59998
-3.24 -6.5700002 -668.96997
-2.6300001 -6.5799999 -669.17999
-2.02 -6.5700002 -668.69
-1.4 -6.5599999 -668.09003
-0.79000002 -6.5599999 -667.59003
25.98 -6.5100002 -662.72998
26.57 -6.5100002 -662.41998
27.17 -6.5100002 -662.31
27.77 -6.5100002 -662.07001
28.379999 -6.5100002 -662.12
28.99 -6.5100002 -662.21002
29.610001 -6.5100002 -662.35999
30.219999 -6.5100002 -662.47998
30.84 -6.5100002 -662.64001
31.459999 -6.5100002 -662.94
32.07 -6.5100002 -663.02002
32.689999 -6.52 -663.20001
33.299999 -6.52 -663.27002
33.919998 -6.52 -663.51001
34.540001 -6.52 -663.67999
35.150002 -6.52 -663.60999
35.759998 -6.52 -663.69
36.369999 -6.52 -663.78998
36.98 -6.52 -663.78003
37.59 -6.52 -663.84998
38.200001 -6.52 -663.77002
38.82 -6.52 -663.90002
39.419998 -6.52 -663.84998
40.029999 -6.52 -663.78003
40.630001 -6.52 -663.71002
-159.36 -5.8400002 -545.26001
-158.94 -5.8499999 -545.52002
-158.49001 -5.8499999 -545.65997
-158.03 -5.8499999 -545.78998
-157.53 -5.8499999 -545.78003
-156.92 -5.8499999 -545.41998
-156.35001 -5.8400002 -545.17999
-155.8 -5.8400002 -545.01001
-155.33 -5.8400002 -545.09998
-154.88 -5.8400002 -545.25
-154.42999 -5.8499999 -545.44
-153.99001 -5.8499999 -545.62
-153.55 -5.8499999 -545.84998
-153.13 -5.8499999 -546.09998
-152.67999 -5.8600001 -546.31
-152.28 -5.8600001 -546.64001
-151.84 -5.8600001 -546.84998
-151.39 -5.8600001 -547.04999
-150.92 -5.8600001 -547.13
-150.42999 -5.8699999 -547.17999
-149.96001 -5.8699999 -547.28003
-149.48 -5.8699999 -547.35999
-149 -5.8699999 -547.44
-148.52 -5.8699999 -547.51001
-148.03999 -5.8699999 -547.57001
-147.59 -5.8699999 -547.77002
-147.11 -5.8699999 -547.84998
-146.61 -5.8699999 -547.84998
-146.14 -5.8699999 -547.96997
-145.69 -5.8800001 -548.15997
-145.19 -5.8800001 -548.19
-144.73 -5.8800001 -548.32001
-144.25 -5.8800001 -548.41998
-143.82001 -5.8800001 -548.69
-143.39999 -5.8899999 -548.97998
-142.98 -5.8899999 -549.29999
-142.59 -5.8899999 -549.73999
-142.27 -5.9000001 -550.41998
-142.03 -5.9099998 -551.45001
-141.85001 -5.9299998 -552.69
-158.24001 -6.6599998 -619.84998
-157.83 -6.6599998 -620.46002
-157.44 -6.6700001 -621.14001
-157.25 -6.6900001 -622.63
-157.32001 -6.7199998 -625.15002
-156.85001 -6.7199998 -625.57001
-156.22 -6.7199998 -625.33002
-155.66 -6.7199998 -625.38
-155.03 -6.7199998 -625.16998
-154.46001 -6.7199998 -625.19
-153.88 -6.7199998 -625.15997
-153.32001 -6.7199998 -625.20001
-132.5 -5.8499999 -545.53998
-131.67999 -5.8299999 -544.22998
-131.07001 -5.8299999 -543.78003
-130.48 -5.8200002 -543.42999
-129.92999 -5.8200002 -543.19
-129.39 -5.8200002 -543.01001
-128.85001 -5.8200002 -542.84003
-128.32001 -5.8200002 -542.72998
-127.8 -5.8200002 -542.59003
-127.29 -5.8200002 -542.53998
-126.78 -5.8099999 -542.48999
-126.27 -5.8099999 -542.44
-125.74 -5.8099999 -542.29999
-125.21 -5.8099999 -542.16998
-124.68 -5.8099999 -542.01001
-124.16 -5.8099999 -541.92999
-123.67 -5.8099999 -541.96002
-123.14 -5.8099999 -541.81
-122.65 -5.8099999 -541.84998
-122.16 -5.8099999 -541.84998
-121.65 -5.8099999 -541.79999
-121.13 -5.8099999 -541.69
-120.63 -5.8099999 -541.65997
-120.14 -5.8099999 -541.69
-119.68 -5.8099999 -541.85999
-119.25 -5.8099999 -542.14001
-118.78 -5.8099999 -542.28998
-118.3 -5.8099999 -542.35999
-117.84 -5.8099999 -542.51001
-117.38 -5.8200002 -542.65997
-116.92 -5.8200002 -542.83002
-116.47 -5.8200002 -543.07001
-116 -5.8200002 -543.20001
-115.55 -5.8200002 -543.41998
-115.12 -5.8299999 -543.71002
-114.68 -5.8299999 -543.97998
-114.24 -5.8299999 -544.28998
-113.81 -5.8400002 -544.59998
-113.38 -5.8400002 -544.90002
-112.94 -5.8400002 -545.21002
-112.51 -5.8499999 -545.54999
-112.1 -5.8499999 -545.96002
-111.69 -5.8600001 -546.39001
-111.3 -5.8600001 -546.94
-110.89 -5.8699999 -547.37
-110.54 -5.8800001 -548.12
-110.16 -5.8800001 -548.72998
-109.82 -5.8899999 -549.52002
-109.45 -5.9000001 -550.16998
-93.059998 -5.8800001 -548.65997
-92.389999 -5.8699999 -547.69
-91.809998 -5.8600001 -547.22998
-91.230003 -5.8600001 -546.72998
-90.660004 -5.8600001 -546.34998
-90.089996 -5.8499999 -545.92999
-89.559998 -5.8499999 -545.73999
-89.029999 -5.8499999 -545.59003
-88.510002 -5.8499999 -545.45001
-87.980003 -5.8400002 -545.27002
-87.459999 -5.8400002 -545.15997
-86.949997 -5.8400002 -545.04999
-86.43 -5.8400002 -544.94
-85.910004 -5.8400002 -544.81
-85.389999 -5.8400002 -544.66998
-84.870003 -5.8400002 -544.58002
-84.370003 -5.8400002 -544.52002
-83.849998 -5.8299999 -544.40002
-83.339996 -5.8299999 -544.32001
-82.830002 -5.8299999 -544.28003
-82.330002 -5.8299999 -544.26001
-81.830002 -5.8299999 -544.22998
-81.32 -5.8299999 -544.19
-80.809998 -5.8299999 -544.10999
-80.32 -5.8299999 -544.17999
-79.82 -5.8299999 -544.09998
-79.32 -5.8299999 -544.09998
-78.82 -5.8299999 -544.14001
-78.330002 -5.8299999 -544.19
-77.830002 -5.8299999 -544.19
-77.339996 -5.8299999 -544.20001
-76.849998 -5.8299999 -544.28003
-76.360001 -5.8299999 -544.32001
-75.860001 -5.8299999 -544.34003
-75.370003 -5.8299999 -544.40997
-74.879997 -5.8299999 -544.45001
-74.389999 -5.8299999 -544.5
-73.900002 -5.8400002 -544.59998
-73.419998 -5.8400002 -544.69
-72.919998 -5.8400002 -544.69
-72.43 -5.8400002 -544.77002
-71.949997 -5.8400002 -544.89001
-71.459999 -5.8400002 -544.97998
-70.970001 -5.8400002 -545.03998
-70.480003 -5.8400002 -545.09003
-69.989998 -5.8400002 -545.15997
-69.510002 -5.8400002 -545.34003
-69.019997 -5.8400002 -545.41998
-68.529999 -5.8400002 -545.5
-68.050003 -5.8499999 -545.65002
-67.57 -5.8499999 -545.78003
-67.080002 -5.8499999 -545.83002
-66.589996 -5.8499999 -545.90997
-66.110001 -5.8499999 -546.09998
-65.620003 -5.8499999 -546.21002
-65.139999 -5.8499999 -546.37
-64.660004 -5.8600001 -546.52002
-64.18 -5.8600001 -546.69
-63.709999 -5.8600001 -546.95001
-63.240002 -5.8600001 -547.16998
-62.75 -5.8600001 -547.34003
-62.279999 -5.8699999 -547.53003
-61.790001 -5.8699999 -547.65997
-61.310001 -5.8699999 -547.88
-60.84 -5.8699999 -548.10999
-60.369999 -5.8800001 -548.40997
-59.889999 -5.8800001 -548.65997
-59.41 -5.8800001 -548.87
-58.93 -5.8800001 -549.07001
-58.470001 -5.8899999 -549.42999
-57.990002 -5.8899999 -549.69
