# .PCD v0.7 - Point Cloud Data file format
VERSION 0.7
FIELDS x y z
SIZE 4 4 4
TYPE F F F
COUNT 1 1 1
WIDTH 1699
HEIGHT 1
VIEWPOINT 0 0 0 1 0 0 0
POINTS 1699
DATA ascii
-86.050003 29.889999 -600.66998
-85.440002 29.870001 -600.23999
-84.800003 29.84 -599.63
-84.160004 29.809999 -598.98999
-83.489998 29.76 -598.13
-82.849998 29.73 -597.52002
-82.190002 29.690001 -596.71002
-81.559998 29.66 -596.13
-80.93 29.629999 -595.46997
-80.339996 29.610001 -595.15002
-79.830002 29.629999 -595.40997
-79.379997 29.66 -596.10999
-78.919998 29.700001 -596.78003
-78.459999 29.73 -597.45001
-78.050003 29.780001 -598.52002
-77.589996 29.82 -599.20001
-77.019997 29.809999 -598.97998
-76.400002 29.780001 -598.42999
-75.760002 29.74 -597.73999
-75.120003 29.709999 -597.03003
-67.589996 29.77 -598.23999
-67.150002 29.809999 -599.19
-66.660004 29.84 -599.70001
-66.139999 29.860001 -600
-65.599998 29.860001 -600.01001
-64.989998 29.83 -599.47998
-64.400002 29.809999 -599.15997
-63.849998 29.809999 -599.14001
-63.330002 29.83 -599.40997
-62.830002 29.85 -599.85999
-62.34 29.870001 -600.39001
-61.869999 29.92 -601.21002
-61.400002 29.950001 -601.94
-60.900002 29.98 -602.5
-60.369999 29.99 -602.71002
-59.860001 30.01 -603.15997
-59.369999 30.040001 -603.78003
-58.919998 30.1 -604.84003
-58.450001 30.139999 -605.72998
-57.93 30.16 -606.06
-57.400002 30.17 -606.31
-56.869999 30.18 -606.56
-56.330002 30.200001 -606.78003
-55.84 30.23 -607.44
-55.32 30.25 -607.91998
-54.810001 30.280001 -608.40997
-54.310001 30.309999 -609.03998
-53.84 30.360001 -609.97998
-53.34 30.389999 -610.72998
-52.82 30.42 -611.15002
-52.299999 30.440001 -611.56
-53.75 31.620001 -635.07001
-53.189999 31.639999 -635.33002
-52.66 31.67 -635.91998
-52.130001 31.700001 -636.56
-51.610001 31.74 -637.31
-51.07 31.77 -637.90997
-50.549999 31.809999 -638.72998
-50.02 31.84 -639.39001
-49.52 31.9 -640.47998
-49 31.940001 -641.35999
-48.490002 31.99 -642.35999
-47.970001 32.040001 -643.31
-47.450001 32.09 -644.27002
-46.939999 32.139999 -645.39001
-46.400002 32.18 -646.09003
-45.860001 32.209999 -646.77002
-45.310001 32.25 -647.42999
-44.779999 32.299999 -648.40997
-44.299999 32.380001 -650.01001
-43.849998 32.490002 -652.16998
-43.459999 32.639999 -655.27002
-42.959999 32.720001 -656.85999
-42.400002 32.75 -657.38
-7.5 33.150002 -665.33002
-6.8899999 33.169998 -665.69
-6.29 33.189999 -666.16998
-5.6799998 33.209999 -666.52002
-5.0700002 33.220001 -666.83002
-4.46 33.240002 -667.15997
-3.8499999 33.27 -667.71997
-3.24 33.290001 -668.06
-2.6300001 33.310001 -668.53998
-2.02 33.330002 -669.03003
-1.4 33.360001 -669.53003
-0.79000002 33.389999 -670.22998
-0.18000001 33.43 -670.96002
0.44 33.450001 -671.34003
1.0599999 33.48 -671.95001
1.6799999 33.52 -672.65002
22.379999 33.09 -664.15997
22.969999 33.060001 -663.60999
23.559999 33.040001 -663.19
24.15 33.02 -662.71002
24.75 33 -662.34998
25.34 32.98 -662.03003
25.950001 32.98 -662.09003
26.559999 32.98 -662.07001
27.17 32.990002 -662.14001
27.790001 33 -662.35999
28.4 33.009998 -662.52002
29.030001 33.029999 -662.96997
29.65 33.040001 -663.27002
30.27 33.060001 -663.51001
30.889999 33.07 -663.67999
31.51 33.080002 -664.03003
32.130001 33.09 -664.15997
32.75 33.099998 -664.37
33.369999 33.110001 -664.57001
33.990002 33.119999 -664.75
34.610001 33.130001 -664.90002
35.220001 33.130001 -665.03998
35.830002 33.130001 -665.04999
36.450001 33.139999 -665.15997
37.060001 33.139999 -665.13
37.66 33.130001 -665.02002
38.259998 33.119999 -664.83002
38.869999 33.119999 -664.75
39.470001 33.110001 -664.62
40.07 33.110001 -664.48999
40.669998 33.099998 -664.34998
41.27 33.09 -664.17999
41.880001 33.09 -664.09003
42.48 33.080002 -664
43.099998 33.09 -664.10999
43.700001 33.080002 -664.02002
44.310001 33.080002 -664.02002
44.93 33.09 -664.14001
45.540001 33.09 -664.15997
91.099998 33.939999 -680.87
91.529999 33.869999 -679.38
91.809998 33.740002 -676.90997
92.160004 33.639999 -674.91998
92.510002 33.549999 -673.02002
92.989998 33.5 -672.02002
93.5 33.459999 -671.22998
94.029999 33.43 -670.65002
94.580002 33.41 -670.16998
95.160004 33.389999 -669.94
95.730003 33.380001 -669.62
96.32 33.369999 -669.46002
96.940002 33.369999 -669.46002
97.580002 33.380001 -669.67999
98.279999 33.41 -670.25
98.980003 33.439999 -670.78998
99.75 33.490002 -671.82001
100.55 33.549999 -672.97998
101.45 33.639999 -674.84003
102.26 33.709999 -676.09998
-165.12 30.74 -628.62
-164.56 30.74 -628.67999
-163.86 30.719999 -628.19
-163.08 30.68 -627.41998
-94.790001 30.02 -614.26001
-94.050003 29.959999 -613.14001
-93.32 29.91 -612.01001
-92.610001 29.860001 -611.08002
-91.93 29.82 -610.26001
-90.959999 29.690001 -607.57001
-89.75 29.469999 -603.28003
-89.139999 29.450001 -602.85999
-88.510002 29.43 -602.39001
-87.879997 29.4 -601.85999
-87.260002 29.379999 -601.41998
-86.650002 29.360001 -600.98999
-86.029999 29.34 -600.52002
-85.410004 29.309999 -600.07001
-84.790001 29.290001 -599.53998
-84.150002 29.26 -598.92999
-83.470001 29.209999 -597.96997
-82.839996 29.18 -597.40997
-82.199997 29.15 -596.78998
-81.610001 29.129999 -596.42999
-81.010002 29.110001 -596.04999
-80.449997 29.110001 -595.96002
-79.940002 29.120001 -596.21002
-79.43 29.139999 -596.53003
-79.019997 29.190001 -597.53003
-78.610001 29.24 -598.59003
-78.209999 29.290001 -599.70001
-77.699997 29.309999 -600
-77.080002 29.280001 -599.46002
-76.440002 29.25 -598.79999
-75.870003 29.24 -598.57001
-75.459999 29.290001 -599.65997
-67.120003 29.25 -598.88
-66.660004 29.290001 -599.67999
-66.160004 29.309999 -600.15002
-65.610001 29.309999 -600.15002
-65.019997 29.290001 -599.78998
-64.440002 29.280001 -599.52002
-63.889999 29.280001 -599.46997
-63.360001 29.290001 -599.65002
-62.849998 29.309999 -600.03998
-62.360001 29.33 -600.58002
-61.880001 29.370001 -601.34998
-61.43 29.42 -602.32001
-60.93 29.440001 -602.76001
-60.400002 29.459999 -603.04999
-59.91 29.49 -603.67999
-59.400002 29.51 -604.08002
-58.950001 29.559999 -605.10999
-58.490002 29.610001 -606.10999
-57.959999 29.620001 -606.38
-57.419998 29.629999 -606.48999
-56.889999 29.639999 -606.78003
-56.380001 29.66 -607.26001
-55.869999 29.690001 -607.75
-55.34 29.709999 -608.14001
-54.84 29.73 -608.65997
-54.34 29.77 -609.34003
-53.869999 29.809999 -610.29999
-53.380001 29.85 -611.14001
-52.84 29.870001 -611.39001
-52.669998 30.09 -615.90997
-53.810001 31.08 -635.77002
-53.259998 31.1 -636.16998
-52.740002 31.129999 -636.92999
-52.200001 31.16 -637.37
-51.669998 31.190001 -638.09998
-51.130001 31.219999 -638.69
-50.630001 31.27 -639.65997
-50.099998 31.309999 -640.45001
-49.610001 31.360001 -641.62
-49.060001 31.4 -642.21997
-48.549999 31.440001 -643.21997
-48.029999 31.49 -644.07001
-47.52 31.540001 -645.15002
-46.970001 31.57 -645.75
-46.43 31.610001 -646.47998
-45.869999 31.629999 -647.01001
-45.34 31.67 -647.84998
-44.810001 31.719999 -648.78003
-44.34 31.809999 -650.66998
-43.900002 31.92 -652.91998
-43.529999 32.09 -656.26001
-43 32.139999 -657.37
-6.9000001 32.599998 -666.65997
-6.3000002 32.639999 -667.32001
-5.6900001 32.66 -667.73999
-5.0799999 32.669998 -668
-4.4699998 32.689999 -668.34003
-3.8599999 32.709999 -668.77002
-3.25 32.73 -669.22998
-2.6300001 32.75 -669.65002
-2.02 32.77 -669.96002
-1.41 32.790001 -670.39001
-0.79000002 32.810001 -670.84998
-0.18000001 32.830002 -671.22998
0.44 32.849998 -671.63
1.0599999 32.880001 -672.20001
1.6799999 32.919998 -672.97998
22.99 32.490002 -664.40002
23.59 32.470001 -664
24.18 32.450001 -663.47998
24.77 32.419998 -662.96002
25.370001 32.41 -662.75
25.969999 32.389999 -662.45001
26.57 32.389999 -662.37
27.18 32.389999 -662.44
27.790001 32.400002 -662.54999
28.41 32.41 -662.73999
29.040001 32.43 -663.16998
29.65 32.439999 -663.35999
30.27 32.450001 -663.56
30.9 32.470001 -663.87
31.52 32.48 -664.09003
32.130001 32.48 -664.26001
32.75 32.490002 -664.44
33.369999 32.5 -664.64001
33.990002 32.509998 -664.78998
34.610001 32.52 -664.91998
35.220001 32.52 -665.03998
35.84 32.529999 -665.08002
36.450001 32.529999 -665.09998
37.060001 32.529999 -665.09998
37.66 32.52 -664.97998
38.259998 32.509998 -664.81
38.869999 32.509998 -664.78998
39.48 32.509998 -664.83002
40.080002 32.5 -664.58002
40.68 32.5 -664.47998
41.279999 32.490002 -664.35999
41.900002 32.490002 -664.38
42.5 32.490002 -664.27002
43.119999 32.490002 -664.37
43.740002 32.5 -664.62
44.34 32.5 -664.47998
91.68 33.299999 -680.48999
92.169998 33.25 -679.48999
92.470001 33.130001 -677.14001
92.779999 33.02 -674.92999
93.199997 32.959999 -673.53998
93.720001 32.919998 -672.82001
94.230003 32.880001 -672.04999
94.75 32.849998 -671.38
95.32 32.830002 -671.01001
95.900002 32.82 -670.81
96.529999 32.82 -670.88
97.099998 32.810001 -670.57001
97.75 32.82 -670.79999
98.470001 32.860001 -671.51001
99.139999 32.869999 -671.85999
99.93 32.93 -673.02002
100.75 33 -674.34003
101.6 33.07 -675.84003
102.26 33.080002 -676.07001
-164.62 30.17 -628.89001
-163.88 30.139999 -628.26001
-96.120003 29.52 -615.54999
-95.410004 29.469999 -614.60999
-94.68 29.42 -613.57001
-93.989998 29.379999 -612.76001
-93.279999 29.33 -611.77002
-92.620003 29.299999 -611.15002
-91.959999 29.27 -610.46997
-91.330002 29.25 -610.04999
-89.800003 28.940001 -603.62
-89.150002 28.9 -602.95001
-88.519997 28.879999 -602.45001
-87.889999 28.85 -601.90002
-87.269997 28.83 -601.45001
-86.669998 28.809999 -601.09998
-86.019997 28.780001 -600.47998
-85.410004 28.76 -600.04999
-84.779999 28.74 -599.52002
-84.139999 28.700001 -598.88
-83.480003 28.67 -598.09003
-82.860001 28.639999 -597.53998
-82.230003 28.610001 -597.01001
-81.639999 28.6 -596.67999
-81.050003 28.58 -596.34003
-80.489998 28.58 -596.27002
-79.970001 28.58 -596.42999
-79.559998 28.629999 -597.45001
-79.199997 28.700001 -598.85999
-78.779999 28.75 -599.85999
-78.349998 28.790001 -600.72998
-77.779999 28.790001 -600.60999
-77.139999 28.75 -599.94
-76.5 28.719999 -599.21002
-75.889999 28.700001 -598.77002
-75.370003 28.709999 -598.96002
-74.849998 28.719999 -599.26001
-74.330002 28.73 -599.45001
-73.790001 28.73 -599.5
-73.260002 28.74 -599.65997
-72.720001 28.74 -599.73999
-66.650002 28.74 -599.60999
-66.169998 28.77 -600.27002
-65.639999 28.780001 -600.40002
-65.050003 28.76 -600.03003
-64.480003 28.75 -599.82001
-63.93 28.75 -599.85999
-63.389999 28.75 -599.98999
-62.889999 28.780001 -600.44
-62.400002 28.799999 -600.96997
-61.939999 28.85 -601.89001
-61.490002 28.889999 -602.83002
-60.970001 28.91 -603.20001
-60.459999 28.93 -603.60999
-59.939999 28.940001 -603.90002
-59.43 28.969999 -604.41998
-59 29.030001 -605.62
-58.540001 29.07 -606.57001
-58 29.08 -606.79999
-57.459999 29.09 -606.95001
-56.939999 29.110001 -607.28998
-56.41 29.120001 -607.56
-55.889999 29.139999 -607.96002
-55.360001 29.16 -608.34998
-54.869999 29.190001 -609.02002
-54.369999 29.23 -609.72998
-53.919998 29.280001 -610.85999
-53.41 29.309999 -611.42999
-52.869999 29.32 -611.70001
-53.889999 30.540001 -636.65997
-53.349998 30.559999 -637.19
-52.82 30.59 -637.79999
-52.279999 30.620001 -638.35999
-51.75 30.65 -639.02002
-51.23 30.690001 -639.84998
-50.720001 30.74 -640.77002
-50.200001 30.780001 -641.69
-49.669998 30.82 -642.42999
-49.130001 30.85 -643.10999
-48.630001 30.9 -644.19
-48.080002 30.93 -644.83002
-47.549999 30.969999 -645.54999
-47 31 -646.14001
-46.459999 31.030001 -646.85999
-45.900002 31.049999 -647.32001
-45.369999 31.1 -648.27002
-44.849998 31.15 -649.37
-44.400002 31.25 -651.40997
-43.970001 31.370001 -653.90002
-43.560001 31.51 -656.69
-42.970001 31.52 -656.91998
-6.9099998 32.02 -667.17999
-6.3000002 32.040001 -667.76001
-5.6900001 32.060001 -668.14001
-5.0799999 32.080002 -668.57001
-4.4699998 32.099998 -668.96997
-3.8599999 32.119999 -669.41998
-3.25 32.139999 -669.77002
-2.6400001 32.16 -670.12
-2.02 32.169998 -670.39001
-1.41 32.189999 -670.71997
-0.79000002 32.200001 -670.97998
-0.18000001 32.220001 -671.38
0.44 32.25 -671.90002
1.0599999 32.290001 -672.71997
1.6799999 32.34 -673.75
23.620001 31.9 -664.73999
24.209999 31.879999 -664.37
24.799999 31.85 -663.81
25.389999 31.83 -663.31
25.99 31.82 -663.04999
26.59 31.809999 -662.84003
27.190001 31.799999 -662.72998
27.799999 31.799999 -662.76001
28.42 31.82 -663.04999
29.040001 31.82 -663.20001
29.66 31.83 -663.40997
30.280001 31.84 -663.62
30.9 31.860001 -663.89001
31.51 31.870001 -664.07001
32.139999 31.879999 -664.35999
32.759998 31.889999 -664.59003
33.380001 31.9 -664.76001
34 31.91 -664.92999
34.610001 31.91 -665.03003
35.23 31.92 -665.08002
35.84 31.92 -665.17999
36.450001 31.92 -665.16998
37.060001 31.92 -665.15997
37.669998 31.91 -665.03998
38.279999 31.91 -665.03998
38.880001 31.91 -664.94
39.48 31.9 -664.79999
40.09 31.9 -664.69
40.689999 31.9 -664.66998
41.299999 31.9 -664.65002
41.91 31.9 -664.64001
42.529999 31.9 -664.78003
43.139999 31.9 -664.77002
43.740002 31.889999 -664.62
92.760002 32.619999 -679.29999
93.139999 32.529999 -677.5
93.5 32.439999 -675.67999
93.900002 32.360001 -674.09003
94.419998 32.330002 -673.35999
94.940002 32.299999 -672.66998
95.5 32.279999 -672.27002
96.080002 32.27 -672.06
96.709999 32.27 -672.09003
97.290001 32.259998 -671.87
97.949997 32.27 -672.16998
98.639999 32.290001 -672.62
99.370003 32.330002 -673.41998
100.18 32.389999 -674.65002
100.9 32.43 -675.31
101.56 32.439999 -675.59003
-164.59 29.59 -628.77002
-96.769997 28.98 -616.03998
-96.040001 28.93 -615.03003
-95.339996 28.889999 -614.16998
-94.629997 28.84 -613.22998
-93.949997 28.809999 -612.46997
-93.269997 28.77 -611.70001
-92.639999 28.75 -611.28998
-91.980003 28.719999 -610.59003
-91.379997 28.709999 -610.37
-90.129997 28.49 -605.79999
-89.150002 28.35 -602.96002
-88.519997 28.33 -602.46997
-87.900002 28.309999 -602
-87.269997 28.280001 -601.42999
-86.650002 28.26 -601
-86.029999 28.23 -600.48999
-85.410004 28.209999 -600.02002
-84.769997 28.18 -599.45001
-84.150002 28.16 -598.90002
-83.480003 28.120001 -598.09003
-82.860001 28.09 -597.53998
-82.239998 28.07 -597.02002
-81.660004 28.059999 -596.78998
-81.07 28.040001 -596.5
-80.519997 28.040001 -596.46002
-80.120003 28.09 -597.58002
-79.779999 28.16 -599.08002
-79.360001 28.209999 -600.07001
-78.989998 28.280001 -601.41998
-78.459999 28.280001 -601.59998
-77.839996 28.26 -601.09998
-77.190002 28.219999 -600.31
-76.550003 28.190001 -599.58002
-75.919998 28.16 -599.03003
-75.32 28.139999 -598.63
-74.75 28.129999 -598.45001
-74.199997 28.129999 -598.44
-73.639999 28.129999 -598.34003
-73.099998 28.129999 -598.40002
-72.589996 28.15 -598.75
-72.099998 28.17 -599.20001
-71.589996 28.18 -599.52002
-66.190002 28.23 -600.41998
-65.660004 28.23 -600.59003
-65.080002 28.219999 -600.34998
-64.5 28.209999 -600.09003
-63.950001 28.209999 -600.07001
-63.419998 28.209999 -600.21002
-62.91 28.23 -600.60999
-62.419998 28.26 -601.20001
-62 28.32 -602.5
-61.549999 28.370001 -603.40997
-61.02 28.379999 -603.65002
-60.490002 28.389999 -603.89001
-59.970001 28.41 -604.21997
-59.48 28.440001 -604.90997
-59.060001 28.5 -606.23999
-58.59 28.540001 -607.10999
-58.049999 28.549999 -607.34003
-57.5 28.559999 -607.35999
-56.959999 28.559999 -607.53003
-56.419998 28.57 -607.71002
-55.91 28.6 -608.23999
-55.389999 28.620001 -608.67999
-54.900002 28.65 -609.33002
-54.400002 28.68 -610.02002
-53.959999 28.75 -611.37
-53.439999 28.77 -611.84998
-52.900002 28.780001 -612.03998
-54.18 29.790001 -633.31
-53.98 30 -637.72998
-53.439999 30.030001 -638.21997
-52.900002 30.049999 -638.71997
-52.369999 30.08 -639.41998
-51.849998 30.120001 -640.27002
-51.32 30.16 -641.03003
-50.790001 30.190001 -641.65002
-50.27 30.23 -642.53003
-49.740002 30.27 -643.28003
-49.200001 30.299999 -643.97998
-48.66 30.33 -644.69
-48.110001 30.360001 -645.25
-47.57 30.389999 -645.94
-47.02 30.42 -646.44
-46.470001 30.450001 -647.07001
-45.919998 30.48 -647.71002
-45.400002 30.530001 -648.73999
-44.889999 30.59 -649.97998
-44.450001 30.690001 -652.22998
-44.040001 30.82 -654.96997
-6.9099998 31.41 -667.28998
-6.3000002 31.440001 -667.95001
-5.6999998 31.459999 -668.44
-5.0900002 31.49 -668.90002
-4.4699998 31.51 -669.33002
-3.8599999 31.530001 -669.76001
-3.25 31.549999 -670.17999
-2.6400001 31.559999 -670.40997
-2.02 31.57 -670.62
-1.41 31.57 -670.73999
-0.79000002 31.59 -671.15002
-0.18000001 31.620001 -671.70001
0.44 31.639999 -672.12
1.0599999 31.68 -673.04999
24.23 31.299999 -664.96002
24.83 31.280001 -664.54999
25.42 31.26 -664.09998
26.01 31.23 -663.54999
26.610001 31.219999 -663.40002
27.219999 31.219999 -663.33002
27.82 31.209999 -663.17999
28.43 31.219999 -663.26001
29.049999 31.219999 -663.40997
29.66 31.23 -663.54999
30.280001 31.24 -663.77002
30.9 31.25 -663.97998
31.52 31.26 -664.17999
32.150002 31.280001 -664.52002
32.759998 31.280001 -664.58002
33.380001 31.299999 -664.88
34 31.299999 -664.95001
34.610001 31.299999 -664.96997
35.220001 31.299999 -665.03003
35.84 31.309999 -665.16998
36.450001 31.309999 -665.20001
37.060001 31.309999 -665.07001
37.669998 31.299999 -665.07001
38.279999 31.299999 -665.03003
38.880001 31.299999 -665.02002
39.490002 31.299999 -664.91998
40.099998 31.299999 -664.88
40.709999 31.299999 -664.89001
41.32 31.299999 -664.95001
41.939999 31.309999 -665.12
42.549999 31.309999 -665.08002
43.150002 31.299999 -664.97998
93.82 31.93 -677.96002
94.269997 31.870001 -676.71002
94.68 31.799999 -675.22998
95.160004 31.75 -674.21997
95.709999 31.73 -673.78003
96.25 31.700001 -673.19
96.870003 31.709999 -673.23999
97.480003 31.700001 -673.14001
98.150002 31.719999 -673.53003
98.860001 31.75 -674.13
99.580002 31.780001 -674.77002
100.26 31.799999 -675.17999
100.88 31.799999 -675.21997
-97.360001 28.42 -616.21002
-96.690002 28.389999 -615.53003
-95.989998 28.35 -614.67999
-95.300003 28.309999 -613.92999
-94.620003 28.280001 -613.16998
-93.959999 28.25 -612.52002
-93.290001 28.209999 -611.83002
-92.669998 28.200001 -611.44
-92.029999 28.17 -610.95001
-91.400002 28.15 -610.48999
-90.599998 28.08 -608.92999
-89.43 27.889999 -604.84998
-88.529999 27.780001 -602.53998
-87.900002 27.75 -602
-87.269997 27.73 -601.42999
-86.650002 27.709999 -601.02002
-86.019997 27.68 -600.46002
-85.410004 27.66 -600.03998
-84.790001 27.639999 -599.57001
-84.150002 27.610001 -598.91998
-83.489998 27.57 -598.12
-82.860001 27.549999 -597.58002
-82.260002 27.530001 -597.21002
-81.68 27.52 -596.95001
-81.110001 27.51 -596.78003
-80.660004 27.540001 -597.53003
-80.360001 27.629999 -599.32001
-79.970001 27.68 -600.48999
-79.660004 27.77 -602.34003
-79.160004 27.780001 -602.66998
-78.529999 27.76 -602.13
-77.910004 27.73 -601.58002
-77.230003 27.690001 -600.65002
-76.610001 27.66 -600.09998
-75.980003 27.629999 -599.48999
-75.360001 27.610001 -598.92999
-74.769997 27.59 -598.57001
-74.18 27.58 -598.23999
-73.610001 27.57 -598.08002
-73.080002 27.58 -598.27002
-72.580002 27.6 -598.67999
-72.059998 27.6 -598.87
-71.529999 27.610001 -599.03003
-66.220001 27.690001 -600.65997
-65.690002 27.700001 -600.88
-65.120003 27.690001 -600.65997
-64.540001 27.68 -600.45001
-63.98 27.67 -600.35999
-63.459999 27.68 -600.59998
-62.950001 27.700001 -600.96002
-62.48 27.74 -601.73999
-62.07 27.799999 -603.09998
-61.580002 27.83 -603.75
-61.060001 27.85 -604.08002
-60.529999 27.860001 -604.32001
-60.02 27.879999 -604.71997
-59.540001 27.91 -605.42999
-59.130001 27.98 -606.95001
-58.619999 28 -607.46997
-58.060001 28 -607.40002
-57.52 28.01 -607.58002
-56.990002 28.02 -607.84003
-56.459999 28.030001 -608.09998
-55.93 28.049999 -608.40002
-55.419998 28.07 -608.96997
-54.93 28.110001 -609.67999
-54.450001 28.15 -610.60999
-53.990002 28.200001 -611.71997
-53.470001 28.219999 -612.15002
-53.09 28.32 -614.22998
-54.619999 29.440001 -638.28998
-54.07 29.469999 -638.76001
-53.529999 29.49 -639.34003
-53 29.52 -639.94
-52.48 29.559999 -640.75
-51.939999 29.59 -641.40997
-51.400002 29.620001 -641.96002
-50.869999 29.65 -642.73999
-50.330002 29.68 -643.31
-49.799999 29.709999 -644.03998
-49.25 29.74 -644.64001
-48.700001 29.77 -645.21997
-48.139999 29.790001 -645.62
-47.59 29.809999 -646.17999
-47.040001 29.84 -646.79999
-46.490002 29.860001 -647.28998
-45.959999 29.91 -648.22998
-45.450001 29.959999 -649.39001
-44.950001 30.02 -650.72998
-44.52 30.139999 -653.14001
-44.040001 30.219999 -654.97998
-6.3099999 30.84 -668.16998
-5.6999998 30.860001 -668.69
-5.0900002 30.879999 -669.16998
-4.48 30.91 -669.66998
-3.8699999 30.93 -670.12
-3.25 30.940001 -670.35999
-2.6400001 30.950001 -670.63
-2.02 30.959999 -670.75
-1.41 30.969999 -670.96002
-0.79000002 30.98 -671.22998
-0.18000001 31 -671.70001
0.44 31.02 -672.16998
1.0599999 31.08 -673.35999
24.85 30.690001 -665.04999
25.440001 30.67 -664.62
26.040001 30.66 -664.31
26.639999 30.65 -664.07001
27.24 30.629999 -663.81
27.84 30.629999 -663.67999
28.450001 30.629999 -663.77002
29.07 30.639999 -663.83002
29.68 30.639999 -663.90002
30.290001 30.65 -664.04999
30.92 30.66 -664.33002
31.530001 30.66 -664.41998
32.150002 30.67 -664.54999
32.77 30.68 -664.72998
33.380001 30.68 -664.84003
34 30.690001 -664.97998
34.610001 30.690001 -665.07001
35.23 30.700001 -665.13
35.84 30.700001 -665.20001
36.450001 30.700001 -665.21002
37.060001 30.700001 -665.15002
37.68 30.700001 -665.25
38.290001 30.700001 -665.22998
38.889999 30.700001 -665.17999
39.5 30.700001 -665.10999
40.119999 30.700001 -665.17999
40.73 30.700001 -665.22998
41.349998 30.709999 -665.34998
41.959999 30.709999 -665.35999
95.040001 31.299999 -677.76001
95.419998 31.219999 -676.03998
95.900002 31.17 -675.04999
96.440002 31.15 -674.52002
97.029999 31.139999 -674.34998
97.639999 31.129999 -674.23999
98.269997 31.139999 -674.32001
98.940002 31.16 -674.69
99.580002 31.16 -674.83002
100.23 31.17 -675.02002
-97.980003 27.870001 -616.56
-97.279999 27.83 -615.71997
-96.620003 27.809999 -615.14001
-95.940002 27.77 -614.41998
-95.290001 27.75 -613.82001
-94.620003 27.719999 -613.16998
-93.989998 27.690001 -612.71997
-93.330002 27.66 -612.07001
-92.690002 27.639999 -611.57001
-92.07 27.620001 -611.21002
-91.440002 27.610001 -610.78003
-90.839996 27.59 -610.46997
-90.010002 27.51 -608.71002
-88.760002 27.299999 -604.04999
-87.940002 27.209999 -602.23999
-87.260002 27.17 -601.40997
-86.650002 27.15 -600.97998
-86.019997 27.129999 -600.44
-85.410004 27.110001 -600.02002
-84.790001 27.09 -599.58002
-84.160004 27.059999 -599.01001
-83.529999 27.040001 -598.40997
-82.900002 27.01 -597.84998
-82.279999 26.99 -597.37
-81.720001 26.98 -597.25
-81.290001 27.02 -598.12
-80.959999 27.09 -599.69
-80.739998 27.209999 -602.13
-80.43 27.290001 -603.94
-79.860001 27.280001 -603.82001
-79.239998 27.26 -603.27002
-78.589996 27.23 -602.59998
-77.940002 27.190001 -601.79999
-77.279999 27.15 -601
-76.660004 27.129999 -600.5
-76.019997 27.1 -599.76001
-75.410004 27.08 -599.29999
-74.809998 27.059999 -598.89001
-74.220001 27.040001 -598.57001
-73.639999 27.030001 -598.33002
-73.099998 27.040001 -598.45001
-72.580002 27.049999 -598.67999
-72.059998 27.059999 -598.88
-71.510002 27.059999 -598.90002
-66.279999 27.16 -601.21002
-65.730003 27.16 -601.23999
-65.150002 27.15 -600.96997
-64.580002 27.139999 -600.78003
-64.029999 27.139999 -600.81
-63.509998 27.15 -601.06
-62.990002 27.17 -601.40002
-62.529999 27.209999 -602.20001
-62.130001 27.280001 -603.71997
-61.639999 27.299999 -604.28998
-61.110001 27.309999 -604.53003
-60.59 27.33 -604.90002
-60.07 27.35 -605.26001
-59.59 27.379999 -605.97998
-59.189999 27.450001 -607.56
-58.650002 27.459999 -607.70001
-58.09 27.459999 -607.69
-57.549999 27.469999 -607.90002
-57.009998 27.469999 -608.03998
-56.48 27.49 -608.37
-55.970001 27.51 -608.84003
-55.459999 27.530001 -609.38
-54.959999 27.57 -610.07001
-54.5 27.620001 -611.17999
-54.040001 27.66 -612.25
-53.5 27.68 -612.5
-54.439999 28.459999 -629.65002
-54.720001 28.91 -639.46997
-54.18 28.940001 -640.04999
-53.630001 28.959999 -640.45001
-53.099998 28.99 -641.15002
-52.549999 29.01 -641.62
-52.02 29.040001 -642.33002
-51.470001 29.07 -642.83002
-50.93 29.1 -643.46997
-50.369999 29.110001 -643.87
-49.830002 29.139999 -644.53998
-49.290001 29.17 -645.10999
-48.720001 29.190001 -645.46997
-48.16 29.209999 -645.90002
-47.630001 29.24 -646.66998
-47.060001 29.26 -647.07001
-46.52 29.290001 -647.81
-45.990002 29.33 -648.67999
-45.5 29.4 -650.04999
-45 29.469999 -651.57001
-44.549999 29.559999 -653.65997
-6.3099999 30.23 -668.29999
-5.6999998 30.25 -668.77002
-5.0900002 30.280001 -669.46002
-4.48 30.309999 -669.96002
-3.8699999 30.33 -670.39001
-3.25 30.34 -670.67999
-2.6400001 30.34 -670.67999
-2.02 30.35 -670.82001
-1.41 30.35 -671
-0.79000002 30.370001 -671.35999
-0.18000001 30.4 -671.95001
0.44 30.42 -672.42999
1.0599999 30.469999 -673.53998
25.459999 30.08 -665.09998
26.059999 30.07 -664.77002
26.67 30.07 -664.71997
27.26 30.049999 -664.34003
27.860001 30.040001 -664.21997
28.469999 30.040001 -664.22998
29.08 30.040001 -664.17999
29.690001 30.040001 -664.20001
30.299999 30.049999 -664.27002
30.92 30.049999 -664.45001
31.540001 30.07 -664.70001
32.16 30.07 -664.72998
32.779999 30.08 -664.94
33.389999 30.08 -665.02002
34 30.08 -665.07001
34.630001 30.09 -665.28003
35.240002 30.09 -665.27002
35.849998 30.1 -665.34003
36.459999 30.09 -665.27002
37.07 30.1 -665.31
37.689999 30.1 -665.40002
38.299999 30.1 -665.39001
38.91 30.1 -665.40002
39.529999 30.110001 -665.53003
40.130001 30.1 -665.40997
40.75 30.110001 -665.58002
96.540001 30.559999 -675.17999
97.139999 30.549999 -675.04999
97.699997 30.530001 -674.63
-98.620003 27.33 -616.98999
-97.919998 27.290001 -616.15997
-97.239998 27.26 -615.46997
-96.589996 27.23 -614.95001
-95.93 27.209999 -614.32001
-95.290001 27.18 -613.82001
-94.620003 27.15 -613.15002
-94 27.139999 -612.78003
-93.360001 27.110001 -612.28003
-92.730003 27.09 -611.84003
-92.089996 27.07 -611.35999
-91.489998 27.059999 -611.04999
-90.849998 27.030001 -610.54999
-90.260002 27.030001 -610.35999
-89.510002 26.969999 -609.08002
-88.349998 26.790001 -605.04999
-87.300003 26.639999 -601.69
-86.669998 26.610001 -601.14001
-86.050003 26.59 -600.65997
-85.419998 26.57 -600.13
-84.809998 26.540001 -599.66998
-84.220001 26.530001 -599.39001
-83.599998 26.51 -598.92999
-82.980003 26.49 -598.40002
-82.419998 26.48 -598.32001
-82.010002 26.530001 -599.37
-81.93 26.68 -602.78003
-81.589996 26.75 -604.28003
-81.169998 26.799999 -605.29999
-80.57 26.780001 -604.96997
-79.910004 26.75 -604.19
-79.279999 26.719999 -603.59998
-78.629997 26.690001 -602.89001
-77.980003 26.65 -602.15997
-77.349998 26.629999 -601.5
-76.720001 26.6 -600.90997
-76.050003 26.559999 -600.01001
-75.440002 26.540001 -599.52002
-74.809998 26.51 -598.95001
-74.220001 26.49 -598.59998
-73.650002 26.48 -598.39001
-73.089996 26.48 -598.32001
-72.529999 26.48 -598.21997
-71.980003 26.48 -598.21002
-66.300003 26.620001 -601.40002
-65.760002 26.620001 -601.5
-65.18 26.610001 -601.23999
-64.620003 26.610001 -601.17999
-64.07 26.610001 -601.19
-63.549999 26.620001 -601.41998
-63.040001 26.639999 -601.87
-62.59 26.68 -602.81
-62.200001 26.75 -604.40002
-61.689999 26.77 -604.84003
-61.16 26.780001 -605.03998
-60.639999 26.799999 -605.34998
-60.139999 26.82 -605.90997
-59.700001 26.870001 -607.13
-59.23 26.91 -607.95001
-58.669998 26.91 -607.91998
-58.110001 26.91 -607.95001
-57.57 26.92 -608.06
-57.049999 26.93 -608.45001
-56.52 26.950001 -608.73999
-56.009998 26.969999 -609.26001
-55.490002 26.99 -609.76001
-55.02 27.030001 -610.65002
-54.57 27.09 -611.92999
-54.07 27.120001 -612.54999
-53.610001 27.17 -613.77002
-55.349998 28.35 -640.02002
-54.82 28.379999 -640.59998
-54.259998 28.389999 -640.96002
-53.720001 28.42 -641.56
-53.18 28.440001 -642.10999
-52.639999 28.469999 -642.67999
-52.09 28.49 -643.15002
-51.529999 28.51 -643.52002
-50.98 28.530001 -644.12
-50.419998 28.549999 -644.41998
-49.860001 28.57 -644.85999
-49.290001 28.58 -645.19
-48.740002 28.6 -645.69
-48.189999 28.629999 -646.19
-47.639999 28.66 -646.87
-47.09 28.68 -647.46997
-46.560001 28.719999 -648.37
-46.02 28.76 -649.09998
-45.529999 28.82 -650.57001
-45.049999 28.9 -652.21997
-44.52 28.940001 -653.21997
-6.3099999 29.629999 -668.59998
-5.6999998 29.66 -669.21997
-5.0900002 29.690001 -669.83002
-4.48 29.709999 -670.35999
-3.8699999 29.73 -670.71997
-3.25 29.73 -670.87
-2.6400001 29.73 -670.87
-2.02 29.73 -670.90997
-1.41 29.75 -671.28003
-0.79000002 29.76 -671.52002
-0.18000001 29.780001 -671.91998
0.44 29.809999 -672.65997
1.0599999 29.860001 -673.72998
26.690001 29.48 -665.25
27.280001 29.469999 -664.95001
27.889999 29.459999 -664.77002
28.49 29.450001 -664.66998
29.1 29.459999 -664.67999
29.719999 29.459999 -664.72998
30.33 29.459999 -664.76001
30.940001 29.459999 -664.84003
31.559999 29.469999 -664.96997
32.169998 29.469999 -665.03998
32.790001 29.48 -665.13
33.400002 29.48 -665.26001
34.02 29.48 -665.32001
34.630001 29.49 -665.35999
35.25 29.49 -665.53003
35.869999 29.5 -665.62
36.470001 29.49 -665.48999
37.080002 29.49 -665.53998
37.709999 29.51 -665.76001
38.32 29.5 -665.72998
38.93 29.51 -665.78003
39.540001 29.5 -665.75
40.130001 29.49 -665.40997
-98.57 26.75 -616.67999
-97.910004 26.719999 -616.09998
-97.209999 26.68 -615.28003
-96.550003 26.66 -614.67999
-95.919998 26.639999 -614.25
-95.269997 26.610001 -613.71002
-94.610001 26.59 -613.08002
-94 26.57 -612.78998
-93.349998 26.549999 -612.23999
-92.730003 26.530001 -611.83002
-92.110001 26.52 -611.5
-91.489998 26.5 -611.06
-90.860001 26.48 -610.64001
-90.269997 26.469999 -610.40997
-89.660004 26.459999 -610.12
-89 26.43 -609.42999
-87.760002 26.219999 -604.77002
-86.709999 26.07 -601.41998
-86.080002 26.049999 -600.87
-85.43 26.02 -600.21002
-84.82 26 -599.78998
-84.230003 25.99 -599.46002
-83.629997 25.969999 -599.12
-83.059998 25.959999 -599
-82.779999 26.049999 -600.94
-82.849998 26.25 -605.39001
-82.449997 26.299999 -606.53003
-81.82 26.27 -606.01001
-81.199997 26.25 -605.47998
-80.580002 26.23 -605
-79.959999 26.209999 -604.52002
-79.32 26.18 -603.90002
-78.68 26.15 -603.22998
-78.040001 26.120001 -602.60999
-77.400002 26.09 -601.89001
-76.739998 26.059999 -601.08002
-76.010002 26 -599.73999
-75.360001 25.959999 -598.90997
-74.739998 25.93 -598.34998
-74.139999 25.92 -597.96997
-73.529999 25.889999 -597.44
-72.959999 25.889999 -597.31
-65.800003 26.09 -601.88
-65.209999 26.07 -601.53003
-64.660004 26.07 -601.47998
-64.120003 26.08 -601.62
-63.599998 26.09 -601.92999
-63.110001 26.110001 -602.48999
-62.700001 26.17 -603.83002
-62.27 26.23 -605.07001
-61.75 26.24 -605.37
-61.209999 26.25 -605.53003
-60.700001 26.27 -605.92999
-60.220001 26.299999 -606.76001
-59.810001 26.360001 -608.14001
-59.259998 26.370001 -608.28998
-58.700001 26.370001 -608.28003
-58.16 26.370001 -608.40002
-57.619999 26.379999 -608.57001
-57.09 26.389999 -608.85999
-56.549999 26.41 -609.12
-56.049999 26.43 -609.73999
-55.540001 26.450001 -610.22998
-55.080002 26.5 -611.31
-54.619999 26.549999 -612.48999
-54.09 26.57 -612.81
-55.470001 27.82 -641.34998
-54.900002 27.83 -641.57001
-54.360001 27.860001 -642.09998
-53.799999 27.870001 -642.53003
-53.240002 27.889999 -642.83002
-52.68 27.9 -643.21997
-52.119999 27.92 -643.54999
-51.560001 27.940001 -643.94
-51 27.950001 -644.27002
-50.439999 27.969999 -644.70001
-49.880001 27.99 -645.07001
-49.32 28 -645.48999
-48.759998 28.030001 -645.97998
-48.220001 28.049999 -646.62
-47.669998 28.08 -647.26001
-47.130001 28.110001 -647.98999
-46.610001 28.16 -648.96997
-46.09 28.200001 -649.97998
-45.580002 28.25 -651.21002
-45.040001 28.290001 -652.08002
-6.3099999 29.030001 -668.83002
-5.6999998 29.059999 -669.48999
-5.0900002 29.08 -670.08002
-4.48 29.110001 -670.60999
-3.8699999 29.120001 -670.87
-3.25 29.120001 -670.85999
-2.6400001 29.120001 -671.03998
-2.02 29.129999 -671.09003
-1.41 29.129999 -671.21002
-0.79000002 29.15 -671.60999
-0.18000001 29.17 -672.03003
0.44 29.209999 -672.89001
1.0599999 29.25 -674
27.9 28.860001 -665.01001
28.52 28.870001 -665.29999
29.129999 28.870001 -665.19
29.74 28.870001 -665.15002
30.35 28.870001 -665.20001
30.959999 28.870001 -665.21002
31.57 28.870001 -665.22998
32.18 28.870001 -665.29999
32.799999 28.870001 -665.33002
33.41 28.870001 -665.33002
34.02 28.879999 -665.46997
34.639999 28.889999 -665.59003
35.259998 28.889999 -665.65002
35.880001 28.9 -665.81
36.490002 28.9 -665.82001
37.099998 28.9 -665.83002
37.709999 28.9 -665.88
38.330002 28.9 -665.92999
-98.709999 26.219999 -617.54999
-97.970001 26.17 -616.51001
-97.220001 26.120001 -615.37
-96.550003 26.09 -614.66998
-95.910004 26.07 -614.19
-95.279999 26.049999 -613.75
-94.629997 26.030001 -613.21997
-94 26.01 -612.79999
-93.370003 25.99 -612.34003
-92.739998 25.969999 -611.91998
-92.110001 25.950001 -611.45001
-91.510002 25.940001 -611.21997
-90.889999 25.93 -610.81
-90.290001 25.91 -610.54999
-89.68 25.9 -610.19
-89.080002 25.889999 -609.97998
-88.370003 25.84 -608.92999
-87.339996 25.700001 -605.69
-86.349998 25.58 -602.75
-85.709999 25.549999 -602.10999
-85.029999 25.51 -601.26001
-84.43 25.5 -600.89001
-84.050003 25.549999 -602.08002
-83.839996 25.65 -604.53003
-83.68 25.77 -607.32001
-83.07 25.76 -606.98999
-82.440002 25.74 -606.46997
-81.860001 25.73 -606.28003
-81.230003 25.700001 -605.71002
-80.629997 25.690001 -605.39001
-79.989998 25.66 -604.75
-79.360001 25.639999 -604.20001
-78.720001 25.610001 -603.52002
-78.089996 25.59 -602.95001
-77.459999 25.559999 -602.37
-76.839996 25.540001 -601.83002
-65.800003 25.540001 -601.88
-65.260002 25.540001 -601.98999
-64.699997 25.540001 -601.92999
-64.169998 25.540001 -602.04999
-63.66 25.559999 -602.46997
-63.209999 25.6 -603.46002
-62.779999 25.65 -604.63
-62.330002 25.700001 -605.59003
-61.810001 25.709999 -605.91998
-61.279999 25.719999 -606.15997
-60.77 25.74 -606.63
-60.34 25.799999 -607.96002
-59.860001 25.83 -608.67999
-59.299999 25.83 -608.65002
-58.740002 25.83 -608.64001
-58.200001 25.83 -608.82001
-57.66 25.84 -608.97998
-57.130001 25.860001 -609.33002
-56.610001 25.870001 -609.71002
-56.09 25.889999 -610.10999
-55.59 25.92 -610.84003
-55.16 25.98 -612.23999
-54.669998 26.01 -612.96002
-54.540001 26.219999 -617.78998
-56.02 27.219999 -640.92999
-55.549999 27.27 -642.26001
-54.98 27.290001 -642.53003
-54.41 27.290001 -642.71997
-53.84 27.299999 -642.94
-53.27 27.309999 -643.21997
-52.720001 27.33 -643.65997
-52.16 27.35 -644.01001
-51.59 27.360001 -644.27002
-51.02 27.370001 -644.59998
-50.459999 27.389999 -644.96997
-49.889999 27.4 -645.31
-49.330002 27.42 -645.70001
-48.799999 27.459999 -646.53998
-48.25 27.48 -647.06
-47.720001 27.51 -647.89001
-47.18 27.549999 -648.62
-46.650002 27.59 -649.57001
-46.119999 27.620001 -650.40002
-45.59 27.66 -651.34003
-5.71 28.450001 -669.60999
-5.0999999 28.48 -670.38
-4.4899998 28.5 -670.90997
-3.8699999 28.51 -671.07001
-3.25 28.51 -670.96997
-2.6400001 28.51 -671.02002
-2.02 28.51 -671.16998
-1.41 28.530001 -671.46997
-0.79000002 28.540001 -671.75
-0.18000001 28.559999 -672.29999
0.44 28.6 -673.09998
29.74 28.26 -665.34003
30.370001 28.280001 -665.62
30.99 28.280001 -665.77002
31.58 28.27 -665.52002
32.189999 28.27 -665.5
32.82 28.280001 -665.76001
33.419998 28.27 -665.57001
34.040001 28.280001 -665.70001
34.650002 28.280001 -665.67999
35.259998 28.280001 -665.78998
35.880001 28.290001 -665.83002
36.48 28.280001 -665.63
-99.400002 25.68 -618.29999
-98.790001 25.67 -618.09003
-98.169998 25.66 -617.71002
-97.410004 25.610001 -616.53998
-96.550003 25.530001 -614.71002
-95.900002 25.51 -614.15002
-95.269997 25.49 -613.73999
-94.650002 25.469999 -613.33002
-94.040001 25.459999 -613.06
-93.410004 25.440001 -612.64001
-92.760002 25.42 -612.03003
-92.120003 25.4 -611.52002
-91.510002 25.379999 -611.20001
-90.879997 25.360001 -610.73999
-90.290001 25.35 -610.53003
-89.68 25.34 -610.21997
-89.099998 25.33 -610.07001
-88.489998 25.32 -609.73999
-87.919998 25.32 -609.71002
-87.239998 25.280001 -608.84003
-86.610001 25.26 -608.38
-86.010002 25.25 -608.07001
-85.459999 25.25 -608.12
-84.919998 25.26 -608.21997
-84.309998 25.24 -607.87
-83.690002 25.219999 -607.45001
-83.089996 25.209999 -607.09003
-82.489998 25.190001 -606.78998
-81.879997 25.18 -606.38
-81.260002 25.16 -605.95001
-80.660004 25.15 -605.63
-80.029999 25.120001 -605.09003
-79.389999 25.1 -604.46002
-78.769997 25.07 -603.94
-78.120003 25.040001 -603.19
-77.489998 25.02 -602.62
-76.959999 25.030001 -602.81
-65.790001 24.98 -601.78003
-65.269997 24.99 -602.07001
-64.739998 25 -602.27002
-64.230003 25.02 -602.69
-63.759998 25.049999 -603.37
-63.299999 25.09 -604.28003
-62.889999 25.139999 -605.65002
-62.389999 25.17 -606.22998
-61.860001 25.17 -606.40002
-61.34 25.190001 -606.79999
-60.849998 25.219999 -607.42999
-60.43 25.280001 -608.84003
-59.900002 25.290001 -609.03998
-59.34 25.290001 -609.09003
-58.779999 25.290001 -609.04999
-58.240002 25.290001 -609.22998
-57.700001 25.299999 -609.44
-57.18 25.32 -609.81
-56.639999 25.33 -610.06
-56.139999 25.35 -610.67999
-55.650002 25.389999 -611.46997
-55.23 25.450001 -612.96997
-54.700001 25.469999 -613.34998
-56.360001 26.51 -638.10999
-56.18 26.700001 -642.69
-55.59 26.709999 -642.76001
-55.02 26.709999 -642.96002
-54.450001 26.719999 -643.15997
-53.880001 26.73 -643.38
-53.299999 26.74 -643.60999
-52.740002 26.75 -643.90997
-52.169998 26.77 -644.21002
-51.610001 26.780001 -644.51001
-51.040001 26.790001 -644.84998
-50.48 26.809999 -645.22998
-49.919998 26.83 -645.63
-49.380001 26.85 -646.28998
-48.830002 26.879999 -646.89001
-48.290001 26.91 -647.59003
-47.759998 26.950001 -648.48999
-47.23 26.98 -649.25
-46.68 27.01 -649.96002
-46.110001 27.02 -650.34998
-5.71 27.85 -669.96002
-5.0999999 27.870001 -670.59998
-4.4899998 27.889999 -671.04999
-3.8699999 27.9 -671.10999
-3.25 27.889999 -671.07001
-2.6400001 27.9 -671.16998
-2.02 27.91 -671.34003
-1.41 27.91 -671.56
-0.79000002 27.93 -671.83002
-0.18000001 27.950001 -672.46002
0.44 27.99 -673.44
-98.809998 25.110001 -618.19
-98.25 25.110001 -618.22998
-97.650002 25.110001 -618.04999
-96.839996 25.040001 -616.51001
-95.949997 24.959999 -614.45001
-95.309998 24.940001 -613.98999
-94.68 24.92 -613.53998
-94.080002 24.91 -613.33002
-93.459999 24.889999 -612.96002
-92.839996 24.879999 -612.57001
-92.150002 24.84 -611.71997
-91.519997 24.82 -611.27002
-90.900002 24.809999 -610.85999
-90.290001 24.799999 -610.57001
-89.690002 24.780001 -610.27002
-89.089996 24.77 -610.03003
-88.489998 24.76 -609.78003
-87.900002 24.75 -609.54999
-87.290001 24.74 -609.16998
-86.699997 24.73 -608.96002
-86.099998 24.719999 -608.65997
-85.519997 24.709999 -608.57001
-84.910004 24.700001 -608.17999
-84.32 24.690001 -607.96002
-83.699997 24.67 -607.52002
-83.120003 24.66 -607.31
-82.519997 24.65 -607.04999
-81.910004 24.629999 -606.65002
-81.269997 24.610001 -606.04999
-80.669998 24.59 -605.70001
-80.059998 24.58 -605.26001
-79.440002 24.559999 -604.78998
-78.809998 24.530001 -604.20001
-78.18 24.51 -603.66998
-77.540001 24.48 -603.03003
-76.949997 24.469999 -602.71997
-76.43 24.48 -602.96002
-75.889999 24.48 -603.04999
-75.400002 24.5 -603.53998
-65.25 24.43 -601.83002
-64.809998 24.469999 -602.84998
-64.349998 24.51 -603.75
-63.849998 24.530001 -604.21997
-63.419998 24.58 -605.40002
-62.990002 24.629999 -606.57001
-62.470001 24.639999 -606.91998
-61.93 24.65 -607.15002
-61.419998 24.67 -607.62
-60.98 24.709999 -608.72998
-60.490002 24.74 -609.40997
-59.939999 24.74 -609.45001
-59.380001 24.74 -609.46002
-58.82 24.75 -609.52002
-58.279999 24.75 -609.71002
-57.75 24.76 -609.96002
-57.220001 24.780001 -610.29999
-56.709999 24.799999 -610.77002
-56.209999 24.82 -611.40002
-55.740002 24.870001 -612.46997
-55.279999 24.91 -613.57001
-56.790001 26.120001 -642.91998
-56.189999 26.120001 -642.84003
-55.610001 26.120001 -642.94
-55.040001 26.129999 -643.17999
-54.470001 26.139999 -643.42999
-53.900002 26.15 -643.67999
-53.330002 26.16 -643.90002
-52.77 26.18 -644.22998
-52.200001 26.190001 -644.52002
-51.639999 26.200001 -644.89001
-51.07 26.219999 -645.21997
-50.509998 26.23 -645.60999
-49.959999 26.26 -646.20001
-49.419998 26.280001 -646.78003
-48.880001 26.309999 -647.48999
-48.34 26.34 -648.23999
-47.799999 26.370001 -648.90997
-47.23 26.389999 -649.35999
-46.66 26.4 -649.67999
-5.71 27.25 -670.28003
-5.0999999 27.27 -670.85999
-4.4899998 27.280001 -671.13
-3.8699999 27.280001 -671.22998
-3.26 27.290001 -671.25
-2.6400001 27.290001 -671.28003
-2.02 27.290001 -671.40997
-1.41 27.299999 -671.66998
-0.79000002 27.32 -672.07001
-0.18000001 27.34 -672.63
0.44 27.389999 -673.75
-98.730003 24.52 -617.67999
-98.230003 24.540001 -618.09003
-97.68 24.540001 -618.19
-97.099998 24.540001 -618.10999
-96.25 24.469999 -616.37
-95.410004 24.4 -614.59998
-94.699997 24.360001 -613.70001
-94.099998 24.35 -613.42999
-93.489998 24.34 -613.13
-92.889999 24.33 -612.91998
-92.25 24.309999 -612.38
-91.559998 24.280001 -611.53998
-90.900002 24.25 -610.88
-90.279999 24.23 -610.5
-89.68 24.219999 -610.25
-89.099998 24.219999 -610.06
-88.489998 24.200001 -609.76001
-87.889999 24.190001 -609.47998
-87.290001 24.18 -609.16998
-86.690002 24.17 -608.90002
-86.089996 24.16 -608.59003
-85.5 24.15 -608.41998
-84.910004 24.139999 -608.19
-84.32 24.129999 -607.95001
-83.720001 24.120001 -607.60999
-83.120003 24.1 -607.32001
-82.519997 24.09 -607.01001
-81.919998 24.08 -606.72998
-81.290001 24.059999 -606.19
-80.68 24.040001 -605.76001
-80.07 24.02 -605.35999
-79.470001 24.01 -605
-78.830002 23.99 -604.39001
-78.220001 23.969999 -604
-77.589996 23.940001 -603.39001
-76.970001 23.92 -602.84003
-76.370003 23.91 -602.51001
-75.800003 23.9 -602.35999
-75.260002 23.91 -602.46002
-74.709999 23.91 -602.45001
-74.139999 23.9 -602.31
-64.860001 23.940001 -603.40002
-64.389999 23.969999 -604.09003
-63.91 24 -604.85999
-63.580002 24.08 -606.90002
-63.060001 24.1 -607.28003
-62.509998 24.1 -607.38
-62 24.120001 -607.77002
-61.529999 24.15 -608.65997
-61.09 24.200001 -609.77002
-60.540001 24.200001 -609.87
-59.970001 24.200001 -609.79999
-59.419998 24.200001 -609.84998
-58.880001 24.209999 -610.06
-58.330002 24.219999 -610.22998
-57.790001 24.219999 -610.44
-57.290001 24.25 -610.96002
-56.759998 24.26 -611.37
-56.279999 24.290001 -612.15997
-55.84 24.35 -613.46997
-55.75 24.559999 -618.72998
-57.32 25.51 -642.25
-56.799999 25.540001 -643.09998
-56.220001 25.540001 -643.21997
-55.639999 25.549999 -643.32001
-55.07 25.559999 -643.5
-54.490002 25.559999 -643.67999
-53.919998 25.57 -643.90002
-53.349998 25.58 -644.16998
-52.779999 25.59 -644.45001
-52.220001 25.610001 -644.82001
-51.66 25.620001 -645.17999
-51.110001 25.639999 -645.65002
-50.549999 25.66 -646.04999
-50.009998 25.68 -646.71997
-49.450001 25.709999 -647.23999
-48.91 25.73 -647.90002
-48.349998 25.75 -648.40002
-47.779999 25.76 -648.65997
-5.7199998 26.65 -670.84003
-5.0999999 26.67 -671.28998
-4.4899998 26.67 -671.31
-3.8699999 26.67 -671.29999
-3.26 26.67 -671.26001
-2.6400001 26.67 -671.39001
-2.02 26.68 -671.52002
-1.41 26.690001 -671.78003
-0.79000002 26.709999 -672.20001
-0.18000001 26.73 -672.76001
0.44 26.780001 -673.95001
-98.18 23.959999 -617.79999
-97.669998 23.98 -618.15997
-97.110001 23.98 -618.19
-96.529999 23.969999 -618.10999
-95.75 23.92 -616.73999
-94.870003 23.84 -614.77002
-94.139999 23.799999 -613.67999
-93.529999 23.790001 -613.39001
-92.919998 23.780001 -613.10999
-92.330002 23.77 -612.90002
-91.720001 23.76 -612.62
-91.050003 23.73 -611.85999
-90.370003 23.700001 -611.09998
-89.709999 23.67 -610.40997
-89.089996 23.65 -610.02002
-88.510002 23.65 -609.87
-87.910004 23.639999 -609.60999
-87.300003 23.629999 -609.28998
-86.699997 23.610001 -609
-86.099998 23.6 -608.66998
-85.519997 23.59 -608.52002
-84.919998 23.58 -608.22998
-84.330002 23.57 -608
-83.720001 23.559999 -607.63
-83.129997 23.549999 -607.40002
-82.529999 23.540001 -607.07001
-81.919998 23.52 -606.71002
-81.309998 23.51 -606.31
-80.709999 23.49 -605.96002
-80.089996 23.48 -605.53003
-79.5 23.459999 -605.22998
-78.870003 23.440001 -604.70001
-78.269997 23.43 -604.31
-77.660004 23.41 -603.89001
-77.040001 23.389999 -603.38
-76.419998 23.370001 -602.88
-75.82 23.360001 -602.47998
-75.209999 23.34 -602.09998
-74.610001 23.32 -601.71002
-64.410004 23.43 -604.31
-64.150002 23.530001 -607.07001
-63.66 23.559999 -607.65997
-63.139999 23.57 -607.98999
-62.599998 23.58 -608.20001
-62.110001 23.6 -608.85999
-61.68 23.65 -610.14001
-61.150002 23.66 -610.38
-60.580002 23.66 -610.26001
-60.02 23.66 -610.29999
-59.470001 23.66 -610.38
-58.919998 23.67 -610.53998
-58.389999 23.68 -610.82001
-57.860001 23.690001 -611.10999
-57.34 23.709999 -611.53998
-56.82 23.73 -611.97998
-56.380001 23.780001 -613.31
-55.91 23.82 -614.29999
-57.610001 24.790001 -639.06
-57.419998 24.959999 -643.39001
-56.830002 24.959999 -643.38
-56.25 24.959999 -643.46997
-55.669998 24.969999 -643.67999
-55.09 24.98 -643.81
-54.529999 24.99 -644.12
-53.950001 25 -644.29999
-53.380001 25.01 -644.56
-52.82 25.02 -644.91998
-52.259998 25.030001 -645.21997
-51.700001 25.049999 -645.65997
-51.150002 25.07 -646.17999
-50.580002 25.08 -646.53998
-50.029999 25.110001 -647.09998
-49.470001 25.120001 -647.47998
-48.900002 25.129999 -647.71997
-48.299999 25.129999 -647.71002
-5.7199998 26.040001 -671.04999
-5.0999999 26.059999 -671.40002
-4.4899998 26.059999 -671.44
-3.8699999 26.059999 -671.39001
-3.26 26.059999 -671.37
-2.6400001 26.059999 -671.42999
-2.02 26.07 -671.69
-1.41 26.09 -672.07001
-0.79000002 26.1 -672.5
-0.18000001 26.120001 -673.07001
0.44 26.16 -674.08002
-97.589996 23.389999 -617.64001
-97.089996 23.41 -618.09003
-96.540001 23.41 -618.16998
-95.980003 23.41 -618.21997
-95.239998 23.370001 -617.12
-94.389999 23.299999 -615.28003
-93.57 23.23 -613.64001
-92.940002 23.219999 -613.21997
-92.330002 23.209999 -612.90002
-91.760002 23.200001 -612.84998
-91.169998 23.200001 -612.67999
-90.550003 23.18 -612.31
-89.849998 23.15 -611.34003
-89.18 23.120001 -610.62
-88.540001 23.1 -610.07001
-87.919998 23.08 -609.69
-87.330002 23.07 -609.42999
-86.739998 23.059999 -609.21997
-86.120003 23.049999 -608.82001
-85.519997 23.040001 -608.53003
-84.919998 23.030001 -608.22998
-84.330002 23.02 -608
-83.720001 23 -607.67999
-83.129997 22.99 -607.40002
-82.529999 22.98 -607.08002
-81.93 22.969999 -606.76001
-81.32 22.950001 -606.38
-80.720001 22.940001 -606.03003
-80.120003 22.93 -605.71002
-79.519997 22.92 -605.44
-78.900002 22.9 -604.94
-78.290001 22.879999 -604.47998
-77.68 22.860001 -604.04999
-77.059998 22.84 -603.56
-76.43 22.82 -603.01001
-75.809998 22.799999 -602.40997
-75.160004 22.77 -601.65002
-64.809998 23.01 -607.97998
-64.269997 23.02 -608.20001
-63.73 23.02 -608.31
-63.200001 23.040001 -608.59998
-62.720001 23.059999 -609.31
-62.279999 23.110001 -610.52002
-61.75 23.120001 -610.75
-61.18 23.120001 -610.73999
-60.619999 23.110001 -610.65997
-60.060001 23.120001 -610.73999
-59.509998 23.120001 -610.84003
-58.970001 23.129999 -611.04999
-58.439999 23.139999 -611.37
-57.91 23.15 -611.67999
-57.400002 23.17 -612.16998
-56.91 23.200001 -612.94
-56.490002 23.26 -614.48999
-58.029999 24.379999 -643.62
-57.43 24.379999 -643.57001
-56.860001 24.379999 -643.71002
-56.279999 24.389999 -643.84998
-55.700001 24.389999 -643.98999
-55.130001 24.4 -644.26001
-54.560001 24.41 -644.48999
-53.98 24.42 -644.63
-53.419998 24.43 -645.03003
-52.860001 24.450001 -645.35999
-52.310001 24.469999 -645.89001
-51.75 24.48 -646.21997
-51.189999 24.5 -646.65002
-50.610001 24.5 -646.90002
-50.02 24.51 -646.96997
-49.43 24.51 -646.97998
-5.7199998 25.440001 -671.37
-5.1100001 25.450001 -671.52002
-4.4899998 25.450001 -671.58002
-3.8699999 25.450001 -671.46002
-3.26 25.450001 -671.5
-2.6400001 25.450001 -671.57001
-2.03 25.459999 -671.81
-1.41 25.469999 -672.04999
-0.79000002 25.49 -672.59003
-0.18000001 25.52 -673.46002
0.44 25.559999 -674.34998
-146.67999 21.549999 -583.47998
-145.82001 21.5 -582.19
-144.97 21.450001 -580.96997
-144.28 21.43 -580.33002
-97.019997 22.82 -617.64001
-96.510002 22.84 -617.98999
-95.970001 22.84 -618.15997
-95.43 22.85 -618.34003
-94.790001 22.83 -617.90002
-93.93 22.76 -615.96002
-93.120003 22.700001 -614.40997
-92.360001 22.65 -613.13
-91.760002 22.639999 -612.88
-91.169998 22.629999 -612.65002
-90.599998 22.629999 -612.59998
-90.010002 22.629999 -612.46002
-89.389999 22.610001 -612.04999
-88.760002 22.59 -611.58002
-88.099998 22.57 -610.92999
-87.410004 22.540001 -610.04999
-86.769997 22.51 -609.47998
-86.139999 22.5 -608.96997
-85.540001 22.48 -608.65002
-84.940002 22.469999 -608.40997
-84.349998 22.469999 -608.17999
