# .PCD v0.7 - Point Cloud Data file format
VERSION 0.7
FIELDS x y z
SIZE 4 4 4
TYPE F F F
COUNT 1 1 1
WIDTH 1719
HEIGHT 1
VIEWPOINT 0 0 0 1 0 0 0
POINTS 1719
DATA ascii
-0.75999999 -113.34 -644.22998
-0.17 -113.43 -644.72998
0.41999999 -113.52 -645.21002
1.02 -113.58 -645.54999
1.61 -113.67 -646.06
2.2 -113.75 -646.52002
2.8 -113.79 -646.76001
3.4000001 -113.91 -647.44
3.99 -114.01 -647.97998
4.5900002 -114.15 -648.77002
5.1900001 -114.27 -649.41998
5.8000002 -114.39 -650.12
6.4000001 -114.47 -650.54999
7 -114.57 -651.09003
7.6100001 -114.72 -651.97998
8.2200003 -114.83 -652.56
8.8199997 -114.96 -653.28998
9.4300003 -115.01 -653.59998
10.03 -115.08 -653.96997
10.64 -115.19 -654.59003
11.26 -115.29 -655.16998
11.86 -115.37 -655.62
12.47 -115.42 -655.88
13.08 -115.5 -656.33002
13.68 -115.49 -656.26001
90.489998 -112.13 -637.34003
90.989998 -112.02 -636.71997
91.459999 -111.88 -635.91998
91.970001 -111.79 -635.41998
92.510002 -111.74 -635.14001
93.040001 -111.67 -634.78003
93.599998 -111.65 -634.64001
94.139999 -111.6 -634.37
94.720001 -111.6 -634.38
95.290001 -111.58 -634.25
95.879997 -111.6 -634.34003
96.459999 -111.59 -634.28998
97.080002 -111.63 -634.53998
97.75 -111.73 -635.08002
98.419998 -111.84 -635.69
99.110001 -111.95 -636.34998
-154.58 -106.66 -603.71997
-154 -106.64 -603.62
-153.52 -106.69 -603.90002
-153.03 -106.74 -604.13
-152.59 -106.82 -604.59998
-152.09 -106.86 -604.81
-151.77 -107.02 -605.72998
-151.32001 -107.1 -606.15002
-150.86 -107.16 -606.48999
-150.49001 -107.3 -607.26001
-149.98 -107.33 -607.44
-149.55 -107.42 -607.92999
-149.2 -107.57 -608.76001
-149.25 -108.01 -611.20001
-148.81 -108.1 -611.67999
-148.47 -108.26 -612.59998
-147.89999 -108.25 -612.56
-135.75999 -99.75 -565.13
-135.11 -99.650002 -564.58002
-134.17999 -99.339996 -562.84998
-133.3 -99.07 -561.34998
-132.44 -98.82 -559.92999
-131.59 -98.559998 -558.51001
-130.62 -98.220001 -556.58002
-129.61 -97.839996 -554.48999
-128.99001 -97.760002 -554.01001
-128.44 -97.720001 -553.81
-127.87 -97.68 -553.56
-127.3 -97.620003 -553.25
-126.74 -97.580002 -553.03998
-126.2 -97.559998 -552.90997
-125.67 -97.540001 -552.78998
-125.13 -97.519997 -552.65997
-124.6 -97.5 -552.54999
-124.06 -97.470001 -552.37
-123.5 -97.43 -552.15002
-122.96 -97.400002 -551.98999
-122.42 -97.370003 -551.83002
-121.9 -97.360001 -551.75
-121.37 -97.339996 -551.63
-120.85 -97.32 -551.56
-120.33 -97.309998 -551.48999
-119.79 -97.290001 -551.37
-119.27 -97.279999 -551.29999
-118.77 -97.279999 -551.29999
-118.25 -97.260002 -551.21997
-117.75 -97.269997 -551.27002
-117.23 -97.260002 -551.19
-116.71 -97.239998 -551.09003
-116.19 -97.230003 -551.02002
-115.67 -97.220001 -550.96002
-115.16 -97.220001 -550.95001
-114.66 -97.220001 -550.97998
-114.17 -97.230003 -551
-113.69 -97.25 -551.12
-113.2 -97.260002 -551.19
-112.69 -97.260002 -551.19
-112.17 -97.25 -551.10999
-111.67 -97.25 -551.13
-111.17 -97.25 -551.15002
-110.66 -97.25 -551.13
-110.17 -97.260002 -551.19
-109.68 -97.269997 -551.25
-109.21 -97.300003 -551.41998
-108.73 -97.32 -551.53998
-108.22 -97.330002 -551.56
-107.73 -97.330002 -551.59003
-107.24 -97.349998 -551.70001
-106.75 -97.370003 -551.78998
-106.27 -97.389999 -551.88
-105.77 -97.400002 -551.94
-105.31 -97.43 -552.15002
-104.82 -97.440002 -552.21002
-104.31 -97.449997 -552.22998
-103.84 -97.480003 -552.39001
-103.36 -97.5 -552.53998
-102.88 -97.529999 -552.69
-102.41 -97.559998 -552.85999
-101.94 -97.589996 -553.03003
-101.45 -97.610001 -553.15002
-100.97 -97.629997 -553.26001
-100.5 -97.68 -553.5
-100.03 -97.709999 -553.66998
-99.550003 -97.730003 -553.81
-99.07 -97.760002 -553.97998
-98.599998 -97.800003 -554.19
-98.139999 -97.849998 -554.46002
-97.68 -97.889999 -554.70001
-97.239998 -97.959999 -555.09003
-96.790001 -98.019997 -555.42999
-96.349998 -98.099998 -555.84003
-95.900002 -98.150002 -556.13
-95.440002 -98.209999 -556.46002
-94.970001 -98.25 -556.69
-94.489998 -98.279999 -556.85999
-94.040001 -98.339996 -557.21002
-93.57 -98.379997 -557.44
-93.120003 -98.449997 -557.78998
-92.660004 -98.5 -558.10999
-92.230003 -98.580002 -558.54999
-91.790001 -98.660004 -558.96997
-91.330002 -98.720001 -559.34003
-90.889999 -98.800003 -559.73999
-90.440002 -98.860001 -560.12
-90 -98.949997 -560.59998
-89.559998 -99.029999 -561.03998
-89.120003 -99.110001 -561.46997
-88.68 -99.190002 -561.94
-88.25 -99.279999 -562.46997
-87.809998 -99.379997 -562.97998
-87.389999 -99.480003 -563.54999
-86.970001 -99.589996 -564.17999
-86.550003 -99.709999 -564.83002
-86.129997 -99.809998 -565.41998
-85.720001 -99.940002 -566.12
-85.339996 -100.1 -567.02002
-84.910004 -100.21 -567.62
-75.580002 -116.25 -657.04999
-74.849998 -116.06 -656.01001
-74.150002 -115.9 -655.10999
-73.470001 -115.79 -654.48999
-72.82 -115.71 -654.06
-72.169998 -115.63 -653.60999
-71.470001 -115.47 -652.70001
-70.82 -115.37 -652.20001
-67.860001 -112.46 -635.94
-67.050003 -112.09 -633.85999
-66.410004 -111.98 -633.28998
-65.800003 -111.93 -632.98999
-65.18 -111.86 -632.62
-64.57 -111.81 -632.31
-63.98 -111.79 -632.21002
-63.419998 -111.83 -632.44
-62.84 -111.83 -632.45001
-62.25 -111.81 -632.34998
-61.66 -111.79 -632.22998
-61.07 -111.78 -632.15997
-60.5 -111.8 -632.26001
-59.91 -111.78 -632.19
-59.32 -111.77 -632.09998
-58.75 -111.77 -632.12
-58.16 -111.77 -632.09998
-57.599998 -111.81 -632.33002
-57.02 -111.8 -632.27002
-56.419998 -111.77 -632.09998
-55.810001 -111.71 -631.76001
-55.209999 -111.67 -631.56
-54.599998 -111.6 -631.15997
-54.029999 -111.61 -631.21997
-53.419998 -111.56 -630.95001
-52.830002 -111.53 -630.78003
-52.240002 -111.51 -630.66998
-51.66 -111.49 -630.58002
-51.07 -111.47 -630.46002
-50.490002 -111.47 -630.45001
-49.900002 -111.46 -630.38
-49.310001 -111.42 -630.17999
-48.740002 -111.44 -630.27002
-48.16 -111.44 -630.28998
-47.580002 -111.43 -630.23999
-47 -111.42 -630.21002
-46.43 -111.44 -630.28003
-45.860001 -111.46 -630.40997
-45.279999 -111.46 -630.39001
-44.689999 -111.44 -630.28998
-44.119999 -111.45 -630.37
-43.540001 -111.46 -630.41998
-42.98 -111.49 -630.59998
-42.400002 -111.49 -630.56
-41.82 -111.49 -630.58002
-41.259998 -111.53 -630.82001
-40.689999 -111.57 -631.03998
-40.110001 -111.57 -631.03003
-39.540001 -111.58 -631.07001
-38.98 -111.63 -631.35999
-38.400002 -111.64 -631.42999
-37.82 -111.65 -631.47998
-37.259998 -111.7 -631.76001
-36.68 -111.69 -631.72998
-36.099998 -111.7 -631.73999
-35.52 -111.69 -631.71997
-34.950001 -111.73 -631.95001
-34.389999 -111.8 -632.33002
-33.810001 -111.8 -632.33002
-33.240002 -111.82 -632.41998
-32.68 -111.89 -632.84003
-32.110001 -111.94 -633.09998
-31.540001 -111.95 -633.15997
-30.959999 -111.96 -633.21002
-30.389999 -111.99 -633.40002
-29.82 -112.05 -633.73999
-29.25 -112.11 -634.06
-28.68 -112.14 -634.23999
-28.110001 -112.19 -634.51001
-27.530001 -112.21 -634.59998
-26.969999 -112.28 -634.96997
-26.4 -112.33 -635.27002
-25.83 -112.4 -635.65997
-25.26 -112.44 -635.90997
-24.690001 -112.53 -636.39001
-24.120001 -112.59 -636.71997
-23.549999 -112.65 -637.07001
-22.98 -112.74 -637.57001
-22.42 -112.85 -638.16998
-21.84 -112.87 -638.32001
-21.24 -112.82 -638.02002
-20.66 -112.82 -638
-20.07 -112.83 -638.09003
-19.5 -112.88 -638.37
-18.92 -112.95 -638.77002
-18.34 -112.98 -638.91998
-17.75 -112.93 -638.63
-17.16 -112.91 -638.51001
-16.57 -112.89 -638.41998
-15.98 -112.9 -638.44
-15.4 -112.93 -638.64001
-14.82 -112.97 -638.88
-14.24 -113 -639.04999
-13.65 -112.96 -638.81
-13.06 -112.92 -638.59998
-12.47 -112.91 -638.53998
-11.89 -112.97 -638.84003
-11.31 -112.99 -638.95001
-10.72 -113.01 -639.07001
-10.14 -113.03 -639.21002
-9.5600004 -113.09 -639.53003
-8.9700003 -113.14 -639.78998
-8.3900003 -113.13 -639.76001
-7.8000002 -113.19 -640.10999
-7.2199998 -113.28 -640.58002
-6.6399999 -113.34 -640.91998
-6.0599999 -113.46 -641.58002
-5.4699998 -113.52 -641.90997
-4.8800001 -113.57 -642.19
-4.29 -113.6 -642.39001
-3.71 -113.66 -642.69
-3.1199999 -113.72 -643.07001
-2.53 -113.84 -643.70001
-1.9400001 -113.91 -644.10999
-1.35 -113.99 -644.57001
-0.75999999 -114.06 -644.95001
-0.17 -114.11 -645.20001
0.41999999 -114.17 -645.58002
1.02 -114.25 -645.96997
1.61 -114.33 -646.44
2.21 -114.43 -647.03003
2.8 -114.52 -647.51001
3.4000001 -114.6 -647.92999
4 -114.69 -648.44
4.5999999 -114.84 -649.27002
5.1999998 -114.93 -649.78998
5.8000002 -115.09 -650.69
6.4099998 -115.22 -651.40002
7.0100002 -115.31 -651.90002
7.6100001 -115.41 -652.45001
8.2200003 -115.5 -652.97998
8.8299999 -115.62 -653.64001
9.4399996 -115.71 -654.15997
10.04 -115.77 -654.45001
10.65 -115.85 -654.94
11.26 -115.94 -655.42999
11.87 -116.03 -655.90997
12.48 -116.08 -656.21002
90.470001 -112.69 -637.19
90.940002 -112.54 -636.37
91.43 -112.42 -635.71997
91.949997 -112.35 -635.28003
92.470001 -112.28 -634.90997
93.029999 -112.24 -634.70001
93.580002 -112.2 -634.47998
94.150002 -112.19 -634.40997
94.709999 -112.17 -634.29999
95.269997 -112.14 -634.13
95.860001 -112.15 -634.19
96.470001 -112.18 -634.34003
97.080002 -112.22 -634.57001
97.760002 -112.33 -635.16998
98.419998 -112.42 -635.67999
-154.49001 -107.15 -603.38
-153.96001 -107.17 -603.48999
-153.5 -107.23 -603.83002
-153.05 -107.31 -604.22998
-152.58 -107.36 -604.53998
-152.13 -107.44 -604.96997
-151.84 -107.63 -606
-151.35001 -107.67 -606.25
-150.88 -107.74 -606.59998
-150.52 -107.88 -607.37
-150.16 -108.02 -608.14001
-149.67 -108.07 -608.41998
-149.25999 -108.17 -609
-149.34 -108.63 -611.56
-148.89 -108.72 -612.03998
-148.44 -108.8 -612.48999
-146.02 -107.43 -604.87
-135.8 -100.3 -565.29999
-135.12 -100.18 -564.64001
-134.17 -99.849998 -562.83002
-133.34 -99.620003 -561.52002
-132.53 -99.389999 -560.28998
-131.7 -99.160004 -558.97998
-130.71001 -98.790001 -556.94
-129.94 -98.599998 -555.85999
-129.14999 -98.389999 -554.69
-128.53999 -98.309998 -554.23999
-127.96 -98.25 -553.94
-127.38 -98.190002 -553.62
-126.83 -98.160004 -553.42999
-126.28 -98.120003 -553.21997
-125.73 -98.089996 -553.04999
-125.19 -98.059998 -552.88
-124.64 -98.029999 -552.71002
-124.12 -98.019997 -552.65002
-123.6 -98.010002 -552.56
-123.06 -97.980003 -552.44
-122.54 -97.970001 -552.34998
-122 -97.940002 -552.20001
-121.47 -97.919998 -552.09998
-120.95 -97.919998 -552.04999
-120.42 -97.889999 -551.90002
-119.91 -97.889999 -551.89001
-119.38 -97.870003 -551.79999
-118.85 -97.839996 -551.65002
-118.33 -97.839996 -551.59998
-117.8 -97.82 -551.47998
-117.28 -97.800003 -551.39001
-116.74 -97.779999 -551.26001
-116.24 -97.769997 -551.25
-115.76 -97.790001 -551.37
-115.25 -97.790001 -551.35999
-114.76 -97.809998 -551.42999
-114.27 -97.82 -551.47998
-113.74 -97.800003 -551.40002
-113.22 -97.779999 -551.29999
-112.73 -97.800003 -551.38
-112.23 -97.800003 -551.40002
-111.72 -97.800003 -551.37
-111.21 -97.790001 -551.33002
-110.72 -97.800003 -551.39001
-110.23 -97.82 -551.5
-109.76 -97.849998 -551.66998
-109.26 -97.860001 -551.70001
-108.76 -97.860001 -551.71997
-108.28 -97.879997 -551.83002
-107.77 -97.879997 -551.83002
-107.27 -97.889999 -551.84998
-106.8 -97.910004 -552.01001
-106.33 -97.949997 -552.17999
-105.83 -97.949997 -552.22998
-105.33 -97.959999 -552.26001
-104.85 -97.980003 -552.40002
-104.37 -98 -552.5
-103.88 -98.029999 -552.63
-103.4 -98.050003 -552.77002
-102.92 -98.07 -552.90002
-102.45 -98.110001 -553.08002
-101.96 -98.129997 -553.17999
-101.48 -98.139999 -553.28003
-101 -98.169998 -553.41998
-100.53 -98.209999 -553.64001
-100.05 -98.239998 -553.82001
-99.589996 -98.279999 -554.03003
-99.120003 -98.32 -554.23999
-98.690002 -98.389999 -554.66998
-98.239998 -98.459999 -555
-97.800003 -98.529999 -555.40997
-97.32 -98.550003 -555.54999
-96.870003 -98.610001 -555.85999
-96.389999 -98.639999 -556.04999
-95.919998 -98.68 -556.27002
-95.449997 -98.720001 -556.47998
-94.989998 -98.769997 -556.75
-94.510002 -98.800003 -556.94
-94.040001 -98.849998 -557.21002
-93.580002 -98.910004 -557.51001
-93.129997 -98.970001 -557.84998
-92.68 -99.029999 -558.20001
-92.239998 -99.099998 -558.59998
-91.790001 -99.169998 -558.98999
-91.349998 -99.25 -559.40002
-90.900002 -99.32 -559.79999
-90.449997 -99.389999 -560.21002
-90 -99.459999 -560.54999
-89.57 -99.550003 -561.07001
-89.120003 -99.629997 -561.51001
-88.690002 -99.720001 -562.03003
-88.260002 -99.82 -562.54999
-87.809998 -99.889999 -562.97998
-87.389999 -100 -563.54999
-86.959999 -100.09 -564.09998
-86.550003 -100.22 -564.81
-86.139999 -100.35 -565.48999
-85.730003 -100.47 -566.21002
-85.32 -100.6 -566.90002
-84.910004 -100.73 -567.60999
-76.239998 -116.94 -657.54999
-75.580002 -116.85 -657.04999
-74.809998 -116.6 -655.65002
-74.129997 -116.48 -654.97998
-73.449997 -116.35 -654.27002
-72.790001 -116.25 -653.71997
-72.129997 -116.16 -653.21997
-71.459999 -116.04 -652.58002
-70.790001 -115.93 -651.92999
-70.139999 -115.84 -651.44
-68.949997 -114.86 -646.03998
-67.43 -113.29 -637.34003
-66.449997 -112.64 -633.69
-65.82 -112.55 -633.19
-65.209999 -112.49 -632.88
-64.620003 -112.48 -632.79999
-64.050003 -112.49 -632.90997
-63.459999 -112.48 -632.81
-62.84 -112.41 -632.41998
-62.25 -112.4 -632.38
-61.669998 -112.4 -632.37
-61.110001 -112.43 -632.56
-60.52 -112.42 -632.47998
-59.919998 -112.37 -632.22998
-59.349998 -112.4 -632.39001
-58.779999 -112.42 -632.47998
-58.189999 -112.39 -632.35999
-57.599998 -112.38 -632.28998
-57.02 -112.39 -632.34003
-56.439999 -112.39 -632.32001
-55.860001 -112.37 -632.25
-55.259998 -112.33 -632.02002
-54.66 -112.3 -631.82001
-54.07 -112.27 -631.70001
-53.470001 -112.23 -631.47998
-52.869999 -112.2 -631.28998
-52.27 -112.15 -631.03998
-51.689999 -112.13 -630.91998
-51.09 -112.11 -630.78998
-50.52 -112.11 -630.78998
-49.919998 -112.07 -630.59998
-49.34 -112.08 -630.59998
-48.77 -112.08 -630.64001
-48.18 -112.07 -630.54999
-47.599998 -112.05 -630.45001
-47.02 -112.06 -630.51001
-46.459999 -112.09 -630.71002
-45.880001 -112.08 -630.65997
-45.279999 -112.05 -630.45001
-44.709999 -112.05 -630.46997
-44.139999 -112.07 -630.60999
-43.560001 -112.08 -630.62
-42.98 -112.08 -630.62
-42.400002 -112.07 -630.59998
-41.830002 -112.1 -630.75
-41.27 -112.15 -631.02002
-40.689999 -112.14 -630.96002
-40.110001 -112.15 -631.03003
-39.549999 -112.19 -631.27002
-38.98 -112.22 -631.40002
-38.41 -112.24 -631.54999
-37.830002 -112.25 -631.59998
-37.27 -112.3 -631.87
-36.689999 -112.31 -631.90002
-36.110001 -112.3 -631.84003
-35.52 -112.27 -631.70001
-34.959999 -112.33 -632.06
-34.389999 -112.38 -632.33002
-33.82 -112.41 -632.48999
-33.259998 -112.46 -632.75
-32.700001 -112.53 -633.12
-32.110001 -112.52 -633.09998
-31.540001 -112.55 -633.27002
-30.959999 -112.56 -633.32001
-30.4 -112.63 -633.67999
-29.83 -112.66 -633.85999
-29.26 -112.72 -634.17999
-28.690001 -112.75 -634.40002
-28.110001 -112.77 -634.46997
-27.530001 -112.79 -634.58002
-26.969999 -112.89 -635.15002
-26.4 -112.93 -635.39001
-25.83 -112.99 -635.71997
-25.26 -113.04 -635.98999
-24.690001 -113.12 -636.44
-24.120001 -113.19 -636.81
-23.549999 -113.26 -637.20001
-22.98 -113.33 -637.62
-22.42 -113.46 -638.32001
-21.85 -113.51 -638.62
-21.26 -113.49 -638.46002
-20.67 -113.46 -638.32001
-20.08 -113.46 -638.34003
-19.5 -113.5 -638.56
-18.93 -113.57 -638.92999
-18.35 -113.64 -639.32001
-17.77 -113.64 -639.31
-17.17 -113.58 -639.01001
-16.58 -113.54 -638.75
-15.99 -113.53 -638.72998
-15.41 -113.55 -638.81
-14.83 -113.58 -638.98999
-14.25 -113.66 -639.44
-13.67 -113.69 -639.59998
-13.07 -113.62 -639.20001
-12.48 -113.59 -639.04999
-11.9 -113.6 -639.10999
-11.31 -113.65 -639.39001
-10.73 -113.66 -639.40997
-10.14 -113.69 -639.58002
-9.5600004 -113.72 -639.76001
-8.9799995 -113.76 -639.97998
-8.3900003 -113.84 -640.41998
-7.8099999 -113.87 -640.60999
-7.2199998 -113.92 -640.88
-6.6399999 -114.01 -641.34998
-6.0599999 -114.1 -641.84998
-5.4699998 -114.17 -642.28998
-4.8899999 -114.27 -642.82001
-4.3000002 -114.31 -643.04999
-3.71 -114.36 -643.31
-3.1199999 -114.42 -643.62
-2.53 -114.49 -644.03003
-1.9400001 -114.58 -644.56
-1.35 -114.66 -644.98999
-0.75999999 -114.75 -645.5
-0.17 -114.81 -645.83002
0.41999999 -114.88 -646.17999
1.02 -114.92 -646.45001
1.61 -115.04 -647.08002
2.21 -115.11 -647.5
2.8 -115.22 -648.09003
3.4000001 -115.37 -648.94
4 -115.44 -649.33002
4.5999999 -115.51 -649.71997
5.1999998 -115.64 -650.40997
5.8099999 -115.76 -651.10999
6.4099998 -115.93 -652.04999
7.02 -116.04 -652.60999
7.6199999 -116.12 -653.09998
8.2299995 -116.22 -653.62
8.8299999 -116.29 -654.03003
9.4399996 -116.39 -654.58002
10.05 -116.48 -655.07001
10.66 -116.61 -655.78998
11.27 -116.61 -655.81
11.87 -116.62 -655.84003
89.980003 -113.39 -637.84003
90.410004 -113.2 -636.77002
90.910004 -113.09 -636.19
91.410004 -112.99 -635.63
91.93 -112.9 -635.14001
92.470001 -112.85 -634.84998
93.010002 -112.8 -634.56
93.57 -112.78 -634.42999
94.129997 -112.76 -634.32001
94.709999 -112.75 -634.28003
95.279999 -112.74 -634.20001
95.870003 -112.74 -634.22998
96.480003 -112.78 -634.42999
97.129997 -112.85 -634.84003
97.760002 -112.92 -635.20001
98.43 -113.01 -635.70001
-154.07001 -107.8 -603.90002
-153.56 -107.83 -604.07001
-153.12 -107.91 -604.52002
-152.7 -108.01 -605.03003
-152.23 -108.07 -605.35999
-151.84 -108.18 -606
-151.42 -108.28 -606.52002
-150.97 -108.36 -606.96002
-150.56 -108.46 -607.53998
-150.07001 -108.51 -607.79999
-149.61 -108.58 -608.17999
-149.24001 -108.71 -608.90997
-149.35001 -109.2 -611.59998
-148.84 -109.25 -611.84003
-148.48 -109.39 -612.64001
-135.84 -100.84 -565.46002
-135.14999 -100.71 -564.72998
-134.11 -100.32 -562.58002
-133.34 -100.13 -561.53003
-132.56 -99.93 -560.41998
-131.8 -99.739998 -559.38
-130.78999 -99.370003 -557.29999
-130.03999 -99.18 -556.27002
-129.28999 -99 -555.27002
-128.62 -98.870003 -554.58002
-128.06 -98.830002 -554.34003
-127.49 -98.790001 -554.09003
-126.92 -98.739998 -553.81
-126.34 -98.68 -553.51001
-125.78 -98.639999 -553.28003
-125.25 -98.620003 -553.14001
-124.69 -98.580002 -552.94
-124.17 -98.57 -552.89001
-123.64 -98.550003 -552.76001
-123.1 -98.519997 -552.63
-122.59 -98.519997 -552.58002
-122.08 -98.510002 -552.54999
-121.55 -98.5 -552.46997
-121.02 -98.470001 -552.34003
-120.5 -98.459999 -552.27002
-119.97 -98.449997 -552.17999
-119.46 -98.440002 -552.14001
-118.93 -98.419998 -552.03998
-118.39 -98.400002 -551.90002
-117.86 -98.370003 -551.77002
-117.35 -98.370003 -551.73999
-116.83 -98.349998 -551.65997
-116.32 -98.349998 -551.66998
-115.84 -98.370003 -551.78003
-115.32 -98.360001 -551.67999
-114.79 -98.339996 -551.59003
-114.28 -98.330002 -551.53003
-113.78 -98.330002 -551.54999
-113.27 -98.330002 -551.53003
-112.76 -98.330002 -551.53003
-112.27 -98.339996 -551.57001
-111.76 -98.339996 -551.56
-111.28 -98.360001 -551.69
-110.78 -98.360001 -551.70001
-110.28 -98.370003 -551.75
-109.78 -98.370003 -551.77002
-109.29 -98.389999 -551.83002
-108.8 -98.400002 -551.90997
-108.31 -98.419998 -551.98999
-107.83 -98.440002 -552.13
-107.34 -98.449997 -552.19
-106.85 -98.470001 -552.28003
-106.34 -98.459999 -552.22998
-105.84 -98.470001 -552.29999
-105.36 -98.489998 -552.41998
-104.88 -98.510002 -552.53003
-104.4 -98.540001 -552.66998
-103.9 -98.550003 -552.71997
-103.42 -98.580002 -552.87
-102.94 -98.589996 -552.96002
-102.47 -98.629997 -553.16998
-102 -98.669998 -553.35999
-101.53 -98.699997 -553.56
-101.05 -98.730003 -553.73999
-100.6 -98.790001 -554.03998
-100.14 -98.830002 -554.27002
-99.68 -98.879997 -554.54999
-99.220001 -98.93 -554.82001
-98.760002 -98.970001 -555.06
-98.290001 -99.019997 -555.29999
-97.82 -99.050003 -555.47998
-97.339996 -99.080002 -555.65002
-96.870003 -99.120003 -555.88
-96.389999 -99.150002 -556.04999
-95.919998 -99.199997 -556.28998
-95.459999 -99.239998 -556.53998
-95 -99.290001 -556.82001
-94.519997 -99.330002 -557.03003
-94.07 -99.389999 -557.34003
-93.610001 -99.440002 -557.65997
-93.150002 -99.5 -557.96002
-92.699997 -99.57 -558.34003
-92.260002 -99.639999 -558.73999
-91.790001 -99.690002 -559
-91.339996 -99.75 -559.35999
-90.900002 -99.839996 -559.83002
-90.459999 -99.910004 -560.23999
-90 -99.970001 -560.59003
-89.559998 -100.05 -561.02002
-89.129997 -100.15 -561.56
-88.699997 -100.24 -562.06
-88.25 -100.32 -562.51001
-87.82 -100.42 -563.04999
-87.389999 -100.51 -563.56
-86.980003 -100.64 -564.27002
-86.550003 -100.74 -564.79999
-86.150002 -100.88 -565.56
-85.730003 -100.99 -566.21002
-85.339996 -101.14 -567.03003
-84.919998 -101.27 -567.71002
-76.169998 -117.45 -657.01001
-75.5 -117.34 -656.39001
-74.809998 -117.2 -655.65002
-74.139999 -117.09 -655.03003
-73.400002 -116.88 -653.88
-72.739998 -116.78 -653.34998
-72.089996 -116.7 -652.89001
-71.449997 -116.62 -652.47998
-70.790001 -116.52 -651.90002
-70.120003 -116.4 -651.26001
-69.5 -116.37 -651.07001
-68.300003 -115.35 -645.45001
-66.830002 -113.86 -637.21002
-65.900002 -113.27 -633.98999
-65.32 -113.27 -633.96997
-64.720001 -113.23 -633.75
-64.089996 -113.15 -633.33002
-63.470001 -113.08 -632.92999
-62.869999 -113.05 -632.75
-62.279999 -113.04 -632.70001
-61.700001 -113.04 -632.71002
-61.119999 -113.03 -632.67999
-60.529999 -113.02 -632.59003
-59.959999 -113.04 -632.71002
-59.389999 -113.05 -632.78998
-58.790001 -113.01 -632.57001
-58.189999 -112.98 -632.40997
-57.599998 -112.95 -632.25
-57.029999 -112.98 -632.39001
-56.470001 -113.02 -632.63
-55.889999 -113.03 -632.65002
-55.299999 -113 -632.47998
-54.700001 -112.95 -632.25
-54.099998 -112.92 -632.03998
-53.490002 -112.86 -631.72998
-52.889999 -112.82 -631.48999
-52.299999 -112.79 -631.33002
-51.709999 -112.77 -631.23999
-51.130001 -112.76 -631.21002
-50.540001 -112.73 -631.03998
-49.950001 -112.72 -630.96002
-49.369999 -112.71 -630.91998
-48.779999 -112.68 -630.72998
-48.189999 -112.66 -630.62
-47.610001 -112.67 -630.67999
-47.049999 -112.71 -630.90997
-46.470001 -112.7 -630.84998
-45.880001 -112.66 -630.65997
-45.290001 -112.64 -630.56
-44.720001 -112.66 -630.64001
-44.139999 -112.66 -630.62
-43.560001 -112.66 -630.65997
-42.98 -112.65 -630.62
-42.41 -112.68 -630.78003
-41.849998 -112.73 -631.01001
-41.27 -112.74 -631.08002
-40.689999 -112.72 -631
-40.119999 -112.75 -631.14001
-39.560001 -112.79 -631.37
-38.98 -112.81 -631.48999
-38.41 -112.82 -631.53998
-37.830002 -112.84 -631.63
-37.259998 -112.85 -631.69
-36.689999 -112.88 -631.89001
-36.119999 -112.9 -632.01001
-35.529999 -112.89 -631.90002
-34.970001 -112.93 -632.15997
-34.41 -113 -632.52002
-33.830002 -113.01 -632.57001
-33.259998 -113.06 -632.85999
-32.700001 -113.12 -633.20001
-32.119999 -113.13 -633.27002
-31.540001 -113.14 -633.31
-30.98 -113.19 -633.59003
-30.41 -113.23 -633.82001
-29.84 -113.27 -634.03998
-29.26 -113.29 -634.13
-28.690001 -113.33 -634.34998
-28.110001 -113.37 -634.59003
-27.530001 -113.38 -634.63
-26.969999 -113.47 -635.13
-26.4 -113.52 -635.40997
-25.84 -113.59 -635.81
-25.26 -113.64 -636.04999
-24.700001 -113.72 -636.52002
-24.120001 -113.78 -636.83002
-23.549999 -113.85 -637.21997
-22.99 -113.93 -637.65002
-22.42 -114.02 -638.16998
-21.85 -114.13 -638.78003
-21.27 -114.15 -638.90997
-20.68 -114.12 -638.71997
-20.09 -114.1 -638.60999
-19.51 -114.13 -638.77002
-18.93 -114.19 -639.09003
-18.360001 -114.27 -639.53998
-17.780001 -114.3 -639.73999
-17.18 -114.25 -639.46002
-16.59 -114.23 -639.34003
-16 -114.21 -639.25
-15.41 -114.19 -639.09003
-14.83 -114.21 -639.25
-14.26 -114.29 -639.69
-13.67 -114.33 -639.90002
-13.08 -114.33 -639.85999
-12.49 -114.27 -639.54999
-11.9 -114.25 -639.42999
-11.32 -114.27 -639.59003
-10.73 -114.31 -639.78998
-10.15 -114.37 -640.09003
-9.5699997 -114.37 -640.13
-8.9799995 -114.41 -640.34003
-8.3999996 -114.5 -640.83002
-7.8200002 -114.55 -641.10999
-7.23 -114.59 -641.29999
-6.6399999 -114.65 -641.65997
-6.0599999 -114.73 -642.09998
-5.48 -114.83 -642.66998
-4.8899999 -114.94 -643.22998
-4.3000002 -114.97 -643.44
-3.71 -115 -643.59998
-3.1199999 -115.05 -643.87
-2.53 -115.16 -644.47998
-1.9400001 -115.21 -644.73999
-1.35 -115.3 -645.22998
-0.75999999 -115.38 -645.70001
-0.17 -115.45 -646.06
0.41999999 -115.53 -646.53003
1.02 -115.64 -647.13
1.61 -115.72 -647.57001
2.21 -115.81 -648.08002
2.8099999 -115.9 -648.58002
3.4100001 -116.03 -649.27002
4.0100002 -116.13 -649.81
4.6100001 -116.24 -650.40997
5.21 -116.35 -651.02002
5.8099999 -116.5 -651.84998
6.4200001 -116.62 -652.52002
7.02 -116.74 -653.17999
7.6300001 -116.86 -653.83002
8.2399998 -116.94 -654.28003
8.8400002 -116.99 -654.58002
9.4499998 -117.09 -655.10999
10.06 -117.15 -655.42999
10.67 -117.26 -656.03998
11.27 -117.28 -656.15002
89.910004 -113.88 -637.32001
90.379997 -113.74 -636.54999
90.879997 -113.63 -635.94
91.389999 -113.55 -635.5
91.919998 -113.48 -635.10999
92.440002 -113.4 -634.66998
92.989998 -113.36 -634.45001
93.540001 -113.32 -634.22998
94.120003 -113.32 -634.20001
94.68 -113.3 -634.09998
95.260002 -113.29 -634.07001
95.849998 -113.31 -634.15002
96.480003 -113.36 -634.42999
97.110001 -113.41 -634.72998
97.760002 -113.5 -635.17999
98.43 -113.59 -635.72998
-154.06 -108.35 -603.87
-153.59 -108.4 -604.16998
-153.17999 -108.51 -604.73999
-152.72 -108.58 -605.10999
-152.27 -108.65 -605.5
-151.92 -108.8 -606.31
-151.42999 -108.84 -606.54999
-150.89 -108.85 -606.60999
-150.60001 -109.05 -607.67999
-150.2 -109.16 -608.29999
-149.72 -109.22 -608.62
-149.31 -109.33 -609.21997
-149.38 -109.79 -611.73999
-148.92 -109.87 -612.15997
-148.52 -109.98 -612.79999
-135.86 -101.37 -565.53998
-135.13 -101.22 -564.67999
-134.13 -100.85 -562.65997
-133.32001 -100.63 -561.46002
-132.56 -100.45 -560.42999
-131.88 -100.32 -559.72998
-130.86 -99.93 -557.58002
-130.09 -99.730003 -556.5
-129.42999 -99.620003 -555.85999
-128.8 -99.519997 -555.35999
-128.16 -99.419998 -554.78998
-127.59 -99.370003 -554.53003
-127.01 -99.32 -554.21997
-126.45 -99.269997 -553.96002
-125.88 -99.220001 -553.70001
-125.31 -99.169998 -553.42999
-124.77 -99.150002 -553.27002
-124.23 -99.120003 -553.12
-123.71 -99.110001 -553.06
-123.17 -99.089996 -552.92999
-122.62 -99.050003 -552.73999
-122.12 -99.050003 -552.72998
-121.58 -99.029999 -552.59998
-121.05 -99 -552.47998
-120.54 -99 -552.46997
-120.02 -98.989998 -552.41998
-119.5 -98.980003 -552.34003
-119 -98.989998 -552.38
-118.47 -98.970001 -552.27002
-117.95 -98.949997 -552.15997
-117.41 -98.919998 -552.02002
-116.89 -98.910004 -551.92999
-116.37 -98.900002 -551.89001
-115.86 -98.900002 -551.87
-115.35 -98.889999 -551.81
-114.83 -98.879997 -551.76001
-114.33 -98.879997 -551.79999
-113.82 -98.879997 -551.78003
-113.32 -98.879997 -551.77002
-112.82 -98.879997 -551.78998
-112.33 -98.900002 -551.87
-111.84 -98.919998 -551.96997
-111.33 -98.910004 -551.92999
-110.82 -98.910004 -551.91998
-110.33 -98.919998 -551.96997
-109.84 -98.93 -552.04999
-109.36 -98.949997 -552.16998
-108.87 -98.970001 -552.23999
-108.39 -99 -552.40002
-107.87 -98.980003 -552.31
-107.36 -98.970001 -552.28003
-106.86 -98.980003 -552.33002
-106.36 -98.989998 -552.34998
-105.87 -99 -552.40997
-105.38 -99.019997 -552.51001
-104.91 -99.050003 -552.69
-104.44 -99.080002 -552.87
-103.96 -99.110001 -553.03003
-103.48 -99.129997 -553.15997
-103.02 -99.190002 -553.44
-102.56 -99.230003 -553.66998
-102.1 -99.269997 -553.90002
-101.64 -99.32 -554.16998
-101.15 -99.339996 -554.27002
-100.67 -99.370003 -554.41998
-100.2 -99.400002 -554.59003
-99.739998 -99.449997 -554.85999
-99.25 -99.470001 -554.98999
-98.769997 -99.5 -555.14001
-98.300003 -99.540001 -555.35999
-97.82 -99.57 -555.52002
-97.349998 -99.599998 -555.72998
-96.900002 -99.660004 -556.04999
-96.410004 -99.690002 -556.17999
-95.949997 -99.739998 -556.46002
-95.480003 -99.769997 -556.64001
-95.010002 -99.809998 -556.87
-94.540001 -99.849998 -557.09998
-94.080002 -99.910004 -557.42999
-93.620003 -99.959999 -557.71002
-93.169998 -100.03 -558.08002
-92.709999 -100.09 -558.38
-92.25 -100.14 -558.69
-91.800003 -100.21 -559.08002
-91.360001 -100.29 -559.51001
-90.900002 -100.35 -559.83002
-90.449997 -100.42 -560.21002
-90.010002 -100.5 -560.62
-89.580002 -100.59 -561.15997
-89.129997 -100.66 -561.53003
-88.690002 -100.75 -562.01001
-88.260002 -100.84 -562.51001
-87.830002 -100.94 -563.09003
-87.389999 -101.03 -563.56
-86.980003 -101.16 -564.27002
-86.550003 -101.26 -564.81
-86.150002 -101.39 -565.56
-85.739998 -101.53 -566.28003
-85.339996 -101.67 -567.06
-84.940002 -101.8 -567.81
-76.809998 -118.1 -657.29999
-76.120003 -117.96 -656.53998
-75.470001 -117.89 -656.12
-74.800003 -117.78 -655.53998
-74.110001 -117.65 -654.82001
-73.400002 -117.47 -653.79999
-72.720001 -117.34 -653.10999
-72.050003 -117.23 -652.5
-71.419998 -117.17 -652.21002
-70.760002 -117.08 -651.69
-70.099998 -116.98 -651.15002
-69.449997 -116.89 -650.65002
-68.82 -116.84 -650.35999
-67.599998 -115.77 -644.48999
-66.419998 -114.75 -638.91998
-65.43 -114.04 -635.03003
-64.800003 -113.95 -634.53998
-64.150002 -113.83 -633.88
-63.529999 -113.76 -633.5
-62.91 -113.7 -633.14001
-62.34 -113.72 -633.22998
-61.73 -113.66 -632.92999
-61.139999 -113.65 -632.88
-60.560001 -113.65 -632.88
-60 -113.69 -633.09998
-59.400002 -113.66 -632.91998
-58.810001 -113.63 -632.78003
-58.209999 -113.59 -632.56
-57.619999 -113.57 -632.45001
-57.060001 -113.63 -632.77002
-56.490002 -113.65 -632.85999
-55.91 -113.64 -632.84003
-55.310001 -113.61 -632.66998
-54.720001 -113.59 -632.57001
-54.130001 -113.57 -632.45001
-53.529999 -113.52 -632.15997
-52.919998 -113.47 -631.88
-52.32 -113.42 -631.64001
-51.73 -113.4 -631.52002
-51.150002 -113.4 -631.5
-50.580002 -113.4 -631.53998
-49.990002 -113.38 -631.40997
-49.389999 -113.33 -631.13
-48.790001 -113.29 -630.91998
-48.200001 -113.26 -630.78003
-47.639999 -113.31 -631.02002
-47.07 -113.33 -631.14001
-46.470001 -113.28 -630.88
-45.889999 -113.28 -630.85999
-45.330002 -113.33 -631.15002
-44.740002 -113.28 -630.90002
-44.150002 -113.26 -630.75
-43.57 -113.26 -630.76001
-42.990002 -113.26 -630.76001
-42.43 -113.31 -631.04999
-41.860001 -113.34 -631.19
-41.290001 -113.35 -631.22998
-40.700001 -113.34 -631.21002
-40.139999 -113.39 -631.47998
-39.57 -113.41 -631.59003
-39 -113.43 -631.67999
-38.419998 -113.45 -631.81
-37.84 -113.44 -631.73999
-37.27 -113.45 -631.83002
-36.700001 -113.5 -632.09003
-36.119999 -113.5 -632.09003
-35.549999 -113.51 -632.15002
-34.98 -113.57 -632.48999
-34.419998 -113.61 -632.71002
-33.84 -113.62 -632.75
-33.27 -113.66 -632.98999
-32.709999 -113.74 -633.41998
-32.130001 -113.72 -633.32001
-31.559999 -113.77 -633.59998
-30.99 -113.82 -633.84003
-30.41 -113.84 -633.95001
-29.83 -113.85 -634.01001
-29.27 -113.92 -634.40002
-28.690001 -113.94 -634.53003
-28.120001 -113.96 -634.63
-27.549999 -114.01 -634.90997
-26.98 -114.08 -635.28003
-26.4 -114.1 -635.40002
-25.84 -114.2 -635.94
-25.26 -114.23 -636.09998
-24.700001 -114.33 -636.65002
-24.139999 -114.42 -637.15002
-23.559999 -114.46 -637.35999
-22.99 -114.54 -637.78003
-22.42 -114.62 -638.26001
-21.860001 -114.75 -638.97998
-21.290001 -114.83 -639.38
-20.700001 -114.79 -639.19
-20.1 -114.76 -639.03003
-19.52 -114.77 -639.09998
-18.940001 -114.83 -639.40002
-18.370001 -114.91 -639.84003
-17.790001 -114.96 -640.14001
-17.190001 -114.91 -639.83002
-16.6 -114.88 -639.66998
-16.01 -114.86 -639.59998
-15.43 -114.86 -639.59003
-14.85 -114.91 -639.83002
-14.26 -114.93 -639.97998
-13.68 -114.99 -640.31
-13.1 -115.03 -640.48999
-12.5 -114.98 -640.21997
-11.91 -114.92 -639.90002
-11.33 -114.94 -640.03998
-10.75 -115.02 -640.45001
-10.16 -115.05 -640.60999
-9.5699997 -115.05 -640.63
-8.9899998 -115.08 -640.77002
-8.3999996 -115.14 -641.10999
-7.8200002 -115.23 -641.62
-7.2399998 -115.28 -641.87
-6.6500001 -115.31 -642.03003
-6.0599999 -115.36 -642.34003
-5.48 -115.47 -642.90997
-4.8899999 -115.58 -643.53003
-4.3099999 -115.66 -643.95001
-3.72 -115.72 -644.31
-3.1300001 -115.74 -644.41998
-2.54 -115.8 -644.73999
-1.95 -115.92 -645.39001
-1.35 -115.96 -645.62
-0.75999999 -116.04 -646.04999
-0.17 -116.09 -646.29999
0.41999999 -116.18 -646.79999
1.02 -116.3 -647.48999
1.61 -116.38 -647.90997
2.21 -116.47 -648.41998
2.8099999 -116.57 -648.96997
3.4100001 -116.72 -649.79999
4.0100002 -116.82 -650.33002
4.6100001 -116.93 -650.96002
5.21 -117.05 -651.59998
5.8200002 -117.21 -652.46002
6.4200001 -117.3 -652.97998
7.0300002 -117.43 -653.67999
7.6399999 -117.54 -654.28998
8.2399998 -117.64 -654.85999
8.8500004 -117.7 -655.17999
9.46 -117.76 -655.47998
10.06 -117.82 -655.83002
10.67 -117.84 -655.90997
89.370003 -114.53 -637.65997
89.830002 -114.37 -636.77002
90.339996 -114.27 -636.26001
90.839996 -114.17 -635.69
91.370003 -114.11 -635.35999
91.900002 -114.03 -634.94
92.440002 -113.99 -634.71002
93 -113.96 -634.53003
93.540001 -113.91 -634.26001
94.099998 -113.88 -634.09003
94.68 -113.88 -634.09003
95.260002 -113.87 -634.03998
95.860001 -113.89 -634.16998
96.489998 -113.96 -634.53003
97.139999 -114.04 -634.95001
97.779999 -114.1 -635.28003
-154.17999 -108.98 -604.34003
-153.64 -109 -604.40002
-153.22 -109.09 -604.90002
-152.8 -109.18 -605.40997
-152.28999 -109.22 -605.58002
-151.89 -109.33 -606.19
-151.53 -109.47 -606.95001
-151.05 -109.52 -607.26001
-150.66 -109.64 -607.90997
-150.17999 -109.71 -608.23999
-149.71001 -109.77 -608.59998
-149.34 -109.91 -609.33002
-149.36 -110.33 -611.64001
-148.92 -110.42 -612.13
-148.50999 -110.54 -612.77002
-135.91 -101.93 -565.72998
-135.11 -101.72 -564.59998
-134.13 -101.37 -562.67999
-133.33 -101.15 -561.48999
-132.58 -100.97 -560.48999
-131.91 -100.85 -559.85999
-130.94 -100.5 -557.94
-130.10001 -100.25 -556.56
-129.45 -100.14 -555.96997
-128.88 -100.09 -555.69
-128.28999 -100.03 -555.34998
-127.73 -99.989998 -555.10999
-127.15 -99.93 -554.79999
-126.56 -99.870003 -554.46002
-126 -99.830002 -554.21997
-125.43 -99.779999 -553.95001
-124.86 -99.720001 -553.65997
-124.29 -99.68 -553.40997
-123.76 -99.660004 -553.31
-123.23 -99.639999 -553.21002
-122.71 -99.629997 -553.12
-122.18 -99.610001 -553
-121.65 -99.589996 -552.90997
-121.12 -99.559998 -552.78003
-120.58 -99.540001 -552.65002
-120.07 -99.540001 -552.60999
-119.54 -99.519997 -552.52002
-119.02 -99.510002 -552.46002
-118.5 -99.489998 -552.39001
-118 -99.5 -552.41998
-117.47 -99.480003 -552.29999
-116.96 -99.470001 -552.25
-116.41 -99.440002 -552.08002
-115.9 -99.43 -552.04999
-115.4 -99.440002 -552.06
-114.89 -99.43 -552.03003
-114.38 -99.43 -552.02002
-113.86 -99.419998 -551.94
-113.36 -99.43 -552
-112.88 -99.440002 -552.09003
-112.36 -99.440002 -552.04999
-111.86 -99.43 -552.03998
-111.37 -99.449997 -552.12
-110.87 -99.459999 -552.16998
-110.37 -99.459999 -552.20001
-109.89 -99.480003 -552.29999
-109.4 -99.5 -552.39001
-108.92 -99.519997 -552.51001
-108.42 -99.529999 -552.53998
-107.92 -99.529999 -552.56
-107.44 -99.559998 -552.70001
-106.95 -99.57 -552.78003
-106.45 -99.57 -552.78998
-105.96 -99.589996 -552.87
-105.5 -99.639999 -553.14001
-105.02 -99.660004 -553.28998
-104.54 -99.690002 -553.41998
-104.06 -99.720001 -553.57001
-103.6 -99.760002 -553.78998
-103.13 -99.790001 -553.96997
-102.64 -99.809998 -554.09003
-102.17 -99.839996 -554.26001
-101.67 -99.849998 -554.29999
-101.18 -99.870003 -554.41998
-100.71 -99.910004 -554.63
-100.22 -99.919998 -554.70001
-99.739998 -99.959999 -554.90002
-99.260002 -99.980003 -555.02002
-98.800003 -100.03 -555.28998
-98.32 -100.07 -555.46997
-97.839996 -100.09 -555.59998
-97.370003 -100.13 -555.79999
-96.910004 -100.18 -556.09998
-96.43 -100.21 -556.27002
-95.959999 -100.25 -556.48999
-95.489998 -100.3 -556.72998
-95.019997 -100.33 -556.92999
-94.559998 -100.39 -557.22998
-94.089996 -100.43 -557.46002
-93.639999 -100.5 -557.82001
-93.169998 -100.54 -558.08002
-92.709999 -100.6 -558.40002
-92.269997 -100.68 -558.81
-91.809998 -100.74 -559.13
-91.370003 -100.81 -559.53998
-90.919998 -100.89 -559.96002
-90.470001 -100.95 -560.28998
-90.029999 -101.03 -560.73999
-89.589996 -101.12 -561.21997
-89.139999 -101.19 -561.59998
-88.709999 -101.28 -562.10999
-88.25 -101.35 -562.5
-87.839996 -101.47 -563.13
-87.400002 -101.56 -563.62
-86.989998 -101.68 -564.28998
-86.550003 -101.78 -564.82001
-86.160004 -101.93 -565.64001
-85.760002 -102.07 -566.40997
-85.370003 -102.22 -567.23999
-84.949997 -102.34 -567.91998
-76.760002 -118.62 -656.84998
-76.07 -118.49 -656.09998
-75.419998 -118.41 -655.69
-74.739998 -118.29 -655.03998
-74.099998 -118.24 -654.72998
-73.389999 -118.05 -653.72998
-72.690002 -117.89 -652.87
-72.019997 -117.78 -652.27002
-71.389999 -117.72 -651.91998
-70.730003 -117.62 -651.39001
-70.07 -117.52 -650.81
-69.43 -117.44 -650.41998
-68.779999 -117.36 -649.94
-68.160004 -117.31 -649.71002
-67.160004 -116.62 -645.91998
-65.739998 -115.17 -637.97998
-64.790001 -114.53 -634.51001
-64.190002 -114.49 -634.26001
-63.580002 -114.45 -634.07001
-62.970001 -114.4 -633.77002
-62.349998 -114.32 -633.37
-61.77 -114.31 -633.32001
-61.169998 -114.29 -633.21002
-60.610001 -114.32 -633.37
-60.02 -114.31 -633.28003
-59.41 -114.25 -632.96997
-58.810001 -114.21 -632.75
-58.220001 -114.19 -632.65997
-57.650002 -114.22 -632.84003
-57.099998 -114.28 -633.13
-56.5 -114.24 -632.91998
-55.900002 -114.21 -632.75
-55.32 -114.2 -632.71997
-54.740002 -114.21 -632.78003
-54.169998 -114.22 -632.81
-53.580002 -114.2 -632.71002
-52.959999 -114.13 -632.33002
-52.369999 -114.09 -632.14001
-51.779999 -114.07 -632.03003
-51.200001 -114.07 -632.02002
-50.599998 -114.04 -631.87
-50 -113.99 -631.59998
-49.400002 -113.94 -631.29999
-48.810001 -113.92 -631.20001
-48.23 -113.91 -631.15997
-47.66 -113.93 -631.25
-47.07 -113.91 -631.15997
-46.490002 -113.9 -631.08002
-45.919998 -113.92 -631.21997
-45.34 -113.93 -631.25
-44.75 -113.91 -631.13
-44.16 -113.88 -630.97998
-43.580002 -113.87 -630.91998
-43 -113.87 -630.91998
-42.439999 -113.91 -631.12
-41.869999 -113.93 -631.28003
-41.279999 -113.92 -631.22998
-40.709999 -113.94 -631.33002
-40.16 -114.01 -631.70001
-39.580002 -114.01 -631.71002
-39.009998 -114.04 -631.88
-38.419998 -114.02 -631.77002
-37.849998 -114.04 -631.84003
-37.279999 -114.06 -632
-36.709999 -114.11 -632.23999
-36.119999 -114.09 -632.13
-35.560001 -114.14 -632.40002
-34.990002 -114.17 -632.58002
-34.41 -114.17 -632.58002
-33.84 -114.22 -632.83002
-33.279999 -114.27 -633.15002
-32.720001 -114.34 -633.51001
-32.139999 -114.35 -633.57001
-31.549999 -114.34 -633.51001
-31 -114.42 -633.96002
-30.41 -114.43 -633.98999
-29.85 -114.49 -634.33002
-29.27 -114.51 -634.44
-28.700001 -114.53 -634.58002
-28.129999 -114.59 -634.90997
-27.549999 -114.63 -635.08002
-26.99 -114.69 -635.41998
-26.41 -114.73 -635.65002
-25.85 -114.81 -636.07001
-25.27 -114.85 -636.32001
-24.709999 -114.95 -636.84003
-24.139999 -115.01 -637.17999
-23.559999 -115.06 -637.46997
-22.99 -115.11 -637.73999
-22.42 -115.22 -638.33002
-21.870001 -115.36 -639.09003
-21.290001 -115.44 -639.54999
-20.700001 -115.43 -639.46002
-20.110001 -115.41 -639.34998
-19.530001 -115.41 -639.38
-18.950001 -115.45 -639.60999
-18.370001 -115.53 -640
-17.799999 -115.61 -640.44
-17.209999 -115.61 -640.46002
-16.610001 -115.54 -640.07001
-16.030001 -115.53 -640.03998
-15.44 -115.54 -640.09998
-14.85 -115.55 -640.14001
-14.27 -115.58 -640.28998
-13.69 -115.63 -640.59003
-13.11 -115.7 -640.92999
-12.52 -115.68 -640.85999
-11.92 -115.62 -640.52002
-11.33 -115.61 -640.48999
-10.75 -115.67 -640.78998
-10.17 -115.69 -640.90002
-9.5799999 -115.74 -641.16998
-8.9899998 -115.76 -641.28003
-8.4099998 -115.8 -641.52002
-7.8299999 -115.88 -641.91998
-7.2399998 -115.96 -642.40002
-6.6599998 -116.01 -642.63
-6.0700002 -116.06 -642.92999
-5.48 -116.12 -643.22998
-4.9000001 -116.23 -643.87
-4.3099999 -116.34 -644.44
-3.72 -116.42 -644.87
-3.1300001 -116.47 -645.15002
-2.54 -116.54 -645.53003
-1.95 -116.56 -645.65997
-1.35 -116.66 -646.16998
-0.75999999 -116.71 -646.47998
-0.17 -116.78 -646.85999
0.41999999 -116.82 -647.09998
1.02 -116.94 -647.75
1.61 -116.99 -647.98999
2.21 -117.12 -648.70001
2.8099999 -117.22 -649.28003
3.4100001 -117.36 -650.02002
4.0100002 -117.5 -650.79999
4.6100001 -117.61 -651.40002
5.2199998 -117.76 -652.19
5.8200002 -117.87 -652.81
6.4299998 -118 -653.53998
7.04 -118.12 -654.20001
7.6399999 -118.24 -654.79999
8.25 -118.35 -655.41998
8.8599997 -118.46 -656.03003
9.46 -118.47 -656.07001
10.06 -118.4 -655.71997
89.290001 -115.01 -637.12
89.769997 -114.88 -636.35999
90.309998 -114.82 -636.04999
90.809998 -114.71 -635.46002
91.339996 -114.65 -635.12
91.870003 -114.58 -634.72998
92.419998 -114.55 -634.57001
92.949997 -114.48 -634.21002
93.519997 -114.47 -634.13
94.089996 -114.44 -634
94.639999 -114.41 -633.82001
95.239998 -114.43 -633.94
95.849998 -114.47 -634.14001
96.480003 -114.53 -634.45001
97.120003 -114.6 -634.83002
97.82 -114.73 -635.54999
-154.16 -109.52 -604.23999
-153.67999 -109.58 -604.53003
-153.28 -109.69 -605.13
-152.8 -109.74 -605.40002
-152.33 -109.8 -605.75
-151.96001 -109.93 -606.46002
-151.52 -110.02 -606.92999
-151.00999 -110.05 -607.09998
-150.69 -110.23 -608.04999
-150.3 -110.35 -608.71997
-149.8 -110.39 -608.92999
-149.37 -110.49 -609.46997
-149.33 -110.87 -611.53998
-149 -111.04 -612.46002
-148.58 -111.15 -613.03998
-137.31 -103.11 -569.34003
-135.89 -102.43 -565.66998
-135.10001 -102.23 -564.53998
-134.12 -101.87 -562.60999
-133.31 -101.65 -561.40997
-132.59 -101.49 -560.54999
-131.89 -101.35 -559.75
-131 -101.06 -558.20001
-130.14 -100.79 -556.72998
-129.5 -100.69 -556.16998
-128.94 -100.65 -555.92999
-128.37 -100.6 -555.69
-127.82 -100.57 -555.52002
-127.28 -100.54 -555.37
-126.7 -100.49 -555.06
-126.14 -100.44 -554.82001
-125.57 -100.4 -554.56
-125.02 -100.36 -554.34998
-124.45 -100.31 -554.08002
-123.9 -100.27 -553.89001
-123.36 -100.25 -553.77002
-122.85 -100.24 -553.72998
-122.31 -100.22 -553.59998
-121.78 -100.2 -553.46997
-121.28 -100.21 -553.52002
-120.76 -100.2 -553.47998
-120.26 -100.2 -553.47998
-119.71 -100.17 -553.31
-119.19 -100.15 -553.21997
-118.68 -100.15 -553.19
-118.17 -100.15 -553.20001
-117.66 -100.14 -553.15002
-117.11 -100.11 -552.98999
-116.61 -100.12 -553.01001
-116.09 -100.1 -552.92999
-115.58 -100.1 -552.91998
-115.06 -100.09 -552.87
-114.57 -100.1 -552.94
-114.05 -100.09 -552.88
-113.53 -100.08 -552.78003
-113.01 -100.06 -552.70001
-112.51 -100.07 -552.73999
-112.01 -100.08 -552.78998
-111.51 -100.08 -552.82001
-111 -100.08 -552.78998
-110.5 -100.08 -552.82001
-110 -100.09 -552.87
-109.51 -100.1 -552.92999
-109.02 -100.12 -553.02002
-108.53 -100.13 -553.09003
-108.05 -100.16 -553.21002
-107.55 -100.16 -553.25
-107.07 -100.19 -553.37
-106.58 -100.21 -553.5
-106.07 -100.21 -553.48999
-105.58 -100.22 -553.57001
-105.1 -100.24 -553.69
-104.59 -100.25 -553.69
-104.11 -100.27 -553.81
-103.63 -100.29 -553.94
-103.14 -100.31 -554.02002
-102.67 -100.34 -554.21997
-102.17 -100.36 -554.28998
-101.68 -100.38 -554.40002
-101.2 -100.4 -554.53998
-100.73 -100.44 -554.75
-100.26 -100.47 -554.92999
-99.779999 -100.5 -555.08002
-99.290001 -100.53 -555.21997
-98.830002 -100.57 -555.44
-98.339996 -100.59 -555.54999
-97.849998 -100.61 -555.66998
-97.370003 -100.64 -555.84998
-96.900002 -100.68 -556.03998
-96.43 -100.72 -556.26001
-95.959999 -100.76 -556.5
-95.5 -100.81 -556.75
-95.019997 -100.85 -556.95001
-94.559998 -100.9 -557.22998
-94.099998 -100.95 -557.52002
-93.650002 -101.02 -557.90002
-93.190002 -101.08 -558.20001
-92.720001 -101.12 -558.42999
-92.269997 -101.19 -558.81
-91.82 -101.25 -559.15002
-91.370003 -101.33 -559.56
-90.919998 -101.4 -559.92999
-90.470001 -101.47 -560.33002
-90.029999 -101.55 -560.78003
-89.589996 -101.63 -561.21002
-89.139999 -101.71 -561.62
-88.709999 -101.8 -562.14001
-88.269997 -101.89 -562.59998
-87.839996 -101.99 -563.16998
-87.400002 -102.07 -563.62
-86.989998 -102.2 -564.29999
-86.57 -102.32 -564.95001
-86.190002 -102.47 -565.78003
-85.790001 -102.62 -566.56
-85.379997 -102.75 -567.28003
-84.970001 -102.88 -568.01001
-76.739998 -119.2 -656.71997
-76.029999 -119.02 -655.75
-75.379997 -118.96 -655.37
-74.709999 -118.85 -654.82001
-74.07 -118.78 -654.42999
-73.389999 -118.66 -653.77002
-72.699997 -118.51 -652.95001
-72.010002 -118.35 -652.10999
-71.360001 -118.28 -651.71002
-70.709999 -118.19 -651.22998
-70.050003 -118.09 -650.69
-69.400002 -118 -650.19
-68.760002 -117.92 -649.75
-68.120003 -117.84 -649.33002
-67.519997 -117.83 -649.28998
-66.449997 -117 -644.78003
-65.019997 -115.52 -636.70001
-64.230003 -115.15 -634.69
-63.619999 -115.1 -634.45001
-63.02 -115.06 -634.21997
-62.41 -115.01 -633.92999
-61.82 -115 -633.88
-61.220001 -114.97 -633.72998
-60.630001 -114.95 -633.63
-60.029999 -114.91 -633.41998
-59.439999 -114.89 -633.31
-58.849998 -114.87 -633.17999
-58.279999 -114.89 -633.31
-57.709999 -114.91 -633.41998
-57.110001 -114.87 -633.21002
-56.509998 -114.85 -633.09998
-55.919998 -114.82 -632.92999
-55.330002 -114.81 -632.85999
-54.77 -114.85 -633.08002
-54.18 -114.83 -633.01001
-53.59 -114.8 -632.83002
-53 -114.79 -632.78998
-52.400002 -114.76 -632.59003
-51.810001 -114.72 -632.40997
-51.220001 -114.71 -632.35999
-50.630001 -114.69 -632.21002
-50.029999 -114.63 -631.88
-49.419998 -114.57 -631.56
-48.830002 -114.55 -631.47998
-48.25 -114.54 -631.41998
-47.669998 -114.53 -631.37
-47.09 -114.53 -631.34003
-46.52 -114.56 -631.53998
-45.950001 -114.58 -631.63
-45.349998 -114.54 -631.42999
-44.77 -114.52 -631.33002
-44.169998 -114.48 -631.08002
-43.59 -114.48 -631.09003
-43.029999 -114.52 -631.32001
-42.450001 -114.52 -631.34003
-41.869999 -114.52 -631.29999
-41.290001 -114.53 -631.34998
-40.73 -114.57 -631.57001
-40.169998 -114.62 -631.85999
-39.59 -114.62 -631.84998
-39.009998 -114.63 -631.94
-38.439999 -114.64 -632
-37.869999 -114.67 -632.14001
-37.290001 -114.69 -632.22998
-36.709999 -114.69 -632.25
-36.139999 -114.71 -632.33002
-35.560001 -114.73 -632.46997
-34.990002 -114.77 -632.66998
-34.41 -114.76 -632.59998
-33.860001 -114.85 -633.09998
-33.299999 -114.92 -633.5
-32.720001 -114.93 -633.53003
-32.139999 -114.93 -633.54999
-31.57 -114.97 -633.78998
-31.01 -115.05 -634.20001
-30.43 -115.05 -634.21002
-29.860001 -115.11 -634.52002
-29.290001 -115.14 -634.71002
-28.709999 -115.17 -634.84003
-28.129999 -115.2 -635.03003
-27.549999 -115.21 -635.06
-26.99 -115.3 -635.54999
-26.42 -115.35 -635.82001
-25.85 -115.42 -636.21997
-25.280001 -115.46 -636.45001
-24.719999 -115.56 -637
-24.139999 -115.62 -637.29999
-23.57 -115.66 -637.52002
-22.99 -115.71 -637.82001
-22.43 -115.81 -638.34003
-21.860001 -115.94 -639.06
-21.299999 -116.07 -639.76001
-20.719999 -116.1 -639.92999
-20.129999 -116.08 -639.78998
-19.540001 -116.08 -639.78998
-18.959999 -116.11 -639.96997
-18.379999 -116.16 -640.27002
-17.809999 -116.25 -640.77002
-17.23 -116.3 -640.98999
-16.629999 -116.22 -640.58002
-16.030001 -116.18 -640.34003
-15.45 -116.2 -640.45001
-14.86 -116.19 -640.41998
-14.28 -116.25 -640.71997
-13.69 -116.28 -640.90997
-13.12 -116.37 -641.40002
-12.53 -116.38 -641.46997
-11.94 -116.33 -641.19
-11.35 -116.32 -641.10999
-10.76 -116.35 -641.28998
-10.18 -116.41 -641.59998
-9.5900002 -116.43 -641.70001
-9 -116.42 -641.66998
-8.4099998 -116.46 -641.88
-7.8299999 -116.53 -642.28998
-7.25 -116.63 -642.83002
-6.6599998 -116.71 -643.23999
-6.0700002 -116.76 -643.53003
-5.4899998 -116.8 -643.72998
-4.9000001 -116.9 -644.29999
-4.3099999 -116.98 -644.72998
-3.72 -117.11 -645.39001
-3.1300001 -117.2 -645.91998
-2.54 -117.27 -646.29999
-1.95 -117.33 -646.59998
-1.36 -117.38 -646.85999
-0.75999999 -117.43 -647.16998
-0.17 -117.48 -647.44
0.43000001 -117.51 -647.57001
1.02 -117.58 -647.95001
1.62 -117.64 -648.29999
2.21 -117.76 -648.92999
2.8099999 -117.89 -649.64001
3.4100001 -118.04 -650.48999
4.0100002 -118.18 -651.25
4.6199999 -118.31 -651.92999
5.2199998 -118.45 -652.71002
5.8299999 -118.57 -653.38
6.4299998 -118.7 -654.06
7.04 -118.83 -654.78003
7.6500001 -118.94 -655.35999
8.2600002 -119.03 -655.87
8.8699999 -119.12 -656.33002
88.760002 -115.67 -637.53003
89.230003 -115.52 -636.65997
89.730003 -115.41 -636.10999
90.260002 -115.35 -635.73999
90.779999 -115.27 -635.31
91.32 -115.21 -634.97998
91.849998 -115.14 -634.64001
92.410004 -115.11 -634.46002
92.970001 -115.08 -634.28998
93.510002 -115.03 -634.03998
94.07 -115.01 -633.92999
94.650002 -115.01 -633.89001
95.239998 -115.01 -633.92999
95.870003 -115.07 -634.26001
96.489998 -115.12 -634.48999
97.160004 -115.22 -635.06
97.849998 -115.35 -635.76001
-154.32001 -110.19 -604.85999
-153.78 -110.2 -604.92999
-153.3 -110.25 -605.20001
-152.89999 -110.37 -605.83002
-152.35001 -110.37 -605.84998
-151.99001 -110.51 -606.59998
-151.66 -110.68 -607.48999
-151.14999 -110.72 -607.69
-150.74001 -110.82 -608.26001
-150.27 -110.88 -608.59003
-149.8 -110.95 -608.92999
-149.41 -111.08 -609.63
-149.39 -111.48 -611.79999
-148.95 -111.57 -612.26001
