# .PCD v0.7 - Point Cloud Data file format
VERSION 0.7
FIELDS x y z
SIZE 4 4 4
TYPE F F F
COUNT 1 1 1
WIDTH 1638
HEIGHT 1
VIEWPOINT 0 0 0 1 0 0 0
POINTS 1638
DATA ascii
42.470001 -38.150002 -588.98999
43.09 -38.220001 -589.95001
43.689999 -38.27 -590.75
44.290001 -38.32 -591.51001
44.900002 -38.380001 -592.46997
47.5 -38.73 -597.75
48.060001 -38.740002 -597.90997
48.619999 -38.75 -598.07001
49.200001 -38.77 -598.37
49.779999 -38.799999 -598.83002
50.349998 -38.82 -599.01001
50.889999 -38.810001 -598.96002
51.439999 -38.810001 -598.92999
52 -38.82 -599.03003
52.560001 -38.830002 -599.20001
53.150002 -38.849998 -599.59998
53.740002 -38.889999 -600.07001
54.349998 -38.93 -600.72998
54.990002 -38.990002 -601.66998
55.650002 -39.07 -602.88
56.369999 -39.189999 -604.65002
57.02 -39.25 -605.58002
-144.03 -37.650002 -573.10999
-143.34 -37.610001 -572.44
-142.69 -37.580002 -571.97998
-142.12 -37.57 -571.76001
-141.58 -37.560001 -571.71002
-141.07001 -37.57 -571.77002
-140.56 -37.57 -571.81
-139.91 -37.529999 -571.29999
-139.27 -37.5 -570.84998
-138.78 -37.509998 -570.97998
-138.28 -37.52 -571.09003
-137.75999 -37.52 -571.08002
-137.24001 -37.52 -571.10999
-136.77 -37.540001 -571.33002
-136.25 -37.540001 -571.32001
-135.74001 -37.540001 -571.39001
-135.23 -37.549999 -571.46002
-134.74001 -37.549999 -571.58002
-134.28999 -37.57 -571.88
-133.81 -37.59 -572.08002
-133.31 -37.59 -572.16998
-132.83 -37.610001 -572.38
-132.37 -37.630001 -572.65997
-131.89999 -37.639999 -572.90002
-131.44 -37.66 -573.15002
-130.95 -37.669998 -573.29999
-130.49001 -37.689999 -573.58002
-130.03999 -37.709999 -573.90002
-129.56 -37.720001 -574.14001
-129.10001 -37.740002 -574.40002
-128.64 -37.759998 -574.71002
-128.17 -37.779999 -574.96002
-127.73 -37.810001 -575.35999
-127.26 -37.82 -575.59998
-126.79 -37.84 -575.85999
-126.31 -37.849998 -576.04999
-125.82 -37.860001 -576.25
-125.33 -37.869999 -576.40002
-124.82 -37.880001 -576.5
-124.34 -37.889999 -576.70001
-123.87 -37.91 -576.97998
-123.39 -37.93 -577.19
-122.92 -37.950001 -577.46997
-122.42 -37.950001 -577.59998
-109.95 -43.25 -657.03998
-109.4 -43.27 -657.40002
-108.76 -43.259998 -657.17999
-108.08 -43.23 -656.71997
-107.48 -43.23 -656.75
-106.85 -43.220001 -656.57001
-106.21 -43.200001 -656.35999
-105.62 -43.209999 -656.41998
-105 -43.200001 -656.33002
-104.32 -43.169998 -655.85999
-103.7 -43.16 -655.76001
-103.08 -43.16 -655.63
-102.46 -43.150002 -655.5
-101.84 -43.139999 -655.38
-101.19 -43.119999 -655.06
-100.56 -43.110001 -654.91998
-99.980003 -43.110001 -655.03003
-99.400002 -43.119999 -655.16998
-98.779999 -43.119999 -655.07001
-98.129997 -43.099998 -654.77002
-97.529999 -43.099998 -654.78003
-96.980003 -43.119999 -655.09998
-96.419998 -43.139999 -655.37
-95.760002 -43.110001 -654.98999
-95.139999 -43.099998 -654.84998
-94.540001 -43.099998 -654.88
-93.980003 -43.119999 -655.13
-93.370003 -43.119999 -655.12
-92.760002 -43.110001 -655.03003
-92.150002 -43.110001 -654.98999
-91.580002 -43.119999 -655.19
-91.010002 -43.139999 -655.44
-90.160004 -43.02 -653.63
-85.440002 -41.32 -628.17999
-84.720001 -41.25 -627.14001
-83.839996 -41.099998 -624.90997
-83.110001 -41.02 -623.70001
-82.410004 -40.959999 -622.75
-81.660004 -40.869999 -621.39001
-80.980003 -40.810001 -620.59998
-80.239998 -40.73 -619.29999
-79.540001 -40.66 -618.26001
-78.93 -40.639999 -617.98999
-78.360001 -40.630001 -617.90997
-77.769997 -40.619999 -617.71997
-77.169998 -40.599998 -617.47998
-76.599998 -40.599998 -617.46997
-75.989998 -40.580002 -617.14001
-75.400002 -40.560001 -616.89001
-74.790001 -40.540001 -616.54999
-74.199997 -40.529999 -616.40002
-73.629997 -40.52 -616.32001
-73.059998 -40.52 -616.29999
-72.459999 -40.5 -615.97998
-71.860001 -40.490002 -615.75
-71.239998 -40.450001 -615.25
-70.620003 -40.419998 -614.75
-70.010002 -40.400002 -614.39001
-69.379997 -40.360001 -613.79999
-68.75 -40.32 -613.21002
-68.129997 -40.279999 -612.69
-66.709999 -39.77 -604.98999
-62.23 -37.41 -569.65002
-61.34 -37.189999 -566.33002
-60.830002 -37.189999 -566.37
-60.310001 -37.189999 -566.40997
-59.799999 -37.200001 -566.51001
-59.310001 -37.209999 -566.70001
-58.810001 -37.23 -566.91998
-58.310001 -37.240002 -567.12
-57.810001 -37.25 -567.28998
-57.310001 -37.259998 -567.48999
-56.82 -37.279999 -567.78003
-56.330002 -37.310001 -568.12
-55.860001 -37.330002 -568.54999
-55.380001 -37.360001 -569
-54.91 -37.400002 -569.56
-54.450001 -37.439999 -570.15002
-53.970001 -37.470001 -570.59003
-53.5 -37.509998 -571.19
-53.02 -37.540001 -571.63
-52.560001 -37.580002 -572.31
-52.09 -37.619999 -572.83002
-51.639999 -37.68 -573.69
-51.18 -37.720001 -574.42999
-50.779999 -37.82 -575.78998
-50.740002 -38.189999 -581.35999
-51.82 -39.41 -599.69
-51.619999 -39.68 -603.73999
-51.029999 -39.650002 -603.28003
-50.450001 -39.630001 -602.95001
-49.869999 -39.610001 -602.66998
-49.310001 -39.599998 -602.59998
-48.73 -39.580002 -602.23999
-48.16 -39.560001 -602
-47.560001 -39.529999 -601.47998
-47 -39.52 -601.32001
-46.43 -39.5 -601.10999
-45.860001 -39.48 -600.84003
-45.290001 -39.470001 -600.58002
-44.720001 -39.450001 -600.32001
-44.16 -39.439999 -600.15997
-43.59 -39.43 -600
-43 -39.389999 -599.45001
-42.419998 -39.360001 -599.02002
-41.860001 -39.349998 -598.75
-41.299999 -39.34 -598.65997
-40.740002 -39.330002 -598.47998
-40.16 -39.299999 -598.07001
-39.580002 -39.259998 -597.47998
-39.009998 -39.240002 -597.16998
-38.439999 -39.220001 -596.87
-37.880001 -39.209999 -596.67999
-37.290001 -39.150002 -595.90997
-36.720001 -39.139999 -595.65997
-36.150002 -39.110001 -595.21002
-35.580002 -39.080002 -594.79999
-35.009998 -39.060001 -594.44
-34.459999 -39.049999 -594.34998
-33.91 -39.040001 -594.15997
-33.349998 -39.029999 -593.98999
-32.799999 -39.009998 -593.78998
-32.25 -39.009998 -593.71997
-31.709999 -39.009998 -593.78003
-31.17 -39.009998 -593.82001
-30.620001 -39.009998 -593.71002
-30.059999 -38.990002 -593.42999
-29.51 -38.98 -593.27002
-28.959999 -38.98 -593.28003
-28.43 -38.990002 -593.40002
-27.879999 -38.990002 -593.46002
-27.35 -39 -593.57001
-26.809999 -39 -593.65997
-26.280001 -39.029999 -594.03998
-25.73 -39.029999 -594.02002
-25.190001 -39.029999 -594.08002
-24.66 -39.049999 -594.32001
-24.120001 -39.060001 -594.52002
-23.59 -39.080002 -594.78003
-23.049999 -39.080002 -594.89001
-22.51 -39.099998 -595.07001
-21.969999 -39.099998 -595.17999
-21.43 -39.119999 -595.35999
-20.9 -39.150002 -595.89001
-20.360001 -39.16 -596.08002
-19.82 -39.169998 -596.25
-19.27 -39.169998 -596.15997
-18.73 -39.169998 -596.15002
-18.190001 -39.189999 -596.41998
-17.65 -39.209999 -596.83002
-17.110001 -39.220001 -596.94
-16.57 -39.23 -597.03998
-16.02 -39.220001 -596.96997
-15.47 -39.220001 -596.95001
-14.92 -39.220001 -596.88
-14.38 -39.220001 -596.95001
-13.83 -39.220001 -596.97998
-13.28 -39.220001 -596.96997
-12.73 -39.220001 -596.91998
-12.19 -39.209999 -596.83002
-11.64 -39.209999 -596.73999
-11.09 -39.200001 -596.64001
-10.54 -39.200001 -596.59003
-9.9899998 -39.18 -596.39001
-9.4399996 -39.18 -596.33002
-8.8999996 -39.169998 -596.21997
-8.3500004 -39.169998 -596.17999
-7.8000002 -39.16 -596.03003
-7.25 -39.150002 -595.91998
-6.71 -39.150002 -595.90002
-6.1599998 -39.150002 -595.83002
-5.6100001 -39.150002 -595.87
-5.0700002 -39.150002 -595.83002
-4.52 -39.139999 -595.67999
-3.97 -39.119999 -595.46997
-3.4300001 -39.110001 -595.22998
-2.8800001 -39.099998 -595.09998
-2.3399999 -39.09 -595.01001
-1.79 -39.09 -594.92999
-1.25 -39.080002 -594.89001
-0.69999999 -39.080002 -594.87
-0.16 -39.07 -594.71002
0.38999999 -39.060001 -594.57001
0.93000001 -39.060001 -594.48999
1.48 -39.040001 -594.22998
2.02 -39.02 -593.97998
2.5699999 -39.02 -593.87
3.1099999 -39.009998 -593.81
3.6500001 -39.009998 -593.73999
4.1999998 -38.990002 -593.56
4.7399998 -38.98 -593.40002
5.2800002 -38.970001 -593.19
5.8200002 -38.959999 -593.02002
6.3600001 -38.939999 -592.82001
6.9000001 -38.939999 -592.69
7.4499998 -38.93 -592.53003
7.9899998 -38.91 -592.35999
8.5200005 -38.900002 -592.10999
9.0600004 -38.880001 -591.84998
9.6000004 -38.860001 -591.52002
10.14 -38.849998 -591.35999
10.68 -38.830002 -591.09003
11.21 -38.82 -590.91998
11.75 -38.810001 -590.73999
12.29 -38.790001 -590.52002
12.82 -38.779999 -590.31
13.36 -38.77 -590.21997
13.9 -38.759998 -590.09003
14.44 -38.759998 -590.04999
14.98 -38.759998 -589.97998
15.52 -38.75 -589.90002
16.059999 -38.75 -589.90997
16.59 -38.740002 -589.75
17.129999 -38.73 -589.53998
17.66 -38.720001 -589.40002
18.200001 -38.709999 -589.32001
18.74 -38.709999 -589.25
19.280001 -38.700001 -589.15997
19.809999 -38.700001 -589.08002
20.35 -38.689999 -588.96997
20.879999 -38.669998 -588.69
21.4 -38.639999 -588.27002
21.93 -38.619999 -587.95001
22.450001 -38.599998 -587.58002
22.98 -38.580002 -587.38
23.51 -38.560001 -587.07001
24.040001 -38.549999 -586.94
24.57 -38.540001 -586.78003
25.110001 -38.540001 -586.70001
25.639999 -38.540001 -586.69
26.18 -38.540001 -586.75
26.719999 -38.540001 -586.77002
27.26 -38.540001 -586.77002
27.799999 -38.549999 -586.90002
28.34 -38.549999 -586.92999
28.889999 -38.57 -587.10999
29.43 -38.57 -587.22998
29.98 -38.580002 -587.32001
30.52 -38.59 -587.42999
31.07 -38.599998 -587.57001
31.610001 -38.610001 -587.69
32.150002 -38.610001 -587.78998
32.689999 -38.610001 -587.77002
33.23 -38.619999 -587.84003
33.779999 -38.619999 -587.91998
34.32 -38.630001 -587.97998
34.860001 -38.630001 -588.01001
35.41 -38.639999 -588.16998
35.950001 -38.639999 -588.26001
36.490002 -38.650002 -588.29999
37.040001 -38.650002 -588.40997
37.580002 -38.66 -588.45001
38.119999 -38.66 -588.47998
38.650002 -38.650002 -588.28998
39.169998 -38.630001 -587.96997
39.68 -38.599998 -587.65002
40.209999 -38.59 -587.48999
40.75 -38.59 -587.46002
41.290001 -38.599998 -587.53003
41.849998 -38.610001 -587.78998
42.43 -38.650002 -588.34003
43.02 -38.700001 -589.09003
43.630001 -38.759998 -590.01001
44.25 -38.830002 -591.02002
44.84 -38.869999 -591.64001
45.470001 -38.950001 -592.76001
47.43 -39.220001 -596.92999
47.990002 -39.23 -597.01001
48.560001 -39.25 -597.28998
49.139999 -39.27 -597.65002
49.700001 -39.290001 -597.90002
50.259998 -39.299999 -598.01001
50.810001 -39.299999 -597.97998
51.369999 -39.310001 -598.14001
51.93 -39.32 -598.31
52.509998 -39.34 -598.63
53.110001 -39.369999 -599.15997
53.709999 -39.41 -599.71997
54.299999 -39.450001 -600.21997
54.970001 -39.529999 -601.46002
55.66 -39.630001 -603
56.369999 -39.740002 -604.62
-144.10001 -38.200001 -573.38
-143.36 -38.139999 -572.54999
-142.71001 -38.110001 -572.03003
-142.11 -38.09 -571.73999
-141.56 -38.080002 -571.64001
-141.03999 -38.080002 -571.65002
-140.53 -38.09 -571.71002
-139.95 -38.07 -571.5
-139.28 -38.029999 -570.87
-138.77 -38.029999 -570.94
-138.27 -38.040001 -571.04999
-137.77 -38.049999 -571.12
-137.25 -38.049999 -571.15002
-136.75999 -38.060001 -571.29999
-136.25999 -38.060001 -571.38
-135.74001 -38.060001 -571.38
-135.25 -38.07 -571.51001
-134.75999 -38.080002 -571.69
-134.28 -38.099998 -571.87
-133.78999 -38.110001 -572.01001
-133.31 -38.119999 -572.20001
-132.84 -38.130001 -572.40002
-132.36 -38.150002 -572.62
-131.89 -38.16 -572.82001
-131.41 -38.169998 -573.02002
-130.92 -38.189999 -573.17999
-130.47 -38.209999 -573.48999
-129.97 -38.209999 -573.62
-129.52 -38.240002 -573.96997
-129.08 -38.259998 -574.32001
-128.61 -38.279999 -574.58002
-128.12 -38.290001 -574.75
-127.67 -38.310001 -575.09003
-127.19 -38.330002 -575.28998
-126.74 -38.349998 -575.64001
-126.27 -38.369999 -575.89001
-125.78 -38.380001 -576.03998
-125.28 -38.389999 -576.19
-124.79 -38.400002 -576.38
-124.32 -38.419998 -576.60999
-123.86 -38.439999 -576.91998
-123.39 -38.459999 -577.21002
-122.92 -38.48 -577.5
-122.41 -38.48 -577.54999
-109.38 -43.869999 -657.23999
-108.79 -43.880001 -657.37
-108.11 -43.84 -656.88
-107.48 -43.830002 -656.76001
-106.88 -43.830002 -656.75
-106.22 -43.810001 -656.42999
-105.63 -43.82 -656.48999
-105.05 -43.82 -656.59998
-104.36 -43.790001 -656.09003
-103.71 -43.77 -655.77002
-103.12 -43.77 -655.89001
-102.48 -43.759998 -655.64001
-101.88 -43.759998 -655.65997
-101.24 -43.740002 -655.38
-100.6 -43.720001 -655.16998
-100 -43.73 -655.17999
-99.410004 -43.73 -655.27002
-98.809998 -43.73 -655.25
-98.220001 -43.73 -655.32001
-97.57 -43.709999 -655
-97.010002 -43.73 -655.32001
-96.480003 -43.77 -655.81
-95.900002 -43.779999 -655.95001
-95.269997 -43.759998 -655.77002
-94.639999 -43.75 -655.52002
-94.050003 -43.75 -655.62
-93.459999 -43.759998 -655.70001
-92.910004 -43.790001 -656.12
-92.279999 -43.77 -655.90002
-91.639999 -43.75 -655.65002
-91.050003 -43.759998 -655.71997
-90.5 -43.779999 -656.07001
-89.900002 -43.779999 -656.09003
-84.809998 -41.869999 -627.78003
-84.080002 -41.790001 -626.66998
-83.239998 -41.66 -624.65002
-82.599998 -41.619999 -624.15997
-81.839996 -41.529999 -622.81
-81.120003 -41.459999 -621.69
-80.470001 -41.41 -621.02002
-79.599998 -41.25 -618.72998
-78.959999 -41.220001 -618.15997
-78.370003 -41.209999 -618.02002
-77.830002 -41.220001 -618.21997
-77.260002 -41.220001 -618.21002
-76.699997 -41.220001 -618.21997
-76.110001 -41.209999 -618.06
-75.519997 -41.200001 -617.88
-74.889999 -41.16 -617.41998
-74.300003 -41.150002 -617.16998
-73.690002 -41.130001 -616.87
-73.089996 -41.110001 -616.54999
-72.5 -41.09 -616.35999
-71.849998 -41.040001 -615.59998
-71.269997 -41.029999 -615.46997
-70.57 -40.959999 -614.35999
-69.790001 -40.830002 -612.46997
-62.84 -37.669998 -565.84003
-62.310001 -37.66 -565.71002
-61.790001 -37.66 -565.71997
-61.279999 -37.669998 -565.78003
-60.77 -37.669998 -565.84998
-60.259998 -37.68 -565.96002
-59.759998 -37.689999 -566.08002
-59.25 -37.700001 -566.19
-58.75 -37.709999 -566.38
-58.259998 -37.73 -566.65002
-57.77 -37.740002 -566.87
-57.27 -37.759998 -567.14001
-56.779999 -37.779999 -567.40002
-56.299999 -37.799999 -567.77002
-55.810001 -37.82 -568.09998
-55.34 -37.860001 -568.62
-54.869999 -37.900002 -569.15997
-54.43 -37.950001 -569.91998
-53.959999 -37.990002 -570.52002
-53.48 -38.02 -570.94
-53.009998 -38.049999 -571.52002
-52.549999 -38.099998 -572.22998
-52.09 -38.139999 -572.83002
-51.650002 -38.209999 -573.82001
-51.200001 -38.27 -574.64001
-51.259998 -38.709999 -581.23999
-52.34 -39.939999 -599.39001
-52.209999 -40.259998 -604.15002
-51.619999 -40.23 -603.71997
-51.029999 -40.200001 -603.29999
-50.450001 -40.18 -603.02002
-49.889999 -40.169998 -602.87
-49.32 -40.16 -602.67999
-48.73 -40.130001 -602.28003
-48.16 -40.119999 -602.02002
-47.57 -40.09 -601.60999
-47.009998 -40.080002 -601.45001
-46.43 -40.060001 -601.12
-45.869999 -40.040001 -600.90997
-45.299999 -40.02 -600.66998
-44.73 -40.009998 -600.46002
-44.16 -40 -600.25
-43.59 -39.98 -599.98999
-43 -39.939999 -599.38
-42.43 -39.919998 -599.07001
-41.860001 -39.900002 -598.87
-41.310001 -39.889999 -598.75
-40.75 -39.880001 -598.57001
-40.169998 -39.849998 -598.09998
-39.57 -39.810001 -597.46002
-39.009998 -39.790001 -597.19
-38.450001 -39.77 -597
-37.880001 -39.75 -596.64001
-37.290001 -39.709999 -596.01001
-36.73 -39.689999 -595.76001
-36.16 -39.669998 -595.39001
-35.59 -39.639999 -595
-35.029999 -39.619999 -594.75
-34.48 -39.619999 -594.67999
-33.919998 -39.599998 -594.42999
-33.360001 -39.580002 -594.16998
-32.82 -39.580002 -594.09998
-32.259998 -39.560001 -593.88
-31.709999 -39.560001 -593.83002
-31.18 -39.57 -593.98999
-30.629999 -39.57 -593.95001
-30.08 -39.560001 -593.84998
-29.530001 -39.549999 -593.70001
-28.98 -39.549999 -593.65002
-28.43 -39.540001 -593.58002
-27.889999 -39.549999 -593.66998
-27.360001 -39.560001 -593.87
-26.83 -39.580002 -594.08002
-26.290001 -39.59 -594.33002
-25.74 -39.59 -594.23999
-25.209999 -39.599998 -594.46002
-24.67 -39.610001 -594.57001
-24.139999 -39.630001 -594.90002
-23.6 -39.639999 -595.07001
-23.059999 -39.650002 -595.21002
-22.52 -39.669998 -595.45001
-21.98 -39.669998 -595.56
-21.450001 -39.689999 -595.81
-20.91 -39.720001 -596.20001
-20.370001 -39.73 -596.31
-19.82 -39.720001 -596.25
-19.280001 -39.720001 -596.26001
-18.73 -39.73 -596.35999
-18.200001 -39.759998 -596.84003
-17.66 -39.779999 -597.06
-17.110001 -39.77 -597.02002
-16.559999 -39.77 -596.91998
-16.02 -39.77 -596.92999
-15.47 -39.77 -596.91998
-14.92 -39.77 -596.97998
-14.38 -39.77 -596.92999
-13.83 -39.77 -596.90997
-13.28 -39.759998 -596.88
-12.73 -39.759998 -596.90002
-12.18 -39.75 -596.71997
-11.64 -39.75 -596.63
-11.09 -39.740002 -596.57001
-10.54 -39.73 -596.44
-9.9899998 -39.73 -596.32001
-9.4399996 -39.720001 -596.31
-8.8900003 -39.709999 -596.13
-8.3500004 -39.709999 -596.04999
-7.8000002 -39.689999 -595.85999
-7.25 -39.700001 -595.88
-6.71 -39.689999 -595.82001
-6.1599998 -39.689999 -595.83002
-5.6100001 -39.689999 -595.82001
-5.0700002 -39.68 -595.65997
-4.52 -39.669998 -595.45001
-3.97 -39.66 -595.28998
-3.4300001 -39.639999 -595.14001
-2.8800001 -39.639999 -595.03998
-2.3399999 -39.630001 -594.92999
-1.79 -39.630001 -594.85999
-1.25 -39.619999 -594.79999
-0.69999999 -39.619999 -594.75
-0.16 -39.610001 -594.64001
0.38999999 -39.610001 -594.56
0.93000001 -39.59 -594.32001
1.48 -39.580002 -594.14001
2.02 -39.57 -594.04999
2.5699999 -39.560001 -593.84998
3.1099999 -39.549999 -593.76001
3.6500001 -39.540001 -593.59003
4.1900001 -39.529999 -593.45001
4.7399998 -39.52 -593.31
5.2800002 -39.509998 -593.09998
5.8200002 -39.490002 -592.89001
6.3600001 -39.470001 -592.59998
6.9000001 -39.470001 -592.52002
7.4400001 -39.459999 -592.34998
7.98 -39.439999 -592.09998
8.5200005 -39.419998 -591.83002
9.0600004 -39.41 -591.63
9.6000004 -39.389999 -591.34998
10.14 -39.380001 -591.17999
10.67 -39.360001 -590.89001
11.21 -39.34 -590.65997
11.75 -39.330002 -590.42999
12.28 -39.32 -590.28003
12.82 -39.299999 -590.07001
13.36 -39.299999 -590.02002
13.9 -39.290001 -589.89001
14.43 -39.279999 -589.75
14.97 -39.279999 -589.71002
15.51 -39.279999 -589.67999
16.049999 -39.259998 -589.44
16.58 -39.25 -589.27002
17.120001 -39.240002 -589.09998
17.65 -39.23 -589.02002
18.190001 -39.23 -588.92999
18.73 -39.220001 -588.81
19.26 -39.209999 -588.65002
19.799999 -39.200001 -588.59003
20.33 -39.189999 -588.33002
20.860001 -39.169998 -588.13
21.379999 -39.150002 -587.78003
21.91 -39.130001 -587.48999
22.43 -39.099998 -587.07001
22.959999 -39.09 -586.85999
23.49 -39.07 -586.65002
24.02 -39.060001 -586.48999
24.549999 -39.049999 -586.32001
25.09 -39.040001 -586.22998
25.620001 -39.049999 -586.25
26.16 -39.049999 -586.25
26.700001 -39.049999 -586.25
27.24 -39.049999 -586.37
27.780001 -39.060001 -586.44
28.32 -39.060001 -586.5
28.860001 -39.060001 -586.53003
29.4 -39.07 -586.65002
29.950001 -39.080002 -586.82001
30.49 -39.09 -586.90002
31.030001 -39.099998 -587
31.58 -39.110001 -587.13
32.130001 -39.119999 -587.31
32.669998 -39.119999 -587.31
33.209999 -39.119999 -587.39001
33.75 -39.130001 -587.46002
34.299999 -39.139999 -587.57001
34.830002 -39.139999 -587.56
35.380001 -39.139999 -587.66998
35.919998 -39.150002 -587.77002
36.470001 -39.16 -587.84998
37.009998 -39.16 -587.88
37.549999 -39.16 -587.95001
38.09 -39.169998 -588.03998
38.619999 -39.16 -587.89001
39.139999 -39.130001 -587.52002
39.650002 -39.110001 -587.16998
40.169998 -39.09 -586.91998
40.709999 -39.09 -586.87
41.25 -39.09 -586.91998
41.799999 -39.110001 -587.16998
42.360001 -39.130001 -587.47998
42.98 -39.200001 -588.54999
43.580002 -39.25 -589.27002
44.189999 -39.32 -590.21997
44.790001 -39.369999 -591.03003
45.43 -39.459999 -592.29999
46.060001 -39.529999 -593.34003
46.73 -39.639999 -594.98999
47.34 -39.689999 -595.73999
47.919998 -39.720001 -596.13
48.48 -39.740002 -596.40002
49.07 -39.77 -596.85999
49.650002 -39.790001 -597.21002
50.200001 -39.799999 -597.34003
50.759998 -39.810001 -597.41998
51.32 -39.810001 -597.52002
51.880001 -39.82 -597.67999
52.459999 -39.849998 -598.09998
53.060001 -39.889999 -598.64001
53.669998 -39.93 -599.27002
54.279999 -39.98 -599.96997
54.959999 -40.07 -601.37
55.66 -40.18 -602.91998
56.330002 -40.27 -604.22998
-144.17 -38.740002 -573.64001
-143.44 -38.689999 -572.87
-142.73 -38.639999 -572.14001
-142.13 -38.619999 -571.83002
-141.55 -38.599998 -571.60999
-141.02 -38.599998 -571.54999
-140.49001 -38.599998 -571.54999
-139.94 -38.59 -571.42999
-139.28 -38.549999 -570.90002
-138.77 -38.560001 -570.92999
-138.3 -38.57 -571.13
-137.81 -38.580002 -571.28998
-137.27 -38.580002 -571.22998
-136.75999 -38.580002 -571.28998
-136.28 -38.59 -571.45001
-135.75999 -38.59 -571.46002
-135.25 -38.599998 -571.53003
-134.77 -38.610001 -571.71002
-134.28999 -38.619999 -571.89001
-133.82001 -38.639999 -572.12
-133.35001 -38.650002 -572.34003
-132.86 -38.66 -572.47998
-132.37 -38.669998 -572.64001
-131.87 -38.68 -572.77002
-131.39999 -38.700001 -572.98999
-130.91 -38.709999 -573.14001
-130.44 -38.720001 -573.37
-129.97 -38.740002 -573.60999
-129.49001 -38.75 -573.83002
-129.02 -38.77 -574.07001
-128.57001 -38.790001 -574.40997
-128.09 -38.810001 -574.60999
-127.62 -38.830002 -574.85999
-127.16 -38.84 -575.14001
-126.69 -38.860001 -575.41998
-126.24 -38.889999 -575.77002
-125.75 -38.900002 -575.92999
-125.27 -38.91 -576.13
-124.78 -38.919998 -576.31
-124.31 -38.939999 -576.58002
-123.86 -38.970001 -576.95001
-123.41 -38.990002 -577.28998
-122.95 -39.02 -577.63
-109.34 -44.459999 -657.01001
-108.79 -44.48 -657.35999
-108.14 -44.459999 -657.07001
-107.51 -44.450001 -656.90997
-106.93 -44.459999 -657.03003
-106.25 -44.43 -656.60999
-105.62 -44.41 -656.44
-105.07 -44.439999 -656.75
-104.43 -44.419998 -656.53998
-103.77 -44.389999 -656.14001
-103.19 -44.400002 -656.28003
-102.57 -44.400002 -656.21002
-101.94 -44.380001 -656.01001
-101.33 -44.380001 -655.95001
-100.72 -44.380001 -655.91998
-100.07 -44.360001 -655.65002
-99.480003 -44.360001 -655.69
-98.910004 -44.380001 -655.95001
-98.349998 -44.400002 -656.19
-97.730003 -44.389999 -656.09998
-97.099998 -44.380001 -655.91998
-96.529999 -44.389999 -656.09003
-95.980003 -44.41 -656.47998
-95.459999 -44.450001 -657.03998
-94.860001 -44.450001 -657.07001
-94.190002 -44.419998 -656.62
-93.540001 -44.400002 -656.27002
-92.989998 -44.419998 -656.60999
-92.43 -44.450001 -656.95001
-91.830002 -44.439999 -656.94
-91.160004 -44.41 -656.47998
-90.589996 -44.43 -656.71997
-90.019997 -44.450001 -656.96997
-89.489998 -44.48 -657.52002
-89.019997 -44.549999 -658.5
-84.480003 -42.560001 -629.53998
-83.519997 -42.369999 -626.77002
-82.709999 -42.25 -625
-82.080002 -42.220001 -624.59998
-81.300003 -42.119999 -623.03998
-80.669998 -42.080002 -622.53998
-79.959999 -42.009998 -621.46997
-79.110001 -41.860001 -619.32001
-78.459999 -41.82 -618.69
-77.910004 -41.830002 -618.85999
-77.360001 -41.84 -619
-76.790001 -41.84 -619
-76.199997 -41.830002 -618.83002
-75.599998 -41.810001 -618.53998
-74.959999 -41.77 -617.98999
-74.290001 -41.709999 -617.09003
-73.029999 -41.32 -611.40002
-72.010002 -41.060001 -607.58002
-65.099998 -38.299999 -567.40002
-64.290001 -38.130001 -564.94
-63.77 -38.130001 -564.91998
-63.259998 -38.130001 -564.91998
-62.75 -38.139999 -565.04999
-62.25 -38.150002 -565.17999
-61.740002 -38.150002 -565.21997
-61.240002 -38.16 -565.39001
-60.73 -38.169998 -565.48999
-60.220001 -38.169998 -565.56
-59.720001 -38.18 -565.73999
-59.209999 -38.189999 -565.81
-58.720001 -38.209999 -566.06
-58.220001 -38.220001 -566.26001
-57.73 -38.240002 -566.51001
-57.240002 -38.259998 -566.81
-56.75 -38.27 -567.08002
-56.259998 -38.299999 -567.42999
-55.77 -38.32 -567.71997
-55.310001 -38.360001 -568.33002
-54.84 -38.389999 -568.82001
-54.400002 -38.450001 -569.63
-53.93 -38.490002 -570.22998
-53.48 -38.540001 -570.90002
-53.009998 -38.57 -571.46997
-52.540001 -38.619999 -572.09003
-52.09 -38.669998 -572.87
-51.669998 -38.75 -574.01001
-51.27 -38.849998 -575.41998
-52.900002 -40.5 -599.53003
-52.810001 -40.849998 -604.71997
-52.220001 -40.82 -604.28003
-51.639999 -40.799999 -603.92999
-51.049999 -40.77 -603.52002
-50.470001 -40.759998 -603.29999
-49.900002 -40.740002 -603.09003
-49.330002 -40.73 -602.88
-48.740002 -40.700001 -602.41998
-48.169998 -40.68 -602.13
-47.599998 -40.66 -601.88
-47.02 -40.639999 -601.60999
-46.450001 -40.619999 -601.28003
-45.869999 -40.599998 -600.98999
-45.299999 -40.580002 -600.75
-44.740002 -40.57 -600.59998
-44.169998 -40.549999 -600.38
-43.599998 -40.529999 -600.03003
-43.009998 -40.5 -599.56
-42.43 -40.470001 -599.15002
-41.869999 -40.459999 -599
-41.32 -40.459999 -598.95001
-40.759998 -40.439999 -598.72998
-40.169998 -40.400002 -598.10999
-39.580002 -40.360001 -597.62
-39.02 -40.349998 -597.34003
-38.459999 -40.330002 -597.10999
-37.880001 -40.299999 -596.66998
-37.299999 -40.259998 -596.10999
-36.740002 -40.240002 -595.85999
-36.169998 -40.220001 -595.58002
-35.610001 -40.200001 -595.21997
-35.049999 -40.189999 -595.08002
-34.5 -40.18 -594.95001
-33.939999 -40.16 -594.65002
-33.380001 -40.139999 -594.40997
-32.82 -40.130001 -594.17999
-32.279999 -40.130001 -594.20001
-31.73 -40.119999 -594.09998
-31.18 -40.119999 -594.09998
-30.639999 -40.119999 -594.08002
-30.1 -40.130001 -594.16998
-29.549999 -40.119999 -594.10999
-29 -40.119999 -594.09003
-28.450001 -40.110001 -593.98999
-27.91 -40.119999 -594.08002
-27.379999 -40.130001 -594.20001
-26.84 -40.139999 -594.39001
-26.299999 -40.150002 -594.46002
-25.76 -40.150002 -594.53003
-25.219999 -40.16 -594.69
-24.690001 -40.18 -594.96997
-24.15 -40.200001 -595.28998
-23.610001 -40.209999 -595.34003
-23.07 -40.209999 -595.46997
-22.530001 -40.220001 -595.59003
-21.99 -40.240002 -595.77002
-21.459999 -40.27 -596.26001
-20.92 -40.279999 -596.39001
-20.370001 -40.279999 -596.38
-19.83 -40.279999 -596.46002
-19.280001 -40.279999 -596.47998
-18.75 -40.310001 -596.85999
-18.209999 -40.32 -597.07001
-17.66 -40.32 -597.04999
-17.110001 -40.32 -597
-16.57 -40.32 -597.03003
-16.02 -40.32 -596.97998
-15.47 -40.310001 -596.94
-14.92 -40.32 -596.95001
-14.38 -40.32 -596.96997
-13.83 -40.310001 -596.92999
-13.28 -40.310001 -596.88
-12.73 -40.299999 -596.78003
-12.18 -40.299999 -596.77002
-11.64 -40.290001 -596.65002
-11.09 -40.279999 -596.42999
-10.54 -40.279999 -596.40002
-9.9899998 -40.279999 -596.38
-9.4399996 -40.259998 -596.17999
-8.8900003 -40.25 -596.03003
-8.3500004 -40.25 -595.94
-7.8000002 -40.240002 -595.91998
-7.25 -40.240002 -595.88
-6.71 -40.25 -596.06
-6.1599998 -40.25 -595.94
-5.6100001 -40.23 -595.73999
-5.0700002 -40.220001 -595.58002
-4.52 -40.209999 -595.35999
-3.97 -40.200001 -595.21997
-3.4300001 -40.189999 -595.08002
-2.8800001 -40.18 -594.97998
-2.3399999 -40.18 -594.94
-1.79 -40.169998 -594.83002
-1.24 -40.16 -594.67999
-0.69999999 -40.16 -594.72998
-0.16 -40.150002 -594.59998
0.38999999 -40.139999 -594.45001
0.93000001 -40.130001 -594.29999
1.48 -40.119999 -594.10999
2.02 -40.110001 -594.02002
2.5699999 -40.110001 -593.92999
3.1099999 -40.09 -593.69
3.6500001 -40.080002 -593.56
4.1900001 -40.07 -593.38
4.7399998 -40.060001 -593.23999
5.2800002 -40.040001 -593.01001
5.8200002 -40.029999 -592.84998
6.3600001 -40.02 -592.62
6.9000001 -40.009998 -592.46002
7.4400001 -40 -592.31
7.98 -39.98 -592.09003
8.5200005 -39.959999 -591.79999
9.0600004 -39.939999 -591.46002
9.6000004 -39.919998 -591.23999
10.13 -39.91 -591.03003
10.67 -39.889999 -590.67999
11.2 -39.869999 -590.44
11.74 -39.849998 -590.21002
12.28 -39.849998 -590.09998
12.82 -39.830002 -589.90997
13.35 -39.830002 -589.82001
13.89 -39.82 -589.72998
14.43 -39.810001 -589.65002
14.97 -39.810001 -589.53003
15.5 -39.790001 -589.29999
16.040001 -39.779999 -589.08002
16.57 -39.759998 -588.88
17.110001 -39.759998 -588.78003
17.639999 -39.740002 -588.60999
18.18 -39.73 -588.46997
18.709999 -39.73 -588.41998
19.25 -39.720001 -588.22998
19.780001 -39.709999 -588.09003
20.309999 -39.700001 -587.90997
20.84 -39.669998 -587.59998
21.360001 -39.650002 -587.19
21.889999 -39.630001 -586.97998
22.42 -39.610001 -586.69
22.950001 -39.599998 -586.46997
23.48 -39.580002 -586.25
24 -39.57 -586.04999
24.540001 -39.560001 -585.97998
25.07 -39.549999 -585.81
25.610001 -39.549999 -585.84003
26.139999 -39.549999 -585.79999
26.68 -39.549999 -585.78003
27.219999 -39.549999 -585.84003
27.76 -39.560001 -585.90002
28.299999 -39.560001 -585.98999
28.84 -39.580002 -586.14001
29.379999 -39.580002 -586.20001
29.93 -39.59 -586.35999
30.469999 -39.59 -586.41998
31.01 -39.599998 -586.54999
31.559999 -39.610001 -586.67999
32.099998 -39.619999 -586.79999
32.639999 -39.619999 -586.81
33.18 -39.630001 -586.88
33.720001 -39.639999 -587.01001
34.27 -39.639999 -587.06
34.810001 -39.639999 -587.12
35.349998 -39.650002 -587.27002
35.900002 -39.66 -587.32001
36.439999 -39.66 -587.40997
36.98 -39.669998 -587.5
37.529999 -39.68 -587.60999
38.07 -39.68 -587.66998
38.599998 -39.68 -587.59998
39.119999 -39.66 -587.31
39.630001 -39.619999 -586.82001
40.139999 -39.599998 -586.5
40.669998 -39.599998 -586.40997
41.209999 -39.59 -586.35999
41.75 -39.599998 -586.46002
42.330002 -39.630001 -586.96997
42.91 -39.68 -587.59003
43.52 -39.75 -588.58002
44.139999 -39.82 -589.65002
44.740002 -39.869999 -590.34998
45.360001 -39.93 -591.31
45.98 -40.009998 -592.40002
46.639999 -40.099998 -593.78003
47.259998 -40.169998 -594.73999
47.84 -40.200001 -595.20001
48.419998 -40.23 -595.66998
49.009998 -40.27 -596.20001
49.580002 -40.279999 -596.38
50.139999 -40.290001 -596.53003
50.689999 -40.299999 -596.63
51.259998 -40.32 -596.89001
51.830002 -40.330002 -597.14001
52.419998 -40.369999 -597.65002
53.02 -40.41 -598.21002
53.619999 -40.450001 -598.78998
54.259998 -40.52 -599.78998
54.959999 -40.630001 -601.40002
55.669998 -40.740002 -603.03998
56.310001 -40.810001 -604.03003
-144.24001 -39.290001 -573.91998
-143.50999 -39.23 -573.14001
-142.77 -39.169998 -572.28998
-142.16 -39.150002 -571.91998
-141.56 -39.130001 -571.64001
-141 -39.119999 -571.48999
-140.47 -39.119999 -571.46002
-139.92 -39.110001 -571.34003
-139.28999 -39.080002 -570.94
-138.75 -39.080002 -570.88
-138.32001 -39.099998 -571.22998
-137.8 -39.099998 -571.25
-137.27 -39.099998 -571.23999
-136.77 -39.110001 -571.32001
-136.28 -39.119999 -571.47998
-135.78999 -39.119999 -571.59003
-135.28 -39.130001 -571.65997
-134.78999 -39.139999 -571.81
-134.3 -39.150002 -571.90997
-133.8 -39.16 -572.06
-133.34 -39.169998 -572.28998
-132.84 -39.18 -572.40997
-132.36 -39.189999 -572.59003
-131.86 -39.200001 -572.70001
-131.39 -39.220001 -572.92999
-130.88 -39.220001 -573.01001
-130.41 -39.240002 -573.26001
-129.92999 -39.25 -573.44
-129.48 -39.279999 -573.75
-129.00999 -39.290001 -574.01001
-128.53 -39.310001 -574.22998
-128.05 -39.32 -574.44
-127.59 -39.34 -574.70001
-127.11 -39.360001 -574.92999
-126.66 -39.380001 -575.28003
-126.19 -39.400002 -575.53998
-125.72 -39.419998 -575.78998
-125.26 -39.439999 -576.09998
-124.79 -39.459999 -576.35999
-124.33 -39.48 -576.65997
-123.88 -39.5 -577.03998
-123.43 -39.529999 -577.40997
-122.98 -39.549999 -577.76001
-108.7 -45.040001 -656.82001
-108.1 -45.049999 -656.83002
-107.5 -45.040001 -656.82001
-106.94 -45.060001 -657.09998
-106.32 -45.060001 -656.97998
-105.66 -45.029999 -656.69
-105.1 -45.049999 -656.91998
-104.51 -45.060001 -656.98999
-103.83 -45.029999 -656.56
-103.21 -45.02 -656.44
-102.63 -45.029999 -656.59003
-102.01 -45.02 -656.45001
-101.35 -45 -656.14001
-100.77 -45.009998 -656.28003
-100.21 -45.02 -656.5
-99.639999 -45.040001 -656.76001
-99.029999 -45.029999 -656.67999
-98.419998 -45.029999 -656.65002
-97.860001 -45.049999 -656.95001
-97.230003 -45.040001 -656.76001
-96.610001 -45.029999 -656.65002
-96.040001 -45.049999 -656.90002
-95.489998 -45.07 -657.22998
-94.970001 -45.110001 -657.83002
-94.410004 -45.130001 -658.14001
-93.709999 -45.09 -657.47998
-93.050003 -45.060001 -657.06
-92.489998 -45.080002 -657.35999
-91.980003 -45.130001 -658.06
-91.400002 -45.139999 -658.20001
-90.769997 -45.130001 -658.04999
-90.18 -45.130001 -658.15002
-89.830002 -45.259998 -659.94
-90.190002 -46.060001 -671.51001
-89.790001 -46.169998 -673.13
-83.769997 -43.369999 -632.85999
-82.209999 -42.860001 -625.54999
-81.5 -42.790001 -624.51001
-80.75 -42.700001 -623.15002
-80.199997 -42.709999 -623.31
-79.5 -42.639999 -622.34003
-78.610001 -42.470001 -619.87
-78 -42.450001 -619.57001
-77.459999 -42.459999 -619.79999
-76.889999 -42.459999 -619.72998
-76.290001 -42.439999 -619.51001
-75.650002 -42.41 -618.97998
-67.57 -38.75 -566.35999
-66.800003 -38.599998 -564.28998
-66.279999 -38.599998 -564.20001
-65.760002 -38.599998 -564.20001
-65.25 -38.599998 -564.27002
-64.739998 -38.599998 -564.29999
-64.230003 -38.610001 -564.40002
-63.720001 -38.619999 -564.47998
-63.220001 -38.619999 -564.60999
-62.720001 -38.630001 -564.75
-62.209999 -38.639999 -564.83002
-61.709999 -38.650002 -564.98999
-61.209999 -38.66 -565.14001
-60.689999 -38.66 -565.14001
-60.189999 -38.669998 -565.25
-59.68 -38.68 -565.38
-59.189999 -38.689999 -565.58002
-58.689999 -38.700001 -565.78003
-58.189999 -38.720001 -566
-57.700001 -38.73 -566.21997
-57.209999 -38.75 -566.5
-56.709999 -38.77 -566.71997
-56.23 -38.799999 -567.10999
-55.75 -38.82 -567.5
-55.290001 -38.860001 -568.07001
-54.82 -38.900002 -568.62
-54.369999 -38.950001 -569.34003
-53.91 -39 -570.01001
-53.450001 -39.040001 -570.65997
-52.990002 -39.09 -571.32001
-52.540001 -39.139999 -572.07001
-52.09 -39.200001 -572.88
-51.709999 -39.310001 -574.48999
-53.400002 -41.439999 -605.10999
-52.830002 -41.419998 -604.89001
-52.220001 -41.380001 -604.32001
-51.639999 -41.349998 -603.91998
-51.07 -41.34 -603.72998
-50.490002 -41.32 -603.44
-49.919998 -41.310001 -603.28003
-49.349998 -41.290001 -603.03003
-48.77 -41.27 -602.71002
-48.18 -41.240002 -602.34003
-47.610001 -41.220001 -602.08002
-47.029999 -41.200001 -601.76001
-46.459999 -41.18 -601.40997
-45.889999 -41.16 -601.16998
-45.310001 -41.139999 -600.84998
-44.75 -41.130001 -600.67999
-44.18 -41.110001 -600.47998
-43.599998 -41.080002 -600.02002
-43.02 -41.049999 -599.63
-42.450001 -41.029999 -599.31
-41.889999 -41.02 -599.15002
-41.330002 -41.009998 -599.08002
-40.75 -40.98 -598.64001
-40.169998 -40.950001 -598.12
-39.59 -40.919998 -597.72998
-39.029999 -40.91 -597.53998
-38.459999 -40.880001 -597.21002
-37.880001 -40.84 -596.60999
-37.310001 -40.810001 -596.21997
-36.740002 -40.799999 -595.98999
-36.18 -40.779999 -595.66998
-35.619999 -40.759998 -595.40997
-35.060001 -40.740002 -595.15002
-34.509998 -40.740002 -595.13
-33.939999 -40.709999 -594.75
-33.380001 -40.689999 -594.46997
-32.830002 -40.689999 -594.37
-32.290001 -40.689999 -594.42999
-31.73 -40.669998 -594.19
-31.190001 -40.669998 -594.21997
-30.65 -40.68 -594.28003
-30.110001 -40.68 -594.34998
-29.559999 -40.68 -594.34003
-29.01 -40.68 -594.31
-28.469999 -40.68 -594.29999
-27.93 -40.68 -594.34998
-27.389999 -40.700001 -594.54999
-26.85 -40.700001 -594.65997
-26.309999 -40.700001 -594.64001
-25.77 -40.709999 -594.75
-25.24 -40.73 -595.06
-24.709999 -40.759998 -595.42999
-24.16 -40.759998 -595.48999
-23.620001 -40.759998 -595.5
-23.07 -40.77 -595.57001
-22.540001 -40.779999 -595.77002
-22.01 -40.810001 -596.15997
-21.469999 -40.84 -596.59003
-20.93 -40.830002 -596.53003
-20.379999 -40.830002 -596.5
-19.83 -40.84 -596.60999
-19.299999 -40.860001 -596.89001
-18.76 -40.869999 -597.08002
-18.209999 -40.869999 -597.03003
-17.66 -40.869999 -597.03003
-17.120001 -40.869999 -597.07001
-16.57 -40.869999 -597.03998
-16.02 -40.869999 -597.08002
-15.47 -40.869999 -597.09998
-14.93 -40.869999 -597.07001
-14.38 -40.860001 -596.98999
-13.83 -40.869999 -596.98999
-13.28 -40.849998 -596.81
-12.73 -40.849998 -596.78998
-12.18 -40.84 -596.67999
-11.63 -40.830002 -596.53003
-11.08 -40.82 -596.37
-10.54 -40.82 -596.34998
-9.9899998 -40.810001 -596.14001
-9.4399996 -40.799999 -596.09003
-8.8900003 -40.799999 -596.02002
-8.3500004 -40.790001 -595.96002
-7.8000002 -40.790001 -595.97998
-7.2600002 -40.799999 -596.08002
-6.71 -40.790001 -595.91998
-6.1599998 -40.779999 -595.71002
-5.6100001 -40.77 -595.65002
-5.0700002 -40.759998 -595.53003
-4.52 -40.75 -595.33002
-3.97 -40.740002 -595.25
-3.4300001 -40.73 -595.04999
-2.8800001 -40.73 -595
-2.3399999 -40.720001 -594.84998
-1.79 -40.709999 -594.78998
-1.24 -40.709999 -594.71997
-0.69999999 -40.709999 -594.71997
-0.16 -40.700001 -594.58002
0.38999999 -40.689999 -594.47998
0.93000001 -40.669998 -594.21997
1.48 -40.66 -594.02002
2.02 -40.650002 -593.96002
2.5699999 -40.650002 -593.90002
3.1099999 -40.630001 -593.60999
3.6500001 -40.619999 -593.47998
4.1900001 -40.610001 -593.34003
4.7399998 -40.610001 -593.26001
5.2800002 -40.59 -592.97998
5.8200002 -40.580002 -592.87
6.3600001 -40.560001 -592.62
6.9000001 -40.549999 -592.40997
7.4400001 -40.529999 -592.12
7.98 -40.509998 -591.85999
8.5200005 -40.490002 -591.60999
9.0600004 -40.48 -591.39001
9.5900002 -40.450001 -591.09003
10.13 -40.439999 -590.85999
10.67 -40.419998 -590.54999
11.2 -40.400002 -590.26001
11.74 -40.389999 -590.13
12.28 -40.380001 -589.97998
12.81 -40.360001 -589.71002
13.35 -40.360001 -589.65997
13.89 -40.349998 -589.53998
14.42 -40.34 -589.37
14.96 -40.32 -589.12
15.49 -40.310001 -589.01001
16.030001 -40.299999 -588.78998
16.559999 -40.279999 -588.62
17.09 -40.27 -588.40002
17.629999 -40.259998 -588.33002
18.17 -40.25 -588.16998
18.700001 -40.240002 -588.04999
19.23 -40.23 -587.88
19.77 -40.220001 -587.73999
20.299999 -40.209999 -587.48999
20.83 -40.189999 -587.22998
21.35 -40.16 -586.90002
21.879999 -40.150002 -586.62
22.41 -40.130001 -586.34003
22.93 -40.110001 -586.12
23.459999 -40.09 -585.84998
23.99 -40.080002 -585.71002
24.52 -40.07 -585.5
25.049999 -40.060001 -585.41998
25.58 -40.060001 -585.35999
26.120001 -40.060001 -585.40997
26.66 -40.060001 -585.40997
27.200001 -40.07 -585.46002
27.74 -40.07 -585.5
28.280001 -40.07 -585.54999
28.82 -40.080002 -585.64001
29.360001 -40.080002 -585.72998
29.9 -40.09 -585.81
30.440001 -40.099998 -585.92999
30.99 -40.110001 -586.08002
31.530001 -40.119999 -586.28003
32.080002 -40.130001 -586.37
32.610001 -40.130001 -586.38
33.16 -40.139999 -586.53998
33.700001 -40.150002 -586.59998
34.240002 -40.150002 -586.69
34.779999 -40.150002 -586.66998
35.32 -40.16 -586.73999
35.869999 -40.169998 -586.89001
36.41 -40.169998 -587.01001
36.950001 -40.18 -587.04999
37.5 -40.18 -587.14001
38.040001 -40.189999 -587.15997
38.580002 -40.189999 -587.26001
39.110001 -40.18 -587.07001
39.610001 -40.139999 -586.5
40.110001 -40.110001 -586.04999
40.639999 -40.099998 -585.85999
41.169998 -40.09 -585.78003
41.709999 -40.099998 -585.89001
42.27 -40.119999 -586.15997
42.869999 -40.18 -587.07001
43.470001 -40.240002 -587.90002
44.09 -40.310001 -588.90002
44.689999 -40.369999 -589.77002
45.310001 -40.439999 -590.75
45.93 -40.5 -591.70001
46.560001 -40.580002 -592.84003
47.18 -40.650002 -593.75
47.790001 -40.700001 -594.56
48.369999 -40.73 -594.98999
48.950001 -40.759998 -595.40997
49.52 -40.779999 -595.66998
50.080002 -40.790001 -595.85999
50.639999 -40.799999 -596
51.220001 -40.830002 -596.37
51.790001 -40.849998 -596.65997
52.380001 -40.880001 -597.15002
52.970001 -40.919998 -597.69
53.599998 -40.98 -598.51001
54.25 -41.060001 -599.69
54.98 -41.189999 -601.57001
55.689999 -41.310001 -603.25
-143.62 -39.790001 -573.56
-142.85001 -39.720001 -572.59998
-142.17999 -39.68 -572.03003
-141.56 -39.650002 -571.62
-141.02 -39.650002 -571.58002
-140.45 -39.639999 -571.40002
-139.92 -39.630001 -571.37
-139.32001 -39.610001 -571.06
-138.78 -39.599998 -570.96002
-138.3 -39.619999 -571.16998
-137.81 -39.630001 -571.28998
-137.31 -39.639999 -571.40002
-136.78999 -39.639999 -571.41998
-136.3 -39.650002 -571.54999
-135.8 -39.650002 -571.64001
-135.32001 -39.66 -571.79999
-134.8 -39.669998 -571.83002
-134.3 -39.669998 -571.96002
-133.82001 -39.689999 -572.13
-133.34 -39.700001 -572.33002
-132.85001 -39.709999 -572.45001
-132.35001 -39.720001 -572.56
-131.84 -39.720001 -572.62
-131.35001 -39.73 -572.78003
-130.87 -39.75 -572.96997
-130.38 -39.759998 -573.13
-129.89999 -39.77 -573.29999
-129.42999 -39.790001 -573.53998
-128.96001 -39.799999 -573.78003
-128.49001 -39.82 -574.04999
-128.02 -39.84 -574.29999
-127.56 -39.860001 -574.57001
-127.09 -39.880001 -574.82001
-126.63 -39.900002 -575.13
-126.17 -39.919998 -575.44
-125.7 -39.939999 -575.67999
-125.23 -39.959999 -575.96002
-124.78 -39.98 -576.32001
-124.33 -40.009998 -576.65997
-123.91 -40.040001 -577.17999
-123.46 -40.07 -577.51001
-123.04 -40.099998 -578.04999
-107.49 -45.650002 -656.79999
-106.94 -45.669998 -657.12
-106.42 -45.700001 -657.64001
-105.77 -45.68 -657.32001
-105.18 -45.689999 -657.46002
-104.58 -45.689999 -657.44
-103.9 -45.66 -656.97998
-103.26 -45.639999 -656.73999
-102.68 -45.650002 -656.90002
-102.1 -45.66 -657.04999
-101.45 -45.639999 -656.76001
-100.89 -45.66 -657.04999
-100.33 -45.68 -657.28998
-99.75 -45.689999 -657.44
-99.110001 -45.669998 -657.23999
-98.489998 -45.66 -657.09998
-97.900002 -45.669998 -657.23999
-97.349998 -45.700001 -657.59003
-96.739998 -45.700001 -657.53998
-96.129997 -45.689999 -657.48999
-95.540001 -45.700001 -657.56
-95.010002 -45.73 -658.04999
-94.489998 -45.77 -658.64001
-93.910004 -45.790001 -658.85999
-93.18 -45.720001 -657.96002
-92.650002 -45.759998 -658.46002
-92.129997 -45.799999 -659.08002
-91.599998 -45.84 -659.59003
-91.849998 -46.580002 -670.14001
-91.599998 -46.77 -672.79999
-90.949997 -46.75 -672.56
-90.290001 -46.73 -672.26001
-89.660004 -46.720001 -672.19
-89.059998 -46.73 -672.29999
-81.709999 -43.48 -626.08002
-80.970001 -43.389999 -624.83002
-80.290001 -43.330002 -624.01001
-79.709999 -43.330002 -623.96997
-78.910004 -43.200001 -622.20001
-78.129997 -43.080002 -620.53998
-77.550003 -43.080002 -620.45001
-76.980003 -43.080002 -620.44
-76.389999 -43.07 -620.28998
-68.339996 -39.110001 -564.19
-67.809998 -39.099998 -564.03998
-67.279999 -39.099998 -563.94
-66.75 -39.09 -563.85999
-66.230003 -39.09 -563.81
-65.709999 -39.080002 -563.77002
-65.199997 -39.09 -563.87
-64.699997 -39.099998 -563.98999
-64.199997 -39.110001 -564.10999
-63.689999 -39.110001 -564.16998
-63.189999 -39.119999 -564.34003
-62.689999 -39.130001 -564.52002
-62.209999 -39.150002 -564.79999
-61.709999 -39.169998 -564.96002
-61.200001 -39.169998 -565.06
-60.689999 -39.169998 -565.07001
-60.169998 -39.169998 -565.07001
-59.66 -39.18 -565.17999
-59.16 -39.189999 -565.34998
-58.66 -39.200001 -565.51001
-58.169998 -39.220001 -565.78003
-57.669998 -39.240002 -565.97998
-57.18 -39.25 -566.21997
-56.689999 -39.27 -566.5
-56.209999 -39.299999 -566.84003
-55.720001 -39.32 -567.20001
-55.259998 -39.360001 -567.75
-54.799999 -39.400002 -568.38
-54.349998 -39.459999 -569.12
-53.889999 -39.5 -569.78003
-53.439999 -39.560001 -570.56
-52.990002 -39.610001 -571.26001
-52.540001 -39.66 -572.03003
-52.130001 -39.75 -573.29999
-53.869999 -41.919998 -604.10999
-53.41 -42 -605.22998
-52.849998 -41.990002 -605.09003
-52.25 -41.959999 -604.62
-51.66 -41.919998 -604.17999
-51.080002 -41.900002 -603.88
-50.509998 -41.889999 -603.66998
-49.939999 -41.880001 -603.48999
-49.369999 -41.860001 -603.28003
-48.779999 -41.830002 -602.84003
-48.200001 -41.799999 -602.47998
-47.630001 -41.790001 -602.31
-47.049999 -41.77 -601.98999
-46.470001 -41.740002 -601.59998
-45.900002 -41.73 -601.35999
-45.32 -41.700001 -600.98999
-44.759998 -41.689999 -600.83002
-44.189999 -41.669998 -600.60999
-43.599998 -41.639999 -600.12
-43.029999 -41.610001 -599.78003
-42.470001 -41.599998 -599.64001
-41.91 -41.59 -599.45001
-41.349998 -41.580002 -599.28003
-40.75 -41.529999 -598.65997
-40.169998 -41.5 -598.20001
-39.599998 -41.48 -597.84998
-39.029999 -41.459999 -597.58002
-38.470001 -41.43 -597.25
-37.880001 -41.400002 -596.71002
-37.32 -41.369999 -596.39001
-36.75 -41.349998 -596.13
-36.189999 -41.34 -595.85999
-35.630001 -41.310001 -595.56
-35.07 -41.310001 -595.44
-34.52 -41.299999 -595.33002
-33.950001 -41.27 -594.87
-33.389999 -41.25 -594.63
-32.84 -41.240002 -594.46997
-32.290001 -41.240002 -594.53003
-31.75 -41.23 -594.44
-31.200001 -41.23 -594.35999
-30.65 -41.220001 -594.28998
-30.110001 -41.23 -594.42999
-29.57 -41.240002 -594.54999
-29.030001 -41.240002 -594.59003
-28.48 -41.240002 -594.56
-27.940001 -41.25 -594.63
-27.41 -41.259998 -594.84003
-26.860001 -41.27 -594.90997
-26.32 -41.27 -594.94
-25.790001 -41.290001 -595.21002
-25.26 -41.310001 -595.54999
-24.709999 -41.310001 -595.53003
-24.16 -41.310001 -595.54999
-23.620001 -41.310001 -595.58002
-23.08 -41.32 -595.71997
-22.549999 -41.349998 -596.09003
-22.02 -41.389999 -596.59998
-21.48 -41.389999 -596.67999
-20.93 -41.389999 -596.64001
-20.389999 -41.400002 -596.73999
-19.85 -41.41 -596.96002
-19.309999 -41.419998 -597.14001
-18.76 -41.43 -597.17999
-18.209999 -41.43 -597.17999
-17.66 -41.419998 -597.15002
-17.120001 -41.419998 -597.15002
-16.57 -41.43 -597.20001
-16.030001 -41.439999 -597.34003
-15.48 -41.439999 -597.33002
-14.93 -41.43 -597.25
-14.38 -41.419998 -597.15002
-13.83 -41.41 -596.94
-13.28 -41.400002 -596.84003
-12.73 -41.400002 -596.76001
-12.18 -41.389999 -596.63
-11.63 -41.380001 -596.53998
-11.08 -41.369999 -596.38
-10.53 -41.360001 -596.20001
-9.9899998 -41.349998 -596.03998
-9.4399996 -41.34 -596.03998
-8.8900003 -41.349998 -596.06
-8.3500004 -41.349998 -596.10999
-7.8000002 -41.349998 -596.09998
-7.25 -41.330002 -595.87
-6.71 -41.330002 -595.83002
-6.1599998 -41.330002 -595.78003
-5.6100001 -41.310001 -595.57001
-5.0700002 -41.299999 -595.44
-4.52 -41.290001 -595.32001
-3.97 -41.290001 -595.29999
-3.4300001 -41.279999 -595.12
-2.8800001 -41.27 -594.96002
-2.3399999 -41.259998 -594.82001
-1.79 -41.259998 -594.84003
-1.25 -41.259998 -594.79999
-0.69999999 -41.25 -594.71002
-0.16 -41.240002 -594.56
0.38999999 -41.23 -594.41998
0.93000001 -41.220001 -594.23999
1.48 -41.209999 -594.12
2.02 -41.189999 -593.90002
2.5699999 -41.189999 -593.84998
3.1099999 -41.18 -593.70001
3.6500001 -41.169998 -593.53998
4.1900001 -41.16 -593.44
4.7399998 -41.150002 -593.21997
5.2800002 -41.130001 -592.96997
5.8200002 -41.119999 -592.78998
6.3600001 -41.099998 -592.62
6.9000001 -41.09 -592.37
7.4400001 -41.07 -592.08002
7.98 -41.049999 -591.85999
8.5200005 -41.029999 -591.62
9.0600004 -41.02 -591.40002
9.5900002 -40.990002 -591.03998
10.13 -40.970001 -590.77002
10.66 -40.950001 -590.41998
11.2 -40.939999 -590.22998
11.74 -40.919998 -590.07001
12.28 -40.91 -589.90997
12.81 -40.900002 -589.69
13.35 -40.889999 -589.52002
13.88 -40.880001 -589.40002
14.42 -40.860001 -589.19
14.95 -40.84 -588.84998
15.49 -40.830002 -588.71002
16.02 -40.82 -588.52002
16.549999 -40.810001 -588.37
17.09 -40.790001 -588.09003
17.620001 -40.779999 -588.02002
18.16 -40.779999 -587.94
18.690001 -40.759998 -587.73999
19.219999 -40.75 -587.54999
19.75 -40.73 -587.34998
20.290001 -40.720001 -587.15997
20.809999 -40.700001 -586.92999
21.34 -40.68 -586.56
21.870001 -40.66 -586.32001
22.389999 -40.639999 -586.03998
22.92 -40.619999 -585.78003
23.450001 -40.610001 -585.57001
23.98 -40.599998 -585.40002
24.51 -40.580002 -585.20001
25.040001 -40.580002 -585.13
25.57 -40.57 -585.06
26.110001 -40.57 -585.03003
26.639999 -40.57 -585.03998
27.18 -40.57 -585
27.719999 -40.57 -585.06
28.25 -40.580002 -585.10999
28.790001 -40.580002 -585.17999
29.34 -40.59 -585.31
29.879999 -40.599998 -585.40997
30.42 -40.610001 -585.56
30.959999 -40.619999 -585.65002
31.51 -40.619999 -585.76001
32.049999 -40.630001 -585.87
32.59 -40.639999 -586
33.139999 -40.650002 -586.10999
33.68 -40.66 -586.22998
34.220001 -40.66 -586.29999
34.759998 -40.66 -586.34003
35.299999 -40.669998 -586.42999
35.84 -40.68 -586.5
36.389999 -40.689999 -586.65997
36.939999 -40.689999 -586.75
37.48 -40.700001 -586.87
38.02 -40.700001 -586.88
38.560001 -40.709999 -586.90997
39.09 -40.689999 -586.73999
39.59 -40.66 -586.19
40.09 -40.619999 -585.75
40.599998 -40.599998 -585.34998
41.130001 -40.59 -585.27002
41.669998 -40.59 -585.31
42.23 -40.610001 -585.59003
42.799999 -40.650002 -586.09998
43.419998 -40.73 -587.21002
44.040001 -40.810001 -588.31
44.639999 -40.860001 -589.03998
45.25 -40.919998 -589.94
45.869999 -41 -591.02002
46.509998 -41.080002 -592.17999
47.130001 -41.150002 -593.13
47.73 -41.189999 -593.78998
48.32 -41.23 -594.35999
48.889999 -41.259998 -594.76001
49.459999 -41.27 -594.95001
50.02 -41.290001 -595.21002
50.59 -41.310001 -595.45001
51.16 -41.330002 -595.78003
51.75 -41.360001 -596.21997
52.34 -41.400002 -596.67999
52.950001 -41.450001 -597.37
53.59 -41.52 -598.40997
54.27 -41.630001 -599.91998
54.990002 -41.75 -601.70001
55.689999 -41.860001 -603.28003
-143.72 -40.34 -573.96997
-142.92 -40.259998 -572.88
