# .PCD v0.7 - Point Cloud Data file format
VERSION 0.7
FIELDS x y z
SIZE 4 4 4
TYPE F F F
COUNT 1 1 1
WIDTH 1706
HEIGHT 1
VIEWPOINT 0 0 0 1 0 0 0
POINTS 1706
DATA ascii
59.98 5.3899999 -630.90002
60.669998 5.4000001 -631.98999
61.349998 5.4099998 -633.04999
66.900002 5.6900001 -664.62
67.400002 5.6799998 -663.59003
68 5.6700001 -663.45001
68.580002 5.6700001 -663.23999
69.160004 5.6700001 -662.95001
69.75 5.6700001 -662.71997
70.330002 5.6700001 -662.48999
70.919998 5.6700001 -662.31
71.470001 5.6599998 -661.81
72.050003 5.6599998 -661.57001
72.629997 5.6599998 -661.32001
73.199997 5.6500001 -660.97998
73.760002 5.6500001 -660.53998
74.309998 5.6500001 -660.03003
74.849998 5.6399999 -659.44
75.400002 5.6399999 -658.98999
75.940002 5.6300001 -658.44
76.489998 5.6300001 -657.95001
77.019997 5.6199999 -657.32001
77.559998 5.6199999 -656.84003
78.099998 5.6100001 -656.26001
78.620003 5.6100001 -655.63
79.160004 5.5999999 -655.09003
79.690002 5.5999999 -654.48999
80.18 5.5900002 -653.63
80.68 5.5799999 -652.82001
81.160004 5.5799999 -651.89001
81.650002 5.5700002 -651.03003
82.089996 5.5599999 -649.77002
82.519997 5.5500002 -648.52002
82.879997 5.5300002 -646.65997
83.220001 5.5100002 -644.71997
83.400002 5.4899998 -641.62
83.669998 5.4299998 -634.78003
83.839996 5.4000001 -631.77002
84.120003 5.3800001 -629.56
84.489998 5.3699999 -627.98999
84.93 5.3600001 -627
85.43 5.3600001 -626.48999
85.940002 5.3499999 -625.97998
86.489998 5.3499999 -625.82001
87.040001 5.3499999 -625.67999
87.620003 5.3499999 -625.71997
88.239998 5.3499999 -626.02002
88.910004 5.3600001 -626.70001
89.559998 5.3600001 -627.16998
90.150002 5.3600001 -627.27002
90.720001 5.3600001 -627.28003
91.25 5.3600001 -626.91998
91.690002 5.3499999 -626.03998
92.199997 5.3499999 -625.57001
92.709999 5.3400002 -625.13
93.25 5.3400002 -624.95001
93.75 5.3400002 -624.41998
94.25 5.3299999 -623.96997
94.790001 5.3299999 -623.76001
95.360001 5.3299999 -623.72998
95.949997 5.3299999 -623.88
96.550003 5.3299999 -624.01001
97.169998 5.3400002 -624.29999
97.779999 5.3400002 -624.53998
98.400002 5.3400002 -624.84998
99.029999 5.3400002 -625.20001
99.690002 5.3499999 -625.71997
100.41 5.3600001 -626.59998
101.24 5.3699999 -628.16998
102.05 5.3800001 -629.59003
103.11 5.4099998 -632.53003
104.23 5.4400001 -635.77002
105.18 5.46 -637.91998
106.17 5.48 -640.34003
107.24 5.5 -643.21002
108.24 5.52 -645.59998
109.02 5.5300002 -646.67999
109.87 5.54 -648.17999
-165.22 4.3000002 -564.69
-164.64999 4.3000002 -564.52002
-164.13 4.3000002 -564.5
-163.61 4.3000002 -564.47998
-163.10001 4.3000002 -564.51001
-162.60001 4.3000002 -564.53998
-162.11 4.3000002 -564.64001
-161.63 4.3000002 -564.77002
-161.16 4.3099999 -564.92999
-160.78 4.3099999 -565.40002
-160.52 4.3200002 -566.32001
-160.2 4.3200002 -566.97998
-159.74001 4.3200002 -567.21002
-159.27 4.3200002 -567.39001
-158.83 4.3299999 -567.65997
-158.38 4.3299999 -567.90002
-157.94 4.3299999 -568.20001
-157.48 4.3299999 -568.40997
-157.00999 4.3299999 -568.57001
-156.56 4.3400002 -568.83002
-156.14999 4.3400002 -569.22998
-156 4.3499999 -570.56
-155.63 4.3499999 -571.10999
-155.11 4.3499999 -571.10999
-154.60001 4.3499999 -571.15997
-154.11 4.3499999 -571.29999
-153.63 4.3600001 -571.44
-153.21001 4.3600001 -571.84003
-152.78999 4.3600001 -572.22998
-152.42 4.3699999 -572.77002
-152.11 4.3699999 -573.57001
-152.37 4.4000001 -576.5
-151.91 4.4000001 -576.78003
-151.48 4.4000001 -577.13
-151.02 4.4000001 -577.40002
-150.60001 4.4099998 -577.82001
-150.19 4.4099998 -578.26001
-150.00999 4.4200001 -579.57001
-150.62 4.4499998 -583.94
-150.25 4.46 -584.56
-150 4.4699998 -585.67999
-149.91 4.48 -587.40997
-151.22 4.54 -594.54999
-150.98 4.54 -595.75
-150.62 4.5500002 -596.46002
-150.34 4.5599999 -597.52002
-150.19 4.5700002 -599.06
-150.22 4.5900002 -601.35999
-136.19 4.4899998 -588.59998
-135.78 4.4899998 -589.15997
-135.36 4.5 -589.65997
-134.89999 4.5 -590.02002
-134.41 4.5 -590.25
-133.87 4.5 -590.26001
-133.22 4.5 -589.79999
-132.63 4.5 -589.57001
-132.09 4.5 -589.58002
-131.61 4.5 -589.82001
-131.13 4.5 -590.12
-130.66 4.5 -590.40997
-130.17 4.5 -590.65997
-129.67999 4.5100002 -590.88
-129.2 4.5100002 -591.17999
-128.71001 4.5100002 -591.39001
-128.06 4.5100002 -590.90002
-127.42 4.5 -590.46997
-126.92 4.5 -590.64001
-125.92 4.4899998 -588.53998
-123.16 4.4099998 -578.28998
-121.15 4.3600001 -571.40002
-120.36 4.3499999 -570.15997
-119.77 4.3400002 -569.85999
-119.17 4.3400002 -569.51001
-118.6 4.3400002 -569.29999
-118.04 4.3400002 -569.10999
-117.48 4.3400002 -568.92999
-116.92 4.3299999 -568.70001
-116.37 4.3299999 -568.59003
-115.82 4.3299999 -568.45001
-115.28 4.3299999 -568.34998
-114.75 4.3299999 -568.29999
-114.22 4.3299999 -568.25
-113.68 4.3299999 -568.20001
-113.15 4.3299999 -568.14001
-112.62 4.3299999 -568.09003
-112.09 4.3299999 -568.02002
-111.55 4.3299999 -567.96997
-111.03 4.3299999 -567.95001
-110.48 4.3299999 -567.83002
-109.96 4.3299999 -567.81
-109.43 4.3299999 -567.75
-108.91 4.3299999 -567.78003
-108.39 4.3299999 -567.77002
-107.87 4.3299999 -567.75
-107.36 4.3299999 -567.81
-106.85 4.3299999 -567.88
-106.33 4.3299999 -567.88
-105.83 4.3299999 -567.96997
-105.32 4.3299999 -568.07001
-104.79 4.3299999 -568.02002
-104.28 4.3299999 -568.07001
-103.76 4.3299999 -568.03998
-103.23 4.3299999 -568.03003
-102.69 4.3299999 -567.90002
-102.15 4.3299999 -567.83002
-101.63 4.3299999 -567.79999
-101.02 4.3200002 -567.34003
-100.36 4.3200002 -566.53998
-99.690002 4.3099999 -565.69
-99.139999 4.3099999 -565.5
-98.620003 4.3099999 -565.51001
-98.099998 4.3099999 -565.48999
-97.580002 4.3099999 -565.51001
-97.089996 4.3099999 -565.63
-96.57 4.3099999 -565.64001
-96.040001 4.3099999 -565.58002
-95.5 4.3099999 -565.46997
-94.980003 4.3099999 -565.47998
-94.480003 4.3099999 -565.58002
-93.970001 4.3099999 -565.59998
-93.470001 4.3099999 -565.72998
-92.980003 4.3099999 -565.90002
-92.489998 4.3099999 -566.04999
-91.980003 4.3099999 -566.10999
-91.489998 4.3200002 -566.29999
-90.980003 4.3200002 -566.38
-90.489998 4.3200002 -566.53003
-89.989998 4.3200002 -566.66998
-89.5 4.3200002 -566.85999
-89.010002 4.3200002 -567.01001
-88.510002 4.3200002 -567.15997
-88 4.3200002 -567.21997
-87.519997 4.3200002 -567.44
-87.029999 4.3299999 -567.65002
-86.540001 4.3299999 -567.84003
-86.040001 4.3299999 -568.02002
-85.540001 4.3299999 -568.10999
-85.059998 4.3299999 -568.37
-84.559998 4.3299999 -568.54999
-84.07 4.3299999 -568.76001
-83.599998 4.3400002 -569.09998
-83.110001 4.3400002 -569.28003
-82.620003 4.3400002 -569.5
-82.139999 4.3400002 -569.78998
-81.650002 4.3400002 -570.03003
-81.160004 4.3499999 -570.27002
-80.68 4.3499999 -570.57001
-80.199997 4.3499999 -570.85999
-79.709999 4.3499999 -571.09998
-79.230003 4.3499999 -571.41998
-78.760002 4.3600001 -571.77002
-78.260002 4.3600001 -571.95001
-77.769997 4.3600001 -572.21002
-77.279999 4.3600001 -572.45001
-76.790001 4.3600001 -572.72998
-76.290001 4.3699999 -572.92999
-75.790001 4.3699999 -573.06
-75.269997 4.3699999 -573.14001
-74.769997 4.3699999 -573.34998
-74.269997 4.3699999 -573.51001
-73.779999 4.3699999 -573.77002
-73.279999 4.3699999 -574
-72.760002 4.3699999 -574
-72.230003 4.3699999 -574.03003
-71.739998 4.3800001 -574.28003
-71.230003 4.3800001 -574.40002
-70.699997 4.3800001 -574.41998
-70.190002 4.3800001 -574.54999
-69.68 4.3800001 -574.67999
-69.18 4.3800001 -574.90997
-68.68 4.3800001 -575.13
-68.18 4.3800001 -575.31
-67.669998 4.3899999 -575.52002
-67.169998 4.3899999 -575.71002
-66.68 4.3899999 -576
-66.160004 4.3899999 -576.14001
-65.669998 4.3899999 -576.40997
-65.160004 4.3899999 -576.62
-64.660004 4.4000001 -576.79999
-64.150002 4.4000001 -577.01001
-63.650002 4.4000001 -577.21997
-63.139999 4.4000001 -577.45001
-62.639999 4.4000001 -577.72998
-62.139999 4.4000001 -577.91998
-61.630001 4.4099998 -578.13
-61.130001 4.4099998 -578.39001
-60.610001 4.4099998 -578.53998
-60.099998 4.4099998 -578.72998
-59.59 4.4099998 -578.87
-59.080002 4.4099998 -579.09998
-58.57 4.4099998 -579.31
-58.049999 4.4200001 -579.45001
-57.540001 4.4200001 -579.60999
-57.02 4.4200001 -579.75
-56.509998 4.4200001 -579.94
-56 4.4200001 -580.13
-55.48 4.4200001 -580.31
-54.970001 4.4200001 -580.48999
-54.439999 4.4200001 -580.58002
-53.93 4.4299998 -580.75
-53.400002 4.4299998 -580.84998
-52.889999 4.4299998 -581.09003
-52.369999 4.4299998 -581.21997
-51.849998 4.4299998 -581.33002
-51.330002 4.4299998 -581.47998
-50.810001 4.4299998 -581.58002
-50.279999 4.4299998 -581.71002
-49.759998 4.4299998 -581.78003
-49.240002 4.4299998 -581.90997
-48.709999 4.4400001 -581.97998
-48.189999 4.4400001 -582.14001
-47.669998 4.4400001 -582.26001
-47.139999 4.4400001 -582.34003
-46.610001 4.4400001 -582.46002
-46.09 4.4400001 -582.59003
-45.560001 4.4400001 -582.67999
-45.029999 4.4400001 -582.70001
-44.5 4.4400001 -582.78003
-43.970001 4.4400001 -582.82001
-43.450001 4.4400001 -582.97998
-42.919998 4.4400001 -582.96997
-42.389999 4.4400001 -583.02002
-41.860001 4.4400001 -583.09003
-41.330002 4.4400001 -583.13
-40.790001 4.4400001 -583.19
-40.259998 4.4400001 -583.22998
-39.740002 4.4499998 -583.33002
-39.209999 4.4499998 -583.44
-38.68 4.4499998 -583.48999
-38.150002 4.4499998 -583.56
-37.610001 4.4499998 -583.59003
-37.09 4.4499998 -583.70001
-36.549999 4.4499998 -583.67999
-36.02 4.4499998 -583.76001
-35.490002 4.4499998 -583.73999
-34.950001 4.4499998 -583.71002
-34.41 4.4499998 -583.63
-33.869999 4.4499998 -583.64001
-33.34 4.4499998 -583.56
-32.799999 4.4499998 -583.59003
-32.259998 4.4499998 -583.48999
-31.73 4.4499998 -583.5
-31.190001 4.4499998 -583.38
-30.65 4.4400001 -583.26001
-30.1 4.4400001 -583.13
-29.559999 4.4400001 -582.94
-29.02 4.4400001 -582.76001
-28.48 4.4400001 -582.59998
-27.93 4.4400001 -582.27002
-27.389999 4.4400001 -582.14001
-26.84 4.4299998 -581.79999
-26.290001 4.4299998 -581.53998
-25.75 4.4299998 -581.41998
-25.209999 4.4299998 -581.25
-24.67 4.4299998 -581.07001
-24.139999 4.4299998 -581.03998
-23.610001 4.4299998 -580.98999
-23.08 4.4299998 -581.06
-22.540001 4.4299998 -581.02002
-22.01 4.4299998 -581.09998
-21.48 4.4299998 -581.12
-20.959999 4.4299998 -581.32001
-20.43 4.4299998 -581.58002
-19.91 4.4299998 -581.84998
-19.389999 4.4400001 -582.15997
-18.860001 4.4400001 -582.21997
-18.33 4.4400001 -582.37
-17.799999 4.4400001 -582.41998
-17.25 4.4400001 -582.20001
-16.719999 4.4400001 -582.20001
-16.190001 4.4400001 -582.29999
-15.66 4.4400001 -582.44
-15.13 4.4400001 -582.70001
-14.6 4.4400001 -582.81
-14.07 4.4400001 -582.92999
-13.54 4.4400001 -582.90997
-13 4.4400001 -582.90002
-12.47 4.4400001 -582.96997
-11.94 4.4400001 -583.04999
-11.41 4.4400001 -583.12
-10.88 4.4499998 -583.41998
-10.35 4.4499998 -583.59998
-9.8199997 4.4499998 -583.96997
-9.29 4.4499998 -584.41998
-8.7600002 4.46 -584.84003
-8.2299995 4.46 -585.44
-7.71 4.4699998 -586.12
-7.1700001 4.4699998 -586.40002
-6.6300001 4.4699998 -586.26001
-6.0999999 4.4699998 -586.10999
-5.5599999 4.4699998 -586.02002
-5.02 4.46 -585.84998
-4.48 4.46 -585.73999
-3.95 4.46 -585.72998
-3.4100001 4.46 -585.85999
-2.8699999 4.46 -585.85999
-2.3399999 4.46 -585.85999
-1.8 4.4699998 -585.96002
-1.26 4.4699998 -585.98999
-0.73000002 4.4699998 -586.15997
-0.19 4.4699998 -586.22998
0.34999999 4.4699998 -586.38
0.88 4.4699998 -586.5
1.42 4.4699998 -586.60999
1.96 4.4699998 -586.81
3.6300001 5.3499999 -699.71002
4.27 5.3400002 -698.90002
4.9000001 5.3299999 -698.12
5.54 5.3299999 -697.33002
6.1700001 5.3200002 -696.65997
6.8099999 5.3200002 -696
7.4299998 5.3099999 -695.06
8.0699997 5.3099999 -694.65002
8.6999998 5.3000002 -693.94
9.3199997 5.3000002 -693.26001
9.9499998 5.29 -692.69
10.58 5.29 -692.15997
11.21 5.2800002 -691.59003
11.83 5.2800002 -691.09003
12.46 5.27 -690.51001
13.08 5.27 -690.10999
13.71 5.27 -689.64001
14.33 5.2600002 -689.19
14.95 5.2600002 -688.70001
15.57 5.2600002 -688.20001
16.190001 5.25 -687.57001
16.809999 5.25 -687.09998
17.43 5.2399998 -686.56
18.040001 5.2399998 -686.02002
18.66 5.2399998 -685.59998
19.280001 5.23 -685.15002
19.889999 5.23 -684.60999
20.51 5.2199998 -684.12
21.120001 5.2199998 -683.62
21.73 5.2199998 -683.12
22.34 5.21 -682.64001
22.950001 5.21 -682.19
23.57 5.21 -681.96002
24.190001 5.21 -681.67999
24.799999 5.1999998 -681.21002
25.41 5.1999998 -680.96002
26.02 5.1999998 -680.57001
26.639999 5.1999998 -680.34003
27.25 5.1900001 -680
27.860001 5.1900001 -679.71997
28.48 5.1900001 -679.48999
29.08 5.1900001 -679.07001
29.66 5.1799998 -677.94
30.25 5.1700001 -677.35999
30.85 5.1700001 -676.95001
31.459999 5.1700001 -676.53998
32.040001 5.1599998 -675.66998
32.610001 5.1500001 -674.62
33.209999 5.1500001 -674.35999
33.810001 5.1500001 -674.04999
34.400002 5.1399999 -673.48999
34.990002 5.1399999 -672.84003
35.57 5.1300001 -672.12
36.139999 5.1300001 -671.35999
36.720001 5.1199999 -670.58002
37.299999 5.1199999 -670.07001
37.880001 5.1100001 -669.34998
38.459999 5.1100001 -668.82001
39.029999 5.0999999 -668.04999
39.610001 5.0999999 -667.56
40.189999 5.0900002 -666.90002
40.759998 5.0900002 -666.35999
41.330002 5.0799999 -665.57001
54.490002 4.79 -627.72998
54.779999 4.7600002 -624.47998
55.380001 4.77 -624.82001
55.990002 4.77 -625.21002
56.650002 4.7800002 -626.10999
57.439999 4.79 -628.40997
58.080002 4.8000002 -629.08002
58.700001 4.8000002 -629.62
59.32 4.8099999 -630
59.91 4.8099999 -630.15997
66.379997 5.0799999 -665.53003
66.879997 5.0700002 -664.48999
67.470001 5.0700002 -664.21002
68.040001 5.0700002 -663.83002
68.629997 5.0700002 -663.65002
69.220001 5.0700002 -663.53998
69.800003 5.0599999 -663.25
70.370003 5.0599999 -662.89001
70.949997 5.0599999 -662.63
71.529999 5.0599999 -662.31
72.110001 5.0599999 -662.09998
72.68 5.0500002 -661.75
73.25 5.0500002 -661.40002
73.830002 5.0500002 -661.10999
74.389999 5.0500002 -660.71997
74.919998 5.04 -660.09998
75.459999 5.04 -659.5
75.989998 5.0300002 -658.89001
76.540001 5.0300002 -658.40997
77.099998 5.02 -657.97998
77.629997 5.02 -657.35999
78.160004 5.0100002 -656.75
78.720001 5.0100002 -656.41998
79.239998 5.0100002 -655.76001
79.760002 5 -655.09003
80.279999 5 -654.40002
80.790001 4.9899998 -653.66998
81.269997 4.98 -652.76001
81.769997 4.98 -651.94
82.190002 4.9699998 -650.53998
82.650002 4.96 -649.46997
83.029999 4.9499998 -647.82001
83.360001 4.9299998 -645.81
83.5 4.9000001 -642.35999
83.669998 4.8800001 -639.23999
83.75 4.8499999 -635.44
83.970001 4.8299999 -632.73999
84.260002 4.8099999 -630.56
84.650002 4.8000002 -629.20001
85.080002 4.79 -628.10999
85.580002 4.79 -627.56
86.089996 4.79 -627.04999
86.610001 4.7800002 -626.70001
87.169998 4.7800002 -626.59003
87.760002 4.7800002 -626.70001
88.370003 4.7800002 -626.95001
89.010002 4.79 -627.34003
89.589996 4.79 -627.40002
90.220001 4.79 -627.78998
90.830002 4.79 -628
91.410004 4.79 -628.03003
92.019997 4.79 -628.26001
92.510002 4.79 -627.65997
92.940002 4.7800002 -626.71997
93.400002 4.7800002 -625.90002
93.889999 4.77 -625.34998
94.410004 4.77 -625.03003
94.949997 4.77 -624.79999
95.519997 4.77 -624.77002
96.120003 4.77 -624.96002
96.709999 4.77 -625.04999
97.309998 4.77 -625.20001
97.919998 4.77 -625.46002
98.540001 4.7800002 -625.71997
99.199997 4.7800002 -626.23999
99.93 4.79 -627.23999
100.72 4.8000002 -628.53003
101.5 4.8099999 -629.78998
102.33 4.8200002 -631.28998
103.78 4.8600001 -636.54999
104.59 4.8699999 -637.94
105.6 4.8899999 -640.45001
106.56 4.9099998 -642.69
107.47 4.9200001 -644.54999
108.3 4.9299998 -645.97998
109.07 4.9400001 -647
110 4.96 -648.91998
110.78 4.96 -650.03003
-165.23 3.79 -564.72998
-164.67999 3.79 -564.59998
-164.16 3.79 -564.59998
-163.64999 3.79 -564.62
-163.14999 3.79 -564.67999
-162.63 3.79 -564.67999
-162.14999 3.79 -564.78998
-161.71001 3.79 -565.04999
-161.23 3.79 -565.20001
-160.96001 3.8 -566.04999
-160.64 3.8 -566.73999
-160.24001 3.8 -567.12
-159.73 3.8 -567.17999
-159.27 3.8 -567.38
-158.83 3.8099999 -567.65997
-158.44 3.8099999 -568.12
-157.99001 3.8099999 -568.38
-157.50999 3.8099999 -568.52002
-157.03 3.8099999 -568.65002
-156.57001 3.8099999 -568.84998
-156.14999 3.8199999 -569.23999
-156.08 3.8299999 -570.87
-155.64999 3.8299999 -571.17999
-155.11 3.8299999 -571.14001
-154.61 3.8299999 -571.21002
-154.13 3.8299999 -571.34998
-153.67999 3.8299999 -571.63
-153.25999 3.8399999 -572.01001
-152.87 3.8399999 -572.48999
-152.49001 3.8399999 -573.03003
-152.67999 3.8599999 -575.69
-152.5 3.8699999 -576.98999
-151.99001 3.8699999 -577.06
-151.50999 3.8699999 -577.25
-151.05 3.8699999 -577.48999
-150.64 3.8800001 -577.95001
-150.22 3.8800001 -578.35999
-150.14 3.8900001 -580.09998
-150.85001 3.9200001 -584.83002
-150.53999 3.9300001 -585.69
-150.19 3.9300001 -586.40997
-149.87 3.9400001 -587.25
-151.38 3.99 -595.19
-151.07001 4 -596.10999
-150.67 4 -596.65002
-150.38 4.0100002 -597.69
-150.17999 4.02 -599.03998
-135.23 3.95 -589.14001
-134.85001 3.96 -589.81
-134.42 3.96 -590.28998
-133.99001 3.96 -590.76001
-133.53 3.97 -591.14001
-132.99001 3.97 -591.14001
-132.33 3.96 -590.63
-131.7 3.96 -590.21997
-131.17 3.96 -590.28003
-130.67999 3.96 -590.5
-130.21001 3.96 -590.83002
-129.73 3.97 -591.09998
-129.25999 3.97 -591.45001
-128.78 3.97 -591.71002
-128.28 3.97 -591.91998
-127.71 3.97 -591.79999
-127.02 3.97 -591.10999
-126.48 3.97 -591.14001
-126.06 3.97 -591.70001
-124.46 3.9400001 -586.79999
-121.71 3.8699999 -576.48999
-119.95 3.8299999 -570.70001
-119.34 3.8199999 -570.32001
-118.8 3.8199999 -570.20001
-118.2 3.8199999 -569.84998
-117.66 3.8199999 -569.75
-117.08 3.8199999 -569.51001
-116.53 3.8199999 -569.34003
-115.96 3.8199999 -569.12
-115.43 3.8199999 -569.07001
-114.89 3.8199999 -569.01001
-114.33 3.8099999 -568.81
-113.79 3.8099999 -568.73999
-113.27 3.8099999 -568.73999
-112.74 3.8099999 -568.65997
-112.22 3.8099999 -568.67999
-111.67 3.8099999 -568.53998
-111.14 3.8099999 -568.51001
-110.6 3.8099999 -568.42999
-110.07 3.8099999 -568.34998
-109.52 3.8099999 -568.21997
-109 3.8099999 -568.25
-108.48 3.8099999 -568.22998
-107.96 3.8099999 -568.22998
-107.45 3.8099999 -568.28003
-106.93 3.8099999 -568.32001
-106.42 3.8099999 -568.34003
-105.91 3.8099999 -568.39001
-105.38 3.8099999 -568.38
-104.88 3.8099999 -568.46002
-104.35 3.8099999 -568.46002
-103.83 3.8099999 -568.45001
-103.3 3.8099999 -568.40002
-102.78 3.8099999 -568.41998
-102.21 3.8099999 -568.15997
-101.7 3.8099999 -568.17999
-101.15 3.8099999 -568.03003
-100.53 3.8 -567.47998
-99.790001 3.8 -566.26001
-99.199997 3.79 -565.88
-98.669998 3.79 -565.78003
-98.139999 3.79 -565.71997
-97.599998 3.79 -565.63
-97.099998 3.79 -565.70001
-96.580002 3.79 -565.71997
-96.080002 3.79 -565.82001
-95.559998 3.79 -565.83002
-95.07 3.79 -565.96997
-94.519997 3.79 -565.81
-94.029999 3.79 -565.96002
-93.510002 3.79 -565.92999
-93 3.79 -566.03003
-92.510002 3.8 -566.20001
-92.019997 3.8 -566.35999
-91.510002 3.8 -566.44
-91.010002 3.8 -566.56
-90.519997 3.8 -566.72998
-90.010002 3.8 -566.78998
-89.529999 3.8 -567
-89.029999 3.8 -567.13
-88.540001 3.8 -567.34998
-88.050003 3.8 -567.53998
-87.57 3.8099999 -567.76001
-87.059998 3.8099999 -567.84998
-86.57 3.8099999 -568.03998
-86.080002 3.8099999 -568.22998
-85.589996 3.8099999 -568.45001
-85.089996 3.8099999 -568.59003
-84.599998 3.8099999 -568.79999
-84.110001 3.8099999 -569
-83.629997 3.8199999 -569.28998
-83.150002 3.8199999 -569.53998
-82.650002 3.8199999 -569.70001
-82.150002 3.8199999 -569.89001
-81.68 3.8199999 -570.21002
-81.199997 3.8199999 -570.5
-80.709999 3.8299999 -570.77002
-80.239998 3.8299999 -571.09998
-79.75 3.8299999 -571.38
-79.260002 3.8299999 -571.60999
-78.790001 3.8299999 -571.96997
-78.290001 3.8399999 -572.15997
-77.790001 3.8399999 -572.34003
-77.300003 3.8399999 -572.58002
-76.790001 3.8399999 -572.72998
-76.300003 3.8399999 -572.98999
-75.800003 3.8399999 -573.15997
-75.330002 3.8499999 -573.59998
-74.879997 3.8499999 -574.15002
-74.379997 3.8499999 -574.35999
-73.870003 3.8499999 -574.47998
-73.360001 3.8499999 -574.58002
-72.830002 3.8499999 -574.57001
-72.300003 3.8499999 -574.54999
-71.779999 3.8499999 -574.62
-71.260002 3.8499999 -574.63
-70.739998 3.8499999 -574.69
-70.209999 3.8499999 -574.70001
-69.709999 3.8499999 -574.90002
-69.199997 3.8599999 -575.07001
-68.690002 3.8599999 -575.19
-68.190002 3.8599999 -575.39001
-67.690002 3.8599999 -575.62
-67.18 3.8599999 -575.77002
-66.68 3.8599999 -576.03003
-66.18 3.8599999 -576.25
-65.68 3.8699999 -576.51001
-65.160004 3.8699999 -576.62
-64.660004 3.8699999 -576.87
-64.169998 3.8699999 -577.14001
-63.66 3.8699999 -577.32001
-63.150002 3.8699999 -577.54999
-62.650002 3.8699999 -577.79999
-62.139999 3.8800001 -578
-61.639999 3.8800001 -578.28003
-61.130001 3.8800001 -578.46002
-60.619999 3.8800001 -578.62
-60.110001 3.8800001 -578.79999
-59.599998 3.8800001 -579.01001
-59.09 3.8800001 -579.23999
-58.57 3.8800001 -579.34998
-58.060001 3.8900001 -579.57001
-57.549999 3.8900001 -579.70001
-57.040001 3.8900001 -579.91998
-56.509998 3.8900001 -580.01001
-56 3.8900001 -580.22998
-55.490002 3.8900001 -580.37
-54.970001 3.8900001 -580.53003
-54.450001 3.8900001 -580.66998
-53.93 3.8900001 -580.82001
-53.419998 3.9000001 -581.03003
-52.900002 3.9000001 -581.15002
-52.380001 3.9000001 -581.26001
-51.849998 3.9000001 -581.38
-51.330002 3.9000001 -581.48999
-50.810001 3.9000001 -581.62
-50.290001 3.9000001 -581.79999
-49.759998 3.9000001 -581.84998
-49.240002 3.9000001 -581.96997
-48.720001 3.9000001 -582.06
-48.189999 3.9000001 -582.15002
-47.669998 3.9000001 -582.28998
-47.150002 3.9100001 -582.45001
-46.619999 3.9100001 -582.54999
-46.099998 3.9100001 -582.65997
-45.57 3.9100001 -582.75
-45.040001 3.9100001 -582.79999
-44.509998 3.9100001 -582.90002
-43.98 3.9100001 -582.96997
-43.450001 3.9100001 -582.98999
-42.919998 3.9100001 -583.04999
-42.389999 3.9100001 -583.14001
-41.869999 3.9100001 -583.22998
-41.34 3.9100001 -583.29999
-40.810001 3.9100001 -583.34003
-40.279999 3.9100001 -583.45001
-39.75 3.9100001 -583.53003
-39.220001 3.9100001 -583.57001
-38.689999 3.9100001 -583.65002
-38.16 3.9100001 -583.73999
-37.630001 3.9100001 -583.81
-37.099998 3.9100001 -583.84003
-36.560001 3.9100001 -583.85999
-36.029999 3.9100001 -583.94
-35.490002 3.9100001 -583.90002
-34.959999 3.9100001 -583.83002
-34.419998 3.9100001 -583.81
-33.880001 3.9100001 -583.82001
-33.349998 3.9100001 -583.78003
-32.810001 3.9100001 -583.73999
-32.27 3.9100001 -583.64001
-31.73 3.9100001 -583.54999
-31.18 3.9100001 -583.34998
-30.639999 3.9100001 -583.21002
-30.1 3.9100001 -583.03003
-29.559999 3.9100001 -582.85999
-29.01 3.9100001 -582.66998
-28.469999 3.9000001 -582.5
-27.92 3.9000001 -582.22998
-27.379999 3.9000001 -582.03003
-26.84 3.9000001 -581.84998
-26.290001 3.9000001 -581.54999
-25.75 3.9000001 -581.29999
-25.209999 3.9000001 -581.27002
-24.68 3.9000001 -581.19
-24.139999 3.9000001 -581.08002
-23.610001 3.8900001 -581.03998
-23.07 3.8900001 -580.98999
-22.540001 3.8900001 -581.01001
-22.01 3.8900001 -581.03003
-21.48 3.9000001 -581.21997
-20.959999 3.9000001 -581.31
-20.43 3.9000001 -581.54999
-19.91 3.9000001 -581.82001
-19.389999 3.9000001 -582.13
-18.860001 3.9000001 -582.25
-18.32 3.9000001 -582.28003
-17.799999 3.9000001 -582.44
-17.26 3.9000001 -582.29999
-16.719999 3.9000001 -582.15002
-16.190001 3.9000001 -582.27002
-15.66 3.9000001 -582.42999
-15.14 3.9100001 -582.78003
-14.61 3.9100001 -582.88
-14.07 3.9100001 -582.98999
-13.54 3.9100001 -583
-13.01 3.9100001 -582.94
-12.47 3.9100001 -583.03003
-11.94 3.9100001 -583.03003
-11.41 3.9100001 -583.15997
-10.88 3.9100001 -583.38
-10.35 3.9100001 -583.64001
-9.8199997 3.9100001 -583.98999
-9.29 3.9200001 -584.32001
-8.7600002 3.9200001 -584.88
-8.2299995 3.9200001 -585.41998
-7.71 3.9300001 -586.10999
-7.1700001 3.9300001 -586.28998
-6.6300001 3.9300001 -586.19
-6.0999999 3.9300001 -586.09998
-5.5599999 3.9300001 -585.84003
-5.02 3.9300001 -585.81
-4.48 3.9300001 -585.75
-3.95 3.9300001 -585.70001
-3.4100001 3.9300001 -585.77002
-2.8699999 3.9300001 -585.84003
-2.3399999 3.9300001 -585.91998
-1.8 3.9300001 -585.95001
-1.26 3.9300001 -586.06
-0.73000002 3.9300001 -586.15002
-0.19 3.9300001 -586.23999
0.34999999 3.9300001 -586.41998
0.88 3.9300001 -586.64001
1.42 3.9300001 -586.78998
2.99 4.71 -701.06
3.6300001 4.6999998 -699.84998
4.27 4.6999998 -698.84998
4.9000001 4.6900001 -698.03998
5.54 4.6900001 -697.46002
6.1700001 4.6799998 -696.62
6.8099999 4.6799998 -696.01001
7.4299998 4.6700001 -695.13
8.0699997 4.6700001 -694.56
8.6999998 4.6599998 -693.92999
9.3299999 4.6599998 -693.32001
9.9499998 4.6599998 -692.82001
10.58 4.6500001 -692.25
11.21 4.6500001 -691.70001
11.83 4.6399999 -691.17999
12.46 4.6399999 -690.63
13.08 4.6399999 -690.16998
13.71 4.6300001 -689.60999
14.33 4.6300001 -689.17999
14.95 4.6300001 -688.72998
15.58 4.6300001 -688.34003
16.200001 4.6199999 -687.71997
16.809999 4.6199999 -687.17999
17.43 4.6100001 -686.58002
18.049999 4.6100001 -686.20001
18.67 4.6100001 -685.69
19.280001 4.5999999 -685.29999
19.9 4.5999999 -684.69
20.51 4.5999999 -684.26001
21.120001 4.5900002 -683.65997
21.73 4.5900002 -683.17999
22.35 4.5900002 -682.82001
22.959999 4.5799999 -682.26001
23.58 4.5799999 -682.09003
24.190001 4.5799999 -681.65002
24.799999 4.5799999 -681.35999
25.42 4.5799999 -681.03998
26.030001 4.5700002 -680.69
26.639999 4.5700002 -680.46002
27.25 4.5700002 -680.09998
27.860001 4.5700002 -679.64001
28.459999 4.5599999 -679.09998
29.059999 4.5599999 -678.65002
29.65 4.5500002 -677.91998
30.25 4.5500002 -677.37
30.85 4.5500002 -676.91998
31.459999 4.5500002 -676.63
32.049999 4.54 -676.03998
32.630001 4.54 -675.20001
33.209999 4.5300002 -674.42999
33.82 4.5300002 -674.08002
34.400002 4.52 -673.33002
34.98 4.52 -672.69
35.560001 4.5100002 -672.01001
36.119999 4.5100002 -671.02002
36.700001 4.5 -670.33002
37.279999 4.5 -669.69
37.860001 4.4899998 -669.09998
38.43 4.4899998 -668.31
39 4.48 -667.62
39.580002 4.48 -667
40.150002 4.48 -666.26001
40.709999 4.4699998 -665.46997
54.220001 4.2800002 -637.89001
54.709999 4.2800002 -636.82001
55.220001 4.27 -635.92999
65.25 4.48 -666.5
65.800003 4.4699998 -665.85999
66.32 4.4699998 -664.91998
66.889999 4.46 -664.57001
67.480003 4.46 -664.39001
68.07 4.46 -664.12
68.669998 4.46 -664.08002
69.260002 4.46 -663.88
69.860001 4.46 -663.77002
70.440002 4.46 -663.46997
71.019997 4.46 -663.26001
71.580002 4.4499998 -662.81
72.169998 4.4499998 -662.59003
72.739998 4.4499998 -662.23999
73.300003 4.4499998 -661.81
73.879997 4.4400001 -661.57001
74.449997 4.4400001 -661.23999
74.989998 4.4400001 -660.65002
75.550003 4.4400001 -660.25
76.059998 4.4299998 -659.46002
76.620003 4.4299998 -659.08002
77.150002 4.4200001 -658.45001
77.699997 4.4200001 -658.01001
78.239998 4.4200001 -657.47998
78.790001 4.4099998 -656.96997
79.339996 4.4099998 -656.57001
79.870003 4.4099998 -655.96997
80.370003 4.4000001 -655.10999
80.879997 4.4000001 -654.38
81.389999 4.3899999 -653.70001
81.870003 4.3800001 -652.72998
82.330002 4.3800001 -651.63
82.75 4.3699999 -650.25
83.120003 4.3600001 -648.51001
83.470001 4.3400002 -646.65997
83.739998 4.3299999 -644.15002
83.809998 4.3000002 -640.29999
83.870003 4.27 -636.28003
84.139999 4.2600002 -633.94
84.440002 4.2399998 -631.88
84.82 4.23 -630.45001
85.260002 4.23 -629.40997
85.760002 4.2199998 -628.83002
86.260002 4.2199998 -628.28003
86.769997 4.21 -627.78998
87.309998 4.21 -627.53003
87.879997 4.21 -627.53998
88.480003 4.21 -627.69
89.080002 4.2199998 -627.84998
89.870003 4.23 -629.32001
90.57 4.23 -630.20001
91.190002 4.23 -630.47998
91.639999 4.23 -629.54999
92.080002 4.2199998 -628.67999
92.639999 4.2199998 -628.51001
93.199997 4.2199998 -628.40997
93.690002 4.2199998 -627.84003
94.080002 4.21 -626.63
94.57 4.1999998 -626.03998
95.139999 4.1999998 -626.01001
95.709999 4.1999998 -626.01001
96.290001 4.1999998 -626.02002
96.879997 4.1999998 -626.10999
97.489998 4.21 -626.34003
98.099998 4.21 -626.57001
98.709999 4.21 -626.81
99.419998 4.21 -627.59998
100.22 4.2199998 -629.02002
100.98 4.23 -630.10999
101.74 4.2399998 -631.25
103.81 4.3000002 -640.32001
104.51 4.3099999 -641.01001
105.19 4.3099999 -641.54999
106.09 4.3200002 -643.40997
106.81 4.3299999 -644.17999
107.59 4.3299999 -645.28003
108.36 4.3400002 -646.33002
109.18 4.3499999 -647.62
110.06 4.3600001 -649.28998
110.77 4.3699999 -649.96997
-165.25999 3.27 -564.82001
-164.72 3.27 -564.76001
-164.21001 3.27 -564.77002
-163.71001 3.27 -564.81
-163.21001 3.27 -564.88
-162.71001 3.27 -564.94
-162.23 3.27 -565.07001
-161.75 3.27 -565.17999
-161.35001 3.27 -565.59003
-161.10001 3.28 -566.51001
-160.67999 3.28 -566.87
-160.22 3.28 -567.06
-159.75 3.28 -567.25
-159.31 3.29 -567.51001
-158.89 3.29 -567.88
-158.47 3.29 -568.22998
-158.03 3.29 -568.48999
-157.53999 3.29 -568.60999
-157.03999 3.29 -568.66998
-156.57001 3.29 -568.87
-156.31 3.3 -569.78003
-156.17999 3.3099999 -571.21002
-155.69 3.3099999 -571.32001
-155.14999 3.3099999 -571.28003
-154.62 3.3099999 -571.25
-154.17 3.3099999 -571.51001
-153.72 3.3099999 -571.78998
-153.32001 3.3099999 -572.25
-152.92999 3.3199999 -572.71997
-152.67999 3.3199999 -573.75
-153 3.3399999 -576.88
-152.57001 3.3399999 -577.23999
-152.07001 3.3399999 -577.34998
-151.60001 3.3399999 -577.57001
-151.14999 3.3499999 -577.87
-150.72 3.3499999 -578.25
-150.38 3.3499999 -578.97998
-151.37 3.3900001 -584.78003
-151.00999 3.3900001 -585.40997
-150.57001 3.3900001 -585.81
-150.17999 3.4000001 -586.35999
-149.84 3.4000001 -587.12
-151.47 3.45 -595.53998
-151.12 3.45 -596.28003
-150.74001 3.46 -596.91998
-150.39 3.46 -597.71997
-150.23 3.47 -599.25
-134.35001 3.4200001 -589.98999
-133.95 3.4200001 -590.62
-133.55 3.4200001 -591.20001
-133.09 3.4300001 -591.59003
-132.58 3.4300001 -591.73999
-132.02 3.4300001 -591.64001
-131.36 3.4200001 -591.10999
-130.75999 3.4200001 -590.88
-130.27 3.4200001 -591.09003
-129.78999 3.4300001 -591.39001
-129.31 3.4300001 -591.67999
-128.83 3.4300001 -591.94
-128.34 3.4300001 -592.19
-127.84 3.4300001 -592.40002
-127.3 3.4300001 -592.40002
-126.67 3.4300001 -592.02002
-126.1 3.4300001 -591.90002
-125.61 3.4300001 -592.13
-125.05 3.4300001 -592.04999
-123.37 3.4000001 -586.73999
-120.45 3.3299999 -575.51001
-118.99 3.3099999 -571.10999
-118.4 3.3 -570.82001
-117.85 3.3 -570.66998
-117.27 3.3 -570.38
-116.72 3.3 -570.25
-116.15 3.3 -570.07001
-115.61 3.3 -569.95001
-115.04 3.3 -569.72998
-114.5 3.3 -569.65002
-113.96 3.3 -569.54999
-113.42 3.3 -569.47998
-112.89 3.3 -569.44
-112.36 3.3 -569.37
-111.82 3.3 -569.29999
-111.28 3.3 -569.21002
-110.73 3.29 -569.07001
-110.21 3.29 -569.08002
-109.66 3.29 -568.95001
-109.14 3.29 -568.92999
-108.61 3.29 -568.90002
-108.08 3.29 -568.85999
-107.56 3.29 -568.88
-107.04 3.29 -568.87
-106.51 3.29 -568.84003
-105.98 3.29 -568.79999
-105.47 3.29 -568.87
-104.95 3.29 -568.87
-104.42 3.29 -568.82001
-103.9 3.29 -568.82001
-103.37 3.29 -568.77002
-102.85 3.29 -568.76001
-102.3 3.29 -568.59998
-101.76 3.29 -568.54999
-101.22 3.29 -568.39001
-100.68 3.29 -568.31
-100.03 3.29 -567.62
-99.349998 3.28 -566.71997
-98.739998 3.28 -566.20001
-98.199997 3.28 -566.08002
-97.650002 3.28 -565.90997
-97.129997 3.28 -565.89001
-96.599998 3.28 -565.84003
-96.099998 3.28 -565.90997
-95.599998 3.28 -566.04999
-95.089996 3.28 -566.10999
-94.580002 3.28 -566.16998
-94.059998 3.28 -566.15002
-93.57 3.28 -566.28998
-93.050003 3.28 -566.34003
-92.550003 3.28 -566.42999
-92.059998 3.28 -566.60999
-91.559998 3.28 -566.70001
-91.050003 3.28 -566.81
-90.559998 3.28 -566.96002
-90.07 3.28 -567.12
-89.589996 3.28 -567.39001
-89.089996 3.28 -567.52002
-88.589996 3.29 -567.66998
-88.110001 3.29 -567.89001
-87.599998 3.29 -567.97998
-87.099998 3.29 -568.13
-86.610001 3.29 -568.32001
-86.120003 3.29 -568.48999
-85.629997 3.29 -568.70001
-85.129997 3.29 -568.84003
-84.639999 3.29 -569.09003
-84.150002 3.3 -569.29999
-83.660004 3.3 -569.48999
-83.169998 3.3 -569.71002
-82.690002 3.3 -569.98999
-82.199997 3.3 -570.25
-81.720001 3.3 -570.5
-81.230003 3.3 -570.76001
-80.760002 3.3099999 -571.08002
-80.269997 3.3099999 -571.34998
-79.790001 3.3099999 -571.62
-79.290001 3.3099999 -571.82001
-78.800003 3.3099999 -572.08002
-78.309998 3.3099999 -572.29999
-77.82 3.3099999 -572.56
-77.32 3.3199999 -572.73999
-76.830002 3.3199999 -573
-76.330002 3.3199999 -573.20001
-75.889999 3.3199999 -573.84003
-75.459999 3.3299999 -574.57001
-74.93 3.3299999 -574.53998
-74.410004 3.3299999 -574.54999
-73.870003 3.3299999 -574.47998
-73.349998 3.3299999 -574.51001
-72.830002 3.3299999 -574.59998
-72.32 3.3299999 -574.67999
-71.790001 3.3299999 -574.70001
-71.260002 3.3299999 -574.69
-70.75 3.3299999 -574.78998
-70.230003 3.3299999 -574.87
-69.720001 3.3299999 -575.01001
-69.209999 3.3299999 -575.13
-68.720001 3.3299999 -575.39001
-68.209999 3.3299999 -575.56
-67.699997 3.3299999 -575.75
-67.199997 3.3299999 -575.91998
-66.699997 3.3299999 -576.16998
-66.190002 3.3399999 -576.38
-65.690002 3.3399999 -576.60999
-65.18 3.3399999 -576.78003
-64.68 3.3399999 -577.01001
-64.18 3.3399999 -577.23999
-63.669998 3.3399999 -577.42999
-63.16 3.3399999 -577.65002
-62.66 3.3399999 -577.89001
-62.150002 3.3499999 -578.07001
-61.650002 3.3499999 -578.33002
-61.139999 3.3499999 -578.5
-60.630001 3.3499999 -578.71002
-60.110001 3.3499999 -578.84003
-59.610001 3.3499999 -579.09998
-59.099998 3.3499999 -579.27002
-58.580002 3.3499999 -579.42999
-58.07 3.3599999 -579.63
-57.560001 3.3599999 -579.79999
-57.040001 3.3599999 -579.98999
-56.529999 3.3599999 -580.16998
-56.009998 3.3599999 -580.25
-55.490002 3.3599999 -580.45001
-54.98 3.3599999 -580.60999
-54.459999 3.3599999 -580.79999
-53.939999 3.3599999 -580.92999
-53.43 3.3599999 -581.14001
-52.91 3.3599999 -581.25
-52.380001 3.3599999 -581.31
-51.860001 3.3699999 -581.46997
-51.349998 3.3699999 -581.65997
-50.82 3.3699999 -581.73999
-50.299999 3.3699999 -581.84003
-49.77 3.3699999 -581.94
-49.25 3.3699999 -582.09998
-48.73 3.3699999 -582.25
-48.209999 3.3699999 -582.33002
-47.68 3.3699999 -582.48999
-47.150002 3.3699999 -582.53003
-46.630001 3.3699999 -582.63
-46.110001 3.3699999 -582.78003
-45.580002 3.3699999 -582.90997
-45.049999 3.3699999 -582.96002
-44.52 3.3699999 -582.96997
-44 3.3800001 -583.13
-43.470001 3.3800001 -583.25
-42.939999 3.3800001 -583.31
-42.41 3.3800001 -583.34998
-41.880001 3.3800001 -583.40997
-41.349998 3.3800001 -583.51001
-40.82 3.3800001 -583.56
-40.290001 3.3800001 -583.62
-39.759998 3.3800001 -583.71002
-39.23 3.3800001 -583.78003
-38.700001 3.3800001 -583.77002
-38.169998 3.3800001 -583.91998
-37.639999 3.3800001 -584
-37.110001 3.3800001 -584.03003
-36.580002 3.3800001 -584.12
-36.040001 3.3800001 -584.13
-35.509998 3.3800001 -584.07001
-34.970001 3.3800001 -584.07001
-34.43 3.3800001 -583.96997
-33.900002 3.3800001 -584.01001
-33.360001 3.3800001 -583.94
-32.810001 3.3800001 -583.81
-32.27 3.3800001 -583.63
-31.73 3.3800001 -583.57001
-31.190001 3.3800001 -583.44
-30.639999 3.3800001 -583.21002
-30.1 3.3699999 -583.03998
-29.549999 3.3699999 -582.83002
-29.01 3.3699999 -582.69
-28.469999 3.3699999 -582.54999
-27.93 3.3699999 -582.31
-27.389999 3.3699999 -582.25
-26.85 3.3699999 -581.98999
-26.299999 3.3699999 -581.71997
-25.76 3.3699999 -581.46997
-25.219999 3.3599999 -581.32001
-24.68 3.3599999 -581.19
-24.139999 3.3599999 -581.09998
-23.610001 3.3599999 -581.07001
-23.07 3.3599999 -581.03998
-22.549999 3.3599999 -581.10999
-22.01 3.3599999 -581.13
-21.48 3.3599999 -581.16998
-20.959999 3.3599999 -581.35999
-20.43 3.3699999 -581.57001
-19.91 3.3699999 -581.84998
-19.389999 3.3699999 -582.13
-18.860001 3.3699999 -582.31
-18.33 3.3699999 -582.40002
-17.799999 3.3699999 -582.51001
-17.26 3.3699999 -582.34998
-16.719999 3.3699999 -582.28003
-16.190001 3.3699999 -582.33002
-15.67 3.3699999 -582.63
-15.14 3.3699999 -582.85999
-14.61 3.3699999 -582.90997
-14.08 3.3699999 -583.07001
-13.54 3.3699999 -583.01001
-13.01 3.3699999 -582.96997
-12.47 3.3699999 -583.01001
-11.94 3.3699999 -583.04999
-11.41 3.3800001 -583.21002
-10.88 3.3800001 -583.40002
-10.35 3.3800001 -583.65002
-9.8199997 3.3800001 -584.01001
-9.29 3.3800001 -584.35999
-8.7600002 3.3800001 -584.78003
-8.2299995 3.3900001 -585.44
-7.71 3.3900001 -586.16998
-7.1700001 3.3900001 -586.28003
-6.6300001 3.3900001 -586.20001
-6.0999999 3.3900001 -586.12
-5.5599999 3.3900001 -585.88
-5.02 3.3900001 -585.79999
-4.48 3.3900001 -585.78998
-3.95 3.3900001 -585.78003
-3.4100001 3.3900001 -585.77002
-2.8699999 3.3900001 -585.82001
-2.3399999 3.3900001 -585.89001
-1.8 3.3900001 -585.91998
-1.26 3.3900001 -586.07001
-0.73000002 3.3900001 -586.20001
-0.19 3.3900001 -586.34003
0.34999999 3.3900001 -586.52002
0.88999999 3.4000001 -586.77002
1.42 3.4000001 -587.16998
2.99 4.0700002 -701.27002
3.6300001 4.0599999 -699.97998
4.27 4.0599999 -699.22998
4.9000001 4.0500002 -698.27002
5.54 4.0500002 -697.47998
6.1700001 4.04 -696.71997
6.8099999 4.04 -696.09998
7.4400001 4.0300002 -695.15002
8.0699997 4.0300002 -694.67999
8.6999998 4.0300002 -694.16998
9.3299999 4.02 -693.51001
9.96 4.02 -692.84003
10.58 4.02 -692.42999
11.21 4.0100002 -691.84998
11.84 4.0100002 -691.34998
12.46 4.0100002 -690.78998
13.09 4 -690.26001
13.71 4 -689.82001
14.34 4 -689.42999
14.96 4 -688.92999
15.58 3.99 -688.54999
16.200001 3.99 -687.94
16.82 3.99 -687.41998
17.440001 3.98 -686.89001
18.049999 3.98 -686.31
18.67 3.98 -685.79999
19.290001 3.98 -685.40997
19.9 3.97 -684.85999
20.52 3.97 -684.46002
21.120001 3.97 -683.72998
21.74 3.96 -683.35999
22.35 3.96 -682.97998
22.959999 3.96 -682.45001
23.58 3.96 -682.07001
24.190001 3.96 -681.84998
24.809999 3.95 -681.52002
25.42 3.95 -681.26001
26.030001 3.95 -680.88
26.639999 3.95 -680.45001
27.25 3.9400001 -680
27.85 3.9400001 -679.54999
28.459999 3.9400001 -679.03998
29.08 3.9400001 -678.94
29.67 3.9300001 -678.16998
30.25 3.9300001 -677.40997
30.860001 3.9300001 -676.96997
31.469999 3.9300001 -676.75
32.07 3.9200001 -676.28003
32.650002 3.9200001 -675.59003
33.23 3.9100001 -674.70001
33.810001 3.9100001 -674.03003
34.389999 3.9000001 -673.28003
34.98 3.9000001 -672.62
35.549999 3.9000001 -671.78003
36.119999 3.8900001 -670.90997
36.689999 3.8900001 -670.03003
37.27 3.8800001 -669.51001
37.849998 3.8800001 -668.81
38.400002 3.8699999 -667.82001
38.970001 3.8699999 -667.06
39.540001 3.8599999 -666.34003
40.080002 3.8599999 -665.21002
53.66 3.7 -638.19
54.16 3.6900001 -637.23999
54.669998 3.6900001 -636.39001
55.18 3.6800001 -635.52002
55.720001 3.6800001 -635.08002
56.34 3.6800001 -635.41998
56.98 3.6900001 -636.09003
65.110001 3.8599999 -665.04999
65.709999 3.8599999 -664.96997
66.339996 3.8599999 -665.09998
66.959999 3.8599999 -665.23999
67.580002 3.8599999 -665.33002
68.160004 3.8599999 -664.98999
68.769997 3.8599999 -665.04999
69.349998 3.8599999 -664.76001
69.959999 3.8599999 -664.67999
70.540001 3.8499999 -664.45001
71.120003 3.8499999 -664.16998
71.690002 3.8499999 -663.79999
72.269997 3.8499999 -663.52002
72.839996 3.8499999 -663.13
73.389999 3.8399999 -662.60999
73.949997 3.8399999 -662.17999
74.540001 3.8399999 -662.06
75.089996 3.8399999 -661.53998
75.639999 3.8299999 -661.08002
76.169998 3.8299999 -660.41998
76.730003 3.8299999 -659.98999
77.239998 3.8199999 -659.21997
77.800003 3.8199999 -658.78998
78.349998 3.8199999 -658.31
78.900002 3.8199999 -657.91998
79.43 3.8099999 -657.33002
79.980003 3.8099999 -656.84998
80.5 3.8099999 -656.15997
81 3.8 -655.39001
81.489998 3.8 -654.48999
81.989998 3.79 -653.71002
82.459999 3.79 -652.70001
82.900002 3.78 -651.46002
83.269997 3.77 -649.65997
83.620003 3.76 -647.78998
83.760002 3.74 -644.34998
83.900002 3.72 -640.92999
84.029999 3.7 -637.52002
84.279999 3.6800001 -635.04999
84.589996 3.6700001 -633.02002
84.970001 3.6600001 -631.5
85.43 3.6600001 -630.66998
85.889999 3.6500001 -629.76001
86.389999 3.6500001 -629.26001
86.910004 3.6400001 -628.83002
87.440002 3.6400001 -628.5
88 3.6400001 -628.39001
88.599998 3.6400001 -628.56
89.309998 3.6500001 -629.42999
90.050003 3.6600001 -630.59998
90.639999 3.6600001 -630.67999
91.220001 3.6600001 -630.65997
91.760002 3.6500001 -630.35999
92.150002 3.6500001 -629.14001
92.660004 3.6400001 -628.63
93.199997 3.6400001 -628.40002
93.75 3.6400001 -628.21002
94.239998 3.6400001 -627.69
94.75 3.6400001 -627.21002
95.32 3.6400001 -627.16998
95.889999 3.6400001 -627.15002
96.470001 3.6400001 -627.16998
97.07 3.6400001 -627.37
97.68 3.6400001 -627.53998
98.32 3.6400001 -627.94
99.010002 3.6400001 -628.69
99.720001 3.6500001 -629.47998
100.5 3.6600001 -630.76001
101.22 3.6600001 -631.59998
103.58 3.73 -642.51001
104.11 3.72 -642.15002
104.79 3.73 -642.67999
105.5 3.73 -643.41998
106.27 3.74 -644.46002
106.97 3.74 -645.09998
107.69 3.75 -645.88
108.43 3.75 -646.71997
109.29 3.76 -648.29999
110.09 3.77 -649.48999
110.81 3.77 -650.20001
-165.3 2.75 -564.96002
-164.75999 2.75 -564.85999
-164.24001 2.75 -564.88
-163.73 2.75 -564.89001
-163.23 2.75 -564.92999
-162.75999 2.75 -565.09998
-162.3 2.75 -565.29999
-161.86 2.76 -565.57001
-161.53 2.76 -566.21002
-161.16 2.76 -566.73999
-160.75 2.76 -567.09998
-160.24001 2.76 -567.15002
-159.78 2.76 -567.35999
-159.34 2.77 -567.63
-158.95 2.77 -568.08002
-158.50999 2.77 -568.37
-158.02 2.77 -568.46997
-157.53999 2.77 -568.63
-157.06 2.77 -568.75
-156.63 2.77 -569.08002
-156.52 2.78 -570.53998
-156.23 2.78 -571.40997
-155.71001 2.78 -571.39001
-155.17999 2.78 -571.37
-154.66 2.78 -571.39001
-154.17999 2.79 -571.56
-153.74001 2.79 -571.87
-153.36 2.79 -572.38
-152.97 2.79 -572.87
-152.82001 2.8 -574.28003
-153.13 2.8099999 -577.34998
-152.64999 2.8199999 -577.54999
-152.14999 2.8199999 -577.64001
-151.71001 2.8199999 -578
-151.28999 2.8199999 -578.40002
-150.95 2.8199999 -579.10999
-150.60001 2.8299999 -579.78998
-151.23 2.8499999 -584.22998
-151.07001 2.8599999 -585.66998
-150.63 2.8599999 -586.03003
-150.25 2.8599999 -586.63
-150.11 2.8699999 -588.19
-151.59 2.9100001 -595.98999
-151.16 2.9100001 -596.45001
-150.77 2.9100001 -597.03998
-150.44 2.9200001 -597.90997
-150.34 2.9200001 -599.65002
-133.06 2.8800001 -591.42999
-132.67 2.8900001 -592.09998
-132.24001 2.8900001 -592.63
-131.72 2.8900001 -592.72998
-131.06 2.8900001 -592.22998
-130.37 2.8800001 -591.54999
-129.84 2.8800001 -591.62
-129.37 2.8900001 -591.91998
-128.87 2.8900001 -592.14001
-128.39999 2.8900001 -592.46002
-127.92 2.8900001 -592.75
-127.44 2.8900001 -593.03003
-126.92 2.8900001 -593.14001
-126.26 2.8900001 -592.64001
-125.69 2.8900001 -592.51001
-125.22 2.8900001 -592.82001
-124.77 2.8900001 -593.28998
-123.99 2.8900001 -592.17999
-121.99 2.8499999 -585.31
-118.91 2.79 -573.22998
-118.01 2.78 -571.46002
-117.44 2.78 -571.20001
-116.87 2.78 -570.98999
-116.31 2.78 -570.79999
-115.76 2.78 -570.67999
-115.22 2.78 -570.63
-114.67 2.78 -570.46002
-114.11 2.78 -570.31
-113.6 2.78 -570.34998
-113.04 2.78 -570.16998
-112.48 2.78 -570.01001
-111.96 2.78 -569.98999
-111.43 2.78 -569.95001
-110.88 2.78 -569.81
-110.35 2.78 -569.77002
-109.8 2.78 -569.66998
-109.26 2.78 -569.58002
-108.73 2.78 -569.51001
-108.2 2.77 -569.46997
-107.66 2.77 -569.40997
-107.14 2.77 -569.40002
-106.61 2.77 -569.37
-106.09 2.77 -569.38
-105.56 2.77 -569.31
-105.03 2.77 -569.29999
-104.5 2.77 -569.21997
-103.98 2.77 -569.22998
-103.45 2.77 -569.17999
-102.92 2.77 -569.15997
-102.38 2.77 -569.09003
-101.85 2.77 -569.03003
-101.31 2.77 -568.90002
-100.75 2.77 -568.71002
-100.18 2.77 -568.46002
-99.589996 2.77 -568.03003
-98.879997 2.76 -566.98999
-98.269997 2.76 -566.46997
-97.730003 2.76 -566.34003
-97.190002 2.76 -566.21997
-96.669998 2.76 -566.22998
-96.169998 2.76 -566.33002
-95.639999 2.76 -566.28003
-95.129997 2.76 -566.34003
-94.620003 2.76 -566.39001
-94.110001 2.76 -566.46002
-93.599998 2.76 -566.48999
-93.080002 2.76 -566.51001
-92.589996 2.76 -566.69
-92.099998 2.76 -566.84003
-91.589996 2.76 -566.88
-91.099998 2.76 -567.09003
-90.610001 2.76 -567.26001
-90.110001 2.76 -567.41998
-89.629997 2.77 -567.62
-89.129997 2.77 -567.76001
-88.639999 2.77 -567.95001
-88.139999 2.77 -568.08002
-87.650002 2.77 -568.28998
-87.160004 2.77 -568.46997
-86.650002 2.77 -568.59003
-86.18 2.77 -568.88
-85.669998 2.77 -568.97998
-85.18 2.77 -569.15997
-84.68 2.77 -569.34998
-84.190002 2.77 -569.51001
-83.709999 2.78 -569.79999
-83.220001 2.78 -570.03003
-82.730003 2.78 -570.28998
-82.239998 2.78 -570.47998
-81.760002 2.78 -570.76001
-81.269997 2.78 -571.02002
-80.790001 2.78 -571.33002
-80.309998 2.79 -571.65002
-79.82 2.79 -571.88
-79.330002 2.79 -572.09003
-78.830002 2.79 -572.29999
-78.339996 2.79 -572.54999
-77.860001 2.79 -572.83002
-77.360001 2.79 -573.02002
-76.860001 2.79 -573.25
-76.419998 2.8 -573.84998
-75.980003 2.8 -574.46997
-75.449997 2.8 -574.5
-74.919998 2.8 -574.42999
-74.389999 2.8 -574.44
-73.870003 2.8 -574.48999
-73.360001 2.8 -574.58002
-72.849998 2.8 -574.70001
-72.32 2.8 -574.67999
-71.800003 2.8 -574.78998
-71.269997 2.8 -574.78003
-70.760002 2.8 -574.87
-70.260002 2.8 -575.07001
-69.739998 2.8 -575.17999
-69.239998 2.8 -575.40002
-68.739998 2.8 -575.59003
-68.230003 2.8 -575.71997
-67.730003 2.8099999 -575.97998
-67.220001 2.8099999 -576.10999
-66.699997 2.8099999 -576.22998
-66.209999 2.8099999 -576.47998
-65.699997 2.8099999 -576.70001
-65.190002 2.8099999 -576.87
-64.690002 2.8099999 -577.06
-64.18 2.8099999 -577.29999
-63.68 2.8099999 -577.48999
-63.169998 2.8099999 -577.71002
-62.669998 2.8199999 -578
-62.16 2.8199999 -578.15002
-61.66 2.8199999 -578.40997
-61.150002 2.8199999 -578.60999
-60.639999 2.8199999 -578.83002
-60.130001 2.8199999 -579
-59.610001 2.8199999 -579.13
-59.099998 2.8199999 -579.27002
-58.580002 2.8199999 -579.46002
-58.080002 2.8199999 -579.66998
-57.560001 2.8299999 -579.87
-57.049999 2.8299999 -580
-56.540001 2.8299999 -580.21002
-56.02 2.8299999 -580.40002
-55.5 2.8299999 -580.5
-54.98 2.8299999 -580.64001
-54.459999 2.8299999 -580.78003
-53.950001 2.8299999 -580.95001
-53.43 2.8299999 -581.16998
-52.91 2.8299999 -581.32001
-52.400002 2.8299999 -581.48999
-51.869999 2.8299999 -581.53003
-51.349998 2.8299999 -581.65002
-50.830002 2.8299999 -581.82001
-50.310001 2.8399999 -581.96002
-49.779999 2.8399999 -582.08002
-49.259998 2.8399999 -582.17999
-48.73 2.8399999 -582.28003
-48.209999 2.8399999 -582.42999
-47.689999 2.8399999 -582.51001
-47.169998 2.8399999 -582.71002
-46.639999 2.8399999 -582.71997
-46.119999 2.8399999 -582.89001
-45.59 2.8399999 -582.96002
-45.07 2.8399999 -583.13
-44.540001 2.8399999 -583.25
-44.02 2.8399999 -583.38
-43.48 2.8399999 -583.38
-42.959999 2.8399999 -583.48999
-42.43 2.8399999 -583.56
-41.889999 2.8399999 -583.60999
-41.369999 2.8399999 -583.71002
-40.84 2.8399999 -583.79999
-40.310001 2.8399999 -583.88
-39.77 2.8399999 -583.88
-39.25 2.8499999 -584.01001
-38.720001 2.8499999 -584.08002
-38.189999 2.8499999 -584.19
-37.66 2.8499999 -584.26001
-37.130001 2.8499999 -584.34003
-36.59 2.8499999 -584.34003
-36.060001 2.8499999 -584.41998
-35.52 2.8499999 -584.25
-34.98 2.8499999 -584.21002
-34.450001 2.8499999 -584.32001
-33.91 2.8499999 -584.31
-33.360001 2.8499999 -584.02002
-32.82 2.8399999 -583.89001
-32.279999 2.8399999 -583.75
-31.73 2.8399999 -583.59003
-31.190001 2.8399999 -583.40997
-30.65 2.8399999 -583.32001
-30.110001 2.8399999 -583.17999
-29.559999 2.8399999 -582.94
-29.02 2.8399999 -582.75
-28.48 2.8399999 -582.64001
-27.940001 2.8399999 -582.47998
-27.4 2.8399999 -582.35999
-26.85 2.8399999 -582.03998
-26.309999 2.8299999 -581.83002
-25.76 2.8299999 -581.56
-25.219999 2.8299999 -581.40002
-24.68 2.8299999 -581.28003
-24.15 2.8299999 -581.19
-23.610001 2.8299999 -581.16998
-23.08 2.8299999 -581.16998
-22.549999 2.8299999 -581.12
-22.01 2.8299999 -581.09998
-21.48 2.8299999 -581.22998
-20.959999 2.8299999 -581.35999
-20.43 2.8299999 -581.60999
-19.91 2.8299999 -581.82001
-19.389999 2.8399999 -582.15997
-18.860001 2.8399999 -582.38
-18.33 2.8399999 -582.46997
-17.799999 2.8399999 -582.48999
-17.27 2.8399999 -582.59998
-16.73 2.8399999 -582.58002
-16.200001 2.8399999 -582.71002
-15.68 2.8399999 -583
-15.14 2.8399999 -582.92999
-14.61 2.8399999 -583.06
-14.08 2.8399999 -583.03003
-13.54 2.8399999 -583.01001
-13.01 2.8399999 -583
-12.47 2.8399999 -583.03998
-11.94 2.8399999 -583.10999
-11.41 2.8399999 -583.22998
-10.88 2.8399999 -583.42999
-10.35 2.8399999 -583.70001
-9.8199997 2.8499999 -584.08002
-9.29 2.8499999 -584.34003
-8.7600002 2.8499999 -584.90997
