# .PCD v0.7 - Point Cloud Data file format
VERSION 0.7
FIELDS x y z
SIZE 4 4 4
TYPE F F F
COUNT 1 1 1
WIDTH 1769
HEIGHT 1
VIEWPOINT 0 0 0 1 0 0 0
POINTS 1769
DATA ascii
-84.57 -113.46 -579.34998
-84.160004 -113.63 -580.16998
-83.739998 -113.78 -580.92999
-83.300003 -113.91 -581.59003
-82.870003 -114.04 -582.26001
-82.480003 -114.25 -583.31
-82.080002 -114.44 -584.23999
-71.809998 -122.49 -624.72998
-71.25 -122.51 -624.84003
-70.68 -122.52 -624.89001
-70.099998 -122.51 -624.81
-69.540001 -122.53 -624.92999
-68.980003 -122.56 -625.08002
-68.43 -122.59 -625.25
-67.900002 -122.68 -625.67999
-67.349998 -122.72 -625.90997
-24.33 -125.95 -642.17999
-23.58 -125.12 -637.96997
-22.860001 -124.36 -634.16998
-22.200001 -123.92 -631.95001
-21.6 -123.81 -631.41998
-21.02 -123.78 -631.26001
-20.43 -123.74 -631.03998
-19.84 -123.67 -630.73999
-19.25 -123.59 -630.32001
-18.66 -123.49 -629.82001
-18.07 -123.4 -629.37
-17.469999 -123.29 -628.79999
-16.879999 -123.2 -628.34003
-16.290001 -123.05 -627.58002
-15.7 -122.95 -627.12
-15.1 -122.81 -626.39001
-14.52 -122.7 -625.82001
-13.93 -122.57 -625.19
-13.34 -122.46 -624.62
-12.76 -122.35 -624.08002
-12.18 -122.28 -623.75
-11.6 -122.24 -623.5
-11.03 -122.22 -623.45001
-10.46 -122.25 -623.54999
-9.8900003 -122.29 -623.78003
-9.3199997 -122.37 -624.16998
-8.7799997 -122.72 -625.95001
-8.2700005 -123.73 -631.01001
-7.6999998 -123.87 -631.73999
15.23 -126.55 -645.19
15.78 -126.23 -643.59998
16.34 -126 -642.40997
16.889999 -125.7 -640.91998
17.43 -125.37 -639.26001
17.98 -125.13 -638.07001
18.530001 -124.85 -636.63
19.059999 -124.53 -635.04999
19.59 -124.2 -633.34998
20.16 -124.1 -632.88
20.73 -124.02 -632.45001
21.299999 -123.97 -632.21002
21.870001 -123.93 -631.98999
22.450001 -123.92 -631.96002
23.030001 -123.95 -632.10999
23.610001 -123.93 -632
24.190001 -123.91 -631.94
24.77 -123.93 -632
25.360001 -123.96 -632.15997
25.950001 -124.02 -632.45001
26.57 -124.21 -633.41998
27.17 -124.29 -633.82001
27.74 -124.23 -633.53003
28.299999 -124.16 -633.16998
28.860001 -124.07 -632.71002
29.440001 -124.04 -632.57001
30.01 -124.02 -632.45001
30.59 -124 -632.35999
31.15 -123.95 -632.12
31.719999 -123.91 -631.91998
32.310001 -123.93 -632.02002
32.900002 -123.95 -632.13
33.48 -123.96 -632.15002
34.060001 -123.98 -632.25
34.650002 -124.02 -632.45001
35.25 -124.07 -632.72998
35.860001 -124.16 -633.16998
36.459999 -124.23 -633.52002
37.060001 -124.32 -633.95001
37.68 -124.43 -634.53003
38.439999 -125 -637.40002
39.07 -125.14 -638.09003
39.669998 -125.19 -638.32001
-157.74001 -122.14 -620.32001
-157.24001 -122.19 -620.58002
-156.8 -122.3 -621.09003
-156.25999 -122.32 -621.21002
-155.74001 -122.36 -621.40002
-155.49001 -122.61 -622.65997
-154.99001 -122.67 -622.92999
-154.47 -122.71 -623.10999
-154.10001 -122.87 -623.91998
-153.72 -123.02 -624.70001
-153.24001 -123.1 -625.07001
-152.78 -123.19 -625.53003
-152.56 -123.48 -626.95001
-152.22 -123.66 -627.88
-151.75 -123.75 -628.31
-151.27 -123.83 -628.71997
-150.86 -123.97 -629.39001
-150.92 -124.49 -632.03003
-150.45 -124.58 -632.46002
-149.87 -124.59 -632.48999
-149.2 -124.51 -632.09003
-148.66 -124.54 -632.25
-148.06 -124.52 -632.15997
-147.49001 -124.54 -632.22998
-147 -124.61 -632.59003
-133.33 -113.47 -576.84003
-132.32001 -113.06 -574.76001
-131.63 -112.92 -574.08002
-130.61 -112.5 -571.96002
-129.92 -112.35 -571.23999
-129.25999 -112.23 -570.60999
-128.62 -112.13 -570.12
-127.97 -112.02 -569.53998
-127.35 -111.93 -569.13
-126.72 -111.83 -568.60999
-126.1 -111.75 -568.20001
-125.52 -111.69 -567.90002
-124.86 -111.57 -567.28998
-124.26 -111.49 -566.90997
-123.64 -111.41 -566.47998
-123.06 -111.35 -566.20001
-122.44 -111.26 -565.75
-121.88 -111.22 -565.54999
-121.31 -111.18 -565.32001
-120.75 -111.13 -565.09003
-120.19 -111.09 -564.89001
-119.62 -111.05 -564.66998
-119.09 -111.03 -564.58002
-118.54 -111.01 -564.45001
-117.99 -110.97 -564.27002
-117.47 -110.97 -564.28003
-116.93 -110.95 -564.14001
-116.42 -110.95 -564.16998
-115.9 -110.95 -564.17999
-115.37 -110.94 -564.10999
-114.82 -110.91 -563.94
-114.29 -110.9 -563.89001
-113.79 -110.9 -563.92999
-113.27 -110.91 -563.92999
-112.75 -110.9 -563.91998
-112.23 -110.9 -563.88
-111.72 -110.91 -563.92999
-111.2 -110.91 -563.92999
-110.71 -110.92 -564.02002
-110.19 -110.93 -564.03998
-109.69 -110.94 -564.10999
-109.18 -110.95 -564.14001
-108.68 -110.96 -564.21002
-108.17 -110.97 -564.25
-107.67 -110.99 -564.32001
-107.17 -111.01 -564.44
-106.69 -111.05 -564.63
-106.18 -111.05 -564.65002
-105.7 -111.09 -564.84003
-105.19 -111.1 -564.90002
-104.7 -111.13 -565.04999
-104.2 -111.15 -565.14001
-103.73 -111.21 -565.40997
-103.22 -111.21 -565.41998
-102.74 -111.25 -565.63
-102.27 -111.3 -565.88
-101.77 -111.33 -566.01001
-101.29 -111.37 -566.21997
-100.8 -111.4 -566.37
-100.32 -111.43 -566.54999
-99.849998 -111.49 -566.83002
-99.360001 -111.53 -567.01001
-98.879997 -111.57 -567.21002
-98.379997 -111.6 -567.37
-97.910004 -111.65 -567.62
-97.419998 -111.68 -567.78998
-96.940002 -111.73 -568.01001
-96.449997 -111.77 -568.21002
-95.980003 -111.83 -568.51001
-95.489998 -111.87 -568.70001
-95.019997 -111.92 -568.98999
-94.550003 -111.99 -569.31
-94.089996 -112.05 -569.62
-93.599998 -112.1 -569.87
-93.139999 -112.17 -570.22998
-92.669998 -112.23 -570.53998
-92.199997 -112.3 -570.87
-91.75 -112.38 -571.28998
-91.290001 -112.46 -571.65997
-90.809998 -112.52 -571.98999
-90.370003 -112.62 -572.46997
-89.900002 -112.69 -572.83002
-89.459999 -112.8 -573.34998
-88.989998 -112.87 -573.71002
-88.550003 -112.98 -574.26001
-88.089996 -113.07 -574.70001
-87.660004 -113.18 -575.28998
-87.199997 -113.27 -575.72998
-86.760002 -113.39 -576.34003
-86.309998 -113.49 -576.81
-85.889999 -113.63 -577.52002
-85.449997 -113.76 -578.15997
-85.029999 -113.9 -578.84998
-84.599998 -114.03 -579.54999
-84.169998 -114.17 -580.21997
-83.720001 -114.29 -580.82001
-83.279999 -114.42 -581.46997
-82.879997 -114.6 -582.38
-82.480003 -114.78 -583.27002
-82.059998 -114.94 -584.09998
-70.639999 -123.03 -624.54999
-70.110001 -123.1 -624.90002
-69.540001 -123.11 -624.95001
-68.970001 -123.11 -624.96997
-68.410004 -123.13 -625.08002
-67.870003 -123.19 -625.38
-67.32 -123.24 -625.62
-22.459999 -125.93 -639.13
-21.690001 -124.92 -634.07001
-21.059999 -124.64 -632.65997
-20.450001 -124.41 -631.53003
-19.860001 -124.36 -631.23999
-19.27 -124.29 -630.92999
-18.67 -124.17 -630.32001
-18.07 -124.04 -629.66998
-17.49 -123.97 -629.29999
-16.889999 -123.84 -628.67999
-16.290001 -123.69 -627.91998
-15.7 -123.58 -627.39001
-15.11 -123.42 -626.54999
-14.52 -123.28 -625.84003
-13.93 -123.12 -625.04999
-13.33 -122.96 -624.27002
-12.75 -122.84 -623.65002
-12.17 -122.76 -623.28998
-11.59 -122.72 -623.07001
-11.02 -122.71 -622.98999
-10.45 -122.73 -623.12
-9.8800001 -122.77 -623.33002
-9.3199997 -122.83 -623.64001
-8.7700005 -123.17 -625.29999
-8.2600002 -124.16 -630.28003
-7.6900001 -124.28 -630.84998
15.24 -127.22 -645.58002
15.79 -126.87 -643.83002
16.34 -126.59 -642.45001
16.889999 -126.31 -641.01001
17.440001 -125.99 -639.40997
17.99 -125.74 -638.17999
18.530001 -125.45 -636.71002
19.07 -125.15 -635.20001
19.59 -124.77 -633.34003
20.16 -124.66 -632.77002
20.719999 -124.57 -632.33002
21.299999 -124.55 -632.23999
21.870001 -124.51 -632
22.450001 -124.49 -631.91998
23.02 -124.46 -631.78003
23.6 -124.48 -631.84003
24.18 -124.46 -631.77002
24.77 -124.5 -631.95001
25.360001 -124.58 -632.37
25.969999 -124.7 -632.98999
26.58 -124.82 -633.56
27.15 -124.8 -633.46997
27.73 -124.78 -633.35999
28.299999 -124.71 -633.03003
28.860001 -124.62 -632.57001
29.42 -124.57 -632.28998
30.01 -124.58 -632.34003
30.58 -124.57 -632.31
31.15 -124.53 -632.10999
31.719999 -124.47 -631.78003
32.299999 -124.49 -631.89001
32.889999 -124.51 -632
33.470001 -124.51 -632.01001
34.049999 -124.52 -632.06
34.650002 -124.59 -632.40002
35.240002 -124.62 -632.56
35.849998 -124.72 -633.03998
36.450001 -124.78 -633.37
37.049999 -124.87 -633.78998
37.709999 -125.12 -635.03003
38.450001 -125.64 -637.63
39.07 -125.74 -638.14001
39.66 -125.75 -638.21002
-157.67999 -122.67 -620.12
-157.21001 -122.74 -620.47998
-156.77 -122.84 -620.96997
-156.39999 -123 -621.73999
-155.89999 -123.06 -622.03003
-155.47 -123.17 -622.59003
-155.03 -123.27 -623.09003
-154.57001 -123.36 -623.51001
-154.14 -123.47 -624.07001
-153.67999 -123.56 -624.52002
-153.13 -123.58 -624.60999
-152.74001 -123.73 -625.34998
-152.41 -123.93 -626.34003
-152.17999 -124.21 -627.73999
-151.77 -124.35 -628.41998
-151.35001 -124.47 -629.03998
-150.87 -124.55 -629.45001
-150.87 -125.03 -631.84003
-150.39999 -125.12 -632.27002
-149.92999 -125.21 -632.71997
-149.28999 -125.17 -632.48999
-148.7 -125.16 -632.41998
-148.10001 -125.14 -632.35999
-147.52 -125.14 -632.34998
-146.95 -125.15 -632.38
-132.58 -113.81 -575.90997
-131.67999 -113.49 -574.28003
-130.87 -113.24 -573.04999
-130.03 -112.97 -571.71997
-129.34 -112.82 -570.96002
-128.7 -112.72 -570.45001
-128.05 -112.61 -569.91998
-127.41 -112.51 -569.39001
-126.81 -112.43 -569.02002
-126.2 -112.35 -568.62
-125.57 -112.26 -568.15002
-124.94 -112.16 -567.65997
-124.32 -112.07 -567.21002
-123.73 -112.01 -566.90002
-123.14 -111.94 -566.56
-122.54 -111.87 -566.17999
-121.95 -111.8 -565.87
-121.39 -111.76 -565.65002
-120.81 -111.71 -565.40002
-120.24 -111.66 -565.14001
-119.69 -111.63 -564.98999
-119.14 -111.6 -564.84003
-118.59 -111.57 -564.67999
-118.03 -111.53 -564.48999
-117.51 -111.53 -564.47998
-116.97 -111.5 -564.34998
-116.43 -111.48 -564.23999
-115.89 -111.46 -564.10999
-115.36 -111.44 -564.04999
-114.83 -111.43 -563.96997
-114.32 -111.43 -564
-113.78 -111.42 -563.90002
-113.27 -111.42 -563.91998
-112.76 -111.43 -563.96002
-112.22 -111.41 -563.87
-111.7 -111.41 -563.84998
-111.21 -111.43 -563.95001
-110.69 -111.43 -563.95001
-110.19 -111.44 -564
-109.69 -111.46 -564.09003
-109.19 -111.47 -564.17999
-108.7 -111.5 -564.29999
-108.19 -111.51 -564.37
-107.67 -111.51 -564.35999
-107.18 -111.53 -564.47998
-106.69 -111.56 -564.60999
-106.18 -111.57 -564.66998
-105.7 -111.61 -564.85999
-105.22 -111.65 -565.03003
-104.72 -111.67 -565.15002
-104.24 -111.71 -565.33002
-103.74 -111.73 -565.42999
-103.26 -111.77 -565.63
-102.77 -111.8 -565.81
-102.29 -111.84 -565.98999
-101.8 -111.88 -566.15997
-101.3 -111.89 -566.25
-100.83 -111.95 -566.53998
-100.35 -111.99 -566.76001
-99.860001 -112.02 -566.88
-99.370003 -112.06 -567.08002
-98.889999 -112.1 -567.29999
-98.410004 -112.15 -567.53998
-97.93 -112.2 -567.76001
-97.440002 -112.22 -567.89001
-96.959999 -112.27 -568.13
-96.470001 -112.31 -568.34003
-96 -112.37 -568.62
-95.519997 -112.41 -568.83002
-95.040001 -112.47 -569.12
-94.57 -112.53 -569.40997
-94.089996 -112.58 -569.65002
-93.629997 -112.65 -570
-93.160004 -112.72 -570.34998
-92.669998 -112.76 -570.54999
-92.220001 -112.84 -570.96002
-91.75 -112.91 -571.32001
-91.290001 -112.98 -571.65997
-90.82 -113.06 -572.03998
-90.379997 -113.16 -572.53998
-89.910004 -113.23 -572.90002
-89.470001 -113.33 -573.40002
-89 -113.41 -573.78003
-88.550003 -113.51 -574.28998
-88.099998 -113.6 -574.75
-87.660004 -113.72 -575.32001
-87.199997 -113.8 -575.73999
-86.760002 -113.91 -576.31
-86.309998 -114.02 -576.84998
-85.889999 -114.17 -577.57001
-85.449997 -114.28 -578.15002
-85.029999 -114.43 -578.84998
-84.589996 -114.55 -579.48999
-84.160004 -114.69 -580.15002
-83.720001 -114.82 -580.81
-83.309998 -114.99 -581.64001
-82.879997 -115.12 -582.33002
-82.459999 -115.29 -583.14001
-82.029999 -115.43 -583.84998
-81.629997 -115.62 -584.82001
-69.489998 -123.59 -624.5
-68.959999 -123.66 -624.85999
-68.389999 -123.67 -624.90997
-67.830002 -123.7 -625.03003
-20.620001 -126.07 -636.89001
-19.889999 -125.12 -632.16998
-19.290001 -124.99 -631.5
-18.690001 -124.87 -630.91998
-18.09 -124.76 -630.35999
-17.5 -124.68 -629.95001
-16.92 -124.61 -629.64001
-16.32 -124.47 -628.95001
-15.73 -124.37 -628.45001
-15.14 -124.23 -627.73999
-14.55 -124.1 -627.09003
-13.94 -123.86 -625.89001
-13.33 -123.53 -624.23999
-12.74 -123.35 -623.34998
-12.16 -123.28 -622.98999
-11.59 -123.22 -622.71997
-11.01 -123.2 -622.60999
-10.44 -123.21 -622.67999
-9.8800001 -123.27 -622.95001
-9.3100004 -123.33 -623.26001
-8.7700005 -123.76 -625.38
-8.25 -124.65 -629.82001
-7.6799998 -124.72 -630.19
15.8 -127.56 -644.29999
16.35 -127.24 -642.70001
16.9 -126.95 -641.28003
17.450001 -126.65 -639.76001
18 -126.38 -638.42999
18.540001 -126.12 -637.15002
19.08 -125.83 -635.69
19.6 -125.43 -633.71002
20.16 -125.25 -632.79999
20.719999 -125.16 -632.34003
21.299999 -125.12 -632.15002
21.870001 -125.06 -631.87
22.440001 -125.03 -631.72998
23.02 -125.02 -631.65997
23.6 -125.02 -631.67999
24.18 -125.04 -631.78003
24.77 -125.09 -632.01001
25.370001 -125.17 -632.40997
25.969999 -125.27 -632.89001
26.549999 -125.29 -633.01001
27.129999 -125.29 -632.98999
27.709999 -125.28 -632.96002
28.290001 -125.25 -632.83002
28.860001 -125.2 -632.56
29.43 -125.17 -632.40002
30 -125.15 -632.31
30.58 -125.14 -632.28003
31.16 -125.11 -632.12
31.719999 -125.06 -631.84003
32.299999 -125.06 -631.87
32.889999 -125.08 -631.95001
33.470001 -125.09 -632.03003
34.060001 -125.12 -632.15997
34.639999 -125.12 -632.17999
35.240002 -125.2 -632.57001
35.849998 -125.29 -633
36.439999 -125.34 -633.26001
37.049999 -125.43 -633.69
37.709999 -125.7 -635.03003
38.459999 -126.23 -637.70001
39.07 -126.32 -638.10999
39.68 -126.39 -638.46002
-157.82001 -123.34 -620.65002
-157.31 -123.39 -620.89001
-156.83 -123.46 -621.22998
-156.38 -123.55 -621.65997
-155.81 -123.55 -621.65997
-155.5 -123.76 -622.69
-155.06 -123.86 -623.20001
-154.5 -123.87 -623.23999
-154.11 -124.02 -623.98999
-153.75999 -124.2 -624.85999
-153.25999 -124.26 -625.14001
-152.82001 -124.37 -625.66998
-152.39 -124.49 -626.26001
-152.24001 -124.84 -628
-151.78999 -124.94 -628.48999
-151.33 -125.03 -628.95001
-150.8 -125.08 -629.17999
-150.64 -125.42 -630.88
-150.46001 -125.75 -632.51001
-149.92999 -125.8 -632.75
-149.39 -125.83 -632.87
-148.74001 -125.77 -632.60999
-148.19 -125.8 -632.73999
-147.50999 -125.72 -632.32001
-147.00999 -125.78 -632.62
-145.14999 -124.68 -627.16998
-132.94 -114.65 -577.42999
-131.72 -114.05 -574.47998
-131.02 -113.9 -573.72998
-130.11 -113.56 -572.04999
-129.46001 -113.46 -571.52002
-128.75999 -113.3 -570.72998
-128.11 -113.18 -570.15002
-127.49 -113.1 -569.71997
-126.86 -113 -569.23999
-126.24 -112.91 -568.79999
-125.63 -112.84 -568.42999
-125.03 -112.76 -568.06
-124.43 -112.69 -567.69
-123.83 -112.61 -567.32001
-123.22 -112.54 -566.94
-122.6 -112.45 -566.47998
-122.01 -112.38 -566.15002
-121.47 -112.35 -566.01001
-120.87 -112.28 -565.66998
-120.28 -112.22 -565.33002
-119.72 -112.18 -565.13
-119.15 -112.13 -564.90002
-118.63 -112.12 -564.84003
-118.08 -112.1 -564.72998
-117.55 -112.08 -564.63
-117 -112.05 -564.51001
-116.49 -112.05 -564.52002
-115.94 -112.03 -564.39001
-115.4 -112 -564.22998
-114.87 -111.99 -564.19
-114.35 -111.98 -564.14001
-113.82 -111.97 -564.08002
-113.29 -111.96 -564.03998
-112.76 -111.95 -563.98999
-112.25 -111.95 -564
-111.74 -111.95 -564.01001
-111.22 -111.96 -564.01001
-110.71 -111.96 -564.03003
-110.21 -111.97 -564.09998
-109.71 -111.99 -564.20001
-109.21 -112.02 -564.31
-108.7 -112.02 -564.34998
-108.2 -112.03 -564.39001
-107.72 -112.08 -564.60999
-107.22 -112.09 -564.67999
-106.71 -112.1 -564.71002
-106.21 -112.12 -564.81
-105.72 -112.15 -564.96997
-105.23 -112.18 -565.09003
-104.74 -112.21 -565.23999
-104.26 -112.25 -565.42999
-103.77 -112.28 -565.59003
-103.28 -112.31 -565.75
-102.79 -112.35 -565.91998
-102.29 -112.36 -566.02002
-101.81 -112.41 -566.22998
-101.33 -112.45 -566.44
-100.86 -112.5 -566.66998
-100.36 -112.52 -566.81
-99.879997 -112.57 -567.01001
-99.389999 -112.6 -567.17999
-98.910004 -112.65 -567.40997
-98.43 -112.69 -567.65002
-97.949997 -112.73 -567.83002
-97.459999 -112.77 -568.01001
-96.959999 -112.8 -568.15002
-96.489998 -112.85 -568.44
-96.010002 -112.9 -568.66998
-95.540001 -112.96 -568.95001
-95.059998 -113.01 -569.21997
-94.57 -113.05 -569.41998
-94.099998 -113.11 -569.71997
-93.629997 -113.18 -570.03998
-93.18 -113.26 -570.45001
-92.699997 -113.31 -570.70001
-92.230003 -113.37 -571.01001
-91.760002 -113.44 -571.34003
-91.290001 -113.51 -571.69
-90.839996 -113.61 -572.15997
-90.389999 -113.7 -572.62
-89.919998 -113.76 -572.92999
-89.459999 -113.85 -573.37
-89.010002 -113.94 -573.84003
-88.57 -114.05 -574.35999
-88.099998 -114.13 -574.78003
-87.660004 -114.24 -575.28998
-87.199997 -114.33 -575.75
-86.760002 -114.45 -576.33002
-86.330002 -114.57 -576.92999
-85.889999 -114.7 -577.56
-85.470001 -114.84 -578.27002
-85.019997 -114.95 -578.83002
-84.589996 -115.09 -579.5
-84.169998 -115.23 -580.21997
-83.730003 -115.36 -580.84003
-83.330002 -115.54 -581.76001
-82.870003 -115.65 -582.31
-82.449997 -115.81 -583.08002
-82.010002 -115.94 -583.72998
-81.610001 -116.13 -584.66998
-19.379999 -126.18 -634.52002
-18.709999 -125.56 -631.45001
-18.110001 -125.46 -630.98999
-17.52 -125.33 -630.34998
-16.93 -125.27 -630.03003
-16.34 -125.21 -629.71997
-15.76 -125.16 -629.46997
-15.17 -125.08 -629.09003
-14.59 -125.03 -628.83002
-14 -124.92 -628.31
-13.38 -124.55 -626.45001
-12.74 -123.88 -623.13
-12.16 -123.78 -622.64001
-11.58 -123.72 -622.37
-11.01 -123.71 -622.28998
-10.44 -123.71 -622.32001
-9.8699999 -123.75 -622.51001
-9.3100004 -123.84 -622.95001
-8.7600002 -124.17 -624.56
-8.25 -125.13 -629.34998
-7.6700001 -125.18 -629.57001
-7.0999999 -125.32 -630.28003
15.81 -128.27 -644.92999
16.35 -127.86 -642.85999
16.91 -127.61 -641.63
17.450001 -127.26 -639.90997
18 -126.98 -638.53003
18.549999 -126.73 -637.27002
19.1 -126.5 -636.14001
19.610001 -126.06 -633.92999
20.16 -125.84 -632.85999
20.719999 -125.72 -632.23999
21.290001 -125.66 -631.94
21.860001 -125.63 -631.78998
22.43 -125.58 -631.56
23.01 -125.57 -631.48999
23.6 -125.59 -631.62
24.18 -125.61 -631.70001
24.76 -125.64 -631.85999
25.35 -125.68 -632.07001
25.940001 -125.73 -632.33002
26.52 -125.74 -632.34003
27.110001 -125.74 -632.34998
27.68 -125.74 -632.33002
28.27 -125.74 -632.35999
28.84 -125.72 -632.23999
29.43 -125.75 -632.40997
30.01 -125.75 -632.40002
30.58 -125.72 -632.22998
31.15 -125.69 -632.10999
31.719999 -125.63 -631.82001
32.299999 -125.63 -631.78003
32.880001 -125.63 -631.78003
33.459999 -125.64 -631.84003
34.049999 -125.67 -632.01001
34.639999 -125.7 -632.15997
35.240002 -125.78 -632.52002
35.84 -125.84 -632.84003
36.439999 -125.9 -633.15997
37.060001 -126.04 -633.83002
37.73 -126.35 -635.34998
38.450001 -126.81 -637.64001
39.060001 -126.88 -638
39.669998 -126.94 -638.31
-157.88 -123.96 -620.88
-157.35001 -123.99 -621.03003
-156.84 -124.04 -621.27002
-156.47 -124.2 -622.03998
-155.92999 -124.22 -622.16998
-155.48 -124.32 -622.64001
-155.08 -124.45 -623.28998
-154.63 -124.55 -623.78998
-154.17 -124.64 -624.22998
-153.72 -124.74 -624.70001
-153.17999 -124.77 -624.82001
-152.75 -124.88 -625.40002
-152.36 -125.04 -626.14001
-152.25 -125.42 -628.03998
-151.82001 -125.54 -628.59998
-151.33 -125.61 -628.96002
-150.88 -125.72 -629.5
-150.56 -125.93 -630.53003
-150.46001 -126.33 -632.52002
-149.91 -126.36 -632.65997
-149.33 -126.36 -632.64001
-148.67999 -126.3 -632.37
-148.06 -126.27 -632.19
-147.47 -126.26 -632.13
-146.91 -126.28 -632.22998
-146.36 -126.3 -632.34998
-133.10001 -115.32 -578.13
-132.06 -114.87 -575.94
-131.17999 -114.56 -574.40002
-130.28999 -114.24 -572.81
-129.53999 -114.05 -571.84998
-128.89 -113.94 -571.29999
-128.22 -113.81 -570.65997
-127.56 -113.69 -570.06
-126.93 -113.58 -569.54999
-126.3 -113.49 -569.09998
-125.7 -113.42 -568.72998
-125.11 -113.36 -568.41998
-124.52 -113.29 -568.10999
-123.89 -113.19 -567.59998
-123.29 -113.12 -567.23999
-122.69 -113.05 -566.89001
-122.08 -112.96 -566.46997
-121.5 -112.91 -566.19
-120.95 -112.87 -566.02002
-120.35 -112.8 -565.65997
-119.8 -112.77 -565.48999
-119.24 -112.72 -565.28003
-118.68 -112.69 -565.09998
-118.12 -112.65 -564.90002
-117.59 -112.64 -564.84998
-117.08 -112.64 -564.87
-116.53 -112.62 -564.73999
-116.01 -112.6 -564.67999
-115.47 -112.59 -564.59003
-114.92 -112.55 -564.42999
-114.39 -112.54 -564.34998
-113.87 -112.54 -564.34003
-113.34 -112.52 -564.27002
-112.79 -112.5 -564.14001
-112.29 -112.5 -564.17999
-111.77 -112.51 -564.17999
-111.26 -112.51 -564.21997
-110.75 -112.52 -564.26001
-110.24 -112.52 -564.25
-109.74 -112.55 -564.37
-109.23 -112.55 -564.38
-108.73 -112.57 -564.5
-108.24 -112.6 -564.64001
-107.74 -112.61 -564.69
-107.23 -112.62 -564.73999
-106.75 -112.66 -564.91998
-106.25 -112.68 -565.02002
-105.76 -112.71 -565.16998
-105.27 -112.73 -565.28998
-104.78 -112.76 -565.44
-104.3 -112.81 -565.64001
-103.79 -112.82 -565.70001
-103.31 -112.86 -565.90997
-102.82 -112.9 -566.08002
-102.33 -112.93 -566.23999
-101.84 -112.95 -566.34998
-101.35 -112.98 -566.52002
-100.86 -113.03 -566.71997
-100.37 -113.06 -566.87
-99.900002 -113.11 -567.13
-99.400002 -113.14 -567.26001
-98.93 -113.19 -567.51001
-98.449997 -113.23 -567.71997
-97.949997 -113.26 -567.84998
-97.470001 -113.31 -568.10999
-97 -113.36 -568.37
-96.510002 -113.4 -568.53998
-96.019997 -113.44 -568.75
-95.550003 -113.5 -569.03998
-95.080002 -113.56 -569.34998
-94.589996 -113.6 -569.54999
-94.129997 -113.67 -569.90002
-93.650002 -113.72 -570.12
-93.190002 -113.79 -570.5
-92.720001 -113.86 -570.83002
-92.25 -113.93 -571.17999
-91.769997 -113.99 -571.45001
-91.32 -114.07 -571.88
-90.849998 -114.15 -572.23999
-90.379997 -114.21 -572.53998
-89.919998 -114.29 -572.96002
-89.480003 -114.39 -573.46002
-89.019997 -114.48 -573.89001
-88.57 -114.58 -574.39001
-88.110001 -114.66 -574.78003
-87.660004 -114.77 -575.33002
-87.220001 -114.88 -575.84998
-86.779999 -114.99 -576.41998
-86.339996 -115.12 -577.02002
-85.910004 -115.25 -577.66998
-85.459999 -115.35 -578.19
-85.040001 -115.5 -578.94
-84.589996 -115.61 -579.46002
-84.18 -115.78 -580.31
-83.720001 -115.88 -580.78998
-83.309998 -116.05 -581.63
-82.879997 -116.2 -582.39001
-82.440002 -116.32 -582.98999
-82 -116.47 -583.69
-81.589996 -116.64 -584.56
-18.190001 -126.57 -633.59003
-17.530001 -126 -630.78998
-16.940001 -125.93 -630.42999
-16.35 -125.85 -630.06
-15.77 -125.81 -629.85999
-15.18 -125.76 -629.58002
-14.6 -125.72 -629.39001
-14.02 -125.7 -629.28998
-13.44 -125.64 -629
-12.76 -124.64 -624.07001
-12.15 -124.28 -622.31
-11.58 -124.24 -622.09998
-11 -124.23 -622.06
-10.43 -124.23 -622.07001
-9.8699999 -124.27 -622.25
-9.3000002 -124.31 -622.45001
-8.7600002 -124.75 -624.59998
-8.2399998 -125.65 -629.04999
-7.6700001 -125.7 -629.31
-7.0999999 -125.8 -629.79999
16.370001 -128.55 -643.37
16.92 -128.27 -641.97998
17.469999 -127.96 -640.44
18.01 -127.68 -639.04999
18.559999 -127.4 -637.69
19.110001 -127.16 -636.53003
19.629999 -126.73 -634.38
20.16 -126.45 -633.01001
20.719999 -126.31 -632.33002
21.290001 -126.25 -632.02002
21.860001 -126.2 -631.73999
22.440001 -126.17 -631.62
23.01 -126.14 -631.47998
23.59 -126.15 -631.53003
24.17 -126.16 -631.54999
24.76 -126.19 -631.71002
25.34 -126.2 -631.78003
25.92 -126.2 -631.77002
26.49 -126.17 -631.64001
27.08 -126.2 -631.76001
27.66 -126.21 -631.78998
28.24 -126.2 -631.73999
28.84 -126.28 -632.16998
29.43 -126.34 -632.46997
30.02 -126.37 -632.58002
30.58 -126.3 -632.27002
31.16 -126.28 -632.17999
31.73 -126.26 -632.03998
32.290001 -126.19 -631.71002
32.880001 -126.21 -631.82001
33.459999 -126.22 -631.84003
34.049999 -126.25 -632.02002
34.639999 -126.28 -632.16998
35.23 -126.32 -632.37
35.830002 -126.41 -632.77002
36.439999 -126.5 -633.25
37.060001 -126.64 -633.92999
37.720001 -126.89 -635.16998
38.439999 -127.34 -637.35999
39.049999 -127.42 -637.75
39.66 -127.52 -638.28003
-157.94 -124.57 -621.10999
-157.38 -124.58 -621.15997
-156.89 -124.65 -621.46002
-156.44 -124.74 -621.90997
-155.87 -124.74 -621.91998
-155.52 -124.92 -622.77002
-155.13 -125.06 -623.48999
-154.57001 -125.08 -623.53998
-154.06 -125.12 -623.78003
-153.75999 -125.35 -624.87
-153.32001 -125.46 -625.40997
-152.82001 -125.52 -625.69
-152.38 -125.62 -626.21002
-152.25999 -126.01 -628.09003
-151.78999 -126.09 -628.48999
-151.32001 -126.18 -628.95001
-150.86 -126.28 -629.41998
-150.45 -126.42 -630.09998
-150.3 -126.78 -631.85999
-149.77 -126.82 -632.09003
-149.21001 -126.84 -632.15997
-148.59 -126.81 -631.97998
-147.98 -126.78 -631.84003
-146.67999 -126.65 -631.22998
-146.10001 -126.65 -631.21997
-132.31 -115.62 -577.01001
-131.31 -115.21 -574.97998
-130.5 -114.96 -573.76001
-129.64 -114.66 -572.28003
-128.99001 -114.55 -571.72998
-128.37 -114.46 -571.29999
-127.66 -114.29 -570.46997
-127.02 -114.19 -569.95001
-126.37 -114.07 -569.37
-125.75 -113.99 -568.96997
-125.15 -113.92 -568.62
-124.57 -113.85 -568.31
-123.96 -113.77 -567.90997
-123.35 -113.69 -567.5
-122.76 -113.63 -567.19
-122.16 -113.56 -566.84003
-121.56 -113.48 -566.45001
-120.99 -113.43 -566.21997
-120.43 -113.39 -566.02002
-119.87 -113.35 -565.84003
-119.29 -113.3 -565.54999
-118.73 -113.25 -565.31
-118.18 -113.22 -565.15997
-117.64 -113.2 -565.07001
-117.1 -113.18 -564.95001
-116.56 -113.16 -564.87
-116.03 -113.15 -564.81
-115.5 -113.13 -564.72998
-114.94 -113.09 -564.53003
-114.42 -113.08 -564.48999
-113.89 -113.08 -564.46002
-113.38 -113.09 -564.5
-112.86 -113.08 -564.46997
-112.33 -113.06 -564.39001
-111.82 -113.07 -564.41998
-111.3 -113.07 -564.42999
-110.79 -113.08 -564.44
-110.28 -113.08 -564.46002
-109.78 -113.1 -564.57001
-109.26 -113.1 -564.53998
-108.77 -113.12 -564.66998
-108.27 -113.14 -564.76001
-107.77 -113.16 -564.84003
-107.27 -113.18 -564.92999
-106.78 -113.21 -565.07001
-106.28 -113.23 -565.20001
-105.79 -113.26 -565.32001
-105.3 -113.29 -565.47998
-104.79 -113.3 -565.53003
-104.31 -113.34 -565.71997
-103.81 -113.35 -565.78998
-103.32 -113.39 -565.96002
-102.83 -113.42 -566.13
-102.34 -113.46 -566.29999
-101.87 -113.5 -566.53003
-101.36 -113.52 -566.60999
-100.86 -113.54 -566.69
-100.39 -113.6 -566.96997
-99.919998 -113.65 -567.26001
-99.43 -113.69 -567.42999
-98.940002 -113.72 -567.58002
-98.470001 -113.78 -567.84998
-98 -113.83 -568.13
-97.510002 -113.87 -568.29999
-97.010002 -113.9 -568.46002
-96.540001 -113.95 -568.72998
-96.050003 -113.99 -568.90002
-95.559998 -114.03 -569.10999
-95.089996 -114.09 -569.39001
-94.620003 -114.15 -569.67999
-94.150002 -114.22 -570.02002
-93.669998 -114.26 -570.23999
-93.199997 -114.34 -570.59998
-92.720001 -114.38 -570.83002
-92.25 -114.45 -571.15002
-91.779999 -114.51 -571.46002
-91.339996 -114.62 -572.01001
-90.849998 -114.67 -572.22998
-90.400002 -114.76 -572.65002
-89.940002 -114.84 -573.06
-89.480003 -114.93 -573.52002
-89.029999 -115.02 -573.94
-88.559998 -115.1 -574.32001
-88.110001 -115.19 -574.81
-87.660004 -115.3 -575.34003
-87.230003 -115.42 -575.91998
-86.790001 -115.54 -576.51001
-86.360001 -115.67 -577.13
-85.919998 -115.79 -577.75
-85.480003 -115.91 -578.32001
-85.040001 -116.04 -578.96997
-84.580002 -116.14 -579.44
-84.169998 -116.31 -580.27002
-83.720001 -116.41 -580.79999
-83.309998 -116.59 -581.66998
-82.879997 -116.73 -582.34998
-82.43 -116.84 -582.90997
-81.989998 -116.99 -583.60999
-81.580002 -117.17 -584.5
-81.169998 -117.34 -585.37
-17.700001 -127.86 -637.06
-16.969999 -126.76 -631.69
-16.360001 -126.54 -630.58002
-15.78 -126.5 -630.41998
-15.2 -126.44 -630.09998
-14.61 -126.36 -629.71002
-14.02 -126.27 -629.28003
-13.44 -126.21 -628.98999
-12.79 -125.54 -625.65002
-12.14 -124.77 -621.90997
-11.57 -124.74 -621.76001
-11 -124.74 -621.76001
-10.43 -124.73 -621.67999
-9.8599997 -124.77 -621.88
-9.29 -124.83 -622.19
-8.7600002 -125.36 -624.77002
-8.2399998 -126.14 -628.63
-7.6599998 -126.18 -628.79999
-7.0900002 -126.24 -629.10999
16.379999 -129.28999 -644.09003
16.93 -128.91 -642.22998
17.469999 -128.55 -640.47998
18.01 -128.25999 -639.04999
18.57 -128.03 -637.90997
19.110001 -127.74 -636.51001
19.639999 -127.39 -634.76001
20.17 -127.07 -633.16998
20.719999 -126.9 -632.37
21.290001 -126.82 -631.96997
21.860001 -126.75 -631.62
22.43 -126.72 -631.48999
23.01 -126.69 -631.34003
23.59 -126.7 -631.34998
24.17 -126.7 -631.38
24.75 -126.72 -631.46002
25.34 -126.75 -631.64001
25.92 -126.8 -631.84998
26.5 -126.79 -631.79999
27.08 -126.77 -631.70001
27.67 -126.81 -631.90997
28.26 -126.87 -632.21002
28.85 -126.93 -632.46997
29.43 -126.94 -632.53003
30.01 -126.9 -632.33002
30.58 -126.87 -632.20001
31.15 -126.85 -632.09003
31.73 -126.83 -632
32.290001 -126.77 -631.71002
32.880001 -126.79 -631.79999
33.450001 -126.77 -631.71997
34.040001 -126.8 -631.85999
34.639999 -126.85 -632.10999
35.240002 -126.93 -632.48999
35.830002 -126.98 -632.76001
36.450001 -127.11 -633.39001
37.07 -127.24 -634.02002
37.700001 -127.42 -634.90997
38.419998 -127.86 -637.08002
39.029999 -127.97 -637.57001
39.650002 -128.07001 -638.09003
-157.88 -125.1 -620.88
-157.37 -125.14 -621.10999
-156.86 -125.19 -621.35999
-156.45 -125.32 -621.97998
-155.99001 -125.41 -622.40997
-155.49001 -125.46 -622.65002
-155.07001 -125.59 -623.25
-154.67 -125.72 -623.91998
-154.17999 -125.79 -624.26001
-153.74001 -125.91 -624.79999
-153.21001 -125.94 -624.94
-152.73 -126.01 -625.32001
-152.33 -126.16 -626.02002
-152.14999 -126.49 -627.63
-151.74001 -126.62 -628.28998
-151.27 -126.71 -628.72998
-150.85001 -126.84 -629.35999
-150.3 -126.87 -629.47998
-132.58 -116.38 -578.16998
-131.61 -116 -576.27002
-130.74001 -115.69 -574.76001
-129.78 -115.31 -572.90997
-129.06 -115.13 -572.03998
-128.42999 -115.03 -571.56
-127.78 -114.92 -571.02002
-127.16 -114.83 -570.57001
-126.46 -114.67 -569.78003
-125.85 -114.6 -569.41998
-125.23 -114.5 -568.94
-124.62 -114.42 -568.54999
-124.04 -114.37 -568.27002
-123.45 -114.31 -567.96997
-122.83 -114.21 -567.52002
-122.25 -114.16 -567.23999
-121.63 -114.06 -566.78003
-121.07 -114.03 -566.59003
-120.49 -113.97 -566.31
-119.95 -113.95 -566.21002
-119.39 -113.91 -566.02002
-118.8 -113.84 -565.66998
-118.22 -113.78 -565.37
-117.67 -113.75 -565.22998
-117.14 -113.74 -565.16998
-116.61 -113.72 -565.09998
-116.07 -113.7 -565
-115.54 -113.69 -564.92999
-115.02 -113.68 -564.90002
-114.47 -113.65 -564.75
-113.94 -113.64 -564.67999
-113.41 -113.63 -564.65002
-112.92 -113.65 -564.73999
-112.4 -113.66 -564.76001
-111.86 -113.64 -564.65002
-111.35 -113.64 -564.67999
-110.84 -113.65 -564.71002
-110.34 -113.66 -564.76001
-109.81 -113.65 -564.71002
-109.31 -113.67 -564.81
-108.8 -113.68 -564.84003
-108.29 -113.69 -564.90002
-107.81 -113.72 -565.07001
-107.3 -113.73 -565.10999
-106.81 -113.76 -565.25
-106.32 -113.79 -565.40997
-105.82 -113.81 -565.47998
-105.32 -113.83 -565.59998
-104.82 -113.85 -565.69
-104.33 -113.88 -565.82001
-103.85 -113.92 -566.02002
-103.34 -113.93 -566.07001
-102.87 -113.98 -566.34003
-102.37 -114.01 -566.46002
-101.88 -114.04 -566.59998
-101.39 -114.07 -566.76001
-100.92 -114.12 -567.01001
-100.44 -114.17 -567.25
-99.970001 -114.23 -567.53998
-99.470001 -114.25 -567.64001
-99 -114.31 -567.91998
-98.519997 -114.35 -568.12
-98.010002 -114.37 -568.22998
-97.519997 -114.41 -568.40002
-97.040001 -114.45 -568.59003
-96.540001 -114.48 -568.76001
-96.059998 -114.53 -569
-95.580002 -114.57 -569.20001
-95.099998 -114.63 -569.47998
-94.639999 -114.69 -569.79999
-94.150002 -114.74 -570.03003
-93.68 -114.8 -570.31
-93.209999 -114.87 -570.65997
-92.730003 -114.93 -570.92999
-92.260002 -114.98 -571.21002
-91.790001 -115.06 -571.57001
-91.339996 -115.15 -572.02002
-90.860001 -115.21 -572.29999
-90.400002 -115.29 -572.70001
-89.940002 -115.36 -573.07001
-89.489998 -115.47 -573.58002
-89.029999 -115.55 -573.97998
-88.57 -115.63 -574.39001
-88.110001 -115.72 -574.81
-87.690002 -115.86 -575.48999
-87.239998 -115.97 -576.03998
-86.800003 -116.08 -576.54999
-86.349998 -116.18 -577.08002
-85.919998 -116.32 -577.75
-85.480003 -116.45 -578.38
-85.040001 -116.57 -578.95001
-84.589996 -116.68 -579.51001
-84.169998 -116.84 -580.26001
-83.730003 -116.96 -580.89001
-83.309998 -117.12 -581.64001
-82.879997 -117.26 -582.34998
-82.43 -117.38 -582.92999
-82 -117.53 -583.65002
-81.57 -117.69 -584.45001
-81.169998 -117.88 -585.35999
-16.459999 -127.83 -634.06
-15.81 -127.33 -631.63
-15.21 -127.16 -630.81
-14.62 -127.07 -630.34998
-14.03 -126.92 -629.63
-13.44 -126.78 -628.95001
-12.14 -125.3 -621.71002
-11.57 -125.27 -621.53003
-10.99 -125.25 -621.44
-10.42 -125.24 -621.40997
-9.8599997 -125.31 -621.73999
-9.29 -125.35 -621.91998
-8.7700005 -126.06 -625.40997
-8.2299995 -126.64 -628.23999
-7.6599998 -126.68 -628.41998
-7.0900002 -126.76 -628.84003
16.940001 -129.61 -642.78998
17.469999 -129.19 -640.70001
18.030001 -128.94 -639.48999
18.57 -128.63 -637.98999
19.120001 -128.42 -636.96002
19.66 -128.08 -635.31
20.18 -127.74 -633.62
20.73 -127.51 -632.48999
21.290001 -127.41 -632
21.860001 -127.36 -631.73999
22.43 -127.29 -631.40002
23 -127.26 -631.28998
23.58 -127.27 -631.32001
24.16 -127.25 -631.21997
24.74 -127.25 -631.21997
25.33 -127.28 -631.38
25.91 -127.29 -631.44
26.48 -127.29 -631.40002
27.059999 -127.27 -631.31
27.66 -127.38 -631.84003
28.26 -127.46 -632.27002
28.85 -127.51 -632.48999
29.43 -127.48 -632.33002
29.99 -127.42 -632.06
30.57 -127.4 -631.96002
31.15 -127.4 -631.96997
31.73 -127.42 -632.03998
32.299999 -127.36 -631.72998
32.869999 -127.33 -631.59998
33.450001 -127.34 -631.65997
34.040001 -127.38 -631.87
34.639999 -127.45 -632.19
35.23 -127.5 -632.42999
35.84 -127.58 -632.84998
36.450001 -127.71 -633.46997
37.080002 -127.85 -634.15002
37.700001 -127.99 -634.84003
38.400002 -128.39999 -636.82001
39.029999 -128.53999 -637.51001
39.650002 -128.64 -638.01001
-157.36 -125.71 -621.09003
-156.89 -125.79 -621.46002
-156.44 -125.88 -621.91998
-155.94 -125.94 -622.17999
-155.49001 -126.04 -622.69
-155.10001 -126.19 -623.40002
-154.60001 -126.24 -623.65002
-154.11 -126.31 -623.98999
-153.75999 -126.49 -624.88
-153.33 -126.61 -625.44
-152.81 -126.65 -625.64001
-152.36 -126.76 -626.15997
-151.96001 -126.9 -626.84998
-151.64 -127.12 -627.89001
-151.10001 -127.15 -628.03998
-150.63 -127.24 -628.48999
-150.14999 -127.32 -628.88
-131.82001 -116.71 -577.19
-130.85001 -116.32 -575.26001
-130.13 -116.15 -574.42999
-129.14999 -115.74 -572.44
-128.50999 -115.63 -571.91998
-127.85 -115.51 -571.33002
-127.26 -115.45 -571.01001
-126.59 -115.32 -570.38
-125.91 -115.17 -569.65997
-125.28 -115.07 -569.16998
-124.69 -115.01 -568.87
-124.09 -114.93 -568.5
-123.49 -114.86 -568.15997
-122.9 -114.8 -567.84998
-122.31 -114.73 -567.52002
-121.72 -114.66 -567.17999
-121.13 -114.6 -566.89001
-120.56 -114.55 -566.64001
-119.99 -114.51 -566.40997
-119.45 -114.48 -566.28003
-118.91 -114.46 -566.16998
-118.35 -114.42 -565.96997
-117.78 -114.37 -565.72998
-117.2 -114.31 -565.44
-116.66 -114.29 -565.33002
-116.12 -114.27 -565.25
-115.57 -114.24 -565.07001
-115.04 -114.23 -565.03998
-114.52 -114.22 -565.01001
-113.99 -114.21 -564.91998
-113.47 -114.21 -564.91998
-112.95 -114.21 -564.90997
-112.43 -114.2 -564.90997
-111.92 -114.21 -564.92999
-111.4 -114.21 -564.92999
-110.88 -114.21 -564.91998
-110.37 -114.21 -564.91998
-109.86 -114.22 -564.98999
-109.36 -114.24 -565.04999
-108.84 -114.23 -565.03003
-108.36 -114.28 -565.25
-107.85 -114.28 -565.25
-107.33 -114.28 -565.27002
-106.82 -114.29 -565.32001
-106.33 -114.32 -565.46002
-105.85 -114.36 -565.65997
-105.35 -114.38 -565.76001
-104.87 -114.42 -565.91998
-104.37 -114.44 -566.02002
-103.9 -114.49 -566.28998
-103.4 -114.52 -566.40002
-102.91 -114.54 -566.53998
-102.41 -114.57 -566.67999
-101.95 -114.64 -567
-101.47 -114.68 -567.21002
-100.99 -114.73 -567.41998
-100.49 -114.75 -567.53998
-100 -114.79 -567.71002
-99.5 -114.81 -567.83002
-99.010002 -114.84 -567.96002
-98.510002 -114.86 -568.09003
-98.029999 -114.91 -568.29999
-97.540001 -114.94 -568.47998
-97.059998 -115 -568.71997
-96.559998 -115.02 -568.83002
-96.080002 -115.07 -569.10999
-95.610001 -115.13 -569.38
-95.129997 -115.19 -569.65002
-94.639999 -115.22 -569.82001
-94.18 -115.29 -570.17999
-93.720001 -115.37 -570.54999
-93.230003 -115.42 -570.76001
-92.739998 -115.46 -570.96997
-92.279999 -115.54 -571.37
-91.82 -115.61 -571.71997
-91.339996 -115.67 -571.97998
-90.879997 -115.76 -572.41998
-90.419998 -115.83 -572.78003
-89.949997 -115.91 -573.16998
-89.5 -116 -573.62
-89.040001 -116.08 -574.01001
-88.589996 -116.19 -574.51001
-88.150002 -116.31 -575.09998
-87.720001 -116.42 -575.66998
-87.239998 -116.49 -575.98999
-86.809998 -116.63 -576.65997
-86.360001 -116.74 -577.19
-85.93 -116.87 -577.83002
-85.480003 -116.98 -578.34998
-85.040001 -117.1 -578.96997
-84.610001 -117.23 -579.60999
-84.169998 -117.37 -580.26001
-83.739998 -117.5 -580.90997
-83.309998 -117.66 -581.65997
-82.860001 -117.77 -582.23999
-82.43 -117.92 -582.92999
-81.989998 -118.05 -583.59003
-81.57 -118.21 -584.38
-81.150002 -118.39 -585.26001
-15.26 -128.16 -632.85999
-14.65 -127.91 -631.63
-14.06 -127.75 -630.85999
-12.13 -125.83 -621.48999
-11.56 -125.78 -621.26001
-10.99 -125.76 -621.16998
-10.42 -125.76 -621.16998
-9.8500004 -125.81 -621.40997
-9.29 -125.87 -621.70001
-8.7799997 -126.79 -626.15002
-8.2299995 -127.12 -627.78998
-7.6599998 -127.19 -628.09998
-7.0799999 -127.26 -628.47998
16.959999 -130.33 -643.38
17.49 -129.89 -641.25
18.030001 -129.53999 -639.56
18.57 -129.25 -638.15002
19.129999 -129.07001 -637.26001
19.67 -128.75 -635.69
20.190001 -128.39 -633.96002
20.73 -128.13 -632.66998
21.290001 -128 -632.07001
21.860001 -127.93 -631.70001
22.43 -127.87 -631.40002
23 -127.83 -631.21997
23.58 -127.81 -631.15002
24.16 -127.82 -631.20001
24.74 -127.81 -631.13
25.32 -127.82 -631.15997
25.9 -127.83 -631.21997
26.48 -127.83 -631.22998
27.07 -127.89 -631.51001
27.690001 -128.07001 -632.40002
28.280001 -128.11 -632.58002
28.84 -128.02 -632.15002
29.41 -127.98 -631.96997
29.99 -127.98 -631.94
30.559999 -127.94 -631.75
31.139999 -127.94 -631.76001
31.73 -127.97 -631.91998
32.299999 -127.96 -631.84998
32.869999 -127.93 -631.69
33.459999 -127.94 -631.73999
34.040001 -127.97 -631.90997
34.639999 -128.03 -632.20001
35.240002 -128.11 -632.56
35.849998 -128.19 -632.98999
36.459999 -128.32001 -633.59998
37.080002 -128.46001 -634.27002
37.709999 -128.62 -635.04999
38.389999 -128.92 -636.52002
39.02 -129.09 -637.37
-157.11 -126.08 -620.12
-156.67999 -126.18 -620.63
-156.24001 -126.29 -621.13
-155.91 -126.49 -622.09998
-155.42 -126.55 -622.38
-154.94 -126.63 -622.76001
-154.64999 -126.85 -623.84998
-154.14999 -126.91 -624.13
-153.67 -126.99 -624.52002
-153.17 -127.05 -624.78998
-152.67 -127.12 -625.10999
-152.17999 -127.18 -625.42999
-151.75 -127.3 -626
-132.28 -117.65 -579.15997
-131.02 -117 -576
-130.31 -116.83 -575.20001
-129.41 -116.5 -573.58002
-128.60001 -116.24 -572.32001
-127.94 -116.12 -571.72998
-127.31 -116.02 -571.23999
-126.66 -115.91 -570.71002
-126.01 -115.79 -570.14001
-125.37 -115.67 -569.57001
-124.78 -115.62 -569.28998
-124.16 -115.53 -568.84998
-123.54 -115.43 -568.38
-122.97 -115.38 -568.15002
-122.38 -115.32 -567.82001
-121.8 -115.26 -567.54999
-121.22 -115.2 -567.27002
-120.64 -115.15 -567
-120.06 -115.08 -566.70001
-119.49 -115.04 -566.48999
-118.96 -115.03 -566.42999
-118.41 -114.99 -566.25
-117.88 -114.99 -566.22998
-117.35 -114.98 -566.17999
-116.8 -114.95 -566.01001
-116.23 -114.9 -565.77002
-115.68 -114.87 -565.63
-115.14 -114.84 -565.51001
-114.6 -114.81 -565.37
-114.06 -114.79 -565.26001
-113.53 -114.78 -565.20001
-113.01 -114.78 -565.19
-112.5 -114.79 -565.21997
-111.96 -114.77 -565.15002
-111.45 -114.77 -565.14001
-110.94 -114.78 -565.20001
-110.43 -114.8 -565.26001
-109.9 -114.78 -565.15997
-109.39 -114.79 -565.21997
-108.89 -114.8 -565.28003
-108.39 -114.82 -565.38
-107.88 -114.84 -565.45001
-107.38 -114.86 -565.53998
-106.88 -114.87 -565.60999
-106.39 -114.9 -565.76001
-105.93 -114.97 -566.07001
-105.44 -114.99 -566.21002
-104.95 -115.03 -566.39001
-104.46 -115.06 -566.51001
-103.98 -115.1 -566.71002
-103.49 -115.13 -566.87
-103.01 -115.18 -567.10999
-102.5 -115.19 -567.13
-102 -115.21 -567.22998
-101.5 -115.24 -567.38
-101 -115.26 -567.47998
-100.5 -115.27 -567.56
-100 -115.31 -567.71002
-99.5 -115.33 -567.82001
-99.029999 -115.38 -568.07001
-98.529999 -115.41 -568.21997
-98.029999 -115.44 -568.34003
-97.559998 -115.49 -568.59998
-97.059998 -115.52 -568.72998
-96.57 -115.56 -568.90997
-96.110001 -115.62 -569.23999
-95.620003 -115.67 -569.46997
-95.139999 -115.72 -569.71002
-94.68 -115.79 -570.03998
-94.209999 -115.85 -570.34998
-93.720001 -115.89 -570.54999
-93.239998 -115.95 -570.79999
-92.75 -116 -571.03998
-92.290001 -116.06 -571.38
-91.809998 -116.13 -571.67999
-91.349998 -116.21 -572.06
-90.879997 -116.28 -572.40002
-90.43 -116.37 -572.87
-89.970001 -116.45 -573.23999
-89.519997 -116.56 -573.77002
-89.050003 -116.63 -574.10999
-88.610001 -116.74 -574.63
-88.150002 -116.83 -575.07001
-87.709999 -116.94 -575.59998
-87.25 -117.03 -576.06
-86.82 -117.17 -576.71002
-86.370003 -117.27 -577.22998
-85.940002 -117.41 -577.87
-85.489998 -117.51 -578.39001
-85.040001 -117.63 -578.94
-84.599998 -117.76 -579.58002
-84.169998 -117.9 -580.27002
-83.739998 -118.04 -580.96002
-83.300003 -118.17 -581.58002
-82.860001 -118.3 -582.20001
-82.440002 -118.47 -583.03003
-81.980003 -118.57 -583.52002
-81.559998 -118.74 -584.32001
-81.129997 -118.9 -585.12
-80.739998 -119.12 -586.16998
-14.87 -130.36 -640.69
-14.09 -128.59 -632.10999
-12.13 -126.37 -621.34998
-11.55 -126.29 -620.97998
-10.98 -126.27 -620.85999
-10.41 -126.28 -620.94
-9.8500004 -126.34 -621.21002
-9.29 -126.49 -621.94
-8.79 -127.43 -626.51001
-8.2200003 -127.65 -627.56
-7.6500001 -127.68 -627.71997
-7.0799999 -127.78 -628.17999
16.969999 -131.02 -643.85999
17.5 -130.59 -641.78998
18.040001 -130.24001 -640.10999
18.59 -129.92 -638.57001
19.139999 -129.67999 -637.38
19.68 -129.39999 -636.04999
20.219999 -129.11 -634.63
20.75 -128.78 -633.03003
21.299999 -128.62 -632.27002
21.870001 -128.53 -631.83002
22.43 -128.46001 -631.5
23 -128.41 -631.21997
23.58 -128.41 -631.22998
24.16 -128.39 -631.15002
24.73 -128.37 -631.03998
25.309999 -128.38 -631.09003
25.9 -128.39999 -631.17999
26.51 -128.55 -631.89001
27.110001 -128.67999 -632.54999
27.709999 -128.73 -632.78998
28.27 -128.67 -632.5
28.85 -128.64999 -632.39001
29.42 -128.62 -632.25
29.99 -128.56 -631.96002
30.57 -128.56 -631.95001
31.15 -128.57001 -632
31.73 -128.56 -631.96997
32.299999 -128.53999 -631.85999
32.880001 -128.52 -631.72998
33.470001 -128.55 -631.91998
34.049999 -128.57001 -631.98999
34.650002 -128.63 -632.31
35.25 -128.73 -632.78998
35.860001 -128.84 -633.29999
36.470001 -128.92999 -633.76001
37.09 -129.05 -634.34003
37.709999 -129.19 -634.98999
38.380001 -129.48 -636.40002
39.02 -129.67999 -637.39001
-155.17999 -126.93 -621.46002
-154.53 -127.33 -623.40002
-153.92 -127.29 -623.21997
-153.38 -127.32 -623.35999
-152.88 -127.39 -623.65997
-152.39 -127.46 -623.98999
-151.88 -127.5 -624.21997
-131.21001 -117.69 -576.79999
-130.41 -117.45 -575.65002
-129.74001 -117.32 -575.02002
-128.77 -116.92 -573.08002
-128.03999 -116.74 -572.19
-127.4 -116.62 -571.65002
-126.75 -116.51 -571.10999
-126.1 -116.39 -570.51001
-125.47 -116.29 -570.03003
-124.86 -116.21 -569.62
-124.22 -116.1 -569.10999
-123.62 -116.03 -568.75
-123.02 -115.95 -568.40002
-122.44 -115.89 -568.09003
-121.86 -115.84 -567.83002
-121.3 -115.8 -567.65002
-120.7 -115.73 -567.28998
-120.13 -115.67 -567.03998
-119.55 -115.62 -566.75
-119 -115.59 -566.60999
-118.44 -115.55 -566.42999
-117.9 -115.52 -566.29999
-117.36 -115.5 -566.19
-116.82 -115.49 -566.12
-116.29 -115.47 -566.03998
-115.75 -115.45 -565.92999
-115.24 -115.46 -565.96997
-114.71 -115.45 -565.94
-114.19 -115.45 -565.91998
-113.66 -115.43 -565.84998
-113.14 -115.43 -565.84003
-112.61 -115.42 -565.78003
-112.09 -115.42 -565.78003
-111.59 -115.44 -565.88
-111.06 -115.42 -565.78998
-110.53 -115.42 -565.77002
-110.02 -115.43 -565.81
-109.49 -115.41 -565.73999
-108.99 -115.43 -565.83002
-108.5 -115.46 -565.95001
-108 -115.47 -566.03003
-107.51 -115.51 -566.20001
-107 -115.52 -566.25
-106.5 -115.54 -566.35999
-106.01 -115.57 -566.47998
-105.53 -115.62 -566.71002
-105 -115.6 -566.65002
-104.5 -115.62 -566.72998
-104.01 -115.66 -566.90997
-103.5 -115.66 -566.94
-103 -115.69 -567.03998
-102.49 -115.7 -567.09003
-101.99 -115.72 -567.17999
-101.48 -115.74 -567.27002
-101 -115.77 -567.46002
-100.5 -115.8 -567.57001
-100.02 -115.84 -567.79999
-99.529999 -115.88 -567.96997
-99.029999 -115.91 -568.10999
-98.550003 -115.96 -568.34003
-98.059998 -115.99 -568.51001
-97.580002 -116.03 -568.70001
-97.089996 -116.07 -568.87
-96.599998 -116.11 -569.09998
-96.120003 -116.17 -569.34003
-95.639999 -116.21 -569.56
-95.169998 -116.28 -569.87
-94.699997 -116.34 -570.20001
-94.220001 -116.39 -570.41998
-93.720001 -116.42 -570.58002
-93.260002 -116.49 -570.91998
-92.779999 -116.55 -571.17999
-92.309998 -116.62 -571.53998
-91.830002 -116.67 -571.76001
-91.370003 -116.75 -572.16998
-90.900002 -116.82 -572.51001
-90.43 -116.9 -572.88
-90 -117.01 -573.42999
-89.540001 -117.1 -573.85999
-89.07 -117.17 -574.19
-88.610001 -117.27 -574.66998
-88.160004 -117.37 -575.14001
-87.699997 -117.46 -575.57001
-87.25 -117.56 -576.06
-86.82 -117.7 -576.71002
-86.379997 -117.82 -577.31
-85.940002 -117.94 -577.89001
-85.489998 -118.05 -578.41998
-85.050003 -118.17 -579
-84.620003 -118.32 -579.71997
-84.190002 -118.45 -580.37
-83.739998 -118.57 -580.91998
-83.32 -118.73 -581.67999
-82.860001 -118.84 -582.21997
-82.43 -118.98 -582.92999
-81.959999 -119.09 -583.41998
-81.550003 -119.26 -584.26001
-81.129997 -119.44 -585.12
-80.68 -119.56 -585.70001
-12.7 -126.97 -621.47998
-12.13 -126.87 -621.03003
-11.55 -126.81 -620.71002
-10.98 -126.79 -620.63
-10.41 -126.82 -620.78998
-9.8500004 -126.87 -620.98999
-9.3100004 -127.27 -622.92999
-8.79 -128.10001 -626.92999
-8.2200003 -128.16 -627.21002
-7.6500001 -128.19 -627.35999
-7.0799999 -128.25999 -627.72998
17.52 -131.27 -642.25
18.049999 -130.87 -640.32001
18.59 -130.56 -638.82001
19.139999 -130.27 -637.42999
19.690001 -130.03 -636.26001
20.23 -129.75999 -634.96002
20.76 -129.45 -633.44
21.309999 -129.25999 -632.53998
21.860001 -129.11 -631.82001
22.440001 -129.06 -631.58002
23.01 -129.00999 -631.32001
23.58 -128.98 -631.16998
24.15 -128.95 -631.02002
24.73 -128.94 -630.96997
25.309999 -128.96001 -631.09003
25.91 -129.03 -631.40997
26.52 -129.19 -632.21002
27.120001 -129.27 -632.59998
27.700001 -129.28 -632.60999
28.280001 -129.28999 -632.69
28.860001 -129.27 -632.57001
29.42 -129.21001 -632.27002
30 -129.21001 -632.27002
30.59 -129.22 -632.32001
31.17 -129.23 -632.39001
31.74 -129.21001 -632.28998
32.32 -129.17999 -632.13
32.889999 -129.14 -631.95001
33.470001 -129.14999 -631.97998
34.060001 -129.17999 -632.14001
34.66 -129.28 -632.63
35.259998 -129.35001 -632.96002
35.869999 -129.42999 -633.37
36.470001 -129.50999 -633.71997
37.09 -129.66 -634.45001
37.73 -129.83 -635.26001
38.380001 -130.06 -636.39001
39.02 -130.27 -637.38
-131.67 -118.63 -578.79999
-130.53 -118.09 -576.15997
-129.81 -117.91 -575.33002
-129.10001 -117.74 -574.51001
-128.17 -117.37 -572.71997
-127.53 -117.26 -572.21002
-126.85 -117.13 -571.53998
-126.23 -117.03 -571.09998
-125.57 -116.91 -570.48999
-124.95 -116.82 -570.06
-124.33 -116.72 -569.59998
-123.7 -116.63 -569.13
-123.08 -116.53 -568.66998
-122.5 -116.48 -568.40002
-121.93 -116.42 -568.15002
-121.36 -116.38 -567.92999
-120.76 -116.31 -567.58002
-120.21 -116.27 -567.39001
-119.62 -116.21 -567.10999
-119.06 -116.17 -566.91998
-118.53 -116.15 -566.82001
-117.97 -116.11 -566.65002
-117.41 -116.08 -566.46997
-116.87 -116.05 -566.34998
-116.32 -116.02 -566.21002
-115.8 -116.01 -566.15997
-115.26 -116 -566.07001
-114.75 -116.01 -566.12
-114.2 -115.98 -565.96997
-113.7 -115.99 -566.03003
-113.17 -115.98 -566
-112.66 -115.99 -566.01001
-112.13 -115.98 -565.96002
-111.63 -116 -566.09003
-111.12 -116.01 -566.09998
-110.61 -116.01 -566.14001
-110.1 -116.03 -566.21997
-109.58 -116.03 -566.20001
-109.08 -116.05 -566.28998
-108.58 -116.06 -566.34998
-108.07 -116.07 -566.39001
-107.54 -116.07 -566.38
-107.05 -116.09 -566.51001
-106.54 -116.1 -566.53998
-106.03 -116.11 -566.59003
-105.52 -116.12 -566.65002
-105.01 -116.13 -566.71002
-104.51 -116.15 -566.78998
-104.01 -116.17 -566.87
-103.5 -116.19 -566.95001
-103.01 -116.21 -567.08002
-102.51 -116.24 -567.21002
-101.99 -116.24 -567.20001
-101.51 -116.29 -567.45001
-101.02 -116.31 -567.56
-100.53 -116.36 -567.77002
-100.04 -116.39 -567.91998
-99.559998 -116.43 -568.12
-99.07 -116.47 -568.29999
-98.559998 -116.49 -568.38
-98.080002 -116.54 -568.62
-97.589996 -116.57 -568.78003
-97.120003 -116.64 -569.09998
