# .PCD v0.7 - Point Cloud Data file format
VERSION 0.7
FIELDS x y z
SIZE 4 4 4
TYPE F F F
COUNT 1 1 1
WIDTH 1654
HEIGHT 1
VIEWPOINT 0 0 0 1 0 0 0
POINTS 1654
DATA ascii
-115.87 -48.299999 -676.90997
-115.29 -48.32 -677.10999
-114.68 -48.330002 -677.22998
-114.06 -48.330002 -677.22998
-113.44 -48.330002 -677.23999
-112.82 -48.330002 -677.26001
-112.19 -48.32 -677.16998
-111.56 -48.32 -677.13
-110.99 -48.34 -677.48999
-108.65 -47.59 -667.09003
-107.64 -47.41 -664.62
-106.83 -47.330002 -663.45001
-106.09 -47.27 -662.63
-105.39 -47.23 -662.03998
-104.75 -47.209999 -661.85999
-104.11 -47.200001 -661.64001
-103.49 -47.189999 -661.56
-102.88 -47.189999 -661.56
-102.27 -47.189999 -661.53998
-101.67 -47.189999 -661.59998
-101.1 -47.209999 -661.85999
-100.48 -47.200001 -661.77002
-99.900002 -47.220001 -661.92999
-99.309998 -47.23 -662.09998
-98.720001 -47.23 -662.17999
-98.089996 -47.220001 -662.04999
-97.510002 -47.240002 -662.21997
-96.900002 -47.240002 -662.26001
-96.309998 -47.25 -662.37
-95.709999 -47.25 -662.45001
-95.129997 -47.259998 -662.62
-94.529999 -47.27 -662.65002
-93.919998 -47.27 -662.65997
-93.32 -47.27 -662.72998
-92.709999 -47.27 -662.72998
-92.099998 -47.27 -662.73999
-91.449997 -47.25 -662.42999
-90.800003 -47.23 -662.10999
-90.120003 -47.189999 -661.59003
-89.470001 -47.169998 -661.29999
-88.839996 -47.16 -661.15002
-88.230003 -47.16 -661.14001
-87.599998 -47.139999 -660.91998
-87.010002 -47.150002 -661.04999
-86.400002 -47.150002 -661.04999
-85.809998 -47.16 -661.16998
-61.849998 -42.380001 -595.21002
-61.23 -42.330002 -594.5
-60.630001 -42.299999 -594.03998
-60.009998 -42.240002 -593.25
-59.400002 -42.200001 -592.63
-58.799999 -42.16 -592.07001
-58.220001 -42.130001 -591.71997
-57.639999 -42.099998 -591.32001
-57.060001 -42.07 -590.92999
-56.490002 -42.049999 -590.59998
-55.919998 -42.029999 -590.37
-55.369999 -42.029999 -590.29999
-54.84 -42.029999 -590.34998
-54.310001 -42.040001 -590.48999
-53.790001 -42.060001 -590.75
-53.279999 -42.080002 -591.09998
-52.790001 -42.119999 -591.65997
-52.32 -42.18 -592.46002
-57.07 -46.490002 -652.06
-56.470001 -46.490002 -652.04999
-55.880001 -46.5 -652.21997
-55.299999 -46.509998 -652.40997
-54.709999 -46.529999 -652.56
-54.150002 -46.549999 -652.91998
-53.57 -46.57 -653.23999
-53.009998 -46.610001 -653.73999
-52.450001 -46.650002 -654.23999
-31.42 -42.560001 -597.75
-30.84 -42.509998 -597.03003
-30.26 -42.470001 -596.53003
-29.690001 -42.43 -596.02002
-29.129999 -42.419998 -595.77002
-28.57 -42.389999 -595.46002
-28.02 -42.389999 -595.41998
-27.469999 -42.380001 -595.22998
-26.92 -42.369999 -595.20001
-26.379999 -42.380001 -595.29999
-25.84 -42.389999 -595.46997
-25.309999 -42.41 -595.66998
-24.77 -42.43 -595.90002
-24.24 -42.450001 -596.21997
-23.690001 -42.439999 -596.10999
-23.120001 -42.41 -595.71997
-22.559999 -42.389999 -595.39001
-22.02 -42.380001 -595.31
-21.459999 -42.360001 -595.02002
-20.9 -42.34 -594.72998
-20.360001 -42.34 -594.71002
-19.809999 -42.34 -594.66998
-19.27 -42.34 -594.67999
-18.719999 -42.34 -594.66998
-18.18 -42.34 -594.78998
-17.639999 -42.349998 -594.84003
-17.1 -42.360001 -594.98999
-16.559999 -42.369999 -595.13
-16.02 -42.389999 -595.35999
-15.48 -42.400002 -595.56
-14.94 -42.419998 -595.87
-14.4 -42.450001 -596.21997
-13.86 -42.48 -596.60999
-13.33 -42.509998 -597.03998
-12.79 -42.540001 -597.56
-12.25 -42.57 -597.95001
-11.71 -42.599998 -598.31
-11.17 -42.630001 -598.71997
-10.63 -42.66 -599.09998
-10.09 -42.700001 -599.67999
-9.5500002 -42.740002 -600.34003
-9.0100002 -42.82 -601.37
-8.4799995 -42.91 -602.60999
-7.9499998 -43.02 -604.09003
-1.49 -49.060001 -687.78003
-0.85000002 -49.07 -687.90997
-0.22 -49.07 -687.90002
0.41 -49.080002 -687.98999
1.04 -49.09 -688.12
1.67 -49.099998 -688.29999
2.3099999 -49.119999 -688.54999
2.9400001 -49.139999 -688.84998
3.5699999 -49.16 -689.15002
4.21 -49.150002 -689.01001
4.8299999 -49.02 -687.21997
5.4200001 -48.689999 -682.64001
6.0300002 -48.540001 -680.57001
6.6399999 -48.459999 -679.45001
7.25 -48.360001 -678.09998
7.8699999 -48.32 -677.42999
8.4799995 -48.25 -676.5
9.0900002 -48.189999 -675.69
9.6899996 -48.110001 -674.59998
10.3 -48.080002 -674.13
10.91 -48.02 -673.32001
11.52 -47.990002 -672.85999
12.13 -47.950001 -672.34003
12.73 -47.91 -671.87
13.34 -47.880001 -671.35999
13.95 -47.860001 -671.12
14.56 -47.82 -670.56
15.17 -47.810001 -670.35999
15.78 -47.790001 -670.15002
16.389999 -47.77 -669.89001
16.99 -47.75 -669.56
17.610001 -47.740002 -669.5
18.209999 -47.720001 -669.22998
18.82 -47.709999 -669.02002
19.43 -47.700001 -668.90002
20.040001 -47.689999 -668.76001
20.66 -47.689999 -668.79999
21.27 -47.68 -668.65997
21.879999 -47.669998 -668.5
22.5 -47.689999 -668.71002
23.110001 -47.689999 -668.78003
23.74 -47.709999 -669.06
24.35 -47.700001 -668.91998
24.969999 -47.720001 -669.20001
25.6 -47.740002 -669.5
26.209999 -47.75 -669.53998
26.83 -47.759998 -669.67999
27.459999 -47.779999 -670
28.09 -47.799999 -670.21997
28.719999 -47.830002 -670.64001
29.35 -47.849998 -670.98999
29.99 -47.900002 -671.60999
30.639999 -47.950001 -672.28998
31.280001 -47.98 -672.78003
31.93 -48.029999 -673.40997
32.580002 -48.07 -674.04999
33.23 -48.119999 -674.73999
33.880001 -48.16 -675.27002
34.52 -48.189999 -675.63
35.16 -48.209999 -675.96997
35.799999 -48.25 -676.46997
36.450001 -48.290001 -676.98999
37.09 -48.310001 -677.29999
37.720001 -48.32 -677.46002
38.360001 -48.34 -677.71997
39 -48.360001 -678.01001
39.630001 -48.369999 -678.13
40.27 -48.389999 -678.45001
40.91 -48.41 -678.72998
41.540001 -48.419998 -678.76001
42.169998 -48.419998 -678.83002
42.790001 -48.419998 -678.85999
43.43 -48.439999 -679.07001
44.060001 -48.450001 -679.20001
44.689999 -48.459999 -679.32001
45.34 -48.48 -679.59998
45.98 -48.490002 -679.84003
46.619999 -48.509998 -680.09998
47.25 -48.52 -680.22998
47.900002 -48.549999 -680.54999
48.529999 -48.549999 -680.59003
49.18 -48.57 -680.90997
49.82 -48.59 -681.15997
50.459999 -48.610001 -681.34998
51.099998 -48.619999 -681.56
51.740002 -48.630001 -681.76001
52.389999 -48.650002 -682.02002
53.02 -48.66 -682.09003
53.669998 -48.68 -682.39001
54.32 -48.700001 -682.67999
55.009998 -48.759998 -683.42999
55.740002 -48.84 -684.64001
56.48 -48.950001 -686.03998
57.200001 -49.02 -687.01001
89.910004 -49.310001 -690.96997
90.269997 -49.16 -688.85999
90.660004 -49.029999 -687.04999
91.050003 -48.900002 -685.28003
91.510002 -48.810001 -683.97998
91.900002 -48.68 -682.26001
92.25 -48.529999 -680.21997
92.68 -48.43 -678.81
93.059998 -48.310001 -677.07001
93.550003 -48.240002 -676.09003
93.980003 -48.139999 -674.75
94.489998 -48.09 -673.98999
95.010002 -48.040001 -673.34003
95.529999 -47.990002 -672.64001
96.080002 -47.950001 -672.13
96.669998 -47.939999 -671.96997
97.25 -47.919998 -671.72998
97.860001 -47.919998 -671.63
98.459999 -47.91 -671.57001
99.110001 -47.919998 -671.73999
99.779999 -47.950001 -672.07001
100.49 -47.990002 -672.71002
101.22 -48.049999 -673.42999
-161.44 -47.330002 -655.09003
-160.74001 -47.310001 -654.71997
-160.00999 -47.27 -654.20001
-159.38 -47.259998 -654.07001
-158.78 -47.259998 -654.07001
-158.16 -47.25 -654
-157.58 -47.259998 -654.08002
-156.97 -47.259998 -654.03998
-156.37 -47.259998 -654.06
-155.8 -47.27 -654.16998
-155.24001 -47.279999 -654.34003
-154.67999 -47.290001 -654.5
-154.11 -47.299999 -654.65997
-153.50999 -47.299999 -654.65997
-152.89999 -47.299999 -654.59998
-152.28999 -47.299999 -654.58002
-151.71001 -47.299999 -654.65997
-151.11 -47.299999 -654.65002
-150.52 -47.310001 -654.72998
-149.92 -47.310001 -654.71997
-149.25 -47.290001 -654.44
-134.89999 -45.880001 -635.22998
-134.08 -45.799999 -634.14001
-133.44 -45.779999 -633.87
-132.85001 -45.779999 -633.84998
-132.3 -45.790001 -634
-131.81 -45.82 -634.41998
-136.84 -47.990002 -664.08002
-136.38 -48.040001 -664.79999
-135.95 -48.110001 -665.65997
-135.49001 -48.16 -666.39001
-135.08 -48.23 -667.40002
-134.66 -48.299999 -668.34998
-134.23 -48.369999 -669.23999
-133.75999 -48.419998 -669.98999
-133.33 -48.490002 -670.88
-132.8 -48.52 -671.31
-132.28 -48.560001 -671.83002
-131.7 -48.57 -672.01001
-131.08 -48.57 -671.96997
-130.39 -48.540001 -671.64001
-129.71001 -48.52 -671.29999
-129.03 -48.490002 -670.97998
-121.55 -48.959999 -677.31
-120.79 -48.900002 -676.56
-120.14 -48.889999 -676.40002
-119.53 -48.889999 -676.45001
-118.93 -48.900002 -676.62
-118.37 -48.93 -676.91998
-117.74 -48.919998 -676.88
-117.13 -48.93 -676.95001
-116.51 -48.93 -677
-115.9 -48.939999 -677.07001
-115.29 -48.939999 -677.14001
-114.69 -48.950001 -677.25
-114.09 -48.959999 -677.38
-113.46 -48.950001 -677.33002
-112.83 -48.950001 -677.28998
-112.21 -48.950001 -677.31
-111.6 -48.959999 -677.35999
-111 -48.970001 -677.52002
-108.92 -48.32 -668.71997
-107.73 -48.060001 -665.19
-106.93 -47.98 -664.02002
-106.16 -47.91 -663.03998
-105.45 -47.860001 -662.40997
-104.76 -47.830002 -661.92999
-104.13 -47.810001 -661.77002
-103.52 -47.810001 -661.75
-102.89 -47.799999 -661.65997
-102.32 -47.82 -661.85999
-101.71 -47.82 -661.89001
-101.1 -47.82 -661.83002
-100.5 -47.82 -661.90002
-99.93 -47.84 -662.13
-99.330002 -47.84 -662.20001
-98.720001 -47.84 -662.20001
-98.139999 -47.860001 -662.38
-97.529999 -47.860001 -662.39001
-96.93 -47.860001 -662.45001
-96.330002 -47.869999 -662.52002
-95.739998 -47.869999 -662.60999
-95.150002 -47.880001 -662.73999
-94.57 -47.889999 -662.91998
-93.949997 -47.889999 -662.88
-93.360001 -47.900002 -663.01001
-92.769997 -47.91 -663.14001
-92.150002 -47.91 -663.09998
-91.5 -47.880001 -662.76001
-90.839996 -47.860001 -662.42999
-90.18 -47.830002 -662.04999
-89.540001 -47.810001 -661.78998
-88.889999 -47.790001 -661.5
-88.269997 -47.779999 -661.38
-87.639999 -47.77 -661.23999
-87.040001 -47.77 -661.28998
-86.419998 -47.77 -661.22998
-85.809998 -47.759998 -661.16998
-62.380001 -42.919998 -595.06
-61.759998 -42.869999 -594.39001
-61.139999 -42.810001 -593.64001
-60.549999 -42.779999 -593.21002
-59.939999 -42.73 -592.54999
-59.349998 -42.709999 -592.17999
-58.759998 -42.669998 -591.67999
-58.200001 -42.650002 -591.45001
-57.619999 -42.630001 -591.10999
-57.049999 -42.610001 -590.88
-56.490002 -42.59 -590.59003
-55.93 -42.580002 -590.46997
-55.389999 -42.580002 -590.41998
-54.849998 -42.580002 -590.5
-54.34 -42.599998 -590.76001
-53.82 -42.619999 -591
-53.310001 -42.650002 -591.40997
-52.82 -42.689999 -591.94
-53.07 -43.34 -600.85999
-57.07 -47.09 -652.08002
-56.470001 -47.09 -652.09003
-55.869999 -47.09 -652.09003
-55.299999 -47.110001 -652.37
-54.720001 -47.130001 -652.69
-54.150002 -47.150002 -652.94
-53.57 -47.169998 -653.17999
-53.009998 -47.200001 -653.64001
-52.450001 -47.240002 -654.16998
-31.42 -43.099998 -597.65002
-30.83 -43.049999 -596.96002
-30.26 -43.02 -596.5
-29.690001 -42.98 -596
-29.129999 -42.959999 -595.66998
-28.57 -42.939999 -595.48999
-28.02 -42.93 -595.34998
-27.469999 -42.919998 -595.26001
-26.92 -42.919998 -595.17999
-26.379999 -42.93 -595.28998
-25.84 -42.93 -595.38
-25.309999 -42.959999 -595.76001
-24.790001 -43.009998 -596.37
-24.24 -43.009998 -596.38
-23.690001 -42.990002 -596.13
-23.110001 -42.939999 -595.46002
-22.559999 -42.93 -595.29999
-22.01 -42.91 -595.09003
-21.459999 -42.900002 -594.89001
-20.9 -42.880001 -594.67999
-20.360001 -42.880001 -594.63
-19.809999 -42.869999 -594.59003
-19.27 -42.880001 -594.66998
-18.719999 -42.880001 -594.64001
-18.18 -42.880001 -594.65997
-17.639999 -42.889999 -594.77002
-17.1 -42.900002 -594.94
-16.559999 -42.919998 -595.14001
-16.02 -42.93 -595.33002
-15.48 -42.950001 -595.66998
-14.94 -42.970001 -595.89001
-14.4 -43 -596.23999
-13.86 -43.02 -596.63
-13.33 -43.060001 -597.16998
-12.79 -43.09 -597.53998
-12.25 -43.119999 -597.95001
-11.71 -43.139999 -598.20001
-11.17 -43.169998 -598.59998
-10.63 -43.200001 -599.01001
-10.09 -43.240002 -599.53998
-9.5500002 -43.279999 -600.19
-9.0100002 -43.360001 -601.26001
-8.4799995 -43.439999 -602.28003
-7.9499998 -43.549999 -603.89001
-1.49 -49.689999 -687.71997
-0.85000002 -49.709999 -687.90997
-0.22 -49.709999 -687.98999
0.41 -49.720001 -688.14001
1.04 -49.720001 -688.09998
1.67 -49.73 -688.31
2.3099999 -49.759998 -688.64001
2.9400001 -49.790001 -689.03003
3.5699999 -49.799999 -689.26001
4.21 -49.830002 -689.56
4.8400002 -49.84 -689.81
5.4699998 -49.77 -688.75
6.0500002 -49.310001 -682.46002
6.6599998 -49.209999 -681.12
7.27 -49.110001 -679.72998
7.8800001 -49.040001 -678.78998
8.4899998 -48.950001 -677.56
9.1000004 -48.900002 -676.87
9.71 -48.84 -676.03003
10.32 -48.779999 -675.28003
10.93 -48.73 -674.62
11.54 -48.689999 -674.01001
12.15 -48.650002 -673.42999
12.75 -48.599998 -672.84003
13.36 -48.57 -672.46002
13.97 -48.549999 -672.06
14.58 -48.5 -671.5
15.19 -48.490002 -671.34003
15.8 -48.459999 -670.90997
16.41 -48.459999 -670.84003
17.02 -48.43 -670.46002
17.629999 -48.41 -670.27002
18.24 -48.400002 -670.09998
18.85 -48.400002 -670.02002
19.459999 -48.389999 -669.90997
20.07 -48.369999 -669.66998
20.68 -48.369999 -669.65997
21.299999 -48.369999 -669.64001
21.91 -48.369999 -669.62
22.530001 -48.369999 -669.67999
23.15 -48.380001 -669.71997
23.77 -48.389999 -669.97998
24.389999 -48.41 -670.13
25.01 -48.419998 -670.27002
25.629999 -48.419998 -670.32001
26.25 -48.43 -670.44
26.879999 -48.459999 -670.84998
27.51 -48.470001 -671.07001
28.139999 -48.509998 -671.54999
28.780001 -48.540001 -671.97998
29.41 -48.57 -672.39001
30.059999 -48.619999 -672.98999
30.709999 -48.66 -673.65002
31.35 -48.700001 -674.15997
31.99 -48.73 -674.59998
32.639999 -48.779999 -675.26001
33.279999 -48.82 -675.71997
33.93 -48.849998 -676.19
34.580002 -48.889999 -676.72998
35.220001 -48.919998 -677.15002
35.849998 -48.939999 -677.38
36.490002 -48.950001 -677.57001
37.119999 -48.970001 -677.84998
37.75 -48.98 -677.89001
38.389999 -49 -678.19
39.029999 -49.02 -678.5
39.669998 -49.040001 -678.71997
40.310001 -49.060001 -679.03003
40.939999 -49.07 -679.21002
41.57 -49.080002 -679.28003
42.200001 -49.080002 -679.31
42.830002 -49.09 -679.40002
43.450001 -49.09 -679.44
44.080002 -49.09 -679.46997
44.720001 -49.110001 -679.75
45.380001 -49.150002 -680.22998
46.029999 -49.169998 -680.59003
46.669998 -49.189999 -680.83002
47.310001 -49.209999 -681.12
47.950001 -49.220001 -681.21002
48.599998 -49.240002 -681.52002
49.240002 -49.259998 -681.77002
49.880001 -49.279999 -682
50.509998 -49.279999 -682.01001
51.150002 -49.290001 -682.14001
51.779999 -49.299999 -682.28003
52.43 -49.310001 -682.48999
53.060001 -49.32 -682.59003
53.73 -49.360001 -683.07001
54.43 -49.419998 -683.96997
55.16 -49.52 -685.29999
55.880001 -49.599998 -686.39001
56.610001 -49.689999 -687.53998
90.529999 -49.93 -690.79999
90.849998 -49.759998 -688.46002
91.300003 -49.66 -687.07001
91.730003 -49.549999 -685.59998
92.120003 -49.43 -683.84998
92.540001 -49.32 -682.37
93.010002 -49.23 -681.23999
93.32 -49.07 -678.94
93.769997 -48.970001 -677.66998
94.260002 -48.91 -676.76001
94.730003 -48.830002 -675.66998
95.209999 -48.759998 -674.72998
95.75 -48.709999 -674.12
96.32 -48.689999 -673.77002
96.849998 -48.650002 -673.16998
97.43 -48.630001 -672.94
98 -48.610001 -672.62
98.639999 -48.619999 -672.77002
99.330002 -48.650002 -673.21002
100.03 -48.689999 -673.77002
100.77 -48.75 -674.53003
-161.33 -47.900002 -654.67999
-160.64999 -47.880001 -654.34003
-159.96001 -47.849998 -653.98999
-159.34 -47.849998 -653.92999
-158.73 -47.84 -653.87
-158.13 -47.849998 -653.89001
-157.53 -47.84 -653.87
-156.92 -47.84 -653.83002
-156.35001 -47.849998 -653.95001
-155.77 -47.860001 -654.03998
-155.21001 -47.869999 -654.22998
-154.64999 -47.880001 -654.38
-154.05 -47.880001 -654.38
-153.47 -47.889999 -654.46997
-152.85001 -47.880001 -654.39001
-152.25 -47.880001 -654.40002
-151.64999 -47.880001 -654.40002
-151.06 -47.889999 -654.44
-150.46001 -47.889999 -654.46997
-149.84 -47.880001 -654.39001
-149.14999 -47.849998 -654.01001
-134.75 -46.41 -634.53003
-134.05 -46.369999 -633.97998
-133.42999 -46.360001 -633.84003
-132.84 -46.360001 -633.81
-132.31 -46.369999 -634.03998
-131.83 -46.41 -634.53998
-132.91 -46.990002 -642.42999
-136.78999 -48.580002 -663.84003
-136.3 -48.619999 -664.40997
-135.91 -48.700001 -665.48999
-135.45 -48.759998 -666.22998
-135.07001 -48.84 -667.34003
-134.61 -48.900002 -668.12
-134.19 -48.970001 -669.04999
-133.71001 -49.02 -669.71002
-133.25999 -49.080002 -670.56
-132.77 -49.130001 -671.16998
-132.25 -49.16 -671.65002
-131.64 -49.16 -671.69
-130.99001 -49.150002 -671.53003
-130.3 -49.119999 -671.15002
-129.56 -49.080002 -670.56
-121.44 -49.529999 -676.71002
-120.77 -49.509998 -676.42999
-120.15 -49.509998 -676.46997
-119.55 -49.52 -676.59003
-118.96 -49.529999 -676.73999
-118.33 -49.529999 -676.70001
-117.74 -49.549999 -676.90997
-117.14 -49.560001 -677.02002
-116.55 -49.57 -677.22998
-115.93 -49.57 -677.21997
-115.33 -49.580002 -677.37
-114.71 -49.580002 -677.35999
-114.09 -49.580002 -677.38
-113.47 -49.580002 -677.40997
-112.88 -49.599998 -677.60999
-112.24 -49.59 -677.48999
-111.61 -49.59 -677.46002
-111.04 -49.610001 -677.78003
-109.74 -49.310001 -673.69
-107.81 -48.709999 -665.66998
-106.99 -48.619999 -664.39001
-106.21 -48.540001 -663.38
-105.48 -48.48 -662.60999
-104.81 -48.459999 -662.22998
-104.16 -48.43 -661.95001
-103.54 -48.43 -661.89001
-102.94 -48.43 -661.92999
-102.34 -48.439999 -662
-101.75 -48.439999 -662.09998
-101.15 -48.450001 -662.19
-100.54 -48.450001 -662.17999
-99.940002 -48.459999 -662.25
-99.349998 -48.459999 -662.35999
-98.75 -48.470001 -662.40002
-98.160004 -48.470001 -662.5
-97.559998 -48.48 -662.56
-96.970001 -48.490002 -662.69
-96.360001 -48.490002 -662.71997
-95.769997 -48.5 -662.84003
-95.169998 -48.5 -662.90997
-94.589996 -48.509998 -663.07001
-94 -48.529999 -663.26001
-93.400002 -48.529999 -663.32001
-92.800003 -48.540001 -663.35999
-92.209999 -48.540001 -663.48999
-91.57 -48.529999 -663.28003
-90.919998 -48.509998 -663.01001
-90.260002 -48.48 -662.59003
-89.599998 -48.450001 -662.21997
-88.949997 -48.43 -661.92999
-88.32 -48.419998 -661.78003
-87.699997 -48.41 -661.65997
-87.07 -48.400002 -661.53003
-86.459999 -48.400002 -661.52002
-85.839996 -48.389999 -661.39001
-63.5 -43.48 -595.33002
-62.900002 -43.450001 -594.83002
-62.290001 -43.41 -594.27002
-61.68 -43.360001 -593.63
-61.080002 -43.32 -593.07001
-60.48 -43.279999 -592.58002
-59.900002 -43.25 -592.25
-59.32 -43.23 -591.89001
-58.740002 -43.200001 -591.52002
-58.18 -43.18 -591.29999
-57.610001 -43.16 -591.03003
-57.060001 -43.150002 -590.89001
-56.5 -43.139999 -590.70001
-55.950001 -43.130001 -590.62
-55.400002 -43.130001 -590.59998
-54.880001 -43.139999 -590.78003
-54.349998 -43.16 -590.91998
-53.830002 -43.169998 -591.17999
-53.349998 -43.220001 -591.82001
-52.860001 -43.27 -592.46002
-57.080002 -47.700001 -652.23999
-56.48 -47.700001 -652.17999
-55.880001 -47.700001 -652.22998
-55.310001 -47.720001 -652.48999
-54.720001 -47.73 -652.62
-54.150002 -47.75 -652.94
-53.57 -47.77 -653.20001
-53.009998 -47.799999 -653.65997
-52.439999 -47.830002 -654.01001
-51.91 -47.900002 -654.98999
-31.41 -43.639999 -597.57001
-30.83 -43.59 -596.91998
-30.26 -43.560001 -596.40002
-29.690001 -43.52 -595.97998
-29.129999 -43.5 -595.67999
-28.57 -43.48 -595.42999
-28.02 -43.470001 -595.31
-27.469999 -43.470001 -595.31
-26.92 -43.470001 -595.22998
-26.379999 -43.470001 -595.23999
-25.84 -43.48 -595.34998
-25.309999 -43.509998 -595.83002
-24.780001 -43.540001 -596.21002
-24.24 -43.549999 -596.32001
-23.690001 -43.540001 -596.27002
-23.120001 -43.5 -595.65997
-22.559999 -43.459999 -595.15997
-22 -43.439999 -594.90997
-21.450001 -43.43 -594.76001
-20.9 -43.43 -594.69
-20.360001 -43.419998 -594.65002
-19.809999 -43.419998 -594.62
-19.27 -43.419998 -594.60999
-18.719999 -43.43 -594.67999
-18.18 -43.43 -594.73999
-17.639999 -43.439999 -594.84998
-17.1 -43.450001 -594.97998
-16.559999 -43.470001 -595.21002
-16.01 -43.470001 -595.31
-15.48 -43.490002 -595.53998
-14.94 -43.509998 -595.84998
-14.4 -43.540001 -596.28003
-13.86 -43.57 -596.67999
-13.33 -43.610001 -597.14001
-12.79 -43.639999 -597.60999
-12.25 -43.669998 -597.96997
-11.71 -43.689999 -598.23999
-11.17 -43.709999 -598.58002
-10.62 -43.740002 -598.85999
-10.08 -43.779999 -599.46997
-9.5500002 -43.830002 -600.12
-9.0100002 -43.900002 -601.04999
-8.4700003 -43.98 -602.14001
-7.9400001 -44.099998 -603.75
-7.4099998 -44.23 -605.56
-1.49 -50.330002 -687.85999
-0.85000002 -50.330002 -687.84998
-0.22 -50.34 -688
0.41 -50.360001 -688.20001
1.04 -50.369999 -688.41998
1.67 -50.389999 -688.64001
2.3099999 -50.400002 -688.78003
2.9400001 -50.43 -689.13
3.5699999 -50.450001 -689.41998
4.21 -50.48 -689.84003
4.8499999 -50.5 -690.07001
5.48 -50.52 -690.32001
6.1100001 -50.490002 -689.90997
6.6999998 -50.16 -685.56
7.29 -49.900002 -682.03998
7.9000001 -49.790001 -680.57001
8.5100002 -49.709999 -679.45001
9.1300001 -49.650002 -678.67999
9.7299995 -49.57 -677.52002
10.35 -49.529999 -676.96002
10.95 -49.450001 -675.95001
11.56 -49.41 -675.39001
12.17 -49.34 -674.48999
12.78 -49.32 -674.21002
13.39 -49.279999 -673.65997
13.99 -49.240002 -673.09998
14.6 -49.209999 -672.65002
15.21 -49.18 -672.34998
15.82 -49.16 -672.03003
16.440001 -49.150002 -671.88
17.040001 -49.119999 -671.54999
17.65 -49.110001 -671.31
18.27 -49.099998 -671.17999
18.889999 -49.110001 -671.37
19.5 -49.09 -671.07001
20.110001 -49.080002 -670.97998
20.73 -49.080002 -670.96002
21.34 -49.080002 -670.90002
21.959999 -49.09 -671.01001
22.57 -49.080002 -670.90997
23.190001 -49.09 -671.12
23.809999 -49.09 -671.01001
24.43 -49.099998 -671.15002
25.049999 -49.110001 -671.34998
25.68 -49.130001 -671.57001
26.299999 -49.139999 -671.75
26.93 -49.16 -672
27.57 -49.209999 -672.62
28.200001 -49.220001 -672.84998
28.83 -49.240002 -673.08002
29.469999 -49.290001 -673.78998
30.129999 -49.349998 -674.51001
30.77 -49.389999 -675.09998
31.41 -49.419998 -675.5
32.049999 -49.450001 -675.96997
32.700001 -49.490002 -676.45001
33.349998 -49.529999 -677.01001
33.98 -49.549999 -677.27002
34.619999 -49.57 -677.56
35.259998 -49.59 -677.83002
35.889999 -49.610001 -678.10999
36.52 -49.619999 -678.26001
37.16 -49.639999 -678.45001
37.799999 -49.66 -678.73999
38.43 -49.669998 -678.91998
39.07 -49.700001 -679.23999
39.709999 -49.720001 -679.47998
40.34 -49.73 -679.63
40.970001 -49.73 -679.62
41.599998 -49.73 -679.72998
42.220001 -49.740002 -679.76001
42.860001 -49.75 -679.88
43.5 -49.759998 -680.12
44.139999 -49.790001 -680.41998
44.810001 -49.830002 -681.06
45.450001 -49.849998 -681.31
46.110001 -49.889999 -681.75
46.75 -49.900002 -682
47.380001 -49.91 -682.09003
48.009998 -49.91 -682.14001
48.650002 -49.919998 -682.22998
49.279999 -49.93 -682.39001
49.91 -49.93 -682.40997
50.549999 -49.939999 -682.5
51.18 -49.950001 -682.59003
51.830002 -49.970001 -682.90997
52.48 -50 -683.21997
53.139999 -50.029999 -683.63
53.869999 -50.119999 -684.92999
54.560001 -50.18 -685.65997
55.299999 -50.27 -686.95001
91.169998 -50.57 -690.87
91.550003 -50.43 -688.94
92.010002 -50.34 -687.66998
92.489998 -50.25 -686.56
92.870003 -50.119999 -684.71002
93.279999 -50 -683.16998
93.730003 -49.91 -681.89001
94.169998 -49.810001 -680.53003
94.580002 -49.700001 -679.02002
95.050003 -49.610001 -677.90002
95.510002 -49.529999 -676.81
96.080002 -49.509998 -676.45001
96.580002 -49.439999 -675.60999
97.120003 -49.400002 -675.03003
97.690002 -49.380001 -674.70001
98.330002 -49.389999 -674.82001
98.949997 -49.389999 -674.84998
99.629997 -49.419998 -675.21002
100.37 -49.48 -676.04999
-161.28999 -48.490002 -654.51001
-160.56 -48.450001 -653.97998
-159.88 -48.43 -653.67999
-159.28999 -48.43 -653.70001
-158.67999 -48.43 -653.67999
-158.08 -48.43 -653.69
-157.45 -48.419998 -653.54999
-156.89999 -48.439999 -653.77002
-156.31 -48.439999 -653.78003
-155.73 -48.450001 -653.90002
-155.16 -48.459999 -654.01001
-154.61 -48.470001 -654.20001
-154.00999 -48.470001 -654.23999
-153.42 -48.48 -654.28003
-152.8 -48.470001 -654.19
-152.22 -48.48 -654.28003
-151.62 -48.48 -654.27002
-151.00999 -48.470001 -654.26001
-150.41 -48.470001 -654.25
-149.73 -48.450001 -653.89001
-135.39999 -47.009998 -634.84003
-134.67999 -46.970001 -634.23999
-134.03999 -46.950001 -633.96002
-133.46001 -46.950001 -633.95001
-132.88 -46.950001 -633.96002
-132.35001 -46.970001 -634.22998
-131.89 -47.009998 -634.78003
-132.42 -47.41 -640.09003
-136.7 -49.16 -663.41998
-136.25 -49.220001 -664.17999
-135.87 -49.299999 -665.28003
-135.39999 -49.349998 -666
-135.00999 -49.43 -667.04999
-134.58 -49.5 -667.96997
-134.12 -49.560001 -668.70001
-133.61 -49.59 -669.21002
-133.17 -49.66 -670.08002
-132.67 -49.709999 -670.69
-132.14 -49.740002 -671.14001
-131.53999 -49.740002 -671.20001
-130.85001 -49.709999 -670.81
-130.11 -49.669998 -670.21002
-122.09 -50.169998 -676.89001
-121.38 -50.130001 -676.35999
-120.75 -50.130001 -676.35999
-120.15 -50.139999 -676.47998
-119.58 -50.16 -676.72998
-118.95 -50.16 -676.71997
-118.36 -50.169998 -676.90002
-117.77 -50.18 -677.09003
-117.17 -50.189999 -677.17999
-116.55 -50.189999 -677.21002
-115.96 -50.200001 -677.39001
-115.36 -50.209999 -677.53003
-114.74 -50.220001 -677.56
-114.13 -50.220001 -677.64001
-113.5 -50.220001 -677.58002
-112.89 -50.220001 -677.66998
-112.26 -50.220001 -677.64001
-111.65 -50.220001 -677.65997
-110.99 -50.209999 -677.48999
-110.32 -50.189999 -677.15997
-107.91 -49.369999 -666.28003
-107.06 -49.259998 -664.85999
-106.26 -49.169998 -663.69
-105.54 -49.119999 -662.98999
-104.84 -49.080002 -662.42999
-104.19 -49.060001 -662.16998
-103.58 -49.060001 -662.13
-102.97 -49.049999 -662.12
-102.36 -49.049999 -662.12
-101.76 -49.060001 -662.21002
-101.16 -49.060001 -662.23999
-100.57 -49.07 -662.35999
-99.959999 -49.07 -662.34998
-99.379997 -49.09 -662.56
-98.760002 -49.080002 -662.48999
-98.190002 -49.099998 -662.71997
-97.589996 -49.099998 -662.78998
-97 -49.110001 -662.87
-96.400002 -49.110001 -662.94
-95.809998 -49.119999 -663.09003
-95.230003 -49.139999 -663.33002
-94.629997 -49.150002 -663.38
-94.029999 -49.150002 -663.41998
-93.43 -49.150002 -663.48999
-92.849998 -49.169998 -663.70001
-92.239998 -49.169998 -663.71002
-91.620003 -49.16 -663.60999
-91 -49.16 -663.53003
-90.330002 -49.130001 -663.10999
-89.669998 -49.099998 -662.71997
-89.010002 -49.07 -662.37
-88.360001 -49.040001 -662.04999
-87.739998 -49.040001 -661.96002
-87.120003 -49.029999 -661.88
-86.489998 -49.02 -661.72998
-85.870003 -49.009998 -661.62
-63.41 -43.970001 -594.53998
-62.830002 -43.939999 -594.17999
-62.209999 -43.889999 -593.47998
-61.619999 -43.860001 -593.06
-61.02 -43.82 -592.56
-60.450001 -43.799999 -592.27002
-59.869999 -43.77 -591.89001
-59.299999 -43.75 -591.65002
-58.740002 -43.740002 -591.44
-58.18 -43.720001 -591.26001
-57.619999 -43.709999 -591.09003
-57.060001 -43.700001 -590.94
-56.5 -43.689999 -590.77002
-55.959999 -43.68 -590.71997
-55.419998 -43.689999 -590.78003
-54.889999 -43.689999 -590.88
-54.380001 -43.720001 -591.21997
-53.869999 -43.75 -591.58002
-53.380001 -43.790001 -592.10999
-52.91 -43.849998 -592.92999
-57.470001 -48.119999 -649.88
-57.07 -48.290001 -652.09003
-56.490002 -48.299999 -652.26001
-55.900002 -48.310001 -652.38
-55.299999 -48.310001 -652.40997
-54.720001 -48.330002 -652.65997
-54.139999 -48.349998 -652.87
-53.580002 -48.380001 -653.28003
-53 -48.400002 -653.54999
-52.439999 -48.43 -654.03998
-51.91 -48.5 -654.95001
-31.41 -44.18 -597.47998
-30.83 -44.130001 -596.82001
-30.25 -44.099998 -596.34998
-29.690001 -44.07 -595.92999
-29.129999 -44.049999 -595.64001
-28.57 -44.029999 -595.40997
-28.02 -44.02 -595.26001
-27.469999 -44.009998 -595.15002
-26.92 -44 -595.09998
-26.379999 -44.009998 -595.16998
-25.84 -44.02 -595.31
-25.299999 -44.040001 -595.56
-24.76 -44.049999 -595.73999
-24.23 -44.080002 -596.09003
-23.700001 -44.099998 -596.34998
-23.139999 -44.09 -596.22998
-22.58 -44.049999 -595.69
-22.01 -44 -595.06
-21.450001 -43.98 -594.73999
-20.9 -43.970001 -594.64001
-20.360001 -43.970001 -594.60999
-19.809999 -43.970001 -594.62
-19.27 -43.970001 -594.64001
-18.719999 -43.970001 -594.65002
-18.18 -43.970001 -594.70001
-17.639999 -43.98 -594.81
-17.09 -43.990002 -594.89001
-16.549999 -44 -595.10999
-16.01 -44.02 -595.29999
-15.47 -44.029999 -595.51001
-14.94 -44.060001 -595.84998
-14.4 -44.09 -596.23999
-13.86 -44.119999 -596.69
-13.33 -44.16 -597.26001
-12.79 -44.189999 -597.59003
-12.25 -44.209999 -597.90997
-11.71 -44.240002 -598.23999
-11.16 -44.25 -598.46002
-10.62 -44.279999 -598.79999
-10.08 -44.330002 -599.40997
-9.54 -44.369999 -600.02002
-9.0100002 -44.439999 -600.88
-8.4700003 -44.509998 -601.84003
-7.9400001 -44.630001 -603.45001
-7.4099998 -44.799999 -605.69
-6.9099998 -45.110001 -609.79999
-1.49 -50.950001 -687.67999
-0.85000002 -50.970001 -687.89001
-0.22 -50.98 -688.03998
0.41 -51 -688.33002
1.04 -51.02 -688.62
1.67 -51.040001 -688.90997
2.3099999 -51.060001 -689.15997
2.9400001 -51.080002 -689.34998
3.5799999 -51.099998 -689.60999
4.21 -51.119999 -689.97998
4.8499999 -51.169998 -690.53003
5.4899998 -51.189999 -690.91998
6.1199999 -51.209999 -691.10999
6.7600002 -51.200001 -691.02002
7.3499999 -50.950001 -687.59998
7.9400001 -50.669998 -683.89001
8.54 -50.490002 -681.54999
9.1499996 -50.41 -680.40997
9.7600002 -50.299999 -679.06
10.37 -50.259998 -678.46997
10.98 -50.209999 -677.76001
11.59 -50.139999 -676.82001
12.2 -50.09 -676.13
12.81 -50.049999 -675.64001
13.41 -50 -674.94
14.03 -49.970001 -674.58002
14.63 -49.919998 -673.96997
15.24 -49.900002 -673.69
15.85 -49.869999 -673.31
16.459999 -49.849998 -672.96997
17.07 -49.82 -672.60999
17.690001 -49.810001 -672.48999
18.299999 -49.810001 -672.42999
18.92 -49.799999 -672.28998
19.530001 -49.799999 -672.35999
20.15 -49.799999 -672.34998
20.75 -49.77 -671.87
21.370001 -49.759998 -671.84003
21.99 -49.77 -671.97998
22.610001 -49.77 -671.95001
23.219999 -49.77 -671.97998
23.85 -49.790001 -672.15997
24.469999 -49.810001 -672.40002
25.1 -49.82 -672.65002
25.73 -49.849998 -673.03998
26.360001 -49.869999 -673.26001
27 -49.900002 -673.69
27.629999 -49.939999 -674.16998
28.26 -49.950001 -674.32001
28.889999 -49.98 -674.65997
29.559999 -50.060001 -675.77002
30.190001 -50.080002 -676.02002
30.84 -50.110001 -676.5
31.48 -50.139999 -676.88
32.119999 -50.18 -677.39001
32.759998 -50.200001 -677.59998
33.400002 -50.23 -678
34.02 -50.23 -678.08002
34.66 -50.259998 -678.40997
35.299999 -50.27 -678.60999
35.93 -50.290001 -678.81
36.560001 -50.290001 -678.83002
37.189999 -50.310001 -679.04999
37.84 -50.34 -679.44
38.470001 -50.349998 -679.67999
39.110001 -50.369999 -679.82001
39.740002 -50.380001 -679.95001
40.380001 -50.389999 -680.15997
41 -50.389999 -680.14001
41.630001 -50.400002 -680.22998
42.259998 -50.400002 -680.33002
42.900002 -50.43 -680.60999
43.549999 -50.450001 -681
44.23 -50.509998 -681.77002
44.889999 -50.549999 -682.27002
45.529999 -50.57 -682.48999
46.16 -50.57 -682.51001
46.790001 -50.57 -682.58002
47.419998 -50.580002 -682.62
48.060001 -50.59 -682.79999
48.68 -50.580002 -682.69
49.310001 -50.59 -682.78003
49.959999 -50.610001 -683.09998
50.599998 -50.619999 -683.19
51.25 -50.650002 -683.53003
51.900002 -50.66 -683.73999
52.57 -50.709999 -684.34003
53.25 -50.759998 -685.03003
53.970001 -50.84 -686.09003
54.689999 -50.919998 -687.21002
91.470001 -51.380001 -693.12
91.830002 -51.220001 -691.07001
92.25 -51.099998 -689.46997
92.660004 -50.98 -687.81
93.080002 -50.860001 -686.28003
93.610001 -50.810001 -685.57001
94.050003 -50.709999 -684.15002
94.519997 -50.619999 -683.03998
94.970001 -50.529999 -681.81
95.419998 -50.439999 -680.56
95.900002 -50.360001 -679.54999
96.419998 -50.299999 -678.78998
96.959999 -50.259998 -678.20001
97.550003 -50.240002 -677.98999
98.050003 -50.18 -677.16998
98.669998 -50.18 -677.16998
99.349998 -50.209999 -677.5
100.03 -50.240002 -677.92999
100.81 -50.32 -678.92999
-161.21001 -49.07 -654.20001
-160.52 -49.040001 -653.83002
-159.87 -49.029999 -653.62
-159.25999 -49.02 -653.57001
-158.66 -49.029999 -653.59998
-158.07001 -49.029999 -653.62
-157.46001 -49.02 -653.57001
-156.87 -49.029999 -653.60999
-156.25 -49.02 -653.56
-155.67999 -49.029999 -653.65002
-155.12 -49.040001 -653.84998
-154.57001 -49.060001 -654.03998
-153.99001 -49.07 -654.14001
-153.38 -49.060001 -654.10999
-152.77 -49.060001 -654.03998
-152.19 -49.07 -654.16998
-151.60001 -49.07 -654.19
-150.97 -49.060001 -654.08002
-150.33 -49.049999 -653.91998
-149.67 -49.029999 -653.65002
-136.11 -47.639999 -635.45001
-135.32001 -47.57 -634.47998
-134.67 -47.549999 -634.15997
-134.06 -47.540001 -634.03003
-133.49001 -47.540001 -634.09998
-132.91 -47.540001 -634.10999
-132.37 -47.560001 -634.33002
-131.92 -47.599998 -634.94
-131.48 -47.650002 -635.59998
-136.61 -49.740002 -662.96002
-136.17999 -49.799999 -663.84003
-135.81 -49.889999 -664.98999
-135.35001 -49.950001 -665.75
-134.94 -50.02 -666.73999
-134.42 -50.049999 -667.16998
-133.92999 -50.099998 -667.76001
-133.35001 -50.110001 -667.94
-132.92999 -50.189999 -668.91998
-132.46001 -50.240002 -669.62
-131.95 -50.279999 -670.14001
-131.31 -50.27 -670.06
-122.79 -50.82 -677.29999
-122.01 -50.759998 -676.45001
-121.37 -50.75 -676.35999
-120.76 -50.75 -676.41998
-120.16 -50.759998 -676.51001
-119.58 -50.779999 -676.73999
-118.98 -50.790001 -676.87
-118.4 -50.810001 -677.10999
-117.82 -50.82 -677.34003
-117.2 -50.830002 -677.37
-116.58 -50.830002 -677.40002
-115.98 -50.84 -677.51001
-115.38 -50.84 -677.62
-114.76 -50.849998 -677.67999
-114.17 -50.860001 -677.84998
-113.57 -50.869999 -677.96997
-112.94 -50.869999 -677.92999
-112.31 -50.869999 -677.92999
-111.68 -50.860001 -677.88
-111.04 -50.849998 -677.77002
-110.44 -50.860001 -677.89001
-108.01 -50.029999 -666.92999
-107.15 -49.91 -665.39001
-106.34 -49.82 -664.19
-105.62 -49.77 -663.46002
-104.91 -49.720001 -662.87
-104.23 -49.689999 -662.41998
-103.62 -49.68 -662.38
-103 -49.68 -662.34998
-102.41 -49.689999 -662.45001
-101.78 -49.68 -662.28998
-101.2 -49.689999 -662.52002
-100.61 -49.700001 -662.60999
-100 -49.700001 -662.59003
-99.410004 -49.709999 -662.70001
-98.830002 -49.720001 -662.92999
-98.209999 -49.720001 -662.88
-97.629997 -49.73 -663.02002
-97.040001 -49.740002 -663.19
-96.459999 -49.75 -663.35999
-95.860001 -49.759998 -663.44
-95.260002 -49.77 -663.53003
-94.669998 -49.77 -663.62
-94.080002 -49.779999 -663.75
-93.489998 -49.790001 -663.89001
-92.870003 -49.790001 -663.87
-92.269997 -49.790001 -663.90002
-91.669998 -49.799999 -663.96002
-91.040001 -49.790001 -663.84998
-90.389999 -49.77 -663.52002
-89.709999 -49.73 -663.04999
-89.059998 -49.700001 -662.72998
-88.43 -49.700001 -662.62
-87.790001 -49.68 -662.35999
-87.160004 -49.66 -662.20001
-86.540001 -49.66 -662.09998
-85.949997 -49.66 -662.21002
-64.589996 -44.580002 -595.32001
-63.970001 -44.529999 -594.70001
-63.349998 -44.48 -594
-62.759998 -44.439999 -593.54999
-62.16 -44.400002 -593.03998
-61.57 -44.369999 -592.60999
-60.990002 -44.34 -592.25
-60.419998 -44.32 -592
-59.849998 -44.299999 -591.72998
-59.290001 -44.290001 -591.53003
-58.73 -44.27 -591.37
-58.169998 -44.259998 -591.20001
-57.619999 -44.25 -591.10999
-57.060001 -44.240002 -590.92999
-56.52 -44.240002 -590.90002
-55.970001 -44.240002 -590.90002
-55.439999 -44.240002 -590.96002
-54.91 -44.25 -591.13
-54.400002 -44.279999 -591.46002
-53.900002 -44.32 -591.94
-53.439999 -44.380001 -592.78998
-53.450001 -44.849998 -598.96997
-57.669998 -48.889999 -652.12
-57.080002 -48.900002 -652.26001
-56.490002 -48.900002 -652.29999
-55.900002 -48.91 -652.40002
-55.299999 -48.91 -652.45001
-54.73 -48.93 -652.71002
-54.150002 -48.959999 -653.01001
-53.57 -48.970001 -653.22998
-53 -49 -653.59998
-52.450001 -49.040001 -654.15997
-51.900002 -49.099998 -654.87
-32.009998 -44.799999 -598.39001
-31.41 -44.73 -597.44
-30.82 -44.68 -596.75
-30.26 -44.650002 -596.37
-29.690001 -44.610001 -595.90002
-29.129999 -44.59 -595.65997
-28.57 -44.580002 -595.44
-28.02 -44.560001 -595.28998
-27.469999 -44.560001 -595.17999
-26.92 -44.549999 -595.15997
-26.370001 -44.549999 -595.15002
-25.83 -44.560001 -595.25
-25.299999 -44.580002 -595.53998
-24.75 -44.580002 -595.53003
-24.209999 -44.59 -595.66998
-23.68 -44.610001 -595.96002
-23.15 -44.650002 -596.40002
-22.610001 -44.650002 -596.42999
-22.030001 -44.599998 -595.73999
-21.459999 -44.529999 -594.89001
-20.9 -44.509998 -594.59003
-20.360001 -44.509998 -594.62
-19.809999 -44.509998 -594.60999
-19.27 -44.509998 -594.65002
-18.719999 -44.52 -594.70001
-18.18 -44.52 -594.73999
-17.639999 -44.529999 -594.82001
-17.09 -44.529999 -594.90997
-16.559999 -44.560001 -595.19
-16.02 -44.57 -595.34998
-15.48 -44.59 -595.59003
-14.94 -44.599998 -595.84003
-14.4 -44.639999 -596.32001
-13.87 -44.669998 -596.70001
-13.33 -44.709999 -597.28998
-12.79 -44.740002 -597.63
-12.25 -44.759998 -597.90002
-11.71 -44.779999 -598.19
-11.16 -44.799999 -598.46002
-10.62 -44.830002 -598.79999
-10.08 -44.869999 -599.34998
-9.54 -44.91 -599.85999
-9 -44.970001 -600.71997
-8.4700003 -45.040001 -601.63
-7.9400001 -45.16 -603.15002
-7.4000001 -45.279999 -604.78003
-2.1199999 -51.610001 -688.03998
-1.49 -51.599998 -687.89001
-0.86000001 -51.610001 -688.09003
-0.22 -51.630001 -688.22998
0.41 -51.650002 -688.53003
1.04 -51.669998 -688.87
1.67 -51.689999 -689.14001
2.3099999 -51.709999 -689.34003
2.9400001 -51.73 -689.66998
3.5799999 -51.77 -690.09003
4.2199998 -51.799999 -690.57001
4.8499999 -51.84 -691.03998
5.4899998 -51.880001 -691.62
6.1300001 -51.919998 -692.15002
6.77 -51.950001 -692.5
7.4099998 -51.970001 -692.79999
8.0299997 -51.880001 -691.53003
8.6099997 -51.509998 -686.75
9.1899996 -51.23 -683.08002
9.8000002 -51.139999 -681.81
10.41 -51.060001 -680.78998
11.02 -50.990002 -679.84998
11.62 -50.919998 -678.92999
12.23 -50.869999 -678.25
12.84 -50.810001 -677.54999
13.45 -50.75 -676.71002
14.06 -50.700001 -676.07001
14.67 -50.669998 -675.63
15.28 -50.630001 -675.15997
15.89 -50.599998 -674.72998
16.49 -50.560001 -674.23999
17.110001 -50.560001 -674.15002
17.719999 -50.529999 -673.84998
18.34 -50.529999 -673.87
18.959999 -50.529999 -673.79999
19.57 -50.52 -673.60999
20.18 -50.490002 -673.31
20.790001 -50.48 -673.09998
21.41 -50.48 -673.09003
22.030001 -50.490002 -673.21997
22.65 -50.48 -673.19
23.290001 -50.529999 -673.82001
23.92 -50.549999 -674.03998
24.540001 -50.560001 -674.23999
25.18 -50.599998 -674.69
25.799999 -50.610001 -674.84998
26.440001 -50.650002 -675.32001
27.07 -50.66 -675.53003
27.700001 -50.689999 -675.84998
28.35 -50.73 -676.37
28.99 -50.759998 -676.85999
29.629999 -50.799999 -677.28998
30.27 -50.82 -677.59003
30.91 -50.860001 -678.13
31.549999 -50.880001 -678.35999
32.18 -50.889999 -678.5
32.799999 -50.900002 -678.59998
33.43 -50.900002 -678.71002
34.060001 -50.91 -678.78998
34.700001 -50.93 -679.04999
35.330002 -50.950001 -679.29999
35.970001 -50.970001 -679.56
36.599998 -50.98 -679.65002
37.240002 -51 -679.97998
37.880001 -51.02 -680.21997
38.52 -51.040001 -680.53998
39.150002 -51.040001 -680.51001
39.77 -51.040001 -680.53998
40.400002 -51.049999 -680.63
41.040001 -51.060001 -680.73999
41.669998 -51.07 -680.88
42.310001 -51.09 -681.16998
42.959999 -51.119999 -681.53998
43.650002 -51.189999 -682.44
44.299999 -51.220001 -682.90002
44.939999 -51.23 -683
45.57 -51.23 -683.01001
46.200001 -51.240002 -683.07001
46.830002 -51.240002 -683.07001
47.450001 -51.23 -682.97998
48.09 -51.25 -683.16998
48.720001 -51.25 -683.27002
49.369999 -51.27 -683.53003
50.02 -51.299999 -683.90002
50.68 -51.34 -684.34003
51.349998 -51.369999 -684.78003
52 -51.389999 -685.04999
52.68 -51.450001 -685.79999
53.369999 -51.5 -686.45001
54.099998 -51.599998 -687.78003
92.120003 -52.02 -693.22998
92.519997 -51.889999 -691.41998
92.980003 -51.790001 -690.19
93.389999 -51.669998 -688.54999
93.870003 -51.580002 -687.39001
94.349998 -51.5 -686.34003
94.800003 -51.400002 -685.03003
95.25 -51.310001 -683.77002
95.830002 -51.279999 -683.41998
96.349998 -51.220001 -682.65997
96.839996 -51.150002 -681.75
97.370003 -51.099998 -681.07001
97.959999 -51.080002 -680.83002
98.550003 -51.060001 -680.58002
99.099998 -51.02 -680.03998
99.879997 -51.099998 -681.07001
100.52 -51.110001 -681.15002
101.69 -51.389999 -684.79999
102.93 -51.689999 -688.84998
103.95 -51.889999 -691.38
104.91 -52.040001 -693.46002
-161.17 -49.66 -654.03998
-160.47 -49.630001 -653.62
-159.8 -49.610001 -653.34998
-159.22 -49.610001 -653.41998
-158.58 -49.599998 -653.28003
-158 -49.610001 -653.34998
-157.39999 -49.610001 -653.34998
-156.85001 -49.619999 -653.53998
-156.23 -49.619999 -653.47998
-155.64 -49.619999 -653.52002
-155.10001 -49.639999 -653.77002
-154.53999 -49.650002 -653.92999
-153.95 -49.650002 -653.97998
-153.34 -49.650002 -653.92999
-152.74001 -49.650002 -653.92999
-152.12 -49.650002 -653.87
-151.53999 -49.650002 -653.95001
-150.94 -49.650002 -653.94
-150.21001 -49.610001 -653.37
-136.75 -48.25 -635.71002
-135.97 -48.18 -634.78998
-135.28 -48.139999 -634.28998
-134.66 -48.130001 -634.14001
-134.06 -48.119999 -634.03003
-133.5 -48.130001 -634.15997
-132.92999 -48.130001 -634.21997
-132.42 -48.16 -634.57001
-131.97 -48.209999 -635.19
-131.48 -48.240002 -635.60999
-136.03999 -50.360001 -663.16998
-135.66 -50.450001 -664.28003
-135.24001 -50.52 -665.20001
-134.78 -50.57 -665.94
-123.44 -51.450001 -677.41998
-122.66 -51.389999 -676.57001
-121.99 -51.369999 -676.29999
-121.37 -51.369999 -676.31
-120.77 -51.380001 -676.47998
-120.2 -51.400002 -676.72998
-119.6 -51.41 -676.87
-119.02 -51.43 -677.09998
-118.43 -51.439999 -677.27002
-117.83 -51.450001 -677.42999
-117.23 -51.459999 -677.52002
-116.63 -51.470001 -677.65002
-116 -51.470001 -677.62
-115.41 -51.48 -677.82001
-114.77 -51.470001 -677.72998
-114.19 -51.490002 -677.94
-113.57 -51.490002 -677.96002
-112.95 -51.490002 -678
-112.35 -51.509998 -678.15997
-111.73 -51.509998 -678.14001
-111.08 -51.5 -678.03003
-110.51 -51.52 -678.34998
-108.17 -50.709999 -667.85999
-107.21 -50.549999 -665.75
-106.43 -50.470001 -664.69
-105.66 -50.400002 -663.75
-104.95 -50.349998 -663.13
-104.28 -50.32 -662.71997
-103.64 -50.299999 -662.51001
-103.04 -50.299999 -662.56
-102.44 -50.310001 -662.65002
-101.8 -50.299999 -662.44
-101.22 -50.310001 -662.59003
-100.63 -50.32 -662.75
-100.04 -50.330002 -662.84003
-99.449997 -50.34 -662.96997
-98.849998 -50.34 -663.07001
-98.239998 -50.34 -663.03998
-97.650002 -50.349998 -663.20001
-97.07 -50.369999 -663.40002
-96.470001 -50.369999 -663.46997
-95.879997 -50.380001 -663.59003
-95.290001 -50.389999 -663.67999
-94.690002 -50.389999 -663.73999
-94.099998 -50.41 -663.90997
-93.510002 -50.419998 -664.03998
-92.919998 -50.43 -664.21997
-92.330002 -50.439999 -664.32001
-91.709999 -50.43 -664.28998
-91.099998 -50.43 -664.26001
-90.449997 -50.41 -663.96002
-89.790001 -50.380001 -663.62
-89.129997 -50.349998 -663.21997
-88.480003 -50.330002 -662.98999
-87.849998 -50.32 -662.79999
-87.220001 -50.299999 -662.60999
-86.540001 -50.27 -662.14001
-85.949997 -50.27 -662.20001
-65.150002 -45.130001 -595.44
-64.5 -45.060001 -594.51001
-63.889999 -45.02 -593.96002
-63.290001 -44.970001 -593.41998
-62.709999 -44.950001 -593.08002
-62.119999 -44.91 -592.60999
-61.540001 -44.889999 -592.31
-60.970001 -44.869999 -592.07001
-60.41 -44.860001 -591.91998
-59.849998 -44.84 -591.66998
-59.290001 -44.830002 -591.53003
-58.73 -44.82 -591.35999
-58.169998 -44.810001 -591.23999
-57.619999 -44.799999 -591.15002
-57.080002 -44.790001 -591.08002
-56.529999 -44.790001 -591.06
-55.990002 -44.790001 -591.03998
-55.450001 -44.799999 -591.14001
-54.93 -44.810001 -591.33002
-54.43 -44.849998 -591.77002
-53.950001 -44.900002 -592.44
-53.48 -44.950001 -593.20001
-57.68 -49.490002 -652.21002
-57.080002 -49.5 -652.26001
-56.490002 -49.509998 -652.34998
-55.91 -49.52 -652.54999
-55.310001 -49.52 -652.54999
-54.73 -49.529999 -652.70001
-54.150002 -49.549999 -652.95001
-53.57 -49.57 -653.27002
-53.009998 -49.610001 -653.67999
-52.439999 -49.639999 -654.07001
-51.91 -49.700001 -654.91998
-32 -45.34 -598.28003
-31.4 -45.27 -597.37
-30.82 -45.220001 -596.77002
-30.25 -45.189999 -596.32001
-29.68 -45.150002 -595.84003
-29.120001 -45.130001 -595.59998
-28.57 -45.119999 -595.39001
-28.02 -45.110001 -595.28003
-27.459999 -45.099998 -595.13
-26.91 -45.09 -595.03998
-26.370001 -45.09 -595.03003
-25.83 -45.099998 -595.14001
-25.290001 -45.110001 -595.34003
-24.75 -45.119999 -595.44
-24.209999 -45.119999 -595.47998
-23.67 -45.150002 -595.82001
-23.15 -45.189999 -596.34003
-22.610001 -45.200001 -596.46997
-22.049999 -45.169998 -596.09998
-21.459999 -45.09 -595.02002
-20.9 -45.060001 -594.59998
-20.360001 -45.060001 -594.62
-19.809999 -45.049999 -594.57001
-19.27 -45.060001 -594.59998
-18.719999 -45.060001 -594.65002
-18.18 -45.060001 -594.70001
-17.639999 -45.07 -594.83002
-17.1 -45.09 -595.03998
-16.559999 -45.099998 -595.16998
-16.01 -45.110001 -595.28998
-15.48 -45.130001 -595.59003
-14.94 -45.16 -595.92999
-14.4 -45.189999 -596.39001
-13.87 -45.23 -596.82001
-13.33 -45.259998 -597.29999
-12.79 -45.290001 -597.69
-12.25 -45.32 -597.97998
-11.71 -45.32 -598.08002
-11.16 -45.349998 -598.40002
-10.62 -45.369999 -598.71997
-10.08 -45.41 -599.23999
-9.54 -45.450001 -599.78998
-9 -45.52 -600.59998
-8.46 -45.580002 -601.46002
-7.9299998 -45.689999 -602.90002
-7.4000001 -45.82 -604.59003
-2.1199999 -52.27 -688.38
-1.49 -52.25 -688.09998
-0.86000001 -52.259998 -688.28998
-0.22 -52.290001 -688.67999
0.41 -52.299999 -688.82001
1.04 -52.32 -689.08002
1.6799999 -52.34 -689.27002
2.3099999 -52.369999 -689.65002
2.9400001 -52.389999 -689.95001
3.5799999 -52.439999 -690.56
4.2199998 -52.48 -691.09003
4.8600001 -52.540001 -691.87
5.5 -52.59 -692.53998
6.1399999 -52.650002 -693.37
6.79 -52.700001 -693.94
7.4299998 -52.73 -694.38
8.0699997 -52.73 -694.41998
8.6899996 -52.66 -693.41998
9.3000002 -52.52 -691.58002
10.43 -51.830002 -682.62
11.05 -51.779999 -682.01001
11.67 -51.720001 -681.31
12.28 -51.669998 -680.62
12.89 -51.610001 -679.85999
13.49 -51.540001 -678.91998
14.1 -51.459999 -677.89001
14.71 -51.43 -677.45001
15.32 -51.389999 -676.91998
15.92 -51.34 -676.27002
16.540001 -51.310001 -675.89001
17.15 -51.299999 -675.84003
17.77 -51.299999 -675.72998
18.379999 -51.259998 -675.29999
19 -51.259998 -675.28003
19.620001 -51.259998 -675.27002
20.24 -51.259998 -675.27002
20.860001 -51.259998 -675.25
21.48 -51.25 -675.16998
22.110001 -51.279999 -675.46002
22.73 -51.279999 -675.52002
23.370001 -51.32 -676
23.99 -51.330002 -676.17999
24.629999 -51.360001 -676.54999
25.25 -51.360001 -676.5
25.879999 -51.380001 -676.84003
26.51 -51.400002 -677.04999
27.15 -51.439999 -677.53003
27.790001 -51.470001 -677.98999
28.43 -51.5 -678.40997
29.049999 -51.5 -678.35999
29.700001 -51.549999 -678.95001
30.34 -51.560001 -679.17999
30.959999 -51.57 -679.22998
31.59 -51.57 -679.21002
32.220001 -51.580002 -679.34998
32.84 -51.580002 -679.39001
33.470001 -51.580002 -679.42999
34.099998 -51.599998 -679.59998
34.740002 -51.610001 -679.79999
35.369999 -51.619999 -679.94
36.009998 -51.639999 -680.21002
36.650002 -51.669998 -680.57001
37.299999 -51.709999 -681.03003
37.93 -51.720001 -681.15002
38.560001 -51.720001 -681.21002
39.18 -51.709999 -681.13
39.799999 -51.700001 -680.98999
40.439999 -51.720001 -681.22998
41.080002 -51.740002 -681.39001
41.709999 -51.75 -681.57001
42.400002 -51.82 -682.46002
43.049999 -51.849998 -682.94
43.709999 -51.900002 -683.47998
44.34 -51.900002 -683.46997
44.970001 -51.889999 -683.44
45.599998 -51.900002 -683.47998
46.23 -51.900002 -683.51001
46.849998 -51.900002 -683.46997
47.52 -51.939999 -683.96997
48.169998 -51.959999 -684.27002
48.810001 -51.98 -684.53003
49.459999 -51.990002 -684.73999
50.110001 -52.02 -685.10999
50.759998 -52.040001 -685.29999
51.41 -52.060001 -685.59003
52.060001 -52.080002 -685.90002
52.740002 -52.130001 -686.47998
53.48 -52.240002 -687.90002
92.809998 -52.689999 -693.57001
93.209999 -52.549999 -691.83002
93.629997 -52.43 -690.26001
94.099998 -52.34 -689.09003
94.599998 -52.27 -688.10999
95.050003 -52.169998 -686.84003
95.559998 -52.099998 -685.95001
96.080002 -52.040001 -685.17999
96.620003 -51.990002 -684.56
97.190002 -51.970001 -684.16998
97.720001 -51.91 -683.47998
98.330002 -51.900002 -683.32001
98.970001 -51.91 -683.40002
99.559998 -51.889999 -683.19
100.33 -51.959999 -684.10999
101.09 -52.029999 -684.96997
102.23 -52.290001 -688.40997
103.25 -52.490002 -690.91998
104.23 -52.66 -693.19
-161.11 -50.240002 -653.79999
-160.42999 -50.220001 -653.47998
-159.78999 -50.200001 -653.32001
-159.17999 -50.200001 -653.26001
