# .PCD v0.7 - Point Cloud Data file format
VERSION 0.7
FIELDS x y z
SIZE 4 4 4
TYPE F F F
COUNT 1 1 1
WIDTH 1678
HEIGHT 1
VIEWPOINT 0 0 0 1 0 0 0
POINTS 1678
DATA ascii
-35.380001 36.419998 -581.90997
-34.849998 36.43 -582.07001
-34.34 36.450001 -582.40002
-33.82 36.470001 -582.71002
-33.32 36.509998 -583.23999
-32.799999 36.529999 -583.58002
-32.290001 36.549999 -583.96997
-31.77 36.57 -584.23999
-31.25 36.59 -584.58002
-30.73 36.599998 -584.78003
-30.209999 36.619999 -585.09003
-29.68 36.639999 -585.28003
-29.17 36.66 -585.65997
-28.639999 36.669998 -585.88
-28.120001 36.700001 -586.29999
-27.610001 36.720001 -586.69
-27.09 36.759998 -587.20001
-26.57 36.779999 -587.47998
-26.040001 36.790001 -587.76001
-25.52 36.810001 -588.08002
-25 36.84 -588.52002
-24.469999 36.869999 -588.90997
-23.950001 36.900002 -589.41998
-23.43 36.93 -589.89001
-22.91 36.950001 -590.31
-22.379999 36.98 -590.71997
-21.870001 37.02 -591.29999
-21.34 37.040001 -591.71002
-20.82 37.080002 -592.34003
-20.290001 37.119999 -592.85999
-19.799999 37.209999 -594.28998
49.029999 37.369999 -596.71002
49.5 37.310001 -595.81
49.98 37.259998 -595.01001
50.5 37.240002 -594.69
51.009998 37.209999 -594.29999
51.540001 37.200001 -594.09003
52.07 37.189999 -593.94
52.610001 37.189999 -593.91998
53.16 37.189999 -593.98999
53.709999 37.200001 -594.07001
54.259998 37.200001 -594.13
54.82 37.209999 -594.31
55.400002 37.23 -594.63
55.98 37.259998 -594.97998
56.59 37.299999 -595.65002
57.189999 37.34 -596.26001
-164.95 34.77 -563.82001
-164.5 34.779999 -564.01001
-164.05 34.799999 -564.26001
-163.67 34.830002 -564.71997
-163.28 34.849998 -565.13
-162.97 34.900002 -565.84003
-162.64999 34.939999 -566.53998
-162.33 34.990002 -567.21002
-162.03 35.029999 -567.94
-162.89 35.330002 -572.72998
-162.64999 35.389999 -573.71002
-162.22 35.419998 -574.07001
-161.78 35.43 -574.35999
-161.36 35.459999 -574.71997
-160.92 35.48 -575.03003
-160.59 35.52 -575.71002
-160.28999 35.57 -576.51001
-160.10001 35.650002 -577.71002
-159.94 35.73 -579.02002
-160.78999 36.040001 -583.96002
-160.36 36.060001 -584.33002
-160.11 36.130001 -585.37
-151.24001 37.52 -607.57001
-150.49001 37.470001 -606.84003
-149.88 37.459999 -606.62
-149.23 37.439999 -606.22998
-148.63 37.419998 -606.03998
-148.02 37.41 -605.84998
-147.44 37.400002 -605.72998
-146.88 37.400002 -605.72998
-146.31 37.400002 -605.65002
-145.72 37.389999 -605.53003
-145.16 37.389999 -605.51001
-144.58 37.380001 -605.41998
-144.03 37.380001 -605.42999
-143.47 37.380001 -605.40997
-142.92 37.380001 -605.41998
-142.37 37.389999 -605.46997
-141.82001 37.389999 -605.48999
-141.3 37.400002 -605.62
-140.78 37.41 -605.76001
-140.24001 37.41 -605.83002
-139.7 37.41 -605.89001
-139.17 37.419998 -606
-138.64999 37.43 -606.15997
-138.13 37.439999 -606.33002
-137.60001 37.450001 -606.46002
-137.09 37.459999 -606.65002
-136.57001 37.470001 -606.78998
-136.03999 37.48 -606.90997
-135.53 37.490002 -607.13
-135 37.5 -607.23999
-134.5 37.509998 -607.5
-133.8 37.470001 -606.87
-125.42 35.419998 -574.14001
-124.88 35.419998 -574.08002
-124.33 35.41 -573.96997
-123.49 35.32 -572.53998
-122.86 35.290001 -572.06
-122.32 35.290001 -571.97998
-121.72 35.259998 -571.59998
-121.12 35.240002 -571.27002
-120.56 35.23 -571.09003
-120.02 35.23 -571.01001
-119.46 35.220001 -570.84998
-118.96 35.220001 -570.95001
-118.45 35.23 -571.03003
-117.88 35.209999 -570.81
-117.35 35.209999 -570.75
-116.76 35.189999 -570.46002
-116.16 35.169998 -570.08002
-115.63 35.16 -570.02002
-115.15 35.18 -570.26001
-114.61 35.169998 -570.19
-114.01 35.150002 -569.78003
-113.43 35.130001 -569.5
-112.95 35.139999 -569.71997
-112.45 35.150002 -569.79999
-111.86 35.130001 -569.46002
-111.28 35.110001 -569.21002
-110.7 35.09 -568.90002
-110.18 35.09 -568.91998
-109.7 35.110001 -569.13
-109.19 35.110001 -569.20001
-108.62 35.09 -568.94
-108.1 35.09 -568.94
-107.58 35.099998 -568.96997
-107.1 35.110001 -569.16998
-106.55 35.099998 -569.03998
-106 35.09 -568.88
-105.49 35.09 -568.90997
-105 35.099998 -569.08002
-104.46 35.099998 -569.02002
-103.89 35.080002 -568.72998
-103.38 35.080002 -568.78998
-102.88 35.09 -568.90002
-102.28 35.07 -568.51001
-101.76 35.07 -568.51001
-101.21 35.060001 -568.34998
-100.69 35.060001 -568.35999
-100.2 35.07 -568.53003
-99.639999 35.049999 -568.28998
-99.099998 35.049999 -568.19
-98.599998 35.049999 -568.29999
-98.099998 35.060001 -568.46002
-97.550003 35.049999 -568.28998
-97.029999 35.049999 -568.28998
-96.540001 35.060001 -568.44
-95.970001 35.040001 -568.15002
-95.440002 35.040001 -568.10999
-94.949997 35.049999 -568.28998
-94.410004 35.040001 -568.16998
-93.900002 35.049999 -568.25
-93.410004 35.060001 -568.40997
-92.870003 35.049999 -568.31
-92.360001 35.060001 -568.40997
-91.870003 35.07 -568.58002
-91.279999 35.040001 -568.17999
-90.779999 35.049999 -568.32001
-90.32 35.07 -568.67999
-89.82 35.080002 -568.78003
-89.25 35.060001 -568.5
-88.730003 35.060001 -568.52002
-88.25 35.080002 -568.75
-87.790001 35.099998 -569.13
-87.230003 35.09 -568.90997
-86.660004 35.07 -568.59003
-86.150002 35.07 -568.67999
-85.690002 35.099998 -569.09998
-85.190002 35.110001 -569.21997
-84.639999 35.099998 -569.03998
-84.129997 35.099998 -569.09003
-83.639999 35.110001 -569.29999
-83.150002 35.119999 -569.51001
-82.650002 35.130001 -569.65997
-82.110001 35.130001 -569.57001
-81.629997 35.139999 -569.84003
-81.139999 35.16 -570.08002
-80.620003 35.16 -570.07001
-80.089996 35.16 -570.08002
-79.599998 35.169998 -570.28003
-79.120003 35.189999 -570.54999
-78.620003 35.200001 -570.73999
-78.120003 35.209999 -570.91998
-77.629997 35.220001 -571.12
-77.129997 35.240002 -571.34003
-76.68 35.27 -571.84003
-76.169998 35.279999 -572
-75.699997 35.299999 -572.39001
-75.260002 35.34 -573.03998
-74.75 35.349998 -573.14001
-74.230003 35.349998 -573.20001
-73.739998 35.369999 -573.46997
-73.220001 35.369999 -573.47998
-72.629997 35.34 -572.95001
-72.07 35.32 -572.73999
-71.540001 35.32 -572.67999
-71 35.310001 -572.57001
-70.470001 35.310001 -572.52002
-69.980003 35.330002 -572.78998
-69.449997 35.32 -572.73999
-68.879997 35.299999 -572.38
-68.339996 35.290001 -572.28998
-67.800003 35.290001 -572.15997
-67.269997 35.279999 -572.09003
-66.760002 35.290001 -572.22998
-66.260002 35.299999 -572.44
-65.730003 35.299999 -572.34003
-65.199997 35.290001 -572.29999
-64.669998 35.290001 -572.25
-64.139999 35.290001 -572.20001
-63.630001 35.299999 -572.38
-63.139999 35.32 -572.65002
-62.630001 35.32 -572.76001
-62.099998 35.32 -572.75
-61.57 35.32 -572.75
-61.060001 35.330002 -572.81
-60.540001 35.330002 -572.90002
-60.029999 35.34 -573.03003
-59.529999 35.349998 -573.27002
-59.029999 35.369999 -573.53003
-58.509998 35.369999 -573.52002
-57.950001 35.349998 -573.28003
-57.43 35.349998 -573.27002
-56.900002 35.349998 -573.28998
-56.389999 35.360001 -573.34998
-55.880001 35.369999 -573.53998
-55.369999 35.380001 -573.72998
-54.880001 35.400002 -574.07001
-54.369999 35.419998 -574.28998
-53.869999 35.43 -574.52002
-53.349998 35.439999 -574.60999
-52.84 35.450001 -574.81
-52.34 35.459999 -575.03998
-51.84 35.48 -575.34998
-51.34 35.5 -575.65002
-50.84 35.52 -575.96997
-50.330002 35.529999 -576.14001
-49.810001 35.540001 -576.21997
-49.290001 35.540001 -576.29999
-48.759998 35.540001 -576.31
-48.240002 35.549999 -576.44
-47.720001 35.560001 -576.56
-47.209999 35.560001 -576.69
-46.689999 35.57 -576.84998
-46.169998 35.580002 -576.96002
-45.650002 35.59 -577.08002
-45.139999 35.599998 -577.25
-44.630001 35.619999 -577.52002
-44.110001 35.630001 -577.70001
-43.599998 35.639999 -577.89001
-43.09 35.650002 -578.14001
-42.59 35.68 -578.58002
-42.080002 35.700001 -578.81
-41.549999 35.689999 -578.77002
-41.02 35.700001 -578.90002
-40.5 35.709999 -579.01001
-39.98 35.720001 -579.15002
-39.470001 35.73 -579.39001
-38.950001 35.75 -579.64001
-38.439999 35.77 -579.91998
-37.93 35.779999 -580.15997
-37.41 35.799999 -580.41998
-36.900002 35.82 -580.71997
-36.400002 35.849998 -581.21002
-35.880001 35.860001 -581.46002
-35.360001 35.869999 -581.65997
-34.84 35.880001 -581.83002
-34.32 35.900002 -582.13
-33.82 35.93 -582.59003
-33.310001 35.959999 -583.12
-32.790001 35.98 -583.37
-32.27 36 -583.66998
-31.75 36.009998 -583.84003
-31.24 36.040001 -584.32001
-30.719999 36.060001 -584.62
-30.200001 36.07 -584.84998
-29.67 36.080002 -585.03003
-29.15 36.099998 -585.27002
-28.629999 36.119999 -585.66998
-28.110001 36.139999 -585.98999
-27.6 36.18 -586.51001
-27.08 36.200001 -586.87
-26.549999 36.220001 -587.19
-26.030001 36.23 -587.41998
-25.51 36.259998 -587.83002
-24.99 36.290001 -588.34003
-24.469999 36.32 -588.84998
-23.950001 36.349998 -589.25
-23.42 36.369999 -589.56
-22.9 36.389999 -589.96997
-22.370001 36.419998 -590.34003
-21.85 36.439999 -590.79999
-21.32 36.470001 -591.25
-20.799999 36.5 -591.76001
-20.280001 36.549999 -592.53998
-19.77 36.610001 -593.37
-19.26 36.68 -594.60999
49.049999 36.84 -596.96997
49.52 36.77 -595.96997
49.990002 36.720001 -595.09998
50.509998 36.700001 -594.81
51.009998 36.669998 -594.32001
51.540001 36.66 -594.13
52.07 36.650002 -593.95001
52.610001 36.650002 -593.92999
53.150002 36.639999 -593.90997
53.700001 36.650002 -593.97998
54.259998 36.66 -594.12
54.830002 36.669998 -594.33002
55.389999 36.68 -594.47998
55.98 36.709999 -594.95001
56.57 36.740002 -595.48999
57.209999 36.799999 -596.38
-164.94 34.25 -563.76001
-164.52 34.27 -564.08002
-164.07001 34.290001 -564.31
-163.67999 34.310001 -564.72998
-163.27 34.34 -565.09998
-162.97 34.380001 -565.84998
-162.63 34.419998 -566.45001
-162.36 34.470001 -567.32001
-161.99001 34.5 -567.81
-163.09 34.849998 -573.40997
-162.64 34.869999 -573.69
-162.19 34.880001 -573.95001
-161.73 34.900002 -574.19
-161.36 34.93 -574.72998
-160.96001 34.959999 -575.17999
-160.64999 35 -575.91998
-160.38 35.060001 -576.84003
-160.07001 35.110001 -577.59998
-160.55 35.330002 -581.21002
-160.82001 35.509998 -584.07001
-160.37 35.529999 -584.39001
-160.19 35.610001 -585.65002
-151.72 36.939999 -607.29999
-151.03999 36.91 -606.81
-150.38 36.889999 -606.37
-149.75999 36.869999 -606.12
-149.11 36.849998 -605.75
-148.50999 36.84 -605.56
-147.94 36.84 -605.53003
-147.38 36.830002 -605.5
-146.81 36.830002 -605.42999
-146.24001 36.830002 -605.38
-145.69 36.830002 -605.39001
-145.12 36.82 -605.32001
-144.56 36.82 -605.31
-144.02 36.830002 -605.39001
-143.44 36.82 -605.28998
-142.89999 36.830002 -605.35999
-142.36 36.830002 -605.42999
-141.83 36.830002 -605.51001
-141.28999 36.84 -605.58002
-140.75999 36.84 -605.66998
-140.25 36.860001 -605.88
-139.71001 36.860001 -605.94
-139.17999 36.869999 -606.06
-138.64999 36.880001 -606.19
-138.14 36.889999 -606.35999
-137.63 36.900002 -606.58002
-137.11 36.91 -606.73999
-136.59 36.919998 -606.90002
-136.08 36.93 -607.12
-135.53999 36.939999 -607.16998
-135.03 36.950001 -607.39001
-134.5 36.959999 -607.51001
-134 36.970001 -607.77002
-133.48 36.98 -607.92999
-125.28 35 -575.87
-124.51 34.939999 -574.78998
-123.66 34.84 -573.28003
-123.01 34.810001 -572.75
-122.47 34.810001 -572.66998
-121.81 34.77 -572.02002
-121.22 34.75 -571.71997
-120.65 34.740002 -571.52002
-120.13 34.740002 -571.53003
-119.57 34.720001 -571.34998
-119.03 34.720001 -571.27002
-118.5 34.720001 -571.28003
-117.99 34.720001 -571.34003
-117.43 34.709999 -571.15002
-116.81 34.68 -570.69
-116.2 34.66 -570.28998
-115.65 34.650002 -570.15002
-115.18 34.66 -570.39001
-114.63 34.66 -570.28003
-114.03 34.630001 -569.88
-113.47 34.619999 -569.71002
-112.98 34.630001 -569.88
-112.48 34.639999 -569.98999
-111.87 34.610001 -569.51001
-111.3 34.59 -569.27002
-110.71 34.580002 -568.96997
-110.19 34.580002 -568.96002
-109.73 34.59 -569.25
-109.2 34.59 -569.25
-108.63 34.580002 -568.96997
-108.11 34.580002 -568.96997
-107.59 34.580002 -569.01001
-107.1 34.59 -569.15997
-106.59 34.59 -569.20001
-106.02 34.57 -568.95001
-105.5 34.580002 -568.97998
-105.03 34.59 -569.23999
-104.5 34.59 -569.22998
-103.91 34.57 -568.84003
-103.4 34.57 -568.89001
-102.9 34.580002 -569.04999
-102.31 34.560001 -568.65997
-101.77 34.549999 -568.58002
-101.25 34.549999 -568.56
-100.72 34.549999 -568.53998
-100.24 34.560001 -568.77002
-99.68 34.549999 -568.52002
-99.110001 34.529999 -568.26001
-98.599998 34.529999 -568.33002
-98.110001 34.540001 -568.5
-97.599998 34.549999 -568.57001
-97.059998 34.540001 -568.42999
-96.559998 34.549999 -568.59998
-96.010002 34.540001 -568.40002
-95.459999 34.529999 -568.26001
-94.980003 34.540001 -568.46997
-94.449997 34.540001 -568.44
-93.919998 34.540001 -568.39001
-93.43 34.549999 -568.57001
-92.919998 34.549999 -568.62
-92.400002 34.549999 -568.62
-91.900002 34.560001 -568.77002
-91.309998 34.529999 -568.32001
-90.800003 34.540001 -568.40997
-90.339996 34.560001 -568.79999
-89.870003 34.580002 -569.13
-89.300003 34.560001 -568.81
-88.760002 34.549999 -568.71002
-88.279999 34.57 -568.96997
-87.82 34.59 -569.35999
-87.269997 34.580002 -569.15002
-86.690002 34.560001 -568.83002
-86.190002 34.57 -568.94
-85.730003 34.59 -569.34998
-85.230003 34.599998 -569.46997
-84.68 34.59 -569.33002
-84.169998 34.59 -569.37
-83.669998 34.610001 -569.54999
-83.18 34.619999 -569.75
-82.68 34.630001 -569.90997
-82.169998 34.630001 -569.97998
-81.669998 34.639999 -570.10999
-81.190002 34.66 -570.42999
-80.660004 34.66 -570.40997
-80.139999 34.66 -570.38
-79.650002 34.669998 -570.64001
-79.169998 34.689999 -570.92999
-78.650002 34.689999 -570.98999
-78.160004 34.700001 -571.17999
-77.669998 34.720001 -571.46002
-77.209999 34.75 -571.90997
-76.730003 34.77 -572.21997
-76.220001 34.779999 -572.34998
-75.769997 34.810001 -572.90997
-75.290001 34.830002 -573.26001
-74.760002 34.830002 -573.19
-74.260002 34.84 -573.37
-73.769997 34.849998 -573.64001
-73.190002 34.830002 -573.28003
-72.620003 34.810001 -572.89001
-72.080002 34.799999 -572.81
-71.540001 34.790001 -572.66998
-71.019997 34.790001 -572.67999
-70.510002 34.799999 -572.83002
-69.989998 34.810001 -572.90997
-69.410004 34.779999 -572.46997
-68.860001 34.77 -572.23999
-68.32 34.759998 -572.10999
-67.790001 34.759998 -572.08002
-67.269997 34.759998 -572.07001
-66.779999 34.77 -572.37
-66.260002 34.779999 -572.40997
-65.720001 34.77 -572.27002
-65.18 34.759998 -572.15997
-64.660004 34.759998 -572.15002
-64.139999 34.77 -572.27002
-63.650002 34.779999 -572.5
-63.150002 34.799999 -572.75
-62.619999 34.799999 -572.75
-62.099998 34.790001 -572.71002
-61.57 34.790001 -572.67999
-61.060001 34.799999 -572.84998
-60.549999 34.810001 -572.97998
-60.049999 34.82 -573.17999
-59.560001 34.84 -573.51001
-59.029999 34.849998 -573.54999
-58.490002 34.830002 -573.35999
-57.950001 34.82 -573.21002
-57.43 34.830002 -573.28003
-56.900002 34.830002 -573.27002
-56.389999 34.84 -573.40997
-55.900002 34.860001 -573.71997
-55.389999 34.869999 -573.94
-54.889999 34.880001 -574.16998
-54.380001 34.889999 -574.35999
-53.869999 34.91 -574.54999
-53.360001 34.91 -574.69
-52.849998 34.93 -574.90002
-52.349998 34.939999 -575.13
-51.849998 34.959999 -575.47998
-51.349998 34.98 -575.71002
-50.830002 34.990002 -575.89001
-50.32 35 -576.06
-49.799999 35.009998 -576.16998
-49.279999 35.009998 -576.19
-48.75 35.009998 -576.19
-48.23 35.009998 -576.32001
-47.720001 35.029999 -576.52002
-47.200001 35.029999 -576.60999
-46.68 35.040001 -576.73999
-46.16 35.049999 -576.88
-45.650002 35.049999 -576.98999
-45.130001 35.07 -577.21002
-44.619999 35.080002 -577.45001
-44.110001 35.09 -577.63
-43.599998 35.110001 -577.90997
-43.09 35.130001 -578.21002
-42.580002 35.150002 -578.46997
-42.060001 35.150002 -578.48999
-41.529999 35.150002 -578.57001
-41.009998 35.16 -578.71997
-40.490002 35.169998 -578.84998
-39.970001 35.18 -579.07001
-39.459999 35.200001 -579.35999
-38.950001 35.209999 -579.53003
-38.43 35.23 -579.82001
-37.919998 35.240002 -580.01001
-37.41 35.27 -580.46002
-36.900002 35.279999 -580.71002
-36.380001 35.299999 -580.98999
-35.860001 35.310001 -581.16998
-35.349998 35.330002 -581.42999
-34.830002 35.34 -581.66998
-34.32 35.369999 -582.07001
-33.810001 35.400002 -582.54999
-33.299999 35.419998 -582.90002
-32.779999 35.439999 -583.21997
-32.259998 35.450001 -583.37
-31.74 35.459999 -583.62
-31.23 35.490002 -584.07001
-30.709999 35.509998 -584.39001
-30.190001 35.529999 -584.65997
-29.66 35.529999 -584.78998
-29.139999 35.549999 -585.06
-28.620001 35.57 -585.41998
-28.110001 35.610001 -585.96997
-27.59 35.619999 -586.28003
-27.059999 35.639999 -586.53998
-26.540001 35.66 -586.81
-26.02 35.68 -587.23999
-25.49 35.700001 -587.56
-24.98 35.75 -588.25
-24.469999 35.779999 -588.73999
-23.940001 35.790001 -589.01001
-23.41 35.810001 -589.22998
-22.879999 35.830002 -589.56
-22.35 35.849998 -589.95001
-21.83 35.880001 -590.39001
-21.309999 35.91 -590.89001
-20.790001 35.950001 -591.59003
-20.27 35.98 -592.07001
-19.74 36.02 -592.66998
-19.25 36.099998 -594.03998
-18.73 36.150002 -594.84998
-18.209999 36.200001 -595.63
-17.68 36.23 -596.17999
49.029999 36.27 -596.73999
49.52 36.23 -596.01001
50 36.18 -595.17999
50.5 36.150002 -594.70001
51.029999 36.139999 -594.48999
51.540001 36.110001 -594.13
52.07 36.099998 -593.96997
52.610001 36.099998 -593.91998
53.150002 36.099998 -593.89001
53.709999 36.110001 -594.04999
54.259998 36.110001 -594.04999
54.830002 36.130001 -594.32001
55.389999 36.139999 -594.51001
55.959999 36.16 -594.83002
56.57 36.189999 -595.44
57.18 36.23 -596.07001
-164.92 33.73 -563.70001
-164.47 33.740002 -563.90002
-164.05 33.759998 -564.22998
-163.64999 33.790001 -564.65002
-163.24001 33.810001 -565
-162.97 33.860001 -565.84998
-162.63 33.900002 -566.44
-162.34 33.950001 -567.25
-162.2 34.029999 -568.53998
-163.06 34.32 -573.33002
-162.64 34.34 -573.69
-162.17999 34.360001 -573.92999
-161.78999 34.380001 -574.39001
-161.37 34.41 -574.77002
-160.96001 34.43 -575.16998
-160.62 34.470001 -575.82001
-160.38 34.529999 -576.82001
-160.12 34.59 -577.78998
-161.24001 34.950001 -583.66998
-160.86 34.98 -584.21002
-160.46001 35.009998 -584.70001
-160.25999 35.09 -585.91998
-152.27 36.389999 -607.26001
-151.56 36.349998 -606.65997
-150.92 36.330002 -606.29999
-150.28 36.310001 -605.97998
-149.67999 36.299999 -605.81
-149.06 36.279999 -605.54999
-148.45 36.27 -605.33002
-147.87 36.259998 -605.22998
-147.32001 36.259998 -605.25
-146.75 36.259998 -605.17999
-146.17 36.25 -605.10999
-145.62 36.25 -605.09998
-145.06 36.25 -605.09998
-144.53 36.259998 -605.17999
-143.97 36.259998 -605.16998
-143.39999 36.25 -605.10999
-142.86 36.259998 -605.15997
-142.35001 36.27 -605.34998
-141.81 36.27 -605.42999
-141.27 36.279999 -605.5
-140.74001 36.290001 -605.62
-140.23 36.299999 -605.78003
-139.7 36.299999 -605.92999
-139.17999 36.310001 -606.07001
-138.64 36.32 -606.13
-138.16 36.34 -606.45001
-137.64 36.349998 -606.63
-137.14999 36.360001 -606.89001
-136.64 36.380001 -607.09998
-136.11 36.380001 -607.25
-135.57001 36.389999 -607.31
-135.08 36.41 -607.59998
-134.56 36.419998 -607.78003
-134.05 36.43 -607.97998
-133.53999 36.439999 -608.17999
-133.12 36.48 -608.83002
-130.56 35.93 -599.75
-124.16 34.459999 -575.57001
-123.21 34.34 -573.65997
-122.69 34.34 -573.66998
-121.92 34.27 -572.53998
-121.31 34.25 -572.13
-120.76 34.240002 -572.01001
-120.24 34.240002 -572.03003
-119.68 34.23 -571.87
-119.09 34.220001 -571.59998
-118.55 34.209999 -571.52002
-118.05 34.220001 -571.59998
-117.47 34.200001 -571.34998
-116.85 34.169998 -570.88
-116.25 34.150002 -570.51001
-115.71 34.139999 -570.40997
-115.21 34.150002 -570.53998
-114.64 34.139999 -570.32001
-114.04 34.110001 -569.90997
-113.52 34.110001 -569.92999
-113.02 34.119999 -570.08002
-112.49 34.119999 -570.04999
-111.86 34.09 -569.46997
-111.3 34.080002 -569.32001
-110.76 34.07 -569.21002
-110.21 34.060001 -569.03998
-109.72 34.07 -569.25
-109.22 34.080002 -569.31
-108.62 34.049999 -568.92999
-108.11 34.060001 -569.01001
-107.59 34.060001 -569.01001
-107.11 34.07 -569.21002
-106.61 34.080002 -569.33002
-106.04 34.060001 -569.07001
-105.52 34.060001 -569.09998
-105.03 34.07 -569.28998
-104.53 34.080002 -569.35999
-103.92 34.049999 -568.90997
-103.4 34.049999 -568.90002
-102.93 34.07 -569.17999
-102.35 34.049999 -568.90002
-101.8 34.040001 -568.71002
-101.27 34.029999 -568.66998
-100.74 34.029999 -568.64001
-100.27 34.049999 -568.89001
-99.720001 34.040001 -568.75
-99.129997 34.02 -568.38
-98.620003 34.02 -568.44
-98.120003 34.029999 -568.57001
-97.639999 34.040001 -568.78003
-97.110001 34.040001 -568.71002
-96.580002 34.029999 -568.70001
-96.059998 34.029999 -568.70001
-95.5 34.02 -568.46002
-95.010002 34.029999 -568.64001
-94.5 34.040001 -568.71997
-93.940002 34.02 -568.52002
-93.449997 34.029999 -568.67999
-92.959999 34.040001 -568.88
-92.449997 34.049999 -568.92999
-91.940002 34.049999 -568.98999
-91.349998 34.029999 -568.62
-90.830002 34.029999 -568.62
-90.370003 34.049999 -568.97998
-89.910004 34.080002 -569.39001
-89.339996 34.060001 -569.08002
-88.809998 34.049999 -569.01001
-88.330002 34.07 -569.28003
-87.860001 34.09 -569.64001
-87.32 34.080002 -569.46997
-86.75 34.060001 -569.15002
-86.220001 34.060001 -569.15997
-85.769997 34.09 -569.58002
-85.279999 34.099998 -569.79999
-84.730003 34.09 -569.59998
-84.209999 34.09 -569.62
-83.709999 34.099998 -569.82001
-83.220001 34.110001 -570.03998
-82.720001 34.119999 -570.17999
-82.220001 34.130001 -570.31
-81.720001 34.139999 -570.51001
-81.239998 34.16 -570.77002
-80.709999 34.150002 -570.73999
-80.18 34.150002 -570.71002
-79.709999 34.169998 -571.06
-79.209999 34.18 -571.22998
-78.699997 34.189999 -571.32001
-78.209999 34.200001 -571.54999
-77.739998 34.23 -571.92999
-77.290001 34.259998 -572.46997
-76.779999 34.27 -572.57001
-76.300003 34.290001 -572.91998
-75.839996 34.32 -573.40997
-75.300003 34.310001 -573.33002
-74.779999 34.310001 -573.38
-74.300003 34.330002 -573.67999
-73.75 34.32 -573.53003
-73.160004 34.290001 -573.03003
-72.599998 34.279999 -572.78003
-72.07 34.27 -572.75
-71.540001 34.27 -572.70001
-71.029999 34.27 -572.76001
-70.529999 34.290001 -572.97998
-69.970001 34.27 -572.67999
-69.389999 34.25 -572.28003
-68.839996 34.23 -572.08002
-68.309998 34.23 -572.03998
-67.800003 34.240002 -572.12
-67.300003 34.25 -572.29999
-66.800003 34.259998 -572.51001
-66.239998 34.240002 -572.27002
-65.709999 34.240002 -572.17999
-65.18 34.240002 -572.15997
-64.660004 34.240002 -572.21997
-64.160004 34.25 -572.41998
-63.66 34.27 -572.64001
-63.139999 34.27 -572.64001
-62.610001 34.259998 -572.63
-62.09 34.27 -572.64001
-61.57 34.27 -572.71997
-61.060001 34.279999 -572.83002
-60.549999 34.290001 -572.97998
-60.060001 34.299999 -573.28998
-59.549999 34.310001 -573.46002
-59.009998 34.299999 -573.28003
-58.48 34.299999 -573.22998
-57.939999 34.290001 -573.13
-57.419998 34.299999 -573.21002
-56.900002 34.299999 -573.28998
-56.400002 34.32 -573.47998
-55.900002 34.330002 -573.78998
-55.400002 34.349998 -574.03998
-54.900002 34.360001 -574.25
-54.389999 34.369999 -574.40997
-53.880001 34.380001 -574.58002
-53.369999 34.389999 -574.76001
-52.860001 34.400002 -574.96002
-52.360001 34.419998 -575.26001
-51.860001 34.439999 -575.53003
-51.349998 34.450001 -575.71002
-50.830002 34.459999 -575.89001
-50.310001 34.459999 -575.94
-49.790001 34.470001 -576.03003
-49.259998 34.470001 -576.01001
-48.740002 34.48 -576.14001
-48.23 34.48 -576.25
-47.709999 34.490002 -576.39001
-47.189999 34.5 -576.48999
-46.669998 34.5 -576.62
-46.16 34.509998 -576.76001
-45.639999 34.52 -576.96997
-45.130001 34.529999 -577.13
-44.610001 34.549999 -577.33002
-44.099998 34.560001 -577.58002
-43.599998 34.580002 -577.95001
-43.09 34.599998 -578.14001
-42.57 34.599998 -578.22998
-42.040001 34.610001 -578.31
-41.52 34.610001 -578.38
-41 34.619999 -578.59003
-40.490002 34.630001 -578.79999
-39.970001 34.650002 -579.07001
-39.450001 34.66 -579.20001
-38.93 34.669998 -579.34998
-38.419998 34.689999 -579.64001
-37.91 34.709999 -579.97998
-37.400002 34.73 -580.34003
-36.889999 34.740002 -580.53003
-36.369999 34.75 -580.71997
-35.849998 34.759998 -580.95001
-35.330002 34.779999 -581.19
-34.82 34.799999 -581.5
-34.310001 34.830002 -581.95001
-33.799999 34.849998 -582.40002
-33.290001 34.869999 -582.66998
-32.759998 34.880001 -582.89001
-32.240002 34.889999 -583.01001
-31.719999 34.91 -583.28003
-31.209999 34.93 -583.73999
-30.690001 34.950001 -584.09003
-30.17 34.970001 -584.39001
-29.65 34.990002 -584.59003
-29.129999 35.009998 -584.98999
-28.610001 35.029999 -585.34003
-28.09 35.049999 -585.62
-27.559999 35.060001 -585.82001
-27.040001 35.080002 -586.17999
-26.52 35.099998 -586.54999
-26.01 35.130001 -587.04999
-25.49 35.16 -587.48999
-24.98 35.200001 -588.13
-24.450001 35.220001 -588.46002
-23.92 35.23 -588.57001
-23.389999 35.240002 -588.83002
-22.870001 35.27 -589.22998
-22.34 35.290001 -589.65002
-21.82 35.32 -590.15002
-21.299999 35.360001 -590.75
-20.77 35.380001 -591.09998
-20.25 35.41 -591.59998
-19.73 35.450001 -592.22998
-19.219999 35.5 -593.15002
-18.709999 35.57 -594.16998
-18.18 35.599998 -594.76001
-17.65 35.630001 -595.22998
-17.120001 35.66 -595.66998
49.09 35.77 -597.42999
49.52 35.689999 -596.08002
50 35.630001 -595.21997
50.509998 35.610001 -594.77002
51.02 35.59 -594.42999
51.540001 35.57 -594.16998
52.060001 35.549999 -593.90002
52.610001 35.560001 -593.94
53.139999 35.549999 -593.81
53.700001 35.560001 -593.91998
54.25 35.560001 -594.03003
54.82 35.580002 -594.23999
55.380001 35.59 -594.40002
55.950001 35.599998 -594.70001
56.560001 35.639999 -595.37
57.16 35.68 -595.96002
-164.92999 33.220001 -563.72998
-164.48 33.23 -563.96997
-164.05 33.25 -564.22998
-163.66 33.27 -564.65997
-163.31 33.310001 -565.23999
-162.96001 33.34 -565.81
-162.56 33.369999 -566.22998
-162.25999 33.41 -566.95001
-163.49001 33.77 -572.97998
-163.11 33.799999 -573.47998
-162.66 33.82 -573.75
-162.22 33.84 -574.06
-161.81 33.860001 -574.45001
-161.39999 33.880001 -574.84998
-160.99001 33.91 -575.27002
-160.66 33.950001 -575.96997
-160.37 34 -576.78998
-160.47 34.139999 -579.03998
-161.36 34.439999 -584.09003
-160.94 34.459999 -584.5
-160.56 34.5 -585.06
-160.3 34.560001 -586.06
-153.45 35.84 -607.52002
-152.77 35.82 -607.04999
-152.11 35.790001 -606.63
-151.44 35.759998 -606.20001
-150.8 35.740002 -605.85999
-150.21001 35.740002 -605.71997
-149.61 35.720001 -605.52002
-148.99001 35.709999 -605.27002
-148.41 35.700001 -605.15997
-147.83 35.700001 -605.07001
-147.27 35.700001 -605.06
-146.72 35.700001 -605.06
-146.16 35.700001 -605.04999
-145.59 35.689999 -604.97998
-145.03 35.689999 -604.97998
-144.48 35.689999 -605.01001
-143.95 35.700001 -605.09998
-143.42 35.700001 -605.17999
-142.88 35.709999 -605.25
-142.33 35.709999 -605.27002
-141.8 35.720001 -605.40002
-141.28 35.73 -605.53998
-140.75 35.73 -605.65997
-140.24001 35.740002 -605.84998
-139.71001 35.75 -605.94
-139.17999 35.759998 -606.06
-138.69 35.77 -606.33002
-138.16 35.779999 -606.46997
-137.66 35.790001 -606.69
-137.13 35.799999 -606.83002
-136.64 35.82 -607.09998
-136.13 35.830002 -607.31
-135.64 35.849998 -607.62
-135.14 35.860001 -607.84998
-134.62 35.869999 -608.03998
-134.10001 35.880001 -608.20001
-133.60001 35.900002 -608.46002
-133.16 35.93 -609
-132.69 35.959999 -609.40002
-132.17999 35.970001 -609.62
-123.5 33.900002 -574.98999
-122.94 33.889999 -574.83002
-122.19 33.82 -573.81
-121.44 33.759998 -572.76001
-120.89 33.759998 -572.65997
-120.37 33.759998 -572.67999
-119.78 33.740002 -572.34998
-119.19 33.720001 -572.03003
-118.66 33.720001 -572.03003
-118.14 33.720001 -572.03003
-117.56 33.700001 -571.78003
-116.91 33.669998 -571.19
-116.34 33.650002 -570.95001
-115.81 33.650002 -570.92999
-115.26 33.639999 -570.78003
-114.65 33.619999 -570.35999
-114.06 33.599998 -570.04999
-113.56 33.599998 -570.15997
-113.06 33.610001 -570.25
-112.49 33.599998 -570.02002
-111.87 33.57 -569.53003
-111.33 33.560001 -569.46997
-110.78 33.549999 -569.32001
-110.24 33.549999 -569.19
-109.75 33.560001 -569.40002
-109.24 33.560001 -569.46002
-108.65 33.540001 -569.07001
-108.14 33.540001 -569.12
-107.61 33.540001 -569.09003
-107.12 33.549999 -569.25
-106.64 33.560001 -569.48999
-106.07 33.549999 -569.25
-105.53 33.540001 -569.15997
-105.06 33.560001 -569.42999
-104.54 33.560001 -569.44
-103.95 33.540001 -569.04999
-103.42 33.540001 -569.03998
-102.95 33.549999 -569.28998
-102.39 33.540001 -569.07001
-101.82 33.52 -568.83002
-101.31 33.529999 -568.89001
-100.77 33.52 -568.79999
-100.29 33.540001 -569.03998
-99.760002 33.529999 -568.98999
-99.160004 33.509998 -568.54999
-98.639999 33.509998 -568.56
-98.150002 33.52 -568.72998
-97.669998 33.529999 -568.92999
-97.18 33.540001 -569.12
-96.629997 33.529999 -569.01001
-96.120003 33.540001 -569.07001
-95.57 33.529999 -568.90997
-95.040001 33.52 -568.81
-94.550003 33.529999 -569.03003
-93.989998 33.52 -568.79999
-93.489998 33.529999 -568.92999
-93.019997 33.540001 -569.22998
-92.5 33.549999 -569.26001
-91.989998 33.549999 -569.31
-91.410004 33.529999 -568.92999
-90.870003 33.52 -568.84998
-90.410004 33.540001 -569.20001
-89.949997 33.57 -569.62
-89.410004 33.560001 -569.47998
-88.849998 33.549999 -569.27002
-88.360001 33.560001 -569.44
-87.889999 33.580002 -569.82001
-87.349998 33.57 -569.69
-86.790001 33.560001 -569.46002
-86.279999 33.560001 -569.52002
-85.809998 33.580002 -569.83002
-85.32 33.59 -570.09998
-84.779999 33.59 -569.94
-84.260002 33.59 -569.95001
-83.769997 33.599998 -570.19
-83.279999 33.619999 -570.45001
-82.790001 33.619999 -570.60999
-82.269997 33.630001 -570.66998
-81.790001 33.639999 -570.95001
-81.290001 33.66 -571.13
-80.760002 33.650002 -571.07001
-80.239998 33.650002 -571.08002
-79.760002 33.669998 -571.44
-79.260002 33.68 -571.60999
-78.779999 33.700001 -571.87
-78.279999 33.709999 -572.09003
-77.82 33.740002 -572.56
-77.349998 33.759998 -572.94
-76.839996 33.77 -573.08002
-76.370003 33.790001 -573.47998
-75.860001 33.799999 -573.57001
-75.32 33.799999 -573.48999
-74.82 33.799999 -573.65002
-74.309998 33.810001 -573.79999
-73.720001 33.779999 -573.29999
-73.150002 33.759998 -572.95001
-72.610001 33.75 -572.81
-72.080002 33.75 -572.78003
-71.550003 33.75 -572.78003
-71.059998 33.77 -573.03998
-70.510002 33.75 -572.83002
-69.940002 33.73 -572.46997
-69.379997 33.709999 -572.16998
-68.839996 33.709999 -572.09998
-68.32 33.709999 -572.08002
-67.800003 33.709999 -572.14001
-67.300003 33.73 -572.38
-66.779999 33.73 -572.40997
-66.239998 33.720001 -572.21002
-65.699997 33.709999 -572.15002
-65.18 33.709999 -572.12
-64.68 33.720001 -572.33002
-64.169998 33.73 -572.53003
-63.66 33.740002 -572.65002
-63.130001 33.740002 -572.62
-62.610001 33.740002 -572.59003
-62.09 33.740002 -572.63
-61.580002 33.75 -572.78003
-61.060001 33.75 -572.87
-60.57 33.77 -573.15002
-60.07 33.790001 -573.41998
-59.540001 33.779999 -573.37
-59 33.77 -573.21002
-58.470001 33.77 -573.14001
-57.939999 33.77 -573.16998
-57.43 33.779999 -573.23999
-56.91 33.779999 -573.37
-56.41 33.799999 -573.57001
-55.91 33.810001 -573.84998
-55.41 33.82 -574.07001
-54.900002 33.84 -574.28998
-54.389999 33.849998 -574.46002
-53.880001 33.860001 -574.65002
-53.369999 33.869999 -574.78003
-52.869999 33.889999 -575.10999
-52.360001 33.900002 -575.33002
-51.849998 33.91 -575.51001
-51.34 33.919998 -575.63
-50.82 33.93 -575.77002
-50.299999 33.93 -575.84003
-49.779999 33.93 -575.90002
-49.25 33.93 -575.92999
-48.73 33.939999 -576.01001
-48.220001 33.950001 -576.14001
-47.700001 33.959999 -576.32001
-47.18 33.959999 -576.40997
-46.669998 33.970001 -576.56
-46.150002 33.98 -576.72998
-45.639999 33.990002 -576.90002
-45.130001 34.009998 -577.12
-44.619999 34.02 -577.34998
-44.110001 34.040001 -577.71002
-43.599998 34.049999 -577.96002
-43.080002 34.060001 -578.02002
-42.560001 34.060001 -578.09998
-42.029999 34.07 -578.19
-41.509998 34.080002 -578.33002
-41 34.09 -578.54999
-40.48 34.099998 -578.75
-39.959999 34.110001 -578.90997
-39.439999 34.119999 -579.08002
-38.919998 34.130001 -579.22998
-38.419998 34.150002 -579.58002
-37.91 34.169998 -579.89001
-37.389999 34.18 -580.09998
-36.869999 34.189999 -580.29999
-36.360001 34.209999 -580.59998
-35.830002 34.220001 -580.71002
-35.32 34.23 -580.95001
-34.810001 34.259998 -581.34998
-34.310001 34.290001 -581.96002
-33.790001 34.299999 -582.15002
-33.259998 34.310001 -582.28998
-32.740002 34.32 -582.44
-32.220001 34.34 -582.69
-31.700001 34.360001 -583.02002
-31.200001 34.389999 -583.59003
-30.68 34.41 -583.87
-30.16 34.419998 -584.16998
-29.65 34.450001 -584.53998
-29.129999 34.459999 -584.84998
-28.59 34.470001 -584.96002
-28.07 34.490002 -585.22998
-27.549999 34.509998 -585.53003
-27.030001 34.529999 -585.94
-26.51 34.549999 -586.34998
-26 34.580002 -586.81
-25.49 34.619999 -587.42999
-24.969999 34.650002 -587.88
-24.43 34.650002 -587.98999
-23.9 34.66 -588.21002
-23.379999 34.689999 -588.62
-22.860001 34.709999 -589
-22.33 34.740002 -589.39001
-21.82 34.77 -589.98999
-21.290001 34.790001 -590.35999
-20.76 34.82 -590.79999
-20.24 34.860001 -591.46002
-19.719999 34.889999 -592.06
-19.190001 34.919998 -592.48999
-18.68 34.970001 -593.37
-18.17 35.040001 -594.44
-17.639999 35.060001 -594.84998
-17.110001 35.099998 -595.45001
49.549999 35.16 -596.39001
50.009998 35.099998 -595.37
50.509998 35.07 -594.85999
51.02 35.040001 -594.46002
51.540001 35.029999 -594.15997
52.060001 35.009998 -593.90997
52.599998 35.009998 -593.83002
53.150002 35.009998 -593.88
53.700001 35.009998 -593.88
54.25 35.02 -593.97998
54.810001 35.02 -594.13
55.369999 35.040001 -594.34003
55.959999 35.060001 -594.78998
56.549999 35.09 -595.22998
57.16 35.130001 -595.89001
-164.92999 32.700001 -563.71997
-164.48 32.709999 -563.96002
-164.06 32.73 -564.28003
-163.72 32.77 -564.88
-163.3 32.790001 -565.21002
-162.98 32.830002 -565.87
-162.57001 32.849998 -566.23999
-162.28 32.900002 -567.03998
-163.58 33.27 -573.31
-163.10001 33.279999 -573.46002
-162.66 33.290001 -573.73999
-162.24001 33.32 -574.14001
-161.82001 33.34 -574.48999
-161.42999 33.369999 -574.97998
-161.03 33.389999 -575.39001
-160.71001 33.43 -576.14001
-160.45 33.490002 -577.07001
-160.77 33.669998 -580.09003
-161.28 33.889999 -583.82001
-160.96001 33.93 -584.56
-160.60001 33.970001 -585.21002
-160.34 34.029999 -586.19
-154.02 35.290001 -607.56
-153.27 35.240002 -606.79999
-152.63 35.23 -606.48999
-151.97 35.200001 -606.06
-151.35001 35.189999 -605.81
-150.72 35.169998 -605.51001
-150.12 35.16 -605.33002
-149.52 35.150002 -605.19
-148.92999 35.139999 -605.03998
-148.36 35.139999 -604.98999
-147.8 35.139999 -604.96002
-147.24001 35.130001 -604.92999
-146.67999 35.130001 -604.91998
-146.13 35.130001 -604.91998
-145.56 35.130001 -604.84998
-144.99001 35.130001 -604.81
-144.46001 35.130001 -604.92999
-143.94 35.139999 -605.03998
-143.39999 35.139999 -605.09003
-142.87 35.150002 -605.22998
-142.33 35.16 -605.29999
-141.78999 35.16 -605.34998
-141.27 35.169998 -605.51001
-140.75999 35.18 -605.66998
-140.25 35.189999 -605.88
-139.73 35.200001 -606.04999
-139.21001 35.209999 -606.20001
-138.71001 35.220001 -606.44
-138.2 35.23 -606.64001
-137.67999 35.240002 -606.78998
-137.17999 35.259998 -607.06
-136.64999 35.27 -607.17999
-136.2 35.290001 -607.60999
-135.67999 35.299999 -607.81
-135.19 35.32 -608.07001
-134.67 35.330002 -608.25
-134.19 35.349998 -608.59003
-133.75999 35.380001 -609.17999
-133.25999 35.400002 -609.45001
-132.75999 35.419998 -609.71997
-132.31 35.450001 -610.21997
-131.86 35.48 -610.73999
-125.17 33.959999 -585.09003
-122.46 33.369999 -575.03998
-121.66 33.299999 -573.78998
-121.04 33.27 -573.34998
-120.51 33.27 -573.31
-119.92 33.25 -572.98999
-119.3 33.220001 -572.54999
-118.79 33.23 -572.62
-118.25 33.23 -572.58002
-117.62 33.189999 -572.06
-116.98 33.16 -571.52002
-116.41 33.150002 -571.29999
-115.87 33.150002 -571.22998
-115.31 33.139999 -571.04999
-114.68 33.099998 -570.52002
-114.1 33.09 -570.23999
-113.58 33.09 -570.26001
-113.09 33.099998 -570.40002
-112.52 33.080002 -570.15997
-111.9 33.049999 -569.67999
-111.36 33.049999 -569.58002
-110.81 33.040001 -569.46002
-110.28 33.040001 -569.40997
-109.79 33.049999 -569.59998
-109.29 33.049999 -569.70001
-108.69 33.029999 -569.29999
-108.18 33.029999 -569.37
-107.64 33.029999 -569.23999
-107.13 33.029999 -569.34998
-106.66 33.049999 -569.59998
-106.07 33.029999 -569.26001
-105.55 33.029999 -569.27002
-105.07 33.040001 -569.46002
-104.57 33.049999 -569.58002
-103.98 33.029999 -569.22998
-103.45 33.02 -569.19
-102.97 33.029999 -569.39001
-102.44 33.029999 -569.35999
-101.85 33.009998 -569.02002
-101.33 33.009998 -569.01001
-100.8 33.009998 -568.95001
-100.3 33.02 -569.10999
-99.82 33.029999 -569.32001
-99.209999 33 -568.79999
-98.669998 32.990002 -568.71997
-98.169998 33 -568.82001
-97.68 33.009998 -569.01001
-97.199997 33.029999 -569.28998
-96.660004 33.02 -569.15997
-96.150002 33.02 -569.22998
-95.639999 33.029999 -569.27002
-95.059998 33.009998 -568.97998
-94.57 33.02 -569.15997
-94.059998 33.02 -569.19
-93.540001 33.02 -569.23999
-93.050003 33.029999 -569.40002
-92.550003 33.040001 -569.53998
-92.040001 33.049999 -569.63
-91.459999 33.02 -569.25
-90.910004 33.02 -569.10999
-90.449997 33.040001 -569.46997
-90 33.060001 -569.90997
-89.459999 33.060001 -569.83002
-88.889999 33.040001 -569.52002
-88.389999 33.049999 -569.65997
-87.93 33.07 -570.09003
-87.410004 33.07 -570.04999
-86.839996 33.049999 -569.78998
-86.330002 33.060001 -569.82001
-85.860001 33.080002 -570.20001
-85.370003 33.09 -570.38
-84.830002 33.080002 -570.28998
-84.32 33.09 -570.37
-83.82 33.099998 -570.52002
-83.339996 33.110001 -570.79999
-82.839996 33.119999 -570.96997
-82.32 33.130001 -571.03003
-81.839996 33.139999 -571.32001
-81.339996 33.150002 -571.46997
-80.800003 33.150002 -571.37
-80.279999 33.150002 -571.38
-79.82 33.169998 -571.79999
-79.330002 33.189999 -572.06
-78.830002 33.200001 -572.25
-78.349998 33.220001 -572.58002
-77.910004 33.25 -573.15002
-77.400002 33.259998 -573.29999
-76.93 33.279999 -573.70001
-76.419998 33.290001 -573.85999
-75.870003 33.279999 -573.64001
-75.339996 33.279999 -573.62
-74.849998 33.290001 -573.90002
-74.290001 33.279999 -573.65002
-73.699997 33.25 -573.10999
-73.160004 33.240002 -573.04999
-72.610001 33.23 -572.84003
-72.089996 33.23 -572.89001
-71.580002 33.240002 -573.03003
-71.07 33.25 -573.09998
-70.480003 33.220001 -572.59003
-69.919998 33.200001 -572.29999
-69.370003 33.189999 -572.12
-68.839996 33.18 -572.07001
-68.309998 33.18 -572.03003
-67.809998 33.189999 -572.23999
-67.32 33.209999 -572.47998
-66.769997 33.200001 -572.27002
-66.220001 33.189999 -572.12
-65.699997 33.189999 -572.12
-65.190002 33.189999 -572.21002
-64.690002 33.200001 -572.42999
-64.18 33.220001 -572.62
-63.66 33.209999 -572.59998
-63.130001 33.209999 -572.62
-62.610001 33.209999 -572.59003
-62.080002 33.209999 -572.62
-61.57 33.220001 -572.71997
-61.07 33.240002 -572.97998
-60.59 33.259998 -573.33002
-60.060001 33.259998 -573.35999
-59.52 33.25 -573.16998
-58.990002 33.240002 -573.14001
-58.459999 33.240002 -573.07001
-57.939999 33.240002 -573.12
-57.419998 33.25 -573.16998
-56.919998 33.259998 -573.41998
-56.41 33.27 -573.63
-55.91 33.290001 -573.90997
-55.41 33.299999 -574.07001
-54.900002 33.310001 -574.28998
-54.389999 33.32 -574.5
-53.880001 33.330002 -574.65997
-53.380001 33.349998 -574.88
-52.880001 33.360001 -575.15002
-52.360001 33.369999 -575.31
-51.849998 33.380001 -575.45001
-51.330002 33.380001 -575.52002
-50.810001 33.389999 -575.65997
-50.299999 33.400002 -575.77002
-49.759998 33.400002 -575.73999
-49.25 33.400002 -575.85999
-48.720001 33.41 -575.90002
-48.209999 33.41 -576.01001
-47.689999 33.419998 -576.19
-47.18 33.43 -576.33002
-46.669998 33.439999 -576.57001
-46.150002 33.450001 -576.73999
-45.630001 33.459999 -576.84003
-45.119999 33.470001 -577.09003
-44.630001 33.5 -577.46997
-44.110001 33.509998 -577.66998
-43.59 33.52 -577.78998
-43.07 33.52 -577.84998
-42.540001 33.52 -577.95001
-42.02 33.529999 -578.06
-41.509998 33.540001 -578.28003
-40.98 33.549999 -578.35999
-40.470001 33.560001 -578.52002
-39.950001 33.57 -578.70001
-39.439999 33.59 -578.98999
-38.919998 33.599998 -579.22998
-38.41 33.610001 -579.46997
-37.889999 33.619999 -579.64001
-37.380001 33.639999 -579.95001
-36.860001 33.650002 -580.07001
-36.34 33.669998 -580.37
-35.82 33.669998 -580.52002
-35.310001 33.689999 -580.81
-34.799999 33.720001 -581.28003
-34.290001 33.740002 -581.65997
-33.77 33.75 -581.84003
-33.25 33.759998 -581.98999
-32.73 33.77 -582.21002
-32.209999 33.790001 -582.46002
-31.690001 33.810001 -582.82001
-31.18 33.84 -583.27002
-30.67 33.860001 -583.59998
-30.15 33.880001 -584.03998
-29.629999 33.889999 -584.27002
-29.1 33.900002 -584.34003
-28.58 33.91 -584.58002
-28.059999 33.93 -584.95001
-27.540001 33.950001 -585.23999
-27.02 33.98 -585.65002
-26.5 34 -586.01001
-25.99 34.040001 -586.70001
-25.48 34.07 -587.32001
-24.950001 34.080002 -587.39001
-24.42 34.09 -587.59003
-23.889999 34.110001 -587.90997
-23.370001 34.130001 -588.28998
-22.85 34.16 -588.84003
-22.33 34.189999 -589.28998
-21.799999 34.209999 -589.65997
-21.280001 34.23 -590.06
-20.75 34.259998 -590.52002
-20.23 34.299999 -591.15997
-19.709999 34.330002 -591.60999
-19.18 34.34 -591.91998
-18.66 34.389999 -592.70001
-18.15 34.459999 -593.85999
-17.629999 34.5 -594.60999
-17.1 34.52 -594.98999
-16.57 34.57 -595.70001
49.549999 34.610001 -596.32001
50 34.549999 -595.27002
50.509998 34.52 -594.82001
51.02 34.5 -594.42999
51.540001 34.48 -594.13
52.07 34.470001 -593.92999
52.599998 34.459999 -593.85999
53.150002 34.459999 -593.85999
53.689999 34.459999 -593.84998
54.25 34.470001 -593.97998
54.810001 34.48 -594.10999
55.360001 34.490002 -594.25
55.950001 34.509998 -594.66998
56.529999 34.540001 -595.09998
57.139999 34.580002 -595.75
-165.00999 32.200001 -564.01001
-164.55 32.209999 -564.20001
-164.12 32.23 -564.46002
-163.72 32.25 -564.87
-163.34 32.279999 -565.33002
-162.96001 32.310001 -565.79999
-162.62 32.34 -566.40002
-162.42999 32.41 -567.54999
-163.57001 32.740002 -573.26001
-163.12 32.75 -573.52002
-162.64999 32.77 -573.73999
-162.22 32.790001 -574.06
-161.78999 32.799999 -574.37
-161.39999 32.830002 -574.85999
-161.00999 32.860001 -575.34998
-160.78 32.919998 -576.38
-160.50999 32.970001 -577.31
-160.36 33.049999 -578.63
-161.00999 33.299999 -582.85999
-161 33.400002 -584.70001
-160.62 33.439999 -585.28998
-160.31 33.48 -586.09003
-154.53999 34.720001 -607.40997
-153.78 34.68 -606.65002
-153.13 34.66 -606.27002
-152.47 34.630001 -605.87
-151.88 34.630001 -605.73999
-151.24001 34.610001 -605.39001
-150.64999 34.599998 -605.25
-150.06 34.59 -605.10999
-149.5 34.59 -605.08002
-148.91 34.580002 -604.94
-148.33 34.57 -604.84003
-147.77 34.57 -604.81
-147.22 34.57 -604.84003
-146.66 34.57 -604.81
-146.10001 34.57 -604.79999
-145.56 34.57 -604.84998
-144.99001 34.57 -604.82001
-144.46001 34.580002 -604.91998
-143.95 34.59 -605.09003
-143.39999 34.59 -605.10999
-142.87 34.599998 -605.21997
-142.32001 34.599998 -605.22998
-141.81 34.610001 -605.42999
-141.28999 34.619999 -605.59003
-140.77 34.630001 -605.73999
-140.27 34.639999 -605.96002
-139.75 34.650002 -606.14001
-139.25999 34.669998 -606.42999
-138.74001 34.669998 -606.58002
-138.23 34.68 -606.75
-137.71001 34.700001 -606.94
-137.21001 34.709999 -607.16998
-136.74001 34.73 -607.54999
-136.25999 34.75 -607.88
-135.74001 34.759998 -608.06
-135.27 34.779999 -608.42999
-134.78 34.799999 -608.76001
-134.34 34.830002 -609.27002
-133.86 34.849998 -609.63
-133.38 34.869999 -609.98999
-132.91 34.900002 -610.39001
-132.48 34.93 -610.98999
-131.97 34.939999 -611.21997
-131.5 34.970001 -611.65002
-131.05 35 -612.15002
-121.9 32.830002 -574.87
-121.27 32.810001 -574.40997
-120.75 32.810001 -574.41998
-120.16 32.790001 -574.15997
-119.44 32.740002 -573.22998
-118.92 32.740002 -573.25
-118.41 32.740002 -573.31
-117.72 32.700001 -572.56
-117.1 32.669998 -572.07001
-116.5 32.650002 -571.71002
-115.95 32.639999 -571.60999
-115.38 32.630001 -571.39001
-114.72 32.59 -570.72998
-114.15 32.580002 -570.47998
-113.63 32.580002 -570.5
-113.12 32.580002 -570.57001
-112.54 32.57 -570.28998
-111.98 32.549999 -570.07001
-111.42 32.540001 -569.89001
-110.85 32.529999 -569.65002
-110.34 32.529999 -569.71002
-109.85 32.540001 -569.90997
-109.35 32.549999 -570.02002
-108.75 32.529999 -569.62
-108.23 32.529999 -569.63
-107.67 32.52 -569.44
-107.18 32.52 -569.58002
-106.67 32.529999 -569.65997
-106.14 32.529999 -569.59998
-105.58 32.52 -569.42999
-105.09 32.529999 -569.59998
-104.6 32.529999 -569.75
-104.02 32.52 -569.42999
-103.48 32.509998 -569.35999
-103 32.52 -569.58002
-102.48 32.529999 -569.59998
-101.9 32.5 -569.25
-101.36 32.5 -569.17999
-100.84 32.5 -569.19
-100.32 32.5 -569.17999
-99.849998 32.52 -569.48999
-99.269997 32.5 -569.14001
-98.699997 32.48 -568.88
-98.190002 32.490002 -568.95001
-97.709999 32.5 -569.21002
-97.239998 32.52 -569.46997
-96.730003 32.52 -569.59003
-96.18 32.509998 -569.40002
-95.68 32.52 -569.52002
-95.110001 32.5 -569.27002
-94.610001 32.509998 -569.39001
-94.099998 32.52 -569.46997
-93.589996 32.52 -569.54999
-93.099998 32.529999 -569.70001
-92.589996 32.540001 -569.82001
-92.099998 32.540001 -569.96997
-91.510002 32.52 -569.56
-90.980003 32.52 -569.53003
-90.5 32.529999 -569.77002
-90.040001 32.560001 -570.16998
-89.5 32.549999 -570.06
-88.940002 32.540001 -569.84003
-88.449997 32.549999 -570.06
-87.970001 32.560001 -570.34003
-87.459999 32.57 -570.37
-86.900002 32.549999 -570.16998
-86.379997 32.560001 -570.19
-85.910004 32.57 -570.51001
-85.410004 32.580002 -570.69
-84.889999 32.580002 -570.67999
-84.370003 32.59 -570.72998
-83.870003 32.599998 -570.90002
-83.389999 32.610001 -571.14001
-82.889999 32.619999 -571.32001
-82.379997 32.630001 -571.42999
-81.900002 32.639999 -571.69
-81.389999 32.650002 -571.84998
-80.870003 32.650002 -571.82001
-80.360001 32.66 -571.94
-79.900002 32.68 -572.38
-79.389999 32.689999 -572.5
-78.889999 32.700001 -572.67999
-78.43 32.720001 -573.12
-78.010002 32.77 -573.88
-77.489998 32.77 -573.96997
-76.980003 32.779999 -574.10999
-76.43 32.77 -573.88
-75.879997 32.759998 -573.69
-75.370003 32.77 -573.85999
-74.849998 32.77 -573.90002
-74.269997 32.740002 -573.44
-73.699997 32.720001 -573.09998
-73.160004 32.720001 -573.06
-72.629997 32.709999 -572.96997
-72.120003 32.720001 -573.07001
-71.610001 32.73 -573.23999
-71.040001 32.709999 -572.88
-70.449997 32.68 -572.39001
-69.910004 32.669998 -572.25
-69.360001 32.66 -572.03003
-68.839996 32.66 -572.03003
-68.330002 32.66 -572.15002
-67.830002 32.68 -572.41998
-67.309998 32.68 -572.45001
-66.769997 32.669998 -572.31
-66.230003 32.669998 -572.16998
-65.699997 32.66 -572.12
-65.199997 32.669998 -572.32001
-64.699997 32.689999 -572.54999
-64.18 32.689999 -572.59003
-63.650002 32.689999 -572.57001
-63.130001 32.689999 -572.58002
-62.599998 32.689999 -572.54999
-62.099998 32.700001 -572.71997
-61.59 32.709999 -572.90002
-61.099998 32.73 -573.25
-60.59 32.73 -573.37
-60.040001 32.720001 -573.16998
-59.509998 32.720001 -573.08002
-58.98 32.720001 -573.08002
-58.459999 32.720001 -573.13
-57.939999 32.720001 -573.15002
-57.43 32.73 -573.27002
-56.93 32.740002 -573.52002
-56.419998 32.75 -573.69
-55.919998 32.77 -573.96002
-55.41 32.779999 -574.10999
-54.900002 32.790001 -574.31
-54.389999 32.799999 -574.5
-53.900002 32.82 -574.89001
-53.389999 32.830002 -575.03003
-52.880001 32.84 -575.21002
-52.360001 32.84 -575.32001
-51.849998 32.849998 -575.41998
-51.32 32.849998 -575.47998
-50.810001 32.860001 -575.66998
-50.279999 32.860001 -575.64001
-49.759998 32.869999 -575.72998
-49.240002 32.869999 -575.76001
-48.709999 32.869999 -575.75
-48.189999 32.869999 -575.85999
-47.689999 32.889999 -576.19
-47.18 32.900002 -576.33002
-46.669998 32.91 -576.54999
-46.150002 32.919998 -576.70001
-45.639999 32.93 -576.88
-45.139999 32.950001 -577.22998
-44.619999 32.970001 -577.45001
-44.099998 32.970001 -577.53998
-43.580002 32.98 -577.65997
-43.060001 32.98 -577.75
-42.540001 32.990002 -577.88
-42.02 33 -578.04999
-41.490002 33 -578.07001
-40.970001 33 -578.12
-40.459999 33.02 -578.37
-39.950001 33.040001 -578.65002
-39.439999 33.049999 -578.95001
-38.919998 33.060001 -579.09998
-38.400002 33.07 -579.27002
-37.869999 33.080002 -579.40997
-37.360001 33.09 -579.67999
-36.84 33.110001 -579.90002
-36.330002 33.119999 -580.13
-35.810001 33.139999 -580.39001
-35.310001 33.16 -580.89001
-34.799999 33.18 -581.20001
-34.279999 33.189999 -581.39001
