# .PCD v0.7 - Point Cloud Data file format
VERSION 0.7
FIELDS x y z
SIZE 4 4 4
TYPE F F F
COUNT 1 1 1
WIDTH 1623
HEIGHT 1
VIEWPOINT 0 0 0 1 0 0 0
POINTS 1623
DATA ascii
-76.43 -37.43 -570
-75.889999 -37.419998 -569.89001
-75.339996 -37.41 -569.69
-74.809998 -37.41 -569.62
-74.279999 -37.400002 -569.59003
-73.769997 -37.41 -569.63
-73.25 -37.41 -569.65002
-72.730003 -37.41 -569.72998
-72.239998 -37.43 -569.91998
-71.730003 -37.439999 -570.06
-71.239998 -37.450001 -570.33002
-70.75 -37.470001 -570.59003
-70.269997 -37.490002 -570.89001
-69.800003 -37.52 -571.34998
-69.339996 -37.549999 -571.82001
-68.879997 -37.59 -572.40002
-68.459999 -37.650002 -573.25
-68.099998 -37.740002 -574.65997
-62.09 -38.919998 -592.42999
-61.52 -38.900002 -592.14001
-60.950001 -38.889999 -591.90997
-60.369999 -38.860001 -591.52002
-59.810001 -38.849998 -591.34003
-59.240002 -38.84 -591.10999
-58.689999 -38.82 -590.95001
-58.139999 -38.82 -590.85999
-57.580002 -38.810001 -590.69
-57.02 -38.799999 -590.53003
-56.459999 -38.790001 -590.38
-55.91 -38.779999 -590.25
-55.349998 -38.759998 -590.04999
-54.799999 -38.75 -589.90997
-54.240002 -38.740002 -589.78003
-53.689999 -38.740002 -589.63
-53.139999 -38.73 -589.52002
-52.560001 -38.700001 -589.15002
-51.990002 -38.68 -588.83002
-51.43 -38.66 -588.53998
-50.860001 -38.639999 -588.23999
-50.299999 -38.619999 -587.97998
-49.740002 -38.610001 -587.72998
-49.189999 -38.599998 -587.63
-48.639999 -38.59 -587.42999
-48.080002 -38.57 -587.21002
-47.509998 -38.540001 -586.76001
-46.939999 -38.52 -586.44
-46.369999 -38.490002 -586
-45.799999 -38.470001 -585.62
-45.23 -38.439999 -585.21002
-44.66 -38.41 -584.77002
-44.09 -38.380001 -584.28003
-43.52 -38.34 -583.79999
-42.950001 -38.32 -583.40002
-42.380001 -38.290001 -582.94
-41.82 -38.259998 -582.5
-41.259998 -38.240002 -582.20001
-40.700001 -38.209999 -581.79999
-40.150002 -38.189999 -581.53003
-39.59 -38.169998 -581.21002
-39.040001 -38.150002 -580.90002
-38.490002 -38.130001 -580.63
-37.939999 -38.110001 -580.31
-37.369999 -38.080002 -579.85999
-36.82 -38.049999 -579.45001
-36.259998 -38.02 -579.02002
-35.700001 -37.990002 -578.5
-35.119999 -37.939999 -577.70001
-34.509998 -37.849998 -576.40997
-33.84 -37.689999 -574.06
-33.27 -37.639999 -573.29999
-32.709999 -37.599998 -572.69
-32.16 -37.580002 -572.34003
-31.620001 -37.549999 -571.95001
-31.08 -37.529999 -571.65002
-30.540001 -37.52 -571.42999
-30.01 -37.5 -571.23999
-29.48 -37.5 -571.17999
-28.959999 -37.5 -571.14001
-28.43 -37.5 -571.12
-27.91 -37.490002 -571.07001
-27.379999 -37.490002 -571.06
-26.860001 -37.490002 -571.09998
-26.34 -37.5 -571.13
-25.82 -37.5 -571.20001
-25.299999 -37.5 -571.26001
-24.790001 -37.52 -571.5
-24.290001 -37.560001 -572.10999
-23.77 -37.57 -572.28003
-23.25 -37.57 -572.27002
-22.700001 -37.540001 -571.72998
-22.139999 -37.48 -570.84998
-21.610001 -37.470001 -570.67999
-21.09 -37.470001 -570.71002
-20.57 -37.470001 -570.81
-20.059999 -37.490002 -571.03003
-19.540001 -37.5 -571.25
-19.030001 -37.52 -571.52002
-18.52 -37.540001 -571.87
-18.01 -37.580002 -572.35999
-17.49 -37.599998 -572.65997
-16.98 -37.619999 -572.96997
-16.459999 -37.630001 -573.14001
-15.94 -37.630001 -573.22998
-15.41 -37.639999 -573.33002
-14.89 -37.650002 -573.39001
-14.37 -37.66 -573.64001
-13.85 -37.68 -573.97998
-13.33 -37.689999 -574.03003
-12.8 -37.689999 -574.01001
-12.28 -37.700001 -574.15997
-11.76 -37.720001 -574.46002
-11.24 -37.73 -574.71002
-10.71 -37.709999 -574.35999
-10.18 -37.689999 -574.08002
-9.6499996 -37.689999 -574.04999
-9.1300001 -37.700001 -574.20001
-8.6099997 -37.720001 -574.58002
-8.0900002 -37.75 -574.92999
-7.5700002 -37.790001 -575.53998
-7.0500002 -37.830002 -576.22998
-6.5799999 -38.189999 -581.60999
-6.0599999 -38.259998 -582.65997
-5.54 -38.34 -583.77002
-5.0100002 -38.43 -585.15997
29.18 -46.849998 -711.38
31.26 -47.029999 -714.08002
31.91 -47.029999 -714.03003
32.560001 -47.009998 -713.78998
33.240002 -47.040001 -714.22998
33.939999 -47.110001 -715.28003
34.639999 -47.16 -716.02002
35.349998 -47.240002 -717.21002
36.040001 -47.27 -717.67999
36.650002 -47.220001 -716.87
37.279999 -47.169998 -716.23999
37.900002 -47.130001 -715.52002
38.52 -47.080002 -714.83002
39.139999 -47.040001 -714.22998
39.759998 -47 -713.58002
40.369999 -46.950001 -712.81
40.970001 -46.880001 -711.79999
41.580002 -46.82 -710.98999
42.189999 -46.779999 -710.29999
42.790001 -46.73 -709.51001
43.41 -46.689999 -708.97998
44.060001 -46.689999 -708.94
44.75 -46.73 -709.48999
45.470001 -46.799999 -710.60999
46.150002 -46.82 -710.94
46.84 -46.860001 -711.47998
47.48 -46.849998 -711.40002
48.099998 -46.82 -710.87
48.720001 -46.790001 -710.42999
49.34 -46.759998 -709.96997
49.970001 -46.73 -709.59998
50.610001 -46.73 -709.47998
51.310001 -46.759998 -710.04999
52.009998 -46.810001 -710.66998
52.689999 -46.830002 -711.03003
53.360001 -46.849998 -711.27002
54.009998 -46.84 -711.21997
54.66 -46.84 -711.17999
55.34 -46.869999 -711.57001
56.029999 -46.889999 -711.98999
56.700001 -46.91 -712.15002
57.330002 -46.880001 -711.83002
55.279999 -44.209999 -671.65997
55.830002 -44.150002 -670.83002
56.400002 -44.110001 -670.23999
56.98 -44.09 -669.91998
57.599998 -44.09 -669.90997
58.209999 -44.09 -669.84998
58.830002 -44.09 -669.88
59.450001 -44.09 -669.95001
60.080002 -44.110001 -670.15997
60.720001 -44.119999 -670.38
61.360001 -44.139999 -670.66998
62.02 -44.169998 -671.17999
62.700001 -44.209999 -671.76001
-153.81 -37.099998 -557.17999
-153.22 -37.080002 -556.89001
-152.7 -37.07 -556.84998
-152.23 -37.080002 -556.98999
-151.81 -37.110001 -557.34003
-151.42999 -37.139999 -557.79999
-151.05 -37.169998 -558.28003
-146.11 -41.110001 -616.40002
-145.45 -41.080002 -615.97998
-144.06 -40.84 -612.52002
-143.27 -40.779999 -611.57001
-143.72 -41.07 -615.84003
-143.23 -41.09 -616.14001
-142.66 -41.09 -616.13
-142.07001 -41.080002 -616.02002
-141.50999 -41.080002 -616.03998
-140.95 -41.080002 -616.07001
-140.37 -41.080002 -616.02002
-139.81 -41.080002 -616.06
-139.22 -41.07 -615.94
-138.64999 -41.07 -615.92999
-138.11 -41.080002 -616.03003
-137.56 -41.09 -616.09998
-137.03 -41.099998 -616.25
-136.52 -41.110001 -616.51001
-136 -41.130001 -616.71002
-135.47 -41.139999 -616.88
-134.97 -41.16 -617.16998
-134.41 -41.16 -617.16998
-133.92 -41.18 -617.53998
-133.38 -41.189999 -617.65997
-132.8 -41.189999 -617.62
-132.24001 -41.189999 -617.64001
-131.60001 -41.169998 -617.32001
-131.07001 -41.18 -617.46997
-130.56 -41.189999 -617.71997
-130.02 -41.200001 -617.84998
-129.42999 -41.200001 -617.76001
-80.529999 -38.169998 -573.12
-79.910004 -38.119999 -572.48999
-79.330002 -38.09 -572.03998
-78.709999 -38.049999 -571.40002
-78.129997 -38.02 -570.96997
-77.550003 -38 -570.59003
-77 -37.98 -570.35999
-76.449997 -37.970001 -570.16998
-75.900002 -37.950001 -569.97998
-75.370003 -37.950001 -569.92999
-74.839996 -37.939999 -569.84003
-74.309998 -37.939999 -569.78003
-73.790001 -37.939999 -569.81
-73.279999 -37.950001 -569.89001
-72.779999 -37.959999 -570.06
-72.269997 -37.959999 -570.15997
-71.769997 -37.98 -570.34003
-71.269997 -37.990002 -570.53998
-70.800003 -38.02 -570.94
-70.32 -38.040001 -571.28003
-69.839996 -38.07 -571.70001
-69.379997 -38.099998 -572.16998
-68.940002 -38.150002 -572.84998
-68.559998 -38.23 -574.08002
-68.260002 -38.349998 -575.95001
-63.099998 -39.41 -591.64001
-62.549999 -39.41 -591.64001
-61.970001 -39.389999 -591.28003
-61.41 -39.380001 -591.09998
-60.849998 -39.360001 -590.89001
-60.290001 -39.349998 -590.78003
-59.73 -39.34 -590.56
-59.169998 -39.330002 -590.40002
-58.599998 -39.310001 -590.12
-58.040001 -39.299999 -589.95001
-57.490002 -39.290001 -589.83002
-56.939999 -39.279999 -589.67999
-56.389999 -39.279999 -589.62
-55.84 -39.27 -589.53003
-55.299999 -39.27 -589.48999
-54.740002 -39.259998 -589.34003
-54.189999 -39.240002 -589.16998
-53.630001 -39.23 -589
-53.07 -39.220001 -588.77002
-52.509998 -39.200001 -588.53998
-51.939999 -39.18 -588.20001
-51.380001 -39.16 -587.97998
-50.810001 -39.139999 -587.67999
-50.25 -39.130001 -587.42999
-49.700001 -39.119999 -587.27002
-49.150002 -39.110001 -587.16998
-48.59 -39.09 -586.90997
-48.040001 -39.07 -586.66998
-47.470001 -39.049999 -586.29999
-46.91 -39.029999 -585.97998
-46.34 -39 -585.65002
-45.77 -38.98 -585.26001
-45.209999 -38.950001 -584.87
-44.639999 -38.919998 -584.45001
-44.060001 -38.889999 -583.89001
-43.5 -38.860001 -583.51001
-42.93 -38.830002 -583.04999
-42.360001 -38.799999 -582.67999
-41.799999 -38.779999 -582.27002
-41.25 -38.759998 -581.97998
-40.689999 -38.740002 -581.69
-40.139999 -38.709999 -581.37
-39.59 -38.700001 -581.09003
-39.029999 -38.68 -580.81
-38.48 -38.650002 -580.5
-37.93 -38.630001 -580.20001
-37.369999 -38.610001 -579.81
-36.810001 -38.580002 -579.40002
-36.25 -38.549999 -578.96002
-35.689999 -38.509998 -578.40002
-35.110001 -38.459999 -577.65997
-34.509998 -38.380001 -576.40997
-33.849998 -38.23 -574.23999
-33.279999 -38.18 -573.45001
-32.709999 -38.130001 -572.72998
-32.16 -38.099998 -572.32001
-31.610001 -38.07 -571.90997
-31.08 -38.049999 -571.64001
-30.540001 -38.040001 -571.38
-30.01 -38.029999 -571.33002
-29.48 -38.029999 -571.21002
-28.959999 -38.02 -571.15997
-28.43 -38.02 -571.13
-27.91 -38.02 -571.15002
-27.389999 -38.02 -571.13
-26.870001 -38.02 -571.21002
-26.34 -38.02 -571.15997
-25.82 -38.029999 -571.26001
-25.299999 -38.029999 -571.34003
-24.799999 -38.060001 -571.71002
-24.290001 -38.09 -572.15997
-23.77 -38.09 -572.25
-23.24 -38.09 -572.16998
-22.690001 -38.049999 -571.53998
-22.139999 -37.990002 -570.71997
-21.610001 -37.990002 -570.65002
-21.09 -37.990002 -570.71002
-20.57 -38 -570.81
-20.059999 -38.009998 -570.96997
-19.540001 -38.02 -571.13
-19.030001 -38.049999 -571.54999
-18.52 -38.07 -571.84998
-18.01 -38.099998 -572.28003
-17.49 -38.119999 -572.64001
-16.98 -38.139999 -572.98999
-16.459999 -38.16 -573.17999
-15.94 -38.16 -573.26001
-15.42 -38.169998 -573.39001
-14.89 -38.18 -573.52002
-14.37 -38.189999 -573.67999
-13.86 -38.209999 -574.03998
-13.33 -38.220001 -574.10999
-12.81 -38.23 -574.19
-12.28 -38.23 -574.31
-11.76 -38.25 -574.58002
-11.24 -38.259998 -574.71997
-10.71 -38.23 -574.34003
-10.17 -38.209999 -574.01001
-9.6499996 -38.220001 -574.06
-9.1300001 -38.220001 -574.17999
-8.6000004 -38.240002 -574.42999
-8.0799999 -38.27 -574.88
-7.5700002 -38.32 -575.53003
-7.0500002 -38.360001 -576.25
-6.5799999 -38.73 -581.65997
-6.0599999 -38.790001 -582.53003
-5.54 -38.860001 -583.63
-5.0100002 -38.950001 -584.92999
34.73 -47.950001 -717.90997
35.369999 -47.919998 -717.47998
36 -47.889999 -717.03998
36.639999 -47.849998 -716.57001
37.259998 -47.810001 -715.90002
37.880001 -47.77 -715.23999
38.52 -47.73 -714.77002
39.130001 -47.68 -713.92999
39.75 -47.639999 -713.40997
40.360001 -47.580002 -712.54999
40.970001 -47.529999 -711.76001
41.57 -47.470001 -710.87
42.18 -47.43 -710.21997
42.790001 -47.380001 -709.5
43.419998 -47.349998 -709.06
44.07 -47.349998 -709.15002
44.779999 -47.41 -709.96997
45.490002 -47.470001 -710.85999
46.18 -47.509998 -711.46997
46.860001 -47.529999 -711.78003
47.5 -47.52 -711.59998
48.110001 -47.48 -711.02002
48.73 -47.450001 -710.57001
49.349998 -47.419998 -710.06
49.990002 -47.400002 -709.84003
50.619999 -47.380001 -709.54999
51.310001 -47.419998 -710.09998
52 -47.450001 -710.57001
52.689999 -47.490002 -711.08002
53.360001 -47.5 -711.34003
54.02 -47.509998 -711.35999
54.669998 -47.5 -711.32001
55.360001 -47.529999 -711.72998
56.040001 -47.549999 -712.04999
56.709999 -47.57 -712.26001
57.389999 -47.59 -712.62
55.290001 -44.830002 -671.78998
55.830002 -44.77 -670.83002
56.389999 -44.720001 -670.21997
56.990002 -44.709999 -669.98999
57.580002 -44.689999 -669.71002
58.200001 -44.689999 -669.70001
58.810001 -44.689999 -669.70001
59.439999 -44.700001 -669.82001
60.060001 -44.709999 -669.92999
60.700001 -44.720001 -670.20001
61.34 -44.740002 -670.42999
62 -44.77 -670.92999
62.669998 -44.810001 -671.45001
-153.7 -37.580002 -556.78998
-153.11 -37.560001 -556.5
-152.61 -37.560001 -556.52002
-152.16 -37.580002 -556.73999
-151.72 -37.59 -557
-151.33 -37.619999 -557.41998
-150.94 -37.66 -557.88
-131 -37.650002 -557.82001
-130.42999 -37.639999 -557.58002
-143.24001 -41.66 -616.21997
-142.71001 -41.669998 -616.34998
-142.14 -41.669998 -616.33002
-141.57001 -41.669998 -616.32001
-141.00999 -41.669998 -616.32001
-140.44 -41.669998 -616.31
-139.87 -41.669998 -616.31
-139.3 -41.66 -616.27002
-138.73 -41.66 -616.25
-138.2 -41.669998 -616.40002
-137.67 -41.68 -616.57001
-137.14999 -41.700001 -616.79999
-136.64999 -41.720001 -617.08002
-136.14999 -41.740002 -617.35999
-135.67999 -41.77 -617.79999
-135.23 -41.799999 -618.34998
-134.8 -41.849998 -618.96997
-134.27 -41.860001 -619.14001
-133.82001 -41.900002 -619.69
-133.3 -41.91 -619.90997
-132.72 -41.91 -619.84998
-132.03999 -41.869999 -619.34003
-80.610001 -38.73 -573.71002
-79.980003 -38.68 -572.95001
-79.360001 -38.639999 -572.31
-78.760002 -38.59 -571.71002
-78.169998 -38.560001 -571.27002
-77.589996 -38.529999 -570.84003
-77.019997 -38.509998 -570.53998
-76.480003 -38.5 -570.38
-75.940002 -38.490002 -570.23999
-75.400002 -38.48 -570.12
-74.870003 -38.48 -570.04999
-74.349998 -38.48 -570.09003
-73.830002 -38.48 -570.10999
-73.32 -38.490002 -570.20001
-72.800003 -38.490002 -570.23999
-72.300003 -38.5 -570.40997
-71.809998 -38.52 -570.64001
-71.309998 -38.540001 -570.89001
-70.830002 -38.560001 -571.17999
-70.360001 -38.59 -571.65997
-69.889999 -38.619999 -572.07001
-69.440002 -38.66 -572.65002
-69.010002 -38.709999 -573.46002
-68.660004 -38.810001 -574.84998
-68.32 -38.919998 -576.44
-64.720001 -39.950001 -591.58002
-64.150002 -39.939999 -591.35999
-63.59 -39.919998 -591.15002
-63.009998 -39.900002 -590.88
-62.450001 -39.889999 -590.71002
-61.889999 -39.880001 -590.51001
-61.32 -39.860001 -590.26001
-60.759998 -39.849998 -590.07001
-60.200001 -39.830002 -589.84003
-59.639999 -39.82 -589.65002
-59.09 -39.810001 -589.54999
-58.529999 -39.799999 -589.37
-57.98 -39.799999 -589.32001
-57.419998 -39.779999 -589.14001
-56.869999 -39.779999 -589.03998
-56.32 -39.77 -588.91998
-55.77 -39.759998 -588.82001
-55.23 -39.759998 -588.76001
-54.68 -39.75 -588.65997
-54.130001 -39.740002 -588.52002
-53.57 -39.73 -588.40002
-53.02 -39.720001 -588.19
-52.459999 -39.700001 -588
-51.900002 -39.689999 -587.77002
-51.349998 -39.68 -587.59998
-50.779999 -39.650002 -587.23999
-50.220001 -39.639999 -587.03003
-49.66 -39.619999 -586.83002
-49.110001 -39.610001 -586.69
-48.560001 -39.599998 -586.5
-48 -39.580002 -586.25
-47.43 -39.560001 -585.88
-46.869999 -39.540001 -585.58002
-46.310001 -39.509998 -585.26001
-45.75 -39.5 -584.98999
-45.18 -39.470001 -584.54999
-44.619999 -39.439999 -584.17999
-44.040001 -39.41 -583.66998
-43.48 -39.380001 -583.27002
-42.919998 -39.349998 -582.90002
-42.349998 -39.32 -582.48999
-41.790001 -39.299999 -582.09003
-41.240002 -39.279999 -581.85999
-40.68 -39.259998 -581.57001
-40.139999 -39.240002 -581.34003
-39.580002 -39.23 -581.07001
-39.029999 -39.209999 -580.77002
-38.48 -39.18 -580.46002
-37.919998 -39.16 -580.10999
-37.369999 -39.130001 -579.75
-36.810001 -39.110001 -579.38
-36.25 -39.080002 -578.89001
-35.68 -39.040001 -578.33002
-35.110001 -38.990002 -577.63
-34.509998 -38.91 -576.48999
-33.860001 -38.77 -574.40002
-33.279999 -38.700001 -573.45001
-32.720001 -38.66 -572.82001
-32.169998 -38.630001 -572.42999
-31.620001 -38.599998 -572
-31.08 -38.580002 -571.65002
-30.540001 -38.57 -571.47998
-30.02 -38.560001 -571.38
-29.49 -38.549999 -571.27002
-28.959999 -38.549999 -571.28003
-28.440001 -38.549999 -571.25
-27.91 -38.549999 -571.23999
-27.389999 -38.549999 -571.20001
-26.870001 -38.549999 -571.28998
-26.35 -38.560001 -571.32001
-25.83 -38.560001 -571.34003
-25.309999 -38.560001 -571.46002
-24.799999 -38.59 -571.87
-24.290001 -38.619999 -572.21997
-23.77 -38.619999 -572.20001
-23.24 -38.610001 -572.10999
-22.690001 -38.560001 -571.34998
-22.139999 -38.509998 -570.66998
-21.610001 -38.509998 -570.62
-21.09 -38.509998 -570.65002
-20.57 -38.52 -570.77002
-20.059999 -38.529999 -571.01001
-19.540001 -38.549999 -571.27002
-19.030001 -38.57 -571.52002
-18.52 -38.59 -571.83002
-18.01 -38.630001 -572.38
-17.5 -38.650002 -572.71997
-16.98 -38.68 -573.13
-16.459999 -38.689999 -573.28003
-15.94 -38.700001 -573.44
-15.42 -38.700001 -573.5
-14.89 -38.709999 -573.53003
-14.38 -38.720001 -573.78998
-13.86 -38.75 -574.21002
-13.34 -38.759998 -574.40002
-12.81 -38.77 -574.42999
-12.29 -38.77 -574.53998
-11.77 -38.799999 -574.84003
-11.24 -38.790001 -574.82001
-10.71 -38.759998 -574.27002
-10.18 -38.740002 -574.03003
-9.6499996 -38.75 -574.10999
-9.1300001 -38.75 -574.21002
-8.6099997 -38.77 -574.48999
-8.0900002 -38.799999 -574.96997
-7.5700002 -38.849998 -575.65997
-7.0500002 -38.900002 -576.40002
-6.5799999 -39.25 -581.46997
-6.0599999 -39.32 -582.45001
-5.5300002 -39.389999 -583.47998
-5.0100002 -39.490002 -584.94
34.720001 -48.59 -717.71002
35.349998 -48.560001 -717.22998
35.990002 -48.529999 -716.83002
36.619999 -48.490002 -716.19
37.25 -48.450001 -715.59998
37.880001 -48.419998 -715.16998
38.509998 -48.380001 -714.59998
39.139999 -48.349998 -714.14001
39.759998 -48.310001 -713.59998
40.360001 -48.240002 -712.59998
40.959999 -48.18 -711.71002
41.57 -48.130001 -710.90997
42.18 -48.080002 -710.23999
42.799999 -48.040001 -709.60999
43.43 -48.009998 -709.23999
44.099998 -48.040001 -709.58002
44.799999 -48.080002 -710.26001
45.509998 -48.139999 -711.15997
46.23 -48.209999 -712.14001
46.880001 -48.209999 -712.15997
47.52 -48.200001 -711.97998
48.130001 -48.16 -711.32001
48.75 -48.119999 -710.72998
49.369999 -48.09 -710.28998
50 -48.07 -710
50.630001 -48.040001 -709.65997
51.330002 -48.09 -710.33002
52.029999 -48.130001 -710.94
52.720001 -48.16 -711.41998
53.389999 -48.18 -711.71997
54.049999 -48.189999 -711.73999
54.700001 -48.189999 -711.76001
55.380001 -48.200001 -711.98999
56.040001 -48.209999 -712.15002
56.73 -48.240002 -712.56
57.400002 -48.25 -712.67999
57.689999 -47.950001 -708.34998
55.299999 -45.450001 -671.82001
55.84 -45.389999 -670.91998
56.400002 -45.34 -670.22998
56.990002 -45.32 -669.98999
57.57 -45.299999 -669.63
58.18 -45.299999 -669.57001
58.799999 -45.299999 -669.62
59.419998 -45.299999 -669.62
60.049999 -45.32 -669.84998
60.68 -45.330002 -670
61.310001 -45.330002 -670.12
61.98 -45.369999 -670.65997
62.650002 -45.41 -671.26001
63.330002 -45.459999 -671.92999
-154.17999 -38.080002 -556.70001
-153.57001 -38.060001 -556.34003
-153.02 -38.049999 -556.20001
-152.53999 -38.049999 -556.28003
-152.08 -38.07 -556.46002
-151.64999 -38.09 -556.76001
-151.25 -38.119999 -557.15002
-150.86 -38.150002 -557.59003
-150.55 -38.200001 -558.32001
-132.46001 -38.290001 -559.63
-130.98 -38.009998 -555.59998
-130.47 -38.009998 -555.57001
-129.99001 -38.02 -555.71997
-129.60001 -38.049999 -556.20001
-141.52 -41.720001 -608.90997
-142.77 -42.25 -616.63
-142.22 -42.259998 -616.66998
-141.64999 -42.259998 -616.65997
-141.08 -42.25 -616.65002
-140.52 -42.259998 -616.67999
-139.92 -42.25 -616.53998
-139.38 -42.25 -616.63
-138.85001 -42.259998 -616.78998
-138.31 -42.27 -616.91998
-137.77 -42.279999 -617
-137.27 -42.299999 -617.31
-136.78999 -42.330002 -617.67999
-136.35001 -42.369999 -618.25
-135.91 -42.41 -618.84998
-135.49001 -42.450001 -619.5
-135.02 -42.48 -619.96997
-134.48 -42.490002 -620.09998
-133.95 -42.5 -620.25
-133.36 -42.5 -620.16998
-80.019997 -39.220001 -573.20001
-79.410004 -39.18 -572.62
-78.800003 -39.139999 -571.98999
-78.199997 -39.110001 -571.52002
-77.620003 -39.080002 -571.09003
-77.059998 -39.049999 -570.78998
-76.489998 -39.029999 -570.46997
-75.949997 -39.02 -570.37
-75.43 -39.029999 -570.39001
-74.910004 -39.02 -570.34998
-74.379997 -39.02 -570.34003
-73.870003 -39.029999 -570.40002
-73.349998 -39.029999 -570.45001
-72.849998 -39.040001 -570.59003
-72.339996 -39.049999 -570.69
-71.839996 -39.060001 -570.94
-71.370003 -39.09 -571.28998
-70.879997 -39.110001 -571.57001
-70.400002 -39.130001 -571.96002
-69.949997 -39.169998 -572.51001
-69.510002 -39.220001 -573.23999
-69.089996 -39.279999 -574.12
-68.720001 -39.369999 -575.39001
-68.339996 -39.459999 -576.62
-67.970001 -39.549999 -577.96997
-65.75 -40.459999 -591.07001
-65.160004 -40.43 -590.71002
-64.599998 -40.419998 -590.53003
-64.040001 -40.41 -590.40002
-63.48 -40.400002 -590.21002
-62.91 -40.380001 -589.92999
-62.349998 -40.369999 -589.75
-61.790001 -40.360001 -589.59003
-61.240002 -40.349998 -589.51001
-60.689999 -40.34 -589.39001
-60.130001 -40.330002 -589.21002
-59.57 -40.310001 -589
-59 -40.299999 -588.72998
-58.450001 -40.290001 -588.58002
-57.900002 -40.279999 -588.5
-57.349998 -40.27 -588.37
-56.799999 -40.27 -588.31
-56.259998 -40.259998 -588.26001
-55.720001 -40.259998 -588.23999
-55.169998 -40.259998 -588.16998
-54.619999 -40.25 -588.08002
-54.07 -40.240002 -587.94
-53.52 -40.23 -587.83002
-52.970001 -40.220001 -587.69
-52.419998 -40.209999 -587.54999
-51.869999 -40.200001 -587.39001
-51.310001 -40.189999 -587.20001
-50.740002 -40.16 -586.88
-50.18 -40.139999 -586.58002
-49.630001 -40.130001 -586.41998
-49.080002 -40.119999 -586.27002
-48.52 -40.099998 -586.02002
-47.970001 -40.09 -585.83002
-47.41 -40.07 -585.53003
-46.84 -40.049999 -585.19
-46.279999 -40.029999 -584.92999
-45.720001 -40.009998 -584.59998
-45.150002 -39.98 -584.20001
-44.59 -39.950001 -583.84003
-44.02 -39.919998 -583.42999
-43.459999 -39.900002 -583.03998
-42.900002 -39.869999 -582.69
-42.34 -39.849998 -582.39001
-41.779999 -39.82 -582
-41.23 -39.810001 -581.76001
-40.68 -39.790001 -581.52002
-40.119999 -39.77 -581.19
-39.57 -39.75 -580.90997
-39.02 -39.73 -580.67999
-38.470001 -39.709999 -580.39001
-37.919998 -39.689999 -580.13
-37.360001 -39.66 -579.71002
-36.810001 -39.639999 -579.31
-36.240002 -39.599998 -578.78998
-35.68 -39.560001 -578.21002
-35.099998 -39.509998 -577.48999
-34.509998 -39.43 -576.41998
-33.869999 -39.299999 -574.51001
-33.290001 -39.240002 -573.58002
-32.720001 -39.189999 -572.89001
-32.169998 -39.16 -572.47998
-31.620001 -39.130001 -572.06
-31.08 -39.110001 -571.70001
-30.549999 -39.09 -571.51001
-30.02 -39.09 -571.40002
-29.49 -39.080002 -571.38
-28.969999 -39.080002 -571.34003
-28.440001 -39.080002 -571.35999
-27.92 -39.07 -571.26001
-27.4 -39.080002 -571.34998
-26.870001 -39.080002 -571.34003
-26.35 -39.080002 -571.33002
-25.83 -39.09 -571.41998
-25.309999 -39.09 -571.52002
-24.809999 -39.119999 -571.96997
-24.290001 -39.139999 -572.20001
-23.77 -39.139999 -572.16998
-23.24 -39.130001 -572.08002
-22.68 -39.07 -571.15997
-22.139999 -39.029999 -570.65997
-21.610001 -39.029999 -570.58002
-21.09 -39.029999 -570.57001
-20.57 -39.040001 -570.73999
-20.059999 -39.060001 -571.04999
-19.540001 -39.07 -571.20001
-19.030001 -39.09 -571.53003
-18.52 -39.119999 -571.89001
-18.01 -39.150002 -572.32001
-17.5 -39.18 -572.78998
-16.99 -39.209999 -573.22998
-16.469999 -39.23 -573.54999
-15.95 -39.23 -573.58002
-15.42 -39.240002 -573.59998
-14.9 -39.240002 -573.65997
-14.38 -39.259998 -573.92999
-13.87 -39.299999 -574.46997
-13.35 -39.32 -574.73999
-12.83 -39.330002 -574.95001
-12.3 -39.34 -575.03998
-11.77 -39.330002 -574.97998
-11.24 -39.310001 -574.69
-10.71 -39.290001 -574.37
-10.18 -39.27 -574.12
-9.6499996 -39.27 -574.07001
-9.1300001 -39.279999 -574.26001
-8.6099997 -39.310001 -574.59998
-8.0900002 -39.34 -575.14001
-7.5700002 -39.380001 -575.70001
-7.0500002 -39.43 -576.37
-6.5799999 -39.790001 -581.60999
-6.0599999 -39.849998 -582.38
-5.5300002 -39.91 -583.34998
-5.0100002 -40.009998 -584.71997
35.349998 -49.220001 -717.21002
35.98 -49.169998 -716.60999
36.619999 -49.150002 -716.19
37.259998 -49.130001 -715.92999
37.889999 -49.080002 -715.27002
38.52 -49.049999 -714.83002
39.139999 -49 -714.12
39.75 -48.950001 -713.29999
40.360001 -48.889999 -712.56
40.959999 -48.830002 -711.70001
41.580002 -48.790001 -711.06
42.200001 -48.75 -710.46997
42.799999 -48.689999 -709.57001
43.450001 -48.689999 -709.60999
44.119999 -48.709999 -709.94
44.830002 -48.77 -710.76001
45.560001 -48.849998 -711.95001
46.27 -48.91 -712.78003
46.900002 -48.889999 -712.48999
47.529999 -48.869999 -712.15002
48.150002 -48.82 -711.53003
48.759998 -48.790001 -710.98999
49.389999 -48.759998 -710.54999
50.02 -48.73 -710.21997
50.66 -48.73 -710.10999
51.369999 -48.779999 -710.87
52.040001 -48.799999 -711.19
52.73 -48.830002 -711.58002
53.41 -48.860001 -712.01001
54.07 -48.860001 -712.01001
54.720001 -48.849998 -711.96002
55.389999 -48.869999 -712.10999
56.049999 -48.880001 -712.26001
56.73 -48.889999 -712.52002
57.400002 -48.91 -712.71002
58.07 -48.919998 -712.92999
55.779999 -46.470001 -677.65002
55.849998 -46.009998 -671.03003
56.400002 -45.959999 -670.27002
56.98 -45.93 -669.88
57.57 -45.91 -669.60999
58.169998 -45.900002 -669.46002
58.790001 -45.900002 -669.46002
59.400002 -45.900002 -669.42999
60.02 -45.91 -669.52002
60.66 -45.93 -669.77002
61.299999 -45.939999 -670.01001
61.939999 -45.959999 -670.29999
62.599998 -45.990002 -670.70001
63.25 -46.02 -671.13
-154.07001 -38.560001 -556.28998
-153.5 -38.549999 -556.07001
-152.98 -38.549999 -556.03003
-152.49001 -38.549999 -556.09003
-152.03 -38.57 -556.29999
-151.59 -38.580002 -556.52002
-151.17999 -38.610001 -556.90002
-150.81 -38.639999 -557.40002
-150.48 -38.689999 -558.07001
-148.83 -42.93 -618.27002
-148.07001 -42.880001 -617.46997
-131.45 -38.509998 -555.41998
-130.91 -38.5 -555.29999
-130.39999 -38.5 -555.31
-129.95 -38.509998 -555.52002
-129.50999 -38.540001 -555.84998
-142.8 -42.830002 -616.72998
-142.24001 -42.830002 -616.73999
-141.69 -42.830002 -616.84998
-141.14999 -42.84 -616.94
-140.60001 -42.849998 -617.03003
-140.06 -42.849998 -617.14001
-139.52 -42.860001 -617.22998
-138.98 -42.869999 -617.34003
-138.44 -42.880001 -617.48999
-137.95 -42.900002 -617.78998
-137.46001 -42.919998 -618.13
-137 -42.959999 -618.60999
-136.55 -43 -619.15002
-136.05 -43.02 -619.46997
-135.58 -43.049999 -619.89001
-135 -43.049999 -619.85999
-134.39999 -43.029999 -619.70001
-95.739998 -43.040001 -619.88
-80.07 -39.77 -573.57001
-79.449997 -39.73 -572.94
-78.830002 -39.68 -572.25
-78.239998 -39.650002 -571.79999
-77.660004 -39.619999 -571.35999
-77.099998 -39.599998 -571.09003
-76.540001 -39.580002 -570.79999
-75.989998 -39.57 -570.64001
-75.470001 -39.57 -570.63
-74.949997 -39.57 -570.65002
-74.419998 -39.57 -570.63
-73.910004 -39.57 -570.70001
-73.389999 -39.57 -570.76001
-72.879997 -39.580002 -570.85999
-72.379997 -39.59 -571.04999
-71.889999 -39.610001 -571.28003
-71.410004 -39.630001 -571.60999
-70.919998 -39.66 -571.91998
-70.449997 -39.68 -572.34003
-69.989998 -39.720001 -572.90002
-69.559998 -39.779999 -573.66998
-69.129997 -39.830002 -574.40997
-68.75 -39.91 -575.59003
-68.32 -39.98 -576.47998
-67.959999 -40.07 -577.83002
-66.18 -40.939999 -590.15997
-65.639999 -40.93 -590.12
-65.059998 -40.91 -589.78003
-64.5 -40.900002 -589.65997
-63.939999 -40.889999 -589.47998
-63.389999 -40.880001 -589.35999
-62.84 -40.869999 -589.27002
-62.279999 -40.860001 -589.10999
-61.720001 -40.849998 -588.94
-61.169998 -40.84 -588.79999
-60.619999 -40.830002 -588.69
-60.060001 -40.82 -588.54999
-59.5 -40.810001 -588.29999
-58.950001 -40.799999 -588.15997
-58.389999 -40.779999 -588.01001
-57.849998 -40.779999 -587.95001
-57.299999 -40.77 -587.84998
-56.75 -40.77 -587.78003
-56.209999 -40.759998 -587.71997
-55.66 -40.759998 -587.67999
-55.119999 -40.75 -587.60999
-54.580002 -40.75 -587.57001
-54.029999 -40.75 -587.47998
-53.48 -40.740002 -587.40002
-52.93 -40.73 -587.28998
-52.389999 -40.73 -587.19
-51.830002 -40.709999 -586.94
-51.279999 -40.700001 -586.82001
-50.720001 -40.68 -586.58002
-50.150002 -40.66 -586.25
-49.599998 -40.650002 -586.09003
-49.049999 -40.639999 -585.92999
-48.5 -40.619999 -585.71997
-47.93 -40.599998 -585.42999
-47.369999 -40.580002 -585.13
-46.82 -40.560001 -584.87
-46.259998 -40.540001 -584.58002
-45.700001 -40.52 -584.28003
-45.130001 -40.490002 -583.95001
-44.580002 -40.470001 -583.63
-44.009998 -40.439999 -583.19
-43.450001 -40.419998 -582.91998
-42.889999 -40.400002 -582.56
-42.34 -40.380001 -582.34003
-41.779999 -40.360001 -581.97998
-41.23 -40.34 -581.71997
-40.669998 -40.32 -581.42999
-40.119999 -40.299999 -581.17999
-39.57 -40.279999 -580.90997
-39.02 -40.259998 -580.64001
-38.470001 -40.240002 -580.29999
-37.919998 -40.220001 -580.07001
-37.369999 -40.200001 -579.71997
-36.810001 -40.169998 -579.33002
-36.25 -40.130001 -578.81
-35.68 -40.09 -578.19
-35.099998 -40.040001 -577.5
-34.509998 -39.959999 -576.37
-33.880001 -39.84 -574.75
-33.290001 -39.77 -573.71997
-32.720001 -39.720001 -572.95001
-32.169998 -39.689999 -572.53003
-31.629999 -39.66 -572.13
-31.09 -39.639999 -571.83002
-30.549999 -39.619999 -571.60999
-30.02 -39.619999 -571.5
-29.49 -39.610001 -571.44
-28.969999 -39.610001 -571.46997
-28.440001 -39.610001 -571.38
-27.92 -39.610001 -571.45001
-27.4 -39.610001 -571.44
-26.879999 -39.619999 -571.53003
-26.360001 -39.619999 -571.58002
-25.84 -39.619999 -571.59998
-25.32 -39.639999 -571.83002
-24.809999 -39.66 -572.07001
-24.290001 -39.66 -572.21002
-23.77 -39.66 -572.16998
-23.24 -39.650002 -572.06
-22.68 -39.59 -571.09003
-22.129999 -39.549999 -570.60999
-21.610001 -39.549999 -570.59998
-21.09 -39.549999 -570.63
-20.57 -39.560001 -570.72998
-20.059999 -39.57 -570.92999
-19.540001 -39.59 -571.21997
-19.030001 -39.619999 -571.56
-18.52 -39.639999 -571.92999
-18.01 -39.68 -572.41998
-17.5 -39.709999 -572.88
-16.99 -39.740002 -573.34003
-16.469999 -39.759998 -573.58002
-15.95 -39.77 -573.78998
-15.43 -39.779999 -573.79999
-14.9 -39.779999 -573.89001
-14.38 -39.799999 -574.15002
-13.87 -39.84 -574.77002
-13.36 -39.869999 -575.17999
-12.83 -39.880001 -575.28003
-12.31 -39.880001 -575.29999
-11.77 -39.860001 -574.96002
-11.24 -39.830002 -574.54999
-10.71 -39.810001 -574.28998
-10.18 -39.799999 -574.19
-9.6499996 -39.810001 -574.25
-9.1300001 -39.82 -574.40002
-8.6099997 -39.84 -574.76001
-8.0900002 -39.880001 -575.22998
-7.5700002 -39.919998 -575.83002
-7.0599999 -40.029999 -577.40002
-6.5799999 -40.32 -581.60999
-6.0599999 -40.369999 -582.31
-5.5300002 -40.439999 -583.28003
-5.0100002 -40.540001 -584.60999
35.349998 -49.869999 -717.19
36 -49.849998 -716.87
36.630001 -49.810001 -716.31
37.25 -49.77 -715.76001
37.880001 -49.73 -715.21002
38.509998 -49.700001 -714.71997
39.130001 -49.650002 -714.02002
39.740002 -49.599998 -713.27002
40.349998 -49.540001 -712.38
40.950001 -49.470001 -711.51001
41.580002 -49.439999 -710.97998
42.209999 -49.41 -710.62
42.84 -49.389999 -710.26001
43.48 -49.369999 -710.02002
44.150002 -49.400002 -710.41998
44.900002 -49.5 -711.85999
45.630001 -49.59 -713.09998
46.310001 -49.610001 -713.35999
46.93 -49.580002 -712.92999
47.540001 -49.529999 -712.28003
48.150002 -49.48 -711.59998
48.779999 -49.450001 -711.15997
49.41 -49.43 -710.91998
50.040001 -49.41 -710.62
50.700001 -49.419998 -710.71002
51.369999 -49.439999 -710.92999
52.040001 -49.450001 -711.15002
52.75 -49.5 -711.84998
53.450001 -49.549999 -712.48999
54.099998 -49.540001 -712.38
54.740002 -49.529999 -712.27002
55.41 -49.540001 -712.38
56.09 -49.560001 -712.70001
56.740002 -49.560001 -712.71997
57.41 -49.57 -712.84998
58.07 -49.580002 -712.94
55.860001 -46.639999 -671.14001
56.400002 -46.57 -670.23999
56.990002 -46.549999 -669.92999
57.580002 -46.529999 -669.70001
58.18 -46.52 -669.46997
58.779999 -46.509998 -669.34998
59.389999 -46.509998 -669.34003
60.02 -46.52 -669.48999
60.639999 -46.52 -669.5
61.279999 -46.540001 -669.76001
61.919998 -46.560001 -670.09998
62.580002 -46.599998 -670.53998
63.25 -46.639999 -671.13
-153.99001 -39.049999 -556
-153.45 -39.049999 -555.89001
-152.94 -39.049999 -555.89001
-152.44 -39.049999 -555.92999
-151.99001 -39.060001 -556.15002
-151.53999 -39.080002 -556.35999
-151.14999 -39.110001 -556.78003
-150.75999 -39.139999 -557.21997
-150.42999 -39.189999 -557.87
-150.14999 -39.25 -558.71997
-149.42 -43.509998 -618.34003
-148.67 -43.450001 -617.59998
-147.98 -43.419998 -617.09998
-131.96001 -39.009998 -555.40997
-131.36 -38.990002 -555.04999
-130.86 -38.990002 -555.07001
-130.38 -39 -555.20001
-129.92 -39.02 -555.41998
-129.5 -39.040001 -555.78998
-142.87 -43.41 -617.03003
-142.32001 -43.419998 -617.12
-141.77 -43.419998 -617.17999
-141.23 -43.43 -617.31
-140.69 -43.439999 -617.41998
-140.14999 -43.450001 -617.52002
-139.64999 -43.470001 -617.78998
-139.10001 -43.470001 -617.88
-138.59 -43.490002 -618.12
-138.10001 -43.52 -618.46002
-137.66 -43.560001 -619.03998
-137.23 -43.599998 -619.64001
-136.8 -43.639999 -620.26001
-136.25999 -43.650002 -620.40002
-135.67 -43.650002 -620.29999
-99.760002 -43.630001 -620.10999
-99.139999 -43.599998 -619.79999
-98.57 -43.599998 -619.79999
-97.919998 -43.57 -619.32001
-97.32 -43.549999 -619.08002
-96.720001 -43.540001 -618.88
-96.150002 -43.540001 -618.87
-95.57 -43.529999 -618.79999
-95.010002 -43.540001 -618.87
-94.5 -43.560001 -619.22998
-93.980003 -43.580002 -619.56
-93.459999 -43.599998 -619.84003
-80.080002 -40.310001 -573.66998
-79.489998 -40.27 -573.16998
-78.870003 -40.23 -572.54999
-78.290001 -40.200001 -572.13
-77.699997 -40.16 -571.65997
-77.129997 -40.139999 -571.34003
-76.57 -40.119999 -571.03998
-76.029999 -40.110001 -570.92999
-75.510002 -40.110001 -570.91998
-74.970001 -40.099998 -570.85999
-74.449997 -40.110001 -570.89001
-73.940002 -40.110001 -570.95001
-73.43 -40.119999 -571.06
-72.910004 -40.119999 -571.09003
-72.410004 -40.139999 -571.29999
-71.919998 -40.150002 -571.53003
-71.440002 -40.18 -571.85999
-70.949997 -40.200001 -572.16998
-70.5 -40.240002 -572.71997
-70.040001 -40.27 -573.22998
-69.610001 -40.330002 -574.04999
-69.160004 -40.380001 -574.69
-68.739998 -40.439999 -575.53998
-68.32 -40.5 -576.46002
-67.940002 -40.59 -577.66998
-66.080002 -41.41 -589.27002
-65.529999 -41.41 -589.16998
-64.970001 -41.389999 -588.97998
-64.410004 -41.380001 -588.78998
-63.860001 -41.369999 -588.69
-63.299999 -41.360001 -588.54999
-62.75 -41.360001 -588.46002
-62.200001 -41.349998 -588.35999
-61.650002 -41.34 -588.20001
-61.099998 -41.330002 -588.15997
-60.540001 -41.32 -587.98999
-60 -41.310001 -587.89001
-59.43 -41.299999 -587.66998
-58.880001 -41.290001 -587.56
-58.330002 -41.279999 -587.40002
-57.779999 -41.27 -587.29999
-57.240002 -41.27 -587.29999
-56.700001 -41.27 -587.22998
-56.16 -41.27 -587.22998
-55.610001 -41.259998 -587.15997
-55.07 -41.259998 -587.12
-54.540001 -41.259998 -587.14001
-53.990002 -41.25 -587.07001
-53.439999 -41.25 -586.96002
-52.889999 -41.240002 -586.82001
-52.34 -41.23 -586.71002
-51.790001 -41.220001 -586.56
-51.240002 -41.209999 -586.40002
-50.68 -41.189999 -586.17999
-50.119999 -41.169998 -585.91998
-49.57 -41.16 -585.73999
-49.02 -41.139999 -585.53003
-48.459999 -41.130001 -585.28998
-47.900002 -41.110001 -585.07001
-47.349998 -41.09 -584.78998
-46.790001 -41.07 -584.53003
-46.23 -41.049999 -584.23999
-45.669998 -41.029999 -583.96997
-45.110001 -41.009998 -583.69
-44.560001 -40.990002 -583.40997
-43.990002 -40.959999 -583.03998
-43.439999 -40.950001 -582.77002
-42.880001 -40.93 -582.48999
-42.330002 -40.91 -582.23999
-41.779999 -40.889999 -581.92999
-41.220001 -40.860001 -581.63
-40.669998 -40.84 -581.34998
-40.119999 -40.82 -581.06
-39.560001 -40.799999 -580.77002
-39.02 -40.790001 -580.56
-38.470001 -40.77 -580.27002
-37.919998 -40.75 -580.04999
-37.360001 -40.720001 -579.59998
-36.799999 -40.689999 -579.25
-36.240002 -40.650002 -578.70001
-35.669998 -40.610001 -578.13
-35.099998 -40.560001 -577.40997
-34.5 -40.490002 -576.34998
-33.900002 -40.389999 -574.98999
-33.299999 -40.310001 -573.83002
-32.720001 -40.240002 -572.97998
-32.18 -40.220001 -572.57001
-31.629999 -40.189999 -572.19
-31.09 -40.169998 -571.85999
-30.549999 -40.150002 -571.65002
-30.02 -40.139999 -571.53998
-29.5 -40.139999 -571.53003
-28.98 -40.139999 -571.52002
-28.450001 -40.139999 -571.5
-27.93 -40.139999 -571.53998
-27.41 -40.150002 -571.59998
-26.889999 -40.150002 -571.62
-26.360001 -40.150002 -571.65002
-25.84 -40.150002 -571.65002
-25.33 -40.16 -571.84998
-24.809999 -40.169998 -571.96997
-24.290001 -40.18 -572.07001
-23.77 -40.189999 -572.16998
-23.24 -40.18 -572.07001
-22.68 -40.110001 -571.07001
-22.129999 -40.07 -570.59003
-21.610001 -40.07 -570.58002
-21.09 -40.080002 -570.64001
-20.57 -40.09 -570.81
-20.059999 -40.099998 -570.96002
-19.540001 -40.119999 -571.27002
-19.030001 -40.150002 -571.62
-18.52 -40.169998 -571.95001
-18.01 -40.209999 -572.46002
-17.5 -40.240002 -572.96002
-16.99 -40.279999 -573.45001
-16.48 -40.299999 -573.77002
-15.96 -40.310001 -573.94
-15.44 -40.32 -574.13
-14.91 -40.330002 -574.21997
-14.39 -40.349998 -574.41998
-13.88 -40.380001 -574.85999
-13.36 -40.400002 -575.15002
-12.83 -40.389999 -575.08002
-12.3 -40.380001 -574.84003
-11.77 -40.360001 -574.63
-11.24 -40.349998 -574.46002
-10.71 -40.34 -574.28003
-10.18 -40.34 -574.29999
-9.6499996 -40.34 -574.34003
-9.1300001 -40.349998 -574.53998
-8.6099997 -40.380001 -574.95001
-8.0900002 -40.41 -575.26001
-7.5700002 -40.439999 -575.79999
-7.0700002 -40.619999 -578.32001
-6.5799999 -40.860001 -581.59998
-6.0599999 -40.900002 -582.21997
-5.5300002 -40.98 -583.26001
-5.0100002 -41.07 -584.59003
35.349998 -50.529999 -717.15002
35.98 -50.490002 -716.57001
36.610001 -50.450001 -716.07001
37.25 -50.419998 -715.59998
37.860001 -50.360001 -714.76001
38.490002 -50.330002 -714.35999
39.119999 -50.290001 -713.75
39.73 -50.240002 -713.08002
40.34 -50.18 -712.19
40.950001 -50.119999 -711.45001
41.57 -50.080002 -710.88
42.200001 -50.060001 -710.52002
42.830002 -50.029999 -710.14001
43.470001 -50.02 -709.98999
44.23 -50.130001 -711.58002
44.990002 -50.259998 -713.28003
45.689999 -50.310001 -713.96997
46.330002 -50.279999 -713.67999
46.939999 -50.240002 -713.08002
47.549999 -50.189999 -712.39001
48.169998 -50.16 -711.89001
48.799999 -50.139999 -711.58002
49.419998 -50.099998 -711.02002
50.07 -50.099998 -711.02002
50.709999 -50.080002 -710.78998
51.380001 -50.09 -711
52.060001 -50.119999 -711.39001
52.790001 -50.189999 -712.38
53.470001 -50.220001 -712.71002
54.110001 -50.209999 -712.59003
54.75 -50.189999 -712.38
55.43 -50.220001 -712.71997
56.09 -50.220001 -712.78003
56.75 -50.23 -712.82001
57.43 -50.25 -713.12
58.07 -50.23 -712.92999
55.869999 -47.259998 -671.23999
56.400002 -47.189999 -670.28003
56.970001 -47.150002 -669.77002
57.560001 -47.130001 -669.42999
58.150002 -47.119999 -669.22998
58.77 -47.119999 -669.21997
59.380001 -47.110001 -669.16998
60 -47.110001 -669.20001
60.630001 -47.130001 -669.39001
61.259998 -47.139999 -669.59998
61.900002 -47.16 -669.79999
62.549999 -47.189999 -670.21997
63.220001 -47.23 -670.83002
-154.59 -39.59 -556.34003
-153.95 -39.549999 -555.87
-153.41 -39.549999 -555.77002
-152.89 -39.540001 -555.71997
-152.39999 -39.549999 -555.79999
-151.96001 -39.57 -556.02002
-151.52 -39.580002 -556.27002
-151.11 -39.610001 -556.63
-150.72 -39.639999 -557.07001
-150.38 -39.689999 -557.69
-150.05 -39.740002 -558.37
-150.07001 -44.099998 -618.67999
-149.28 -44.029999 -617.78003
-148.59 -44 -617.28998
-147.83 -43.939999 -616.47998
-132.50999 -39.540001 -555.59003
-131.88 -39.5 -555.10999
-131.33 -39.490002 -554.90997
-130.82001 -39.490002 -554.94
-130.35001 -39.5 -555.09003
-129.91 -39.52 -555.34998
-129.48 -39.540001 -555.71002
-142.95 -44 -617.35999
-142.38 -44 -617.37
-141.84 -44.009998 -617.48999
-141.28999 -44.02 -617.56
-140.78999 -44.040001 -617.82001
-140.25 -44.049999 -617.95001
-139.75 -44.07 -618.26001
-139.22 -44.080002 -618.42999
-138.75 -44.110001 -618.84003
-138.28 -44.139999 -619.28003
-137.85001 -44.189999 -619.89001
-137.38 -44.220001 -620.29999
-136.88 -44.240002 -620.65002
-136.3 -44.240002 -620.59998
-102.05 -44.200001 -620.20001
-101.47 -44.189999 -620.10999
-100.84 -44.169998 -619.73999
-100.19 -44.130001 -619.27002
-99.580002 -44.119999 -619.02002
-98.989998 -44.099998 -618.84998
-98.389999 -44.09 -618.65997
-97.769997 -44.07 -618.34998
-97.18 -44.049999 -618.19
-96.559998 -44.029999 -617.90002
-95.980003 -44.02 -617.78003
-95.419998 -44.029999 -617.84003
-94.889999 -44.049999 -618.07001
-94.379997 -44.07 -618.46997
-93.849998 -44.09 -618.69
-93.32 -44.110001 -618.96997
-92.800003 -44.130001 -619.23999
-80.169998 -40.869999 -574.25
-79.510002 -40.810001 -573.37
-78.919998 -40.77 -572.87
-78.330002 -40.740002 -572.41998
-77.75 -40.709999 -572.02002
-77.169998 -40.68 -571.63
-76.610001 -40.66 -571.34998
-76.080002 -40.66 -571.27002
-75.529999 -40.650002 -571.13
-75.010002 -40.650002 -571.09998
-74.480003 -40.639999 -571.08002
-73.959999 -40.650002 -571.13
-73.470001 -40.66 -571.33002
-72.949997 -40.669998 -571.41998
-72.449997 -40.68 -571.57001
-71.959999 -40.700001 -571.84998
-71.470001 -40.720001 -572.10999
-70.989998 -40.740002 -572.46997
-70.529999 -40.779999 -572.97998
-70.080002 -40.82 -573.56
-69.629997 -40.869999 -574.17999
-69.160004 -40.900002 -574.66998
-68.730003 -40.959999 -575.44
-68.309998 -41.02 -576.33002
-67.919998 -41.099998 -577.47998
-67.489998 -41.169998 -578.37
-65.970001 -41.880001 -588.28998
-65.43 -41.880001 -588.25
-64.879997 -41.869999 -588.15002
-64.330002 -41.869999 -588.04999
-63.779999 -41.860001 -588.01001
-63.23 -41.860001 -587.91998
-62.689999 -41.849998 -587.84998
-62.130001 -41.84 -587.71002
-61.580002 -41.830002 -587.57001
-61.029999 -41.82 -587.47998
-60.48 -41.810001 -587.33002
-59.93 -41.810001 -587.28003
-59.380001 -41.799999 -587.14001
-58.830002 -41.790001 -587.06
-58.279999 -41.790001 -586.95001
-57.73 -41.779999 -586.83002
-57.189999 -41.77 -586.79999
-56.66 -41.779999 -586.81
-56.110001 -41.77 -586.75
-55.57 -41.77 -586.71002
-55.029999 -41.77 -586.72998
-54.490002 -41.759998 -586.62
-53.950001 -41.759998 -586.64001
-53.400002 -41.75 -586.53998
-52.860001 -41.75 -586.45001
-52.310001 -41.740002 -586.32001
-51.759998 -41.73 -586.20001
-51.209999 -41.720001 -586.07001
-50.650002 -41.700001 -585.83002
-50.099998 -41.689999 -585.59003
-49.540001 -41.669998 -585.35999
-48.990002 -41.650002 -585.16998
-48.439999 -41.639999 -585.01001
-47.880001 -41.630001 -584.77002
-47.32 -41.610001 -584.5
-46.77 -41.59 -584.27002
-46.209999 -41.57 -583.97998
-45.650002 -41.549999 -583.67999
-45.099998 -41.540001 -583.53998
-44.540001 -41.509998 -583.22998
-43.990002 -41.490002 -582.91998
-43.43 -41.470001 -582.66998
-42.880001 -41.459999 -582.44
-42.330002 -41.439999 -582.19
-41.779999 -41.43 -582.02002
-41.23 -41.400002 -581.73999
-40.669998 -41.380001 -581.38
-40.119999 -41.360001 -581.07001
-39.57 -41.34 -580.83002
-39.009998 -41.32 -580.51001
-38.459999 -41.290001 -580.21997
-37.91 -41.27 -579.92999
-37.360001 -41.25 -579.58002
-36.799999 -41.220001 -579.14001
-36.240002 -41.18 -578.67999
-35.669998 -41.139999 -578.08002
-35.09 -41.080002 -577.31
-34.509998 -41.009998 -576.35999
-33.91 -40.939999 -575.28003
-33.310001 -40.84 -573.96002
-32.73 -40.779999 -573.10999
-32.189999 -40.75 -572.72998
-31.629999 -40.709999 -572.21002
-31.1 -40.700001 -572
-30.559999 -40.689999 -571.82001
-30.030001 -40.669998 -571.62
-29.5 -40.669998 -571.60999
-28.98 -40.669998 -571.60999
-28.459999 -40.669998 -571.62
-27.93 -40.669998 -571.62
-27.41 -40.669998 -571.57001
-26.889999 -40.68 -571.69
-26.370001 -40.689999 -571.85999
-25.85 -40.689999 -571.84998
-25.32 -40.689999 -571.82001
-24.809999 -40.689999 -571.91998
-24.290001 -40.700001 -572.01001
-23.76 -40.700001 -572.09003
-23.23 -40.689999 -571.89001
-22.67 -40.619999 -570.98999
-22.129999 -40.599998 -570.59998
-21.610001 -40.599998 -570.59003
-21.09 -40.599998 -570.65002
-20.57 -40.610001 -570.82001
-20.059999 -40.630001 -571.03998
-19.540001 -40.650002 -571.28003
-19.030001 -40.669998 -571.62
-18.52 -40.700001 -572.03003
-18.02 -40.740002 -572.59998
-17.51 -40.779999 -573.10999
-17 -40.810001 -573.58002
-16.48 -40.84 -573.96002
-15.97 -40.860001 -574.28998
-15.45 -40.880001 -574.51001
-14.92 -40.880001 -574.59003
-14.4 -40.889999 -574.66998
-13.87 -40.900002 -574.77002
-13.35 -40.889999 -574.71997
-12.82 -40.880001 -574.53998
-12.29 -40.889999 -574.62
-11.76 -40.889999 -574.60999
-11.24 -40.880001 -574.51001
-10.71 -40.869999 -574.34998
-10.18 -40.869999 -574.37
-9.6599998 -40.880001 -574.53998
-9.1400003 -40.900002 -574.87
-8.6199999 -40.93 -575.20001
-8.0900002 -40.950001 -575.46997
-7.5700002 -40.990002 -576.02002
-7.0900002 -41.27 -579.90997
-6.5799999 -41.389999 -581.65002
-6.0599999 -41.43 -582.17999
-5.5300002 -41.509998 -583.21997
-5.0100002 -41.599998 -584.52002
35.349998 -51.18 -717.04999
35.970001 -51.139999 -716.46002
36.599998 -51.099998 -715.87
37.240002 -51.07 -715.5
37.849998 -51.009998 -714.62
38.490002 -50.98 -714.23999
39.110001 -50.93 -713.54999
39.720001 -50.880001 -712.89001
40.330002 -50.82 -712.08002
40.959999 -50.779999 -711.53998
41.57 -50.73 -710.81
42.200001 -50.709999 -710.47998
42.830002 -50.68 -710.06
43.560001 -50.77 -711.29999
44.34 -50.919998 -713.34998
45.07 -51.009998 -714.60999
45.740002 -51.02 -714.71997
46.349998 -50.970001 -714.07001
46.959999 -50.919998 -713.38
47.580002 -50.880001 -712.84003
48.189999 -50.830002 -712.14001
48.82 -50.810001 -711.87
49.43 -50.759998 -711.17999
50.07 -50.75 -711.04999
50.73 -50.759998 -711.15002
51.400002 -50.77 -711.26001
52.080002 -50.799999 -711.69
52.82 -50.880001 -712.78003
53.509998 -50.91 -713.21002
54.16 -50.900002 -713.15002
54.790001 -50.880001 -712.81
55.439999 -50.880001 -712.79999
56.119999 -50.900002 -713.06
56.779999 -50.91 -713.21997
57.439999 -50.91 -713.21002
58.09 -50.91 -713.19
58.5 -50.689999 -710.17999
55.860001 -47.869999 -671.10999
56.41 -47.810001 -670.39001
56.98 -47.779999 -669.84003
57.560001 -47.75 -669.46002
58.16 -47.740002 -669.34003
58.77 -47.73 -669.19
59.380001 -47.73 -669.15002
59.990002 -47.73 -669.16998
60.610001 -47.73 -669.21997
61.25 -47.75 -669.46002
61.889999 -47.77 -669.71997
62.540001 -47.799999 -670.12
63.189999 -47.82 -670.48999
-154.49001 -40.07 -555.98999
-153.91 -40.049999 -555.71997
-153.36 -40.040001 -555.59003
-152.85001 -40.040001 -555.58002
-152.37 -40.049999 -555.67999
-151.94 -40.07 -555.96997
-151.49001 -40.080002 -556.16998
-151.07001 -40.110001 -556.51001
-150.69 -40.139999 -556.96002
-150.34 -40.189999 -557.54999
-149.99001 -40.23 -558.15002
-149.71001 -40.290001 -558.96997
-151.34 -44.709999 -619.21002
-150.61 -44.66 -618.58002
-149.88 -44.610001 -617.90002
-149.21001 -44.580002 -617.5
-148.59 -44.560001 -617.28998
-132.39 -40.009998 -555.13
-131.84 -40 -554.91998
-131.28999 -39.98 -554.76001
-130.8 -39.990002 -554.82001
-130.34 -40 -555.02002
-129.89 -40.02 -555.28003
-129.48 -40.049999 -555.71997
-143 -44.580002 -617.57001
-142.42 -44.580002 -617.52002
-141.88 -44.59 -617.64001
-141.35001 -44.599998 -617.81
-140.86 -44.619999 -618.10999
-140.32001 -44.639999 -618.27002
-139.81 -44.650002 -618.51001
-139.35001 -44.689999 -618.96002
-138.89999 -44.73 -619.51001
-138.44 -44.759998 -619.96002
-137.96001 -44.790001 -620.37
-137.47 -44.810001 -620.71002
-136.92999 -44.830002 -620.84998
-112.4 -45.040001 -623.88
-111.8 -45.029999 -623.69
-111.2 -45.02 -623.53998
-110.57 -45 -623.25
-109.95 -44.970001 -622.94
-109.31 -44.950001 -622.59003
-107.98 -44.869999 -621.52002
-107.4 -44.869999 -621.5
-106.8 -44.849998 -621.33002
-106.23 -44.849998 -621.32001
-105.64 -44.84 -621.19
-104.99 -44.810001 -620.76001
-104.39 -44.799999 -620.53003
-103.75 -44.77 -620.14001
-103.14 -44.75 -619.89001
-102.53 -44.73 -619.63
-101.89 -44.700001 -619.21997
-101.28 -44.68 -618.97998
-100.68 -44.66 -618.77002
-100.05 -44.639999 -618.41998
-99.440002 -44.619999 -618.16998
-98.839996 -44.599998 -617.92999
-98.25 -44.59 -617.78003
-97.639999 -44.57 -617.53998
-97.050003 -44.560001 -617.40002
-96.449997 -44.549999 -617.20001
-95.870003 -44.540001 -617.09003
-95.32 -44.549999 -617.17999
-94.779999 -44.560001 -617.37
-94.260002 -44.580002 -617.65997
-93.709999 -44.59 -617.81
-93.139999 -44.59 -617.78003
-92.620003 -44.610001 -618.04999
-81.07 -41.59 -576.89001
-80.370003 -41.509998 -575.66998
-79.580002 -41.369999 -573.81
-78.949997 -41.310001 -573.06
-78.379997 -41.290001 -572.78998
-77.800003 -41.259998 -572.34003
-77.220001 -41.23 -571.96002
-76.639999 -41.200001 -571.58002
-76.099998 -41.189999 -571.42999
-75.559998 -41.189999 -571.32001
-75.019997 -41.18 -571.19
-74.489998 -41.169998 -571.15997
-73.970001 -41.18 -571.19
-73.470001 -41.189999 -571.39001
-72.970001 -41.200001 -571.56
