# .PCD v0.7 - Point Cloud Data file format
VERSION 0.7
FIELDS x y z
SIZE 4 4 4
TYPE F F F
COUNT 1 1 1
WIDTH 1603
HEIGHT 1
VIEWPOINT 0 0 0 1 0 0 0
POINTS 1603
DATA ascii
-75.110001 -89.099998 -579.73999
-74.660004 -89.190002 -580.31
-74.209999 -89.300003 -580.96997
-73.760002 -89.389999 -581.59003
-73.309998 -89.489998 -582.23999
-72.870003 -89.610001 -582.97998
-72.419998 -89.709999 -583.65002
-72.019997 -89.879997 -584.71997
-71.580002 -90 -585.51001
-71.209999 -90.209999 -586.85999
-70.830002 -90.43 -588.21997
-70.419998 -90.589996 -589.26001
-70.07 -90.830002 -590.83002
-69.910004 -91.330002 -594.03003
-69.449997 -91.440002 -594.75
-68.989998 -91.550003 -595.45001
-68.550003 -91.699997 -596.37
-68.150002 -91.900002 -597.66998
-67.790001 -92.150002 -599.27002
-60.939999 -95.190002 -618.76001
-60.34 -95.139999 -618.46002
-59.73 -95.059998 -617.97998
-59.139999 -95.029999 -617.72998
-58.549999 -94.989998 -617.48999
-57.98 -94.989998 -617.5
-57.41 -94.989998 -617.47998
-56.849998 -94.989998 -617.52002
-56.290001 -95 -617.59003
-55.73 -95.010002 -617.63
-55.18 -95.040001 -617.78998
-54.619999 -95.059998 -617.96997
-54.07 -95.089996 -618.13
-53.52 -95.120003 -618.31
-52.98 -95.160004 -618.57001
-52.419998 -95.18 -618.73999
-51.869999 -95.199997 -618.87
-51.330002 -95.260002 -619.26001
-50.790001 -95.32 -619.64001
-50.27 -95.400002 -620.15997
-49.759998 -95.510002 -620.84003
-49.25 -95.639999 -621.69
-48.75 -95.769997 -622.53998
-48.240002 -95.879997 -623.25
-36.939999 -104.36 -677.62
-36.259998 -104.2 -676.59003
-35.610001 -104.1 -675.95001
-34.959999 -104.01 -675.37
-34.32 -103.96 -675.06
-33.689999 -103.93 -674.85999
-33.080002 -103.95 -674.96997
-32.470001 -103.98 -675.16998
-31.860001 -104.05 -675.58002
-31.280001 -104.17 -676.40997
-30.700001 -104.29 -677.15002
28.639999 -98.739998 -641.54999
29.120001 -98.349998 -639.09003
29.67 -98.220001 -638.28003
30.209999 -98.089996 -637.42999
30.77 -97.989998 -636.78998
31.32 -97.910004 -636.22998
31.879999 -97.830002 -635.76001
32.439999 -97.75 -635.25
33 -97.699997 -634.89001
33.57 -97.660004 -634.65997
34.150002 -97.629997 -634.46002
34.709999 -97.589996 -634.20001
35.290001 -97.559998 -634.03998
35.880001 -97.589996 -634.17999
36.459999 -97.599998 -634.28998
37.049999 -97.620003 -634.39001
37.639999 -97.629997 -634.46002
38.220001 -97.620003 -634.40002
38.799999 -97.620003 -634.40002
39.389999 -97.639999 -634.48999
39.98 -97.660004 -634.65002
40.57 -97.68 -634.75
41.169998 -97.709999 -634.96002
41.759998 -97.730003 -635.10999
42.349998 -97.75 -635.25
42.939999 -97.760002 -635.27002
43.52 -97.75 -635.21997
44.080002 -97.709999 -634.97998
44.66 -97.699997 -634.89001
45.23 -97.68 -634.77002
45.849998 -97.75 -635.22998
46.5 -97.900002 -636.15997
47.139999 -98.019997 -636.94
47.77 -98.099998 -637.45001
48.439999 -98.279999 -638.58002
49.169998 -98.559998 -640.40002
49.830002 -98.720001 -641.39001
-164.85001 -88.739998 -574.23999
-164.25999 -88.709999 -573.98999
-163.67999 -88.68 -573.79999
-163.11 -88.650002 -573.65002
-162.59 -88.660004 -573.66998
-162.09 -88.669998 -573.76001
-161.64999 -88.720001 -574.04999
-161.3 -88.809998 -574.64001
-160.97 -88.919998 -575.34998
-160.61 -89.019997 -575.92999
-160.16 -89.059998 -576.20001
-159.67999 -89.080002 -576.34998
-159.17 -89.099998 -576.42999
-158.73 -89.150002 -576.73999
-158.27 -89.18 -576.96997
-157.85001 -89.25 -577.37
-157.44 -89.309998 -577.77002
-157.03999 -89.389999 -578.26001
-156.67 -89.480003 -578.82001
-156.27 -89.550003 -579.31
-155.92999 -89.660004 -580.01001
-155.59 -89.769997 -580.69
-155.14999 -89.830002 -581.03998
-154.63 -89.830002 -581.07001
-154.09 -89.830002 -581.04999
-153.57001 -89.830002 -581.07001
-153.03999 -89.839996 -581.10999
-152.57001 -89.870003 -581.33002
-152.10001 -89.910004 -581.56
-151.66 -89.970001 -581.91998
-153.11 -91.150002 -589.44
-152.86 -91.32 -590.52002
-152.56 -91.459999 -591.44
-152.22 -91.589996 -592.21002
-151.83 -91.68 -592.82001
-151.53999 -91.830002 -593.77002
-151.14 -91.919998 -594.34003
-150.95 -92.139999 -595.70001
-150.63 -92.269997 -596.58002
-150.47 -92.510002 -598.09003
-150.49001 -92.860001 -600.33002
-151.7 -93.949997 -607.26001
-151.3 -94.050003 -607.89001
-151.10001 -94.269997 -609.29999
-133.85001 -92.400002 -597.31
-133.07001 -92.239998 -596.26001
-132.02 -91.889999 -594.07001
-131.28 -91.75 -593.19
-130.64 -91.68 -592.72998
-130.06 -91.660004 -592.59003
-129.46001 -91.620003 -592.34003
-128.75 -91.5 -591.56
-128.07001 -91.400002 -590.95001
-127.47 -91.360001 -590.71002
-126.88 -91.330002 -590.47998
-126.38 -91.360001 -590.66998
-125.65 -91.220001 -589.78003
-123.32 -89.910004 -581.46002
-122.52 -89.720001 -580.21002
-121.8 -89.580002 -579.34998
-121.09 -89.449997 -578.5
-120.42 -89.339996 -577.84003
-119.76 -89.25 -577.21997
-119.14 -89.18 -576.78998
-118.5 -89.099998 -576.25
-117.89 -89.040001 -575.87
-117.28 -88.970001 -575.47998
-116.69 -88.919998 -575.14001
-116.08 -88.860001 -574.75
-115.51 -88.82 -574.52002
-114.93 -88.779999 -574.26001
-114.35 -88.75 -574.03003
-113.78 -88.709999 -573.77002
-113.22 -88.690002 -573.64001
-112.65 -88.650002 -573.40997
-112.11 -88.629997 -573.32001
-111.57 -88.620003 -573.25
-111.04 -88.620003 -573.22998
-110.49 -88.599998 -573.10999
-109.92 -88.559998 -572.85999
-109.19 -88.400002 -571.84003
-108.43 -88.209999 -570.60999
-107.83 -88.139999 -570.17999
-107.28 -88.120003 -570.04999
-106.73 -88.099998 -569.89001
-106.18 -88.07 -569.73999
-105.63 -88.059998 -569.64001
-105.11 -88.059998 -569.63
-104.57 -88.040001 -569.56
-104.05 -88.040001 -569.52002
-103.51 -88.029999 -569.45001
-102.98 -88.019997 -569.39001
-102.46 -88.019997 -569.40997
-101.94 -88.019997 -569.40997
-101.42 -88.029999 -569.46002
-100.91 -88.029999 -569.47998
-100.39 -88.040001 -569.53003
-99.879997 -88.040001 -569.54999
-99.370003 -88.059998 -569.64001
-98.849998 -88.059998 -569.64001
-98.339996 -88.07 -569.72998
-97.82 -88.07 -569.73999
-97.32 -88.089996 -569.84003
-96.790001 -88.089996 -569.84998
-96.290001 -88.110001 -569.96002
-95.779999 -88.120003 -570.04999
-95.279999 -88.139999 -570.15002
-94.779999 -88.160004 -570.31
-94.279999 -88.18 -570.42999
-93.769997 -88.190002 -570.47998
-93.260002 -88.199997 -570.57001
-92.760002 -88.230003 -570.73999
-92.260002 -88.239998 -570.83002
-91.75 -88.260002 -570.96002
-91.260002 -88.290001 -571.12
-90.760002 -88.309998 -571.26001
-90.260002 -88.339996 -571.45001
-89.760002 -88.370003 -571.62
-89.25 -88.379997 -571.71002
-88.75 -88.400002 -571.84998
-88.269997 -88.440002 -572.09003
-87.760002 -88.449997 -572.19
-87.269997 -88.5 -572.45001
-86.779999 -88.529999 -572.66998
-86.300003 -88.57 -572.91998
-85.809998 -88.610001 -573.16998
-85.300003 -88.629997 -573.31
-84.82 -88.669998 -573.58002
-84.330002 -88.709999 -573.81
-83.839996 -88.75 -574.04999
-83.339996 -88.769997 -574.22998
-82.860001 -88.82 -574.53003
-82.370003 -88.860001 -574.79999
-81.870003 -88.900002 -575.02002
-81.389999 -88.940002 -575.29999
-80.889999 -88.970001 -575.52002
-80.419998 -89.040001 -575.92999
-79.919998 -89.07 -576.13
-79.440002 -89.129997 -576.47998
-78.940002 -89.160004 -576.69
-78.459999 -89.209999 -577.01001
-77.970001 -89.25 -577.31
-77.489998 -89.309998 -577.69
-77.010002 -89.370003 -578.03998
-76.529999 -89.43 -578.45001
-76.059998 -89.489998 -578.84003
-75.610001 -89.589996 -579.45001
-75.139999 -89.669998 -579.95001
-74.690002 -89.760002 -580.56
-74.230003 -89.860001 -581.15002
-73.790001 -89.959999 -581.82001
-73.330002 -90.059998 -582.42999
-72.900002 -90.18 -583.23999
-72.510002 -90.360001 -584.35999
-72.07 -90.489998 -585.19
-71.650002 -90.629997 -586.08002
-71.349998 -90.940002 -588.03003
-70.910004 -91.059998 -588.83002
-70.489998 -91.220001 -589.82001
-70.339996 -91.730003 -593.08002
-69.970001 -91.949997 -594.5
-69.489998 -92.040001 -595.08002
-69.059998 -92.190002 -596.02002
-68.629997 -92.349998 -597.03003
-68.25 -92.57 -598.46997
-67.839996 -92.769997 -599.75
-62.07 -95.739998 -618.65997
-61.450001 -95.660004 -618.14001
-60.84 -95.599998 -617.77002
-60.25 -95.57 -617.56
-59.669998 -95.540001 -617.37
-59.09 -95.519997 -617.23999
-58.529999 -95.519997 -617.26001
-57.959999 -95.510002 -617.21997
-57.400002 -95.519997 -617.28998
-56.84 -95.529999 -617.34998
-56.290001 -95.559998 -617.53003
-55.73 -95.57 -617.60999
-55.169998 -95.599998 -617.76001
-54.619999 -95.629997 -617.96002
-54.07 -95.650002 -618.09998
-53.52 -95.68 -618.28003
-52.98 -95.720001 -618.56
-52.43 -95.75 -618.77002
-51.869999 -95.790001 -618.96997
-51.330002 -95.830002 -619.23999
-50.810001 -95.910004 -619.78003
-50.290001 -96 -620.35999
-49.779999 -96.129997 -621.16998
-49.279999 -96.260002 -621.96997
-48.759998 -96.360001 -622.62
-48.23 -96.449997 -623.22998
-36.939999 -104.98 -677.59003
-36.25 -104.78 -676.29999
-35.59 -104.66 -675.53003
-34.93 -104.57 -674.95001
-34.299999 -104.52 -674.65002
-33.669998 -104.51 -674.56
-33.049999 -104.5 -674.53998
-32.439999 -104.53 -674.70001
-31.85 -104.63 -675.33002
-31.280001 -104.77 -676.26001
-30.690001 -104.9 -677.03998
29.129999 -98.980003 -639.34003
29.66 -98.790001 -638.12
30.209999 -98.660004 -637.33002
30.76 -98.559998 -636.67999
31.32 -98.470001 -636.09003
31.879999 -98.400002 -635.65002
32.43 -98.309998 -635.09003
32.990002 -98.239998 -634.62
33.560001 -98.190002 -634.34003
34.130001 -98.169998 -634.19
34.709999 -98.160004 -634.15997
35.279999 -98.139999 -633.98999
35.860001 -98.139999 -633.96997
36.450001 -98.150002 -634.08002
37.040001 -98.160004 -634.09998
37.630001 -98.18 -634.27002
38.220001 -98.199997 -634.34998
38.799999 -98.209999 -634.40997
39.389999 -98.209999 -634.46997
39.970001 -98.230003 -634.53998
40.57 -98.260002 -634.77002
41.16 -98.290001 -634.92999
41.759998 -98.309998 -635.08002
42.349998 -98.339996 -635.26001
42.93 -98.339996 -635.22998
43.509998 -98.32 -635.14001
44.080002 -98.290001 -634.96002
44.650002 -98.279999 -634.84003
45.23 -98.269997 -634.79999
45.849998 -98.349998 -635.28998
46.509998 -98.510002 -636.34003
47.130001 -98.580002 -636.79999
47.779999 -98.720001 -637.66998
48.450001 -98.889999 -638.72998
49.200001 -99.209999 -640.81
-164.94 -89.32 -574.54999
-164.38 -89.300003 -574.40002
-163.81 -89.269997 -574.26001
-163.2 -89.230003 -573.95001
-162.66 -89.220001 -573.91998
-162.17999 -89.239998 -574.03998
-161.73 -89.290001 -574.33002
-161.35001 -89.370003 -574.83002
-161.00999 -89.470001 -575.47998
-160.63 -89.550003 -576
-160.2 -89.610001 -576.34998
-159.74001 -89.650002 -576.57001
-159.22 -89.650002 -576.59003
-158.78 -89.699997 -576.90002
-158.31 -89.739998 -577.13
-157.88 -89.790001 -577.46997
-157.47 -89.860001 -577.88
-157.05 -89.919998 -578.31
-156.64999 -89.989998 -578.75
-156.28999 -90.099998 -579.39001
-155.97 -90.209999 -580.13
-155.62 -90.32 -580.79999
-155.16 -90.370003 -581.08002
-154.66 -90.389999 -581.21002
-154.11 -90.379997 -581.14001
-153.61 -90.389999 -581.25
-153.10001 -90.410004 -581.32001
-152.66 -90.459999 -581.67999
-152.23 -90.519997 -582.06
-152.09 -90.760002 -583.53003
-153.25999 -91.769997 -589.97998
-152.86 -91.860001 -590.53003
-152.62 -92.050003 -591.67999
-152.24001 -92.139999 -592.28003
-151.92 -92.279999 -593.15002
-151.57001 -92.400002 -593.90002
-151.21001 -92.510002 -594.59998
-151.03999 -92.739998 -596.06
-150.63 -92.82 -596.58002
-150.69 -93.199997 -598.96997
-151.57001 -94.089996 -604.59003
-151.95 -94.669998 -608.27002
-151.58 -94.790001 -609.01001
-133.35001 -92.980003 -597.53003
-132.52 -92.790001 -596.28998
-131.53999 -92.480003 -594.33002
-130.71001 -92.279999 -593.04999
-130.07001 -92.209999 -592.65002
-129.52 -92.199997 -592.59998
-128.91 -92.150002 -592.28003
-128.14 -91.989998 -591.26001
-127.53 -91.949997 -590.97998
-126.96 -91.919998 -590.83002
-126.4 -91.910004 -590.75
-125.92 -91.959999 -591.03003
-124.75 -91.489998 -588.09998
-122.7 -90.379997 -581.07001
-121.98 -90.239998 -580.19
-121.22 -90.07 -579.09998
-120.54 -89.959999 -578.40002
-119.83 -89.830002 -577.57001
-119.2 -89.75 -577.08002
-118.56 -89.669998 -576.53003
-117.93 -89.589996 -576.07001
-117.32 -89.529999 -575.64001
-116.73 -89.480003 -575.34003
-116.11 -89.410004 -574.90002
-115.52 -89.360001 -574.57001
-114.93 -89.309998 -574.28003
-114.35 -89.269997 -574.03003
-113.79 -89.239998 -573.84003
-113.21 -89.199997 -573.57001
-112.66 -89.18 -573.46997
-112.11 -89.169998 -573.34998
-111.56 -89.139999 -573.20001
-111.02 -89.129997 -573.15997
-110.49 -89.129997 -573.09998
-109.94 -89.110001 -572.98999
-109.36 -89.07 -572.71997
-108.72 -88.959999 -572.08002
-107.97 -88.790001 -570.95001
-107.35 -88.699997 -570.40002
-106.79 -88.669998 -570.21002
-106.25 -88.660004 -570.14001
-105.7 -88.629997 -569.98999
-105.18 -88.629997 -569.97998
-104.63 -88.610001 -569.85999
-104.1 -88.610001 -569.81
-103.57 -88.599998 -569.75
-103.04 -88.589996 -569.72998
-102.53 -88.599998 -569.78998
-102.01 -88.610001 -569.81
-101.5 -88.610001 -569.84998
-100.96 -88.599998 -569.78998
-100.43 -88.589996 -569.71997
-99.900002 -88.589996 -569.69
-99.379997 -88.589996 -569.70001
-98.860001 -88.589996 -569.71997
-98.360001 -88.610001 -569.83002
-97.839996 -88.620003 -569.88
-97.330002 -88.629997 -569.94
-96.82 -88.629997 -569.97998
-96.32 -88.650002 -570.09998
-95.800003 -88.650002 -570.12
-95.309998 -88.68 -570.29999
-94.800003 -88.699997 -570.39001
-94.290001 -88.709999 -570.46997
-93.769997 -88.709999 -570.5
-93.269997 -88.739998 -570.65997
-92.779999 -88.760002 -570.81
-92.269997 -88.779999 -570.92999
-91.760002 -88.800003 -571.03003
-91.269997 -88.82 -571.19
-90.769997 -88.849998 -571.34003
-90.279999 -88.879997 -571.58002
-89.769997 -88.900002 -571.66998
-89.269997 -88.919998 -571.82001
-88.779999 -88.959999 -572.03998
-88.279999 -88.980003 -572.21002
-87.790001 -89.010002 -572.39001
-87.300003 -89.050003 -572.65002
-86.800003 -89.07 -572.79999
-86.32 -89.120003 -573.08002
-85.830002 -89.160004 -573.34003
-85.339996 -89.199997 -573.57001
-84.839996 -89.220001 -573.71002
-84.349998 -89.25 -573.92999
-83.839996 -89.279999 -574.09998
-83.370003 -89.330002 -574.44
-82.870003 -89.370003 -574.65997
-82.379997 -89.400002 -574.89001
-81.889999 -89.440002 -575.14001
-81.410004 -89.5 -575.47998
-80.919998 -89.529999 -575.71002
-80.440002 -89.580002 -576.03003
-79.940002 -89.629997 -576.29999
-79.449997 -89.660004 -576.53998
-78.959999 -89.709999 -576.84003
-78.480003 -89.769997 -577.19
-77.989998 -89.800003 -577.44
-77.519997 -89.870003 -577.88
-77.029999 -89.919998 -578.17999
-76.550003 -89.989998 -578.58002
-76.089996 -90.07 -579.10999
-75.629997 -90.150002 -579.62
-75.169998 -90.230003 -580.13
-74.699997 -90.309998 -580.66998
-74.260002 -90.419998 -581.37
-73.830002 -90.550003 -582.19
-73.370003 -90.639999 -582.72998
-72.970001 -90.809998 -583.82001
-72.589996 -91 -585.03998
-72.139999 -91.110001 -585.70001
-71.730003 -91.269997 -586.71002
-71.43 -91.580002 -588.66998
-70.959999 -91.669998 -589.26001
-70.68 -92.010002 -591.39001
-70.419998 -92.370003 -593.70001
-69.989998 -92.519997 -594.65997
-69.540001 -92.650002 -595.5
-69.129997 -92.839996 -596.65002
-68.709999 -93 -597.71997
-68.370003 -93.290001 -599.51001
-63.18 -96.269997 -618.42999
-62.549999 -96.18 -617.82001
-61.950001 -96.129997 -617.54999
-61.369999 -96.099998 -617.37
-60.77 -96.059998 -617.07001
-60.209999 -96.07 -617.12
-59.630001 -96.040001 -616.94
-59.07 -96.050003 -617.04999
-58.509998 -96.059998 -617.08002
-57.939999 -96.059998 -617.08002
-57.400002 -96.099998 -617.35999
-56.860001 -96.139999 -617.62
-56.310001 -96.18 -617.84003
-55.759998 -96.199997 -617.98999
-55.189999 -96.190002 -617.90002
-54.630001 -96.209999 -618.03003
-54.080002 -96.230003 -618.21002
-53.52 -96.25 -618.34003
-52.98 -96.300003 -618.59998
-52.439999 -96.339996 -618.89001
-51.880001 -96.370003 -619.09003
-51.349998 -96.43 -619.45001
-50.830002 -96.529999 -620.09998
-50.32 -96.629997 -620.72998
-49.810001 -96.75 -621.47998
-49.299999 -96.870003 -622.26001
-48.77 -96.949997 -622.73999
-48.209999 -96.980003 -622.92999
-37.599998 -105.72 -678.28998
-36.93 -105.56 -677.32001
-36.23 -105.34 -675.90997
-35.57 -105.23 -675.22998
-34.919998 -105.13 -674.59003
-34.279999 -105.08 -674.28998
-33.66 -105.08 -674.28998
-33.040001 -105.09 -674.34003
-32.43 -105.12 -674.53003
-31.84 -105.22 -675.12
-31.27 -105.37 -676.10999
-30.68 -105.49 -676.84003
29.129999 -99.559998 -639.28998
29.67 -99.400002 -638.27002
30.200001 -99.230003 -637.20001
30.76 -99.139999 -636.63
31.309999 -99.040001 -635.98999
31.870001 -98.959999 -635.53998
32.43 -98.900002 -635.10999
32.990002 -98.82 -634.63
33.549999 -98.75 -634.17999
34.119999 -98.730003 -634.02002
34.700001 -98.709999 -633.90002
35.279999 -98.699997 -633.87
35.860001 -98.699997 -633.89001
36.450001 -98.709999 -633.94
37.029999 -98.730003 -634.07001
37.619999 -98.75 -634.19
38.209999 -98.769997 -634.28998
38.799999 -98.779999 -634.34998
39.380001 -98.790001 -634.40997
39.970001 -98.800003 -634.47998
40.57 -98.849998 -634.79999
41.16 -98.870003 -634.90997
41.75 -98.879997 -634.98999
42.349998 -98.910004 -635.17999
42.93 -98.910004 -635.15002
43.5 -98.889999 -635.03998
44.07 -98.849998 -634.77002
44.650002 -98.839996 -634.71997
45.25 -98.870003 -634.95001
45.880001 -98.989998 -635.70001
46.52 -99.120003 -636.46997
47.139999 -99.18 -636.89001
47.810001 -99.370003 -638.06
48.48 -99.529999 -639.08002
-164.97 -89.860001 -574.63
-164.47 -89.870003 -574.71997
-163.89999 -89.849998 -574.58002
-163.31 -89.809998 -574.34998
-162.78999 -89.82 -574.35999
-162.25999 -89.82 -574.35999
-161.81 -89.860001 -574.59003
-161.39 -89.919998 -574.96997
-161 -89.989998 -575.45001
-160.66 -90.099998 -576.12
-160.24001 -90.160004 -576.48999
-159.78 -90.199997 -576.71997
-159.28 -90.209999 -576.81
-158.81 -90.25 -577.03003
-158.36 -90.290001 -577.28998
-157.89999 -90.330002 -577.56
-157.5 -90.400002 -577.98999
-157.07001 -90.459999 -578.34998
-156.66 -90.540001 -578.81
-156.3 -90.629997 -579.41998
-155.97 -90.75 -580.14001
-155.62 -90.860001 -580.82001
-155.19 -90.910004 -581.17999
-154.66 -90.919998 -581.20001
-154.14999 -90.93 -581.27002
-153.64 -90.940002 -581.34998
-153.14 -90.959999 -581.46002
-152.67999 -91 -581.72998
-152.25999 -91.07 -582.15997
-152.36 -91.449997 -584.56
-153.28 -92.330002 -590.06
-152.89 -92.419998 -590.64001
-152.7 -92.629997 -591.96997
-152.28 -92.709999 -592.45001
-152.02 -92.889999 -593.54999
-151.64999 -92.989998 -594.21997
-151.31 -93.120003 -595
-151.14999 -93.349998 -596.47998
-150.72 -93.419998 -596.94
-150.96001 -93.910004 -600.02002
-152.42 -95.169998 -607.92999
-152.16 -95.360001 -609.09003
-133.3 -93.5 -597.32001
-132.84 -93.559998 -597.71002
-132.09 -93.410004 -596.78998
-130.91 -92.970001 -593.96997
-130.2 -92.849998 -593.21997
-129.55 -92.769997 -592.72998
-128.95 -92.730003 -592.48999
-128.24001 -92.610001 -591.72998
-127.55 -92.5 -591.03998
-126.98 -92.480003 -590.92999
-126.44 -92.480003 -590.94
-125.91 -92.489998 -590.97998
-125.42 -92.529999 -591.21002
-123.13 -91.230003 -583.04999
-122.11 -90.870003 -580.78998
-121.34 -90.690002 -579.65997
-120.64 -90.57 -578.85999
-119.92 -90.419998 -577.96997
-119.24 -90.309998 -577.25
-118.6 -90.220001 -576.71997
-117.97 -90.150002 -576.26001
-117.34 -90.07 -575.73999
-116.75 -90.019997 -575.45001
-116.13 -89.949997 -574.98999
-115.53 -89.889999 -574.62
-114.93 -89.839996 -574.29999
-114.37 -89.809998 -574.12
-113.79 -89.769997 -573.84003
-113.23 -89.739998 -573.65002
-112.66 -89.699997 -573.42999
-112.12 -89.690002 -573.37
-111.56 -89.669998 -573.20001
-111.01 -89.650002 -573.09003
-110.48 -89.639999 -573.03998
-109.93 -89.629997 -572.94
-109.38 -89.599998 -572.79999
-108.84 -89.589996 -572.71002
-108.21 -89.5 -572.16998
-107.5 -89.349998 -571.17999
-106.85 -89.25 -570.56
-106.29 -89.220001 -570.37
-105.75 -89.199997 -570.25
-105.21 -89.18 -570.15997
-104.67 -89.169998 -570.09003
-104.15 -89.169998 -570.06
-103.62 -89.160004 -570.01001
-103.1 -89.169998 -570.06
-102.6 -89.190002 -570.20001
-102.08 -89.18 -570.16998
-101.53 -89.160004 -570.02002
-100.98 -89.139999 -569.88
-100.47 -89.150002 -569.92999
-99.93 -89.129997 -569.84003
-99.400002 -89.129997 -569.79999
-98.889999 -89.129997 -569.85999
-98.379997 -89.150002 -569.92999
-97.849998 -89.150002 -569.92999
-97.339996 -89.150002 -569.96997
-96.839996 -89.18 -570.10999
-96.339996 -89.190002 -570.21002
-95.82 -89.199997 -570.28003
-95.330002 -89.230003 -570.46002
-94.809998 -89.230003 -570.46002
-94.290001 -89.239998 -570.5
-93.790001 -89.260002 -570.62
-93.290001 -89.279999 -570.77002
-92.790001 -89.300003 -570.90002
-92.290001 -89.32 -571.03003
-91.790001 -89.349998 -571.19
-91.290001 -89.370003 -571.32001
-90.790001 -89.400002 -571.51001
-90.290001 -89.410004 -571.62
-89.779999 -89.43 -571.71997
-89.290001 -89.459999 -571.90997
-88.790001 -89.489998 -572.10999
-88.300003 -89.519997 -572.32001
-87.800003 -89.550003 -572.46002
-87.309998 -89.580002 -572.67999
-86.82 -89.620003 -572.90002
-86.339996 -89.669998 -573.23999
-85.849998 -89.699997 -573.40997
-85.349998 -89.730003 -573.63
-84.860001 -89.769997 -573.84003
-84.370003 -89.809998 -574.09998
-83.889999 -89.849998 -574.38
-83.379997 -89.879997 -574.53998
-82.889999 -89.919998 -574.79999
-82.410004 -89.959999 -575.06
-81.919998 -90 -575.32001
-81.43 -90.050003 -575.62
-80.93 -90.080002 -575.81
-80.449997 -90.129997 -576.14001
-79.959999 -90.169998 -576.39001
-79.470001 -90.209999 -576.66998
-78.980003 -90.260002 -576.96002
-78.5 -90.309998 -577.29999
-78.010002 -90.360001 -577.59003
-77.529999 -90.419998 -577.98999
-77.050003 -90.470001 -578.31
-76.589996 -90.550003 -578.83002
-76.120003 -90.629997 -579.31
-75.660004 -90.709999 -579.82001
-75.18 -90.779999 -580.28003
-74.779999 -90.93 -581.22998
-74.330002 -91.040001 -581.90002
-73.870003 -91.129997 -582.45001
-73.43 -91.25 -583.17999
-73.120003 -91.529999 -584.98999
-72.650002 -91.610001 -585.47998
-72.18 -91.699997 -586.03998
-71.830002 -91.940002 -587.57001
-71.449997 -92.139999 -588.84003
-71.029999 -92.290001 -589.78998
-70.779999 -92.68 -592.25
-70.43 -92.93 -593.81
-70.010002 -93.099998 -594.84003
-69.57 -93.239998 -595.77002
-69.18 -93.449997 -597.07001
-68.779999 -93.650002 -598.34998
-68.669998 -94.25 -602.10999
-63.669998 -96.730003 -617.71997
-63.080002 -96.68 -617.45001
-62.470001 -96.620003 -617.03003
-61.900002 -96.620003 -617.03003
-61.330002 -96.599998 -616.94
-60.75 -96.589996 -616.84003
-60.189999 -96.589996 -616.88
-59.619999 -96.589996 -616.84003
-59.07 -96.610001 -617.01001
-58.509998 -96.620003 -617.08002
-57.959999 -96.650002 -617.23999
-57.43 -96.720001 -617.66998
-56.91 -96.790001 -618.13
-56.349998 -96.800003 -618.20001
-55.77 -96.790001 -618.14001
-55.200001 -96.779999 -618.09998
-54.639999 -96.790001 -618.10999
-54.080002 -96.809998 -618.26001
-53.540001 -96.860001 -618.58002
-52.990002 -96.879997 -618.66998
-52.439999 -96.910004 -618.90002
-51.900002 -96.980003 -619.32001
-51.369999 -97.040001 -619.71997
-50.860001 -97.139999 -620.35999
-50.34 -97.25 -621.06
-49.830002 -97.360001 -621.76001
-49.310001 -97.470001 -622.40997
-48.779999 -97.540001 -622.85999
-37.59 -106.3 -678.02002
-36.900002 -106.11 -676.81
-36.209999 -105.91 -675.57001
-35.540001 -105.78 -674.76001
-34.900002 -105.69 -674.20001
-34.27 -105.67 -674.03998
-33.639999 -105.65 -673.96002
-33.029999 -105.66 -674.03003
-32.419998 -105.71 -674.29999
-31.84 -105.82 -675.02002
-31.25 -105.94 -675.78003
-30.67 -106.05 -676.47998
28.67 -100.61 -642.21997
29.15 -100.22 -639.79999
29.66 -99.959999 -638.10999
30.200001 -99.809998 -637.16998
30.75 -99.690002 -636.42999
31.309999 -99.599998 -635.87
31.860001 -99.519997 -635.33002
32.419998 -99.43 -634.79999
32.98 -99.370003 -634.42999
33.540001 -99.300003 -633.96997
34.110001 -99.260002 -633.73999
34.68 -99.239998 -633.59003
35.259998 -99.230003 -633.5
35.849998 -99.25 -633.63
36.439999 -99.269997 -633.79999
37.02 -99.279999 -633.82001
37.610001 -99.300003 -633.96997
38.200001 -99.32 -634.09998
38.799999 -99.360001 -634.34003
39.369999 -99.349998 -634.25
39.970001 -99.379997 -634.46997
40.57 -99.410004 -634.67999
41.16 -99.440002 -634.82001
41.75 -99.459999 -634.95001
42.34 -99.480003 -635.07001
42.919998 -99.459999 -634.98999
43.5 -99.459999 -634.96997
44.060001 -99.419998 -634.73999
44.639999 -99.410004 -634.66998
45.240002 -99.449997 -634.90997
45.889999 -99.589996 -635.78998
46.52 -99.699997 -636.46002
47.150002 -99.779999 -636.98999
47.82 -99.970001 -638.16998
48.5 -100.17 -639.44
-164.58 -90.459999 -575.10999
-164.03999 -90.449997 -575.04999
-163.47 -90.43 -574.89001
-162.89 -90.400002 -574.70001
-162.37 -90.400002 -574.71997
-161.87 -90.419998 -574.83002
-161.45 -90.480003 -575.16998
-161.03999 -90.540001 -575.58002
-160.69 -90.639999 -576.20001
-160.28999 -90.709999 -576.65002
-159.86 -90.769997 -577.02002
-159.35001 -90.779999 -577.07001
-158.87 -90.809998 -577.22998
-158.39 -90.839996 -577.40002
-157.96001 -90.889999 -577.76001
-157.50999 -90.940002 -578.04999
-157.11 -91.019997 -578.51001
-156.67999 -91.07 -578.85999
-156.32001 -91.18 -579.5
-156 -91.300003 -580.26001
-155.64 -91.400002 -580.90002
-155.22 -91.459999 -581.28998
-154.72 -91.480003 -581.40997
-154.19 -91.489998 -581.44
-153.64 -91.480003 -581.37
-153.14999 -91.5 -581.5
-152.7 -91.550003 -581.79999
-152.3 -91.629997 -582.32001
-153.03999 -92.400002 -587.12
-153.28 -92.870003 -590.08002
-152.92 -92.980003 -590.78003
-152.77 -93.220001 -592.23999
-152.38 -93.32 -592.84998
-152.13 -93.489998 -593.95001
-151.73 -93.589996 -594.53003
-151.62 -93.849998 -596.21002
-151.25999 -93.970001 -596.90997
-150.92999 -94.110001 -597.78003
-151.03999 -94.519997 -600.34998
-152.67 -95.889999 -608.90997
-132.87 -94.120003 -597.82001
-132.39 -94.169998 -598.10999
-131.60001 -94 -597.03003
-130.41 -93.540001 -594.16998
-129.63 -93.370003 -593.12
-129.00999 -93.32 -592.77002
-128.39 -93.260002 -592.41998
-127.64 -93.110001 -591.44
-127.04 -93.07 -591.21002
-126.49 -93.059998 -591.14001
-125.95 -93.059998 -591.16998
-125.43 -93.080002 -591.26001
-124.5 -92.790001 -589.45001
-122.21 -91.480003 -581.26001
-121.47 -91.330002 -580.29999
-120.74 -91.18 -579.37
-119.99 -91.010002 -578.34003
-119.31 -90.889999 -577.58002
-118.66 -90.800003 -577.01001
-118.02 -90.720001 -576.47998
-117.37 -90.620003 -575.90002
-116.76 -90.559998 -575.51001
-116.14 -90.489998 -575.07001
-115.53 -90.419998 -574.65997
-114.93 -90.370003 -574.29999
-114.36 -90.330002 -574.07001
-113.79 -90.290001 -573.83002
-113.22 -90.260002 -573.64001
-112.65 -90.230003 -573.40997
-112.11 -90.209999 -573.31
-111.54 -90.18 -573.12
-111.01 -90.169998 -573.07001
-110.46 -90.150002 -572.95001
-109.93 -90.150002 -572.90997
-109.38 -90.129997 -572.79999
-108.84 -90.110001 -572.70001
-108.29 -90.099998 -572.60999
-107.72 -90.059998 -572.35999
-107.04 -89.93 -571.53003
-106.41 -89.839996 -570.98999
-105.84 -89.790001 -570.71002
-105.3 -89.779999 -570.63
-104.76 -89.760002 -570.52002
-104.26 -89.790001 -570.67999
-103.77 -89.82 -570.84998
-103.28 -89.839996 -571.01001
-102.71 -89.809998 -570.79999
-102.15 -89.769997 -570.59003
-101.58 -89.730003 -570.34003
-101.03 -89.709999 -570.16998
-100.49 -89.690002 -570.08002
-99.970001 -89.690002 -570.08002
-99.440002 -89.68 -570.02002
-98.910004 -89.68 -569.97998
-98.400002 -89.690002 -570.08002
-97.879997 -89.690002 -570.09003
-97.370003 -89.709999 -570.15997
-96.860001 -89.720001 -570.21997
-96.349998 -89.730003 -570.29999
-95.830002 -89.730003 -570.34003
-95.339996 -89.760002 -570.52002
-94.839996 -89.779999 -570.63
-94.309998 -89.779999 -570.63
-93.82 -89.800003 -570.78998
-93.309998 -89.82 -570.90997
-92.809998 -89.839996 -571.03998
-92.32 -89.879997 -571.25
-91.809998 -89.889999 -571.32001
-91.32 -89.919998 -571.51001
-90.800003 -89.93 -571.57001
-90.309998 -89.959999 -571.76001
-89.809998 -89.980003 -571.90997
-89.309998 -90.010002 -572.09003
-88.809998 -90.029999 -572.19
-88.32 -90.07 -572.46002
-87.830002 -90.099998 -572.63
-87.330002 -90.129997 -572.84003
-86.849998 -90.18 -573.14001
-86.360001 -90.209999 -573.35999
-85.860001 -90.239998 -573.51001
-85.370003 -90.279999 -573.75
-84.889999 -90.330002 -574.07001
-84.400002 -90.360001 -574.28998
-83.900002 -90.400002 -574.5
-83.410004 -90.43 -574.73999
-82.910004 -90.459999 -574.90997
-82.440002 -90.519997 -575.29999
-81.949997 -90.559998 -575.53003
-81.459999 -90.599998 -575.78998
-80.959999 -90.639999 -576.03998
-80.470001 -90.68 -576.27002
-79.980003 -90.720001 -576.54999
-79.5 -90.779999 -576.90997
-79 -90.809998 -577.13
-78.529999 -90.879997 -577.52002
-78.029999 -90.919998 -577.78003
-77.550003 -90.970001 -578.10999
-77.07 -91.019997 -578.45001
-76.599998 -91.110001 -578.95001
-76.150002 -91.190002 -579.51001
-75.690002 -91.290001 -580.10999
-75.279999 -91.43 -580.98999
-74.860001 -91.57 -581.84003
-74.370003 -91.629997 -582.21997
-73.910004 -91.709999 -582.73999
-73.589996 -91.989998 -584.47998
-73.220001 -92.190002 -585.75
-72.720001 -92.239998 -586.07001
-72.25 -92.32 -586.57001
-71.870003 -92.529999 -587.85999
-71.5 -92.75 -589.26001
-71.099998 -92.940002 -590.41998
-70.830002 -93.279999 -592.59998
-70.419998 -93.470001 -593.76001
-70.029999 -93.669998 -595.01001
-69.610001 -93.839996 -596.10999
-69.239998 -94.07 -597.56
-69 -94.5 -600.20001
-68.660004 -94.800003 -602.08002
-64.220001 -97.269997 -617.57001
-63.619999 -97.209999 -617.20001
-63.049999 -97.209999 -617.16998
-62.470001 -97.190002 -617.08002
-61.889999 -97.169998 -616.96002
-61.330002 -97.18 -617
-60.759998 -97.169998 -616.92999
-60.189999 -97.160004 -616.90002
-59.630001 -97.169998 -616.96002
-59.09 -97.209999 -617.17999
-58.549999 -97.269997 -617.54999
-58.02 -97.32 -617.90997
-57.470001 -97.349998 -618.10999
-56.91 -97.349998 -618.10999
-56.34 -97.349998 -618.08002
-55.779999 -97.360001 -618.14001
-55.220001 -97.379997 -618.29999
-54.66 -97.389999 -618.34003
-54.099998 -97.410004 -618.47998
-53.560001 -97.459999 -618.78998
-53 -97.470001 -618.81
-52.459999 -97.510002 -619.12
-51.93 -97.599998 -619.65997
-51.41 -97.68 -620.15997
-50.889999 -97.769997 -620.72998
-50.369999 -97.879997 -621.39001
-49.849998 -97.970001 -621.98999
-49.310001 -98.040001 -622.44
-48.779999 -98.120003 -622.90002
-37.59 -106.92 -678.02002
-36.889999 -106.69 -676.59003
-36.189999 -106.48 -675.28003
-35.529999 -106.35 -674.42999
-34.880001 -106.25 -673.83002
-34.25 -106.22 -673.65997
-33.630001 -106.24 -673.75
-33.02 -106.25 -673.84998
-32.41 -106.27 -673.95001
-31.809999 -106.36 -674.51001
-31.25 -106.56 -675.77002
28.67 -101.18 -642.13
29.17 -100.88 -640.22998
29.66 -100.53 -638.04999
30.209999 -100.41 -637.27002
30.75 -100.26 -636.37
31.299999 -100.17 -635.77002
31.860001 -100.08 -635.21997
32.41 -99.989998 -634.65002
32.970001 -99.910004 -634.15997
33.529999 -99.849998 -633.75
34.099998 -99.82 -633.58002
34.68 -99.809998 -633.5
35.25 -99.779999 -633.35999
35.84 -99.800003 -633.45001
36.419998 -99.82 -633.54999
37.009998 -99.839996 -633.67999
37.599998 -99.870003 -633.85999
38.189999 -99.889999 -634
38.790001 -99.919998 -634.16998
39.380001 -99.940002 -634.29999
39.970001 -99.959999 -634.44
40.57 -100 -634.71002
41.16 -100.02 -634.83002
41.75 -100.05 -635.01001
42.34 -100.05 -635.01001
42.91 -100.04 -634.90997
43.490002 -100.03 -634.87
44.060001 -100.01 -634.72998
44.639999 -99.989998 -634.65002
45.259998 -100.08 -635.20001
45.91 -100.21 -636.03003
46.52 -100.28 -636.46997
47.18 -100.43 -637.39001
47.830002 -100.58 -638.33002
48.52 -100.78 -639.58002
-164.75 -91.080002 -575.67999
-164.14999 -91.040001 -575.44
-163.59 -91.019997 -575.31
-163.03 -91 -575.19
-162.47 -90.989998 -575.09003
-161.96001 -90.989998 -575.12
-161.5 -91.029999 -575.34998
-161.06 -91.080002 -575.67999
-160.74001 -91.199997 -576.39001
-160.32001 -91.260002 -576.77002
-159.89 -91.32 -577.10999
-159.39 -91.330002 -577.20001
-158.88 -91.349998 -577.28998
-158.42 -91.389999 -577.53003
-157.97 -91.43 -577.78998
-157.53 -91.480003 -578.13
-157.13 -91.559998 -578.58002
-156.71001 -91.620003 -578.96997
-156.39 -91.739998 -579.73999
-155.99001 -91.830002 -580.23999
-155.66 -91.940002 -580.96002
-155.24001 -92.010002 -581.37
-154.75999 -92.040001 -581.56
-154.21001 -92.029999 -581.51001
-153.7 -92.040001 -581.58002
-153.2 -92.07 -581.71002
-152.77 -92.129997 -582.09003
-152.46001 -92.260002 -582.90997
-153.72 -93.349998 -589.67999
-153.3 -93.419998 -590.14001
-153.05 -93.599998 -591.25
-152.83 -93.800003 -592.5
-152.49001 -93.93 -593.27002
-152.22 -94.089996 -594.29999
-151.88 -94.220001 -595.09003
-151.81 -94.519997 -596.94
-151.39999 -94.610001 -597.47998
-151.42 -94.959999 -599.69
-151.10001 -95.110001 -600.59003
-132.36 -94.699997 -597.96997
-131.88 -94.75 -598.28998
-131.10001 -94.580002 -597.26001
-129.83 -94.059998 -594.02002
-129.06 -93.889999 -592.96997
-128.46001 -93.860001 -592.73999
-127.83 -93.790001 -592.32001
-127.05 -93.610001 -591.22998
-126.52 -93.620003 -591.29999
-125.98 -93.629997 -591.29999
-125.44 -93.629997 -591.31
-124.97 -93.690002 -591.66998
-123.11 -92.690002 -585.5
-121.59 -91.949997 -580.85999
-120.85 -91.790001 -579.84998
-120.05 -91.580002 -578.58002
-119.35 -91.449997 -577.77002
-118.69 -91.360001 -577.19
-118.03 -91.260002 -576.54999
-117.4 -91.18 -576.06
-116.77 -91.089996 -575.53003
-116.15 -91.019997 -575.10999
-115.55 -90.959999 -574.73999
-114.92 -90.889999 -574.25
-114.35 -90.849998 -574.03003
-113.78 -90.809998 -573.79999
-113.23 -90.790001 -573.65997
-112.66 -90.760002 -573.45001
-112.11 -90.739998 -573.31
-111.54 -90.699997 -573.10999
-111 -90.690002 -573.03998
-110.46 -90.68 -572.94
-109.93 -90.68 -572.95001
-109.38 -90.650002 -572.79999
-108.83 -90.639999 -572.69
-108.29 -90.620003 -572.57001
-107.73 -90.589996 -572.40997
-107.15 -90.540001 -572.12
-106.58 -90.5 -571.85999
-106 -90.459999 -571.57001
-105.44 -90.43 -571.40997
-104.92 -90.43 -571.39001
-104.39 -90.419998 -571.38
-103.86 -90.419998 -571.33002
-103.31 -90.389999 -571.19
-102.75 -90.360001 -570.96997
-102.2 -90.330002 -570.82001
-101.64 -90.309998 -570.65997
-101.1 -90.290001 -570.54999
-100.54 -90.260002 -570.34003
-100 -90.239998 -570.26001
-99.5 -90.260002 -570.34998
-98.949997 -90.239998 -570.22998
-98.43 -90.239998 -570.21002
-97.910004 -90.239998 -570.23999
-97.389999 -90.25 -570.28003
-96.889999 -90.260002 -570.38
-96.379997 -90.279999 -570.46997
-95.870003 -90.290001 -570.53998
-95.349998 -90.290001 -570.53998
-94.849998 -90.32 -570.70001
-94.349998 -90.330002 -570.82001
-93.849998 -90.360001 -570.96002
-93.339996 -90.370003 -571.07001
-92.839996 -90.389999 -571.17999
-92.339996 -90.419998 -571.35999
-91.82 -90.43 -571.39001
-91.32 -90.449997 -571.52002
-90.830002 -90.480003 -571.75
-90.339996 -90.510002 -571.90997
-89.830002 -90.529999 -572.02002
-89.330002 -90.550003 -572.15002
-88.830002 -90.580002 -572.34998
-88.339996 -90.610001 -572.54999
-87.849998 -90.650002 -572.77002
-87.360001 -90.68 -572.97998
-86.870003 -90.720001 -573.21002
-86.379997 -90.760002 -573.48999
-85.879997 -90.779999 -573.63
-85.379997 -90.809998 -573.82001
-84.889999 -90.849998 -574.04999
-84.419998 -90.910004 -574.40002
-83.919998 -90.940002 -574.59003
-83.419998 -90.970001 -574.78998
-82.959999 -91.040001 -575.21997
-82.470001 -91.080002 -575.51001
-81.970001 -91.110001 -575.66998
-81.470001 -91.150002 -575.90002
-80.980003 -91.18 -576.13
-80.5 -91.239998 -576.46997
-80 -91.279999 -576.71002
-79.519997 -91.32 -577.01001
-79.019997 -91.360001 -577.25
-78.540001 -91.419998 -577.58002
-78.050003 -91.470001 -577.89001
-77.550003 -91.5 -578.12
-77.080002 -91.580002 -578.57001
-76.639999 -91.690002 -579.26001
-76.18 -91.769997 -579.78998
-75.82 -91.970001 -581.02002
-75.370003 -92.080002 -581.71997
-74.879997 -92.120003 -582
-74.389999 -92.190002 -582.39001
-74.029999 -92.400002 -583.71002
-73.709999 -92.669998 -585.40997
-73.25 -92.769997 -586.01001
-72.760002 -92.830002 -586.38
-72.290001 -92.910004 -586.91998
-71.919998 -93.129997 -588.28998
-71.519997 -93.309998 -589.38
-71.150002 -93.529999 -590.77002
-70.82 -93.82 -592.54999
-70.419998 -94 -593.69
-70.029999 -94.209999 -594.98999
-69.629997 -94.410004 -596.23999
-69.260002 -94.650002 -597.75
-69.07 -95.150002 -600.82001
-63.59 -97.730003 -616.90002
-63.02 -97.720001 -616.85999
-62.450001 -97.720001 -616.82001
-61.880001 -97.720001 -616.85999
-61.32 -97.730003 -616.91998
-60.759998 -97.739998 -616.97998
-60.200001 -97.75 -617.03003
-59.669998 -97.809998 -617.39001
-59.139999 -97.860001 -617.71997
-58.580002 -97.879997 -617.83002
-58.009998 -97.879997 -617.82001
-57.459999 -97.900002 -617.96002
-56.900002 -97.910004 -618.07001
-56.330002 -97.910004 -618.04999
-55.779999 -97.940002 -618.21997
-55.23 -97.970001 -618.42999
-54.68 -98 -618.59998
-54.119999 -98.019997 -618.71002
-53.57 -98.040001 -618.85999
-53.02 -98.080002 -619.10999
-52.48 -98.129997 -619.44
-51.950001 -98.199997 -619.84003
-51.43 -98.279999 -620.37
-50.900002 -98.370003 -620.89001
-50.389999 -98.480003 -621.58002
-49.849998 -98.550003 -622.04999
-49.32 -98.629997 -622.53003
-40.529999 -108.77 -685.62
-39.849998 -108.63 -684.75
-37.549999 -107.44 -677.40002
-36.860001 -107.23 -676.04999
-36.169998 -107.04 -674.90997
-35.5 -106.88 -673.90002
-34.849998 -106.8 -673.40002
-34.240002 -106.8 -673.41998
-33.619999 -106.81 -673.46997
-33.009998 -106.83 -673.59003
-32.389999 -106.84 -673.66998
-31.809999 -106.97 -674.47998
-31.25 -107.15 -675.59003
29.16 -101.43 -640
29.65 -101.1 -637.94
30.190001 -100.96 -637.03003
30.74 -100.83 -636.22998
31.290001 -100.73 -635.59998
31.85 -100.63 -635
32.400002 -100.54 -634.41998
32.970001 -100.5 -634.21002
33.52 -100.42 -633.71997
34.09 -100.37 -633.40002
34.66 -100.34 -633.21997
35.240002 -100.33 -633.14001
35.830002 -100.35 -633.27002
36.41 -100.36 -633.31
37.009998 -100.4 -633.58002
37.599998 -100.43 -633.76001
38.189999 -100.45 -633.90002
38.77 -100.46 -633.94
39.369999 -100.5 -634.20001
39.959999 -100.52 -634.34003
40.560001 -100.57 -634.64001
41.16 -100.61 -634.85999
41.740002 -100.61 -634.88
42.330002 -100.62 -634.92999
42.889999 -100.58 -634.65997
43.48 -100.57 -634.64001
44.060001 -100.57 -634.64001
44.650002 -100.61 -634.83002
45.290001 -100.73 -635.59003
45.919998 -100.82 -636.17999
46.549999 -100.93 -636.82001
47.200001 -101.06 -637.63
47.84 -101.18 -638.41998
-164.88 -91.68 -576.13
-164.32001 -91.660004 -576.03998
-163.74001 -91.629997 -575.84998
-163.16 -91.610001 -575.65997
-162.60001 -91.580002 -575.52002
-162.05 -91.57 -575.45001
-161.59 -91.610001 -575.67999
-161.16 -91.660004 -576
-160.75999 -91.739998 -576.45001
-160.38 -91.82 -576.97998
-159.92999 -91.870003 -577.27002
-159.45 -91.889999 -577.40997
-158.96001 -91.919998 -577.56
-158.48 -91.949997 -577.72998
-158.02 -91.989998 -577.96997
-157.58 -92.040001 -578.32001
-157.16 -92.110001 -578.70001
-156.74001 -92.169998 -579.09003
-156.39 -92.279999 -579.77002
-156.00999 -92.370003 -580.32001
-155.66 -92.480003 -580.97998
-155.27 -92.559998 -581.48999
-154.89 -92.650002 -582.03998
-154.41 -92.690002 -582.25
-153.92 -92.709999 -582.39001
-153.46001 -92.75 -582.67999
-153.03 -92.82 -583.06
-153.11 -93.190002 -585.39001
-153.7 -93.879997 -589.64001
-153.35001 -94 -590.35999
-153.17 -94.220001 -591.70001
-152.92 -94.400002 -592.82001
-152.64 -94.559998 -593.83002
-152.28 -94.68 -594.56
-152.14 -94.93 -596.10999
-151.88 -95.110001 -597.21997
-151.89 -95.459999 -599.35999
-151.64 -95.650002 -600.53003
-151.2 -95.720001 -600.97998
-131.88 -95.300003 -598.28998
-131.33 -95.290001 -598.27002
-130.38 -95 -596.47998
-129.28 -94.599998 -593.96997
-128.53 -94.449997 -593.03998
-127.94 -94.410004 -592.83002
-127.19 -94.260002 -591.89001
-126.55 -94.190002 -591.41998
-126.01 -94.190002 -591.42999
-125.46 -94.190002 -591.41998
-124.97 -94.230003 -591.65002
-124.33 -94.150002 -591.19
-121.69 -92.550003 -581.31
-120.94 -92.389999 -580.28003
-120.15 -92.190002 -579.06
-119.4 -92.029999 -578.04999
-118.71 -91.900002 -577.26001
-118.05 -91.790001 -576.62
-117.41 -91.709999 -576.09003
-116.8 -91.639999 -575.67999
-116.16 -91.559998 -575.15997
-115.55 -91.489998 -574.72998
-114.93 -91.410004 -574.26001
-114.35 -91.370003 -574.01001
-113.77 -91.330002 -573.72998
-113.22 -91.309998 -573.60999
-112.66 -91.279999 -573.44
-112.11 -91.260002 -573.31
-111.54 -91.230003 -573.13
-111 -91.220001 -573.04999
-110.47 -91.209999 -573.01001
-109.92 -91.190002 -572.88
-109.37 -91.169998 -572.75
-108.84 -91.160004 -572.71002
-108.29 -91.150002 -572.60999
-107.74 -91.120003 -572.46002
-107.18 -91.099998 -572.29999
-106.62 -91.059998 -572.07001
-106.04 -91.010002 -571.78998
-105.49 -90.989998 -571.64001
-104.92 -90.949997 -571.40997
-104.38 -90.940002 -571.31
-103.85 -90.940002 -571.31
-103.32 -90.93 -571.27002
-102.77 -90.900002 -571.08002
-102.22 -90.879997 -570.97998
-101.67 -90.860001 -570.82001
-101.12 -90.830002 -570.65997
-100.58 -90.82 -570.58002
-100.11 -90.860001 -570.84003
-99.620003 -90.889999 -571.03998
-99.010002 -90.809998 -570.54999
-98.489998 -90.809998 -570.54999
-97.949997 -90.809998 -570.5
-97.43 -90.800003 -570.46997
-96.919998 -90.82 -570.58002
-96.419998 -90.839996 -570.69
-95.889999 -90.839996 -570.69
-95.389999 -90.860001 -570.82001
-94.879997 -90.870003 -570.88
-94.379997 -90.889999 -571
-93.879997 -90.910004 -571.16998
-93.370003 -90.93 -571.26001
-92.860001 -90.940002 -571.34998
-92.360001 -90.959999 -571.48999
-91.860001 -90.980003 -571.59003
-91.370003 -91.019997 -571.81
-90.860001 -91.040001 -571.94
-90.370003 -91.059998 -572.09003
-89.849998 -91.080002 -572.17999
-89.349998 -91.099998 -572.32001
-88.849998 -91.120003 -572.47998
-88.370003 -91.169998 -572.73999
-87.879997 -91.199997 -572.96002
-87.379997 -91.230003 -573.15002
-86.879997 -91.260002 -573.32001
-86.389999 -91.290001 -573.51001
-85.900002 -91.330002 -573.73999
-85.419998 -91.379997 -574.03998
-84.919998 -91.410004 -574.27002
-84.440002 -91.459999 -574.53998
-83.919998 -91.470001 -574.63
-83.480003 -91.559998 -575.17999
-83.019997 -91.629997 -575.63
-82.5 -91.639999 -575.69
-81.980003 -91.660004 -575.78003
-81.489998 -91.699997 -576.03998
-81 -91.739998 -576.32001
-80.519997 -91.790001 -576.63
-80.029999 -91.830002 -576.87
-79.529999 -91.870003 -577.12
-79.040001 -91.910004 -577.37
-78.559998 -91.970001 -577.71997
-78.07 -92.019997 -578.03003
-77.580002 -92.07 -578.32001
-77.110001 -92.129997 -578.75
-76.699997 -92.279999 -579.65997
-76.32 -92.459999 -580.79999
-75.900002 -92.599998 -581.64001
-75.379997 -92.620003 -581.78003
-74.889999 -92.669998 -582.06
-74.449997 -92.790001 -582.78998
-74.150002 -93.089996 -584.66998
-73.730003 -93.230003 -585.53998
-73.260002 -93.32 -586.08002
-72.779999 -93.379997 -586.48999
-72.32 -93.489998 -587.15997
-71.940002 -93.699997 -588.42999
-71.540001 -93.879997 -589.53998
-71.150002 -94.080002 -590.81
-70.800003 -94.330002 -592.34003
-70.400002 -94.529999 -593.56
-70.029999 -94.760002 -595
-69.620003 -94.940002 -596.14001
-69.279999 -95.230003 -597.94
-69.050003 -95.669998 -600.62
-63.509998 -98.18 -616.16998
-62.959999 -98.199997 -616.28003
-62.419998 -98.239998 -616.54999
-61.889999 -98.290001 -616.89001
-61.360001 -98.349998 -617.23999
-60.790001 -98.349998 -617.27002
-60.25 -98.389999 -617.51001
-59.709999 -98.43 -617.73999
-59.139999 -98.43 -617.71002
-58.57 -98.43 -617.75
-58.009998 -98.440002 -617.83002
-57.470001 -98.480003 -618.04999
-56.919998 -98.510002 -618.23999
-56.360001 -98.519997 -618.27002
-55.84 -98.599998 -618.81
-55.310001 -98.68 -619.31
-54.740002 -98.68 -619.28003
-54.169998 -98.669998 -619.23999
-53.599998 -98.669998 -619.23999
-53.060001 -98.709999 -619.5
-52.52 -98.779999 -619.89001
-51.98 -98.82 -620.15002
-51.459999 -98.919998 -620.78003
-50.93 -98.989998 -621.21002
-50.41 -99.099998 -621.90997
-49.880001 -99.169998 -622.34003
-49.34 -99.25 -622.81
-40.52 -109.35 -685.29999
-39.810001 -109.13 -683.97998
-39.049999 -108.77 -681.73999
-38.240002 -108.24 -678.47998
-37.509998 -107.95 -676.65997
-36.830002 -107.76 -675.53003
-36.130001 -107.55 -674.21002
-35.48 -107.43 -673.48999
-34.84 -107.38 -673.17999
-34.220001 -107.38 -673.17999
-33.610001 -107.38 -673.16998
-32.990002 -107.4 -673.29999
-32.389999 -107.44 -673.53003
-31.809999 -107.57 -674.33002
-31.24 -107.77 -675.54999
29.65 -101.67 -637.81
30.190001 -101.51 -636.84003
30.73 -101.38 -636.06
31.290001 -101.29 -635.46997
31.85 -101.22 -635.03998
32.389999 -101.11 -634.34998
32.959999 -101.07 -634.13
33.529999 -101.02 -633.81
34.080002 -100.94 -633.31
34.639999 -100.88 -632.95001
35.220001 -100.87 -632.89001
35.810001 -100.88 -632.94
36.389999 -100.89 -633.02002
36.990002 -100.93 -633.27002
37.580002 -100.97 -633.46997
38.18 -101.02 -633.79999
38.77 -101.02 -633.83002
39.360001 -101.07 -634.09998
39.959999 -101.11 -634.38
40.560001 -101.15 -634.57001
41.150002 -101.18 -634.77002
41.740002 -101.19 -634.83002
42.32 -101.17 -634.73999
42.900002 -101.17 -634.71997
43.470001 -101.14 -634.54999
44.07 -101.18 -634.78998
44.68 -101.24 -635.14001
45.310001 -101.35 -635.81
45.91 -101.4 -636.12
46.560001 -101.52 -636.90002
47.200001 -101.66 -637.73999
47.869999 -101.83 -638.78003
-164.50999 -92.300003 -576.67999
-163.96001 -92.290001 -576.60999
-163.35001 -92.239998 -576.33002
-162.75999 -92.209999 -576.09998
-162.19 -92.18 -575.96002
-161.69 -92.199997 -576.03003
-161.22 -92.230003 -576.23999
-160.82001 -92.300003 -576.67999
-160.41 -92.370003 -577.08002
-159.98 -92.43 -577.42999
-159.48 -92.449997 -577.54999
-158.98 -92.459999 -577.63
-158.5 -92.489998 -577.81
-158.03999 -92.529999 -578.06
-157.60001 -92.580002 -578.39001
-157.17999 -92.650002 -578.78998
-156.78 -92.730003 -579.25
-156.44 -92.839996 -579.95001
-156.03 -92.910004 -580.38
-155.71001 -93.040001 -581.14001
-155.36 -93.150002 -581.84003
-155.03 -93.269997 -582.58002
-154.53 -93.290001 -582.69
-154.02 -93.300003 -582.77002
-153.53999 -93.339996 -582.97998
-153.09 -93.389999 -583.27002
-153.67999 -94.080002 -587.52002
-153.77 -94.459999 -589.89001
-153.45 -94.599998 -590.72998
-153.32001 -94.849998 -592.27002
-152.97 -94.980003 -593.03003
-152.82001 -95.220001 -594.51001
-152.37 -95.279999 -594.89001
-152.42 -95.650002 -597.17999
-152.3 -95.919998 -598.84998
-152.2 -96.199997 -600.57001
-151.78 -96.290001 -601.08002
-151.31 -96.339996 -601.39001
-131.8 -95.790001 -597.92999
-131.36 -95.870003 -598.41998
-130.8 -95.860001 -598.39001
-129.67999 -95.440002 -595.79999
-128.67 -95.089996 -593.65997
-128.00999 -95.010002 -593.15997
-127.38 -94.949997 -592.77002
-126.6 -94.769997 -591.69
-126.05 -94.760002 -591.60999
-125.52 -94.769997 -591.66998
-124.97 -94.769997 -591.64001
-124.49 -94.809998 -591.94
-122.92 -94.029999 -587.09998
-121.03 -92.989998 -580.71997
-120.23 -92.779999 -579.45001
-119.48 -92.610001 -578.40002
-118.73 -92.440002 -577.34998
-118.06 -92.330002 -576.66998
-117.41 -92.239998 -576.09003
-116.79 -92.160004 -575.64001
-116.15 -92.080002 -575.10999
-115.54 -92.010002 -574.70001
-114.92 -91.93 -574.21997
-114.34 -91.900002 -573.98999
-113.77 -91.860001 -573.76001
-113.21 -91.830002 -573.59003
-112.65 -91.800003 -573.40997
-112.1 -91.779999 -573.28998
-111.56 -91.769997 -573.17999
-111.02 -91.75 -573.10999
-110.47 -91.739998 -573.01001
-109.94 -91.730003 -572.96002
-109.39 -91.709999 -572.84003
-108.85 -91.699997 -572.78003
-108.31 -91.690002 -572.71002
-107.76 -91.669998 -572.59003
-107.21 -91.639999 -572.40997
-106.64 -91.610001 -572.21002
-106.08 -91.580002 -572.03003
-105.5 -91.529999 -571.71002
-104.95 -91.5 -571.56
-104.41 -91.489998 -571.51001
-103.86 -91.470001 -571.34998
-103.33 -91.459999 -571.29999
-102.77 -91.43 -571.13
-102.24 -91.419998 -571.07001
-101.7 -91.410004 -570.97998
-101.2 -91.43 -571.10999
-100.72 -91.470001 -571.35999
-100.25 -91.519997 -571.67999
-99.650002 -91.449997 -571.23999
-99.050003 -91.379997 -570.79999
-98.5 -91.349998 -570.65002
-97.989998 -91.360001 -570.71002
-97.459999 -91.360001 -570.67999
-96.949997 -91.360001 -570.71997
-96.440002 -91.379997 -570.82001
-95.93 -91.400002 -570.92999
-95.419998 -91.410004 -570.98999
-94.910004 -91.410004 -571.03003
-94.410004 -91.440002 -571.21002
-93.900002 -91.459999 -571.29999
-93.400002 -91.480003 -571.44
-92.889999 -91.489998 -571.53003
-92.389999 -91.510002 -571.65002
-91.889999 -91.540001 -571.78003
-91.389999 -91.559998 -571.95001
-90.879997 -91.580002 -572.03003
-90.389999 -91.610001 -572.23999
-89.889999 -91.639999 -572.42999
