# .PCD v0.7 - Point Cloud Data file format
VERSION 0.7
FIELDS x y z
SIZE 4 4 4
TYPE F F F
COUNT 1 1 1
WIDTH 1688
HEIGHT 1
VIEWPOINT 0 0 0 1 0 0 0
POINTS 1688
DATA ascii
-47.533001 -148.78999 -608.37
-47.868999 -148.02 -606.87
-27.604 -147.97 -607.78998
-27.849001 -147.50999 -607.01001
-28.104 -146.92999 -607.70001
-48.986 -144.28 -606.65002
-29.186001 -142.60001 -607.75
-29.299999 -141.98 -607.95001
-50.176998 -138.07001 -607.29999
-29.747999 -138.59 -607.47998
-29.459999 -138.00999 -607.09998
-50.464001 -136.57001 -608.08002
-29.297001 -136.83 -607.28998
-29.202 -136.5 -607.90997
-29.368999 -134.62 -608.15002
-50.342999 -134.87 -607.44
-29.298 -134.03 -607.79999
-50.209 -132.66 -607.34998
-29.318001 -133.03 -607.46002
-49.778999 -127.08 -608.02002
-23.787001 -126.88 -607.31
-49.134998 -126.3 -606.52002
-49.050999 -125.27 -607.01001
-47.548 -121.22 -607.90002
-14.353 -121.07 -607.72998
-47.029999 -120.2 -607.21997
-11.722 -119.76 -607.16998
-8.6632004 -118.42 -606.07001
0.22808 -115.47 -607.15002
-44.618 -115.28 -607.83002
3.2723999 -114.56 -607.94
8.0843 -112.98 -608.02002
-42.859001 -112.46 -607.97998
11.227 -111.48 -607.20001
17.478001 -108.66 -607.81
-39.698002 -108.28 -607.04999
19.047001 -107.74 -606.98999
20.341 -107.28 -607.79999
-38.700001 -106.84 -607.42999
29.18 -102.16 -607.31
31.193001 -100.42 -607.33002
32.832001 -99.168999 -606.53998
-31.833 -99.401001 -607.35999
-29.054001 -96.407997 -606.94
-27.959 -95.246002 -607.35999
41.210999 -89.181 -607.12
-21.517 -88.407997 -607.44
-20.738001 -87.040001 -607.62
-19.933001 -85.879997 -606.88
-19.101 -84.647003 -606.87
-19.158001 -84.498001 -608.28998
45.932999 -81.453003 -606.97998
-17.007 -80.700996 -607.90997
48.453999 -77.158997 -607.62
49.529999 -75.280998 -607.75
-14.256 -73.441002 -606.85999
50.686001 -73.515999 -607.21002
52.794998 -71.077003 -607.63
53.714001 -70.055 -607.22998
54.310001 -68.589996 -607.84003
56.051998 -65.903999 -606.85999
-11.478 -65.601997 -607.03998
56.101002 -65.045998 -607.79999
-10.868 -63.298 -607.14001
58.893002 -61.000999 -607.23999
60.058998 -59.765999 -607.32001
60.887001 -58.519001 -607.45001
61.464001 -57.522999 -607.33002
-8.3123999 -56.558998 -607.31
63.025002 -55.206001 -607.79999
-7.3136001 -54.575001 -607.75
65.219002 -52.98 -607.83002
66.049004 -52.101002 -607.84003
67.134003 -51.265999 -607.51001
68.164001 -50.272999 -607.34003
70.102997 -48.618999 -607.42999
71.362 -46.587002 -607.10999
71.749001 -45.977001 -607.46997
-1.2062 -45.074001 -606.96997
-1.3529 -45.306999 -608.47998
74.136002 -44.087002 -607.62
75.338997 -43.248001 -607.72998
77.182999 -42.568001 -607.84998
78.257004 -42.108002 -607.13
80.415001 -40.973 -607.34003
3.6705999 -40.824001 -607.07001
81.550003 -40.077999 -607.15002
83.542999 -39.291 -607.23999
86.219002 -38.644001 -607.53003
87.382004 -38.570999 -607.09003
93.515999 -38.307999 -607.70001
98.342003 -37.854 -607.37
99.075996 -37.612 -608.37
100.1 -37.331001 -607.90997
11.727 -35.341 -606.87
104.11 -35.658001 -607.42999
13.393 -34.268002 -607.54999
105.51 -34.928001 -607.90002
14.271 -33.657001 -607.98999
16.469999 -32.307999 -606.81
24.833 -28.811001 -606.78998
26.41 -27.413 -607.46002
110.88 -26.677 -606.60999
110.94 -26.641001 -607.67999
31.341999 -23.806999 -608.12
111.45 -22.816 -607.19
34.682999 -21.167999 -607
37.134998 -19.846001 -607.23999
38.166 -19.431999 -607.5
39.686001 -18.931999 -607.59003
43.317001 -17.927999 -606.83002
45.827999 -17.374001 -607.44
50.68 -16.525999 -606.84998
53.907001 -16.059 -607.29999
60.599998 -15.459 -606.41998
62.358002 -15.067 -607.38
63.137001 -15.06 -606.67999
65.494003 -14.115 -607.59998
111.05 -13.816 -606.62
67.647003 -13.319 -607.69
69.748001 -12.049 -607.64001
75.231003 -6.1714001 -607.51001
109.32 -5.6476998 -608.37
108.74 -2.1979001 -607.75
80.389 0.034619 -608.12
108.41 -0.81493002 -606.69
108.11 1.8094 -607.25
107.91 3.6248 -607.48999
82.322998 4.6935 -607.60999
82.573997 5.4857001 -607.5
83.011002 7.8074999 -607.91998
83.797997 11.583 -607.25
59.226002 13.447 -607.54999
83.958 13.215 -607.88
60.117001 13.271 -607.59998
60.889 13.161 -607.44
61.344002 13.668 -607.35999
84.227997 14.016 -607.10999
58.293999 14.333 -607.40002
60.160999 14.976 -607.79999
60.824001 14.736 -607.67999
58.278 14.944 -607.40002
59.141998 14.584 -607.66998
61.359001 14.758 -607.40997
61.375999 15.508 -607.44
59.034 16.329 -607.82001
60.862999 15.992 -607.76001
61.153999 16.639 -607.33002
105.7 16.613001 -607.77002
60.813 17.179001 -607.71997
105.31 17.681 -607.53998
57.396999 18.157 -607.42999
60.810001 17.959999 -607.35999
56.689999 19.070999 -607.42999
60.223999 19.250999 -607.38
56.250999 19.877001 -607.44
85.213997 19.908001 -607.10999
103.3 20.408001 -607.90002
56.174 20.514999 -607.53003
59.492001 20.277 -607.35999
55.723 20.865 -607.46997
58.860001 20.968 -607.39001
55.528999 21.441999 -607.47998
55.705002 21.976999 -607.42999
58.120998 21.742001 -607.38
86.302002 22.316 -608.03003
92.944 21.934999 -607.58002
93.342003 21.905001 -607.40997
93.811996 21.937 -607.37
56.339001 22.554001 -607.15002
57.25 22.326 -607.40002
90.325996 22.462999 -607.53003
94.625999 22.42 -607.44
101.21 22.51 -606.90002
94.612 22.954 -607.91998
95.953003 23.135 -607.69
98.815002 23.500999 -605.96002
-20.889 -170.11 -607.01001
-16.267 -169.59 -606.92999
-14.766 -168.21001 -607.22998
-28.896 -168.22 -606.65997
-14.295 -167.21001 -607.44
-12.864 -166.06 -606.95001
-13.258 -164.61 -607.12
-36.904999 -162.74001 -607.10999
-14.917 -161.64999 -606.76001
-15.715 -161.62 -607.35999
-18.987 -158.86 -607.23999
-20.635 -157.14 -607.13
-42.983002 -156.42999 -607.21002
-43.449001 -155.64 -607.13
-22.148001 -155.55 -606.89001
-45.658001 -152.33 -606.67999
-24.863001 -152.47 -606.95001
-47.429001 -149.02 -606.5
-26.893 -149.46001 -606.88
-28.277 -146.57001 -606.83002
-48.477001 -146.17999 -606.5
-28.872999 -144.5 -607.04999
-28.99 -143.82001 -607.38
-29.882 -139.61 -607.10999
-29.881001 -139.10001 -607.71997
-29.368 -137.42 -606.46002
-28.948999 -132.31 -606.52002
-27.872 -132.08 -607.78003
-27.597 -131.62 -607.33002
-27.065001 -130.78 -606.94
-26.414 -130.17999 -607.62
-25.393 -128.66 -607.17999
-20.947001 -124.4 -606.64001
-16.966 -122.17 -607.16998
-15.061 -121.07 -606.53003
-45.669998 -117.76 -606.5
-6.5166001 -117.8 -607.12
-45.382 -116.66 -607.34998
-2.0281999 -116.3 -607.23999
2.3102 -114.55 -606.58002
-43.823002 -114.66 -606.42999
3.6989 -114.07 -606.38
-43.257999 -113.56 -607.08002
-42.632 -112.6 -606.78003
11.971 -110.87 -605.84998
-41.063 -109.94 -607.47998
14.95 -109.62 -606.37
-38.221001 -106.52 -606.71002
20.285999 -107.17 -606.82001
22.707001 -105.89 -606.71997
23.781 -105.48 -606.97998
-37.266998 -105.21 -607.31
24.948999 -104.85 -607.35999
-34.577999 -102.62 -606.40002
33.966 -98.358002 -607.59998
-29.681 -96.809998 -608.06
35.577999 -96.495003 -607.37
-27.785 -95.248001 -606.54999
-25.245001 -92.726997 -607.28998
-24.472 -92.014999 -607.07001
39.734001 -91.216003 -607.37
40.005001 -90.744003 -606.37
-20.936001 -87.732002 -606.69
44.952999 -83.390999 -607.16998
-18.120001 -82.752998 -607.37
46.851002 -79.782997 -607.09998
47.662998 -78.456001 -607.37
-15.628 -78.132004 -606.37
50.349998 -73.961998 -607.79999
-13.865 -71.986 -607.10999
51.544998 -72.121002 -606.84998
53.389999 -70.698997 -606.64001
-13.559 -71.196999 -606.65002
-12.611 -69.012001 -607.75
54.435001 -69.184998 -606.40997
-12.044 -67.329002 -607.37
55.464001 -66.960999 -606.90997
58.228001 -61.889 -607.22998
-9.8361998 -60.094002 -606.85999
60.952999 -59.417 -606.51001
61.664001 -58.370998 -606.32001
61.995998 -56.859001 -607.19
-7.5085001 -55.147999 -606.75
-6.5015998 -52.979 -607.03003
70.922997 -47.519001 -607.03003
76.211998 -42.825001 -607.16998
79.775002 -41.376999 -607.20001
82.557999 -39.632 -607.22998
6.6865001 -38.603001 -606.84003
88.763 -38.348999 -607.02002
91.676003 -38.300999 -607.25
108.87 -31.605 -607.12
25.271999 -28.548 -606.69
25.931 -27.718 -606.59003
27.813999 -26.219999 -606.97998
29.059 -25.316 -607.38
32.125 -22.931 -606.57001
32.835999 -22.746 -607.88
33.433998 -22.063999 -607
36.041 -20.226 -606.60999
38.722 -18.987 -606.84998
41.27 -18.424 -606.95001
111.53 -17.441 -607.5
46.527 -17.242001 -607.78003
52.566002 -16.233999 -606.67999
62.699001 -15.31 -606.09998
68.669998 -12.996 -607.07001
110.81 -12.537 -606.60999
109.58 -6.8780999 -607.37
77.188004 -4.3422999 -607.22998
80.032997 -1.7462 -606.13
108.69 -2.8155999 -606.12
81.450996 1.5881 -607.27002
82.853996 6.9109998 -607.14001
83.345001 9.4799995 -607.33002
106.89 9.5721998 -606.90002
59.660999 11.333 -607.09003
60.554001 11.257 -606.96002
58.584 12.005 -607.04999
83.971001 12.044 -606.58002
57.811001 12.689 -606.85999
58.397999 13.033 -607.25
61.369999 12.426 -607.02002
57.789001 13.434 -606.92999
61.689999 13.578 -606.87
57.787998 14.141 -607.04999
57.833 15.323 -606.89001
61.683998 14.59 -606.85999
61.505001 15.723 -606.98999
105.85 15.138 -607.15002
57.925999 16.281 -607.15997
57.903 17.09 -607.42999
57.514 17.264999 -606.85999
61.212002 17.062 -606.90997
56.903 18.421 -606.87
60.938999 18.039 -606.85999
84.858002 18.221001 -606.65997
56.459999 19.195999 -606.87
103.78 19.051001 -607.09003
103.36 19.242001 -606.90002
59.825001 20.082001 -606.59003
55.766998 20.577999 -606.87
85.700996 21.158001 -606.78003
55.349998 21.926001 -606.84003
58.966999 21.112 -606.82001
92.390999 21.893999 -606.90997
94.461998 21.344999 -606.91998
94.989998 21.914 -606.94
55.826 22.448999 -606.89001
57.410999 22.305 -606.92999
90.295998 22.169001 -606.78998
90.813004 22.117001 -606.90997
91.586998 22.089001 -606.87
95.527 22.514999 -607.06
96.654999 23.440001 -606.90002
100.27 23.129999 -606.75
97.828003 23.996 -607.60999
99.353996 23.799999 -607.94
-19.365 -170.48 -606.63
-18.319 -170.59 -606.37
-20.653999 -170.60001 -606.21997
-16.938999 -170.72 -606.03998
-24.861 -169.42999 -606.60999
-14.827 -169.89999 -606.23999
-25.323999 -169.44 -606.08002
-13.712 -169.75 -605.96002
-28.257 -168.34 -607.21002
-27.427999 -168.71001 -606.70001
-13.089 -167.8 -606.66998
-12.354 -166.81 -606.59003
-31.563 -166.95 -606.38
-33.530998 -165.57001 -606.03998
-13.154 -163.67 -606.88
-13.494 -162.78999 -606.73999
-37.327999 -162.47 -606.37
-13.785 -162.11 -606.34998
-15.935 -160.78999 -606.46997
-17.999001 -159.48 -606.97998
-41.098 -158.81 -606.91998
-18.511999 -158.75999 -606.40002
-41.498001 -158.23 -606.59003
-21.372999 -155.83 -606.35999
-43.876999 -155.08 -606.59998
-22.27 -155.02 -606.46997
-44.916 -153.41 -606.82001
-46.355 -151.23 -606.66998
-28.136 -147.14999 -605.58002
-28.83 -144.77 -606.28003
-49.183998 -142.88 -606.07001
-29.117001 -142.62 -606.65997
-49.553001 -142.14 -607.22998
-29.747999 -141.11 -606.17999
-49.798 -140.53999 -606.90997
-29.941 -140.11 -606.06
-30.16 -139.57001 -605.87
-49.992001 -139.61 -607.38
-30.014999 -139.07001 -606.37
-29.716999 -138.08 -605.85999
-50.096001 -136.92 -606.59998
-29.23 -135.92 -606.37
-49.881001 -135.25999 -605.83002
-29.271999 -135.03999 -606.42999
-29.357 -134.61 -606.64001
-29.266001 -134.07001 -606.84003
-29.395 -133.17999 -606.54999
-49.855999 -133.57001 -606
-26.872 -129.92 -606.02002
-49.854 -129.57001 -606.94
-26.073 -128.89999 -606.03998
-22.981001 -125.87 -606.53998
-48.679001 -124.77 -606.45001
-21.934 -125.08 -606.81
-19.819 -123.65 -606.51001
-19.07 -123 -605.75
-47.978001 -122.4 -606.89001
-46.368 -119.18 -606.59998
-10.191 -119.13 -606.40997
-4.0035 -116.79 -606.63
1.1395 -114.91 -606.19
-41.828999 -111.86 -605.88
-41.264999 -110.86 -606.26001
-40.179001 -109.13 -606.59998
-38.782001 -107.67 -606.09998
17.066 -108.64 -606.65002
21.349001 -106.57 -606.12
-36.41 -104.55 -606.57001
25.985001 -104.14 -606.28003
28.030001 -102.83 -606.22998
-32.594002 -100.52 -606.94
-30.410999 -97.996002 -606.46002
-29.558001 -97.380997 -605.79999
-26.559 -93.929001 -607.59003
-24.079 -92.047997 -605.85999
-22.496 -90.112999 -606.25
42.771999 -86.968002 -606.64001
-20.004999 -86.177002 -606.34003
44.292999 -84.371002 -605.87
-18.003 -82.966003 -605.87
-16.761 -80.475998 -606.08002
47.147999 -79.165001 -606.20001
-15.161 -77.056999 -605.78998
48.278 -77.463997 -606.87
49.238998 -75.841003 -606.87
-14.628 -74.769997 -606.87
50.297001 -74.081001 -606.04999
52.926998 -71.125999 -606.62
-12.456 -68.959999 -605.98999
56.776001 -65.044998 -606.40997
-10.677 -63.201 -605.96997
-10.265 -61.306 -607.48999
59.070999 -61.423 -606.40997
60.286999 -60.275002 -606.51001
62.667 -56.666 -606.46002
63.879002 -55.733002 -605.98999
64.068001 -54.876999 -606.71002
-6.8842001 -53.925999 -606.44
65.127998 -53.937 -605.97998
68.713997 -50.035999 -606.40997
69.216003 -49.651001 -606.60999
69.931 -49.099998 -606.59003
70.388 -48.575001 -606.57001
70.777 -47.93 -606.09003
71.353996 -46.744999 -606.37
71.883003 -45.987999 -606.03998
72.374001 -45.569 -606.60999
74.713997 -43.716 -606.81
75.572998 -43.097 -606.67999
1.6593 -42.373001 -606.25
76.529999 -42.480999 -606.26001
77.969002 -42.000999 -606.39001
80.162003 -41.02 -606.76001
81.440002 -39.984001 -606.34998
83.925003 -39.039001 -606.12
85.890999 -38.726002 -606.63
90.848 -38.426998 -606.85999
92.579002 -38.236 -607.03998
9.2458 -37.040001 -606.75
99.261002 -37.611 -605.92999
102.79 -36.113998 -605.92999
105.05 -35.034 -606.31
106.09 -34.386002 -606.46002
15.079 -33.202999 -606.75
107.78 -32.937 -606.82001
108.07 -32.494999 -605.54999
24.231001 -28.972 -606.84998
110.37 -28.627001 -607.37
110.61 -27.628 -605.94
28.737 -25.051001 -605.91998
28.952999 -24.966 -606.29999
30 -24.51 -606.71997
32.806999 -22.037001 -605.71997
34.570999 -20.677 -605.81
111.58 -20.962999 -606.78003
111.52 -20.566 -605.87
40.159 -18.440001 -606.52002
41.006001 -18.208 -606.33002
42.213001 -18.056 -606.40002
43.902 -17.586 -606.07001
44.757 -17.563 -606.39001
45.091999 -17.562 -606.84998
47.904999 -17.084999 -605.48999
49.591999 -16.76 -606.25
64.790001 -14.635 -606.32001
66.348 -14.122 -606.57001
67.487999 -13.684 -606.76001
69.241997 -13.002 -606.26001
70.971001 -11.405 -606.84998
110.27 -10.114 -606.15997
77.097 -5.3058 -606.08002
79.139 -2.8269 -606.40997
82.000999 2.2074001 -605.72998
82.029999 2.7005999 -606.67999
82.286003 3.8169999 -606.67999
82.570999 4.6303 -606.62
107.51 5.7028999 -606.52002
82.774002 6.2213998 -606.53003
107.34 6.7958999 -606.87
83.150002 8.1022997 -606.71002
83.365997 8.8078003 -605.84003
106.89 8.4603996 -605.70001
60.622002 10.158 -606.44
106.52 10.299 -605.71002
59.783001 10.504 -606.79999
60.346001 10.539 -606.75
58.785999 10.586 -606.66998
61.367001 11.204 -606.47998
57.452 11.08 -606.39001
57.805 11.752 -606.67999
57.256001 12.301 -606.46002
84.184998 13.572 -606.64001
57.348 13.105 -606.40997
57.234001 14.009 -606.04999
106.1 13.104 -606.47998
57.389 14.936 -605.92999
57.608002 15.653 -606.38
105.43 16.584 -606.46002
104.91 17.511 -605.95001
57.324001 17.580999 -606.35999
61.068001 17.832001 -605.94
104.86 18.063999 -606.71002
103.34 18.186001 -605.92999
104.33 18.698999 -607.10999
104.35 17.927 -605.87
60.418999 19.129999 -606.82001
56.516998 19.121 -606.45001
102.79 19.660999 -606.37
55.970001 20.202 -606.34998
55.625 20.934 -606.37
102.11 21.452 -606.78998
58.911999 20.962999 -605.83002
92.768997 21.356001 -606.32001
93.663002 21.559999 -606.89001
93.488998 21.278999 -606.29999
55.171001 21.417 -606.83002
57.848999 21.940001 -606.33002
86.537003 22.188 -606.79999
94.858002 21.677 -606.40002
55.285999 22.575001 -605.84003
57.214001 22.334 -606.35999
89.32 22.971001 -606.95001
90.113998 22.056999 -606.32001
91.293999 21.933001 -606.35999
96.299004 23.035 -606.34003
56.155998 22.509001 -606.38
87.533997 22.698999 -606.46002
88.334 23.004 -606.67999
88.838997 22.950001 -606.59998
97.362999 23.702 -606.54999
98.092003 23.650999 -606.25
-22.094 -170.28999 -606.19
-18.952 -171.06 -605.60999
-16.02 -170.48 -606.09998
-26.208 -169.03 -606.79999
-12.546 -168.77 -606.06
-29.528999 -168.10001 -605.60999
-30.582001 -167.58 -606
-10.699 -167.84 -605.57001
-10.946 -166.77 -605.90997
-11.359 -165.07001 -606.07001
-12.011 -164.37 -606.32001
-35.485001 -163.97 -606.15997
-12.342 -163.17999 -606.10999
-37.176998 -162.55 -605.70001
-12.759 -162.52 -605.88
-13.184 -161.48 -605.09998
-39.154999 -160.78 -606.34998
-17.157 -159.56 -605.87
-40.570999 -159.34 -605.90002
-17.676001 -159.10001 -605.71997
-41.195999 -158.64 -605.87
-19.666 -157.57001 -605.84998
-19.159 -158.00999 -605.91998
-19.927 -157.45 -606.25
-20.157 -156.56 -605.87
-20.684999 -156.46001 -606.25
-43.695999 -155.25 -606.04999
-21.120001 -155.72 -605.59003
-44.268002 -154.2 -605.53003
-22.544001 -154.57001 -605.92999
-44.726002 -153.69 -606.28998
-23.677 -153.7 -606.48999
-24.283001 -153.11 -606.83002
-26.068001 -150.89 -606.87
-26.271 -150.86 -605.56
-27 -149.34 -606.15002
-47.331001 -148.82001 -605.66998
-47.967999 -147.25 -605.82001
-28.431999 -146.02 -606.32001
-48.527 -145.28999 -605.53003
-48.733002 -144.42 -605.53003
-29.035999 -143.61 -606.03003
-49.471001 -140.47 -605.64001
-49.491001 -139.49001 -605.52002
-30.271999 -139.08 -605.37
-29.837 -138.24001 -605.41998
-29.576 -137.49001 -605.65002
-49.757999 -136.61 -605.59998
-29.341 -136.02 -605.78003
-29.357 -132.55 -605.96997
-29.304001 -132.14 -605.35999
-49.568001 -132.19 -605.42999
-28.374001 -131.39 -605.52002
-49.689999 -130.42999 -606.08002
-49.307999 -127.77 -605.94
-25.094 -127.62 -605.87
-24.389 -127.14 -606.33002
-48.848999 -125.93 -605.96002
-23.396 -125.8 -605.63
-48.009998 -123.73 -605.52002
-48.112 -123.09 -606.46997
-16.313999 -121.65 -606.51001
-14.389 -120.41 -605.52002
-12.771 -120.04 -606.40997
-11.845 -119.51 -605.85999
-1.6364 -115.9 -605.88
5.3421998 -113.83 -607.37
6.5574002 -113.23 -606.57001
10.33 -111.52 -605.56
-37.390999 -105.9 -606.08002
-35.556999 -104.12 -605.53998
-33.292999 -101.43 -606.21002
29.533001 -101.77 -606.06
-30.240999 -98.271004 -605.57001
36.794998 -94.976997 -606.69
-25.926001 -93.956001 -605.46002
37.993999 -93.475998 -606.62
39.006001 -92.209 -606.28998
41.133999 -89.124001 -606.09003
-20.382999 -87.125999 -606.03003
42.233002 -87.370003 -605.20001
-19.57 -85.847 -605.47998
45.27 -82.538002 -605.32001
46.074001 -81.155998 -605.96002
-16.24 -79.343002 -606.56
-14.949 -76.066002 -606.87
-14.267 -74.094002 -605.12
-11.66 -67.058998 -605.34998
56.546001 -66.045998 -605
58.410999 -62.658001 -605.72998
61.396999 -59.207001 -605.87
62.021999 -58.173 -605.84003
62.925999 -56.723999 -605.87
-8.4382 -57.021999 -606.01001
64.786003 -54.337002 -605.88
66.102997 -53 -606.07001
67.317001 -51.548 -606.10999
68.126999 -50.630001 -605.98999
68.879997 -49.929001 -605.88
69.772003 -49.113998 -605.59998
70.361 -48.493 -605.64001
-3.4900999 -47.987 -605.65002
-1.985 -45.925999 -606.09003
73.247002 -44.948002 -606.20001
-0.31367999 -44.254002 -606.53003
73.598999 -44.484001 -605.5
75.830002 -42.681999 -605.65002
2.585 -41.619999 -605.31
79.529999 -41.155998 -606.17999
85.807999 -38.569 -605.72998
87.082001 -38.583 -605.98999
89.265999 -38.224998 -606.14001
90.344002 -38.334999 -606.35999
95.943001 -38.300999 -607.34003
7.4408002 -38.126999 -605.87
101.03 -37.008999 -606.66998
9.5965996 -36.887001 -605.5
101.6 -36.625 -605.08002
14.801 -33.533001 -604.76001
17.559 -31.655001 -605.87
108.77 -31.537001 -605.34003
18.936001 -30.931 -605.96002
109.94 -29.660999 -606.28998
23.525999 -29.201 -606.03003
110.23 -28.726 -605.62
25.868999 -27.483999 -605.72998
26.406 -27.208 -606.07001
111.13 -25.354 -605.84998
111.35 -21.284 -604.69
33.172001 -21.427 -605.12
111.54 -19.066 -605.62
37.501999 -19.149 -606.13
38.625999 -18.632999 -606.10999
41.327999 -17.686001 -605.82001
43.061001 -17.563999 -605.87
45.421001 -17.385 -605.90997
46.568001 -17.296 -605.88
52.112 -16.351 -606.27002
54.785 -16.153 -606.02002
57.687 -16.127001 -604.70001
57.404999 -15.752 -606.31
58.612999 -15.577 -606.37
64.804001 -14.755 -605.89001
68.226997 -14.086 -605.19
72.084999 -10.767 -606.22998
73.268997 -8.8093004 -607.09998
109.84 -8.0976 -606.31
109.26 -5.5655999 -605.87
108.29 0.50067002 -606.90002
82.677002 4.4780998 -605.44
82.762001 5.8996 -605.90002
83.031998 6.7372999 -605.91998
83.231003 7.8927002 -606.04999
58.779999 9.1363001 -606.06
59.668999 8.8912001 -605.90997
59.797001 9.6408997 -606.39001
61.351002 10.448 -605.89001
56.780998 11.241 -606.06
83.933998 10.935 -605.28998
83.805 11.17 -606.33002
56.701 12.138 -605.94
84.123001 11.963 -605.63
61.856998 12.557 -606.21002
57.012001 13.272 -605.94
84.234001 13.191 -605.44
61.895 14.423 -606.28998
105.73 15.109 -606.28003
84.528 14.913 -606.22998
57.551998 15.786 -605.91998
61.644001 15.738 -606.38
57.556999 16.521 -606.20001
84.750999 17.42 -605.96002
56.896 18.799999 -605.78003
60.818001 18.353001 -605.92999
85.112999 18.843 -605.95001
60.34 19.181 -605.85999
85.204002 19.690001 -606.09998
56.338001 20.143 -605.79999
59.833 19.913 -605.90997
85.829002 21.179001 -606.15002
55.262001 21.469999 -605.96997
92.049004 21.561001 -606.27002
91.842003 20.944 -605.87
55.328999 21.934 -605.83002
86.836998 22.108999 -606.03003
91.085999 21.457001 -605.90997
101.67 22.028999 -606.85999
56.341999 22.128 -605.87
57.341999 22.079 -605.87
95.362999 22.212999 -605.48999
99.282997 23.4 -606.14001
-16.452999 -171.11 -605.46002
-21.975 -170.72 -605.17999
-14.824 -170.98 -605.28003
-14.599 -170.59 -605.62
-23.396999 -170 -606.04999
-23.063 -170.48 -604.90002
-12.332 -170.22 -605.06
-26.855 -169.16 -605.40997
-27.715 -168.81 -605.40997
-31.718 -167.03 -605.21997
-30.738001 -167.58 -605.20001
-32.683998 -166.39999 -605.45001
-11.302 -165.82001 -606.07001
-33.830002 -165.47 -605.34998
-35.945999 -163.57001 -605.40997
-11.364 -164.03999 -605.83002
-10.581 -164.23 -605.45001
-11.219 -163.25999 -605.21002
-12.113 -162.55 -605.40002
-12.485 -161.97 -604.92999
-39.042 -160.7 -605.33002
-14.17 -161.52 -605.95001
-14.945 -160.78 -605.54999
-40.702 -159.11 -605.34003
-17.186001 -159.08 -605.34998
-41.116001 -158.56 -605.15002
-18.142 -158.13 -604.96997
-41.773998 -157.62 -605.15002
-19.084999 -157.53999 -605.52002
-18.686001 -157.94 -605.46997
-19.761999 -157.00999 -605.83002
-42.633999 -156.7 -605.84003
-19.981001 -156.44 -605.25
-42.856998 -155.95 -604.89001
-22.882999 -154.28999 -605.21997
-24.886 -152.64 -605.42999
-25.802999 -151.69 -605.01001
-46.800999 -149.87 -605.57001
-27.987 -147.84 -604.96997
-47.779999 -147.17999 -605.15002
-29.069 -143.86 -605.32001
-48.93 -142.7 -605.02002
-49.266998 -142.14999 -605.79999
-29.639 -134.37 -605.69
-29.672001 -133.08 -605.65002
-29.823999 -132.56 -605.13
-49.428001 -130.25 -605.35999
-26.754 -129.2 -605.35999
-49.026001 -128.94 -604.89001
-48.749001 -126.61 -605.17999
-48.303001 -124.69 -605.35999
-20.441999 -123.84 -605.69
-46.997002 -121.85 -604.92999
-47.158001 -121.07 -606.35999
-17.249001 -122.05 -606.02002
-15.798 -120.75 -604.88
-12.708 -119.42 -604.92999
-10.448 -119.03 -605.66998
-7.7832999 -118.04 -605.76001
-5.3034 -117.06 -605.71002
-44.535 -116.57 -605.37
-3.7421 -116.2 -604.78003
-43.222 -113.98 -605.84003
4.4040999 -113.51 -604.59998
-42.507999 -113.47 -605.02002
8.1569004 -112.47 -606.01001
-40.625 -110.81 -605.04999
-39.75 -109.58 -605.09003
15.601 -109.24 -605.62
-37.98 -107.7 -604.63
23.548 -105.47 -605.35999
30.893 -100.61 -605.62
-31.469 -99.566002 -605.98999
32.132999 -99.598999 -605.52002
34.137001 -97.859001 -605.37
35.570999 -96.467003 -606.15002
-27.504 -95.406998 -605.56
37.501999 -94.007004 -605.22998
39.849998 -90.704002 -605.28003
-21.659 -89.054001 -606.21002
41.164001 -88.779999 -604.90002
42.827 -86.723999 -605.71002
43.741001 -85.387001 -606.14001
-18.874001 -84.603996 -605.37
-17.309 -81.526001 -606.33002
-15.181 -77.272003 -604.95001
47.925999 -77.776001 -605.62
48.452999 -76.778 -605
49.354 -75.522003 -605.41998
-13.931 -72.338997 -606.04999
-13.484 -71.819 -604.21002
51.789001 -71.968002 -605.41998
53.988998 -70.035004 -606.09003
55.25 -68.228996 -605.26001
57.118999 -65 -605.21002
57.708 -63.946999 -605.40002
57.584999 -63.883999 -606
-9.967 -61.661999 -605.12
59.145 -61.724998 -605.73999
60.280998 -60.688999 -605.71002
-9.6556997 -60.139999 -605.60999
60.797001 -60.25 -605.02002
61.674999 -59.022999 -605.17999
-8.8610001 -58.189999 -605.63
62.808998 -57.113998 -605.23999
-7.6208 -55.652 -605.44
64.142998 -55.437 -605.20001
-6.5342002 -53.477001 -605.12
64.874001 -54.363998 -605.32001
66.011002 -53.292 -605.35999
-6.1037998 -52.426998 -605.84998
67.318001 -51.627998 -605.34998
-5.2869 -50.796001 -607.03003
68.444 -50.205002 -605.38
-2.8032999 -47.122002 -604.78998
71.32 -46.678001 -605.65997
71.747002 -45.960999 -605.37
72.471001 -45.365002 -605.39001
-1.2093 -45.096001 -604.88
0.59938997 -43.323002 -605.81
74.931 -43.330002 -605.52002
76.515999 -41.587002 -604.34998
3.8757 -40.604 -604.81
83.176003 -39.145 -605.79999
91.098 -38.105 -605.46002
95.170998 -38.194 -605.48999
96.247002 -38.287998 -605.34998
93.919998 -38.071999 -606.03003
97.886002 -37.995998 -606.04999
11.686 -35.543999 -605.12
103.96 -35.605999 -606.35999
13.18 -34.568001 -604.40997
107.37 -33.113998 -605.09003
23.124001 -29.332001 -605.37
24.805 -28.617001 -605.59998
26.91 -26.763 -605.56
110.76 -26.816 -605.12
27.792 -26.07 -605.79999
29.306999 -24.542999 -605.48999
30.275 -24.129999 -605.67999
111.32 -24.315001 -607
31.033001 -23.683001 -605.87
36.422001 -19.499001 -605.72998
36.688 -18.896999 -605.23999
39.865002 -17.937 -605.78998
40.271999 -16.962999 -605.14001
42.380001 -17.083 -605.40002
44.092999 -17.07 -605.35999
46.043999 -17.058001 -605.31
51.082001 -16.657 -605.28003
111.34 -16.061001 -606.64001
58.431 -16.042 -604.76001
62.484001 -15.642 -605.23999
63.68 -15.35 -605.31
110.87 -13.465 -605.31
70.566002 -12.002 -606.34998
73.912003 -9.1022997 -605.78998
75.880997 -6.5764999 -606.10999
109.31 -6.3190999 -604.95001
78.806999 -4.2167001 -605.15997
108.24 -0.56559998 -605.62
81.387001 0.66961002 -605.79999
107.85 3.0702 -606.40997
82.269997 3.2627001 -605.56
82.585999 3.8728001 -605.25
82.844002 5.4313998 -605.38
107.52 4.9969001 -605.81
83.039001 6.1753001 -605.17999
107.07 6.7449999 -604.87
83.084 7.3179002 -605.34998
58.150002 8.0789003 -605.40002
58.823002 8.2276001 -605.52002
60.279999 8.6161003 -605.41998
57.535 9.1813002 -605.77002
61.354 9.9188004 -605.39001
83.641998 9.5846004 -605.54999
61.536999 10.352 -605.06
56.521999 10.444 -605.73999
55.890999 11.16 -605.22998
61.931999 11.976 -605.16998
62.016998 12.519 -605.35999
106.07 11.883 -604.91998
56.411999 12.716 -605.28998
56.960999 13.825 -605.42999
62.046001 13.788 -605.40002
57.299999 14.763 -605.38
105.33 15.527 -604.85999
57.578999 15.721 -605.40002
61.59 16.339001 -605.34003
61.32 17.040001 -606.04999
104.86 16.921 -604.98999
61.034 17.434 -605.37
57.275002 17.976999 -605.59998
103.25 17.863001 -605.19
60.686001 18.332001 -605.40002
102.82 18.347 -605.46997
102.31 18.841999 -604.90002
59.875999 19.202 -605.29999
58.771999 19.912001 -605.40997
59.676998 19.934 -605.37
56.789001 20.389 -605.34998
91.342003 20.434 -605.37
56.076 21.032 -605.67999
59.458 20.441 -605.37
90.370003 20.955999 -605.33002
101.36 20.969 -604.78998
57.955002 21.719999 -605.70001
86.327003 21.415001 -605.42999
90.029999 21.584999 -605.62
92.427002 20.93 -605.85999
93.319 21.204 -605.88
55.841 21.941999 -605.37
56.845001 22.096001 -605.87
57.313 21.972 -605.40002
93.899002 21.489 -605.58002
94.844002 21.844999 -605.78998
55.341999 22.434 -605.60999
55.826 22.421 -605.70001
56.341999 22.165001 -605.37
88.107002 22.347 -605.46997
88.800003 22.059 -605.10999
100.23 22.702 -605.59003
96.889 23.381001 -605.63
97.396004 23.362 -605.15002
-19.500999 -171.28999 -604.84998
-17.747 -171.17999 -605.46002
-25.916 -169.64 -604.53998
-11.31 -169.63 -605.10999
-32.549999 -166.41 -604.88
-9.3267002 -166.81 -605.02002
-33.798 -165.44 -604.90997
-9.1280003 -165.42999 -604.84003
-9.1939001 -164.61 -604.65997
-35.391998 -163.86 -604.66998
-36.699001 -162.53999 -604.52002
-11.207 -162.89 -604.84003
-13.667 -161.07001 -604.85999
-39.241001 -160.14999 -604.60999
-15.659 -160.03 -604.85999
-14.776 -160.17999 -604.53998
-16.664 -159.56 -605.12
-16.124001 -159.67999 -604.81
-17.493999 -158.56 -604.91998
-21.723 -155.14999 -605.10999
-43.646 -155.05 -605.26001
-22.48 -154.69 -604.54999
-23.67 -153.78 -605.07001
-45.165001 -152.63 -605.41998
-46.108002 -151.06 -605.5
-46.016998 -150.63 -604.72998
-26.702 -150.3 -605.13
-46.749001 -149.31 -604.82001
-47.226002 -147.71001 -604.47998
-28.490999 -146.92999 -604.59003
-28.792999 -145.39999 -605.15997
-48.199001 -145.03999 -604.66998
-29.544001 -142.33 -604.98999
-48.740002 -142.23 -604.65002
-30.087 -141.17999 -605.03998
-48.984001 -140.53999 -604.53998
-30.468 -140.12 -605.01001
-30.202999 -138.38 -604.81
-29.898001 -137.42999 -604.85999
-29.725 -136.38 -604.97998
-49.511002 -135.39 -604.96002
-29.792 -135.58 -605.09003
-49.530998 -134.07001 -605.14001
-29.941 -134.24001 -604.87
-49.250999 -133.57001 -604.65002
-30.021 -133.13 -604.83002
-29.136 -131.55 -604.59998
-27.726 -130.39 -605.27002
-27.440001 -129.31 -604.63
-48.700001 -127.46 -604.67999
-22.125999 -124.79 -605.56
-47.466999 -123.07 -604.87
-20.296 -123.47 -604.90002
-18.693001 -122.6 -605.14001
-46.039001 -119.63 -605.12
-13.511 -119.51 -604.34003
-11.493 -118.89 -604.47998
-9.6976995 -118.31 -604.5
-41.43 -111.99 -604.91998
6.6908002 -112.68 -604.42999
7.6469002 -112.28 -604.09998
-39.125 -108.79 -605.21997
18.101999 -108.08 -605.71002
20.035999 -107.23 -605.88
24.646 -104.89 -605.66998
26.827999 -103.61 -605.27002
28.004999 -102.85 -605.26001
-33.893002 -102.47 -605.27002
-32.359001 -101.03 -605.25
33.049 -98.777 -604.5
35.110001 -96.834999 -605.25
-24.035 -92.623001 -604.40997
-23.011999 -91.041 -605.65997
-20.847 -88.163002 -605.66998
-18.976999 -84.985001 -604.95001
-17.733 -82.903999 -604.59003
45.875999 -81.316002 -604.38
-16.139999 -79.620003 -604.64001
47.457001 -78.311996 -604.82001
-14.716 -75.865997 -605.03003
50.523998 -73.620003 -604.75
-13.76 -72.637001 -604.34003
50.855 -73.286003 -605.62
52.813999 -71.366997 -605.21002
-13.189 -70.819 -605.16998
54.403 -69.595001 -604.79999
54.870998 -68.860001 -605.27002
55.827 -67.165001 -605.10999
-10.595 -64.129997 -604.63
57.687 -63.957001 -604.66998
58.650002 -62.512001 -604.92999
-9.0387001 -59.198002 -604.64001
-8.1155996 -57.422001 -604
63.299 -56.422001 -605.15997
64.907997 -54.280998 -604.84998
65.911003 -53.334 -604.85999
66.789001 -52.198002 -604.64001
67.519997 -51.125999 -604.60999
-4.4638 -49.654999 -605.40002
68.514 -49.854 -604.84998
69.841003 -48.583 -604.89001
70.856003 -47.161999 -604.97998
71.252998 -46.250999 -604.85999
73.107002 -44.631001 -604.88
74.167999 -43.685001 -604.89001
76.196999 -42.153 -605.04999
78.334 -41.175999 -605.13
81.112999 -39.858002 -605.54999
82.051003 -39.469002 -605.65002
8.3613997 -37.817001 -603.69
87.337997 -38.269001 -605.25
97.363998 -38.160999 -605.37
89.037003 -38.097 -605.28003
90.378998 -37.900002 -604.51001
92.412003 -38.064999 -605.41998
93.790001 -37.801998 -604.87
94.461998 -37.806999 -604.84003
8.9555998 -37.332001 -604.62
10.385 -36.546001 -604.37
106.17 -34.101002 -605.47998
17.177 -31.965 -604.40002
109.35 -30.658001 -605.32001
21.426001 -29.983999 -604.57001
109.82 -29.67 -605.09998
23.188 -29.202 -604.71002
24.889 -28.222 -604.90002
25.381001 -27.608 -604.87
25.906 -27.181999 -604.85999
28.247 -25.629999 -605.20001
28.794001 -24.982 -605.27002
29.385 -24.538 -604.62
30.034 -24.101999 -604.58002
111.33 -22.746 -604.94
35.144001 -19.919001 -605.20001
38.164001 -18.135 -605.37
37.919998 -17.094999 -604.45001
38.944 -17.163 -604.94
45.513 -16.603001 -604.88
47.174 -17.105 -605.21002
48.978001 -16.995001 -605.12
49.710999 -16.971001 -604.65997
50.696999 -16.813999 -604.59998
51.508999 -16.774 -604.75
111.43 -17.691 -605.12
55.835999 -16.533001 -604.28998
111.19 -15.691 -604.94
61.120998 -15.958 -604.70001
65.696999 -14.692 -605.34998
71.151001 -12.844 -604.09998
72.804001 -10.813 -605.17999
110.65 -12.316 -604.87
110.01 -9.0656004 -605.37
109 -4.7806001 -605.27002
79.403 -3.5065 -605.16998
108.46 -2.7165 -604.29999
80.850998 -0.58781999 -605.56
108.32 -1.5325 -604.59003
82.001999 1.6165 -604.53998
108.02 0.49689999 -605
82.540001 3.4109001 -604.63
107.69 3.4344001 -605.37
83.120003 5.4496002 -604.85999
57.542 7.4091001 -605.09998
58.569 7.4477 -605.01001
56.042 7.8780999 -604.92999
59.570999 8.0658998 -605.20001
57.021999 8.1541004 -605.22998
55.236 8.7177 -604.87
60.798 9.3409004 -605.67999
83.336998 8.7184 -605.27002
56.001999 9.1885004 -605.23999
55.250999 9.7732 -604.91998
55.953999 9.9226999 -605.28003
55.326 10.534 -604.89001
55.937 12.079 -604.96002
56.452999 13.235 -604.90002
84.389 14.008 -605.41998
105.75 13.312 -605.08002
62.096001 14.272 -604.48999
57.286999 14.621 -604.87
61.868999 15.282 -604.98999
57.813 15.803 -604.81
57.779999 16.497 -605.01001
61.561001 16.204 -604.87
84.726997 16.372 -605.17999
57.681999 17.051001 -605.23999
60.838001 16.919001 -605.21002
61.344002 16.940001 -604.85999
84.746002 17.202999 -605.17999
60.838001 17.458 -604.88
104.29 17.448 -604.78003
57.250999 18.452 -605.25
57.571999 18.108999 -604.91998
59.859001 18.434 -604.85999
85.112999 18.728001 -604.92999
57.035 19.083 -605.41998
60.338001 18.927 -605.27002
59.465 19.362 -605.28003
85.263 19.431 -605.13
101.77 19.257999 -603.90997
57.446999 20.231001 -604.92999
59.352001 19.966999 -605.10999
59.541 20.434 -604.87
85.823997 20.695999 -605.19
90.833 20.662001 -605.40002
91.232002 20.289 -604.94
91.662003 20.471001 -605.17999
102.02 20.306 -605.40997
56.876999 20.938999 -605.10999
58.997002 21.139999 -604.89001
90.342003 20.634001 -604.87
92.372002 20.754999 -604.90997
56.275002 21.389 -605.22998
89.296997 21.686001 -605.04999
100.91 21.736 -604.97998
56.259998 21.870001 -604.83002
57.842999 21.934999 -604.88
58.341999 21.740999 -604.87
87.331001 21.863001 -605.03003
88.327003 21.719999 -604.53998
56.341999 22.434 -605.13
55.946999 22.434 -604.87
56.669998 22.434 -604.87
56.841999 22.235001 -604.87
96.306 23.040001 -605.06
55.507 23.403999 -605.01001
55.014 23.434 -604.87
55.341999 23.007 -604.87
-15.982 -171.87 -604.04999
-14.55 -171.60001 -604.39001
-20.646999 -171.14999 -604.73999
-12.775 -170.72 -604.81
-22.823999 -170.73 -604
-11.892 -171.17 -604.01001
-24.280001 -170.22 -604.57001
-10.857 -170.5 -604.37
-27.479 -168.94 -604.53003
-10.369 -168.92999 -605.08002
-29.542 -168.13 -604.65002
-28.635 -168.49001 -604.79999
-30.642 -167.39999 -604.07001
-8.1293001 -166.85001 -604.39001
-7.6503 -166.02 -604.10999
-10.343 -163.67999 -604.92999
-9.323 -163.74001 -604.08002
-10.317 -163.14 -604.37
-37.733002 -161.67999 -604.59998
-13.189 -161.09 -604.29999
-14.255 -160.53999 -604.46997
-15.158 -160.03999 -604.42999
-15.701 -159.5 -604.40002
-40.655998 -158.89 -604.78003
-17.815001 -158.07001 -603.87
-19.159 -157.2 -604.85999
-18.242001 -157.82001 -604.34003
-41.129002 -157.89999 -604.22998
-42.161999 -156.45 -604.09998
-19.229 -157.10001 -604.10999
-43.026001 -155.39 -604.33002
-21.337999 -155.48 -604.37
-44.459 -153.16 -604.38
-24.399 -153.34 -604.54999
-25.851 -151.91 -604.44
-27.072001 -150.14999 -604.35999
-28.302999 -147.87 -604.15997
-47.825001 -146.32001 -604.79999
-29.259001 -144.09 -604.52002
-30.610001 -139.23 -604.77002
-30.577 -138.48 -604.32001
-49.43 -138.25 -604.89001
-49.146999 -135.62 -604.19
-30.299999 -135.28 -604.25
-49.287998 -132.32001 -604.81
-48.902 -131.60001 -604.23999
-28.570999 -130.92999 -604.58002
-48.502998 -128.48 -604.01001
-27.155001 -128.31 -604.09998
-25.798 -127.78 -605.08002
-25.118 -126.84 -604.78998
-47.313 -123.96 -604.03003
-17.323999 -121.09 -603.64001
-16.273001 -120.71 -604.22998
-45.921001 -120.45 -604.07001
-15.023 -120.1 -604.33002
-12.615 -118.97 -604.02002
-44.918999 -118.41 -604.07001
-6.5029998 -117.48 -605.38
-43.598999 -115.48 -604.66998
2.5750999 -114.12 -604.92999
-41.623001 -112.82 -604.31
5.4698 -113.28 -604.85999
8.9177999 -111.92 -604.38
-40.778 -112.01 -603.98999
-39.956001 -110.85 -604.12
-38.877998 -109.39 -604.10999
14.213 -109.87 -605
16.013 -109.04 -604.62
17.565001 -108.33 -603.66998
21.091999 -106.81 -604.37
22.223 -106.28 -604.15002
25.361 -104.59 -604.07001
-35.212002 -104.2 -604.84998
29.462 -101.79 -604.71002
-30.851999 -99.377998 -604.91998
-29.257 -98.068001 -604.14001
-27.969999 -96.279999 -604.85999
-26.194 -94.776001 -604.28003
36.606998 -95.024002 -604.53998
-25.1 -93.727997 -604.25
38.644001 -92.274002 -604.78003
-22.049999 -91.022003 -603.81
-21.466 -89.830002 -604.53998
41.661999 -87.942001 -604.65002
-18.542 -85.095001 -603.83002
-18.320999 -84.264999 -604.23999
-16.737 -80.836998 -604.78003
46.268002 -80.406998 -603.78998
-15.765 -78.557999 -604.83002
49.387001 -75.353996 -604.46997
51.460999 -72.308998 -603.96002
53.423 -70.814003 -605.31
-13.132 -71.098999 -603.95001
-12.064 -68.684998 -604.38
55.493 -67.817001 -604.02002
-11.344 -66.665001 -604.45001
56.002998 -66.988998 -604.35999
56.658001 -65.967003 -604.15002
-10.147 -62.585999 -604.40002
58.483002 -62.686001 -604.35999
-9.5900002 -60.936001 -604.26001
59.666 -61.626999 -604.40002
61.103001 -59.640999 -603.85999
62.935001 -56.500999 -604.12
65.689003 -53.325001 -604.29999
-4.9310002 -50.618 -604.25
-4.1876998 -49.471001 -604.22998
70.400002 -47.82 -604.87
70.945999 -46.206001 -604.33002
71.811996 -45.516998 -604.72998
72.204002 -44.931999 -604.34998
73.68 -43.605 -604.10999
75.82 -42.101002 -604.40997
77.775002 -40.625 -603.73999
80.705002 -39.235001 -603.96997
81.598 -38.810001 -603.96002
84.883003 -38.368999 -604.82001
97.469002 -37.993 -603.91998
86.592003 -37.599998 -603.81
89.598 -37.722 -604.10999
95.814003 -38.060001 -604.26001
100.56 -37.082001 -604.92999
104.89 -34.575001 -604.28998
106.25 -33.469002 -603.90002
107.84 -32.539001 -604.59003
19.150999 -30.934999 -604.67999
22.184999 -29.665001 -604.60999
110.12 -28.816 -604.62
24.198 -28.511999 -604.37
25.219 -27.83 -604.34003
30.775 -23.577 -604.72998
111.15 -24.222 -604.25
32.074001 -22.455999 -604.92999
33.493 -20.514 -604.27002
35.950001 -18.681 -604.53003
111.22 -16.816 -603.87
46.549 -16.646999 -604.59998
53.32 -16.712 -604.33002
41.569 -16.51 -605.03003
45.730999 -16.073 -604.34003
39.291 -15.918 -604.39001
43.903999 -15.797 -604.51001
64.975998 -15.746 -603.96002
41.675999 -14.907 -604.21002
64.629997 -15.108 -605.25
67.211998 -14.459 -605.12
110.89 -14.12 -604.07001
109.9 -9.4759998 -603.78998
74.333 -10.172 -603.87
75.085999 -8.3072996 -605.16998
77.103996 -6.5709 -604.63
77.931999 -5.5283999 -604.72998
79.121002 -5.0679002 -603.46997
107.99 -0.18182001 -604.06
81.964996 0.66132998 -603.15997
82.32 2.8978 -604.45001
107.29 5.4344001 -604.87
107.05 5.0594001 -603.75
56.598999 6.4085999 -604.34003
56.68 6.8955002 -604.63
57.481998 6.9235001 -604.73999
59.291 6.9761 -604.31
54.507999 7.4556999 -604.53003
55.523998 7.3695002 -604.60999
54.292999 7.9344001 -604.40997
54.831001 8.4116001 -604.65997
60.383999 7.9047999 -604.46997
83.061996 7.4647002 -604.39001
60.873001 8.4846001 -604.56
82.981003 8.4812002 -604.39001
54.771999 8.9182997 -604.62
61.351002 9.3908997 -604.57001
83.185997 8.9502001 -604.40002
83.68 9.8561001 -604.28998
54.637001 9.7603998 -604.46002
106.09 10.976 -604.37
54.640999 10.578 -604.19
54.998001 11.699 -603.88
105.71 12.074 -603.94
56.266998 13.184 -604.34003
56.82 13.876 -604.71997
57.429001 14.571 -604.34998
84.547997 14.921 -604.53998
61.381001 15.176 -604.39001
61.862 15.199 -603.89001
61.341999 15.934 -604.57001
60.841999 16.434 -604.77002
60.861 15.991 -604.35999
60.678001 16.538 -604.53998
61.341999 16.434 -604.46002
60.341999 17.434 -604.71997
60.155998 17.434 -604.37
60.334999 17.051001 -604.32001
103.91 17.343 -604.12
58.012001 17.603001 -604.39001
60.306 17.933001 -604.48999
60.865002 17.954 -604.72998
59.650002 18.283001 -604.23999
102.37 18.445999 -604.52002
59.803001 18.917999 -604.52002
57.848 18.929001 -604.65997
59.584999 19.434 -604.37
59.345001 19.013 -604.90002
59.341999 19.802999 -604.37
57.755001 20.049999 -604.44
86.335999 20.919001 -604.69
91.807999 20.297001 -604.38
57.349998 20.934 -604.39001
59.117001 20.440001 -603.96002
89.714996 20.68 -604.10999
89.415001 21.033001 -604.39001
92.362999 20.392 -604.40002
57.341999 21.434 -604.48999
57.841999 21.413 -604.39001
58.800999 21.228001 -604.41998
86.832001 21.377001 -604.73999
93.539001 21.361 -604.63
56.849998 21.898001 -604.23999
57.143002 21.934 -604.37
57.299 22.009001 -604.65997
58.032001 22.025 -604.25
58.341 21.671 -604.39001
94.958 21.924 -604.42999
56.006001 22.434 -604.37
56.785999 22.434 -604.37
56.841999 22.322001 -604.37
95.839996 22.58 -604.58002
99.322998 22.757999 -604.76001
56.344002 22.683001 -604.59003
98.588997 22.941999 -604.64001
55.312 23.407 -604.15997
96.836998 23.127001 -604.64001
97.577003 22.975 -604.37
-18.455 -171.60001 -604.09003
-17.389 -171.74001 -604.19
-13.421 -171.61 -603.94
-19.375 -171.44 -604.08002
-10.761 -170.83 -604.04999
-24.490999 -170.24001 -603.78003
-26.066999 -169.59 -603.90002
-26.667 -169.27 -603.85999
-8.6295004 -169.13 -604.13
-28.416 -168.42 -603.81
-9.2010002 -168.23 -604.71002
-31.298 -167.03999 -604.22998
-7.5476999 -165.38 -603.82001
-34.091999 -164.95 -604.40002
-36.987999 -161.73 -603.62
-12.625 -161.21001 -604.01001
-14.106 -160.05 -603.90002
-13.58 -160.5 -604
-15.158 -159.50999 -603.77002
-16.598 -159.05 -604.67999
-39.723999 -158.44 -602.97998
-16.927 -158.57001 -603.62
-16.6 -158.82001 -604.16998
-20.749001 -155.91 -604.04999
-22.169001 -155.08 -603.90997
-44.081001 -153.14999 -603.69
-45.219002 -151.66 -604.25
-27.292 -150.21001 -603.84998
-46.448002 -149.06 -604.10999
-28.931999 -147.28999 -603.59003
-47.724998 -145.35001 -604.06
-29.315001 -144.67999 -604.14001
-29.665001 -143.39999 -603.97998
-48.389 -143.39 -604.33002
-48.025002 -142.58 -603.76001
-30.517 -141.32001 -603.91998
-30.844999 -140.57001 -604
-49.022999 -139.83 -604.52002
-31.072001 -140.00999 -604.15997
-31.235001 -139.50999 -604.16998
-30.495001 -137.62 -604.17999
-48.676998 -136.71001 -603.38
-48.722 -132.94 -603.78003
-30.171 -131.87 -604
-29.362 -131.02 -603.81
-48.688 -130.64 -603.92999
-28.561001 -129.94 -603.88
-26.906 -127.3 -603.46002
-48.076 -126.62 -604.07001
-25.854 -126.78 -603.84998
-48.187 -125.48 -604.60999
-22.77 -124.46 -604.07001
-21.402 -123.68 -604.14001
-46.620998 -121.79 -604.28003
-46.203999 -122.02 -603.5
-19.222 -122.54 -604.21002
-14.122 -119.47 -603.92999
-44.247002 -117.21 -604.02002
-43.535999 -116.22 -603.87
-0.926 -115.03 -603.98999
-42.636002 -114.58 -604.09003
0.074150003 -114.96 -604.90997
1.6124001 -114.18 -603.82001
11.592 -110.79 -604.37
13.11 -110.17 -603.96002
19.221001 -107.5 -603.54999
22.113001 -106.34 -603.54999
-36.569 -106.2 -604.32001
-36.124001 -105.34 -604.73999
23.465 -105.71 -603.40002
23.756001 -105.41 -604.75
-33.478001 -103.01 -603.98999
28.082001 -103.05 -602.79999
29.851 -101.57 -603.41998
31.082001 -100.49 -603.56
-31.662001 -100.64 -604.37
34.382999 -97.498001 -604.02002
-28.503 -97.102997 -604.29999
35.618 -96.135002 -604.03003
-26.716 -95.772003 -603.5
36.647999 -94.718002 -603.22998
37.324001 -94.054001 -604
38.075001 -92.867996 -603.79999
39.641998 -90.666 -603.96997
-20.531 -88.726997 -604.22998
-20.039 -87.391998 -604.87
-18.857 -86.177002 -603.62
42.880001 -85.945999 -603.52002
43.877998 -84.621002 -603.87
-17.049999 -81.899002 -604.10999
51.973999 -71.763 -604.06
-12.617 -69.737999 -604.81
53.466 -70.546997 -602.89001
-11.644 -68.122002 -603.26001
56.166 -66.580002 -603.84003
-10.968 -65.190002 -604.79999
57.325001 -64.494003 -604.27002
58.276001 -62.639999 -603.59003
59.602001 -61.556999 -603.90997
60.771 -60.131001 -603.96997
62.118 -58.112999 -604.34998
63.682999 -54.922001 -603.25
64.674004 -54.264 -604.15997
-6.1585999 -53.167999 -603.72998
67.055 -51.198002 -603.87
68.403 -49.277 -603.96997
69.634003 -47.738998 -603.95001
0.86124003 -43.084 -604.37
1.3774 -42.596001 -604.87
75.151001 -42.276001 -603.91998
2.8203001 -41.549 -603.51001
79.633003 -40.130001 -604.40997
96.695999 -38.105 -604.09998
83.93 -37.903 -603.63
87.766998 -37.799 -604.34003
92.977997 -37.738998 -603.79999
95.334 -37.789001 -603.13
98.210999 -37.848999 -604.40997
98.582001 -37.52 -603.22998
101.28 -36.528999 -603.73999
103.86 -35.075001 -603.79999
17.907 -31.596001 -604.23999
20.174999 -30.552 -604.08002
22.245001 -29.434 -603.83002
23.165001 -28.99 -603.84003
23.854 -28.569 -603.87
27.632999 -26.247999 -604.56
110.91 -25.885 -604.62
28.431 -25.620001 -604.14001
29.752001 -24.355 -603.58002
30.110001 -23.996 -603.87
111.47 -21.346001 -603.40002
32.613998 -21.1 -603.58002
111.41 -20.264 -603.90002
34.956001 -19.273001 -604.21002
111.43 -19.316 -604.37
36.826 -17.469999 -604.08002
37.883999 -16.238001 -603.94
48.924999 -16.955999 -603.89001
49.591999 -17.027 -604.12
50.311001 -16.84 -604.35999
51.258999 -17.021 -603.51001
52.314999 -17.033001 -603.22998
47.514999 -16.715 -604.23999
59.595001 -16.465 -603.63
63.222 -15.802 -604.62
44.418999 -16.237 -604.71002
46.820999 -15.989 -603.87
45.848999 -15.53 -603.98999
42.501999 -13.976 -603.59003
44.358002 -14.996 -603.92999
69.140999 -14.338 -603.78003
73.127998 -11.157 -604.13
76.469002 -8.0599003 -603.72998
80.018997 -2.7922001 -604.85999
82.477997 2.5910001 -603.16998
107.5 2.6236 -603.90002
82.838997 4.9127002 -604.75
83.050003 5.5198002 -603.96997
56.209999 5.9123001 -603.97998
54.879002 6.4356999 -604.12
55.810001 6.5844002 -604.34003
58.330002 5.8181 -603.46002
54.307999 6.9580998 -604.23999
53.757999 7.1585999 -604.02002
59.297001 6.3741999 -603.62
59.901001 7.2322001 -604.20001
60.418999 7.3997998 -603.78003
106.67 7.8439002 -604.14001
53.597 8.1285 -603.89001
83.191002 7.9366002 -603.89001
83.320999 8.4961004 -604.01001
53.618999 9.3318996 -603.82001
61.330002 9.0271997 -603.39001
83.447998 9.3095999 -603.88
106.4 9.7736998 -604.53003
61.728001 10.572 -603.64001
61.874001 11.107 -604.04999
105.95 10.826 -603.56
55.606998 12.548 -603.96997
62.181 13.194 -604.04999
84.333 13.924 -603.67999
62.09 13.99 -603.91998
57.655998 14.31 -603.71997
61.386002 14.396 -603.85999
105.45 14.902 -604.75
57.855 15.468 -604.39001
61.019001 15.434 -603.87
58.134998 16.138 -604.38
60.488998 16.422001 -603.85999
60.856998 16.895 -604.46002
84.799004 16.978001 -604.28003
104.3 16.843 -603.89001
58.522999 17.625999 -603.72998
59.84 17.433001 -603.88
59.595001 17.934 -603.87
85.082001 17.955 -604.02002
102.8 17.944 -604.40997
59.900002 18.487 -603.94
85.274002 18.719 -604.07001
102.31 18.33 -603.58002
58.478001 18.938 -603.53998
58.127998 19.832001 -603.65997
57.661999 20.434 -603.87
91.182999 20.475 -603.81
92.481003 19.924 -603.46002
93.332001 20.422001 -603.88
57.605999 20.934 -603.87
58.354 20.945 -603.84998
87.584999 21.549999 -604.46997
90.303001 20.558001 -604.02002
93.362 21.121 -604.28003
57.841999 21.132 -603.87
100.11 22.108999 -604.40002
56.341999 22.431999 -604.12
57.166 22.243999 -603.84003
56.995998 22.42 -604.25
57.662998 22.434 -603.87
56.330002 22.940001 -603.88
56.764 22.622 -603.88
57.341999 22.691 -603.87
96.445999 22.872 -604.33002
98.403999 22.492001 -603.84998
-18.923 -171.63 -603.41998
-13.912 -172.09 -603.21002
-11.023 -171.53999 -603.35999
-21.763 -170.98 -603.53998
-24.683001 -170.10001 -603.38
-23.530001 -170.47 -603.09998
-9.5333996 -169.89 -604.17999
-8.1293001 -169.73 -603.59003
-6.8355999 -169.11 -603.33002
-7.5942998 -168.56 -603.84998
-29.039 -167.8 -603.20001
-27.264999 -168.75 -603.22998
-7.5321999 -168.07001 -603.94
-6.6315999 -166.67 -603.60999
-6.4219999 -165.72 -603.31
-32.689999 -165.92 -604.09998
-8.2996998 -164.07001 -603.52002
-33.388 -164.88 -603.35999
-10.418 -162.31 -603.27002
-11.946 -161.56 -603.79999
-11.414 -162.03999 -603.90002
-12.178 -161.05 -603.59003
-12.672 -160.5 -603.09998
-38.877998 -159.78 -603.57001
-13.788 -160 -603.34998
-41.313 -156.96001 -603.38
-18.726 -157.52 -603.63
-19.423 -157.32001 -603.08002
-20.445 -156.35001 -603.41998
-41.887001 -155.75 -602.97998
-21.882999 -155.50999 -603.37
-42.674999 -155.27 -603.56
-23.511 -154.31 -603.76001
-24.764 -153.96001 -603.08002
-24.874001 -153.47 -603.62
-26.089001 -152.06 -603.78998
-44.476002 -151.95 -603.35999
-26.636 -151.42999 -603.76001
-45.417 -150.07001 -603.37
-27.993 -149.50999 -603.32001
-28.843 -148.28999 -603.10999
-29.145 -145.83 -603.98999
