# .PCD v0.7 - Point Cloud Data file format
VERSION 0.7
FIELDS x y z
SIZE 4 4 4
TYPE F F F
COUNT 1 1 1
WIDTH 1400
HEIGHT 1
VIEWPOINT 0 0 0 1 0 0 0
POINTS 1400
DATA ascii
0.016218999 0.091709003 -0.027068
0.016962999 0.092056997 -0.025885001
0.016186001 0.091440998 -0.025922
0.053525001 0.080385 -0.039958
0.052871998 0.081603996 -0.040888999
0.053118002 0.080796003 -0.040966999
-0.036306001 0.0059687002 0.017679
-0.036316 0.0048786001 0.017849
-0.035909001 0.0051417002 0.018461
0.0044129002 0.086217001 0.023633
0.0049756998 0.085409999 0.0239
0.0049243001 0.086318001 0.022538001
-0.040892001 -0.030665001 0.0178
-0.040911 -0.031879999 0.016701
-0.040693998 -0.031679999 0.017739
-0.040231001 -0.049141001 0.018238001
-0.039560001 -0.048889 0.018755
-0.040087 -0.047796 0.018145001
0.041069001 0.050595999 -0.012138
0.039838001 0.050508 -0.011136
0.040059 0.050811 -0.011556
-0.024325 -0.016007001 0.0097415997
-0.023715001 -0.016487001 0.0099296998
-0.024421999 -0.01608 0.0087607
-0.019348999 0.031084999 0.020207999
-0.038045999 0.0025140999 0.0015816001
-0.038274001 0.0027832 0.0026573001
0.022839 -0.0044951001 -0.0024751001
0.022846 -0.0032023999 -0.0025675001
0.023905 -0.0032283 -0.0025915001
0.024334 0.0049510999 0.02421
0.024413999 0.0059516998 0.024094
0.023703 0.0049272999 0.024498001
0.061730999 0.074730001 -0.036495999
0.061772 0.074817002 -0.035124
0.062165 0.073666997 -0.036571
0.012487 -0.028520999 0.019098001
0.012404 -0.029634999 0.018104
0.012561 -0.029593 0.019104
0.052572999 0.085139997 -0.037445001
0.053064998 0.084687002 -0.036917001
0.052666999 0.084017999 -0.036373001
-0.0065751998 -0.0079372004 0.054917999
-0.0064755999 -0.0080175996 0.055918001
-0.023706 0.021571999 0.0088481996
-0.022954 0.022205999 0.0085028
0.027842 -0.049839001 -0.0028943
0.027267 -0.049251001 -0.0017014
0.027896 -0.050140001 -0.0015966001
-0.050329 0.073620997 -0.033025999
-0.051592 0.073481999 -0.031746
-0.050709002 0.073109001 -0.032164
0.0065020998 0.040518999 -0.013873
0.0057874001 0.041251998 -0.014107
0.0067599998 0.041393999 -0.014114
0.048868999 0.081675999 -0.023504
0.048462 0.082820997 -0.024029
-0.022569001 -0.051244002 0.021477999
-0.022867 -0.051247999 0.022561001
-0.023029 -0.05249 0.022529
-0.0090806996 0.087304004 0.01911
-0.0080420002 0.087260999 0.020176001
-0.052639 0.066665001 -0.011148
0.0274 -0.010145 0.017969999
0.026907001 -0.0096525 0.018735999
0.026221 -0.0099956002 0.018978
0.0046080998 0.088637002 0.0030247001
0.0046967999 0.088552997 0.0040520998
0.0056967 0.088582002 0.0041025002
0.051364001 0.076188996 -0.015673
0.051382001 0.076150998 -0.016694
0.050276998 0.076245002 -0.016726
0.062111001 0.073526002 -0.025909999
0.062305 0.072681002 -0.025707001
0.062523998 0.072402 -0.026025999
-0.0068720002 0.080448002 0.031521
-0.006937 0.079720996 0.032182999
-0.0057097999 0.080509 0.031732999
-0.019421 0.01051 0.025893001
-0.018270999 0.010448 0.026059
0.035165999 0.063914001 0.0031538999
0.035253 0.063987002 0.0041048001
0.035902001 0.063683003 0.0041260999
0.052613001 0.065876998 -0.0024973999
0.051546998 0.065181002 -0.0021887999
0.052630998 0.065344997 -0.0021224001
-0.015643001 0.084775001 0.014184
-0.014921 0.085217997 0.014484
-0.015185 0.085573003 0.013565
0.010175 0.061101999 0.037037998
0.0092300996 0.061087999 0.037624002
0.0092475004 0.059978999 0.037581
-0.030996 -0.026156001 0.022925001
-0.030983999 -0.025108 0.022903999
-0.032044001 -0.025078001 0.022899
-0.034403 -0.052841 0.014381
-0.035486002 -0.052788001 0.013315
-0.034407001 -0.052886002 0.013315
0.0021742 0.0046572001 0.018031999
0.0033323001 0.0038349 0.016787
0.0033797 0.0039698002 0.017917
0.053691 0.055920999 -0.022706
0.054350998 0.055702999 -0.022276999
0.053688001 0.055576999 -0.022189001
-0.041689999 -0.021710999 0.015532
-0.041455999 -0.022743 0.016757
0.0045468998 0.071405001 -0.031771999
0.003331 0.071543999 -0.030579001
0.0041792998 0.071823001 -0.030768
-0.024106 0.070560999 -0.003154
-0.024134999 0.070197001 -0.0040667001
-0.025094001 0.069949001 -0.0029712999
-0.062760003 0.065471999 -0.024572
0.010205 0.062352002 0.036873002
0.010154 0.061960001 0.036959998
-0.050257001 0.068542004 -0.012414
-0.051539 0.069091 -0.013263
0.044525001 0.053008001 -0.020147
0.045689002 0.052708 -0.020248
0.045345999 0.052400999 -0.019275
-0.044505 0.071364 -0.026978999
-0.044937 0.072129004 -0.02605
-0.044275001 0.071506999 -0.025888
0.019401999 -0.042243 0.01514
0.019314 -0.041216999 0.01518
0.020453 -0.040991999 0.014712
0.0048373002 0.043880999 0.035179
0.0055827 0.043501999 0.035464998
0.0057159001 0.043949999 0.035957001
0.0080251005 0.087153003 0.0051966999
0.0091107003 0.086617 0.0051556001
0.0088916998 0.086976998 0.0039912001
-0.021826001 0.09646 -0.029609
-0.022407001 0.096026003 -0.029723
-0.022555999 0.095408 -0.029538
-0.0022082999 0.084161997 -0.020152999
-0.0022529999 0.083679996 -0.021414001
0.027334999 -0.039829999 0.025935
0.026439 -0.040982001 0.026115
0.027636001 -0.040272001 0.025149999
0.0094670998 -0.0018569001 0.0099024
0.0089381998 -0.0010837 0.0098321997
0.0090760998 0.0069935001 0.025147
0.0090992004 0.0060087 0.024633
0.01016 0.0060427999 0.024633
0.018363999 0.034495 0.013318
0.018409999 0.034448002 0.012029
0.018683 0.035496 0.013395
-0.0091602001 0.036734998 -0.012268
-0.0080506001 0.036867 -0.012195
-0.0081147002 0.036231 -0.011556
0.022919999 0.044495001 -0.00072873
0.023579 0.044142 0.00051866
0.022526 0.044057999 -0.00057864003
-0.02111 0.046117999 0.028743999
-0.020811001 0.044750001 0.028472001
-0.020496 0.046124998 0.029526999
0.0022213999 0.084954999 -0.0098529998
0.0022718001 0.085228004 -0.0086834999
0.0033139 0.084983997 -0.0085455999
-0.016101001 -0.0044479999 0.010065
-0.017244 -0.0055860998 0.0099398
-0.017046999 -0.0049355002 0.0096381996
0.018317999 0.072434001 -0.0029422001
0.01812 0.071396001 -0.0027771001
0.017467 0.071598999 -0.0032297
-0.024048001 0.021895999 0.015426
-0.023293 0.022519 0.015435
-0.024017001 0.022041 0.014382
-0.057493001 0.074883997 -0.048085
-0.057452999 0.073537998 -0.049098998
-0.057719 0.073967002 -0.048434999
0.047724001 0.058696002 -0.023499999
-0.05359 0.059796002 -0.010097
-0.053426001 0.061028 -0.010191
-0.054003999 0.061172001 -0.01058
-0.0047944002 0.0059993998 0.032825999
-0.0050665 0.0053560999 0.033041
-0.0047766999 0.0050086002 0.033980999
0.05373 0.056287002 -0.0040225
0.053493001 0.056814 -0.0034431
0.052636001 0.056193002 -0.0037690001
0.058421999 0.081685998 -0.025836
0.058681 0.080715999 -0.024677999
0.059388999 0.080369003 -0.025928
-0.047908999 -0.051348001 -0.0043099001
-0.048136 -0.050236002 -0.0040373001
-0.047161002 -0.051229998 -0.0036756999
0.015095 0.072394997 -0.0074539999
0.014445 0.073372997 -0.0074825999
0.014758 0.073495001 -0.0063544
0.014963 -0.027198 0.0087481001
0.014404 -0.027663 0.0094557004
0.013965 -0.027112 0.0099197999
0.050276998 0.089982003 -0.030613
0.050021999 0.090262003 -0.031849999
0.049458999 0.090291001 -0.031773999
-0.019067001 -0.0056538 0.0063376999
-0.018270999 -0.0047265999 0.0063856998
-0.018654 -0.0053340001 0.0066684
-0.015611 0.023189999 0.026694
-0.016176 0.023158999 0.026072999
-0.015838001 0.022129999 0.025883
0.0091287 0.087444 0.013272
0.0080407998 0.088229001 0.012013
0.0078956997 0.088083997 0.013269
-0.024215 0.043838002 0.022542
-0.020287 0.049479 -0.01288
-0.020357 0.050577 -0.012898
-0.019429 0.050590999 -0.013419
-0.0058522001 0.068392001 0.036853001
-0.0056973002 0.069031999 0.036633998
-0.0065410999 0.068392001 0.036843002
0.031638999 0.0081502004 0.0065397001
0.031762 0.0069404002 0.0053690998
0.030746 0.0082897004 0.0052274
0.029623 -0.045630999 0.020171
0.028706999 -0.044323999 0.020276001
0.028986 -0.045384999 0.021531999
-0.013402 0.019936001 0.027734
-0.012616 0.019764001 0.028200001
-0.013383 0.020817 0.027899999
-0.0079559004 0.084210001 0.024807001
-0.015732 0.023177 0.0019365
-0.015081 0.023169 0.0013714
-0.01513 0.022294 0.0012578
0.0067292 0.088172004 0.014393
0.0068672998 0.088473998 0.013252
0.0015363001 -0.0032649001 0.043421999
0.0017401 -0.0027914001 0.042904001
0.0015534 -0.0021136 0.043388002
0.0010704 0.0096693998 -0.00057312002
-0.00010093 0.0083579002 -0.00069925003
0.00010553 0.0094299 -0.00093262002
0.0022127 0.027928 -0.0073810001
0.0011776 0.027883001 -0.0074368999
0.0011854999 0.028917 -0.0084870998
0.01262 0.084016003 0.0051098
0.011616 0.083943002 0.0041375998
0.018960999 0.030998999 0.014344
0.018891999 0.030656001 0.01503
0.019028001 0.030013001 0.014387
0.035161 -0.048103001 0.015117
0.035913002 -0.049005002 0.01453
0.035475999 -0.047793001 0.014381
0.014785 0.024278 0.024824999
0.014901 0.023133 0.023636
0.015329 0.023869 0.023735
0.050349001 0.0502 -0.011699
0.049217001 0.049775001 -0.010922
0.049210001 0.049706999 -0.012005
0.0067842002 0.074865997 0.034086
0.0070023998 0.075415999 0.033470001
0.0055952002 0.075818002 0.033840999
-0.054995999 0.07141 -0.049095999
-0.054037001 0.071693003 -0.049026001
-0.054083001 0.071649 -0.048016001
0.017735999 0.034945 0.021034
0.017464001 0.034441002 0.021537
0.039000001 0.055091001 0.0088294996
0.038399 0.054026999 0.0094557004
0.039099 0.054009002 0.0088542998
-0.020634999 0.061032999 -0.013339
-0.019588999 0.061353002 -0.012833
-0.019276001 0.060947999 -0.012288
-0.024134001 0.010283 0.025567001
-0.022836 0.0094291996 0.025562
-0.022771001 0.010437 0.02547
0.015959 0.046179999 0.031397998
0.026257999 0.046292 0.010957
0.027121 0.046523001 0.010591
0.027450001 0.046866 0.010999
-0.00010888 0.015231 -0.0040773
0.00011493 0.01395 -0.0033666
-0.00053769001 0.013885 -0.0035091999
-0.037386 0.0059968 0.015459
-0.037944 0.0049704001 0.014393
-0.037689999 0.0049192002 0.015451
-0.020303 -0.0034894 0.0018701
-0.020687999 -0.0031965999 0.00039619001
-0.019692 -0.0029502001 0.00090058998
0.023905 -0.0055875001 0.021088
0.024022 -0.0044813999 0.021457
0.022824001 -0.0055546998 0.021361999
-0.014887 0.03112 -0.00074252998
-0.015546 0.031514 -0.00021139999
-0.015814001 0.032372002 -0.000463
0.0069070002 0.059741002 -0.024855001
0.0078430995 0.061105002 -0.02483
0.0070344 0.061007999 -0.02351
0.030885 0.064933002 0.0051182001
0.032118 0.064892001 0.005105
0.03107 0.064933002 0.0040322999
-0.013368 0.066224001 -0.015629999
-0.013402 0.066133 -0.016272999
-0.012455 0.066326 -0.016661
-0.025157999 -0.0099999998 0.002996
-0.025022 -0.01051 0.0038811001
-0.025342001 -0.011299 0.0041438998
-0.0065748999 -0.0045067002 0.052480001
-0.0064758998 -0.0046020001 0.053500999
-0.0063128001 -0.0036491 0.052588001
0.058058001 0.069086999 -0.0054219998
0.058265999 0.070005 -0.0064955
0.057782002 0.069678999 -0.0057373
-0.0080327 0.062165 0.038506001
0.0033102001 0.056317002 -0.043269999
0.0022495999 0.056818001 -0.044342998
0.0033217 0.056706998 -0.044367
0.0090846 0.070156001 -0.025937
0.0086626001 0.070159003 -0.027045
0.0092887999 0.071401 -0.025900999
-0.028612999 -0.016945001 0.019119
-0.027451999 -0.018084999 0.01926
-0.027679 -0.017077001 0.018867999
-0.042991001 0.052526001 -0.022585001
-0.042445999 0.053036001 -0.022423999
-0.043505002 0.051959999 -0.022407999
0.018472999 -0.031771 0.0087444
0.017724 -0.031521998 0.0090268999
0.017159 -0.030686 0.0087203998
-0.01256 0.064539 0.036545999
-0.012508 0.065599002 0.036309998
-0.013462 0.065521002 0.035971999
0.0063234 0.089060999 0.010742
0.0056107002 0.089282997 0.0098844999
-0.0069622002 0.080411002 -0.025692999
-0.0056612999 0.079327002 -0.026099
-0.0069816001 0.079324998 -0.025959
0.010236 0.027721999 -0.00055062003
0.011469 0.027779 0.00048545
0.010593 0.027225999 2.1702001e-05
-0.02008 0.033514999 0.011028
-0.019952999 0.032643002 0.010878
-0.020082001 0.033443999 0.012029
-0.028635999 -0.042157002 0.0098679997
-0.028930999 -0.043233 0.0099831
-0.029403999 -0.042346999 0.0093406001
-0.013935 0.091779999 -0.020614
-0.015071 0.092145003 -0.020958001
-0.014847 0.091683999 -0.020647001
0.012715 -0.052423 0.024894999
0.013184 -0.053008001 0.02486
0.013834 -0.053215999 0.024893001
-0.0079819998 0.088738002 -0.0063493
-0.0073988 0.088941 -0.0068394002
-0.0070318999 0.088666998 -0.0075607998
-0.010398 0.069063 0.035227999
-0.0095429001 0.069250003 0.035544001
-0.0093059996 0.070083 0.035542
0.0077447998 0.086273 -0.020071
0.0079864999 0.087283999 -0.021411
0.051626001 0.086138003 -0.031730998
0.051539 0.085055999 -0.031799
-0.052372999 0.073386997 -0.050110999
-0.051973 0.074032001 -0.050365999
-0.052115001 0.074437 -0.049727
-0.017047999 0.063221999 0.034908999
-0.017689999 0.062817998 0.034591001
-0.017277 0.062155999 0.035009999
-0.037960999 0.063501999 0.0052876999
-0.037524998 0.064130999 0.0048727002
-0.037763 0.064427003 0.0040755002
-0.022388 0.065390997 0.029181
-0.023037 0.065628 0.028514
-0.022748001 0.064450003 0.029379999
0.022019001 0.040275998 0.0098729003
0.021307001 0.039480001 0.0099296998
0.021356 0.039680999 0.0088125002
-0.041267999 0.062183 0.0030352999
-0.041639999 0.062245999 0.0020319
-0.041602001 0.061198998 0.0031377999
0.025229 -0.017792 0.022577999
0.026296999 -0.017968001 0.022826999
0.026263 -0.017439 0.022232
0.015265 -0.033817999 0.012354
0.015841 -0.034226 0.012021
0.014758 -0.034095 0.013321
0.022825001 -0.047905002 0.0031266999
0.023962 -0.047897 0.0017622
0.023232 -0.048319999 0.0019514
0.021331999 0.069095999 0.024526
0.021640999 0.067938998 0.024848999
-0.055675998 0.063302003 -0.045759
-0.055261001 0.063134 -0.044514
-0.055356 0.062817998 -0.045433
0.024119001 -0.024614999 0.0034522
0.023853 -0.025194 0.0038018001
0.023907 -0.023819 0.0031949
-0.0011988 0.089478001 -0.0027244
0.033344999 -0.049017999 0.017015999
0.033070002 -0.050232001 0.017518001
-0.032699 0.059815999 -0.011473
-0.032487001 0.059386998 -0.011556
-2.9096e-05 0.010263 -0.0017877
0.0011423 0.010512 -0.0017062
-0.021594999 -0.020365 0.0085891001
-0.021707 -0.02036 0.007526
-0.021810001 -0.019319 0.0085858004
-0.055105001 0.053665999 -0.028599
-0.0093457 0.088712998 0.0085493
-0.0093416004 0.08845 0.0075482
-0.010344 0.088055 0.0075379
0.00017699999 0.055447999 -0.042916
0.0011417 0.05649 -0.043318
0.00074876001 0.055528 -0.042812001
0.055594001 0.083489999 -0.024812
0.055289 0.084049001 -0.025908001
0.055334002 0.084124997 -0.024907
-0.062318001 0.065948002 -0.036857001
-0.062431 0.065525003 -0.037553001
-0.062465999 0.065569997 -0.036331002
0.0091583999 0.019626001 0.028620999
0.0088318996 0.02077 0.02902
0.0081270002 0.019679001 0.029157
-0.029697999 -0.051254001 0.025679
-0.028625 -0.051247999 0.02589
0.035603002 0.061154999 0.010032
0.035905998 0.060245 0.010313
0.036690999 0.059955001 0.0098580997
-0.025158999 -0.0040779002 0.022151999
-0.024134999 -0.0047785002 0.021768
-0.023994001 -0.0041681002 0.022251001
-0.0049331998 0.0018324 0.038709
-0.004679 0.0025579999 0.037560999
-0.0052546998 0.0019908999 0.037563
-0.056492001 0.061103001 -0.050135002
-0.056682002 0.061165001 -0.051564001
-0.057039998 0.062360998 -0.050236002
-0.021908 0.078024998 0.010957
-0.022407001 0.077630997 0.011171
-0.022407001 0.077679999 0.0116
-0.0057583 0.0071263001 0.022507999
-0.0070015001 0.0071696001 0.02141
-0.0056171999 0.0070719002 0.021508001
-0.041356999 -0.052398998 0.016907001
-0.040847 -0.052807 0.017344
-0.040061001 -0.052556999 0.017990001
0.050213002 0.086225003 -0.036380999
0.050441999 0.086303003 -0.0352
0.050039001 0.087200999 -0.036265001
0.033124998 0.050595999 -0.0078115999
0.034131002 0.049479 -0.0077328002
0.033131 0.049511999 -0.0072679999
-0.011473 0.019722 -0.001106
-0.012606 0.020671001 -0.0011141
-0.011687 0.020365 -0.0011199
0.020722 0.066774003 -0.0075309998
0.020045999 0.067532003 -0.0081257997
0.019657999 0.068092003 -0.0075196
0.034157 -0.051334001 0.0081968997
0.034251999 -0.050124001 0.0085417004
0.035154998 -0.050259002 0.0081853997
0.0022589001 0.087199003 0.022515999
0.002202 0.086919002 0.023266001
0.0032694 0.087018996 0.022499001
-0.017236 0.064480998 -0.014423
-0.016222 0.064778998 -0.014445
-0.015967 0.064342 -0.013237
0.054781001 0.086064003 -0.031711999
0.056010999 0.085104004 -0.031720001
0.055636998 0.085676998 -0.032568
-0.022910001 0.074872002 -0.00064093998
-0.022407001 0.075443 -0.00040712001
-0.021780999 0.075831003 -0.00063010002
-0.044789001 -0.046397999 0.0030487
-0.045715 -0.046827 0.0029636
-0.045564 -0.046976 0.0041395999
-0.011425 0.039572001 0.031468
-0.0125 0.040065002 0.031815
-0.012538 0.039243001 0.030479001
0.01182 0.077032 -0.0099561997
0.01191 0.077386998 -0.0085546998
0.012175 0.076802999 -0.0086377002
-0.032079998 0.049247 0.010121
-0.031198001 0.049095999 0.010293
-0.030848 0.049603 0.010744
-0.054976001 0.058557 -0.034352999
-0.056134999 0.058720998 -0.033967
-0.056074999 0.058805998 -0.035130002
-0.012692 0.073680997 0.033126999
-0.011531 0.074787997 0.032961
-0.012259 0.074487001 0.032767002
-0.056862999 0.066041 -0.05328
-0.057094 0.065834001 -0.052451
-0.058306001 0.073282003 -0.030613
-0.058699001 0.072544999 -0.030343
-0.058127999 0.072480999 -0.029682999
0.031955998 -0.047865 0.017927
0.032226 -0.049127001 0.018162999
0.032862999 -0.049079001 0.0175
-0.043825999 0.050483 -0.0015864
0.0070381002 0.083153002 0.027323
0.0066741002 0.082601003 0.028321
0.0079290001 0.082721002 0.026962999
-0.054837 0.063247003 -0.042107999
-0.054567002 0.064038001 -0.041909002
-0.019435 0.00023453 0.00029170001
-0.018333999 0.00019803 0.00063551997
-0.019398 -0.0010784999 0.00043245
-0.019455999 0.032446999 0.0063080001
-0.019916 0.033466 0.0065426999
-0.019521 0.033312 0.0051177
-0.0079651 0.0025028 0.015388
-0.0081251999 0.0027031 0.016666999
-0.0091620004 0.0013479 0.015446
0.00094668003 0.040089998 -0.011408
0.0035836999 0.0086436998 0.0021126
0.0033217 0.0081722001 0.0024953999
0.0032756999 0.0094935996 0.0016505
-0.019541999 0.080398999 0.010945
-0.01983 0.079573996 0.012029
-0.019176001 0.080300003 0.011987
-0.0060592 0.055029999 -0.029576
-0.0055538998 0.054003999 -0.029507
0.0030733999 0.028115001 -0.0074168998
0.0033829 0.027496001 -0.0065716999
0.032028999 0.061751001 -0.0046953
0.032063 0.062192 -0.0041351002
0.033163 0.062167 -0.0039781001
0.021761 -0.033018 0.029259
0.022810999 -0.032926001 0.029339001
0.021697 -0.032024 0.029006001
-0.060033999 0.073967002 -0.034713
-0.059718002 0.074868001 -0.035089001
-0.060265001 0.073486999 -0.035204999
-0.030993 0.010525 0.022569001
-0.029983001 0.010788 0.022902999
-0.029943001 0.011798 0.022685001
-0.0045866999 0.0013497 0.030382
-0.0043970998 0.0019256 0.029998001
-0.0036084 0.0014134001 0.029541001
0.02062 0.093813002 -0.02513
0.019487999 0.092954002 -0.024715999
0.019474 0.093840003 -0.025993001
0.020645 -0.025209 0.026699999
0.020189 -0.024804 0.026417
0.019408001 -0.025071001 0.026257001
-0.050512999 0.073269002 -0.030572999
-0.050291002 0.073817 -0.029567
-0.049316 0.073411003 -0.029619001
-0.051596001 0.056341 -0.0097121997
-0.051695999 0.057719 -0.0094226999
-0.052531 0.057629999 -0.010043
0.028708 -0.017972 -0.00030198999
0.028464001 -0.018549999 0.00015752
0.027345 -0.018131001 0.00045232999
0.026223 -0.050145999 0.024776001
0.027534001 -0.050228 0.023508999
0.026812 -0.049961001 0.024036
-0.037836999 -0.033059999 0.021159999
-0.036844 -0.033047002 0.021734999
-0.037781 -0.032003 0.021252001
0.051890001 0.051240001 -0.017131001
0.051329002 0.050941002 -0.016702
0.025192 -0.016829001 0.021405
0.023956999 -0.015964 0.020282
0.023941999 -0.016573999 0.021687999
0.022885 -0.018154999 0.0018778
0.021762 -0.018229 0.0029185
0.022190001 -0.0178 0.0022265001
0.0028929 0.042234 -0.013811
0.0021968 0.042612001 -0.013603
0.0033753 0.042716999 -0.014009
-0.0082564 0.044854999 -0.015069
-0.0077706999 0.044782002 -0.014987
-0.0080506001 0.043756001 -0.01492
0.030871 -0.0067222002 -0.00085441
0.030951999 -0.0055787 -0.00091210997
0.031587999 -0.0066269999 -0.00035305001
0.011532 0.074839003 0.031748999
0.010994 0.074395999 0.032612
0.011568 0.073762 0.032995
-0.039974999 -0.053378999 0.016735001
-0.038959999 -0.053252 0.016817
-0.038917001 -0.053321999 0.018031999
0.059686001 0.057464 -0.013147
0.060741 0.058658998 -0.012046
0.059813999 0.057358 -0.012108
-0.027233001 0.071296997 0.014458
-0.026838001 0.071823001 0.013744
-0.018169001 -0.0065436 0.0097348001
-0.019231001 -0.0068247002 0.0085981004
-0.018646 -0.0062219999 0.0086695002
-0.011384 0.0024278001 0.0084822001
-0.011069 0.003212 0.0081692003
-0.023576001 0.068939999 0.025893999
-0.038704999 0.051553998 -0.014777
-0.039131001 0.050811 -0.015027
-0.039131001 0.051707 -0.015069
-0.0034858 0.056439001 0.039294999
-0.0045400001 0.056671001 0.039255999
-0.0039682002 0.055957001 0.039221998
0.015900001 -0.032237001 0.010619
0.015157 -0.031865001 0.011
0.016035 -0.031645 0.010159
0.014927 -0.0045166998 0.0015515001
0.015586 -0.0055982 0.0013081999
0.015292 -0.0056501999 0.0018171
0.062542997 0.064441003 -0.01094
0.062847003 0.063247003 -0.011985
-0.014056 0.020757001 0.027361
-0.014875 0.022088001 0.026849
-0.014683 0.020909 0.026797
0.0080442997 0.054090999 -0.011986
0.008103 0.053080998 -0.011957
0.0067602 0.052917998 -0.011922
0.015912 0.0049073999 -0.00061689998
0.016615 0.0040696999 -0.0011411
0.016015001 0.0036408999 -0.00090957002
-0.011492 0.0092481002 0.025309
-0.012545 0.0094165001 0.025618
0.051362999 0.088601001 -0.028294999
0.05122 0.088064998 -0.027224001
0.0024697001 0.054783002 -0.015629999
0.0027113999 0.054669999 -0.014987
0.0023467999 0.053941999 -0.014675
0.050269 0.057379 -0.025079001
0.049277 0.057916 -0.025622999
0.050234001 0.058100998 -0.025707001
0.021785 -0.035799 0.030038999
0.020688999 -0.036453001 0.030118
0.021725001 -0.036561999 0.030328
-0.054756001 0.059565999 -0.037542999
-0.053757999 0.059863999 -0.036281999
-0.054597002 0.059464 -0.036540002
0.010101 0.087410003 -0.017779
0.011492 0.087476999 -0.017568
0.011511 0.088403001 -0.018188
0.016169 -0.0030058001 -0.00030108
0.015802 -0.0035184999 0.00020497
0.014835 -0.0030892 0.00062333001
0.0055803 0.057457998 -0.025928
0.0068858 0.058612 -0.025929
0.0060653999 0.058325998 -0.025707001
-0.013839 0.090714 -0.019964
-0.014788 0.089582004 -0.019942001
-0.014243 0.089832999 -0.019703999
0.027414 -0.029610001 0.0063727
0.028646 -0.028498 0.0063425
0.028193001 -0.029353 0.0068827998
-0.040966 -0.0090399003 0.0076370002
-0.040702999 -0.0089927996 0.0083672004
0.023923 0.04496 -0.00063204998
0.0057148002 0.048126999 -0.013975
0.0050368998 0.047809001 -0.013919
-0.034446001 0.055107001 0.010615
-0.035271998 0.055098999 0.010416
-0.034428 0.054026999 0.010587
0.0068204999 0.048112001 0.036789
0.0065873 0.048666999 0.037067998
0.0056170998 0.048514999 0.037064001
0.063228004 0.070153996 -0.029542999
0.063360997 0.071401998 -0.029572999
0.063184999 0.071393996 -0.028279999
0.056924 0.054480001 -0.0098411003
0.056049999 0.054049 -0.0098491004
-0.040909 -0.013375 -0.00054302003
-0.040119 -0.013829 -0.00088448002
-0.040057998 -0.014435 -0.00038084001
-0.015859 0.061060999 0.036076002
-0.016261 0.062245999 0.035613
-0.016450999 0.061280999 0.035703
-0.041659001 -0.013241 0.0075861998
-0.041214 -0.012452 0.0085602999
-0.041634001 -0.012448 0.0075174002
0.031969 0.047125001 -0.0066129998
0.033057 0.047194999 -0.0073247999
0.032910001 0.046652 -0.0064106002
-0.0091677001 0.01176 0.027961001
-0.0080225002 0.01136 0.027597001
-0.0035315 0.067947999 -0.034255002
-0.0023876999 0.068147004 -0.034405001
-0.0026817999 0.067106001 -0.034515001
0.05094 0.049952999 -0.014129
0.050250001 0.049741 -0.014505
0.051445 0.050781 -0.014619
0.0056802002 0.042663001 -0.014382
0.0046080998 0.043735001 -0.014321
0.0056802002 0.043735001 -0.014462
0.0080306996 0.086097002 0.021439999
0.029681999 -0.028520999 0.0075967
0.029051 -0.028949 0.0071927998
-0.041696999 -0.022715 0.010224
-0.041825 -0.023707001 0.0096354997
-0.041701 -0.023901001 0.010191
-0.014771 0.082769997 -0.020306
-0.015996 0.083770998 -0.021160999
-0.016124999 0.082731001 -0.021483
0.0097538996 0.085706003 -0.0012648
0.0093005998 0.086213998 -0.00062152999
0.0097538996 0.085766003 -0.00064102001
0.049157001 0.081649996 -0.027039999
0.049635001 0.081900001 -0.027767999
0.050285 0.081574999 -0.028351
0.032008 0.064640999 0.0076553999
0.030815 0.064584002 0.0086736996
0.032039002 0.064136997 0.0085821999
0.0011824 0.042670999 0.034417
0.0022438001 0.042656999 0.034235001
0.0022495999 0.043735001 0.034444999
-0.050590999 0.08066 -0.044293001
-0.050407998 0.081776001 -0.045320999
-0.050032001 0.081431001 -0.044599999
-0.0037966999 0.032499999 -0.0091383997
-0.0036824001 0.030966001 -0.0091322996
-0.0056222999 0.042619001 0.034403
-0.0056754001 0.041384 0.034010999
-0.0046281 0.041377001 0.034251999
-0.013795 0.086286999 0.0098577002
-0.01456 0.085864 0.010313
-0.014109 0.086277001 0.01102
-0.0075886999 0.060963001 -0.038444001
-0.0073418999 0.061439998 -0.038846999
-0.0071389 0.061145 -0.039870001
-0.052168 0.071608998 -0.040929999
-0.052218001 0.072251998 -0.040286999
-0.052145001 0.071479999 -0.040015999
-0.021764001 0.0094478 -0.0002214
-0.022893 0.010245 -3.7540001e-05
-0.021764001 0.010517 0.00023452
-0.0090500005 0.088555999 -0.028351
-0.0090779997 0.089685 -0.027079999
-0.0087299002 0.088846996 -0.027372001
-0.027014 -0.047943 0.011701
-0.027088 -0.049127001 0.011971
-0.027773 -0.049113002 0.01095
-0.035486002 -0.027246 0.022547999
-0.036348 -0.027222 0.022360001
-0.035461001 -0.028532 0.022609999
-0.00011978 0.0058281999 0.0075075999
0.00074876001 0.0054656998 0.0073115998
0.0012347 0.0051297001 0.0075743999
0.045793999 0.049178999 -0.0085466998
0.046969999 0.049667999 -0.0074342
0.045876 0.049155001 -0.0075439001
-0.033137999 0.046100002 -0.0029959001
-0.033128001 0.045883998 -0.0017082
-0.034430001 0.04589 -0.0029678
0.032063998 0.055100001 -0.0077110999
0.032986999 0.054033 -0.0083144
0.031939998 0.054062001 -0.0078407004
-0.040185001 -0.028491 0.019114001
-0.040206 -0.02953 0.019215001
-0.039632 -0.029557001 0.019773999
0.014538 0.080122001 0.0033605001
0.014011 0.080544002 0.0029535999
0.014895 0.080499001 0.0041112001
-0.016001999 0.070064001 -0.016794
-0.015546 0.070964999 -0.017403999
-0.01552 0.070082001 -0.017584
-0.03444 -0.0020685999 0.019094
-0.034573 -0.0031371999 0.018333999
-0.034068 -0.0031385999 0.018784
-0.023891 -0.0080193002 0.0025665001
-0.02311 -0.0078515001 0.0032285999
-0.024205999 -0.0089013996 0.0031462
0.034472 -0.05367 -0.0016808
0.033985998 -0.052508 -0.0020695
0.034745 -0.053392 -0.002452
0.013485 0.041395999 0.031552002
0.012666 0.042520002 0.032143001
0.012562 0.041352998 0.032088999
-0.041485 -0.0090092998 0.0051675001
-0.041591998 -0.0089913998 0.0040775998
-0.041683 -0.0097783003 0.0041666999
-0.048505999 0.058832001 -0.0040640999
-0.048684999 0.058529999 -0.0038377
-0.048863001 0.058738001 -0.0029800001
0.043806002 0.073316 -0.01756
0.043460999 0.072475001 -0.017860999
0.043623 0.073210999 -0.016665
2.6541e-05 0.089589998 -0.0064218999
-0.0011651 0.089571998 -0.0074172001
-9.1372996e-05 0.048215002 -0.012049
2.7929e-05 0.049679 -0.012808
0.0010309 0.049625002 -0.012904
-0.029642999 -0.0010447 0.022273
-0.030126 -0.0013386999 0.021891
-0.029680001 -0.0021273 0.021648999
0.0010316001 0.039147999 -0.010889
-0.00010888 0.038375001 -0.01051
-0.037765 -0.032917 0.0067333998
-0.037560999 -0.034120001 0.0067770001
-0.038137998 -0.034084 0.0075166998
0.0011614 0.087658003 0.021446001
0.0012007999 0.087298997 0.022498
0.0022258 0.087518997 0.021469001
-0.026286 0.014806 0.0043099001
0.0072491998 0.083916001 -0.022476999
-0.011518 0.0047471998 0.0052490002
-0.011258 0.0044062999 0.0062286998
0.050356001 0.086989999 -0.025970001
0.050276998 0.087627001 -0.026856
0.049633998 0.086832002 -0.026535001
0.056187999 0.081845999 -0.021352001
0.056054998 0.082727 -0.022413
0.055734999 0.082590997 -0.021697
-0.011332 0.064533003 -0.028016999
-0.011156 0.063675001 -0.027851
-0.0022411 0.020578999 0.031074001
-0.0022529999 0.019737 0.030911
-0.0011716 0.019819001 0.03094
-0.029681999 -0.01008 0.016789
-0.030851001 -0.010164 0.016473001
-0.029789999 -0.011195 0.016251
-0.053482998 0.066494003 -0.054758999
-0.0058252998 -0.0010563 0.042045999
-0.044849001 0.058812 0.00046146999
-0.04493 0.057659999 0.00065980997
-0.044396002 0.057659999 0.0015134
0.0084675001 0.085775003 -0.017131001
0.0079474002 0.085064001 -0.016609
0.0090942001 0.085368 -0.016380001
0.017070999 0.087206997 -0.021733999
0.015929 0.087360002 -0.022213999
0.016615 0.087688997 -0.022064
-0.013715 0.082691997 0.023607001
-0.01426 0.081936002 0.024036
-0.013929 0.081661001 0.024822
-0.031929001 -0.045641001 0.0063537001
-0.033082001 -0.044450998 0.0063902
-0.032127 -0.044627 0.0067512998
0.0016064 0.0027832 0.037648
0.0010791 0.0033598 0.037500001
-0.0077702999 0.023426 -0.0039285002
-0.0080244998 0.024307 -0.0040175002
0.022828 0.048392002 -0.0052498998
0.023047 0.049095999 -0.0056841001
0.023868 0.048409 -0.005161
0.039944999 0.056361001 0.0082667004
0.039836001 0.055098999 0.0083365999
0.040312 0.055025 0.0079089003
0.028471 -0.052352998 -0.0030288
0.027431 -0.052643001 -0.0030157999
-0.0093850996 0.063189 -0.020186
-0.01005 0.064502999 -0.02007
-0.0097147003 0.064103998 -0.020562001
-0.00096650998 0.087945998 0.021034
-0.00011763 0.088238999 0.020176001
-0.0011924 0.088320002 0.020119
-0.053725999 0.082455002 -0.042091001
-0.053282 0.082438 -0.041379001
-0.052703999 0.083007999 -0.042134002
-0.014836 0.00024225999 0.021438999
-0.015203 -0.00080765999 0.021225
-0.014782 -0.00095258001 0.020519
-0.019540001 -0.0075551001 0.016562
-0.019238001 -0.0080246003 0.01547
-0.018355001 -0.0074856002 0.015373
0.0056980001 0.017612999 0.029058
0.0068680998 0.017224001 0.028723
0.0064746998 0.017687 0.028992999
-0.057160001 0.059792001 -0.054740999
-0.057193 0.058710001 -0.054698002
-0.058150999 0.05883 -0.054552998
-0.041792002 0.057696 0.0047387001
-0.042293999 0.057579 0.0040206001
-0.041972 0.056269001 0.0048578
0.035457 -0.053479999 0.0017050999
0.0011136 0.057730999 0.038982999
-7.6274002e-05 0.056394 0.038998999
0.00074876001 0.056407999 0.039204001
0.015171 -0.045935001 0.029376
0.015929 -0.045611002 0.029546
-0.026005 0.063134 0.025588
-0.026626 0.063339002 0.025119999
-0.025579 0.06323 0.026048001
0.023047 0.016713001 0.015888
0.022768 0.017098 0.015373
0.02279 0.016247001 0.016659999
-0.046921998 -0.053417999 0.010914
-0.045848999 -0.053137999 0.011028
-0.046842001 -0.053599 0.012021
0.0092596002 0.089518003 -0.022601999
0.0083418004 0.088320002 -0.022483001
0.0088962996 0.089047998 -0.022276999
-0.026353 0.015533 0.021442
-0.027414 0.014826 0.021290001
-0.026216 0.014867 0.022291999
-0.038846001 0.064263999 0.0029712999
-0.038858999 0.063302003 0.0043016002
0.017121 0.059881002 -0.010124
0.015943 0.059728999 -0.010675
0.016186001 0.060245 -0.010375
-0.021452 -0.028496999 0.014415
-0.021303 -0.027208 0.013376
-0.021624999 -0.027233999 0.014393
0.024762999 -0.053082999 0.010099
0.025314 -0.053112 0.0098232999
0.025191 -0.053064 0.010957
0.0067522 0.026582999 0.031626001
0.0056802002 0.027655 0.031592
0.0056802002 0.026582999 0.031727999
0.018952999 0.022938 0.017875999
0.019029999 0.023053 0.016659999
0.018807 0.023231 0.018018
0.017647 0.036772002 -0.0018426999
0.017237 0.035810001 -0.00164
0.016852001 0.035936002 -0.0029414999
-0.030983999 0.0036329001 -0.0019606999
0.01365 0.046094 0.032963
0.014471 0.046308 0.032506999
-0.040748999 -0.014892 0.012962
-0.040934 -0.015891001 0.013327
-0.038267002 0.0049035 0.013709
-0.038189001 0.0060700001 0.013393
-0.038468 0.0049398998 0.013113
0.033116002 -0.023792 0.019104
0.033193 -0.022731001 0.019064
0.032846998 -0.022731001 0.020164
0.026196999 0.045175999 0.0085012
0.026319999 0.044888001 0.0075353002
0.027334999 0.045260001 0.0075617
-0.0034365 -0.0041343998 0.055167999
-0.0046115001 -0.0041697002 0.055312
-0.0036224001 -0.0047458 0.055645999
0.0067480002 0.05993 -0.016725
0.0077593001 0.061225999 -0.016628001
0.0077928999 0.059916001 -0.015549
-0.021051999 -0.022622 0.010928
-0.020889999 -0.022738 0.0098967999
-0.021096 -0.022039 0.0098844999
0.030064 0.0025057001 0.019408001
0.03043 0.0025688 0.018975999
0.048535001 0.083401002 -0.023719
0.0491 0.083968997 -0.023458
-0.053539 0.065628998 -0.041988
-0.053440001 0.066712998 -0.042064998
-0.053291999 0.066676997 -0.041294999
-0.024103999 0.0060192002 -0.0017222
-0.025083 0.0048424001 -0.0017502001
-0.025238 0.0060637002 -0.0015582
-0.051196001 0.078186996 -0.042128
-0.051713001 0.076958001 -0.041979998
-0.051667001 0.078342997 -0.043003999
-0.029633 0.015927 0.0086618997
-0.030126 0.015504 0.0081692003
-0.030871 0.015132 0.0086658001
-0.027875001 0.001604 -0.0023254999
-0.027295999 0.0013824 -0.0022076999
0.013542 0.081272997 0.0041046999
0.013328 0.081560999 0.002906
0.012775 0.081978999 0.0033168001
0.0045500998 0.0034855001 0.018003
0.0067516002 0.010494 0.00041293999
0.0079023 0.010365 0.00012596
0.0080503002 0.0094357003 0.00043608001
-0.0095429001 0.080891997 -0.026565
-0.0099716997 0.080957003 -0.026565
-0.061308 0.061126001 -0.017131001
-0.060929999 0.059804 -0.016489999
-0.060961001 0.061090998 -0.016439
-0.024367999 0.042663001 -0.00060962001
-0.024727 0.042985 0.00055772997
-0.024853 0.043875001 -0.00059355999
-0.025409 -0.0096525 0.0022594
-0.024979999 -0.0092236996 0.0024365
-0.0079704998 0.014195 0.028935
-0.0069519002 0.013651 0.028748
-0.0069557 0.014204 0.028994
0.020992 0.071447998 0.024840999
0.021132 0.071627997 0.024036
0.020736 0.072499 0.024828
-0.011411 0.020794 0.029037001
-0.011258 0.019722 0.028953999
-0.010401 0.019640001 0.029358
-0.029269001 0.059994999 -0.0091503998
-0.029269001 0.060869001 -0.0091984998
-0.028709 0.061151002 -0.0088010998
-0.022528 0.063147001 0.030179
-0.023103001 0.063270003 0.029410001
-0.0001071 0.089892998 0.0004667
0.00118 0.089796998 0.001737
0.0011791 0.089729004 0.00044258
0.0063234 0.068392001 -0.033479001
0.0056607001 0.068392001 -0.033548001
0.0056707999 0.069026001 -0.033619002
0.016111 0.032302 0.0040102
0.01506 0.031067999 0.0029873999
0.015821001 0.032508001 0.0030187001
-0.058428001 0.05875 -0.013028
-0.057055999 0.058786999 -0.012413
-0.058375001 0.059870001 -0.012472
-0.041917998 -0.0079763997 0.0016914
-0.041515 -0.0066239 0.0017676
-0.041816998 -0.0070795999 0.0013081999
-8.6305998e-05 0.021275001 0.031249
-0.00096650998 0.021221999 0.031239999
-0.030999999 0.0048950999 -0.0016357
-0.032058999 0.0036408999 -0.0016997
-0.043559 0.050473999 -0.01339
-0.042562 0.050177 -0.0137
-0.042319 0.049504001 -0.013282
0.023810999 -0.037778001 0.012785
0.024085 -0.037374001 0.012509
0.02389 -0.038832001 0.013222
-0.010107 0.062210999 -0.016662
-0.010844 0.061960001 -0.015845001
-0.011159 0.062245999 -0.015579
0.014596 -0.037524998 0.016694
0.014678 -0.036502 0.015368
0.015116 -0.037423 0.015689
-0.060111001 0.070914 -0.021653
-0.060143001 0.070873 -0.022475
-0.060690999 0.070258997 -0.021369001
0.011387 0.058696002 -0.012454
0.01031 0.059967 -0.012436
-0.0034839001 0.055211 -0.01904
-0.0034322001 0.055512998 -0.018034
-0.0046768002 0.056028999 -0.019092999
0.025738999 0.063675001 -0.0034088001
0.026317 0.063555002 -0.0032059001
0.026199 0.062945999 -0.0037318
-0.041783001 0.069250003 -0.022706
-0.042038001 0.069375999 -0.023545001
-0.042293001 0.070069 -0.022484999
0.032224 -0.050289001 -0.00030772001
0.032765999 -0.050818998 -0.00093481003
0.032017998 -0.051369999 -0.00053798
-0.0038421 0.056010999 -0.040993001
-0.0035144 0.055208001 -0.039855
-0.0045785001 0.055569999 -0.039944001
-0.0056673 0.035808999 0.033735
-0.004429 0.035588 0.033651002
-0.0048258998 0.036357 0.033470001
0.033666998 -0.012368 0.0041669002
0.033280998 -0.01244 0.0051437002
0.03348 -0.013231 0.0052367002
0.052650001 0.079410002 -0.018823
0.052691001 0.080334999 -0.019285001
0.051348999 0.079333998 -0.019193999
0.054722 0.084844999 -0.026966
-0.0047086999 -0.0055478001 0.047835
-0.0039682002 -0.0060653002 0.048048999
-0.0038421 -0.0059408001 0.048604
0.0037505 0.062564 -0.040286999
0.0031164 0.063006997 -0.040851001
0.0033183 0.063138999 -0.039794002
0.054816 0.062174998 -0.026877001
0.054508999 0.061395999 -0.026769999
0.053693 0.061113998 -0.027068
0.020339999 -0.011378 0.019471999
0.019515 -0.012483 0.019074
0.020323001 -0.012402 0.019491
-0.0011988 0.069009997 -0.034341
0.032104 0.061181001 0.012241
0.032010999 0.059730001 0.013245
0.032481 0.060245 0.012633
-0.015930999 0.033487 -0.0016085
-0.015546 0.032705002 -0.0012648
-0.016236 0.033259999 -0.00076299999
-0.038826998 -0.021614 0.020364
-0.040064 -0.021577001 0.019047
-0.039577 -0.021755001 0.019747
-0.014897 0.065912999 -0.016734
-0.013896 0.065987997 -0.016767001
-0.014808 0.065628 -0.015667001
-0.051318001 0.061012 -0.034283999
-0.050523002 0.061188001 -0.033854
-0.051270001 0.059673999 -0.033252001
0.019396 0.0036408999 -0.0018432999
0.018332001 0.0036444999 -0.0016429001
0.01942 0.0049156998 -0.0015746
-0.047758002 0.061133999 -0.0051408
-0.047664002 0.062174998 -0.0040520998
-0.047486 0.061960001 -0.0046953
-0.023282999 -0.021682 0.017543999
-0.023832001 -0.021767 0.018255999
-0.023597 -0.022731001 0.018239001
-0.021315999 0.050538 0.030038999
-0.021739 0.050604001 0.029424001
-0.021578001 0.049679 0.029274
-0.012829 0.023208 -0.00078697997
-0.012162 0.023987999 -0.001318
-0.012296 0.023073001 -0.0013824
0.014586 0.049773 0.033539001
0.015007 0.049267001 0.033107001
0.015892001 0.049577001 0.032699
-0.037790999 -0.014718 0.016708
-0.039032999 -0.01575 0.016791999
-0.038274001 -0.015477 0.017174
0.0080984998 0.015111 0.027313
0.0027054001 0.00028425001 0.037610002
0.0020367 0.0013229999 0.038681
0.0024659 0.00021031 0.038631
-0.036454 -0.043528002 0.0066118999
-0.036557999 -0.043947 0.0059616002
-0.037833001 -0.043543998 0.0066563999
-0.019518999 0.072443999 0.027176
-0.018696999 0.073537998 0.027505999
-0.019336 0.073541999 0.026972
-0.038534001 -0.047795001 0.019747
-0.038972002 -0.047772001 0.019252
-0.039005999 -0.049054999 0.019275
0.035053998 -0.053366002 0.0025949001
0.034212999 -0.053484 0.0030382001
0.022616001 0.041271001 0.02014
0.022961 0.041391999 0.01911
0.022489 0.042798001 0.020034
0.019919001 0.019769 0.018293999
0.019650999 0.020801 0.01804
0.019664999 0.019739 0.019122001
-0.037799999 -0.030625001 0.0052127
-0.037416 -0.031521998 0.0057399999
-0.037873998 -0.032005001 0.0061173998
0.032074001 -0.021651 0.021482
0.032373998 -0.022722 0.021667
-0.014903 0.013914 0.00044870999
0.016822999 0.061184999 0.033613
0.017550001 0.059723001 0.033112001
0.017356999 0.061121002 0.033139002
-0.038407002 0.061076 -0.020562001
-0.038169 0.061101999 -0.019923
-0.038155999 0.059861001 -0.020088
0.018123999 -0.014584 0.018235
0.017495001 -0.014798 0.017543999
0.017984999 -0.015671 0.018201999
-0.039820999 -0.036448002 0.01802
-0.040197 -0.035381999 0.016760999
-0.040119998 -0.036460001 0.016736999
0.027311999 0.054063998 0.016573999
0.026436999 0.055098999 0.017143
0.026479 0.054026999 0.017176
0.017093999 0.095417999 -0.023498001
0.017091 0.094916001 -0.022693001
0.018269001 0.095671996 -0.023426
0.0033948999 0.053769 -0.031849001
0.0042262999 0.054106999 -0.031697001
-0.01385 0.033300001 0.029653
-0.014858 0.034550998 0.029347001
-0.014689 0.033436999 0.029181
-0.0091372002 0.030006999 0.031434
-0.0099716997 0.029370001 0.031168999
-0.0090923002 0.028933 0.03136
-0.031254999 0.061159998 -0.010662
-0.031239999 0.061960001 -0.010699
-0.030818 0.062261999 -0.0101
0.0045447 0.056403998 -0.043265
0.004617 0.056332 -0.042072002
-0.0070596999 0.058488999 -0.037475999
-0.0077148001 0.059048001 -0.036359001
-0.0075778998 0.058958001 -0.037285
-0.025669999 0.044379 0.019123999
-0.025899 0.043593001 0.019033
-0.025634 0.043949999 0.019319
0.012437 0.027655 0.028510001
0.013184 0.027655 0.027811
0.012668 0.028968999 0.028376
0.022376001 0.049747001 0.025974
0.022251001 0.049095999 0.025057999
0.02256 0.049649999 0.024815001
0.0093494998 0.084151 0.022665
-0.029704999 0.017046999 0.014393
-0.029681999 0.017037001 0.013376
-0.030555001 0.016836001 0.014173
-0.010322 0.087304004 -0.029801
-0.010204 0.086171001 -0.029744999
0.026401 -0.044399001 0.024906
0.026595 -0.043336 0.025171001
0.026024001 -0.043242998 0.025862001
0.035374999 0.051759001 0.011894
0.035053998 0.050786 0.011778
0.035626002 0.050643999 0.011048
-0.010321 0.063307002 0.037684001
-0.010266 0.064492002 0.037486002
-0.011437 0.064447001 0.036575999
-0.023987999 -0.050175998 0.016742
-0.024515999 -0.049104001 0.015865
-0.024116 -0.049113002 0.01671
0.018801 0.026554 0.01335
0.018684 0.025526 0.013315
-0.017262001 0.011788 0.00064195
-0.018333999 0.01286 0.00069026003
-0.017262001 0.01286 0.00061238999
-0.045522999 0.059808001 -0.027389999
-0.044946 0.059981 -0.026826
-0.045157 0.058743998 -0.026565
-0.035381999 0.054063998 -0.014319
-0.034612 0.054042999 -0.01392
-0.035503998 0.053151999 -0.014063
0.011338 0.051718 0.036026999
0.01104 0.050577 0.035877999
-3.4942001e-05 0.079659998 -0.026233001
-0.00013746 0.079949997 -0.025663
0.047938999 0.074638002 -0.012061
0.046804 0.073848002 -0.011899
0.047906 0.073872998 -0.011013
-0.027466999 -0.0090621999 0.00018061
-0.028581999 -0.010167 0.00026117
-0.028588001 -0.0089069 -0.00043047001
0.030765999 -0.020256 0.0030225001
0.031838998 -0.020106999 0.0040964
0.030851999 -0.020612 0.0040525999
0.054625001 0.069061004 -0.030579001
0.054535002 0.069968998 -0.030761
0.055229999 0.069072001 -0.031631999
0.021787001 -0.053270001 0.0085808998
0.020544 -0.053544 0.0075606001
0.021796999 -0.053405002 0.0075022001
0.013327 0.040376 -0.011787
0.013557 0.039243001 -0.010901
0.01247 0.039519001 -0.011854
0.028902 0.0049093999 0.02055
0.028410999 0.0036295999 0.021251
0.029056 0.0036661001 0.020595999
-0.012572 0.0025259 0.0063681998
-0.013642 0.0025259 0.0050606998
-0.012987 0.0027832 0.0055963001
-0.0073988 0.084435999 0.025091
0.046202999 0.054014999 0.00087933999
0.045917001 0.052955002 0.00065439002
0.046665002 0.054017998 0.00020272
0.050344002 0.078119002 -0.026234999
0.049566999 0.078469999 -0.025666
0.0032852001 0.051736001 -0.013198
-0.02142 0.037014998 0.013332
-0.021266 0.036922 0.014339
-0.021785 0.037978999 0.014385
-0.034414001 -0.0090297004 0.015829001
-0.035595998 -0.008072 0.015615
-0.035392001 -0.0090314997 0.015264
-0.034398999 -0.027225999 0.022865999
-0.034414001 -0.026162 0.02293
-0.035459999 -0.026171001 0.022631001
0.017204 0.070118003 -0.0098411003
0.017999999 0.068971001 -0.0098502003
0.017584 0.069325 -0.01093
0.023047 0.016535001 0.0073115998
0.022944 0.016631 0.0064197001
0.017534001 0.024545999 0.0097594
0.018177001 0.023940001 0.010027
0.017775999 0.023794999 0.0088125002
-0.029269001 0.062789999 0.018461
-0.029402999 0.062141001 0.018127
-0.029316001 0.062899999 0.019084999
-0.050172001 0.053130001 -0.010994
-0.049403999 0.052829999 -0.0096982
-0.049975999 0.053300999 -0.010136
-0.039979 0.060982998 -0.022026001
-0.039131001 0.059840001 -0.022089999
-0.039988998 0.059815999 -0.022157
-0.021648999 0.050579 -0.011733
-0.022087 0.04958 -0.011221
-0.022157 0.050643999 -0.011196
0.031727001 -0.019943999 0.0032470999
0.032170001 -0.019634999 0.0029436001
0.045382001 0.069250003 -0.018417001
0.045736998 0.069035999 -0.019032
0.045568999 0.068043001 -0.018960999
0.0089982003 0.063247003 -0.015536
0.0082553001 0.062215999 -0.016524
-0.0022611001 0.067932002 0.037778001
-0.0022406999 0.069029003 0.037806999
-0.0035156 0.069035999 0.037551999
-0.042309999 -0.049251001 0.00091318
-0.043333001 -0.049047001 0.00048563001
-0.043097999 -0.047726002 0.0013976
-0.012808 0.077023998 -0.017933
-0.012474 0.077059999 -0.019095
-0.012973 0.076434001 -0.018846
0.030749001 0.0070937001 0.0040954999
0.030337 0.0079979999 0.0043099001
-0.056056999 0.05277 -0.022491001
-0.056827001 0.053296998 -0.022428
-0.056685001 0.053383999 -0.023134001
0.0091847004 0.073551998 -0.025939001
0.0098890997 0.073455997 -0.024786999
0.027341999 -0.053316001 0.020191001
0.027326999 -0.053541999 0.021455999
0.026273999 -0.053350002 0.021444
-0.019459 0.077215999 0.00045945001
-0.019508 0.077159002 0.0017574
-0.018699 0.077444002 0.001737
-0.015998 0.065521002 -0.01568
-0.016701 0.066478997 -0.016272999
-0.016156999 0.066685997 -0.016788
0.026226001 -0.053275999 0.0052562002
0.025202001 -0.053374998 0.0051755998
0.025110999 -0.053215001 0.0041490998
0.012259 0.064730003 -0.022500001
0.012437 0.065576002 -0.022601999
0.012512 0.065545999 -0.021376999
0.018526001 0.079403996 0.018061999
0.018340999 0.079356998 0.016713999
0.041055001 0.052928001 -0.01663
0.042330999 0.051741999 -0.016595
0.041428 0.052097 -0.016272999
-0.034449 -0.053277001 0.021515001
-0.035443 -0.053254001 0.021376999
-0.035558 -0.053224999 0.020462001
0.0036075001 0.037659999 0.032209001
0.0046057999 0.037964001 0.031978998
-1.6711e-06 0.016245 -0.0045042001
0.0012037 0.016224001 -0.0041351998
-0.034403 -0.011368 0.01585
-0.033557002 -0.010939 0.01613
-0.033194002 -0.010117 0.016039999
0.0046629999 0.057449002 -0.020171
0.005322 0.058100998 -0.02015
0.0056838999 0.058743998 -0.020121001
-0.046785999 0.064262003 -0.0075758998
-0.046969999 0.064796001 -0.0083298003
-0.047708001 0.064103998 -0.0079993
0.032111 -0.05356 0.013306
0.030765999 -0.053422999 0.012029
0.031985 -0.053692002 0.011993
0.027284 -0.0021062 0.021435
0.028607 -0.0021263999 0.020095
-0.0083854003 0.063445002 -0.030655
-0.0086882003 0.063129999 -0.030441999
-0.009149 0.064498998 -0.029701
0.025327999 0.063346997 0.019076001
0.025555 0.064533003 0.01911
0.025116 0.064487003 0.020075001
-0.031083001 -0.045302998 0.024024
-0.031840999 -0.046101999 0.024279
-0.040909 -0.027244 0.01095
-0.040918 -0.028515 0.0098842997
-0.040649999 -0.028092001 0.010957
0.052661002 0.055578001 -0.0043488001
0.053493001 0.055528 -0.0045377002
-0.012537 0.055091001 0.037179001
-0.011449 0.055213001 0.037593
-0.011501 0.056361999 0.037555002
-0.017968999 0.081628002 0.014359
-0.017208001 0.082758002 0.014416
-0.018023999 0.082695 0.013208
-0.00010093 0.037967999 0.032988001
-0.00010888 0.038803998 0.033301
-0.00096650998 0.038803998 0.033362001
0.023579 0.067477003 0.00057383999
0.023972999 0.067850001 0.0016314
0.024119999 0.067101002 0.00036179999
-0.031550001 0.013718 0.019747
-0.014982 -0.0029494001 0.019089
-0.016244 -0.0029328 0.02007
-0.015929 -0.0034075 0.019089
-0.048083 0.068697996 -0.012268
-0.048069999 0.069219999 -0.012843
-0.049159002 0.069210999 -0.012825
0.025457 0.056290999 0.019141
0.025665 0.057178002 0.018939
0.025357001 0.056437999 0.020159001
0.016952001 0.064487003 0.032867
0.016334999 0.065595999 0.033139002
0.016186001 0.064962 0.033402
0.050287001 0.054021999 -0.0042682998
0.050349001 0.054813001 -0.0038183001
-0.00697 0.054026999 0.038609002
-0.0080420002 0.054026999 0.038417999
-0.0069777998 0.052947 0.038415
0.018385001 -0.031888999 0.028145
0.017159 -0.030626001 0.027094999
0.016938999 -0.031934999 0.027113
-0.011609 0.087623999 0.0074145002
-0.011258 0.087926 0.0083836997
-0.011258 0.087915003 0.0077403998
-0.03118 -0.053443 0.0075439001
-0.032122999 -0.053649999 0.0064739999
-0.031376999 -0.053314 0.0067040999
0.045954999 0.058781002 0.00060033001
0.046783 0.057622999 0.00036209001
0.046631999 0.058518 2.1702001e-05
-0.01501 0.068053 0.034458
-0.014915 0.066702001 0.034979999
-0.014689 0.067749001 0.034731001
0.044998001 0.064406998 -0.018632
0.045558002 0.064604998 -0.019204
0.024424 0.04346 0.0052421
0.025052 0.043871 0.0065037999
0.024334 0.043210998 0.0060251998
-0.0066400999 0.058017999 -0.034093
-0.0070910002 0.058793999 -0.033020001
-0.0071626999 0.058761001 -0.034104999
-0.0080984002 0.082875997 -0.026667001
-0.0072185998 0.083818004 -0.025940999
-0.0077121002 0.082820997 -0.026291
-0.020078 0.031943001 0.0098844999
-0.019880001 0.032559 0.0098844999
-0.0034501001 -0.0028506999 0.053870998
-0.0045400001 -0.0023580999 0.053337999
-0.0046828999 -0.0028089001 0.053899001
-0.035266999 0.011573 0.0098844999
-0.035691999 0.010542 0.0086219003
-0.035776999 0.010501 0.0099381004
-0.010278 0.0012917001 0.011947
-0.010805 0.00021031 0.012529
-0.011389 0.00015671 0.011983
0.025129 -0.050202001 0.026063999
0.016073 0.012897 0.024816999
0.016615 0.012646 0.024442
0.017238 0.012851 0.024102001
-0.019308001 0.020482 0.0032712
-0.018342 0.020646 0.0031723001
-0.019323001 0.019712999 0.0028122
0.018758999 0.072485998 0.027651999
0.018758999 0.071608998 0.027681001
0.019328 0.072424002 0.027045
-0.042739 -0.019300999 0.007526
