# .PCD v0.7 - Point Cloud Data file format
VERSION 0.7
FIELDS x y z
SIZE 4 4 4
TYPE F F F
COUNT 1 1 1
WIDTH 1660
HEIGHT 1
VIEWPOINT 0 0 0 1 0 0 0
POINTS 1660
DATA ascii
0.045584001 0.069096997 0.26673001
0.085932001 0.17169 0.27078
0.094807997 0.12473 0.26028001
0.041722 0.068124004 0.26927999
0.12807 0.10579 0.29616001
0.12737 0.10711 0.29745999
0.12876999 0.1044 0.29646
0.10308 0.1437 0.31694999
0.10423 0.14184 0.31650001
0.10133 0.14308 0.31722999
0.099973999 0.14353999 0.31760001
0.098738 0.14425001 0.31801999
0.092347004 0.12413 0.25455001
0.093290001 0.19512001 0.26664001
0.093244001 0.19554999 0.26460999
0.09144 0.19538 0.26543
0.10186 0.14279 0.31547001
0.10075 0.14426 0.31671
0.098697998 0.14385 0.31687999
0.098283999 0.14466 0.31740001
0.097042002 0.14476 0.31726
0.096915998 0.1444 0.31858
0.091017999 0.12572999 0.25538
0.090361997 0.076806001 0.26374
0.12830999 0.091863997 0.31259999
0.10506 0.14155 0.31682
0.09798 0.19391 0.20581
0.098346002 0.19292 0.20553
0.097436003 0.19385 0.2058
0.096124001 0.19174001 0.20649999
0.097459003 0.19355001 0.20643
0.027708 0.060724001 0.26593
0.028178001 0.060798999 0.26504001
0.096331 0.19429 0.20761999
0.091954999 0.12687001 0.25602001
0.02771 0.058959998 0.26492
0.027243 0.058208998 0.26536
0.026698999 0.056924 0.26436999
0.026675999 0.058362 0.26539001
0.026450001 0.055865001 0.26549
0.083989002 0.19341999 0.26133001
0.062351 0.15319 0.23040999
0.091641001 0.126 0.25400001
0.090937003 0.12295 0.25386
0.086282998 0.067691997 0.26267001
0.065756001 0.14493001 0.23216
0.066660002 0.14672001 0.23186
0.028351 0.056641001 0.26205999
0.028436 0.16760001 0.23574001
0.090655997 0.18935999 0.21010999
0.090042002 0.18959001 0.21114001
0.063279003 0.078873999 0.2411
0.075654 0.067403004 0.24976
0.076851003 0.067477003 0.25148001
0.038242999 0.067171 0.27236
0.02894 0.060377002 0.2633
0.030057 0.059728999 0.26170999
0.029902 0.058354001 0.26225999
0.075590998 0.069007002 0.25075999
0.055406 0.14226 0.22369
0.055705 0.14131001 0.22453
0.055496 0.14067 0.22307999
0.12766001 0.10328 0.31994
0.12740999 0.10051 0.31812
0.075438999 0.10556 0.23046
0.084582999 0.16669001 0.21823999
0.085216999 0.16795 0.21757001
0.11104 0.19850001 0.27182001
0.11146 0.19659001 0.27195001
0.11076 0.19829001 0.27171001
0.078775004 0.055585001 0.24671
0.069971003 0.10904 0.22686
0.069027998 0.10872 0.22623
0.029116999 0.05875 0.26357001
0.094123997 0.16949999 0.21548
0.028586 0.057743002 0.26344001
0.028842 0.056713998 0.26229
0.085487999 0.094622999 0.242
0.084083997 0.095311001 0.24304999
0.086762004 0.18472999 0.21075
0.085354999 0.18516999 0.21190999
0.082199998 0.16298001 0.22858
0.076311998 0.083463997 0.24548
0.089574002 0.18976 0.26203001
0.088531002 0.19148 0.26172999
0.11369 0.19653 0.27291
0.113 0.19607 0.27226001
0.084651999 0.18532 0.21219
0.075006999 0.083154 0.24522001
0.071075 0.081749998 0.24311
0.072362997 0.082709998 0.24264
0.071874999 0.080789 0.24411
0.084022999 0.18444 0.21321
0.083196998 0.18572 0.21459
0.084568001 0.18657 0.215
0.1096 0.12161 0.27946001
0.10886 0.12279 0.27824
0.1092 0.12287 0.27937001
0.076793998 0.11335 0.2331
0.12392 0.11401 0.30197001
0.084737003 0.10003 0.23931
0.084748998 0.10129 0.23923001
0.085496999 0.099528998 0.24033
0.083218001 0.18505 0.21457
0.11236 0.11892 0.28169
0.033271 0.064930998 0.26938
0.071024001 0.18107 0.22449
0.070763998 0.18127 0.22571
0.12804 0.1013 0.30877
0.12813 0.1038 0.30781999
0.12774999 0.1022 0.30935001
0.081491999 0.16625001 0.21932
0.11368 0.19502001 0.27313
0.077522002 0.11383 0.23446999
0.065200999 0.075562999 0.2483
0.066382997 0.076122001 0.24789
0.070522003 0.14651 0.23817
0.075678997 0.11462 0.23299
0.076293997 0.11504 0.23364
0.079999998 0.18324 0.21691
0.067157999 0.17750999 0.22614001
0.076555997 0.11634 0.23300999
0.10863 0.054143 0.32730001
0.096483 0.19346 0.26583999
0.095711 0.19340999 0.26538
0.071870998 0.13940001 0.24205001
0.071391001 0.14092 0.24257
0.071167998 0.13985001 0.24330001
0.093383998 0.18322 0.26309001
0.11344 0.19351999 0.27405
0.078919999 0.18260001 0.21716
0.078291997 0.18209 0.21699999
0.030081 0.057491999 0.25953001
0.030936001 0.055764999 0.25951001
0.078299999 0.18285 0.21915001
0.11244 0.19024999 0.21112999
0.11349 0.19254 0.21128
0.11433 0.19059999 0.21138
0.10064 0.10654 0.25935
0.063633002 0.15933999 0.2305
0.062431 0.15665001 0.23061
0.074118003 0.10774 0.23105
0.097521 0.19419 0.26668
0.096271999 0.19525 0.26622999
0.098591 0.19516 0.26660001
0.074129999 0.18231 0.22213
0.073260002 0.18083 0.22391
0.039035998 0.067777999 0.27241999
0.073633999 0.071994998 0.24888
0.074077003 0.070726998 0.24999
0.088569 0.080340996 0.26097
0.067469999 0.15414999 0.23657
0.072405003 0.17975 0.22239999
0.073083997 0.18017 0.22059
0.072649002 0.17788 0.22146
0.086727999 0.19064 0.26063001
0.069064997 0.11735 0.22896001
0.067960002 0.11768 0.22838999
0.069155999 0.1187 0.22867
0.071309999 0.17986 0.22362
0.11302 0.097686999 0.25604001
0.079451002 0.11244 0.23492999
0.078798003 0.11238 0.2341
0.078392997 0.11353 0.2353
0.071544997 0.17847 0.22361
0.070578001 0.18031 0.22423001
0.070320003 0.17861 0.22385
0.091940001 0.16586 0.21894
0.057496998 0.1707 0.23159
0.068989001 0.17725 0.22483
0.069066003 0.1787 0.22521
0.080666997 0.16962001 0.26719999
0.067507997 0.17804 0.22552
0.067806996 0.076079004 0.24819
0.067457996 0.076862 0.24806
0.10525 0.050023001 0.26964
0.10519 0.050514001 0.26932001
0.1059 0.050560001 0.26853999
0.055803999 0.052407999 0.23720001
0.057135001 0.053348999 0.23574001
0.057209998 0.052039001 0.23571
0.096263997 0.16836999 0.22052
0.097823001 0.19246 0.26642001
0.065554 0.17533 0.22649001
0.065195002 0.17377999 0.22679999
0.066868 0.17196 0.22516
0.075379997 0.12396 0.23592
0.076552004 0.12442 0.23599
0.078805 0.10968 0.23345999
0.079163998 0.10983 0.23429
0.075066 0.099417999 0.22979
0.075108998 0.099186003 0.23054001
0.063256003 0.076681003 0.24744999
0.063745998 0.075542003 0.24846999
0.061778001 0.076255001 0.2491
0.078042999 0.1161 0.23454
0.078610003 0.11525 0.23578
0.065284997 0.17231999 0.226
0.064815 0.17246 0.22675
0.064928003 0.17155001 0.22618
0.063495003 0.17271 0.22721
0.063248001 0.17457999 0.22684
0.083596997 0.18481 0.21367
0.10383 0.12387 0.26997
0.10449 0.12503 0.26999
0.087529004 0.05108 0.24833
0.087750003 0.052854002 0.24875
0.089585997 0.050822001 0.24905001
0.11097 0.095702 0.25597
0.10953 0.096479997 0.25442001
0.11006 0.097119004 0.25523999
0.099587999 0.1125 0.26036
0.076136999 0.10388 0.23113
0.075150996 0.10401 0.22977
0.090774 0.096280001 0.25303999
0.091594003 0.096917003 0.25271001
0.092414998 0.097622998 0.25365001
0.086326003 0.098659001 0.24016
0.072157003 0.069613002 0.24869999
0.081055999 0.12106 0.23776001
0.080655001 0.12266 0.23861
0.081685998 0.12218 0.23885
0.075676002 0.078612998 0.24806
0.087359004 0.12685999 0.24778
0.087082997 0.12636 0.24878
0.077172004 0.16121 0.23006999
0.028534001 0.059406001 0.26388001
0.028624 0.059966002 0.26414001
0.064034 0.17140999 0.22687
0.063532002 0.17104 0.22724
0.064266004 0.17343 0.22859
0.06301 0.17309 0.2286
0.10412 0.051692002 0.27787
0.12756 0.095546 0.31353
0.12925 0.093688004 0.31268001
0.12854999 0.093847997 0.31151
0.076465003 0.054901998 0.24688999
0.076425001 0.054368 0.24572
0.076871999 0.055397999 0.24512
0.099661998 0.10632 0.25707
0.078089997 0.095946997 0.23434
0.079111002 0.095757 0.23453
0.078005999 0.095090002 0.23544
0.094351999 0.18651 0.26315999
0.10078 0.10843 0.25931001
0.10086 0.11064 0.25997999
0.082005002 0.12104 0.23831999
0.076282002 0.10261 0.23037
0.075424999 0.10219 0.23044001
0.10344 0.19657999 0.26923001
0.10158 0.19874001 0.26864001
0.092972003 0.10831 0.24972001
0.093318 0.10741 0.25095999
0.092536002 0.10659 0.25023001
0.041095998 0.069289997 0.27179
0.062991001 0.17262 0.22821
0.064450003 0.17524 0.22942001
0.030454 0.095432997 0.24056999
0.028693 0.096795999 0.23916
0.070580997 0.15254 0.24905001
0.10856 0.051213998 0.27553001
0.10879 0.049858 0.27429
0.11006 0.051793002 0.27327999
0.041930001 0.069637001 0.27063999
0.12651999 0.069098003 0.30939001
0.031037999 0.063954003 0.26802999
0.028732 0.063005 0.26712999
0.028658001 0.061957002 0.26671001
0.099610999 0.17124 0.21374001
0.099863 0.17253999 0.21421
0.068048999 0.14464 0.23523
0.060952 0.17201 0.22894999
0.11125 0.090484001 0.25628
0.11179 0.088 0.25775
0.062079001 0.15441 0.23036
0.031392999 0.055165999 0.25852001
0.032761 0.057308 0.25906
0.032032002 0.055252999 0.25813001
0.031479001 0.057498001 0.25902
0.030468 0.054065 0.25918001
0.032166999 0.05455 0.25731
0.034134999 0.056623001 0.25885999
0.032823 0.053346999 0.25718001
0.033243999 0.051938999 0.2579
0.031824999 0.053382002 0.25687999
0.10998 0.088164002 0.25707999
0.11037 0.089753002 0.25643
0.11139 0.089734003 0.25744
0.027075 0.053022999 0.26216
0.026957 0.055137999 0.26355001
0.027702 0.055932 0.26429
0.028712001 0.05706 0.26378
0.060272001 0.17372 0.23105
0.080656998 0.13016 0.24264
0.079547003 0.12917 0.24084
0.098269999 0.18815 0.26563001
0.056791998 0.14534 0.22418
0.070160002 0.1101 0.22683001
0.11154 0.13627 0.32010999
0.097499996 0.059289001 0.25141999
0.099702001 0.059276 0.25128001
0.059457999 0.17353 0.23194
0.058525998 0.17186999 0.23073
0.058710001 0.17017999 0.23015
0.062592998 0.17504001 0.23043001
0.098242 0.18955 0.26488
0.11066 0.053681999 0.27199
0.091407001 0.093515001 0.25468001
0.032692 0.064340003 0.26947999
0.10911 0.17704 0.21239001
0.11253 0.086984999 0.25764
0.10986 0.085340001 0.25852001
0.11051 0.087223001 0.25740001
0.11096 0.084881 0.25933
0.11289 0.19391 0.21093
0.11375 0.19193 0.21080001
0.11187 0.1182 0.28103
0.034685999 0.056995999 0.25751001
0.035964001 0.056814 0.25608
0.034961 0.054467998 0.25593001
0.033096999 0.055741999 0.25747001
0.034591001 0.054604001 0.257
0.032527 0.053977001 0.25617
0.034249999 0.052638002 0.25600001
0.036026999 0.051812999 0.25490999
0.033672001 0.052382998 0.25665
0.11311 0.099243 0.25786
0.11188 0.098975003 0.25608999
0.069514997 0.14796001 0.23865999
0.072934002 0.055746 0.24326
0.090951003 0.097211003 0.25216001
0.091054998 0.097705998 0.25047001
0.091182999 0.098499 0.25169
0.086374 0.082010001 0.25475001
0.091177002 0.18465 0.26078001
0.091734998 0.19147 0.20976
0.095908001 0.095242001 0.25782999
0.069712996 0.095308997 0.22849
0.070069999 0.095963001 0.22920001
0.069720998 0.13478 0.2376
0.069526002 0.13559 0.23818
0.070202 0.1363 0.23779
0.083369002 0.065637998 0.25691
0.082671002 0.066316999 0.25588
0.076199003 0.092781998 0.23345999
0.056053001 0.14596 0.22382
0.11514 0.10476 0.25955001
0.11461 0.10612 0.26098999
0.11541 0.10517 0.25995001
0.056079 0.13485 0.22582
0.099578001 0.10814 0.25863999
0.07999 0.10671 0.23503999
0.078382 0.10698 0.23404001
0.078938 0.10742 0.23479
0.11111 0.12635 0.28213
0.11096 0.12523 0.28117999
0.10968 0.12662999 0.28051999
0.1124 0.19016001 0.21041
0.056554001 0.054108001 0.23763999
0.057976 0.053752001 0.23710001
0.054063 0.085207 0.23428001
0.055271 0.085766003 0.23395
0.026307 0.15973 0.23339
0.025595 0.16098 0.23452
0.026363 0.16191 0.23291001
0.056317002 0.056942999 0.23815
0.086884998 0.082796998 0.25431001
0.087058 0.084214002 0.25564
0.057702001 0.057178002 0.23762
0.059091002 0.058201 0.23815
0.064571001 0.17691 0.23062
0.10671 0.17485 0.21180999
0.10736 0.17347001 0.21278
0.096865997 0.12248 0.25994
0.074770004 0.1092 0.23097999
0.074871004 0.10894 0.23126
0.054478999 0.14052001 0.22367001
0.093704998 0.19362999 0.26543999
0.11091 0.083848998 0.25992
0.11197 0.083490998 0.25845
0.11135 0.083435997 0.26008999
0.055125002 0.054614 0.23781
0.056001 0.053954002 0.23734
0.055879999 0.055346001 0.23785
0.056448001 0.056988001 0.23852
0.12852 0.076504 0.30702999
0.12781 0.077634998 0.30680999
0.076385997 0.12059 0.23411
0.084744997 0.065513998 0.25757
0.084876001 0.067892998 0.25881001
0.068880998 0.14986999 0.23683
0.11048 0.091813996 0.25571999
0.10942 0.093102001 0.25580001
0.080412999 0.12411 0.23841
0.080907002 0.12394 0.23813
0.087468997 0.12356 0.24838001
0.12535 0.11254 0.30875999
0.12466 0.11454 0.30768999
0.12491 0.11393 0.30768999
0.034653999 0.065168001 0.26791
0.087573998 0.066252001 0.26086
0.11341 0.18953 0.21085
0.1124 0.17712 0.21427
0.10288 0.11453 0.26438999
0.084448002 0.068530999 0.25882
0.053780001 0.0548 0.23818
0.055420998 0.053936001 0.23825
0.054827999 0.051222 0.23786999
0.054827999 0.056325 0.23873
0.055640999 0.056873001 0.24011999
0.057103999 0.059308998 0.24011
0.079700999 0.10345 0.23424
0.078980997 0.10402 0.23345
0.080109999 0.10473 0.23386
0.057176001 0.14308 0.22471
0.070029996 0.13473 0.23834001
0.083970003 0.070269004 0.25861999
0.036341 0.055764999 0.25556999
0.12498 0.11506 0.30649999
0.12433 0.11272 0.30761001
0.035875 0.05376 0.25521001
0.037236001 0.053073 0.25501001
0.10998 0.052453998 0.27311999
0.036394 0.052749 0.2559
0.089726001 0.10995 0.24597
0.090372004 0.10954 0.24699999
0.090512998 0.10758 0.24696
0.10307 0.060749002 0.25481999
0.056414001 0.15344 0.22667
0.055569999 0.15329 0.22669999
0.055103999 0.15451001 0.22664
0.084848002 0.071180001 0.25852999
0.030734999 0.057698 0.25957
0.11177 0.12475 0.28389999
0.11257 0.12546 0.28479999
0.10596 0.056887001 0.25718001
0.060844999 0.056582 0.23773
0.061221998 0.057604998 0.23859
0.062955 0.057663999 0.23842999
0.092526004 0.11564 0.25159001
0.092471004 0.11757 0.25235
0.093856998 0.1167 0.25378001
0.10589 0.056527998 0.25658
0.051943999 0.054834001 0.24022999
0.051996998 0.053578001 0.23932
0.052946001 0.056350999 0.23926
0.053185001 0.056970999 0.24026
0.065477997 0.11597 0.22669999
0.087453 0.069307998 0.26508999
0.062928997 0.093937002 0.2278
0.064103998 0.095592998 0.22779
0.084783003 0.073297001 0.25863001
0.1167 0.12769 0.29778999
0.10628 0.060323998 0.26107001
0.070110001 0.14932001 0.23954999
0.070427001 0.10844 0.22703999
0.11549 0.1182 0.28985
0.12781 0.077744998 0.30761001
0.090645 0.077574 0.26258999
0.090570003 0.079331003 0.2626
0.051231001 0.053144 0.23993
0.051546998 0.055209 0.24026
0.052276 0.055941999 0.23989999
0.052699 0.057259001 0.24064
0.053709 0.058495998 0.24163
0.029595001 0.12174 0.23859
0.099867001 0.12308 0.26244
0.091665998 0.053323999 0.24854
0.085072003 0.077362999 0.25819001
0.085042998 0.079375997 0.25703001
0.085070997 0.076003999 0.25713
0.083504997 0.078201003 0.25483999
0.083920002 0.078561001 0.25468999
0.084863 0.078699 0.25593001
0.087399997 0.10223 0.24406999
0.088402003 0.10253 0.24355
0.088719003 0.10142 0.24387001
0.054990001 0.060573999 0.24163
0.054779999 0.13314 0.22570001
0.053047001 0.12976 0.22682001
0.086129002 0.080603004 0.25779
0.040734999 0.054877002 0.25415999
0.040539 0.053052999 0.25483999
0.051058002 0.054882001 0.2411
0.052113999 0.056774002 0.24118
0.052524 0.058019001 0.24163
0.053918 0.05968 0.24214999
0.087697998 0.081725001 0.25657001
0.088049002 0.083291002 0.25731
0.069044001 0.14723 0.23692
0.12721001 0.081850998 0.30813
0.10548 0.070715003 0.26262999
0.051222 0.051057 0.24151
0.052276 0.051144 0.24026
0.0286 0.056944001 0.26164001
0.088205002 0.084238999 0.25593999
0.037241001 0.050960001 0.25588
0.088524997 0.086492002 0.25582001
0.030552 0.051798999 0.25957999
0.029527999 0.054101001 0.25951999
0.089524999 0.087952003 0.25512001
0.050740998 0.054177999 0.24207
0.050747 0.055204 0.24198
0.051879 0.055976 0.24192999
0.05263 0.057776999 0.24270999
0.053713001 0.058864001 0.24286
0.088825002 0.12545 0.25128001
0.088053003 0.12552001 0.24936
0.088087 0.12722 0.25088999
0.090231001 0.088785999 0.25499001
0.030237 0.10645 0.23469
0.029374 0.11432 0.23519
0.029820001 0.11325 0.23459999
0.029903 0.11673 0.23458
0.061505001 0.12132 0.22696
0.034931999 0.12971 0.22792999
0.035246 0.059176002 0.25917
0.074532002 0.096758001 0.23043001
0.028976001 0.057796001 0.26045001
0.088863 0.090460002 0.25538999
0.026804 0.16399001 0.23343
0.050055999 0.05367 0.24292
0.050260998 0.055291001 0.24291
0.051695 0.056772999 0.24359
0.051498 0.057948999 0.24357
0.052322999 0.059000999 0.24363001
0.030182 0.058552999 0.26155001
0.029274 0.11692 0.23564
0.048661999 0.052698001 0.24347
0.049608 0.05198 0.24465001
0.050476 0.053516999 0.24473
0.035395999 0.091807999 0.23947001
0.036281999 0.093175001 0.23825
0.026307 0.16265 0.23464
0.025813 0.16285001 0.23270001
0.026399 0.15962 0.23292001
0.049733002 0.053303 0.24412
0.050962999 0.054877002 0.24409001
0.051837999 0.057544999 0.24476001
0.051509 0.057517 0.24498001
0.052740999 0.059248999 0.24484
0.062544003 0.092641003 0.22793999
0.063219003 0.091300003 0.22921
0.061760001 0.090935998 0.22881
0.066184998 0.1201 0.22824
0.029177001 0.11795 0.23749
0.091434002 0.095953003 0.25432
0.079618998 0.10506 0.23341
0.024565 0.1608 0.2342
0.025025999 0.16231 0.2353
0.083741002 0.17048 0.26565999
0.058533002 0.17312001 0.23221
0.050625999 0.054717001 0.24522001
0.051206 0.056035001 0.24482
0.052358001 0.057379998 0.24539
0.052434999 0.059852 0.24573
0.099313997 0.16827001 0.21353
0.093930997 0.10411 0.25235999
0.10529 0.14115 0.31676
0.083677001 0.068911001 0.25799
0.025369 0.16249 0.2367
0.024925999 0.16399001 0.23514
0.081611998 0.18374 0.21545
0.048882999 0.054536998 0.2456
0.049027 0.053592999 0.24616
0.050522 0.056111 0.24634001
0.050914001 0.058001999 0.24604
0.052645002 0.059537001 0.24654
0.083195999 0.18757001 0.21768001
0.027036 0.060453001 0.26725999
0.094204001 0.10576 0.25246
0.11173 0.088100001 0.25755
0.094485 0.10731 0.25139999
0.090919003 0.1831 0.26199001
0.091412 0.18506999 0.26244
0.095477998 0.10833 0.25343999
0.025695 0.16351999 0.23699
0.025449 0.1653 0.23706
0.04902 0.054848999 0.24651
0.048388001 0.053847 0.24647
0.050549001 0.057023998 0.24653
0.051068 0.057565 0.24731
0.051281001 0.059563 0.24748001
0.092864998 0.050900001 0.24837001
0.063348003 0.092551999 0.22845
0.091555998 0.18681 0.26227999
0.091491997 0.18790001 0.26238
0.029425001 0.12339 0.23952
0.033569999 0.052175 0.25703001
0.074904002 0.077481002 0.24789
0.075975001 0.076784998 0.24804001
0.10726 0.053941 0.26216
0.10709 0.052772 0.26280999
0.10736 0.052621 0.26218
0.1171 0.060414001 0.33557001
0.094469003 0.10951 0.25266999
0.024132 0.1657 0.23813
0.023535 0.16405 0.23810001
0.048634 0.055108 0.2472
0.049144 0.056212001 0.24789
0.049826998 0.057939999 0.248
0.051093999 0.059385002 0.24872001
0.056189999 0.06318 0.24942
0.11943 0.1187 0.29776999
0.12041 0.11648 0.29795
0.11134 0.19164 0.21017
0.11055 0.19182999 0.21048
0.058290001 0.064893 0.25237
0.058862999 0.067032002 0.25323999
0.063580997 0.089979999 0.2299
0.064388998 0.088788003 0.23201001
0.063791998 0.087734997 0.23057
0.093873002 0.11154 0.25286999
0.027735 0.12131 0.24092001
0.028906001 0.12158 0.23981
0.028155001 0.1204 0.24009
0.094686002 0.11318 0.25178999
0.11964 0.076033004 0.33250999
0.11959 0.075464003 0.33212
0.1187 0.076205999 0.33228999
0.050569002 0.058336999 0.24889
0.051591001 0.059877999 0.24895
0.071542002 0.089229003 0.23451
0.11152 0.19355001 0.21010999
0.081256002 0.18373001 0.21594
0.068214998 0.14079 0.2349
0.067116998 0.14095999 0.23494001
0.068828002 0.14238 0.23703
0.040001001 0.052437998 0.25573999
0.11583 0.12633 0.29578999
0.11621 0.12909 0.29593
0.11633 0.12812001 0.29606
0.096671999 0.1822 0.26798001
0.028312 0.096671999 0.24166
0.028380999 0.098632999 0.23984
0.028179999 0.097098999 0.24054
0.10088 0.20336001 0.27134001
0.10019 0.20390999 0.27309999
0.057218 0.060693 0.24144
0.056253999 0.059586 0.2412
0.034984998 0.096518002 0.23571
0.092784002 0.11908 0.25272
0.070363 0.15343 0.24702001
0.050949998 0.059317999 0.25055
0.052349001 0.060320001 0.25075001
0.051344998 0.0601 0.24972001
0.053396001 0.062488001 0.25097001
0.056024998 0.063040003 0.25206
0.058118001 0.063918002 0.25167
0.092629999 0.11928 0.25332999
0.069597997 0.050020002 0.23947001
0.12834001 0.097713001 0.30893001
0.12882 0.096331999 0.30921
0.12825 0.098550998 0.30910999
0.069688 0.051265001 0.2387
0.094232999 0.12537 0.25885999
0.075098 0.11704 0.2326
0.12392 0.10615 0.27542999
0.12234 0.10643 0.27447
0.068980999 0.15837 0.24058001
0.069297999 0.15685999 0.24076
0.12441 0.11218 0.3039
0.12446 0.11343 0.30434
0.06955 0.14579 0.23720001
0.064489 0.14934 0.23243
0.088923998 0.065264001 0.25788999
0.090907 0.063789003 0.25606999
0.067557998 0.076683 0.24694
0.091968 0.12084 0.2534
0.092348002 0.12326 0.25356001
0.021508999 0.16169 0.23847
0.021526 0.16113 0.23889001
0.020509999 0.16122 0.23996
0.051959999 0.060336001 0.25082999
0.053638998 0.062047999 0.25204
0.057767998 0.065139003 0.25317001
0.057707001 0.065237001 0.25196001
0.058752 0.068163 0.25461
0.11312 0.18295 0.21164
0.10681 0.051461998 0.26100999
0.10695 0.052226 0.26179999
0.12755001 0.10536 0.28953999
0.12791 0.10555 0.29025999
0.067818999 0.11731 0.22667
0.054928999 0.14834 0.22531
0.10253 0.054575998 0.25274
0.1029 0.056885 0.25314
0.12098 0.10825 0.27199
0.1216 0.10639 0.27140999
0.064090997 0.058371998 0.23907
0.062866002 0.059133001 0.23939
0.074368 0.1147 0.23145001
0.091798998 0.10026 0.25240001
0.066496 0.094861999 0.22840001
0.065756999 0.094949 0.22741
0.066766001 0.096197002 0.22772001
0.11311 0.12291 0.28547999
0.11261 0.12435 0.28569999
0.069463 0.15346999 0.24209
0.090299003 0.095527001 0.25134
0.090859003 0.095886998 0.25283
0.12783 0.10273 0.30496001
0.12921999 0.10128 0.30401
0.12744001 0.10357 0.30379999
0.081859998 0.18348999 0.21511
0.019784 0.16052 0.24173
0.020098001 0.16083001 0.23936
0.020137999 0.15900999 0.23953
0.11726 0.11886 0.29484001
0.05776 0.065987997 0.25437999
0.056804001 0.064182997 0.25325
0.058603998 0.066505998 0.25455999
0.066991001 0.078562997 0.24473
0.065426998 0.07841 0.24446
0.065462001 0.078625999 0.2441
0.068439998 0.053121001 0.2383
0.10703 0.050999001 0.25953001
0.10594 0.050960999 0.25876001
0.10601 0.050857998 0.25795001
0.066551 0.11638 0.22736
0.065238997 0.11636 0.22618
0.1245 0.10529 0.27816001
0.12491 0.10625 0.27860999
0.12478 0.10423 0.27992001
0.12838 0.097401999 0.31095999
0.12782 0.098723002 0.31173
0.1106 0.12047 0.27827001
0.11042 0.12133 0.27772999
0.092367999 0.11694 0.25138
0.091761999 0.11609 0.25042
0.092207998 0.11856 0.25055999
0.069342002 0.10566 0.22665
0.070326999 0.10787 0.22694001
0.018875999 0.16108 0.24085
0.018882001 0.15862 0.24124999
0.018423 0.16028 0.24154
0.018921999 0.15933 0.24089999
0.019602001 0.16116001 0.24196
0.089303002 0.063060999 0.25497001
0.060834002 0.093782 0.22758
0.062022999 0.094944999 0.22746
0.062839001 0.094765998 0.22691
0.12408 0.10869 0.28523999
0.12569 0.10768 0.28543001
0.082781002 0.097981997 0.23772
0.083118998 0.09945 0.23771
0.082767002 0.097832002 0.23863
0.10147 0.10654 0.25841001
0.075612999 0.12668 0.23650999
0.064696997 0.057831001 0.23887999
0.064365998 0.056933001 0.23848
0.069741003 0.1374 0.23808999
0.070326999 0.13951001 0.23848
0.10502 0.19721 0.26938
0.10459 0.19887 0.26958001
0.10582 0.19675 0.26905
0.11134 0.096584998 0.25542
0.1117 0.098623998 0.25622001
0.10242 0.050629001 0.25169
0.11566 0.052069001 0.29635
0.017623 0.16063 0.24214999
0.016837999 0.15888 0.24293999
0.054127 0.061425 0.25497001
0.055174999 0.062693 0.25497001
0.055326998 0.062771 0.25477999
0.052848 0.061556 0.25464001
0.058187 0.072146997 0.25652999
0.069766998 0.15538 0.24504
0.070042998 0.155 0.24437
0.070257001 0.15591 0.24350999
0.073367998 0.089377999 0.23429
0.052859999 0.13254 0.22516
0.089415997 0.12077 0.24854
0.089138001 0.12202 0.24806
0.089032002 0.11243 0.24618
0.070468001 0.13802999 0.23902
0.075545996 0.076103002 0.24889
0.074367002 0.075667001 0.24795
0.075923003 0.065986998 0.25013
0.10526 0.11612 0.26804999
0.10382 0.11668 0.26789001
0.10426 0.11805 0.26683
0.055512 0.062831998 0.25646001
0.056518 0.063798003 0.25672999
0.11183 0.13124999 0.28957
0.11159 0.13207 0.28981
0.091321997 0.12733001 0.2552
0.087536998 0.065402001 0.2599
0.078446001 0.10767 0.23352
0.097433001 0.123 0.26056999
0.12894 0.099940002 0.30792999
0.12825 0.098986 0.30930001
0.12879001 0.098860003 0.30772999
0.085061997 0.079542004 0.25670001
0.088567004 0.10656 0.24389
0.086816996 0.10997 0.24271999
0.087226003 0.10971 0.24329001
0.10512 0.050900999 0.27035999
0.081944004 0.13162 0.24546
0.081220001 0.13106 0.2448
0.080628999 0.13328999 0.24433
0.055038001 0.063164003 0.25760001
0.055987999 0.063382 0.257
0.057046 0.065433003 0.25672001
0.054354999 0.14211001 0.2227
0.052553002 0.14226 0.22292
0.079475001 0.10949 0.23407
0.067681998 0.15862 0.24956
0.067631997 0.15965 0.24845999
0.070657 0.14838 0.24714001
0.071930997 0.1479 0.24789
0.071034998 0.14778 0.24545
0.071589001 0.13773 0.24169999
0.073115997 0.13598999 0.24104001
0.071309 0.13756 0.24132
0.089947999 0.090149999 0.25319001
0.090269998 0.092886999 0.25226
0.1107 0.099953003 0.25579
0.11644 0.12191 0.29189
0.11642 0.12048 0.29144001
0.11568 0.12283 0.29211
0.088757999 0.19389001 0.2638
0.12709001 0.070566997 0.30645999
0.070927002 0.15279 0.24440999
0.082633004 0.10056 0.23638999
0.084555998 0.10102 0.23762999
0.083527997 0.098867998 0.23796
0.087544002 0.12215 0.2475
0.086865999 0.12351 0.24693
0.095136002 0.092203997 0.25856
0.094764002 0.093840003 0.25758001
0.085777 0.10815 0.23862
0.086368002 0.10864 0.23974
0.080978997 0.12503999 0.23964
0.070262 0.15493999 0.24521001
0.070220999 0.15561 0.24696
0.11097 0.18359999 0.21109
0.11079 0.18325 0.21160001
0.11501 0.18460999 0.21261001
0.10824 0.13059001 0.28531
0.10969 0.12898999 0.28402001
0.10864 0.13022999 0.28321999
0.11794 0.12909 0.30715999
0.11825 0.12835 0.30755001
0.10938 0.12803 0.28233001
0.10891 0.12783 0.28121001
0.1147 0.18895 0.21236999
0.11634 0.18886 0.21193001
0.097282998 0.14544 0.29326001
0.097466998 0.14472 0.29376
0.098076001 0.14407 0.29218
0.10422 0.13101999 0.28088
0.10496 0.13212 0.28180999
0.10414 0.13236 0.28088
0.11559 0.11535 0.27799001
0.11652 0.11458 0.27849001
0.11663 0.11471 0.27684
0.083966002 0.13854 0.26622999
0.084994003 0.13809 0.26578
0.1102 0.13887 0.29822999
0.11076 0.13880999 0.29883999
0.11059 0.13738 0.29835001
0.10202 0.13393 0.27921
0.10188 0.13463999 0.27811
0.10028 0.13510001 0.27860999
0.10645 0.13961001 0.29558
0.1074 0.13845 0.29603001
0.1064 0.13889 0.29479
0.10942 0.12925 0.28275001
0.10813 0.13111 0.28362
0.10891 0.12902001 0.28138
0.10915 0.12891001 0.28169
0.096349999 0.14465 0.29337001
0.11435 0.11631 0.27858999
0.1146 0.11446 0.27754
0.11014 0.055126 0.26905
0.11385 0.11554 0.27755001
0.12042 0.084489003 0.34937999
0.099496 0.14613 0.30213001
0.10569 0.05861 0.25775999
0.10066 0.14546999 0.30660999
0.10015 0.14573 0.30541
0.11144 0.13654999 0.29694
0.11112 0.13664 0.29668999
0.096502997 0.12407 0.2608
0.095376998 0.12542 0.26155001
0.1111 0.13754 0.29802999
0.10097 0.13417999 0.28002
0.095770001 0.19994999 0.26910999
0.11073 0.11892 0.27884001
0.11157 0.12575001 0.28151
0.11323 0.11658 0.27897999
0.10791 0.12947001 0.28055
0.11944 0.087127 0.34731001
0.11983 0.086369 0.34889001
0.11941 0.085421003 0.34652999
0.053709999 0.14811 0.22432999
0.12027 0.085823998 0.34762001
0.12014 0.11409 0.28988001
0.12721001 0.10027 0.30998999
0.12781 0.10023 0.31149
0.12845001 0.098784998 0.30983001
0.10235 0.14396 0.30623999
0.1014 0.14495 0.30504
0.10012 0.14582001 0.30164
0.1031 0.14465 0.30585
0.103 0.14433999 0.30528
0.11792 0.11592 0.29161
0.11829 0.11525 0.29181999
0.10489 0.14349 0.30500001
0.10407 0.14348 0.30464
0.093974002 0.13048001 0.26323
0.094555996 0.12772 0.26328
0.094198003 0.12988 0.26354
0.12471 0.11681 0.30912
0.12355 0.11705 0.31040001
0.12418 0.11584 0.30956
0.10639 0.068513997 0.26334
0.11143 0.18520001 0.21198
0.11136 0.18561 0.21157999
0.11115 0.18905 0.211
0.11641 0.19188 0.21250001
0.1158 0.19216 0.21326999
0.080906004 0.1416 0.26617
0.081767999 0.14102 0.26692
0.081231996 0.14221001 0.26497999
0.11303 0.11553 0.27372
0.11349 0.11515 0.27487001
0.11345 0.13391 0.31795001
0.11403 0.13353001 0.31716999
0.11226 0.13451 0.31696001
0.11928 0.11448 0.28988999
0.10485 0.14277001 0.30464
0.10536 0.14372 0.30432001
0.045586001 0.070252001 0.26620001
0.10694 0.14133 0.30504
0.10569 0.14211001 0.30265
0.10592 0.13345 0.28625
0.10597 0.13499001 0.28635001
0.106 0.13783 0.29345
0.10658 0.13821 0.29347
0.10614 0.13648 0.29189
0.11025 0.18437 0.21218
0.11203 0.18352 0.2114
0.11042 0.18596999 0.21175
0.11001 0.18787 0.21149001
0.10915 0.18832 0.21071
0.10948 0.1903 0.21099
0.11114 0.19076 0.21089
0.10926 0.19167 0.21062
0.072218001 0.057631001 0.24323
0.071781002 0.059108999 0.24350999
0.072074004 0.059459001 0.24482
0.10847 0.19268 0.21032
0.10808 0.19467001 0.20883
0.10837 0.19655 0.20872
0.11004 0.19625001 0.2086
0.12699001 0.10732 0.31134999
0.10897 0.19704001 0.20809001
0.11684 0.11646 0.29233
0.10823 0.14198001 0.30417001
0.055218 0.14631 0.22363
0.054522 0.14516 0.22355001
0.10845 0.17991 0.2115
0.10866 0.17891 0.21187
0.10868 0.182 0.21161
0.10912 0.18413 0.21189
0.10934 0.18494 0.21191999
0.10862 0.18593 0.21239001
0.10869 0.18776 0.21089999
0.10807 0.18960001 0.21072
0.1085 0.19113 0.21097
0.1085 0.19258 0.20995
0.10793 0.19303 0.20995
0.10758 0.19497 0.20826
0.10684 0.19652 0.20804
0.1069 0.19754 0.20802
0.10821 0.13937999 0.30393001
0.10901 0.17797001 0.21142
0.092914 0.1277 0.25854
0.10779 0.17969 0.21152
0.10812 0.17749999 0.21214999
0.10754 0.18039 0.21216001
0.1084 0.18165 0.21225999
0.10877 0.18322 0.2123
0.10729 0.18489 0.21187
0.10739 0.18628 0.21201999
0.10772 0.18799999 0.21195
0.10769 0.18934999 0.21082
0.10691 0.19032 0.21085
0.10659 0.19193 0.21037
0.10719 0.19367 0.20889001
0.1058 0.19499999 0.2085
0.1055 0.19509999 0.20769
0.10527 0.071292996 0.26190999
0.10571 0.072696 0.26109999
0.1076 0.071546003 0.26146999
0.10557 0.14132001 0.31600001
0.1069 0.17764001 0.21273001
0.10749 0.17568 0.21145999
0.10618 0.17528 0.21187
0.10672 0.17918 0.21149001
0.10668 0.17986 0.21161
0.10709 0.18212 0.21217
0.10726 0.18367 0.21209
0.10752 0.1846 0.21242
0.10676 0.18633001 0.21171001
0.10659 0.18751 0.211
0.10607 0.18980999 0.21191999
0.10554 0.19047 0.21048
0.1063 0.19159 0.20931999
0.10516 0.19356 0.20895
0.10411 0.19475999 0.20664001
0.1095 0.13921 0.30237001
0.089111999 0.13417 0.26218
0.090617001 0.13265 0.26210999
0.090115003 0.13293999 0.2615
0.10475 0.17648999 0.21238001
0.10546 0.17839999 0.212
0.1056 0.17917 0.21229
0.10611 0.18025 0.21288
0.10608 0.18239 0.21219
0.10571 0.18416999 0.21213999
0.1061 0.18503 0.21197
0.1056 0.18722001 0.2124
0.10592 0.18729 0.21135999
0.10482 0.18911999 0.21126001
0.1042 0.19013 0.21035001
0.10393 0.19227 0.20922001
0.10369 0.19330999 0.20779
0.10335 0.1945 0.20657
0.11092 0.13889 0.30217999
0.10503 0.17326 0.213
0.10556 0.17497 0.21189
0.071893997 0.14219999 0.24631999
0.10442 0.17645 0.21256
0.10515 0.17834 0.21218
0.10537 0.17897999 0.21211
0.10503 0.18039 0.21328001
0.10431 0.18295 0.21257
0.10402 0.18314999 0.21228001
0.10366 0.18492 0.21214999
0.10529 0.18628 0.21178
0.10371 0.18752 0.21191999
0.10352 0.18844 0.21032999
0.1031 0.1911 0.21043
0.10252 0.19226 0.20986
0.10155 0.19406 0.20688
0.10162 0.19468001 0.20637999
0.10338 0.17214 0.21292999
0.1036 0.17354 0.21296
0.10295 0.17454 0.21235999
0.10381 0.17640001 0.21258
0.10345 0.17786001 0.21302
0.10352 0.1785 0.2124
0.1032 0.18043 0.21244
0.10393 0.18169001 0.21283001
0.10356 0.18431 0.21272001
0.10389 0.1841 0.21172
0.10333 0.18632001 0.21153
0.10197 0.18708 0.21117
0.10261 0.18964 0.20983
0.10168 0.19039001 0.20936
0.10087 0.19175 0.20838
0.10021 0.19317 0.20592
0.099845998 0.19520999 0.20553
0.10236 0.17263 0.21202999
0.102 0.17377999 0.21292
0.1026 0.17478 0.21256
0.10341 0.17676 0.21344
0.10273 0.17805 0.21303999
0.1026 0.17859 0.21334
0.10203 0.18019 0.21312
0.10156 0.18237001 0.2123
0.10291 0.18365 0.21241
0.10216 0.18465 0.21213
0.10267 0.18683 0.21182001
0.10195 0.18771 0.21253
0.10097 0.18855999 0.21042
0.10038 0.19024999 0.2097
0.099545002 0.19203 0.20774999
0.10228 0.17388999 0.21359999
0.10126 0.17535999 0.21318001
0.10197 0.17662001 0.21318001
0.10154 0.17821001 0.21338999
0.1019 0.17925 0.21303999
0.1013 0.18051 0.21266
0.10185 0.18272001 0.21299
0.10109 0.18313 0.21233
0.10047 0.18568 0.21155
0.10004 0.18667001 0.21247
0.10107 0.18790001 0.21052
0.1004 0.18872 0.21070001
0.098961003 0.19099 0.20901
0.097948 0.19202 0.20705999
0.11138 0.13792001 0.3019
0.11142 0.13831 0.30160001
0.085568003 0.13713001 0.26504999
0.085988 0.13699 0.26291001
0.10064 0.17335001 0.21326999
0.10129 0.17154001 0.21279
0.10044 0.17203 0.21270999
0.1002 0.17544 0.21311
0.099861003 0.17621 0.2139
0.10078 0.17794999 0.21379
0.10069 0.17963 0.21362001
0.099799998 0.18096 0.2132
0.10052 0.18099 0.21336
0.10017 0.18365 0.21337
0.099414997 0.18437999 0.21251
0.10023 0.18648 0.21218
0.099480003 0.18790001 0.21156
0.099023998 0.18880001 0.20987
0.098287001 0.19066 0.2076
0.12387 0.11666 0.30188999
0.12228 0.11787 0.30291
0.123 0.11936 0.30311
0.12435 0.10805 0.28031
0.12462 0.10629 0.27919
0.085711002 0.13829 0.26361999
0.099968001 0.17385 0.21386001
0.099972002 0.17494 0.21349999
0.10035 0.17670999 0.21359
0.099895999 0.17702 0.21382
0.099273004 0.17896 0.21357
0.10016 0.18097 0.21374001
0.099388003 0.18324 0.21345
0.098552004 0.18241 0.21303
0.099439003 0.18467 0.21292999
0.098794997 0.18581 0.21191999
0.098416001 0.18758 0.21092001
0.097569004 0.18957999 0.20897999
0.095810004 0.19073001 0.20732
0.062066998 0.1216 0.22747
0.061696 0.12355 0.22764
0.11558 0.12864999 0.3263
0.11595 0.12875 0.32521001
0.11506 0.12983 0.32633001
0.098949999 0.17259 0.21398
0.098719999 0.17134 0.21308
0.098716997 0.17385 0.21404999
0.099582002 0.17465 0.21385001
0.099428996 0.17703 0.21428999
0.097519003 0.17799 0.21438999
0.099090002 0.17896 0.21488
0.099191003 0.18045001 0.21446
0.097958997 0.18209 0.21371
0.099039003 0.18387 0.21340001
0.098278999 0.18567 0.21201
0.098002002 0.18648 0.2114
0.097193003 0.18815 0.21131
0.096322 0.18914001 0.20847
0.094737001 0.1909 0.20782
0.10953 0.19994999 0.27171999
0.11001 0.20040999 0.27098
0.10974 0.19892 0.27107999
0.090648003 0.066791996 0.26233
0.097841002 0.17126 0.21408001
0.099931002 0.17003 0.21304999
0.098265 0.17229 0.21354
0.098426998 0.17406 0.21437
0.097900003 0.17580999 0.21494
0.097696997 0.17612 0.21489
0.097534001 0.17779 0.21464001
0.098022997 0.17986 0.2149
0.097484 0.18106 0.21408001
0.097347997 0.18204001 0.21335
0.097704999 0.18341 0.21333
0.096986003 0.18472999 0.21277
0.096306004 0.18632001 0.21123999
0.095224999 0.18796 0.21055
0.094065003 0.18939 0.20804
0.063236997 0.17096999 0.22767
0.094810002 0.090714 0.25821999
0.084330998 0.063770004 0.25514001
0.091936998 0.19822 0.26881
0.089102998 0.18848 0.21008
0.090081997 0.18776 0.20874
0.089663997 0.18764 0.20954999
0.096298002 0.17135 0.2141
0.096749 0.16889 0.21439999
0.096450001 0.17257001 0.21359
0.096685 0.17421 0.21517999
0.097585 0.17521 0.21416
0.096134 0.17657 0.21479
0.096872002 0.178 0.21473999
0.095990002 0.17966001 0.21469
0.097037002 0.18118 0.21431001
0.096274003 0.18165 0.21363001
0.096628003 0.18336999 0.21353
0.095775999 0.18464001 0.21216001
0.095450997 0.186 0.21134
0.094654001 0.18793 0.20943999
0.12275 0.11848 0.30396
0.096262999 0.17194 0.21377
0.095527999 0.16919 0.21379
0.096236996 0.17237 0.21477
0.094938003 0.17387 0.21471
0.095807999 0.17549001 0.21573
0.095761001 0.17642 0.21494
0.095827997 0.17799 0.21495999
0.096031003 0.1785 0.21430001
0.095661998 0.18084 0.21456
0.095559999 0.18132 0.21425
0.094356999 0.18369 0.21354
0.094970003 0.18471999 0.21307001
0.093448997 0.18666001 0.21070001
0.092257999 0.18787999 0.20852
0.056644998 0.15626 0.22672001
0.093149997 0.16921 0.21525
0.092913002 0.16931 0.21639
0.093965001 0.17125 0.21529
0.093855001 0.17158 0.21622001
0.095239997 0.17211001 0.21566001
0.094535001 0.17331 0.21552999
0.095385998 0.17521 0.21533
0.094246 0.17625 0.21495999
0.094593003 0.17817 0.21506999
0.094599001 0.17945001 0.21496999
0.094309002 0.18100999 0.21362001
0.094825998 0.18258999 0.21491
0.094136998 0.18297 0.21433
0.093116 0.18572 0.21267
0.091939002 0.18628 0.21005
0.091796003 0.18809 0.20965999
0.076688997 0.14368001 0.26350999
0.019060999 0.15918 0.24090999
0.10689 0.071093 0.26284
0.069500998 0.13547 0.23603
0.093696997 0.17157 0.21543001
0.093517996 0.17359 0.21504
0.094475999 0.17421 0.21527
0.093405001 0.17637999 0.21588001
0.094117999 0.17735 0.21521001
0.092802003 0.17882 0.21516
0.093309999 0.18110999 0.21494
0.093273997 0.18224999 0.21385001
0.093212001 0.18352 0.21374001
0.091021001 0.18472999 0.21179999
0.090047002 0.18595999 0.20935
0.037781999 0.058669999 0.25677001
0.092537999 0.17043 0.21535
0.093703002 0.17199001 0.21630999
0.093280002 0.17394 0.21593
0.092422999 0.17553 0.21616
0.092702001 0.17658 0.2165
0.093053997 0.17697001 0.21593
0.093239002 0.17872 0.21545
0.092427 0.18035001 0.21523
0.091862001 0.18126 0.21461
0.091640003 0.18368 0.21277
0.089073002 0.18516 0.211
0.088528 0.18672 0.20969
0.091790996 0.17149 0.21647
0.091296002 0.17196999 0.21629
0.091316 0.17303 0.21633001
0.091903999 0.17488 0.21709
0.092508003 0.17644 0.21653999
0.091851003 0.17792 0.21644001
0.091605999 0.17907999 0.21603
0.091503002 0.18019 0.21569
0.090962999 0.18209 0.21475001
0.089648001 0.18329 0.21304999
0.088624999 0.18465 0.21088
0.088555001 0.18601 0.21002001
0.04171 0.064415999 0.26525
0.11326 0.13675 0.30160999
0.11117 0.13741 0.30012
0.11165 0.1339 0.29714999
0.11393 0.13257 0.29561999
0.1117 0.13372 0.29600999
0.10836 0.13951001 0.29716
0.10848 0.13807 0.29697001
0.10869 0.13868999 0.29699999
0.10795 0.13923 0.29684001
0.10589 0.14238 0.30785
0.10698 0.14103 0.30722001
0.12764999 0.10645 0.31318
0.1274 0.10621 0.31279999
0.12693 0.10719 0.31198999
0.11635 0.13066 0.31786999
0.11739 0.12967999 0.31665
0.11544 0.13160001 0.31538001
0.098797001 0.14429 0.29534999
0.098674998 0.064277999 0.25848001
0.099441998 0.065329 0.25977001
0.099173002 0.064476997 0.25760001
0.10134 0.13776 0.28475001
0.10291 0.13754 0.28415999
0.10147 0.13706 0.28235
0.096988 0.14097001 0.28593001
0.097730003 0.14105999 0.28492999
0.02138 0.13707 0.23386
0.032474998 0.10597 0.23209
0.032226 0.10743 0.23261
0.089538999 0.18753 0.21122999
0.091670997 0.16998 0.21679001
0.091178 0.17104 0.21716
0.090767004 0.17217 0.21646
0.090865999 0.17428 0.21652
0.091053002 0.17475 0.21713001
0.090736002 0.17622 0.2166
0.090899996 0.17811 0.21586999
0.090921998 0.17926 0.21594
0.090749003 0.1811 0.2157
0.089924999 0.18234999 0.21401
0.088477001 0.18378 0.21162
0.087600999 0.18486001 0.21132
0.11314 0.13583 0.30134001
0.11308 0.1367 0.30008
0.11375 0.13508999 0.29995
0.1136 0.13486999 0.29927999
0.11381 0.1338 0.30098
0.11316 0.13255 0.29929
0.12576 0.10956 0.28665
0.11437 0.13235 0.29995999
0.11382 0.13246 0.29881999
0.11981 0.12633 0.31382999
0.12029 0.12441 0.31308001
0.11918 0.12589 0.31244001
0.12491 0.11045 0.28714001
0.11173 0.13598999 0.31999999
0.1126 0.13406999 0.3195
0.11225 0.1365 0.31863999
0.12784 0.10241 0.30609
0.12759 0.10441 0.30761001
0.11004 0.056411002 0.26976001
0.10138 0.14324 0.29706001
0.12736 0.10799 0.31259
0.10221 0.14466999 0.29973
0.10237 0.1434 0.29912001
0.066572003 0.060794 0.24232
0.067014001 0.058889002 0.24083
0.065306999 0.060203001 0.24127001
0.10314 0.14361 0.30037999
0.11501 0.13276 0.31426999
0.11578 0.13169999 0.31446999
0.098359004 0.14012 0.28395
0.11883 0.12385 0.30655
0.034463 0.12559 0.23441
0.034384999 0.12407 0.23461001
0.11492 0.11123 0.2676
0.11559 0.11236 0.2692
0.11602 0.11095 0.26727
0.033489 0.12167 0.23344
0.033714 0.12285 0.23511
0.1142 0.12284 0.29133001
0.11462 0.12243 0.29054999
0.11384 0.12303 0.28935
0.053571999 0.061843999 0.2579
0.090421997 0.16775 0.21605
0.089330003 0.16975001 0.21728
0.089174002 0.16993 0.21780001
0.089677997 0.17269 0.21698
0.089993998 0.17336001 0.21702
0.089777 0.17474 0.21719
0.089882001 0.17574 0.21765999
0.090443 0.17767 0.2165
0.088927001 0.18016 0.21593
0.089001998 0.18084 0.21525
0.088046998 0.18208 0.21357
0.086685002 0.18369 0.21152
0.11467 0.13017 0.29872
0.1155 0.13071001 0.29807001
0.088327996 0.13564 0.26499999
0.089429997 0.13544001 0.26403001
0.089100003 0.13484 0.26383001
0.086121999 0.13714001 0.26628
0.088128 0.13722 0.26526999
0.11725 0.11845 0.29282999
0.11904 0.11468 0.28966999
0.1072 0.13631999 0.29146001
0.10815 0.13485 0.29001999
0.10749 0.13529 0.28940001
0.091885 0.14128 0.28222001
0.092099003 0.14173 0.28310999
0.093024001 0.14127 0.28196999
0.11614 0.12977999 0.31603
0.11611 0.13234 0.31503999
0.1059 0.13654999 0.28951001
0.10425 0.13985001 0.29396001
0.1052 0.14021 0.2942
0.10496 0.13912 0.29286
0.095925003 0.12826 0.26547
0.096694998 0.12701 0.26526999
0.095406003 0.12827 0.26396999
0.091900997 0.14665 0.29466999
0.10417 0.14297 0.29855999
0.095224001 0.064989001 0.2595
0.099711001 0.13954 0.28353
0.099896997 0.1388 0.28551
0.10064 0.13766 0.28299001
0.099137999 0.13954 0.28529
0.093282998 0.13087 0.26319
0.092332996 0.13152 0.2617
0.092096001 0.13217001 0.26234001
0.10322 0.12939 0.27482
0.10209 0.13082001 0.27362001
0.10162 0.13075 0.27434999
0.11363 0.12354 0.29260001
0.11337 0.12388 0.29099
0.11652 0.11068 0.26846001
0.11388 0.11277 0.26890999
0.11549 0.11334 0.26883
0.12551001 0.10944 0.29468
0.1259 0.11014 0.29530001
0.12636 0.10923 0.29418999
0.10046 0.14294 0.29300001
0.10058 0.14165001 0.29233
0.10067 0.14204 0.29089001
0.033147 0.10315 0.23273
0.032411002 0.10476 0.23241
0.033332001 0.12034 0.23371001
0.11566 0.11722 0.28639001
0.11395 0.11809 0.28602001
0.11485 0.11688 0.28722
0.089411996 0.16681001 0.21737
0.089163996 0.16786 0.21759
0.088745996 0.16958 0.21690001
0.088395998 0.17165001 0.21754
0.089293003 0.17264 0.21786
0.088514 0.17385 0.21765999
0.089299999 0.17507 0.21694
0.089042 0.17692 0.21739
0.088056996 0.17779 0.21669
0.089305997 0.1798 0.21549
0.088476002 0.18091001 0.21563999
0.086946003 0.18121 0.21337
0.085831001 0.18301 0.21194001
0.11522 0.13026001 0.29910001
0.11557 0.13048001 0.2974
0.11675 0.12865999 0.29817
0.11656 0.12918 0.29771999
0.093745999 0.12857001 0.26165
0.094232 0.12624 0.26039001
0.11764 0.12910999 0.31086001
0.11785 0.12876 0.30924001
0.11563 0.088720001 0.34584001
0.1147 0.088753998 0.34446001
0.10075 0.063302003 0.25771999
0.10195 0.062194999 0.25611001
0.10159 0.062769003 0.25600001
0.1117 0.13637 0.31510001
0.11355 0.13544001 0.31479999
0.1131 0.13627 0.31483001
0.11395 0.13479 0.31433001
0.1147 0.13519999 0.31389001
0.11351 0.13576999 0.31393999
0.12066 0.12292 0.30928999
0.12017 0.1239 0.30882999
0.11937 0.12377 0.30928001
0.10935 0.11879 0.27537
0.11693 0.11355 0.27665001
0.094093002 0.14703999 0.29528999
0.095581003 0.14532 0.29407001
0.094690003 0.14534999 0.29359001
0.10302 0.13407999 0.28196999
0.10194 0.13548 0.28220999
0.12357 0.11764 0.30577001
0.12326 0.11793 0.30623999
0.12375 0.1164 0.30623001
0.10209 0.13608 0.28202
0.092095003 0.13787 0.27603
0.092840001 0.13902 0.27745
0.093492001 0.13739 0.27575999
0.1096 0.098967001 0.25567999
0.1094 0.10018 0.25564
0.11115 0.1014 0.25670001
0.11006 0.1019 0.25532001
0.086621001 0.13819 0.26919001
0.087608002 0.13665 0.26811999
0.086997002 0.13731 0.2667
0.11025 0.10584 0.25729001
0.11156 0.1053 0.25707999
0.11799 0.12766001 0.30245
0.11761 0.12685999 0.30017
0.096023999 0.14215 0.28532001
0.096390001 0.14305 0.28746
0.087857999 0.12715 0.24947999
0.11536 0.1185 0.28816
0.11767 0.12564 0.29923999
0.087848 0.16568001 0.21737
0.088028997 0.16832 0.21697
0.087779 0.16989 0.21766999
0.088912003 0.17076001 0.21795
0.088679001 0.17157 0.21865
0.088381 0.17385 0.21773
0.088317998 0.17516001 0.21789999
0.087149002 0.17671999 0.21717
0.087463997 0.17745 0.21719
0.086869001 0.17964 0.21630999
0.086806998 0.18163 0.21608999
0.086153999 0.18211 0.2123
0.085766003 0.18264 0.21247999
0.032949999 0.060295999 0.26047
0.11575 0.13005 0.29545999
0.11512 0.13090999 0.29611999
0.11432 0.10822 0.26177999
0.088785999 0.13562 0.26492
0.10991 0.1094 0.26129001
0.11067 0.10984 0.26102999
0.11119 0.10804 0.26010999
0.12599 0.10999 0.30511001
0.085610002 0.13804001 0.26693001
0.094737001 0.13075 0.26661
0.095328003 0.13068999 0.26557001
0.094278 0.13146 0.2667
0.10006 0.14466999 0.29843
0.099651001 0.14376 0.29797
0.088647999 0.14429 0.28718999
0.089904003 0.14345001 0.28606999
0.1001 0.13981999 0.28597
0.10147 0.13956 0.28588
0.085969999 0.14443 0.28799999
0.086911999 0.14436001 0.28709999
0.11037 0.087586999 0.25698
0.11025 0.088627003 0.25720999
0.10897 0.090337001 0.25551
0.10979 0.091343001 0.25580999
0.10809 0.091789 0.25505
0.10886 0.093069002 0.25573999
0.10835 0.094842002 0.25475001
0.10826 0.096032999 0.25497001
0.1085 0.097217999 0.25435999
0.10824 0.098123997 0.25566
0.10805 0.10112 0.25547001
0.10858 0.10164 0.25612
0.10885 0.10298 0.25624001
0.10949 0.10516 0.25657001
0.111 0.10614 0.25830999
0.11011 0.10691 0.25744
0.10962 0.13722 0.29714999
0.1094 0.13747001 0.29677999
0.032946002 0.11894 0.23263
0.086822003 0.1652 0.21853
0.087057002 0.16846 0.21752
0.087081999 0.16959 0.2174
0.086548001 0.17027999 0.2182
0.087309003 0.17246 0.21862
0.088090003 0.17281 0.21814001
0.086827002 0.17549001 0.2183
0.087070003 0.17614 0.21761
0.087268002 0.17795999 0.21732
0.086135 0.17889 0.21654999
0.085973002 0.1814 0.21563999
0.084480003 0.18294001 0.21352001
0.084893003 0.18303999 0.21342
0.032476999 0.10151 0.23387
0.11263 0.11721 0.2807
0.11077 0.11874 0.28061
0.1188 0.12768 0.31746
0.11966 0.12615 0.31670001
0.11998 0.12653001 0.31597999
0.12092 0.12448 0.31646001
0.12083 0.1224 0.31588
0.12035 0.12322 0.31479001
0.11594 0.12984 0.29692
0.12462 0.11133 0.31920999
0.097159997 0.14594001 0.29903001
0.096341997 0.14576 0.29927999
0.097386003 0.1454 0.29787999
0.098534003 0.14559001 0.29819
0.10183 0.14399999 0.29778001
0.11023 0.083527997 0.25849
0.10992 0.083206996 0.25843999
0.092793003 0.1436 0.28639001
0.094007 0.14226 0.28571001
0.092644997 0.14284 0.28492001
0.10907 0.083862998 0.25887001
0.10901 0.085345998 0.25819001
0.10859 0.087739997 0.25707
0.10776 0.088761002 0.25690001
0.10797 0.090231001 0.2568
0.10817 0.092003003 0.25549001
0.107 0.092646003 0.25443
0.10813 0.094296001 0.25450999
0.10731 0.095458999 0.25608
0.10681 0.097833 0.25503001
0.10755 0.099030003 0.25522
0.10745 0.10056 0.25516
0.10797 0.1013 0.25575
0.10833 0.10326 0.25624001
0.10844 0.10475 0.25678
0.10937 0.10641 0.25771001
0.11216 0.1069 0.25929001
0.10866 0.10682 0.25795999
0.10931 0.10913 0.25905001
0.1083 0.10861 0.26010999
0.085873999 0.16802 0.21811999
0.085882001 0.16877 0.21843
0.086202003 0.17134 0.21842
0.086161003 0.17304 0.21904001
0.086562999 0.17393 0.21872
0.085845999 0.17549001 0.21890999
0.086848997 0.17673001 0.21809
0.085754 0.17766 0.21793
0.085026003 0.17929 0.21682
0.084071003 0.18051 0.21529999
0.082718 0.18263 0.21317001
0.083460003 0.18376 0.21324
0.12626 0.10809 0.32247999
0.12601 0.10799 0.32132
0.12679 0.10841 0.32063001
0.11371 0.13267 0.29761001
0.11439 0.13267 0.29837
0.11446 0.13195001 0.29677001
0.11485 0.13158 0.29701
0.10276 0.14239 0.29688999
0.1024 0.14287999 0.29604
0.11637 0.1267 0.29734001
0.11637 0.12723 0.29699001
0.12047 0.12585001 0.31472
0.091738001 0.14286999 0.28564
0.12048 0.1139 0.27897
0.11894 0.11373 0.27886999
0.11028 0.079899997 0.25973001
0.11204 0.11502 0.27548
0.1131 0.11512 0.27631
0.10951 0.079010002 0.26001
0.10875 0.079934001 0.25961
0.11075 0.081294999 0.26012
0.10849 0.081242003 0.25959
0.11008 0.080964997 0.26072001
0.10841 0.082966998 0.25904
0.10823 0.083963998 0.25834
0.10741 0.086094998 0.25735
0.10714 0.087064996 0.25668001
0.10769 0.088519 0.25659999
0.10658 0.089737996 0.25560999
0.10675 0.090963997 0.25593001
0.1057 0.092647001 0.25404
0.10582 0.093828999 0.25426999
0.10554 0.096033998 0.25516999
0.10602 0.098036997 0.25510001
0.10609 0.098958001 0.25494
0.10608 0.099564001 0.25545999
0.10596 0.10205 0.25615999
0.10718 0.10304 0.25683001
0.10727 0.10459 0.25676
0.10761 0.1054 0.25734001
0.10813 0.10715 0.25850001
0.032722 0.11763 0.23190001
0.084950998 0.16919 0.2185
0.085382 0.17103 0.21856
0.085391998 0.17265999 0.21927001
0.085867003 0.17397 0.21942
0.084562004 0.17536999 0.21859001
0.085537001 0.17576 0.21775
0.085327998 0.1771 0.21772
0.084330998 0.17975 0.21608
0.082408004 0.18119 0.21427
0.082549997 0.18122999 0.21494
0.082585998 0.18314999 0.21331
0.030340999 0.11046 0.23436999
0.12724 0.10511 0.31606999
0.12473 0.11047 0.30285001
0.11372 0.13406 0.29818001
0.11317 0.13422 0.29736999
0.1129 0.13559 0.29784
0.11866 0.11691 0.29436001
