# .PCD v0.7 - Point Cloud Data file format
VERSION 0.7
FIELDS x y z
SIZE 4 4 4
TYPE F F F
COUNT 1 1 1
WIDTH 1591
HEIGHT 1
VIEWPOINT 0 0 0 1 0 0 0
POINTS 1591
DATA ascii
0.14846 0.054540999 0.078842998
0.14907999 0.054056998 0.078668997
0.15087 0.055105999 0.080638997
0.17075001 0.056184001 0.11174
0.17128 0.055606 0.11171
0.13008 0.056547999 0.050717
0.17089 0.055953 0.10985
0.17024 0.056894999 0.10993
0.17109001 0.055771999 0.1108
0.16955 0.057422999 0.10935
0.16879 0.05807 0.10864
0.16934 0.057402998 0.10736
0.16958 0.057782002 0.10841
0.15324999 0.058373999 0.085606001
0.18382999 0.058417998 0.12953
0.18376 0.057686001 0.12910999
0.16745 0.058417998 0.10627
0.15464 0.058279999 0.086677998
0.15372001 0.058005001 0.085045002
0.154 0.058187 0.086139001
0.184 0.058559 0.12977999
0.15567 0.058582999 0.088202
0.1561 0.059384 0.089290999
0.15695 0.059388001 0.089631997
0.18476 0.059675999 0.13067
0.18461999 0.059955999 0.13119
0.18520001 0.060694002 0.13177
0.16436 0.059803002 0.10142
0.15705 0.059893999 0.091183998
0.16297001 0.060389001 0.098646
0.15932 0.060348 0.094667003
0.16046999 0.06078 0.096663997
0.18595 0.061611999 0.13294999
0.1864 0.062049001 0.13358
0.18658 0.063069001 0.1337
0.18604 0.062256999 0.13399
0.18514 0.064497001 0.13276
0.18414 0.065730996 0.13008
0.18246999 0.066171996 0.12865999
0.18260001 0.066822 0.1279
0.18585999 0.074773997 0.13433
0.18568 0.075755998 0.1322
0.18528 0.075703003 0.13249999
0.18534 0.076490998 0.13147999
0.18301 0.080967002 0.12966999
0.18342 0.081019998 0.12919
0.20308 0.086517997 0.15941
0.20344 0.08619 0.15848
0.20941 0.086714998 0.16881
0.1866 -0.039450001 0.13373999
0.13590001 -0.039827 0.059362002
0.13609 -0.039207999 0.058657002
0.18621001 -0.038901001 0.13338999
0.13517 -0.037016001 0.057673998
0.13496999 -0.036506999 0.057631999
0.13506 -0.035815999 0.058070999
0.13547 -0.032901999 0.058770001
0.13545001 -0.033551 0.058676999
0.18307 -0.032958999 0.12830999
0.18292999 -0.03249 0.12806
0.13579001 -0.031534001 0.058820002
0.18178 -0.030663 0.12669
0.18203001 -0.028928 0.12503
0.18032999 -0.026231 0.12458
0.1789 -0.023125 0.12244
0.17828999 -0.020826001 0.1216
0.17731 -0.01825 0.12005
0.17671999 -0.015871 0.11908
0.17694999 -0.016476 0.11945
0.17652 -0.01379 0.11904
0.17665 -0.014543 0.11892
0.176 -0.011141 0.11795
0.17592999 -0.010389 0.11774
0.17550001 -0.0083758999 0.1169
0.17589 -0.0093762996 0.11737
0.17471001 -0.0079495003 0.1171
0.17515001 -0.0074085998 0.11651
0.14904 -0.0082337996 0.077970996
0.14827999 -0.0076600998 0.078032002
0.14910001 -0.0076250001 0.078005999
0.14868 -0.0075003998 0.077963002
0.14844 -0.0074384999 0.078364998
0.17456999 -0.0065076002 0.11621
0.14873999 -0.0067909998 0.077745996
0.14802 -0.0067803999 0.077918001
0.14811 -0.0062310002 0.077234998
0.17467 -0.0056781 0.11576
0.14805 -0.0049815001 0.076635003
0.14707001 -0.0048774998 0.076812997
0.14691 -0.0036072 0.076435
0.14817999 -0.0037366999 0.077041999
0.14765 -0.0028325999 0.076978996
0.14794999 -0.003275 0.077394001
0.14779 -0.0033821999 0.076580003
0.14815 -0.0027377 0.077462003
0.17371 -0.0022177 0.11483
0.14932001 -0.0026668001 0.079204001
0.14937 -0.0020667 0.079159997
0.14951 -0.0018771 0.079435997
0.149 -0.0029241 0.078455001
0.14854001 -0.0029956 0.077707
0.14961 -0.0013385999 0.079314001
0.15022001 -0.0020297 0.079974003
0.14906999 -0.0012182 0.079097003
0.14984 -0.00024004999 0.078850999
0.14916 -0.00022807 0.078704
0.14929 0.0010121 0.078543998
0.14966001 0.00073872 0.078504004
0.14916 0.0015718 0.078291997
0.14831001 0.0018669 0.077935003
0.19645999 0.0011215 0.14851999
0.19577999 0.0015807 0.14702
0.19532999 0.0016358 0.14656
0.19736999 0.0017598 0.1495
0.14912 0.0024176 0.077820003
0.14845 0.0022102001 0.077708997
0.14881 0.0026538 0.077623002
0.19847 0.0032864001 0.15138
0.17275 0.0033432001 0.11342
0.14865001 0.0033555001 0.077523001
0.17290001 0.0039705001 0.11358
0.14816 0.0036824001 0.077257998
0.19931 0.0042543998 0.15241
0.19904 0.0034808 0.15182
0.19881999 0.0038139001 0.15212999
0.14819001 0.0045139999 0.076692
0.19912 0.0051354002 0.15295
0.17227 0.0060071 0.11265
0.2 0.0057331002 0.15357
0.14753 0.0058325999 0.075916998
0.14797001 0.0050810999 0.076774001
0.14726 0.0062773 0.075938001
0.19936 0.0062127002 0.1533
0.19934 0.0067238002 0.15343
0.14717001 0.0070205 0.075577997
0.19963001 0.0072241002 0.15335
0.17234001 0.0077932002 0.11263
0.17268001 0.0087122004 0.11214
0.17303 0.0090420004 0.11209
0.14656 0.0078231003 0.074974
0.1998 0.0079228999 0.15350001
0.19934 0.0082158996 0.15315001
0.14661001 0.0088596996 0.074285999
0.19904 0.0086789997 0.15311
0.19995999 0.0096653998 0.15334
0.19992 0.010601 0.15342
0.17196999 0.0098898001 0.11208
0.14507 0.011404 0.072956003
0.14566 0.010945 0.073422
0.19984999 0.012632 0.15346999
0.17171 0.012009 0.1116
0.14522 0.013406 0.072153002
0.20018999 0.014643 0.15369
0.20029999 0.013957 0.15401
0.14466 0.013395 0.072134003
0.19973999 0.013099 0.15361001
0.17151999 0.013385 0.11146
0.13128 0.015107 0.052547
0.13163 0.015058 0.052258
0.14426 0.016301 0.070706002
0.14484 0.015707999 0.071052
0.14393 0.015213 0.070988998
0.19947 0.015768999 0.15317
0.13135999 0.015876001 0.052801002
0.1999 0.016068 0.15341
0.19927999 0.016399 0.15324
0.17093 0.016239 0.11071
0.1318 0.016233001 0.051918998
0.19941001 0.017084001 0.15304001
0.17088 0.016596001 0.1106
0.14374 0.017059 0.070602998
0.13194001 0.016252 0.051851999
0.13191999 0.017941 0.052361
0.14354999 0.017901 0.070326
0.19882999 0.018053999 0.15227
0.17044 0.018145001 0.11044
0.17107999 0.017416 0.1103
0.19893999 0.01949 0.15159
0.19884001 0.018588001 0.15188999
0.14358 0.018829999 0.070092998
0.17033 0.019723 0.10966
0.17056 0.018846 0.10987
0.14352 0.019805999 0.070033997
0.13181999 0.02012 0.052719001
0.14303 0.020966001 0.069463
0.14315 0.021459 0.069514997
0.1319 0.021734999 0.053482
0.14294 0.022655999 0.069159999
0.19733 0.023312001 0.14975999
0.19750001 0.022857999 0.14997999
0.13255 0.023317 0.053695999
0.16974001 0.024092 0.10791
0.16971999 0.023492999 0.10819
0.14313 0.023164 0.069282003
0.14264999 0.023288 0.069066003
0.14241999 0.024003001 0.068920001
0.18683 0.024212999 0.13403
0.18618999 0.024992 0.134
0.18610001 0.024496 0.1344
0.14293 0.025653999 0.068708003
0.13316 0.025067 0.054483999
0.16907001 0.025129 0.10762
0.13338 0.026222 0.055068001
0.13965 0.024972999 0.063929997
0.13962001 0.025939999 0.063970998
0.13891 0.02599 0.064553
0.13903999 0.026984001 0.063927002
0.19581001 0.027205 0.14760999
0.13330001 0.02775 0.055640001
0.14252 0.028146001 0.068879999
0.13397001 0.028032999 0.055640001
0.16778 0.028701 0.10576
0.13898 0.028633 0.063298002
0.19575 0.028469 0.14702
0.19608 0.029035 0.14655
0.16746999 0.029827001 0.10521
0.16696 0.030563001 0.10474
0.16765 0.030215001 0.1049
0.14263999 0.029681001 0.069333002
0.13894001 0.028953001 0.062962003
0.18569 0.027989 0.1318
0.18529999 0.029068001 0.13113999
0.18464001 0.030215001 0.1318
0.15719 0.029618001 0.091637
0.18491 0.030508 0.13098
0.13808 0.030466 0.062484
0.19487999 0.031222001 0.14548001
0.19411001 0.031741001 0.14526001
0.18442 0.031442001 0.13042
0.16610999 0.031011 0.104
0.1662 0.031218 0.10358
0.15808 0.031695999 0.091819003
0.13476001 0.031102 0.057640001
0.13522001 0.031415999 0.058189001
0.14300001 0.030407 0.068966001
0.19436 0.032249998 0.14499
0.15820999 0.032423999 0.091900997
0.13507999 0.032016002 0.058649998
0.19403 0.033294 0.14483
0.18404999 0.032405999 0.13011999
0.15810999 0.032527 0.092278004
0.13644999 0.032632999 0.060639001
0.13621999 0.032324001 0.059411999
0.18377 0.033050001 0.13004
0.15884 0.033374999 0.092628002
0.14309999 0.032348 0.069002002
0.16468 0.033185001 0.10157
0.16411 0.033442002 0.1009
0.16302 0.034042001 0.099357001
0.16406 0.033950001 0.10002
0.16256 0.034189999 0.098825999
0.15966 0.034495998 0.094107002
0.1432 0.034139 0.069239996
0.16057 0.033957999 0.095772997
0.15996 0.034074999 0.095136002
0.16196001 0.034724001 0.097314
0.16147 0.034885 0.096307002
0.16259 0.035787001 0.096562997
0.19393 0.035055 0.14429
0.16134 0.034591001 0.096959002
0.12499 0.035548002 0.043219
0.19341999 0.035287 0.1442
0.12579 0.035634 0.044713002
0.12455 0.035629001 0.042551
0.12397 0.035315 0.041664999
0.14314 0.034977999 0.069468997
0.12617999 0.036091 0.045467
0.12594 0.036022 0.044744998
0.12568 0.035890002 0.043799002
0.12372 0.036029 0.041384
0.19325 0.036679 0.14349
0.12654001 0.036437999 0.046153001
0.12645 0.036738999 0.045398001
0.12436 0.036665 0.041770998
0.12423 0.035978999 0.041544002
0.14364 0.036555 0.069609001
0.12718 0.037468001 0.046689998
0.12445 0.037131999 0.042358
0.12514 0.037659999 0.043306001
0.12476 0.036796 0.042541999
0.19345 0.037595998 0.14301001
0.13376001 0.038777001 0.056566998
0.13330001 0.038485002 0.056281999
0.12515 0.038176998 0.043908
0.18207 0.038058002 0.12704
0.18292999 0.036742002 0.12667
0.18241 0.037548002 0.12642001
0.1328 0.038463999 0.055160999
0.12557 0.038463 0.044305999
0.12578 0.037881002 0.044055
0.18169001 0.038244002 0.12710001
0.18167999 0.038986001 0.12612
0.12848 0.039324 0.048689
0.12802 0.038929 0.047623001
0.12727 0.038097002 0.046321999
0.12735 0.038775001 0.046836998
0.12594 0.038715001 0.044488002
0.1814 0.039574001 0.12645
0.13409001 0.039280999 0.056814
0.13427 0.039701 0.056667998
0.13381 0.039425999 0.056042999
0.13321 0.039236002 0.055707
0.12806 0.039476998 0.047853
0.12623 0.0385 0.044805001
0.12611 0.039569002 0.044810999
0.12585001 0.039484002 0.044833001
0.14349 0.039953999 0.070280001
0.13234 0.039223999 0.054283999
0.13213 0.039845001 0.053803999
0.13209 0.039935999 0.053178001
0.13204999 0.04022 0.053032
0.13458 0.040543001 0.057156999
0.1346 0.040394999 0.057539999
0.13139001 0.040020999 0.053084001
0.12963 0.040038001 0.049924999
0.12888999 0.039992999 0.04882
0.12585001 0.040093999 0.044240002
0.18126 0.040654 0.12545
0.18054 0.040236998 0.12626
0.18119 0.039813999 0.12598
0.12519 0.040725999 0.042879
0.14341 0.040371001 0.070609003
0.14353999 0.040968999 0.070513003
0.13499001 0.041065 0.058134001
0.1238 0.041299 0.040690001
0.12324 0.041333001 0.040114
0.12299 0.041556001 0.039165001
0.19239999 0.042598002 0.14196999
0.18076999 0.041267 0.12486
0.18069001 0.041058999 0.12558
0.12248 0.041668002 0.038823999
0.18017 0.042121999 0.1249
0.18104 0.041510001 0.12403
0.12262 0.042358 0.03875
0.17973 0.043016002 0.12389
0.13541 0.043404002 0.058173001
0.1225 0.043086 0.038674999
0.19167 0.043389998 0.14191
0.14487 0.043288 0.071294002
0.17976999 0.043423001 0.12311
0.17933001 0.044103999 0.1232
0.1232 0.044066999 0.039748002
0.12302 0.043871 0.039422002
0.12401 0.044367999 0.040828001
0.12492 0.045357998 0.042167
0.14509 0.046151001 0.072448
0.12582999 0.045756999 0.04391
0.19123 0.046851002 0.141
0.19112 0.046330001 0.14104
0.17795999 0.046475999 0.12156
0.126 0.04685 0.043857999
0.13586999 0.047037002 0.058745001
0.12588 0.047596 0.043589
0.13606 0.047816001 0.058754001
0.17738 0.048085999 0.12048
0.12535 0.048521999 0.043341
0.17713 0.048434999 0.11998
0.17711 0.04857 0.11958
0.19137999 0.048967 0.14064001
0.17642 0.049401999 0.11897
0.17719001 0.048801001 0.11885
0.146 0.048546001 0.074074998
0.12582 0.049355 0.041884001
0.12517001 0.049499001 0.042314
0.14727999 0.050476 0.075364001
0.1472 0.049704 0.075180002
0.13623001 0.049557999 0.059034999
0.19061001 0.050588001 0.14026
0.13510001 0.051672999 0.060612999
0.13610999 0.051091 0.059806
0.13636 0.051235002 0.05934
0.19107001 0.051412001 0.13979
0.13635001 0.051139999 0.059278999
0.13462999 0.051375002 0.056503002
0.13352001 0.050983001 0.055888999
0.17511 0.051135998 0.11743
0.14779 0.051201001 0.076034002
0.13625 0.052097999 0.059397999
0.13375001 0.051192001 0.054970998
0.17513999 0.051426001 0.11672
0.13338999 0.052382 0.054923002
0.12426 0.051433001 0.042135
0.12426 0.052205998 0.041306
0.12429 0.051493 0.041641999
0.17464 0.051837999 0.11651
0.14814 0.052023001 0.076617002
0.14756 0.051970001 0.076434001
0.13595 0.052308999 0.060044002
0.13474 0.052019998 0.057066001
0.17429 0.052469999 0.11518
0.17397 0.052669998 0.11492
0.13494 0.051479001 0.056839
0.17358001 0.053151 0.11414
0.14841001 0.052855 0.077756003
0.14872 0.052164 0.077316001
0.13564999 0.053394001 0.057849001
0.18773 0.054290999 0.13643999
0.18866999 0.053171001 0.1367
0.18824001 0.053975999 0.13705
0.18827 0.053445999 0.13716
0.17315 0.053606998 0.1144
0.17292 0.053792998 0.11407
0.17264999 0.054306 0.11341
0.13651 0.053273998 0.059365001
0.13594 0.053932998 0.059693001
0.13304 0.053461999 0.054409999
0.13279 0.054244999 0.054308001
0.18783 0.054233 0.13517
0.18714 0.054467998 0.13477001
0.13610999 0.054118998 0.058989
0.18724 0.055149 0.13647
0.18649 0.055062 0.13397001
0.17233001 0.054453999 0.11303
0.18865 0.054136999 0.13812
0.18791001 0.054876 0.13732
0.18409 0.055213999 0.13000999
0.15046 0.054694001 0.079660997
0.14991 0.054187 0.078864999
0.13258 0.054825999 0.054000001
0.13251001 0.055139001 0.053440001
0.17207 0.054820001 0.11202
0.17177001 0.055583 0.11209
0.15057001 0.055856001 0.081130996
0.13004 0.055697002 0.050253
0.13005 0.054806001 0.049835
0.13011 0.056311 0.050303001
0.13045 0.056715999 0.050728001
0.13106 0.057269 0.051436
0.13045 0.057229001 0.051185999
0.1533 0.057117999 0.084094003
0.1531 0.057505999 0.084627002
0.13155 0.057433002 0.051902
0.13121 0.057192001 0.052234001
0.16819 0.058177002 0.10705
0.16861001 0.057583999 0.10665
0.15444 0.057971001 0.085932001
0.15515 0.058697 0.087385997
0.18419001 0.059083998 0.13016
0.16675 0.058718 0.10468
0.1663 0.058897 0.10407
0.16486999 0.060052 0.1028
0.16542999 0.059021 0.10317
0.16538 0.059220001 0.10197
0.1647 0.059397001 0.10167
0.16441999 0.059698999 0.10067
0.16395999 0.059916999 0.10094
0.15782 0.059547 0.091225997
0.15738 0.059322 0.090190999
0.16395999 0.059606001 0.10021
0.15954 0.059953999 0.094449997
0.16005 0.060403001 0.095051996
0.1601 0.059769999 0.094664998
0.15998 0.059634998 0.094181001
0.15924001 0.060027 0.093271002
0.16309001 0.060203001 0.099394001
0.16212 0.060458001 0.097911
0.1613 0.060116999 0.096437998
0.18593 0.060830999 0.13209
0.18595 0.061002001 0.1323
0.18561999 0.064170003 0.1339
0.18618 0.064129002 0.13313
0.18574999 0.064383999 0.1323
0.18526 0.064620003 0.13199
0.18358999 0.065993004 0.12921
0.1829 0.066261999 0.12890001
0.18345 0.066342004 0.12862
0.18187 0.067107998 0.12738
0.18177 0.067608997 0.12709001
0.18165 0.0678 0.12673999
0.18129 0.068848997 0.12649
0.18147001 0.069700003 0.12682
0.18260001 0.069587998 0.12706999
0.18205 0.070211999 0.12725
0.18268 0.070566997 0.12771
0.18260001 0.070969 0.12818
0.18520001 0.071742997 0.13150001
0.1855 0.072127998 0.13259
0.18621001 0.072256997 0.13318001
0.18702 0.073344998 0.13428
0.18662 0.073030002 0.13420001
0.18698999 0.074092001 0.13456
0.18685 0.074925996 0.13392
0.18630999 0.075140998 0.13319001
0.186 0.075280003 0.13322
0.18415999 0.076344997 0.1312
0.18414 0.077564999 0.12998
0.18364 0.077577002 0.12961
0.18298 0.077982001 0.12895
0.18321 0.078538001 0.12867001
0.1825 0.078643002 0.12820999
0.18254 0.079605997 0.12778001
0.18229 0.079222001 0.12766001
0.1822 0.079851002 0.12729
0.18200999 0.080416001 0.12741999
0.18478 0.080535002 0.13084
0.18537 0.080762997 0.13176
0.18246 0.080363996 0.12778001
0.1823 0.081070997 0.12825
0.18278 0.080917001 0.1288
0.20454 0.086451001 0.16082001
0.20308 0.086103998 0.15795
0.21146999 0.086319998 0.17057
0.211 0.086934 0.16993
0.208 0.086939998 0.16537
0.20517001 0.086634003 0.1627
0.20993 0.086888999 0.16821
0.20858 0.086930998 0.16709
0.20853999 0.086875997 0.16601001
0.18714 -0.039457999 0.13433
0.18614 -0.037147999 0.13136999
0.13527 -0.035608999 0.057376999
0.13585 -0.032839999 0.058357
0.18077999 -0.028142 0.12517001
0.18077999 -0.027522 0.1247
0.18039 -0.026760001 0.12456
0.18066999 -0.025277 0.12304
0.18002 -0.02362 0.12241
0.17885999 -0.022096001 0.12178
0.17733 -0.017377 0.11947
0.1759 -0.010162 0.11767
0.17662001 -0.0090707 0.11703
0.14836 -0.0058833999 0.077514
0.14806999 -0.0055881999 0.077036999
0.17432 -0.0037609001 0.11535
0.15020999 -0.0048592999 0.079975002
0.15075999 -0.0036271999 0.080665
0.15075 -0.0046867998 0.080242001
0.14993 -0.0040143998 0.079938002
0.14958 -0.0047114999 0.078868002
0.14969 -0.0039547002 0.079141997
0.14904 -0.0038185001 0.078257002
0.14906 -0.0049851998 0.078139998
0.14993 -0.0030008 0.079769999
0.15109999 -0.0030002 0.080293
0.14894 -0.0038775001 0.077639997
0.15016 -0.0011286 0.079478003
0.17386 -0.00043275999 0.11434
0.15005 -0.00055723998 0.079365
0.17349 -0.00076297001 0.1144
0.19761001 0.001244 0.14918
0.19747999 0.0010972 0.14884999
0.19705001 0.00089068001 0.1486
0.19668999 0.0011646 0.14786001
0.17343 0.0015456 0.11374
0.1732 0.0018133 0.11388
0.19776 0.0017214 0.14997999
0.17315 0.0025144999 0.11365
0.17267001 0.0047280001 0.11333
0.17297 0.0047571999 0.11305
0.20009001 0.0053738002 0.15327001
0.14798 0.0069578998 0.075843997
0.14702 0.0078208996 0.075083002
0.20015 0.0088628 0.15334
0.17251 0.0091161001 0.11223
0.14611 0.010548 0.073532999
0.20067 0.011066 0.15349001
0.14587 0.011788 0.073055997
0.17174 0.011077 0.11177
0.14585 0.012342 0.072563998
0.17199001 0.012547 0.11157
0.17303 0.013213 0.11129
0.17291 0.012478 0.1114
0.20047 0.013372 0.15365
0.17084999 0.015253 0.1111
0.13178 0.01427 0.052085999
0.17173 0.015065 0.11106
0.14500999 0.015129 0.071415998
0.19977 0.016997 0.15294001
0.14405 0.019580999 0.069916002
0.14526001 0.019297 0.070133999
0.17013 0.020648999 0.10935
0.19794001 0.022391001 0.15022001
0.17033 0.023386 0.10836
0.17042001 0.022367001 0.10858
0.16948999 0.022843 0.10868
0.19733 0.024088001 0.14929
0.19754 0.024401 0.14915
0.13384999 0.024245 0.05387
0.16906001 0.024371 0.1081
0.19682001 0.02482 0.14868
0.16941001 0.024769001 0.10782
0.14307 0.025719 0.068972997
0.14313 0.025245 0.068834998
0.19768 0.025904 0.14809
0.13352001 0.026899001 0.055284001
0.14425001 0.027678 0.069081001
0.14390001 0.026873 0.069004998
0.1953 0.029681001 0.14643
0.18512 0.029235 0.13143
0.15794 0.030668 0.090839997
0.14282 0.031578999 0.069109999
0.13837001 0.030294999 0.062038999
0.13541999 0.030514 0.057891998
0.15798 0.031408001 0.090939999
0.18443 0.031943001 0.1301
0.16617 0.03266 0.10274
0.16548 0.033192001 0.10226
0.13752 0.031661 0.061136
0.13726 0.031332999 0.060401
0.18487 0.031812001 0.12966999
0.14229999 0.033413999 0.069219999
0.15876999 0.033151999 0.091729999
0.19427 0.034031998 0.14432
0.15908 0.034083001 0.092505999
0.15921 0.034104001 0.093505003
0.16018 0.034834001 0.094102003
0.16051 0.03528 0.094719
0.16226 0.035016999 0.097879
0.19359 0.035705 0.14382
0.12473 0.036045998 0.042553
0.12515999 0.035911001 0.042895
0.18268 0.036212999 0.12812001
0.18277 0.035817999 0.12867001
0.18328001 0.035146002 0.12842
0.1433 0.035875998 0.069826998
0.12582999 0.036913 0.044133
0.12632 0.036832999 0.044769999
0.12504999 0.036770999 0.043143
0.18228 0.037250999 0.12710001
0.18237001 0.036812998 0.12768
0.12649 0.038153999 0.045283999
0.12633 0.037797 0.044851001
0.14523 0.037611999 0.069852002
0.14505 0.037292 0.069798
0.18172 0.038079001 0.12763999
0.12685999 0.038692001 0.045859002
0.12655 0.038772002 0.045421001
0.12734 0.039714001 0.046229001
0.12648 0.039524 0.045148
0.12784 0.03977 0.046815999
0.1336 0.039581999 0.055472001
0.1286 0.039850999 0.048503
0.12868001 0.040096998 0.047796998
0.13386001 0.040428001 0.055734001
0.13352001 0.040670998 0.055131
0.13057999 0.040564999 0.051011
0.13004 0.040663 0.050443999
0.12710001 0.040335 0.045244999
0.12740999 0.040038001 0.045577999
0.12658 0.040690999 0.04442
0.13439 0.040575001 0.057078999
0.13433 0.041402001 0.056398999
0.13291 0.040529002 0.054134998
0.12980001 0.040222 0.049818002
0.12946001 0.040858001 0.048730001
0.14377999 0.040695 0.070418999
0.13474999 0.041156001 0.057556
0.13161001 0.040917002 0.052804999
0.13173001 0.041150998 0.052081998
0.13032 0.041478999 0.050489001
0.13097 0.041161999 0.051382001
0.12426 0.040950999 0.041439999
0.13541 0.042374998 0.057677001
0.13557 0.044117998 0.058060002
0.19233 0.043246001 0.14171
0.19221 0.044240002 0.14163999
0.17942999 0.044029001 0.12265
0.12442 0.044606999 0.040881999
0.1454 0.045246001 0.072411001
0.14456999 0.04524 0.071845002
0.17851 0.046016999 0.12148
0.19185001 0.045837998 0.14099
0.14588 0.045963999 0.072802998
0.17804 0.046944 0.12096
0.19122 0.047750998 0.14093
0.14607 0.047091998 0.073457003
0.17817 0.047518998 0.12044
0.17801 0.047894001 0.11963
0.17769 0.047855999 0.11922
0.19189 0.048551001 0.14082
0.17733 0.048416998 0.11815
0.17626999 0.049857002 0.11826
0.14686 0.049474001 0.074986003
0.19142 0.050533999 0.14042
0.13621999 0.049676001 0.059250001
0.12464 0.050503001 0.042304002
0.17566 0.050675999 0.11729
0.14769 0.050703 0.075856
0.13446 0.050545 0.056001
0.13420001 0.050661001 0.055638
0.12554 0.050818 0.041120999
0.12561999 0.05026 0.041567001
0.12513 0.051403001 0.040920999
0.17443 0.051876001 0.11573
0.1495 0.052724 0.077872999
0.13581 0.052508 0.057525001
0.12977 0.052501 0.049472999
0.12971 0.054177999 0.049564
0.18732999 0.054708 0.13428999
0.17271 0.054099001 0.11297
0.18636 0.054945 0.13291
0.18561 0.054984 0.13234
0.18482 0.055241 0.13063
0.18546 0.054916002 0.13136999
0.18374 0.055689 0.12954
0.18384001 0.055854 0.12909
0.18302 0.056014001 0.12895
0.17174999 0.055103999 0.11141
0.15112001 0.055698998 0.081261002
0.15136001 0.055397 0.081032
0.13124 0.055886999 0.049818002
0.18319 0.056729998 0.12879001
0.1839 0.056807 0.12888999
0.17031001 0.056915 0.109
0.16700999 0.058364 0.10353
0.15647 0.058435 0.087943003
0.15648 0.059021998 0.088652
0.16333 0.060022999 0.099307001
0.15907 0.059723001 0.092634998
0.18662 0.062215 0.13355
0.18658 0.063735001 0.13372999
0.18453 0.065442003 0.13056
0.1825 0.068447001 0.12664001
0.18429001 0.071629003 0.13135999
0.18454 0.071379997 0.13021
0.18707 0.074506 0.13405
0.18635 0.075466 0.13266
0.18493 0.076765001 0.13083
0.18421 0.077174999 0.13012999
0.18366 0.078314997 0.12896
0.18911999 0.079843998 0.13763
0.18900999 0.080018997 0.13671
0.1883 0.079838 0.13684
0.18851 0.080067001 0.13598
0.18788999 0.079912998 0.13652
0.18663999 0.080128998 0.13382
0.18640999 0.08044 0.13324
0.18612 0.080278002 0.13085
0.18381999 0.080830999 0.13073
0.18430001 0.080582 0.12982
0.18312 0.080436997 0.12845001
0.19751 0.082654998 0.14907999
0.19679999 0.082436003 0.1488
0.19724 0.082953997 0.14957
0.21134999 0.086274996 0.17135
0.21145999 0.086153001 0.17209999
0.21265 0.086111002 0.17203
0.21198 0.085897997 0.17275
0.20529 0.085989997 0.15939
0.20535 0.086231001 0.16133
0.20373 0.086119004 0.15895
0.21066999 0.086901002 0.16932
0.20693 0.086675003 0.16374999
0.206 0.086677 0.16236
0.20968001 0.086943001 0.16777
0.18735 -0.039145 0.13326
0.18663999 -0.038465999 0.13229001
0.18533 -0.035686001 0.12976
0.1846 -0.034791 0.12879001
0.13597 -0.034430999 0.056795999
0.18404 -0.033741001 0.1283
0.18386 -0.032974001 0.12773
0.18129 -0.027593 0.12421
0.18115 -0.026968 0.124
0.18099 -0.026319999 0.12403
0.17947 -0.02311 0.12191
0.17888001 -0.020207001 0.12078
0.1786 -0.018965 0.1202
0.17782 -0.016518001 0.11903
0.17731 -0.015944 0.11903
0.17742001 -0.015845001 0.11857
0.17735 -0.013536 0.11833
0.17708001 -0.013091 0.11826
0.17704999 -0.012185 0.11796
0.17646 -0.0083028004 0.11685
0.14929999 -0.0065970998 0.077872001
0.17536999 -0.0063216002 0.1156
0.14937 -0.0056858002 0.078083999
0.15026 -0.0057123001 0.079568997
0.15003 -0.0058013001 0.078870997
0.15143 -0.0047582001 0.080959998
0.15093 -0.0054615 0.080344997
0.14864001 -0.0049592 0.077445999
0.15149 -0.0041709999 0.080889001
0.17527001 -0.0030193999 0.11491
0.1508 -0.002298 0.079856999
0.17399 -0.00096114998 0.11472
0.17472 -0.00034852 0.11412
0.17445999 0.00072856998 0.11393
0.19618 0.0011931 0.14723
0.19843 0.0013573 0.14993
0.17422999 0.0018139 0.11358
0.19913 0.0018077 0.15035
0.19957 0.0027203001 0.15142
0.19948 0.0036406 0.15233999
0.149 0.0040222001 0.07728
0.20006 0.0047224001 0.15266
0.1494 0.0053241001 0.076912999
0.14809 0.0056751999 0.076481998
0.20073 0.0063634999 0.15367
0.20067 0.0070166001 0.15404999
0.14827 0.0077196001 0.075378001
0.14835 0.0072507001 0.075668
0.20074999 0.0078311004 0.15384001
0.14725 0.0085500004 0.074933
0.1733 0.0097482 0.11189
0.1728 0.0099111004 0.11208
0.14685 0.0097665004 0.074029997
0.14698 0.011509 0.073233001
0.20105 0.011578 0.15392999
0.20044 0.011855 0.15380999
0.20088001 0.012223 0.15379
0.20094 0.012597 0.15403999
0.13206001 0.013367 0.051376
0.14544 0.014117 0.072081
0.13199 0.012461 0.051415998
0.20063999 0.014793 0.15345
0.14545999 0.016096 0.071191996
0.14593001 0.01495 0.072094999
0.20087001 0.017286999 0.1525
0.17185999 0.017705999 0.1104
0.14503001 0.017965 0.070606999
0.19968 0.019780001 0.15119
0.17158 0.019440001 0.10991
0.17192 0.018932 0.10991
0.17056 0.020479999 0.10945
0.17055 0.021104001 0.10929
0.14371 0.020616001 0.069408
0.13275 0.020592 0.051959999
0.19807 0.021330999 0.15039
0.19865 0.021056 0.15054999
0.17058 0.021873999 0.10893
0.13312 0.022387 0.052942999
0.14394 0.022449 0.069458
0.17009 0.023899 0.10818
0.14387999 0.024192 0.069022
0.14322001 0.024552001 0.069054998
0.18661 0.025057999 0.13294999
0.14053001 0.025008 0.063322999
0.14396 0.025943 0.068870001
0.19755 0.026301 0.14774001
0.19690999 0.026985999 0.14751001
0.13428999 0.026899001 0.055075001
0.13942 0.027517 0.063513003
0.1397 0.027213 0.062662996
0.13483 0.027834 0.055582002
0.13505 0.027178001 0.055234998
0.18532 0.029579001 0.13045999
0.13902 0.028715 0.061912
0.13524 0.029812999 0.057239
0.13591 0.028624 0.056782
0.18505999 0.029734001 0.13079999
0.16884001 0.029818 0.10568
0.16981 0.030277999 0.10545
0.16985001 0.029650999 0.10591
0.13857 0.029474 0.061044
0.13575999 0.029801 0.057420999
0.19563 0.030545 0.14567
0.13795 0.030855 0.061037
0.13616 0.031028001 0.058377001
0.18505999 0.030691 0.12958001
0.167 0.031477001 0.10385
0.16714001 0.031203 0.10415
0.1673 0.0319 0.10371
0.13772 0.030649999 0.059858002
0.13737001 0.030455001 0.058940001
0.19547001 0.031767 0.14534999
0.15829 0.032331001 0.090970002
0.19456001 0.033177 0.14456999
0.18456 0.032189 0.12904
0.18413 0.033282001 0.12886
0.16553 0.033945002 0.10138
0.16474999 0.034295999 0.10065
0.14369 0.033704001 0.069260001
0.14381 0.034148 0.069110997
0.16459 0.035250999 0.099864997
0.16366 0.035296999 0.099021003
0.15968999 0.034931999 0.093381003
0.16191 0.035889 0.096004002
0.16129 0.035418 0.095242001
0.18340001 0.035356998 0.12759
0.1437 0.036102001 0.069637999
0.14365999 0.035200998 0.069512002
0.18316001 0.035955001 0.12711
0.14444 0.036502 0.069893003
0.14439 0.038724001 0.069923997
0.19295999 0.040525999 0.14229
0.19346 0.039790001 0.14245
0.12815 0.040564999 0.04654
0.12785999 0.041414 0.045639001
0.14454 0.041085001 0.070542999
0.14515001 0.040578999 0.070467003
0.13383999 0.041311 0.054807
0.1288 0.040973 0.047377001
0.12843999 0.040785 0.047001
0.13434 0.041747998 0.055693999
0.13299 0.041568998 0.053959001
0.12959 0.041186001 0.048870001
0.12863 0.041108001 0.046698
0.12752999 0.041404001 0.044751
0.12679 0.041246999 0.044002
0.12645 0.041133001 0.043662
0.12504999 0.041228 0.042125002
0.13062 0.041517999 0.049704
0.13512 0.042587001 0.057300001
0.13459 0.042512 0.056623999
0.13447 0.042472001 0.055675
0.13544001 0.043191999 0.057335
0.14559001 0.043391999 0.071516
0.12302 0.043453999 0.038911
0.12386 0.043581001 0.039832
0.12439 0.044041999 0.040553
0.17993 0.043940999 0.12178
0.17961 0.044362001 0.12147
0.13528 0.043990001 0.056901
0.13594 0.044930998 0.057220999
0.1929 0.044829998 0.14133
0.19254 0.045862999 0.14123
0.17933001 0.044787001 0.12102
0.14587 0.044948999 0.072025999
0.14541 0.044546001 0.071874999
0.13586999 0.045235001 0.057890002
0.14606 0.045107 0.072623998
0.13573 0.045903999 0.058086
0.12559 0.045292001 0.042863999
0.17899001 0.045589998 0.12116
0.1921 0.046803001 0.14084999
0.192 0.047630999 0.1408
0.12659 0.046 0.044144999
0.12642001 0.046539001 0.044165999
0.14697 0.046730999 0.073214002
0.14685 0.048046 0.073991001
0.1926 0.048930001 0.14064001
0.12640999 0.048634999 0.042592
0.17665 0.049415 0.11725
0.13637 0.050269 0.058819
0.14787 0.049318001 0.075112998
0.17614 0.050478999 0.11711
0.17592999 0.050949 0.11614
0.13686 0.052349001 0.058327999
0.13666999 0.052322999 0.058862001
0.1367 0.051396001 0.058302
0.14825 0.051536001 0.076199003
0.13414 0.051936999 0.054191999
0.19046 0.052069001 0.13908
0.19077 0.052149002 0.13931
0.17441 0.052051 0.11484
0.18849 0.053164002 0.13596
0.18941 0.052669998 0.13600001
0.12415 0.053240001 0.040755998
0.12419 0.052549999 0.040913999
0.1883 0.053736001 0.13536
0.1886 0.054134 0.13466001
0.17344999 0.053449001 0.11335
0.13625 0.053472999 0.058637001
0.15108 0.054228 0.079384997
0.15030999 0.054483 0.079232998
0.13365 0.054076001 0.053447999
0.13355 0.054804999 0.052862
0.18706 0.055346001 0.13276
0.18607999 0.055257998 0.13158
0.17125 0.055380002 0.11042
0.15238 0.056072999 0.082399003
0.1529 0.055757999 0.082318
0.17013 0.056418002 0.10785
0.17037 0.056495 0.10843
0.15471999 0.056784999 0.084484003
0.15487 0.05737 0.085436001
0.15408 0.056306999 0.083825
0.16823 0.057992 0.10611
0.15613 0.057551999 0.086282
0.15548 0.057604998 0.086267002
0.15479 0.058095999 0.086237997
0.18508001 0.057665002 0.12958001
0.16726001 0.058469001 0.10519
0.16616 0.058968998 0.10287
0.16663 0.058267001 0.10284
0.16626 0.058579002 0.10194
0.15864 0.059328001 0.090685003
0.15875 0.058913 0.090337999
0.15793 0.058697999 0.089661002
0.15710001 0.059027001 0.089229003
0.16468 0.059018001 0.099389002
0.16316999 0.059912 0.098154999
0.15978999 0.059154 0.092079997
0.16353001 0.059358999 0.098190002
0.16325 0.059558 0.097318001
0.16264001 0.059737001 0.096721999
0.16202 0.059992 0.096832
0.18692 0.061259001 0.13254
0.18747 0.062313002 0.13332
0.18582 0.064640999 0.13195001
0.18546 0.065618999 0.13021
0.18540999 0.065229997 0.13054
0.18358999 0.067061998 0.12758
0.18392999 0.066799 0.12814
0.18456 0.070292003 0.12871
0.18399 0.070344001 0.12817
0.18318 0.070827 0.12838
0.18482 0.071326002 0.12946001
0.18536 0.071354002 0.13012999
0.1873 0.072116002 0.13266
0.18765 0.072489999 0.13333
0.18810999 0.073094003 0.13422
0.18798999 0.079993002 0.13559
0.1885 0.079833999 0.13483
0.18743999 0.080218002 0.13449
0.18805 0.079979002 0.13420001
0.18393999 0.080430001 0.12907
0.21318001 0.085729003 0.17308
0.21411 0.085863002 0.17219999
0.20296 0.085334003 0.15673999
0.20254 0.085483 0.15667
0.20682 0.086188003 0.16281
0.20428 0.086373001 0.15919
0.20412999 0.086277001 0.15903001
0.21185 0.086626999 0.16967
0.21126001 0.086580999 0.16859999
0.20751999 0.086721003 0.16432001
0.2087 0.086620003 0.16453999
0.13671 -0.039434001 0.058256999
0.13697 -0.039845999 0.058584999
0.13639 -0.039023001 0.057831001
0.13613001 -0.038410001 0.057082001
0.18675999 -0.037909001 0.13185
0.13596 -0.037416 0.056850001
0.13564999 -0.036766998 0.056701999
0.18551999 -0.036437999 0.1303
0.13601001 -0.035723001 0.056688
0.18377 -0.032513 0.12763999
0.18317001 -0.031284999 0.12661
0.18333 -0.032026 0.12739
0.13638 -0.031849999 0.058086
0.13631999 -0.031215999 0.058853999
0.18268999 -0.030725 0.12596001
0.18234 -0.029649001 0.12530001
0.18228 -0.030114001 0.12561999
0.18015 -0.024967 0.12258
0.18009999 -0.024247 0.12237
0.17877001 -0.019378001 0.12025
0.17845 -0.018323001 0.11969
0.17801 -0.017052 0.1193
0.17769 -0.015668999 0.11867
0.17794 -0.014601 0.11841
0.17698 -0.011462 0.11778
0.1769 -0.010189 0.11732
0.14943001 -0.0090394001 0.078307003
0.14999001 -0.0084696999 0.077915996
0.17597 -0.0075846999 0.11616
0.14991 -0.0074103 0.077889003
0.15255 -0.0065531 0.081735998
0.15252 -0.0074569001 0.081514999
0.15177 -0.0076103001 0.080963999
0.15264 -0.0083387997 0.081528001
0.17566 -0.0066565 0.11593
0.15181001 -0.0065950002 0.081049003
0.15117 -0.0068763001 0.080045998
0.1514 -0.0076354998 0.080179997
0.14982 -0.0066470001 0.078009002
0.17553 -0.0054996 0.11552
0.15151 -0.0063028 0.080935001
0.15112001 -0.0063280999 0.080704004
0.15044001 -0.0068859998 0.078588001
0.15198 -0.0057513998 0.081309997
0.15265 -0.0055387001 0.081597999
0.1515 -0.0058084 0.080712996
0.15104 -0.0067036999 0.079290003
0.15038 -0.006079 0.079099
0.17518 -0.0047176001 0.11521
0.15181001 -0.0048286999 0.081130996
0.17485 -0.0040389998 0.11517
0.15186 -0.0037199 0.080637999
0.15152 -0.0032422999 0.080640003
0.15238 -0.0029307001 0.080481999
0.15139 -0.0019606999 0.080185004
0.17513999 -0.0023181001 0.11483
0.15091 -0.0011325 0.079549
0.1752 -0.00099873997 0.11425
0.15108 2.0891001e-05 0.079406001
0.15018 0.00048116001 0.078769997
0.19788 0.00080069999 0.14854001
0.19729 0.00077506999 0.14781
0.19660001 0.00072648999 0.14663
0.19871999 0.0010393 0.14929999
0.15051 0.0015495 0.078546003
0.19918001 0.0021601 0.15085
0.14999001 0.0020325 0.078097999
0.1737 0.0037612 0.11329
0.19986001 0.0034767999 0.15209
0.17377999 0.0023570999 0.11379
0.17433999 0.0033110001 0.11335
0.1498 0.0032814001 0.077889003
0.20066001 0.0043906998 0.15290999
0.17388 0.0051615001 0.11276
0.14949 0.0044709002 0.077271998
0.1486 0.0052574002 0.076920003
0.20059 0.0052625001 0.15329
0.20137 0.0050714002 0.15346999
0.14892 0.0062139002 0.076304004
0.20096999 0.0059838998 0.15385
0.20164999 0.0069388002 0.15428001
0.20147 0.0061043999 0.15398
0.17377999 0.0068411999 0.11247
0.14844 0.0077844998 0.075594001
0.20153999 0.0081938999 0.15425
0.20108999 0.0088333003 0.15399
0.20162 0.0090062004 0.15428001
0.14805 0.0088416999 0.074913003
0.20119999 0.0096383998 0.15406001
0.20079 0.0090907998 0.15377
0.1473 0.0093123 0.074428
0.14737 0.0097765001 0.074212998
0.20116 0.010457 0.15370999
0.17313001 0.01057 0.11192
0.14803 0.011872 0.073527999
0.14766 0.010772 0.074087001
0.14709 0.010906 0.073454998
0.17305 0.01174 0.11165
0.20175 0.0117 0.15415999
0.14629 0.012514 0.072589003
0.14628001 0.011986 0.073145002
0.20127 0.013472 0.15402
0.14636999 0.013328 0.072397999
0.14579999 0.013604 0.072140999
0.20096999 0.014009 0.15387
0.14584 0.014461 0.071958996
0.13191 0.014244 0.051453002
0.20125 0.015311 0.15341
0.17188001 0.014308 0.11116
0.13214 0.015204 0.051447999
0.17257001 0.015342 0.11093
0.20116 0.016449001 0.15312
0.17230999 0.015869001 0.11046
0.14477 0.016974 0.070620999
0.17168 0.016987 0.11031
0.1594 0.01694 0.093601003
0.15989999 0.017161001 0.092584997
0.15914001 0.017976999 0.093445003
0.20018999 0.017976999 0.1522
0.15986 0.018671 0.091650002
0.15911999 0.018948 0.092657
0.13248 0.018554 0.051614001
0.13253 0.01991 0.051961001
0.15895 0.019742001 0.092502996
0.1593 0.019545 0.091752999
0.17129999 0.019880001 0.10968
0.13269 0.019615 0.051814999
0.1716 0.020812999 0.10964
0.15948001 0.019769 0.091220997
0.15904 0.02073 0.091381997
0.14447001 0.020637 0.069725998
0.19901 0.021312 0.15035
0.19907001 0.020563001 0.15071
0.14444 0.021428 0.069535002
0.17149 0.021438999 0.109
0.19859999 0.021736 0.15029
0.17084 0.022366 0.1088
0.13270999 0.021648999 0.052499998
0.19896001 0.022786001 0.14961
0.19858 0.02304 0.14945
0.14414001 0.023637 0.069200002
0.19848999 0.02352 0.14938
0.19788 0.024168 0.14876001
0.18716 0.023581 0.13395
0.18728 0.023492999 0.13379
0.13358 0.023637 0.053488001
0.13355 0.022950999 0.053117
0.18739 0.024067 0.13349999
0.18724 0.024115 0.13286
0.17023 0.025180999 0.10799
0.14027999 0.024246 0.063473001
0.13945 0.023589 0.064291
0.13361999 0.024824001 0.053996
0.19780999 0.025157999 0.1485
0.16960999 0.026188999 0.10719
0.13384999 0.025198 0.054400999
0.13454001 0.025851 0.054561
0.16956 0.026915001 0.10699
0.14015999 0.025994999 0.062960997
0.16929001 0.027372001 0.10663
0.16924 0.027882 0.10634
0.13954 0.027758 0.063028
0.13973001 0.027849 0.062158
0.13525 0.028031999 0.055755999
0.18606 0.027759001 0.13113999
0.13524 0.028357999 0.055992998
0.18551999 0.02891 0.13034999
0.1859 0.028727001 0.131
0.16881 0.029082 0.10584
0.13926999 0.028564001 0.061296001
0.13551 0.029314 0.057080001
0.19603001 0.029724 0.1462
0.13632999 0.029416 0.057511002
0.18504 0.030323001 0.13019
0.16814999 0.030499 0.10497
0.14432999 0.029369 0.069315001
0.13818 0.030331001 0.060626999
0.13677999 0.030401999 0.058591001
0.1366 0.031148 0.059248
0.19689 0.030838 0.14555
0.19498 0.032735001 0.14483
0.18449999 0.032079998 0.12936001
0.18393999 0.033622 0.12909
0.15843 0.032582998 0.090484001
0.14478999 0.032820001 0.068882003
0.14427 0.031688001 0.068933003
0.14427 0.032786001 0.068995997
0.19489001 0.033468999 0.14467999
0.15892 0.033487 0.091225997
0.16626 0.033890001 0.10181
0.16625001 0.033645999 0.10243
0.16680001 0.033519998 0.10228
0.19464999 0.034354001 0.14431
0.19543999 0.034423999 0.14451
0.16512001 0.035117 0.10024
0.16434 0.034708999 0.10008
0.15976 0.035202 0.092041999
0.1443 0.034150999 0.069403
0.1446 0.035119001 0.069443002
0.14452 0.036114998 0.069482997
0.19433001 0.035277002 0.14416
0.18378 0.034759998 0.12796
0.16383 0.035431001 0.099028997
0.16335 0.035537001 0.098128997
0.16062 0.035546001 0.094270997
0.19468001 0.036017001 0.14386
0.18409 0.034832999 0.12682
0.16373 0.036120001 0.097893998
0.16294 0.035948001 0.097487003
0.16144 0.035728 0.094893999
0.16128001 0.036049001 0.094296001
0.16032 0.035383999 0.093713
0.16049001 0.035544001 0.093280002
0.19403 0.036456998 0.14374
0.19407 0.037569001 0.14309999
0.18268 0.038242001 0.12585001
0.19345 0.038741998 0.14275999
0.18217 0.038699999 0.12586001
0.18198 0.038674999 0.12524
0.19341999 0.040787 0.14247
0.18184 0.039641999 0.12443
0.14515001 0.039726999 0.070134997
0.18165 0.040506002 0.12423
0.12601 0.041618999 0.042629
0.12951 0.041696999 0.047779001
0.12906 0.041559 0.047152001
0.12859 0.041545998 0.046455
0.12560999 0.041372001 0.041839
0.12474 0.041545 0.041225001
0.18122 0.041083001 0.12432
0.12971 0.041496001 0.048560001
0.12976 0.041825 0.048055999
0.12461 0.041951001 0.040247999
0.12384 0.041809 0.039958
0.19373 0.041127998 0.14219999
0.193 0.041510999 0.14188001
0.19315 0.042084001 0.14184999
0.13405 0.042514998 0.054527
0.13418999 0.042249002 0.055066001
0.13073 0.042016 0.050206002
0.13099 0.042399 0.050549999
0.13281 0.042311002 0.053073
0.13236 0.043281998 0.051486
0.12336 0.041855 0.038982
0.12345 0.042622998 0.038667001
0.12322 0.042389002 0.038548
0.19306 0.043497 0.14178
0.19363999 0.042640999 0.14207
0.14563 0.042231001 0.071225002
0.13375001 0.042734999 0.054327
0.13067 0.042511001 0.049589001
0.18014 0.043517001 0.12205
0.18075 0.042095002 0.12334
0.1345 0.043492999 0.055849999
0.13434 0.043467999 0.055137001
0.13446 0.044020999 0.055360999
0.13411 0.043354001 0.054714002
0.12336 0.043235999 0.03898
0.18043999 0.042714 0.12266
0.1463 0.042945001 0.071799003
0.13496 0.044101998 0.056341
0.19245 0.044162001 0.14154001
0.14563 0.044045001 0.071684003
0.13483 0.043359 0.056136001
0.12408 0.043136001 0.039563
0.13518 0.044564001 0.056063998
0.12561999 0.044824 0.042146001
0.12513 0.044227 0.041060999
0.13598999 0.045813002 0.057746999
0.1266 0.045058001 0.043241002
0.127 0.045929 0.044169001
0.12606999 0.045023002 0.042477001
0.19322 0.045733999 0.14127
0.17876001 0.04589 0.12045
0.14708 0.045738 0.073048003
0.12715 0.046822999 0.043977998
0.19255 0.047116999 0.14114
0.17824 0.047049999 0.11977
0.13615 0.047091998 0.057677001
0.12661 0.047302999 0.043605
0.13634001 0.047573999 0.057509001
0.12664001 0.047743 0.043069001
0.14759 0.047883 0.073973998
0.14740001 0.048457999 0.074380003
0.13643 0.048023 0.058384001
0.19397999 0.048803002 0.14108001
0.19336 0.049121998 0.1411
0.19272 0.049658999 0.14074001
0.17716999 0.049051002 0.11789
0.14796001 0.048641998 0.074575
0.19188 0.049711 0.14049
0.13657001 0.049589999 0.058320999
0.19213 0.05074 0.14003
0.13527 0.04964 0.056035999
0.13502 0.050097998 0.056430999
0.13446 0.049952 0.055328
0.13462 0.049504999 0.055245001
0.13458 0.050422002 0.054512002
0.13658001 0.050561 0.058166001
0.13661 0.051205002 0.058896001
0.13410001 0.050689999 0.055126
0.19198 0.051056001 0.13993999
0.14892 0.051286001 0.076425999
0.14823 0.050547 0.075930998
0.1358 0.051222 0.056899998
0.13575 0.050554 0.056609999
0.12498 0.052009001 0.040695999
0.19168 0.051706001 0.13963
0.14944001 0.051759999 0.077067003
0.13426 0.051442001 0.054506
0.13023999 0.051993001 0.048896
0.13038 0.051587999 0.048579
0.12959 0.051741999 0.048774
0.19144 0.051989999 0.13906001
0.19102 0.052375998 0.13874
0.13619 0.051987 0.057372998
0.13574 0.051917002 0.057374999
0.13073 0.052299999 0.049105
0.12586001 0.051931001 0.040277001
0.12483 0.052420001 0.040514998
0.19050001 0.052287001 0.13789
0.189 0.052863002 0.13564999
0.18949001 0.052790999 0.13655999
0.15009999 0.052345 0.077872999
0.15025 0.051545002 0.077210002
0.17445 0.05215 0.11356
0.15047 0.053033002 0.078392997
0.15061 0.052347999 0.078334004
0.15073 0.051210001 0.077317998
0.1499 0.052747998 0.078285001
0.13661 0.053068001 0.058417
0.13621999 0.052809998 0.058107998
0.1338 0.052379999 0.053826001
0.13391 0.05328 0.053431999
0.13077 0.053259 0.049378
0.12958001 0.052556999 0.046018999
0.12901001 0.052646998 0.046422999
0.12996 0.052042 0.046557002
0.12431 0.053302001 0.040098
0.17357001 0.053151999 0.11298
0.17393 0.052942999 0.11378
0.18899 0.053605001 0.1348
0.13045999 0.053975999 0.049488999
0.17333999 0.053320002 0.11232
0.17297 0.053911 0.11238
0.15074 0.053401999 0.079008996
0.12425 0.053994998 0.040978
0.12447 0.054102 0.040270999
0.18803 0.054643001 0.13426
0.1246 0.054164 0.041389
0.18809 0.054917 0.13395
0.17263 0.054051001 0.11176
0.17212 0.054551002 0.11119
0.15128 0.054866999 0.080470003
0.15157001 0.054324001 0.079691
0.17149 0.054896999 0.11021
0.13075 0.054905001 0.049687002
0.18792 0.055036999 0.13352001
0.18574999 0.055181999 0.13138001
0.18637 0.055677 0.13099
0.18502 0.055220999 0.13025001
0.17116 0.055190999 0.10925
0.15262 0.055337999 0.081410997
0.15194 0.054954998 0.080899999
0.15295 0.054524999 0.081308
0.15331 0.054462001 0.080839999
0.18491 0.055934999 0.12952
0.1841 0.056120999 0.12919
0.15225001 0.055721 0.082011998
0.13089 0.055461999 0.049821999
0.18414 0.056834001 0.12879001
0.17107999 0.055277001 0.10851
0.17086001 0.056182001 0.1094
0.13139001 0.056611001 0.050195001
0.15421 0.056024 0.083656996
0.16947 0.056988001 0.10717
0.18429001 0.057463001 0.12926
0.13186 0.057548001 0.050995
0.13175 0.057029001 0.050441999
0.16841 0.057468999 0.10561
0.13223 0.057654001 0.051477998
0.16805001 0.057776999 0.10473
0.16794001 0.057592001 0.10411
0.15547 0.058281001 0.087061003
0.18474001 0.058858 0.12969001
0.16723999 0.057845999 0.10311
0.15667 0.058488999 0.088361003
0.16514 0.058910999 0.10009
0.15775 0.058449 0.089169003
0.18529999 0.059395999 0.1304
0.16403 0.059457 0.098564997
0.16429 0.058839999 0.098456003
0.16159 0.059207998 0.095145002
0.16145 0.059046999 0.094237998
0.16123 0.058959998 0.09341
0.15919 0.058986001 0.091058999
0.15861 0.059517998 0.091366
0.18596999 0.059928 0.13106
0.16137999 0.059796002 0.095870003
0.18657 0.060339998 0.13162
0.18617 0.060169999 0.13139001
0.18653999 0.060849 0.13199
0.18708 0.061898001 0.13303
0.18753999 0.063229002 0.13338999
0.18743999 0.064098001 0.13304
0.18697 0.064351998 0.13256
0.18651 0.064779997 0.13186
0.18626 0.065173 0.13072
0.18509001 0.066007003 0.12944999
0.1846 0.066196002 0.12916
0.18468 0.066748001 0.12841
0.18347 0.067743003 0.12748
0.18287 0.067110002 0.12743001
0.18271001 0.068379 0.127
0.18348999 0.068264 0.12734
0.18308 0.069522001 0.12721001
0.18341 0.070138 0.12755001
0.18430001 0.071241997 0.12909999
0.18595 0.071956001 0.13156
0.18784 0.072823003 0.13395
0.18806 0.074005999 0.13452999
0.18785 0.074927002 0.13361
0.18742999 0.075264998 0.13345
0.18695 0.075755998 0.13248
0.18652 0.076177001 0.1321
0.18688001 0.076164998 0.13142
0.18610001 0.076915003 0.13082001
0.18526 0.077251002 0.13043
0.18533 0.077469997 0.13028
0.18477 0.077794999 0.12976
0.18491 0.078201003 0.12954
0.18436 0.078588001 0.12908
0.18369 0.079562001 0.12839
0.18524 0.079383001 0.12943999
0.18452001 0.079643004 0.12872
0.18389 0.079773001 0.12824
0.18929 0.080340996 0.13557
0.18767001 0.080172002 0.13324
0.18435 0.080392003 0.12893
0.18371999 0.080193996 0.12836
0.19106001 0.081017002 0.13839
0.19081999 0.080195002 0.13992999
0.19151001 0.080775999 0.13906001
0.18938001 0.080315001 0.13646001
0.18697999 0.080316 0.13237999
0.18532 0.080398999 0.1302
0.19059999 0.081114002 0.13751
0.19025999 0.080503002 0.13797
0.19078 0.080527 0.13844
0.18498001 0.080445997 0.12965
0.19739 0.082754999 0.14839
0.19736999 0.082160003 0.14816
0.19789 0.083025999 0.14921001
0.19873001 0.083815001 0.14985
0.19815999 0.083353996 0.15019
0.19811 0.083798997 0.1494
0.20348001 0.085198 0.15652999
0.21326999 0.085766003 0.17373
0.21478 0.085542999 0.17381001
0.21415 0.085823998 0.17308
0.21391 0.085708 0.17438
0.21341 0.086070001 0.17130999
0.20496 0.085840002 0.15895
0.20428 0.085520998 0.15802
0.20389999 0.085534997 0.15731999
0.21268 0.086139001 0.17094
0.21249001 0.086338997 0.17017999
0.20837 0.08653 0.16320001
0.20567 0.086225003 0.16089
0.20967001 0.086886004 0.16693
0.20983 0.086892001 0.16655999
0.18735 -0.039712001 0.13494
0.18802001 -0.039857998 0.13446
0.13743 -0.039804999 0.058015998
0.18761 -0.038903002 0.13271999
0.13559 -0.033684 0.057239
0.13677 -0.031573001 0.057523999
0.13665999 -0.031782001 0.057436999
0.18169001 -0.02774 0.12453
0.18122 -0.025821 0.12289
0.17968 -0.020079 0.12034
0.17843001 -0.017893 0.11938
0.178 -0.014908 0.11863
0.17826 -0.012592 0.11798
0.17847 -0.013704 0.11799
0.17713 -0.0090934997 0.11698
0.1769 -0.0092665004 0.11692
0.15215001 -0.0090864003 0.080815002
0.15189999 -0.0085028 0.080862999
0.15277 -0.0093053002 0.081436999
0.15181001 -0.0093181003 0.080053002
0.15016 -0.0093646999 0.077992
0.15141 -0.0080863005 0.0801
0.17635 -0.0079530999 0.11631
0.15056001 -0.0073352 0.078308001
0.17709 -0.0072416002 0.11604
0.15252 -0.0048702001 0.081308998
0.17517 -0.0040322999 0.11485
0.15164 -0.0011365 0.079764999
0.15079001 0.00074155 0.078858003
0.19893999 0.0010271 0.1498
0.19994 0.0016275001 0.15101001
0.17425001 0.0022276 0.11354
0.15074 0.0026326 0.078309998
0.17398 0.0039916998 0.11309
0.2013 0.0044733998 0.15307
0.15057001 0.0051810001 0.077308998
0.20227 0.0051032002 0.15366
0.17358001 0.0057859002 0.11262
0.14913 0.0072653 0.075787999
0.20198999 0.0097703002 0.15435
0.14803 0.0095621999 0.074492998
0.20178001 0.010634 0.15428001
0.17321 0.010617 0.11172
0.14765 0.011399 0.073558003
0.20182 0.012428 0.15419
0.13260999 0.012313 0.050657999
0.20181 0.013145 0.15408
0.17237 0.013421 0.11121
0.20189001 0.014237 0.15376
0.14687 0.014205 0.072324
0.17258 0.014007 0.11113
0.13289 0.016206 0.050870001
0.20123 0.01596 0.15313999
0.17216 0.016863 0.1104
0.17288999 0.016308 0.1105
0.14526001 0.016890001 0.070759997
0.13221 0.017294001 0.05164
0.133 0.017178999 0.050558999
0.20078 0.017424 0.15241
0.13244 0.017906001 0.051695
0.17296 0.018061999 0.1102
0.15989 0.017754 0.092004001
0.20018999 0.018733 0.15180001
0.14543 0.018932 0.070115998
0.19986001 0.020391 0.15098
0.15865 0.022263 0.091206998
0.15911999 0.021511 0.090508997
0.15879001 0.022483001 0.090605997
0.1446 0.022129999 0.069173001
0.14455999 0.023317 0.069103003
0.14456999 0.024115 0.069071002
0.17056 0.024209 0.10812
0.171 0.024932999 0.1079
0.18693 0.024916001 0.13229001
0.14435001 0.024804 0.068607002
0.15859 0.024132 0.089354001
0.15895 0.024958 0.089019999
0.15851 0.024281999 0.090241998
0.14004999 0.026045 0.063410997
0.17038 0.026007 0.10776
0.15835001 0.025816999 0.089803003
0.1355 0.026347 0.054598998
0.16982999 0.027731 0.10645
0.19719 0.027819 0.14703
0.16955 0.028679 0.10589
0.19654 0.029163999 0.14636
0.19690999 0.029423 0.14618
0.14474 0.028684 0.069162004
0.1366 0.02885 0.057215001
0.18545 0.029634999 0.12939
0.13835999 0.029518999 0.060474001
0.16904999 0.030278999 0.10539
0.16859999 0.031309001 0.10467
0.14441 0.030506 0.069315001
0.13824999 0.030060001 0.059471
0.13773 0.029832 0.05889
0.16912 0.032280002 0.10405
0.16886 0.031663999 0.10465
0.14492001 0.031266998 0.069291003
0.185 0.031567 0.12873
0.19594 0.034093998 0.14435001
0.19604 0.033528 0.14435001
0.14519 0.032697 0.069218002
0.16755 0.032706 0.10323
0.16721 0.033142 0.10289
0.15876999 0.033321001 0.090471998
0.14414001 0.033371001 0.069072999
0.15917 0.034318 0.091052003
0.15908 0.034401 0.091747001
0.18395001 0.034499001 0.12808999
