# .PCD v0.7 - Point Cloud Data file format
VERSION 0.7
FIELDS x y z
SIZE 4 4 4
TYPE F F F
COUNT 1 1 1
WIDTH 1508
HEIGHT 1
VIEWPOINT 0 0 0 1 0 0 0
POINTS 1508
DATA ascii
0.002319 0.033 0.18190999
0.015919 0.035491999 0.18783
0.0023558999 0.034093 0.18183
0.0020828999 0.035743002 0.18213999
0.0023773001 0.037262999 0.18208
0.0028639 -0.040130001 0.14521
-0.0065303999 0.062853001 0.17022
-0.00018680999 -0.0094451001 0.1699
0.0021341001 0.038318001 0.18177
0.0023739999 0.039624002 0.18159001
0.002574 0.041154001 0.18138
-0.049013998 0.084974997 0.13751
-0.050034001 0.085037 0.13676
0.0028186 0.042443 0.18100999
0.0029839 0.04377 0.18053
0.0032454999 0.044966999 0.17983
0.050639998 -0.052221999 0.13773
0.051642999 -0.052398 0.13908
0.050257999 -0.052379999 0.13866
0.0082961004 0.076291002 0.092189997
0.0035248999 0.046677001 0.17912
-0.026896 0.074277997 0.13064
-0.026147 0.074249998 0.13102999
-0.025818 0.072774999 0.13041
0.0040675998 0.047926001 0.17842001
0.013267 0.046666 0.18253
0.0011855999 0.011046 0.17563
0.00022731999 0.011307 0.17527001
-6.9925001e-05 0.0098462002 0.17512999
0.0002278 0.012444 0.17512999
0.0012228 0.0085027004 0.17543
0.0010531 0.0099205999 0.17545
0.00030464999 0.0084784003 0.17524
-0.0034066001 0.028893 0.17752001
-0.0044 0.028789001 0.17707001
-0.030708 0.077067003 0.14504001
-0.030756 0.078621 0.14422999
0.0040382999 0.049281001 0.17839
0.0042081 0.050668001 0.17834
0.0039702998 0.051982999 0.17811
0.0036756 0.053443 0.17822
0.0037825 0.054644 0.17896999
0.0035951999 0.056216002 0.17908999
0.0033753 0.057475001 0.17949
0.0031798 0.058959 0.17939
0.0033193 0.060104001 0.1793
-0.0089836 0.043793999 0.17308
-0.0088537 0.025953 0.17067
-0.010001 0.027186001 0.17098001
0.0035423001 0.061698001 0.17867
-0.0093286997 0.027279999 0.1719
-0.0097239995 0.028813001 0.17242999
-0.010285 0.028716 0.17139
0.024986001 -0.042544 0.15936001
0.023840001 -0.042693 0.1587
-0.0080952002 0.043742999 0.17417
-0.0058913999 -0.0063821999 0.1683
-0.011108 -0.041095998 0.11192
-0.0092914999 -0.039974999 0.11058
-0.010965 -0.040628999 0.11061
0.0043676002 0.062899999 0.17794
-0.011262 0.031716 0.17084
-0.011268 0.032761998 0.17099001
-0.012019 0.031371001 0.17027999
-0.01116 0.034108002 0.17094
-0.011843 0.034049999 0.17020001
-0.011923 0.032811001 0.16993999
-0.0079111997 0.034129001 0.17567
-0.007007 0.034033999 0.17635
0.00095952 0.012478 0.17551
0.0038345 0.064303003 0.17641
0.017782001 0.031500999 0.18886
0.017258 0.048351001 0.18483999
0.017499 0.049240001 0.18481
0.0056559001 0.0077578998 0.17662001
0.0055127 0.0091038002 0.17682
0.018503999 0.039726999 0.18784
0.019339001 0.041136999 0.18722001
0.018369 -0.048498001 0.15468
0.018240999 -0.047076002 0.15484001
-0.0046846 0.065568 0.16795
0.0093793999 0.054784998 0.18076
0.0085100001 0.053376999 0.18076999
-0.0029465 0.045230001 0.17701
-0.0032661001 0.043719001 0.17746
-0.01126 0.029889001 0.17093
-0.0075611002 0.042491 0.17479999
0.010538 0.052030999 0.18096
0.018776 -0.045497999 0.15397
0.019300999 -0.044434998 0.15261
0.020168001 -0.043154001 0.15098
-0.0091214003 0.040809002 0.17339
-0.00899 0.042282 0.1732
-0.0067249001 0.061314002 0.17095999
0.021064 -0.042102002 0.14937
0.0014087 0.00023526 0.17498
0.0011188 0.0017503001 0.17519
0.00052264001 0.00044924999 0.17477
5.4083001e-05 0.030152 0.18000001
0.021924 -0.040979002 0.14782999
-0.010344 0.049295999 0.16866
-0.0070193 0.051851001 0.16948999
-0.0069645001 0.053378999 0.16911
-0.010545 0.0040513002 0.16782001
-0.010485 0.0055189002 0.16756
-0.011095 0.0042190002 0.1671
0.02382 -0.044043001 0.15929
0.022739001 -0.039678 0.14636999
-0.011592 0.030137001 0.16996001
-0.0085425004 0.062863998 0.16615
-0.0092540001 0.062990002 0.16495
-0.0093569001 0.061367001 0.16489001
-0.0085549997 0.061640002 0.16583
0.0080070999 0.031764999 0.18223
0.0085319001 0.031536002 0.18265
-0.0072037 0.043639999 0.17408
0.022774 -0.038407002 0.14593001
0.0020838 -0.001052 0.17454
0.00091369997 -0.0012150001 0.17388999
0.023234 -0.036989 0.14568
0.022879001 -0.035358001 0.14552
0.023263 -0.033944 0.14545999
0.00036121 0.013884 0.17504001
0.0015008 0.014061 0.1753
0.00052571 0.015244 0.17459001
0.023293 -0.032752 0.14543
-0.0085458001 0.011126 0.17025
-0.0078333998 0.049268 0.17047
-0.0075949002 0.050554998 0.17025
-0.0049439999 0.060415 0.1742
0.0040028002 0.0030777999 0.17634
-0.0088526998 0.019078 0.16686
-0.0088561997 0.020383 0.16631
-0.0096279001 0.018967999 0.1661
-0.0085477 0.021648999 0.16625001
0.017978 0.054637998 0.18339001
0.016767001 0.05319 0.18357
-0.0082775 0.024613 0.16942
0.017061001 -0.034501001 0.13964
0.017967001 -0.034565002 0.14024
0.016933 -0.032770999 0.14004999
0.014313 0.031576999 0.18705
0.0069896998 0.015985999 0.17528
0.0069744 0.016396999 0.17504001
0.011035 0.037090998 0.18446
0.011084 0.038267002 0.18423
0.010362 0.038260002 0.18416999
0.012192 0.050767001 0.18204001
-0.0074968999 0.017673999 0.16847
-0.0086238002 0.017746 0.16768
-0.0083133997 0.016416 0.16835
-0.01003 0.062743999 0.16226999
-0.015712 0.068048999 0.13668001
-0.016592 0.069486998 0.13677
-0.016031999 0.069568999 0.13733
0.00047925999 0.0018992 0.17513999
0.014985 0.042622998 0.18520001
0.0042086001 0.011115 0.17646
0.0053874999 0.010451 0.17648999
0.014382 0.054940999 0.18256
0.014299 0.056014001 0.18208
0.013936 0.056198001 0.18156999
-0.0055469 0.032605998 0.17732
-0.0056480998 0.034217998 0.17731
0.0020544999 0.096643999 0.10285
0.0029648 0.096619003 0.10385
-0.037817001 0.062541999 0.13785
-0.038518 0.062602997 0.13745999
-0.036862001 0.061319001 0.13666999
0.019777 0.038054999 0.18841
0.038578998 -0.014719 0.15124001
0.038619999 -0.015594 0.14985
-0.0017879 0.062935002 0.17614
-0.0011275 0.064320996 0.17502999
-0.010716 0.055927001 0.16305
-0.050787002 0.067087002 0.12435
-0.050854001 0.066538997 0.12548999
-0.010927 -0.0011514 0.16814999
-0.010656 0.00023248 0.16857
-0.011409 8.5603997e-06 0.16753
0.0037855001 0.078230999 0.13225
0.003482 0.076729 0.13414
0.0039635999 0.078268997 0.13257
0.028951 -0.040252 0.15778001
0.026869999 -0.031688999 0.14706001
0.026124001 -0.031129999 0.14701
0.026163001 -0.032561999 0.14681999
-0.024629001 0.072724998 0.13099
-0.020749001 0.071624003 0.14955001
-0.021604 0.070418 0.14994
-0.024637001 0.071304001 0.13074
-0.033627 0.060791999 0.13839
-0.033278 0.061264001 0.13981
-0.034049999 0.061501 0.13919
0.030235 -0.023189001 0.15047
0.029007999 -0.024682 0.14866
-0.0040544001 0.044007 0.17646
-0.0043532001 0.042263001 0.17693999
-0.010798 0.0015548 0.16843
-0.01052 0.0030346001 0.16835999
-0.011563 0.0014316 0.16790999
-0.0089951996 0.012334 0.16927999
-0.0098147001 0.012418 0.16832
-0.0098029003 0.010864 0.16858999
0.051553 -0.049646001 0.1411
0.050237998 -0.049203001 0.14132001
-0.012443 0.031330999 0.16917001
-0.026431 0.071176 0.12949
0.0087008001 -0.0080471002 0.17258
0.0080429995 -0.0095458003 0.17172
0.0080022002 -0.0066915001 0.17321
0.0080538997 -0.0054593999 0.1737
-0.0098492 0.0096135 0.16873001
-0.010513 0.010776 0.16802
-0.0070185 0.061632998 0.16968
-0.0072949999 0.059976 0.17026
-0.0098588001 0.0028458 0.16897
-0.0098941997 0.0044101998 0.16859999
0.0023127 0.071278997 0.14091
0.0032368 0.072664998 0.13940001
0.0022100999 0.072577 0.13925999
0.0076477001 -0.0041903001 0.17387
0.0074446001 -0.0028826999 0.17461
0.021059001 -0.0065024002 0.17245001
-0.0071867998 0.023212001 0.16835999
-0.0039376998 0.054795001 0.17419
-0.0039920001 0.055985998 0.17429
-0.011202 0.036812 0.17102
-0.010025 0.031406 0.17302001
0.018011 -0.029658999 0.14526001
0.017634001 -0.029671 0.14511
0.018021001 -0.030621 0.14342
0.029735999 -0.037907999 0.15046
0.011525 0.033073001 0.1855
0.0053178002 0.0035631 0.17671999
-0.040681999 0.082998998 0.14011
-0.041049998 0.081331998 0.14112
-0.040422 0.081713997 0.14105999
0.058026001 -0.052131999 0.13700999
0.019379999 0.050618999 0.18472999
0.019329 0.052051999 0.18448
0.018177001 0.050418001 0.18468
0.017679 0.039772999 0.1876
-0.0098972004 0.0081238002 0.16856
-0.010734 0.0098090004 0.16802999
0.018803 0.038486 0.18836001
0.018275 0.038325999 0.18794
-0.0073795998 0.058708001 0.17007001
-0.0069344998 0.058708999 0.17138
-0.0038276999 -0.017492 0.15998
-0.0066068 -0.018571001 0.15655001
-0.0059815999 -0.018453 0.15719999
-0.0071792002 -0.017058 0.15734001
-0.0096832002 -0.0067913001 0.16489001
-0.0092586996 -0.0065784999 0.16572
-0.0099852001 -0.0054779998 0.16494
0.026559999 -0.036844 0.14786001
0.027384 -0.036995001 0.14819001
0.026622999 -0.035503998 0.14747
-0.0088470997 0.013749 0.16892
-0.0086840997 0.014979 0.16877
-0.0095597999 0.013819 0.16835999
0.015519 0.039827999 0.18667001
0.015758 0.041037001 0.18623
-0.0085300002 0.023251999 0.16637
-0.0092858998 0.023120999 0.16541
0.0044410001 -0.042091001 0.14879
0.0027504 -0.041333999 0.14783999
-0.032136001 0.078905001 0.14422999
-0.016167 0.043772999 0.15952
-0.011626 -0.053479999 0.13869999
-0.010761 -0.053011 0.14013
0.0088373004 0.062700003 0.17801
0.0091068996 0.063732997 0.17715
0.0075579002 0.063008003 0.17752001
-0.013831 -0.042217001 0.10574
-0.014633 -0.042711999 0.10509
-0.01529 -0.043189 0.1061
0.015435 0.045028999 0.18461999
0.01468 0.045479 0.18367
-0.0081414999 0.012329 0.17036
-0.0081698997 0.013586 0.17001
-0.010464 0.0083843004 0.16775
-0.011359 0.0098163998 0.16748001
-0.0096262004 -0.0054688002 0.16574
-0.011347 0.0079977 0.16732
-0.0084052999 0.042070001 0.17405
-0.0091615999 0.039627001 0.17362
0.024068 -0.040538002 0.15232
0.013903 -0.041189 0.14232001
0.015008 -0.040941998 0.14215
0.013766 -0.039740998 0.14124
0.010548 0.028783999 0.1832
0.0094536999 0.030099999 0.18308
-0.0025309001 0.058628 0.17592999
0.01525 0.031748001 0.18742999
-0.0025285999 0.057537999 0.17579
-0.0033809999 0.056000002 0.17543
0.01623 0.038624 0.18763
0.017043 0.038462002 0.18782
0.016584 0.039781999 0.18701001
0.0088609997 0.070756003 0.10226
0.0095132003 0.071197003 0.10104
0.010078 0.071126997 0.10161
0.027657 -0.035544999 0.14777
0.027566001 -0.033909 0.14738999
0.026707999 -0.034093998 0.147
0.0089603998 0.045040999 0.18145999
0.0083219996 0.046723999 0.18069001
0.026255 -0.038139001 0.14853001
0.0062731998 0.037144002 0.1831
0.0063187 0.035764001 0.18269999
0.015328 -0.038681999 0.14016999
0.014587 -0.039882001 0.1411
0.015545 -0.039827999 0.1408
-0.0031923 0.042358 0.17741001
-0.0084239002 0.064194001 0.16524
-0.0089515001 0.064156003 0.16407999
0.010842 0.031316001 0.18497001
0.010219 0.033174001 0.18426
-0.011467 0.026963999 0.1672
-0.011143 0.027065 0.16868
-0.012028 0.028860999 0.16850001
0.017576 -0.032850001 0.1408
0.018875999 -0.032832 0.14128
0.018019 -0.031167001 0.14247
-0.00096169999 0.065595999 0.17185999
-0.0055334 0.066064 0.16523001
-0.0099975001 0.029872 0.17263
-0.010818 0.031385001 0.17203
0.0015558 -0.041446999 0.14777
-0.0096108001 -0.0040826998 0.16644999
-0.010249 0.0068256999 0.16741
-0.01132 0.0055001001 0.16689
-0.0076132002 0.032887999 0.17534
-0.006972 0.033004001 0.17613
-0.0070255999 0.030018 0.17552
-0.0070043001 0.031511001 0.17581999
-0.0075294999 0.031677999 0.17518
-0.0062568001 0.027525 0.17496
-0.0075925998 0.030079 0.17472
-0.0065135998 0.028577 0.17551
-0.0079543004 0.038141999 0.17524
0.017061001 0.051775999 0.18388
0.018123001 0.052000001 0.18409
0.018108999 0.053250998 0.18392999
-0.011258 0.010745 0.16733
-0.0097789997 0.0071251001 0.16876
0.016209999 -0.03142 0.14117999
0.015973 -0.032641999 0.13941
0.01114 0.029898999 0.18446
-0.0014523 0.025996 0.17647
-0.00055405998 0.025684999 0.17603999
0.0070616002 0.034366 0.18291999
0.0064308001 0.034371 0.18288
0.0081553003 0.016037 0.17545
0.0022668999 0.094160996 0.10691
0.0063980999 0.0024701001 0.17647
0.0054464 0.0021871 0.17658
0.0072595002 0.017948 0.17447001
-0.010315 0.012203 0.16754
-0.022516999 -0.00088271999 0.14711
-0.022208 -0.0023761 0.14675
-0.021759 -0.0021087001 0.14869
-0.0035123001 0.041198 0.17804
0.017035 -0.043575998 0.14465
0.015117 0.043889001 0.18477
-0.0059464001 -0.041983999 0.13815001
-0.0066014002 -0.043079 0.13852
-0.0071874 0.044950001 0.17395
-0.048243999 0.085242003 0.13778999
-0.0063282 -0.016705999 0.15845001
-0.0073719998 0.019239999 0.16819
-0.011663 0.028720999 0.16941001
-0.012288 0.030048 0.16903999
-0.010107 0.024441 0.16649
-0.0105 0.034150999 0.17217
-0.011014 0.035493001 0.17132001
-0.0045381999 -0.045139998 0.15049
-0.0048159002 -0.045793999 0.15067001
-0.0042347 -0.045588002 0.15090001
-0.0099371001 0.032841999 0.17291
-0.010095 0.034132 0.17297
0.0078370003 0.020164 0.17365
0.0077664 0.021733999 0.17339
-0.010566 0.024367001 0.16553999
-0.01094 0.02592 0.16648
-0.011286 0.0027884999 0.16745
0.014128 -0.042192999 0.14363
0.012798 -0.041218001 0.14283
0.013347 -0.042429 0.14402001
-0.0069010998 0.049380999 0.17122
0.018524 -0.038438998 0.14136
0.0076632001 0.022926001 0.17433
0.0069594998 0.024842 0.17555
0.0080156997 0.024452001 0.17529
0.0075496002 0.024976 0.17603
-0.019814 -0.0090848999 0.14677
-0.019977 -0.0076535 0.14742
-0.020381 -0.0074999002 0.14598
-0.0096506998 0.060167 0.16345
-0.012748 0.032678001 0.16951001
-0.0027481001 0.060038999 0.17580999
0.027905 -0.038902 0.15369999
0.028517 -0.039255001 0.15422
0.0063141999 -0.035958 0.14140999
-0.011257 -0.050117999 0.14116
-0.0113 -0.051456001 0.14002
-0.011131 0.0069626002 0.16688
0.0034192 0.031575002 0.18154
0.018373 0.030440999 0.18814
0.019068999 0.030281 0.18858001
0.018905999 0.031819999 0.18896
0.028509 -0.042429 0.16091
0.029510001 -0.042629 0.16102999
-0.055156998 0.079944 0.11406
-0.053966001 0.078946002 0.11508
0.0035389001 0.029984999 0.18029
0.0032289 0.032871999 0.18213999
-0.0054204999 0.041115999 0.17699
-0.0068755001 0.056134999 0.16919
-0.0069272998 0.035443 0.17599
0.017067 0.035631001 0.18832999
0.02029 -0.032237001 0.14313
0.01922 -0.030679001 0.14335001
0.018904001 -0.032418001 0.14174999
0.02778 -0.030193999 0.14731
0.026451999 -0.029286999 0.14706001
-0.010329 0.025783001 0.16756
-0.015367 -0.044055998 0.10909
-0.014419 -0.042518001 0.10824
-0.015494 -0.043487001 0.1077
0.0031481001 0.034198999 0.18233
0.017000999 -0.035700999 0.13995001
0.039632998 -0.050634 0.16108
0.039262999 -0.051431 0.16037001
0.013087 0.041157 0.18508001
0.013255 0.042319 0.18449
0.016074 0.042335998 0.1856
0.0029770001 0.035645001 0.18245
-0.0051994999 0.043584999 0.17615999
-0.013492 0.048937 0.16266
-0.013797 0.048841 0.16114999
-0.014051 0.047734998 0.16158
0.010967 -0.05302 0.15135001
0.011777 -0.052864999 0.15082
0.012093 -0.052386001 0.15204
-0.0083641 0.015138 0.16932
-6.8326e-05 0.053295001 0.17753001
0.015999001 0.031516999 0.18798
-0.0042916001 0.061480999 0.17459001
-0.010926 0.028658999 0.17056
0.0051589999 0.057615999 0.18017
0.0053118002 0.058366999 0.18027
0.0042674001 0.058848999 0.17987999
-0.0021998 0.099281996 0.091877997
-0.0021401001 0.099501997 0.090612002
0.012731 -0.049899001 0.15185
0.012987 -0.051658999 0.15245999
0.013546 -0.050087001 0.15166999
0.020412 0.020149 0.17214
0.019423001 0.020289 0.17268001
0.018542999 0.018831 0.1725
-0.045520999 0.063284002 0.12947001
0.013381 0.054554 0.18231
-0.017123001 0.067887001 0.13531999
-0.017335 0.069448002 0.13605
-0.016457999 0.068074003 0.13625
0.014372 0.03012 0.18662
-0.0098294998 0.0055332002 0.16851
0.0068158 -0.013311 0.16819
0.01457 -0.044560999 0.14681999
0.013613 -0.045014001 0.14741001
-0.010619 -0.0041697002 0.16542999
-0.011366 -0.050145 0.14213
-0.010894 0.042199001 0.17091
-0.0071266 0.021756001 0.16773
0.0018372 -0.0064802999 0.17227
-0.030602001 0.076807998 0.14517
-0.0072205001 0.05734 0.16938999
-0.0091207996 0.011014 0.16959
0.015729001 0.026756 0.18528999
0.016945999 0.027603 0.18635
-0.017197 0.070082001 0.13654999
-0.00020092999 0.031637002 0.1803
-0.012 0.050558999 0.16563
-0.010841 0.053227 0.16576
-0.01163 0.051805999 0.16539
0.0030565001 0.036894999 0.18205
0.0023667 -0.0025648 0.17357001
0.001562 -0.0027331 0.17306
0.0017552 -0.0052979002 0.17251
0.0032553 0.038229998 0.18226001
-0.010492 0.013621 0.16717
-0.045529999 0.083384998 0.1392
-0.044009 0.082585998 0.13997
-0.044835001 0.082241997 0.1399
-0.00074102002 -0.041335002 0.14764
0.012895 0.028728999 0.18526
-0.011286 0.038116999 0.17134
-0.0090458002 0.017645 0.16694
0.0015887 -0.0040540001 0.17285
0.034320001 -0.0154 0.15711001
0.015285 -0.037163999 0.13977
0.040072002 -0.051764 0.15971
0.040516999 -0.050476 0.15976
0.016058 -0.034175999 0.13933
0.015097 -0.034359001 0.13932
-0.035262998 0.065440997 0.1278
-0.023705 0.069606997 0.13119
-0.024730001 0.069512002 0.13077
-0.024041001 0.071047001 0.13121
-0.0065171998 -0.0026032999 0.16909
0.048351999 -0.052344002 0.13834
0.049355999 -0.052519999 0.13950001
0.047775 -0.052416001 0.13918
0.010827 0.023187 0.17437001
0.012413 0.022744 0.17399999
0.011185 0.023848999 0.17516001
0.04645 -0.051447 0.14198001
0.0031272001 0.039671998 0.18208
0.014699 0.038389999 0.18652
0.011861 0.044007 0.18313
0.014451 -0.043724999 0.14529
0.015642 -0.042381998 0.14325
-0.0074394001 0.016627001 0.16892999
-0.011151 0.043554999 0.17033
0.011459 0.050700001 0.18147001
0.0099785002 0.043907002 0.18244
0.010088 0.045531999 0.18170001
-0.011281 0.041033 0.17072999
-0.015315 -0.050864998 0.11589
-0.016511001 -0.051991001 0.11546
-0.016028 -0.051833998 0.1165
0.018027 -0.035788 0.14052001
0.015062 -0.032754999 0.13946
-0.0029006 0.054703001 0.17649999
-0.0026078001 0.055801 0.1763
0.0037115 0.040982999 0.18176
-0.0031751001 0.085308999 0.10883
0.0037078001 0.042399 0.1815
-0.0069332002 0.060295001 0.17129999
0.065559 -0.0046965 0.13293
0.065618001 -0.0059906999 0.13285001
0.0092978999 0.069208004 0.10601
0.0098126996 0.069683 0.1063
0.010693 0.069395997 0.10767
0.019626001 0.049359001 0.18520001
0.0016605 0.070739001 0.14105999
0.0013370001 0.069328003 0.14184999
0.0029603001 0.070070997 0.14216
-0.0078160996 0.021579999 0.16677
0.0037740001 0.043754999 0.18064
-0.023863999 0.072962999 0.13166
-0.014484 -0.050639998 0.11792
-0.014433 -0.051819999 0.11796
-0.013644 -0.051867999 0.11909
0.0053655999 -0.037363 0.1417
0.018929999 -0.049477998 0.15782
0.020733999 -0.047534 0.15876999
0.019402999 -0.047906 0.15674999
-0.0062573999 -0.0038618001 0.16870999
-0.010587 0.03252 0.17178001
-0.0062169 -0.0053979 0.16862001
0.013816 0.0287 0.18574999
0.0065036002 0.0010056 0.17602
0.016835 0.050570998 0.18407001
-0.041894998 0.062735997 0.13445
-0.041708998 0.063965 0.13461
-0.042741999 0.064180002 0.13375001
0.029385 0.043267 0.084195003
0.029285001 0.043203998 0.08523
-0.011125 0.039652001 0.1708
0.0042762002 0.045169 0.18006
0.0045119999 -0.013713 0.16778
0.0046083 0.046470001 0.1796
0.0050105001 0.047816999 0.17892
0.0050221998 0.049113002 0.17820001
0.0050802999 0.050374001 0.17840999
0.041701999 -0.052161999 0.15369
0.032565001 0.029015001 0.18089999
0.039519999 -0.015721999 0.14895
-0.0043269 0.017718 0.17125
-0.027071999 0.073936 0.14721
-0.02619 0.074095003 0.14742
-0.026612001 0.074726999 0.14737
0.067123003 -0.050878 0.11096
-0.010334 0.030049 0.17196999
-0.018183 -0.051323 0.10744
-0.0027373 0.095339 0.086038001
-0.0049375999 0.023228999 0.17024
0.017716 -0.04236 0.14338
0.026334001 -0.024417 0.15117
0.026237 -0.024098 0.15189999
0.025823001 -0.024845 0.15091
0.0054563 0.05181 0.17847
0.0050213998 0.053704001 0.17885
0.017976999 0.037052002 0.18843
0.017111 0.037346002 0.18832999
0.047166999 -0.051649 0.14135
0.045587 -0.052074 0.14135
0.046216 -0.052514002 0.14035
-0.010188 0.022886001 0.16468
0.0081888 0.038332999 0.18347
0.0072198999 0.038534999 0.18325
0.017774001 -0.038663 0.14037
0.0044918 0.054845002 0.17918
-0.055693999 0.073632002 0.12013
-0.0061263 -0.023762001 0.14865001
-0.0058825999 -0.024289001 0.14688
-0.0051314002 -0.024183 0.14837
-0.0043879999 0.023126001 0.1707
-0.01022 0.018920001 0.16538
-0.010785 0.017616 0.16581
-0.0020313 0.060226999 0.17669
-0.0021404999 0.059115998 0.17640001
0.0042388998 0.056102 0.17964
0.0040942002 -0.041122001 0.14735
0.017514 -0.041136999 0.14161
0.017718 -0.039827 0.14071999
0.016310999 -0.041214 0.14178
0.044704001 -0.052429002 0.14004999
-0.045485001 0.065679997 0.12464
-0.022941999 0.072899997 0.1321
-0.023120999 0.071126997 0.13175
0.0044252998 0.057695001 0.17986999
-0.0097057996 0.017611001 0.1666
-0.010571 0.016124001 0.16593
-0.0089127999 -0.039756 0.10946
-0.0083421003 -0.038725 0.10688
-0.010346 -0.040109001 0.1086
-0.0041208998 0.02722 0.17652
0.0044879001 0.060233001 0.17981
-0.0032273999 0.076428004 0.12116
-0.0033172001 0.078261003 0.12137
-0.0034449999 0.077880003 0.12001
-0.058332998 0.09087 0.11917
-0.057932999 0.092917003 0.12055
-0.058139 0.092445999 0.11916
0.01496 -0.036093 0.13935
-0.037016999 0.080955997 0.14225
-0.037165999 0.081317 0.14161
-0.037997998 0.081720002 0.14147
-0.0060343002 0.02606 0.17385
0.0046906001 0.061668001 0.17905
0.0052144998 0.063032001 0.17782
0.045297001 -0.052460998 0.13923
0.018826 -0.048083 0.15586001
0.018882001 -0.047137 0.15604
0.019285001 -0.045511 0.15542001
0.0032635999 0.0029106999 0.17626999
-0.0049231001 0.024622999 0.1725
0.019780001 -0.044374 0.15384001
-0.0027654001 0.074713998 0.12657
-0.0020544 0.075452 0.12859
-0.0022721 0.076178998 0.12672
0.020644 -0.042998999 0.15244
0.018765001 -0.034327999 0.14119001
0.021756999 -0.042033002 0.15049
0.022529 -0.040603999 0.14876001
0.0039507998 0.029172 0.18005
0.0039271 0.030148 0.18086
0.023471 -0.039444 0.1472
0.023729 -0.038185 0.14647999
0.017723 0.050726999 0.18441001
0.015719 0.020155 0.17274
0.023629 -0.036816001 0.14639001
0.018955 -0.0088323001 0.1717
0.023991 -0.035351001 0.14611
-0.018369 -0.053027999 0.11149
-0.018472999 -0.051539 0.10858
-0.019006999 -0.053142 0.10935
0.0028685001 0.0082521001 0.17654
0.0032394 0.0095653003 0.17641
0.023968 -0.033920001 0.14579
-0.0019482 0.061512001 0.17685001
0.023861 -0.032572001 0.14597
0.0085095996 0.047704998 0.18021999
0.012767 0.043703999 0.18341
-0.036215998 0.064037003 0.13882001
-0.036683999 0.062526003 0.13899
0.010435 0.054891001 0.18100999
0.015939999 0.05195 0.18371999
0.013969 0.047743998 0.18317001
0.013167 0.049236 0.18257999
0.015721001 -0.043517999 0.14470001
-0.005202 0.042700998 0.17647
0.028887 -0.034116998 0.14755
0.027896 -0.032697 0.14733
0.0091436002 0.050682001 0.17969
0.022118 -0.043931998 0.15817
0.023605 -0.045844 0.15994
0.023943 -0.045258 0.16043
0.023700001 -0.045366999 0.15976
0.0092283003 0.034187999 0.18356
0.0092173005 0.035735998 0.18392999
0.0040878998 0.0094633 0.17664
0.0030977 0.011097 0.17617001
-0.023776 0.070863999 0.14917
0.016713001 -0.042599 0.14302
0.028447 -0.032673001 0.14749999
0.011554 0.028725 0.18377
0.021298001 -0.046053998 0.15911999
0.021604 -0.045448001 0.15884
0.020652 -0.046571001 0.15882
0.028394001 -0.041483998 0.15943
0.027873 -0.042730998 0.16038001
0.019100999 0.043565001 0.18629999
0.019176999 0.045109 0.18593
0.016147999 0.030234 0.18762
0.011439 0.047665 0.18147001
-0.0041303998 0.064911999 0.17117
0.0083502997 0.074670002 0.093865998
-0.015149 -0.045062002 0.10129
-0.015524 -0.045217 0.10233
-0.01479 -0.043575 0.10249
0.040146999 -0.017813999 0.14759
0.039418999 -0.017588001 0.14839
0.0090498999 -0.0097893002 0.17155001
-0.010457 0.057282999 0.16282
0.010202 0.020446001 0.17354
0.010078 0.019074 0.17399999
0.010537 0.018722 0.17414001
-0.0016465 0.0058161998 0.17474
0.01248 -0.039779 0.1415
-0.0014433 0.0071951002 0.17433999
0.014993 0.034626 0.18768001
0.014695 0.033142 0.18746001
0.018828001 0.049470998 0.18469
-0.056437001 0.094411999 0.12246
-0.057583999 0.093613997 0.12272
0.024953 0.030376 0.18790001
0.025846999 0.029118 0.18716
0.025799001 0.030307001 0.18758
0.013941 -0.046137001 0.14887001
0.012593 -0.044879001 0.14792
-0.015467 0.051024001 0.15518001
-0.015041 0.051259 0.15672
-0.01495 0.051495001 0.15674999
0.026168 0.058880001 0.17696001
0.024522001 -0.029069999 0.14632
0.024746999 -0.029820001 0.14651
0.013086 -0.043522 0.14603999
-2.0729e-05 0.046466 0.17731
0.00034043001 0.047823001 0.17726
0.0098102 -0.0083021 0.17303
0.0094450004 -0.0068239002 0.17372
0.022700001 -0.046066999 0.15966
-0.039365999 0.061517 0.13266
-0.038061 0.061003 0.13436
-0.040302999 0.06151 0.13321
0.0088726003 -0.0053889002 0.17419
0.0085472995 -0.0041761999 0.17454
0.0068255002 0.061149001 0.17912
0.0079987003 0.061046999 0.17901
0.0068176999 0.062546 0.17822
0.072265998 -0.048987001 0.094236001
0.0086310999 -0.0024977999 0.17474
-0.010549 0.067511 0.15422
-0.010734 0.066780001 0.1549
-0.010151 0.066707999 0.15584999
0.011317 0.021547999 0.17354
-0.0052689998 0.094056003 0.084100999
-0.03531 0.061310001 0.13258
-0.036663 0.061386 0.13248999
0.017657001 0.017367 0.17265999
0.017871 0.019750999 0.17245001
-0.0015154 0.067340001 0.1366
-0.001564 0.067291997 0.13787
-0.0013592 0.068007 0.13676
-0.0016381 -0.042323999 0.14945
-0.00045808 -0.042532999 0.14975999
-0.0099475998 -0.039732002 0.10161
-0.011414 -0.040355001 0.10189
-0.01011 -0.039677002 0.10296
0.016711 0.020519 0.17264
-0.048893001 0.075905003 0.11881
-0.049299002 0.074239999 0.11895
-0.016898001 -0.046176001 0.10551
-0.037253998 0.062130999 0.13066
0.0017603 0.097465001 0.1012
0.00074769999 0.097148001 0.10084
0.00035334 0.095573999 0.10182
0.0074780998 0.028565001 0.18031
0.0069575999 0.030074 0.1814
0.0064019002 0.028789001 0.18047
0.044977002 -0.050663002 0.14345001
0.044968002 -0.051137 0.14343999
0.045051001 -0.052198999 0.14176001
0.016093999 -0.047488999 0.15013
0.060612001 0.036339 0.092494003
0.025029 -0.024700001 0.15142
0.024374999 -0.024596 0.15167999
0.024095999 -0.026087999 0.14918
-0.0095519004 0.068549 0.15347999
-0.0087002004 0.067694999 0.15478
-0.008227 0.067062996 0.15603
-0.0071856002 0.067304 0.15696999
-0.0063470001 0.067218997 0.15809
-0.0053253002 0.067479998 0.15881
-0.0042798999 0.067501999 0.15984
-0.0031075999 0.067530997 0.16086
-0.0025209 0.067772001 0.16189
0.0094368001 0.069251001 0.15864
0.011158 0.069096997 0.15884
0.0065279999 0.069211997 0.15546
0.0062801 0.068848997 0.1539
0.0076885 0.068836004 0.1548
0.012848 0.068798997 0.16108
-0.0014829 0.067764997 0.16293
-0.00041072001 0.067685999 0.16410001
0.00022502001 0.067636997 0.16514
0.0012514 0.067991003 0.16588999
0.0020945 0.067906 0.16732
0.01209 0.068977997 0.15972
0.010034 0.069188997 0.15794
0.0073583 0.069026999 0.15668
0.0085527003 0.069174998 0.15726
0.0085238004 0.069280997 0.15575001
0.0094279004 0.069131002 0.15667
0.016651001 0.068558 0.15185
0.017642001 0.068526998 0.15293001
0.0054752999 0.068925999 0.15275
0.0047344998 0.068714999 0.15362
0.0029141 0.067525998 0.16823
-0.0085749999 -0.039893001 0.11165
-0.0080661997 -0.039896999 0.11277
-0.0078477999 -0.039664 0.11193
0.0036636 0.067305997 0.16921
0.0027417999 0.068411 0.1497
0.018371999 0.068199001 0.15422
0.019042 0.068368003 0.15515
0.020236 0.068081997 0.1561
0.021044999 0.067717001 0.15730999
0.021661 0.067588001 0.15678
0.021916 0.067504004 0.15852
0.022346999 0.067404002 0.15970001
0.023331 0.066871002 0.15910999
0.024138 0.066373996 0.16003001
0.023433 0.066615999 0.16075
0.024114 0.066188 0.16209
0.024705 0.066160999 0.16125999
-0.012742 0.046355002 0.16741
-0.012851 0.044950999 0.16762
0.0050142999 0.067087002 0.17032
0.005624 0.066770002 0.17157
-0.012118 0.038254999 0.16914
-0.01306 0.038199998 0.16797
0.024592999 0.065649003 0.16320001
0.025355 0.064805001 0.16463
0.025991 0.064831004 0.16396999
0.025424 0.065537997 0.16269
0.026079001 0.064195 0.16603
0.026900001 0.064037003 0.16535001
-0.0096270004 0.066826001 0.14255001
-0.0099777002 0.067814 0.14317
-0.0087302998 0.067011997 0.14335001
-0.049637999 0.089915 0.12559
-0.048533998 0.089240998 0.12668
-0.048891 0.088955998 0.12502
0.027378 0.063162997 0.16677
0.026641 0.063322 0.16741
0.027110999 0.062790997 0.16881999
0.028026 0.062166002 0.16780999
0.0062509002 0.065935999 0.17293
-0.012787 0.042344999 0.16735999
0.0071195001 0.065481998 0.17448001
-0.040890999 0.085757002 0.13431001
-0.040506002 0.085569002 0.13564999
-0.039880998 0.085152999 0.13466001
-0.046937998 0.088630997 0.12893
0.0051222998 0.088007003 0.11811
0.0054176999 0.087141 0.11958
-0.040351 0.085560001 0.13379
0.0044120001 0.088812999 0.11697
0.015790001 0.063995004 0.17560001
-0.041200999 0.085984997 0.13283999
0.0092778001 0.049469002 0.17962
-0.043450002 0.086680003 0.13482
0.032974999 -0.041412 0.16018
0.032274 -0.040045999 0.1583
0.031947002 -0.041322 0.16037001
0.027923999 0.061785001 0.17033
0.028325999 0.061308 0.16962001
0.0074498001 0.064900003 0.17534
0.042842999 -0.051745001 0.14924
-0.052055001 0.091978997 0.12957001
-0.050480001 0.091090001 0.13009
-0.051121999 0.091323003 0.13060001
-0.050354 0.090644002 0.13207
-0.012134 0.041166998 0.16879
-0.012883 0.040615998 0.16759001
-0.012897 0.039570998 0.16784
0.028825 0.060284998 0.17102
0.032536 -0.035434999 0.14816
0.031068999 -0.03554 0.14842001
-0.048450001 0.089349002 0.13406
-0.047044002 0.088574 0.13417
-0.015281 0.070372 0.13857999
0.029467 0.060697 0.16892999
-0.036417998 0.082055002 0.14101
-0.037755001 0.082616001 0.14056
-0.01451 0.070309997 0.13953
-0.047906999 0.088270001 0.1349
-0.050246 0.089907996 0.12432
-0.049743 0.090213999 0.13316999
0.0077359001 0.042529002 0.18226001
0.0085466998 0.042532001 0.18268999
0.0076315999 0.043809 0.18189
0.025531 0.065909997 0.16073
0.039517999 -0.031078 0.14549001
-0.049846999 0.090705998 0.1296
0.0075340001 -0.034019001 0.141
0.0080126999 -0.033149 0.1407
-0.035776999 0.083789997 0.13897
-0.035353001 0.082634002 0.14007001
0.0082697002 0.030297 0.18186
0.0088144001 0.030161999 0.18227001
-0.0032631999 0.068449996 0.15151
-0.004152 0.068498001 0.15249
0.0042706002 0.068856001 0.1617
0.0053699999 0.068791002 0.16263001
-0.038219001 0.084547997 0.13711999
-0.039035998 0.084375001 0.13809
0.033250999 -0.042330001 0.16109
0.032393999 -0.042477001 0.16124
-0.043997999 0.087485999 0.13169
0.026131 0.065158002 0.16186
0.026991 0.064557001 0.16327
0.024785001 0.066551998 0.15938
0.012485 0.020221001 0.17344999
0.032191999 -0.034139998 0.14802
0.031268999 -0.034231 0.14823
0.00095239002 0.05043 0.17752001
0.0011641 0.049321 0.17712
0.063607 0.033964999 0.085987002
-0.051309999 0.091600999 0.12544
-0.051865999 0.091891997 0.12419
0.014306 0.067952998 0.16694
-0.023673 0.075516 0.13359
-0.023148 0.075381003 0.13438
-0.024898 0.075313002 0.13240001
-0.022273 0.075259998 0.13541
-0.021777 0.074345 0.13502
-0.021275001 0.075096004 0.13668001
-0.020819999 0.074277997 0.13612001
0.021592 0.063101999 0.17394
0.020728 0.062968001 0.17499
0.0031806999 0.084700003 0.12386
0.0027137001 0.083495997 0.12503
0.058910001 -0.045182001 0.13767999
0.032051001 -0.032814 0.14768
0.031215001 -0.032612 0.1478
0.0063883001 0.013302 0.17605001
-0.02049 0.075124003 0.13758001
0.020569 0.065026999 0.17104
0.021074001 0.064181 0.17283
-0.025369 0.059130002 0.13542999
0.024249 0.019680999 0.17038
0.022758 0.018309001 0.17113
0.031849999 -0.031551 0.1477
0.031129999 -0.031270001 0.1476
0.019726999 0.065913998 0.1697
-0.016578 -0.046928 0.10984
-0.017352 -0.048147 0.11074
-0.016427999 -0.046817999 0.11122
0.019284001 0.066517003 0.16854
0.050184999 -0.051667001 0.14056
0.014259 0.020552 0.17312001
-0.018005 0.057087999 0.14718001
-0.017594 0.057002001 0.14850999
0.061935998 0.0098027 0.12585001
0.017813999 0.067163996 0.16618
0.018347001 0.067009002 0.16727
-0.014707 0.073274001 0.14511
-0.014059 0.072935998 0.14627001
-0.013298 0.072617002 0.14572001
-0.013915 0.073045999 0.14470001
-0.013339 0.072411001 0.14752001
-0.012542 0.072071999 0.14714
-0.012628 0.071671002 0.14899001
-0.011834 0.071820997 0.14801
-0.011409 0.070832998 0.14948
-0.013421 0.067780003 0.15329
-0.01061 0.070087001 0.1507
0.017015001 0.067964002 0.16506
-0.011549 0.069284 0.15253
-0.012477 0.069169998 0.15267999
-0.0098804999 0.069764003 0.15216
-0.010895 0.068756998 0.15287
0.020824 -0.036796 0.14337
0.025593 -0.043907002 0.16064
0.024498999 -0.04386 0.15989
-0.024326 0.072502002 0.14854001
-0.024468999 0.073264003 0.14842001
-0.025397999 0.072462998 0.14822
-0.0084520997 0.066271 0.15816
-0.036633 0.063059002 0.12977
0.050469 0.037865002 0.10947
0.063251004 -0.025783001 0.12754001
0.022991 -0.044059001 0.15884
-0.030543 0.061492998 0.14119001
-0.03232 0.062638998 0.14177001
-0.033229999 0.062601 0.14138
0.011884 0.067984 0.16752
0.012567 0.067605004 0.16869999
0.013378 0.067823999 0.16793001
0.014617 0.068572 0.16328999
0.016132999 0.068320997 0.16365001
0.015464 0.068549 0.16227999
-0.0098420996 0.065572001 0.15758
-0.0096319001 0.066288002 0.15707
-0.010853 0.065746002 0.15674999
-0.0074054999 0.066619001 0.15908
-0.0096778003 0.065389 0.15903001
-0.0063983002 0.066555999 0.15990999
-0.0054517002 0.066844001 0.16091
-0.0043564001 0.067074001 0.16213
-0.003364 0.067198001 0.16286001
-0.0025537999 0.067308001 0.16383
-0.001526 0.067259997 0.16494
0.0065108999 0.038543999 0.18289
0.021077 -0.03407 0.14325
0.019788999 -0.032527 0.14296
-0.0032865 0.085436001 0.10772
0.012774 0.039781 0.18504
0.023991 0.066992998 0.15452
0.0071449 0.074028999 0.1366
0.0062560001 0.075231001 0.13564
0.013517 0.068934001 0.16204999
0.014434 0.068746001 0.16132
0.013467 0.069054 0.1602
0.013006 0.069363996 0.1591
0.011036 0.069352999 0.15736
0.01223 0.069094002 0.15793
-0.00036390999 0.067419998 0.16585
0.010286 0.069098003 0.15601
0.00049116998 0.067488 0.16686
0.001446 0.067484997 0.16791999
0.0021301 0.067392997 0.16919
0.0030811999 0.066996999 0.17
0.0072075999 0.054868001 0.18054999
0.0076521002 0.053258002 0.18047
0.012396 -0.0081129996 0.17329
0.012422 -0.0070758001 0.1742
0.065753996 0.013832 0.10933
0.066206999 0.013806 0.10857
0.0097452002 0.069859996 0.1398
0.0068851002 0.071378998 0.14032
0.0074160998 0.070022002 0.14207999
0.0079087 0.069119997 0.14323001
0.0087155998 0.068570003 0.14465
0.0091065001 0.069029003 0.15514
0.0038157001 0.066760004 0.17143001
0.0045775999 0.066473998 0.17279001
0.0051006 0.065701999 0.17387
0.022133 -0.042755 0.15607999
-0.0026149 0.024778999 0.17411
-0.00063789001 0.0056047998 0.17504001
0.010894 0.068315998 0.14031
0.0096351998 0.068565004 0.14555
0.0081901997 0.068951003 0.15423
0.0072070998 0.068839997 0.15333
0.0064781001 0.068755001 0.15212999
0.0053873002 0.068650998 0.15109
0.027713999 -0.031238999 0.14759
0.026888 -0.032852001 0.14709
0.0017897 -0.042575002 0.14985999
0.025250001 0.066388004 0.15684
0.026309 0.065954 0.15800001
-0.018154001 -0.011216 0.14775001
-0.019125 -0.0098695001 0.1469
-0.018995 -0.010992 0.14617001
0.0062841 0.062977999 0.17802
0.0058483002 0.062702999 0.1785
-0.00035858 0.039592002 0.18054999
-0.0034217001 0.068308003 0.15331
-0.0023725999 0.068457 0.15452
-0.039103001 0.085069999 0.13628
-0.039678998 0.085109003 0.13681
-0.019979 0.071181998 0.13455001
-0.019877 0.072636999 0.13511001
-0.019097 0.071147002 0.13491
0.031977002 -0.029820001 0.14781
0.030621 -0.030064 0.14772999
-0.037645999 0.084119998 0.13288
-0.036658999 0.084291004 0.13406
-0.036191002 0.083734997 0.13350999
0.00061787001 -0.042330001 0.15004
0.0003359 -0.043924998 0.15180001
0.0011117 -0.043570999 0.15165
0.0059366999 0.061370999 0.17930999
0.0051157 0.059819002 0.17986999
-0.052937001 0.088316001 0.13482
-0.052338 0.087389998 0.13506
0.0032197 -0.013876 0.16764
-0.0020896001 0.065568 0.17124
-0.00031735 0.068452001 0.15662
0.00040324 0.068723999 0.15763
-0.034504998 0.083226003 0.1393
-0.035016 0.083916999 0.13595
0.019822 -0.042374 0.14556
0.0089245997 0.020246999 0.17376
0.0033070999 -0.012505 0.16824999
-0.00042835 0.041080002 0.18010999
-0.0025827 0.078221001 0.1228
-0.00223 0.079668 0.12383
-0.0027314001 0.079678997 0.12237
0.011112 0.068635002 0.14595
0.0019771 -0.016644999 0.16539
0.00030905 0.021840001 0.17242999
-0.025372 0.076058999 0.13270999
-0.024372 0.076066002 0.1339
-0.02361 0.076201998 0.13479
0.00063231 0.019297 0.17275
0.00060331001 0.020258 0.17219
-0.022528 0.076310001 0.13579001
0.0088413004 0.021837 0.17385
0.071319997 0.010568 0.11357
-0.0058642998 0.068659998 0.15016
0.015266 0.038368002 0.18693
0.0086259004 0.023246 0.1743
-0.035964001 0.083893999 0.13505
-0.00077967998 0.0071324999 0.17494
0.0083421003 0.068495996 0.16701999
0.0091388002 0.067768 0.16804001
0.010328 0.068309002 0.16725001
-0.050891001 0.090772003 0.1251
0.00043754 0.025356 0.17549001
0.0083772996 0.025762999 0.17682999
0.0091319997 0.025142999 0.17644
0.067372002 0.027866 0.077644996
0.022422999 0.067198001 0.1561
-0.038943 0.084744997 0.13236
0.0013783 0.068515003 0.15841
0.0060430998 0.068685003 0.16344
0.0067491001 0.068600997 0.16452
0.0061484999 0.086066 0.12104
-0.055503 0.094029002 0.12175
-0.054905001 0.093759999 0.12143
-0.056588002 0.093964003 0.12101
0.00044621 0.068683997 0.15569
0.0013047 0.068763003 0.15498
0.013246 0.068719 0.1496
0.013693 0.068310998 0.14879
0.012764 0.068415001 0.14782999
-0.01605 0.074451998 0.14451
-0.015272 0.073540002 0.14436001
-0.016299 0.074100003 0.14301001
-0.017015999 0.074389003 0.14334001
-0.01534 0.073666997 0.14579999
-0.014657 0.073233999 0.1471
-0.014186 0.072558999 0.14845
-0.01358 0.071636997 0.14974999
-0.02238 0.074509002 0.148
-0.022878001 0.075967997 0.14653
0.015001 0.068695001 0.15161
0.015732 0.068714 0.1525
-0.039951999 0.084099002 0.13898
0.026598001 0.065421 0.15375
-0.054740001 0.093837 0.12284
-0.00039407 0.014925 0.1741
0.012434 0.068558 0.14850999
-0.014685 0.070712 0.15084
0.064413004 0.013535 0.11561
-0.018223001 0.074941002 0.14658999
-0.01777 0.074974 0.14589
0.022531999 0.063385002 0.17318
0.023081001 0.062233999 0.17471001
0.011247 0.045226999 0.18231
0.015101 0.067446999 0.16814999
0.031962 -0.028756 0.14764
0.030853 -0.028653 0.14760999
0.031629 -0.027198 0.14777
0.031187 -0.027012 0.14788
-0.053663999 0.091513999 0.13223
-0.05308 0.090199001 0.13414
0.022116 0.064047001 0.17163999
0.015605 0.068673998 0.15096
-0.047584999 0.087125003 0.1363
-0.039652999 0.082992002 0.14004
0.016605999 0.068668999 0.15360001
0.053346001 -0.038162999 0.13452999
0.053849 -0.039863002 0.13593
0.028408 -0.040507998 0.15731999
0.010855 0.067855999 0.1684
0.010033 0.067676 0.16951001
0.011679 0.067419 0.16958
0.017018 -0.047522999 0.15115
0.016876999 -0.048648998 0.15133999
-0.057066999 0.078189 0.11861
-0.039673999 0.085164003 0.13332
-0.047924001 0.089106001 0.12774999
0.010228 0.068676002 0.14097001
0.0072654001 0.076587997 0.13298
-0.0065839002 0.06611 0.16222
-0.0077144001 0.065893002 0.16111
-0.0053368998 0.066497996 0.16306999
-0.0042964001 0.066558003 0.16405
0.021493999 0.065246999 0.17051999
0.020558 0.065861002 0.16895001
0.020090999 0.066426001 0.16785
0.019064 0.066937 0.16643
-0.0035163001 0.066628002 0.16461
-0.0025317001 0.066687003 0.16594
-0.0016086 0.066845 0.16686
0.018581999 0.067271002 0.16532999
0.00014054999 0.017766999 0.1733
0.0033424001 0.068851002 0.16065
-0.00065027003 0.011008 0.17499
-0.00070793001 0.0097665004 0.17482001
0.024711 0.066546999 0.15602
-0.018064 0.017720001 0.15158001
-0.018023999 0.017648 0.15045001
0.010781 0.067041002 0.1706
0.011513 0.066692002 0.1718
0.01243 0.067109004 0.17065001
0.0044386 0.031381998 0.18204001
0.014164 0.067202002 0.16919
0.017818 0.068612002 0.15487
0.01928 0.068425998 0.15708999
0.020130999 0.067827001 0.15782
0.017867999 0.068025 0.1639
0.016111 0.068581 0.16182999
0.017053001 0.068172999 0.16268
0.015212 0.068599001 0.16057999
-0.00043987 0.066845 0.16788
0.00029190001 0.066964999 0.16893999
0.0010009001 0.066779003 0.17033
0.0020065 0.066482998 0.17116
0.0026100001 0.066448003 0.17208999
0.0033960999 0.065788999 0.17374
0.014559 0.068999998 0.15936001
0.018697999 0.068356 0.15586001
0.032032002 -0.026094001 0.14798
0.00057823001 0.098884001 0.093592003
-0.048783999 0.090011999 0.13055
0.021035001 0.067645997 0.15918
0.013556 0.069131002 0.15847
0.01264 0.069098003 0.15723
0.0030159999 0.064214997 0.17619
0.011634 0.068897001 0.15636
0.058919001 -0.019381 0.13049001
0.058736 -0.01781 0.13073
0.058125999 -0.017766999 0.13079999
-0.050275002 0.087329 0.13626
-0.018154999 0.015415 0.15435
-0.018362001 0.015607 0.15251
-0.018487001 0.014639 0.15313999
0.023837 0.065814003 0.16385999
0.024775 0.065122001 0.16531999
0.025183 0.064433001 0.16635001
-0.041871 0.086323999 0.13327999
0.013361 0.066988997 0.17009
0.015769999 0.062852003 0.17699
0.0077089001 0.068383999 0.16546001
-0.020668 0.056662999 0.14323001
-0.0048639001 0.068687998 0.15132999
0.0041692001 0.032878 0.18234
0.021748999 0.067239001 0.16037001
0.010004 0.068767004 0.15433
0.010751 0.069232002 0.1551
0.00012296 0.084099002 0.12329
-0.00040844001 0.082608998 0.12432
0.0089280996 0.068847999 0.15338001
0.0081860004 0.069004998 0.15231
-0.045044001 0.082336999 0.12181
0.0062397001 0.068495996 0.15045001
0.0074358 0.068910003 0.15109999
0.0053368001 0.06848 0.14944001
0.025859 0.06357 0.16777
-0.042806 0.086568996 0.13222
-0.039358001 0.066981003 0.126
0.022242 0.066840999 0.16146
0.01881 -0.043657001 0.14718001
-0.018368 0.075937003 0.14291
-0.017635999 0.075387001 0.14248
-0.018542999 0.075419001 0.14129999
-0.018919 0.076035999 0.14185999
-0.017267 0.075240999 0.14408
0.018023999 -0.044689 0.14838
0.026608 0.062583998 0.16957
0.023817001 0.066970997 0.15636
0.024874 0.066744 0.15759
-0.0013801 0.068464004 0.15528999
0.0021482001 0.068573996 0.15955999
0.0012897 0.068749003 0.15703
0.026751 -0.040229999 0.15577
0.0041586999 0.03438 0.18228
0.0041112001 0.035707001 0.18258999
0.0041214 0.037014 0.18246999
0.017356999 -0.045981001 0.15013
-0.016752001 0.074663997 0.1451
-0.015995 0.074165002 0.14659999
0.023263 0.066396996 0.16248
0.017441001 -0.0080537004 0.17314
0.018894 -0.0072865998 0.17309
0.018394001 -0.0065798 0.17328
-0.015382 0.073146001 0.14782
-0.015052 0.072176002 0.14913
0.033984002 -0.024413999 0.1478
-0.01466 0.068990998 0.15237001
-0.016264001 0.070501 0.15094
-0.015758 0.068847001 0.15199
-0.0067675998 0.065535001 0.164
-0.055227 0.091806002 0.13136999
-0.05486 0.090634003 0.13307001
0.027871 0.063553996 0.16449
0.027007001 0.061772998 0.17112
0.028000999 0.062779002 0.16619
0.025785999 0.066137999 0.15868001
0.026846001 0.065250002 0.15948001
0.020632001 -0.038077001 0.14346001
0.020909 -0.039636999 0.14390001
0.010299 0.068726003 0.16513
0.0094061997 0.068304002 0.16624001
0.010819 0.068405002 0.16642
0.00037371001 0.045196999 0.17907999
0.017208001 0.063170999 0.17633
-0.0046107001 0.066097997 0.16583
-0.0037924 0.066205002 0.16689
0.0010579 0.062905997 0.17726
0.0017081 0.064305998 0.17574
-0.0026026999 0.066556998 0.16771001
-0.0019006 0.066641003 0.16869999
-0.0007956 0.066151001 0.17012
0.00029408 0.066129997 0.17123
0.00097747997 0.066147 0.17227
0.0022863001 0.065274 0.17466
0.00062449998 0.061721001 0.1781
0.0015261 0.094375998 0.10527
0.0026696001 0.094858997 0.1063
0.0036815 0.095770001 0.10526
0.026327001 0.065713003 0.16015001
-0.00068801001 0.0082163 0.17484
-0.00061689998 0.013687 0.17452
0.0036458001 0.068915002 0.15422
0.023507001 0.063047998 0.17225
0.061533 -0.026153 0.12785
0.061701 -0.024795 0.12807
0.060522001 -0.02476 0.12827
0.055608001 -0.041331001 0.13698
-0.041281 0.085561998 0.13603
0.022853 0.064276002 0.17116
-0.042909 0.082773998 0.14008
0.016015001 0.066683002 0.16941001
-0.041976999 0.086310998 0.13536
0.00082855998 0.053199999 0.17804
0.0039725001 0.038231 0.18238001
0.022361999 0.064801 0.16969
0.050663002 -0.016767999 0.13104001
0.0043778 0.039588999 0.1821
0.019319 0.067410998 0.16439
0.018456999 0.067666002 0.16304
0.002571 -0.042564999 0.14939
0.0045401999 0.040986001 0.18198
-0.00064899999 0.012224 0.17485
0.011168 0.068193004 0.14236
0.01998 0.066892996 0.16574
0.020887 0.066513002 0.16687
0.021457 0.065650001 0.16809
-0.026342001 0.077363998 0.14553
-0.042939998 0.086135 0.13591
0.062600002 -0.0019213 0.13393
0.062619001 -0.00032260001 0.13379
0.061861999 -0.00061511999 0.13417
-0.032283001 0.081633002 0.14087
0.0069375001 0.069040999 0.14403
0.01627 0.068905003 0.15972
0.017301001 0.068565004 0.16077
0.017659999 0.068193004 0.16202
-0.028098 0.077570997 0.13192999
-0.027089 0.077918001 0.13270999
-0.027005 0.076798998 0.13246
0.0036764999 0.089610003 0.1155
0.017036 0.065436997 0.17213
-0.0021011999 -0.020377999 0.15849
0.016968001 0.040972002 0.18663
-9.5579002e-05 0.01654 0.17377
-0.0068802 0.068920001 0.14929999
0.031222999 -0.040155001 0.15876999
-0.053295001 0.092547998 0.12191
0.0078054001 0.068701997 0.14515001
0.0086198002 0.068595 0.14633
0.013501 0.069089003 0.15655001
0.014517 0.069095001 0.15744001
0.015465 0.068860002 0.15841
-0.043524999 0.086677 0.13116001
0.00061600999 0.091257997 0.10993
0.0045405999 0.042302001 0.18167999
0.020217 -0.040943999 0.14456999
0.00058887003 0.046457 0.17821001
0.0010415 0.047869001 0.17763001
0.056531999 0.011457 0.1252
0.057548001 0.011354 0.12448
0.0057840999 0.070918001 0.14135
0.0063613001 0.069551997 0.14295
0.0055658999 0.075405002 0.13636
0.0053650001 0.072264001 0.14
0.013564 0.068767004 0.15121999
0.014207 0.068894997 0.15203001
0.013977 0.068743996 0.15056001
0.015058 0.068846002 0.15341
0.015931999 0.068719 0.15422
-0.019789999 0.076182 0.14232001
-0.019722 0.076201998 0.14042
0.012776 0.069231004 0.15567
-0.020338999 0.076725997 0.14113
0.011419 0.068896003 0.14938
0.011352 0.068456002 0.14754
0.010558 0.068547003 0.14827
-0.033787999 0.082102999 0.14064001
-0.011949 0.067924999 0.14098001
-0.012245 0.066721998 0.13964
0.012828 0.065247998 0.17464
0.01234 0.066083997 0.17297
0.063680999 0.013861 0.1126
0.012656 0.069052003 0.16282
-0.003117 0.079076 0.12109
0.01037 0.068867996 0.16329999
0.012409 0.068628997 0.14993
0.011677 0.069169 0.15465
0.010695 0.069008 0.15355
0.0098069999 0.068962999 0.15249
0.016876001 0.068788998 0.15559
0.017619001 0.068760999 0.15631001
0.0077378 0.068894997 0.15037
0.0091685001 0.068710998 0.15154999
-0.018610001 0.076200001 0.14371
-0.018364999 0.075631 0.14451
-0.017049 0.074175 0.14714
0.0069868001 0.068448 0.14943001
0.001696 0.090974003 0.11202
0.022469999 0.06718 0.15243
0.0009938 0.051833998 0.17736
0.0047558001 0.044013999 0.18131
0.00057388999 0.054924 0.17817
0.017077999 0.030053999 0.18794
0.00060734001 -0.010115 0.16906001
0.00016248001 0.043859001 0.17956001
0.019391 0.067942001 0.15882
0.0062850001 0.068553999 0.14845
-0.016434001 0.072935998 0.14895999
-0.017717 0.073844999 0.14859
-0.017804001 0.072483003 0.14967
0.0035600001 0.068122 0.14735
0.0043641999 0.068336003 0.14844
0.0043843999 0.068540998 0.14639001
0.0052856999 0.068264 0.14748999
0.020081 0.067915 0.15992001
0.023643 0.065158002 0.16598
0.024377 0.064709999 0.1674
0.018433001 0.068117999 0.15753999
0.014602 0.048131999 0.18386
-0.01647 0.071943998 0.15008
0.0024061999 0.068118997 0.14627001
0.0033286 0.068396002 0.14555
0.0024137001 0.09065 0.11363
0.0032666 0.089948997 0.11439
0.00047679001 0.089971997 0.11273
0.0013653 0.091265 0.11106
0.0050118002 0.045026999 0.1806
-0.018541999 0.071795002 0.15012001
-0.018784 0.072855003 0.14925
0.0054489002 0.046649002 0.18007
0.02084 0.067300998 0.1611
0.022592001 0.066583999 0.16359
0.023215 0.066111997 0.16458
0.0015893 0.067876004 0.14537001
0.0022940999 0.068291001 0.14452
-0.0076273 0.06481 0.16514
0.021573 0.067060001 0.16223
0.025068 0.063872002 0.16902
0.0058657001 0.047973 0.17911001
0.0060492 0.064117 0.17678
0.00079237 0.068512999 0.14256001
0.0062509002 0.049323998 0.17839999
-0.0039491002 0.065594003 0.16888
-0.002757 0.065609999 0.17031001
0.0061822999 0.050705001 0.17817999
0.025578 0.062692001 0.17027
0.063929997 0.013445 0.11437
-0.012614 0.034109 0.16912
-0.012407 0.035486002 0.16893999
-0.013108 0.034150999 0.16818
0.00020665 0.067479998 0.14448
0.0014612 0.068345003 0.14358
0.0020620001 0.089643002 0.1153
0.0061038001 0.051789999 0.17883
0.0057664998 0.053323999 0.17952
-0.0042241998 0.06848 0.1508
0.026551999 0.061958 0.17175999
0.0056035998 0.054701999 0.17997999
0.0053520999 0.056085002 0.18035001
0.046041999 -0.052570999 0.13874
0.047017999 -0.052554999 0.13985001
0.027717 -0.049327999 0.16371
0.027724 -0.048159 0.16334
0.026707999 -0.04975 0.16337
0.063008003 -0.051330999 0.12989999
-0.0038568999 0.097517997 0.086672001
-0.0044749998 0.097727001 0.087637998
-0.0031774 0.097515002 0.087998003
-0.020238001 0.072702996 0.13508999
-0.051495999 0.091123 0.12376
0.024826 0.062148999 0.17313001
-0.00034237999 0.042289998 0.1798
0.0019967 0.099284001 0.098035999
