# .PCD v0.7 - Point Cloud Data file format
VERSION 0.7
FIELDS x y z
SIZE 4 4 4
TYPE F F F
COUNT 1 1 1
WIDTH 1602
HEIGHT 1
VIEWPOINT 0 0 0 1 0 0 0
POINTS 1602
DATA ascii
0.037005 0.055601999 0.24098
0.036129002 0.056712002 0.24102999
0.090816997 0.039476 0.28139001
0.092355996 0.038295001 0.28154001
0.091932997 0.038520001 0.28099
0.025069 0.067323998 0.25419
0.02496 0.067725003 0.25271001
0.024496 0.068190001 0.25369
0.050636001 0.17202 0.25492999
0.051488999 0.17177001 0.25497001
0.052462 0.17279001 0.25389999
0.042319998 0.094852999 0.27886999
0.042939 0.094019003 0.27809
0.042893 0.093019001 0.27770999
0.089489996 0.1778 0.25145999
0.088795997 0.17904 0.25150999
0.089377999 0.17878 0.24977
0.058559 0.15412 0.18038
0.059190001 0.15508001 0.18127
0.058603 0.15358 0.18127
0.049237002 0.15958001 0.18594
0.049621001 0.1595 0.18589
0.050009001 0.15845001 0.18529999
0.028107001 0.090654001 0.24532001
0.027184 0.089570999 0.24498001
0.027291 0.089483 0.24553999
0.072829999 0.17117 0.23364
0.072786003 0.17075001 0.23401
0.072531998 0.16976 0.23461001
0.035840999 0.15577 0.19904
0.038045999 0.15659 0.19821
0.037137002 0.1549 0.19780999
0.032381002 0.14451 0.20358001
0.032315001 0.14551 0.20197999
0.032896999 0.14425001 0.20305
0.038649 0.15242 0.24334
0.040243998 0.15273 0.24252
0.038155999 0.15232 0.24142
0.047727998 0.14523999 0.18714
0.048322 0.1452 0.18663
0.046445001 0.12751 0.24488001
0.04651 0.12658 0.24558
0.046642002 0.12695999 0.24658
0.040107001 0.16009 0.25073999
0.040197 0.16019 0.25036001
0.040011 0.1595 0.25033
0.067726001 0.16959 0.23711
0.068057001 0.16943 0.23831999
0.067603998 0.17166001 0.23829
0.030127 0.092577003 0.24098
0.031335 0.090983003 0.24092001
0.039432999 0.12209 0.27952
0.039799999 0.12198 0.28068
0.039083999 0.12272 0.28066
0.040406 0.14428 0.19850001
0.041721001 0.14376 0.19846
0.041425999 0.14323001 0.19856
0.048746001 0.15131 0.18375
0.047874998 0.15275 0.18375
0.049084 0.15175 0.18371999
0.041202001 0.152 0.19081999
0.041145001 0.15004 0.19137
0.040851001 0.15166999 0.19122
0.07683 0.1717 0.23085999
0.077133 0.17329 0.23028
0.077638 0.17314 0.23116
0.061018001 0.11294 0.25095999
0.062204 0.11257 0.25040999
0.061946001 0.11131 0.25147
0.036726002 0.12710001 0.25896001
0.036389001 0.12786999 0.25898001
0.036540002 0.12830999 0.25823
0.033867002 0.085614003 0.23544
0.036683999 0.15789001 0.25240999
0.037023999 0.15898 0.25027999
0.036472 0.15724 0.25007999
0.031144001 0.15536 0.26565999
0.031902 0.15705 0.26459
0.032147001 0.15628999 0.26416999
0.045168001 0.17196999 0.27742001
0.045079 0.17145 0.27766001
0.046089001 0.17175999 0.27702999
0.031264 0.14099 0.23084
0.031466 0.13992999 0.2299
0.031481002 0.1402 0.23072
0.042638 0.096676998 0.24002001
0.042955998 0.097043 0.24154
0.043319002 0.098488003 0.24166
0.064489998 0.10659 0.25246999
0.064511999 0.10737 0.25183001
0.065629996 0.10682 0.25246
0.091393001 0.033916999 0.27393001
0.090796001 0.034106001 0.27386999
0.090628996 0.034646999 0.27285001
0.051849 0.17439 0.25690001
0.052784 0.17397 0.257
0.051679999 0.17364 0.25578001
0.031709 0.084877998 0.23638999
0.028586 0.079746 0.29739001
0.027527999 0.079066999 0.2967
0.028481999 0.080314003 0.29694
0.029417999 0.099978998 0.2577
0.028496001 0.098990001 0.25832
0.029161001 0.099910997 0.25870001
0.030169999 0.080283001 0.29480001
0.029572001 0.080188997 0.29561001
0.029159 0.080549002 0.2956
0.057241 0.15747 0.23912001
0.056310002 0.1568 0.23936
0.055732999 0.15741 0.23886999
0.045274999 0.14366999 0.19779
0.045441002 0.14315 0.19863001
0.044670001 0.14418 0.19814999
0.032139 0.14639001 0.22132
0.032198999 0.14655 0.22307
0.033385001 0.14689 0.22179
0.032659002 0.080634996 0.29646999
0.032752998 0.080018997 0.29674
0.031523999 0.080266997 0.29510999
0.037044998 0.12498 0.26914999
0.036184002 0.12627 0.27039999
0.035943002 0.12671 0.27118999
0.038846999 0.13504 0.23165999
0.037742998 0.1346 0.23131
0.037122 0.13477001 0.23202001
0.039016999 0.15895 0.24839
0.040167999 0.15863 0.24739
0.039627999 0.15803 0.24680001
0.034010001 0.10499 0.26190001
0.033521999 0.10282 0.26102
0.033505 0.10266 0.26249999
0.039177999 0.12963 0.25127
0.040302001 0.12797 0.25097999
0.040270999 0.12871 0.25178999
0.022942999 0.059702002 0.24933
0.023672 0.059914999 0.25046
0.022921 0.060844999 0.24893001
0.031206001 0.14624999 0.27676001
0.030263999 0.14713 0.27548999
0.030060999 0.14546999 0.27568001
0.063547 0.10102 0.25418001
0.064158998 0.10061 0.2536
0.063373998 0.099794999 0.25312001
0.02994 0.068746001 0.23644
0.030639 0.068485998 0.23617999
0.028866 0.069155 0.23701
0.068760999 0.17739999 0.25483
0.068787999 0.17644 0.25459
0.069481 0.17741001 0.25292999
0.031851999 0.10046 0.26139
0.031342 0.10095 0.26192999
0.031326 0.10091 0.26124999
0.067195997 0.17079 0.23648
0.067235 0.17082 0.23521
0.049304001 0.17389999 0.27608001
0.049991 0.17378999 0.27695999
0.050064001 0.17456 0.2762
0.074472003 0.15879001 0.23175
0.073184997 0.15895 0.23263
0.074565999 0.15885 0.23143999
0.028568 0.057557002 0.24106
0.028695 0.056729998 0.24056999
0.028681999 0.056559 0.24079999
0.030378001 0.14459001 0.25690001
0.030044001 0.14579999 0.25729999
0.030906999 0.14055 0.26223001
0.030356999 0.13924 0.26067001
0.030437 0.13878 0.26293999
0.024835 0.045322001 0.24608999
0.024535 0.045274001 0.24851
0.024986001 0.046372999 0.24635001
0.027501 0.099846996 0.25437999
0.029364999 0.1002 0.25442001
0.028742 0.099652 0.25380999
0.027504001 0.084478997 0.24443001
0.027698001 0.084717996 0.24337
0.027659999 0.084077001 0.24343
0.051378001 0.17147 0.25301
0.063624002 0.1137 0.24918
0.061429001 0.115 0.24996001
0.062415998 0.11537 0.24987
0.040863998 0.16536 0.28266999
0.04087 0.16349 0.28288999
0.041685 0.16447 0.28363001
0.028756 0.14729001 0.26109001
0.029549999 0.14826 0.25957999
0.029136 0.14704999 0.25982001
0.028217999 0.15181001 0.20953999
0.028783999 0.15309 0.20919999
0.028293001 0.15159 0.20893
0.053856 0.17568 0.25668001
0.055295002 0.17472 0.25689
0.053645 0.17453 0.25599
0.072067998 0.16914999 0.23384
0.070370004 0.16958 0.23368999
0.071299002 0.17058 0.23434
0.025909999 0.072981998 0.24465001
0.026694 0.072406001 0.24598999
0.026976001 0.073371001 0.24513
0.13534001 0.16755 0.26108
0.13530999 0.167 0.25983
0.13500001 0.16968 0.26054001
0.058488999 0.12135 0.24518
0.05675 0.12219 0.24564999
0.058998 0.1217 0.24471
0.037779 0.080481999 0.23198
0.037103001 0.079116002 0.23236001
0.035668999 0.080852002 0.23195
0.041356001 0.16655999 0.28171
0.040934 0.16651 0.28060001
0.068034001 0.18071 0.2243
0.067757003 0.18094 0.22374
0.069164999 0.18082 0.22551
0.072026998 0.18133 0.22390001
0.070602 0.18046001 0.22447
0.071263999 0.18132 0.22281
0.035530001 0.13333 0.25393
0.03576 0.13425 0.25312999
0.035675 0.13427 0.25213999
0.048500001 0.12812001 0.24248999
0.049727 0.12783 0.24264
0.048060998 0.1278 0.24368
0.063444003 0.059733 0.29001999
0.062822998 0.060821 0.29119
0.063001998 0.061434999 0.29144999
0.032892998 0.1582 0.20545
0.031562001 0.15713 0.20693
0.031952001 0.1586 0.20615
0.037271 0.084190004 0.23483001
0.037691001 0.084729999 0.23396
0.042723 0.1596 0.24541999
0.043919001 0.15968999 0.24656001
0.078947 0.034557998 0.27592999
0.079792 0.034699 0.27482
0.079723999 0.033976998 0.27632999
0.037594002 0.15689 0.24866
0.037005998 0.1566 0.24812999
0.036449 0.15710001 0.24977
0.058727 0.16872001 0.24473999
0.059303999 0.16870999 0.24489
0.059755001 0.16878 0.245
0.040941 0.10964 0.25376001
0.041593999 0.11003 0.25261
0.040842 0.10967 0.25319001
0.039331999 0.034136001 0.22635999
0.039692 0.034784999 0.22594
0.033601001 0.066875003 0.23588
0.033558998 0.068139002 0.23577
0.034543999 0.067648001 0.23475
0.02771 0.094985999 0.25712001
0.027438 0.093370996 0.25698
0.027401 0.092597 0.25786
0.047416002 0.17501 0.26763001
0.047362 0.17487 0.26877999
0.048549 0.1749 0.2674
0.034315001 0.147 0.28143001
0.034279 0.14856 0.28205001
0.034214001 0.14910001 0.28137001
0.036903001 0.11476 0.26923999
0.036345001 0.11519 0.26818001
0.037137002 0.11353 0.26857999
0.039324999 0.13314 0.23479
0.038304999 0.13347 0.23418
0.038906999 0.13403 0.23255999
0.038102001 0.080211997 0.29093
0.03957 0.081597999 0.29038
0.038527001 0.080578998 0.29098001
0.034224 0.10011 0.26515001
0.033427 0.13686 0.23002
0.034377001 0.13679001 0.22972
0.034779999 0.13625 0.23018
0.062208999 0.15413 0.18232
0.061271999 0.15476 0.18254
0.061434001 0.15404999 0.18218
0.074429996 0.17264 0.23107
0.075418003 0.17152999 0.22984
0.074658997 0.17155001 0.23147
0.026574999 0.087315001 0.25198999
0.026125001 0.088469997 0.2507
0.026819 0.086663 0.25099
0.12616999 0.17335001 0.26638001
0.12727 0.17383 0.26651001
0.12786999 0.17405 0.26696
0.052129999 0.15851 0.18549
0.052754 0.15898 0.18511
0.051274002 0.15790001 0.18558
0.039306998 0.034331001 0.22902
0.039767001 0.036036 0.22751001
0.039595999 0.035581999 0.22886001
0.065807998 0.058426999 0.29572999
0.065403 0.059333999 0.29569
0.065479003 0.059057001 0.29493999
0.038282 0.11771 0.26306999
0.031008 0.14704999 0.25597
0.030654 0.14603999 0.25632
0.030748 0.14709 0.25639001
0.039779 0.093866996 0.23773
0.039515998 0.092761002 0.23711
0.038210001 0.093774997 0.23853
0.039535001 0.14263 0.19949
0.038931001 0.14386 0.19901
0.039861001 0.14568 0.19773
0.027377 0.033884998 0.22947
0.027171001 0.035268001 0.22939999
0.027013 0.036010999 0.22808
0.023176 0.053236999 0.25217
0.023491001 0.051392 0.25084001
0.024155 0.053691 0.25319001
0.035234999 0.084521003 0.29712999
0.034154002 0.084105 0.29763001
0.034823 0.084242001 0.29661
0.051736001 0.10637 0.24946
0.053162001 0.10569 0.24957
0.052638002 0.10453 0.24907
0.035044 0.13435 0.23645
0.034743 0.13531999 0.23615
0.036063999 0.13401 0.23453
0.027747 0.093108997 0.25648001
0.026418 0.094213001 0.25646999
0.030329 0.10007 0.24719
0.029890999 0.10074 0.24766
0.030723 0.10175 0.24801999
0.060858 0.17374 0.24634001
0.061809 0.17404 0.24623001
0.061368998 0.17227 0.24651
0.026277 0.050234001 0.24408001
0.02626 0.049639001 0.24438
0.026672 0.049254 0.24357
0.046523001 0.16575 0.1954
0.046920002 0.16633999 0.19549
0.046528 0.16729 0.19474
0.045850001 0.10791 0.24997
0.044505 0.10751 0.24969999
0.045866001 0.10757 0.24953
0.051803 0.14744 0.18863
0.051964 0.14675 0.18776999
0.052762002 0.14892 0.18786
0.027263001 0.087380998 0.25466001
0.027772 0.086557999 0.25432
0.027507 0.087066002 0.25446001
0.067129001 0.17473 0.23458
0.067472003 0.17302001 0.23526999
0.067112997 0.1744 0.23598
0.030842001 0.034316 0.22396
0.03053 0.034015 0.22429
0.030595999 0.033328 0.22358
0.040263001 0.11812 0.27871001
0.041308001 0.11786 0.28022
0.041118 0.11747 0.27970999
0.029689999 0.14905 0.26098001
0.029976999 0.14954001 0.25957
0.029007999 0.1486 0.26104
0.058054999 0.15798 0.23910999
0.059250001 0.15719999 0.23844001
0.058247 0.15696999 0.23862
0.039333001 0.16599999 0.25652
0.038263001 0.16474999 0.25641999
0.03833 0.1647 0.25731
0.063440003 0.11835 0.24832
0.064156003 0.11887 0.24773
0.064774998 0.11834 0.24811999
0.063735999 0.11243 0.24969999
0.063197002 0.11143 0.25005001
0.063147999 0.11345 0.25015
0.023784 0.068772003 0.24895
0.023996999 0.070625 0.24872001
0.023456 0.069185004 0.2475
0.034729999 0.087793998 0.28977999
0.033588 0.087263003 0.29034001
0.030439001 0.14786001 0.22849999
0.030043 0.14670999 0.22746
0.029463001 0.14586 0.2263
0.032628998 0.12789001 0.26954001
0.033537 0.12890001 0.27006999
0.031950999 0.12825 0.27009001
0.065568 0.16876 0.24287
0.065335996 0.16812 0.24291
0.065549999 0.16753 0.24243
0.027593 0.097044997 0.24924
0.028948 0.098665997 0.24898
0.028202999 0.097833 0.24817
0.028785 0.034582999 0.22510999
0.027697001 0.035149001 0.22554
0.02863 0.036894001 0.22517
0.057604 0.12745 0.23965
0.058899999 0.12763 0.23939
0.057686999 0.12635 0.23981
0.039606001 0.095438004 0.23925
0.040488001 0.095261 0.23897
0.038858 0.095709004 0.23896
0.051304001 0.10259 0.24801999
0.050505001 0.10103 0.24725001
0.050089002 0.10214 0.24773
0.066152997 0.067741998 0.28942001
0.065213002 0.066720001 0.28887001
0.066124998 0.067351997 0.28966001
0.041878 0.092822 0.27869999
0.042215999 0.092794999 0.27869001
0.042029001 0.091776997 0.28031
0.033495001 0.15801001 0.27160001
0.032976002 0.15683 0.27265
0.034155 0.15904 0.27335
0.064828999 0.066854998 0.28443
0.065762997 0.067156002 0.28593999
0.065384001 0.066721998 0.28514999
0.043079 0.09595 0.27664
0.044337001 0.094168998 0.27748001
0.044007 0.095214002 0.27835
0.034736998 0.092513002 0.23782
0.035957001 0.092161998 0.23681
0.035510998 0.091213003 0.23617999
0.048852 0.10005 0.24665999
0.050138999 0.098595001 0.2465
0.048514999 0.099041 0.24574
0.056913 0.16549 0.24325
0.057332002 0.16638 0.24375001
0.057955001 0.16670001 0.24324
0.043104999 0.16388001 0.1943
0.044371001 0.16506 0.19608
0.044815999 0.16507 0.19497
0.034396999 0.15808 0.27922001
0.036141001 0.15719999 0.27968001
0.035822 0.15885 0.27959001
0.026234999 0.072945997 0.24405999
0.026982 0.072369002 0.24420001
0.026567001 0.073900998 0.24499001
0.025378 0.057169002 0.25617999
0.025838001 0.057797998 0.25534001
0.026373999 0.057029001 0.25637001
0.044753 0.1224 0.25228
0.045579001 0.12256 0.25176999
0.054127 0.14681 0.18007
0.054196998 0.14621 0.18041
0.053241 0.14734 0.18004
0.036887001 0.073743001 0.23389
0.036192998 0.073706999 0.23265
0.036568999 0.073981002 0.2318
0.056299001 0.14489 0.18145999
0.055333 0.14645 0.18251
0.054407999 0.14497 0.18137001
0.057592999 0.15398 0.18092
0.063525997 0.096688002 0.25595
0.061585002 0.095798999 0.25558001
0.062132999 0.097032003 0.25481999
0.030981001 0.14575 0.23548
0.030716 0.14729001 0.23571
0.030769 0.14650001 0.23565
0.032529999 0.12978999 0.26265001
0.032878 0.13063 0.26273999
0.033174999 0.13018 0.26244
0.042782001 0.17218 0.27009001
0.042934999 0.17061 0.26910999
0.043019 0.17177001 0.26934001
0.03545 0.15227 0.19898
0.036313001 0.15192001 0.19805001
0.036249999 0.14973 0.19764
0.060224 0.16395 0.24260999
0.060504999 0.16274001 0.24126001
0.059776999 0.16339 0.24221
0.041085001 0.15727 0.19401
0.041425001 0.15755001 0.1929
0.040461998 0.15730999 0.19355001
0.032439999 0.15613 0.27428001
0.032596 0.15816 0.27404001
0.055075001 0.15548 0.18086
0.053794999 0.15424 0.18193001
0.054092001 0.15534 0.18122999
0.029278999 0.099239998 0.24743
0.027129 0.045039002 0.25691
0.027757 0.046059001 0.25655001
0.026975 0.045262001 0.25608999
0.032969002 0.1531 0.21805
0.032933 0.15343 0.21786
0.031973001 0.15268999 0.21743999
0.037142999 0.12065 0.27454999
0.037168 0.12042 0.27524
0.037126999 0.12073 0.27555001
0.034735002 0.13754 0.25259
0.035344001 0.13913999 0.25211
0.035386 0.1372 0.25123999
0.049832001 0.17408 0.25836
0.049286999 0.17422 0.25900999
0.049323 0.17485 0.25968999
0.029955 0.075221002 0.2502
0.029913001 0.073481001 0.25055999
0.030251 0.074398004 0.2507
0.061737001 0.15331 0.18136001
0.076716997 0.17171 0.22992
0.076412998 0.17242999 0.22975001
0.061918002 0.16316 0.18523
0.061584 0.16204 0.1855
0.060910001 0.16215999 0.18542001
0.065067999 0.17748 0.25729001
0.063634001 0.17632 0.25657001
0.062821999 0.17719001 0.25681999
0.030035 0.081690997 0.24015
0.030022999 0.080619998 0.23974
0.030293999 0.080355003 0.23977999
0.043965001 0.087577 0.23739
0.043630999 0.087233998 0.23762999
0.052012999 0.12335 0.24472
0.052377999 0.12247 0.24611001
0.050214998 0.12288 0.24548
0.038151 0.13411 0.23317
0.023898 0.040738001 0.24947
0.024061 0.042130001 0.24934
0.023042001 0.040491 0.2489
0.060212001 0.17766 0.26363
0.059323002 0.17803 0.26183
0.059204001 0.17769 0.26273999
0.030307001 0.15493 0.21106
0.029595001 0.15437999 0.21031
0.029146001 0.15403999 0.21058001
0.044059001 0.17196 0.26423001
0.045254 0.17215 0.26414001
0.044186998 0.17121001 0.26344001
0.037682999 0.13845 0.21787
0.036366999 0.13860001 0.21755999
0.036316 0.13899 0.21662
0.031847 0.14853001 0.21849
0.031429 0.14901 0.21853
0.032182999 0.1495 0.21762
0.030075001 0.039581999 0.22694001
0.031904999 0.037916999 0.22677
0.030958001 0.038137998 0.22572
0.023726 0.041480999 0.24439
0.022975 0.041343 0.24375001
0.023232 0.040690999 0.24301
0.039618 0.13775 0.20965999
0.038047999 0.13831 0.21035001
0.039414998 0.13835999 0.20924
0.12769 0.16181999 0.26765001
0.12718999 0.16233 0.26795
0.12763 0.16348 0.26831999
0.044888999 0.14173 0.20049
0.046083 0.14215 0.20069
0.045285001 0.14084999 0.20141
0.0288 0.074381001 0.24834
0.026985999 0.073675998 0.24991
0.029151 0.074587002 0.24992
0.039875999 0.12128 0.28149
0.040318999 0.1219 0.28145
0.068109997 0.11943 0.24924
0.068356998 0.11863 0.24957
0.067290001 0.11989 0.24891999
0.033218998 0.13649 0.22677
0.033036001 0.13653 0.228
0.032382 0.13686 0.2279
0.031962 0.14586 0.27779999
0.031509001 0.14587 0.27721
0.032405 0.14474 0.27796999
0.036492001 0.10382 0.24763
0.036159001 0.1037 0.24845
0.037034001 0.10464 0.24897
0.041661002 0.16366 0.25145
0.042626999 0.16429999 0.25163999
0.043097999 0.16332 0.25108999
0.039218999 0.092482999 0.23773
0.039508998 0.091512002 0.23695999
0.040247999 0.090884 0.23611
0.048021 0.11589 0.25235999
0.047945999 0.11858 0.25297999
0.047844999 0.11549 0.25259
0.034835 0.10552 0.25312001
0.035168 0.10554 0.25375
0.035796002 0.10632 0.25242001
0.066358 0.178 0.22888
0.066932 0.17648999 0.22854
0.066941999 0.17702 0.2289
0.031097 0.14273 0.23136
0.030784 0.14207 0.23018999
0.031541001 0.14129999 0.23074
0.036807999 0.13331001 0.23668
0.037558001 0.13465001 0.23653001
0.036906999 0.13383 0.23751999
0.060215998 0.17307 0.24614
0.059799999 0.17236 0.24722999
0.060619 0.17252 0.24727
0.037567999 0.12262 0.27811
0.038192 0.12343 0.27889001
0.037769001 0.12272 0.27697
0.051723 0.14925 0.18158001
0.049800999 0.14963999 0.18237001
0.050549999 0.15019 0.18339001
0.038135 0.11278 0.26008999
0.037457 0.11269 0.26153001
0.037218999 0.11334 0.26124001
0.0287 0.15312999 0.21188
0.12881 0.16516 0.26605999
0.12884 0.16515 0.26699001
0.12966999 0.16619 0.26695001
0.029097 0.081843004 0.23915
0.030173 0.081978999 0.23982
0.029464001 0.081891 0.23951
0.026768999 0.087669998 0.24981999
0.027694 0.088509001 0.2484
0.026476 0.087630004 0.24777
0.03971 0.037368 0.22878
0.039836001 0.036894001 0.22957
0.076730996 0.175 0.22937
0.077373996 0.17555 0.22848
0.076907001 0.17605001 0.22837999
0.051201001 0.1295 0.24081001
0.050423 0.13128 0.24070001
0.051054999 0.13107 0.2403
0.031399999 0.079562001 0.25540999
0.030671 0.079754002 0.25459
0.031833999 0.079461999 0.25661999
0.043363001 0.12635 0.2499
0.043807 0.12507001 0.25130999
0.042041 0.12615 0.25055999
0.042266998 0.094548002 0.28020999
0.042183999 0.095307 0.27987
0.033528998 0.15872 0.26719999
0.033479001 0.15835001 0.26583001
0.032722998 0.15829 0.26598999
0.075525001 0.17194 0.23021001
0.045763999 0.11755 0.25178999
0.046670001 0.11632 0.25235
0.034825001 0.098739997 0.26688999
0.033330001 0.099316001 0.26563001
0.033047002 0.099159002 0.26528999
0.033240002 0.082930997 0.29007
0.034756999 0.082060002 0.29003
0.034719002 0.082819 0.29075
0.038702 0.13558 0.28580999
0.038739 0.13449 0.28562999
0.039489001 0.13525 0.28692999
0.037326999 0.11467 0.27318001
0.037250001 0.11406 0.27384999
0.037354 0.11487 0.27405
0.026771 0.037110999 0.25944999
0.027688 0.037565 0.26091
0.026559999 0.038339999 0.25971001
0.043666001 0.14199001 0.19956
0.042823002 0.14324 0.19826999
0.057525001 0.1693 0.24546
0.057608999 0.16940001 0.24569
0.055574 0.12048 0.2482
0.055569999 0.12026 0.24775
0.056694999 0.12064 0.24749
0.043028001 0.13959 0.20541
0.044530999 0.13959 0.20615999
0.044374 0.13823 0.20637999
0.033443 0.15543 0.21726
0.032991 0.15464 0.21789999
0.034481 0.15399 0.21831
0.045593999 0.12152 0.25200999
0.044711001 0.16351999 0.28744
0.044613 0.16145 0.28759
0.044473998 0.16187 0.28753999
0.036548 0.15433 0.24868
0.036343001 0.15576001 0.24888
0.037005 0.15589 0.24877
0.032910001 0.13759001 0.24325
0.032286 0.13728 0.24246
0.032722 0.13666999 0.24287
0.069651 0.17324001 0.24796
0.069977 0.17314 0.24931
0.069700003 0.17400999 0.24806
0.044922002 0.17321 0.27059999
0.045928001 0.17399999 0.27193001
0.046238001 0.1741 0.27123001
0.03266 0.13989 0.22497
0.031434 0.14014 0.22457001
0.035185002 0.087217003 0.28799
0.034339 0.086873002 0.28885999
0.040832002 0.084334999 0.23549999
0.040173002 0.084957004 0.23496
0.040544 0.085032001 0.23543
0.054244 0.14951999 0.18059
0.053904001 0.15018 0.18212999
0.054531999 0.14955001 0.18335
0.028999001 0.15251 0.21185
0.028511001 0.15268999 0.21223
0.048423 0.17451 0.27357
0.047609001 0.17485 0.27254999
0.047844999 0.17326 0.27279001
0.035165999 0.098913997 0.24299
0.03435 0.10015 0.24409001
0.035627998 0.099869996 0.24372
0.05085 0.16663 0.19140001
0.035716999 0.15038 0.19817001
0.036045 0.14906 0.19924
0.023839001 0.034173001 0.24015
0.025132 0.034519002 0.23923001
0.026062001 0.033730999 0.2403
0.066656999 0.18105 0.22864
0.066414997 0.18061 0.22977
0.067611001 0.18128 0.22939
0.056894999 0.15996 0.24112
0.058261 0.16023 0.24002001
0.058747999 0.15866999 0.2393
0.036598999 0.11169 0.2626
0.036685001 0.11111 0.26392001
0.036703002 0.11245 0.26356
0.036194999 0.071133003 0.23502
0.035162002 0.069698997 0.23470999
0.034329001 0.070534997 0.2344
0.024220999 0.052156001 0.25393
0.024614001 0.051699001 0.25389001
0.025792999 0.05223 0.25444999
0.062300999 0.162 0.18615
0.060384002 0.16229001 0.18612
0.060091 0.16189 0.18629999
0.055282 0.10096 0.25016001
0.056557 0.099503003 0.25154999
0.055339001 0.099593997 0.25084001
0.024646999 0.035349 0.25501001
0.024553999 0.034644 0.25448999
0.025490001 0.033914998 0.25389001
0.079053998 0.15971 0.2298
0.078530997 0.15854999 0.23023
0.078024 0.15947001 0.23108999
0.043823 0.17278001 0.2694
0.044071 0.17236 0.27173999
0.044422001 0.17267001 0.27081999
0.027649 0.088995002 0.25593001
0.027970999 0.089876004 0.25652
0.027378 0.089211002 0.25549001
0.032915998 0.15741999 0.20411
0.031204 0.15614 0.2051
0.030579999 0.15721001 0.2061
0.028162999 0.093764 0.24708
0.027828 0.096134 0.2484
0.028461 0.095907003 0.24674
0.033511002 0.15341 0.20024
0.032807998 0.15264 0.20129
0.032786001 0.15403 0.20197999
0.040716 0.13088 0.24766
0.041131999 0.13084 0.24765
0.040019002 0.13112 0.24914999
0.032609001 0.13382 0.25784999
0.032802001 0.13364001 0.25876999
0.031789001 0.13393 0.25869
0.0372 0.16304 0.26018
0.037427999 0.16427 0.26194
0.037330002 0.16403 0.26012999
0.056255002 0.17718001 0.26238
0.057415999 0.17772999 0.26291001
0.057983998 0.17765 0.26174
0.037114002 0.14149 0.20314001
0.036228999 0.14192 0.20372
0.035863999 0.14258 0.20361
0.039248999 0.12102 0.27893999
0.040206999 0.12059 0.27941999
0.039352 0.12129 0.27956
0.036029998 0.1002 0.26758999
0.035177998 0.1008 0.26732001
0.035144001 0.10088 0.26679
0.066633999 0.17583001 0.23265
0.066813 0.17366 0.23246001
0.067240998 0.17387 0.23284
0.050574999 0.17563 0.27149001
0.050799999 0.17567 0.27193999
0.052239999 0.17619 0.27302
0.034256998 0.081418 0.29132
0.034262002 0.081919998 0.29049999
0.035016999 0.081933998 0.29095
0.046447001 0.14814 0.18464001
0.048237 0.14759 0.18367
0.048595 0.14744 0.18351001
0.06103 0.15728 0.23823
0.024329999 0.068161003 0.25233001
0.025694 0.068568997 0.25231999
0.030198 0.13932 0.27339
0.029972 0.13989 0.27443999
0.029901 0.14079 0.27338001
0.039887998 0.16168 0.20396
0.040548 0.16170999 0.20271
0.039026 0.16102999 0.20300999
0.057092998 0.17560001 0.25720999
0.057682 0.17581999 0.25507
0.057381999 0.17542 0.25582999
0.029199 0.14365 0.27122
0.028759001 0.14441 0.27070001
0.029006001 0.14504001 0.26936999
0.060148999 0.043122999 0.29146999
0.061147001 0.043342002 0.29065001
0.06092 0.043037999 0.29067001
0.022949999 0.035064001 0.22674
0.023014 0.034839999 0.2286
0.021909 0.035289001 0.22843
0.069026001 0.17333999 0.23826
0.068795003 0.17361 0.23988
0.069250003 0.17465 0.23847
0.036208 0.15290999 0.22793999
0.035495002 0.1525 0.22679999
0.034258001 0.15294001 0.2287
0.042835999 0.10016 0.24462
0.04329 0.10172 0.24537
0.043747999 0.10052 0.24501
0.043591999 0.093337998 0.27770001
0.043118998 0.092520997 0.27772999
0.03362 0.14478 0.25215
0.033039998 0.14442 0.25229999
0.033020999 0.14416 0.25354999
0.063047998 0.096980996 0.25483999
0.063328996 0.097750999 0.25508001
0.062408 0.098288998 0.25444001
0.063721001 0.098218001 0.25404999
0.041292001 0.169 0.26023
0.053204998 0.17563 0.2712
0.053309001 0.17606001 0.27197999
0.054081 0.17586 0.27039999
0.090135001 0.039887 0.28126001
0.089877002 0.040316999 0.28198999
0.089769997 0.039608002 0.28279999
0.037866 0.065918997 0.23593999
0.036173001 0.066179 0.23637
0.036137 0.067041002 0.23643
0.039253999 0.10433 0.24882001
0.039928999 0.10481 0.24966
0.039060999 0.10398 0.24807
0.050811 0.17468999 0.27314001
0.049224999 0.17422999 0.27270001
0.049373001 0.17400999 0.27518001
0.035620999 0.15758 0.25158
0.035801999 0.15703 0.25263
0.031339999 0.13699999 0.27649999
0.031571999 0.13634001 0.27480999
0.031938002 0.13542999 0.27627
0.067241997 0.16653 0.23941
0.065967001 0.16678999 0.24005
0.067272 0.1672 0.24043
0.030758001 0.14004 0.22600999
0.029947 0.13975 0.22691999
0.030097 0.13959999 0.22598
0.047809999 0.15368 0.18434
0.048652001 0.15328 0.18416999
0.047502998 0.1524 0.18438999
0.032304998 0.085968003 0.29299
0.031550001 0.085827999 0.29194
0.031536002 0.084859997 0.29251999
0.042597 0.17068 0.26075
0.043035999 0.16979 0.25927001
0.060894001 0.11116 0.25081
0.034701001 0.10636 0.25825
0.034952 0.10733 0.25824001
0.035287999 0.10731 0.25646999
0.050425999 0.17384 0.26049
0.049901001 0.17464 0.26056999
0.050459001 0.17497 0.26091
0.046416 0.14523999 0.18598001
0.046301998 0.14695001 0.18539
0.065893002 0.10097 0.25433001
0.064585999 0.10281 0.25349
0.066293001 0.1025 0.25389001
0.13274001 0.16779999 0.26227999
0.13301 0.16901 0.26021999
0.13364001 0.16746999 0.26093999
0.026518 0.093762003 0.25040999
0.026092 0.092169002 0.24963
0.026943 0.092189997 0.25023001
0.023957999 0.056643002 0.24632999
0.023260999 0.054938 0.24548
0.023339 0.055280998 0.24687
0.024197999 0.037682999 0.24739
0.023775 0.038672999 0.24831
0.023503 0.039200999 0.24744
0.038084999 0.11815 0.26232001
0.035728 0.089842997 0.23627
0.035096999 0.090260997 0.23692
0.085028999 0.083076 0.27169001
0.085066997 0.083959997 0.27225
0.086195998 0.083959997 0.27225
0.026303001 0.078882001 0.29785001
0.025663 0.078736998 0.29840001
0.041721001 0.10852 0.25049001
0.043005001 0.10934 0.25108001
0.089013003 0.037707001 0.27494001
0.089179002 0.037261002 0.27416
0.088296004 0.037106 0.27511001
0.048044998 0.17422 0.26807001
0.047602002 0.17377999 0.26973
0.032579999 0.15311 0.21754
0.040901002 0.1674 0.27937001
0.040364999 0.16655 0.27976
0.041113999 0.16809 0.27969
0.035021 0.097929001 0.26651001
0.035355002 0.097742997 0.26800001
0.044259001 0.17172 0.26032999
0.045341 0.17204 0.26102
0.045809001 0.17209999 0.25968999
0.023558 0.065838002 0.24459
0.023700001 0.064792 0.24593
0.049458999 0.15789001 0.24137001
0.050083 0.15733001 0.2403
0.048420001 0.15783 0.24070001
0.033094998 0.15254 0.20004
0.035165001 0.1561 0.21769001
0.034926999 0.15665001 0.21585
0.067837 0.18358999 0.22192
0.067852996 0.18280999 0.22193
0.067616001 0.18313999 0.22204
0.031380001 0.13291 0.26719999
0.032242 0.13167 0.26802
0.032092001 0.13407999 0.26857999
0.037475001 0.10918 0.25580001
0.038582999 0.10996 0.25604001
0.038685001 0.10875 0.25443
0.051897999 0.16154 0.18524
0.052749 0.16056 0.18545
0.052806001 0.16084 0.18425
0.031211 0.14717001 0.21718
0.031656001 0.14803 0.21695
0.031298 0.14843 0.21694
0.041568 0.093909003 0.28105
0.041219998 0.092606999 0.2807
0.040801998 0.091900997 0.28244001
0.036508001 0.1103 0.26934001
0.037140999 0.11034 0.26973999
0.037597999 0.10991 0.26890999
0.033314001 0.13096 0.26102
0.037987001 0.10736 0.27197999
0.038541999 0.1067 0.27326
0.038219001 0.10788 0.27193001
0.043809 0.17154001 0.27325001
0.053282999 0.11054 0.25075001
0.053752001 0.11011 0.25106001
0.054469001 0.10977 0.25053999
0.027705001 0.093829997 0.24718
0.028364001 0.091766 0.24585
0.027014 0.092061996 0.24674
0.054823998 0.11796 0.24919
0.053800002 0.11922 0.24908
0.054138001 0.12013 0.24827
0.027586 0.083318003 0.29517001
0.026229 0.082488 0.29666001
0.028052 0.08348 0.29480001
0.035108998 0.14947 0.28318
0.033606 0.15153 0.27886
0.033349 0.15299 0.27921
0.032804001 0.153 0.27836999
0.077221997 0.16847999 0.23452
0.078869998 0.16687 0.23492999
0.077885002 0.16729 0.23485
0.043400001 0.12069 0.25435999
0.044133 0.11959 0.25475001
0.042808998 0.12046 0.25593001
0.068681002 0.17910001 0.23433
0.067763999 0.17939 0.23337001
0.068403997 0.17934 0.23371001
0.064089999 0.17579 0.2492
0.064888 0.17580999 0.24954
0.066445 0.17573 0.24889
0.036481 0.15611 0.27983001
0.036644001 0.15566 0.28077
0.036368001 0.15702 0.28018001
0.12661999 0.17406 0.26804999
0.12645 0.1724 0.26684001
0.057356998 0.16021 0.1864
0.057817999 0.1612 0.18723001
0.057172 0.16185001 0.18708999
0.030384 0.15025 0.2755
0.030285001 0.14997999 0.27467999
0.030184999 0.14915 0.27535999
0.033397 0.15102001 0.23863
0.033944 0.15074 0.23932999
0.035124999 0.15107 0.23853
0.029895 0.15276 0.26708999
0.029927 0.15257999 0.26644999
0.029532 0.1506 0.26714
0.032504 0.14944001 0.23538999
0.032497998 0.1494 0.23367999
0.031863 0.14788 0.2348
0.081363 0.039926998 0.27590001
0.083885998 0.039530002 0.27491
0.083035998 0.038943 0.27564001
0.052126002 0.15006 0.18885
0.051589999 0.15086 0.18982001
0.051672999 0.14985999 0.18832999
0.065775 0.17656 0.25544
0.067069001 0.17688 0.25608
0.066855997 0.17619 0.25487
0.041699 0.14054 0.20167001
0.042998001 0.14016999 0.20213
0.053358998 0.17607 0.25939
0.054056998 0.17535 0.25900999
0.053378001 0.17411 0.25871
0.04118 0.15342 0.19135
0.041955002 0.15260001 0.19007
0.041018002 0.15270001 0.19118001
0.02726 0.035363 0.26029
0.026798001 0.035987001 0.26039001
0.032761 0.082804002 0.26001999
0.033248 0.082893997 0.26001
0.033278 0.083012998 0.26087001
0.037657999 0.089368999 0.28542
0.038045 0.089910999 0.28514999
0.038361002 0.089330003 0.28479999
0.055294 0.14804 0.18505
0.055114001 0.1481 0.18381
0.053052001 0.14954001 0.18415
0.042502001 0.16502 0.25343001
0.042011999 0.16432001 0.25354001
0.041322 0.16468 0.25407001
0.023190999 0.034531999 0.24584
0.022876 0.034224998 0.24721999
0.023827 0.034476999 0.24692
0.12762 0.17294 0.26339
0.12794 0.17331 0.26409
0.12825 0.17509 0.26299
0.057813 0.10601 0.25060001
0.056821 0.10753 0.24969999
0.057983 0.10807 0.25055
0.049229998 0.16195001 0.24376
0.048877999 0.1629 0.24389
0.050009999 0.16346 0.2446
0.029749 0.040858999 0.23344
0.028914001 0.040486 0.23206
0.028496999 0.040840998 0.23409
0.037289999 0.12656 0.2762
0.036405999 0.12704 0.27607
0.036263 0.12717 0.27421999
0.033978999 0.13612001 0.24681
0.035204999 0.13665999 0.24738
0.035085 0.1367 0.24743
0.03571 0.16099 0.27728999
0.035971001 0.16196001 0.27656999
0.035553001 0.16188 0.27676001
0.05635 0.15309 0.1824
0.056444 0.15353 0.18317001
0.055420998 0.15283 0.18184
0.040808 0.16074 0.19815999
0.040135998 0.16001999 0.19821
0.040484 0.1591 0.19886
0.033859 0.13794 0.22995
0.047199 0.12001 0.25103
0.047054 0.12121 0.25132
0.047125999 0.12042 0.25034001
0.044114999 0.16784 0.25510001
0.042442001 0.16664 0.25634
0.04377 0.16723 0.25654
0.064662002 0.054157998 0.29547
0.064865999 0.054005001 0.29626
0.063395999 0.05562 0.29488
0.041526001 0.1612 0.19372
0.042066 0.16269 0.19395
0.041333999 0.16091999 0.19412
0.027589001 0.098286003 0.25645
0.02881 0.098374002 0.2577
0.028166 0.099335998 0.25738001
0.043573 0.087898999 0.27893001
0.043485999 0.089905001 0.27972999
0.044279002 0.088349 0.27998999
0.065812998 0.062437002 0.29341
0.064420998 0.062419001 0.29179999
0.064418003 0.061995 0.29155001
0.032527 0.14364 0.2184
0.031817 0.14444999 0.21923
0.03215 0.14425001 0.21804
0.02297 0.054342002 0.25152001
0.023682 0.053970002 0.25231001
0.023328001 0.054692999 0.25143999
0.023813 0.034210999 0.24593
0.024738001 0.034463 0.24785
0.024543 0.034368001 0.24736001
0.035374001 0.15839 0.25281999
0.036598999 0.15914001 0.25275001
0.031373002 0.15581 0.26423001
0.038492002 0.10785 0.27162001
0.037643 0.10934 0.26977
0.038311001 0.10784 0.27052999
0.064049996 0.051371999 0.29532
0.063754 0.050437 0.29559001
0.063366003 0.051366001 0.29609001
0.085114002 0.17485 0.25202999
0.085293002 0.17442 0.25259
0.086562999 0.17568 0.25307
0.068429999 0.17787001 0.23453
0.067359 0.17674001 0.23470999
0.066969998 0.17716999 0.23481999
0.02915 0.078645997 0.23926
0.029631 0.078276999 0.24011
0.033626001 0.14282 0.24527
0.032779999 0.14198001 0.24463999
0.032292999 0.14167 0.24503
0.034316 0.073183 0.23275
0.03523 0.073120996 0.2333
0.035280999 0.072166003 0.23359001
0.030631 0.14793 0.27666
0.030391 0.14925 0.27647001
0.031141 0.14831001 0.27562001
0.028922001 0.074282996 0.23836
0.028696001 0.073967002 0.23954999
0.028912 0.074786 0.23842999
0.041301999 0.098568998 0.27465001
0.041831002 0.097681999 0.27438
0.042339999 0.098508 0.27509001
0.028054999 0.064560004 0.24015
0.027727 0.063630998 0.23985
0.027151 0.062963001 0.24062
0.067652002 0.16937 0.23377
0.067290001 0.17116 0.23251
0.066629998 0.17020001 0.23239
0.055690002 0.16773 0.19289
0.056469999 0.16986001 0.19176
0.055486999 0.16895001 0.19339
0.069449998 0.11927 0.24951001
0.069173999 0.11873 0.24941
0.049318001 0.17316 0.25746
0.048505001 0.17327 0.25781
0.048503999 0.17310999 0.25810999
0.024241 0.059951 0.25389001
0.024199 0.060021002 0.25285
0.024491001 0.058722999 0.25310001
0.023003001 0.058635999 0.24899
0.022276999 0.058238 0.2484
0.023220999 0.057778999 0.24936
0.064413004 0.15767001 0.23559
0.065595001 0.15810999 0.23578
0.065665998 0.15719999 0.23602
0.027278 0.085111998 0.25184
0.028051 0.084083997 0.25091001
0.027757 0.083330996 0.2516
0.030801 0.078726001 0.23665
0.031106999 0.078009002 0.23588
0.031477001 0.077500001 0.23587
0.030928999 0.14523 0.22586
0.031177999 0.14607 0.22547001
0.030696999 0.1462 0.22566999
0.028674001 0.085592002 0.25722
0.029457999 0.085547999 0.25729001
0.028888 0.084398001 0.257
0.032714002 0.053844001 0.24033
0.032765001 0.053506002 0.24047001
0.031640999 0.053256001 0.24004
0.043474998 0.10186 0.24581
0.034813002 0.086264998 0.28771999
0.031552002 0.14569999 0.23058
0.031752001 0.14514001 0.23089001
0.030445 0.14455999 0.23201001
0.040699001 0.16972999 0.26811999
0.040139001 0.16901 0.26866001
0.039866 0.1688 0.26999
0.063051 0.10997 0.25071999
0.063166998 0.1115 0.25023001
0.090691 0.034901999 0.27421999
0.088909999 0.035209998 0.27430001
0.052207001 0.17505001 0.27511999
0.052673001 0.17546 0.27399999
0.051922001 0.1758 0.27454999
0.051835999 0.16937 0.19228999
0.051201999 0.16948999 0.19289
0.052451 0.17021 0.19314
0.056756001 0.14703 0.18031999
0.056389999 0.14565 0.18012001
0.056272998 0.14664 0.17933001
0.031021001 0.14464 0.23675001
0.030494001 0.14477 0.23549999
0.030842001 0.14331 0.23571
0.059351999 0.041678999 0.29139999
0.059578001 0.042004 0.29144999
0.029828999 0.15129 0.26212999
0.029718 0.14992 0.26159999
0.029935 0.15128 0.26287001
0.031837001 0.10282 0.25848001
0.031546999 0.10192 0.25762999
0.031803001 0.10149 0.26018
0.034871001 0.1515 0.23683999
0.032522999 0.15007 0.23765001
0.042899001 0.090992004 0.2375
0.026601 0.072383001 0.2431
0.025691999 0.071874 0.24304
0.027499 0.092744 0.24562
0.028146001 0.093152002 0.24585
0.028624 0.092413001 0.24394
0.027697001 0.083221003 0.29998001
0.0273 0.083021 0.29832
0.028297 0.082805 0.29980001
0.048652999 0.092882 0.24233
0.047791 0.091773003 0.24098
0.048443999 0.093620002 0.24147999
0.038038 0.10309 0.24596
0.038006 0.10259 0.24642999
0.036316 0.10227 0.24556001
0.075929001 0.1679 0.23239
0.076095 0.16788 0.23208
0.029352 0.14789 0.2066
0.02932 0.1472 0.20772
0.029403999 0.14887001 0.20787001
0.047835998 0.1304 0.24372999
0.046867002 0.13061 0.24394999
0.047329001 0.13155 0.24286
0.041682001 0.10091 0.27568999
0.041586999 0.10091 0.27660999
0.042413998 0.10094 0.27748999
0.038569 0.10782 0.27430999
0.039184 0.10708 0.2748
0.038966998 0.10723 0.27651
0.029685 0.15045001 0.26874
0.029293999 0.15022001 0.26662001
0.029701 0.14557999 0.2115
0.030149 0.146 0.21269
0.029228 0.14669 0.21274
0.032954 0.078933999 0.23382001
0.032892998 0.080711998 0.23416001
0.032898001 0.079800002 0.2342
0.043820001 0.092555001 0.23833001
0.043251999 0.090741999 0.23763999
0.033753999 0.15809999 0.20351
0.033612002 0.15808 0.20345999
0.032857001 0.15723 0.20376
0.032432001 0.082044996 0.29265001
0.032947 0.081483997 0.29383999
0.032304998 0.081630997 0.29412001
0.054798 0.12099 0.2481
0.054423001 0.11943 0.24845999
0.053721 0.12047 0.24773
0.022570999 0.064998001 0.25029999
0.02334 0.065536 0.24872001
0.023286 0.065411001 0.24897
0.081687003 0.090898998 0.26918
0.081464998 0.091089003 0.26980999
0.081927001 0.091946997 0.26980001
0.03246 0.14817999 0.22457001
0.031406 0.14994 0.22555999
0.032086 0.14946 0.22584
0.030439001 0.13783 0.26885
0.029410001 0.13802999 0.26811999
0.030858999 0.13728 0.26751
0.057009 0.11071 0.25013
0.057470001 0.11097 0.25080001
0.057411999 0.11041 0.24993999
0.026009001 0.072430998 0.24747001
0.025613001 0.071684003 0.24722999
0.025404001 0.072104998 0.24803001
0.033413 0.043138001 0.24111
0.033721 0.043356001 0.24053
0.031916 0.044036999 0.2397
0.033906002 0.15953 0.2678
0.034292001 0.1611 0.26804
0.034738999 0.16068 0.26796001
0.023786999 0.039609998 0.24972001
0.023557 0.039354999 0.24891999
0.02468 0.038214002 0.24924999
0.033902001 0.056472 0.2396
0.033872999 0.055845998 0.2394
0.033013999 0.055082001 0.23969001
0.054306999 0.10141 0.25020999
0.024069 0.051286001 0.24795
0.024305001 0.051405001 0.2466
0.024986001 0.050468002 0.24602
0.094191998 0.18237001 0.25244001
0.093500003 0.18121 0.25332999
0.094668999 0.18245 0.25275999
0.036515001 0.12124 0.27296001
0.036515001 0.12184 0.27230999
0.036506999 0.12101 0.27239999
0.038754001 0.11745 0.27768999
0.038812999 0.11663 0.27684
0.038642 0.11609 0.27739
0.035117999 0.13160001 0.25771001
0.034178998 0.1312 0.25672999
0.033611 0.13105001 0.25799
0.034729 0.10361 0.25128999
0.034862999 0.10356 0.25077
0.033307001 0.10449 0.25042999
0.076879002 0.17378999 0.22965001
0.076684996 0.17363 0.22948
0.052198999 0.099521004 0.24789999
0.051146001 0.099554002 0.24751
0.051798999 0.1003 0.24837001
0.043416001 0.17173 0.27322999
0.040623002 0.12442 0.25542
0.040521 0.12376 0.25678
0.039749 0.12479 0.25687
0.029593 0.078336 0.24987
0.028759999 0.079120003 0.24922
0.029368 0.078741997 0.24828
0.025519 0.060237002 0.25386
0.025958 0.061611 0.25470001
0.023918999 0.061145999 0.25328001
0.031505 0.15030999 0.25474
0.031787999 0.14985 0.25455999
0.031615 0.14999001 0.25479001
0.034302998 0.14004999 0.21857999
0.033831 0.14041001 0.21978
0.033920001 0.1407 0.21932
0.039916001 0.15524 0.28669
0.040312 0.15628 0.28698999
0.039131001 0.15617 0.28514001
0.067740001 0.1645 0.23665
0.06831 0.16401 0.23703
0.068140998 0.16323 0.23675001
0.036437999 0.14054 0.20601
0.036674999 0.14072999 0.20503999
0.036816001 0.14015999 0.20501
0.050211001 0.16404 0.24699999
0.049417 0.16467001 0.24829
0.050298002 0.16508999 0.24887
0.025630999 0.034224 0.25373
0.025356 0.034143999 0.25308999
0.025773 0.033696 0.25196999
0.028887 0.075074002 0.24928001
0.030153001 0.076605 0.25024
0.030145001 0.077835001 0.25034001
0.035169002 0.15112001 0.22338
0.03559 0.15147001 0.22273999
0.034352001 0.15129 0.22287001
0.02634 0.041795999 0.25828999
0.026009999 0.041104 0.25729001
0.027739 0.059331998 0.24177
0.028156999 0.058113001 0.24109
0.027745999 0.059684999 0.24179
0.033643 0.14184 0.27996999
0.033050001 0.14269 0.28132999
0.033661 0.14368001 0.28097999
0.043915998 0.16851 0.25874001
0.043462001 0.17015 0.25924
0.043272998 0.16901 0.25845999
0.028794 0.10041 0.25396001
0.036242999 0.15583999 0.21853
0.036949001 0.15662 0.2185
0.036520999 0.15634 0.21823999
0.036054 0.14125 0.28380001
0.035464 0.14081 0.28308001
0.036683999 0.14059 0.28466001
0.061453 0.054760002 0.29260999
0.062013999 0.056595001 0.29126999
0.061522 0.055227999 0.29080999
0.052510001 0.17501 0.25749999
0.052221999 0.17418 0.25803
0.052627999 0.17561001 0.25759
0.032671999 0.15532 0.27612001
0.032714002 0.15433 0.27658999
0.032813001 0.15466 0.27599999
0.044463001 0.11854 0.25347999
0.044337001 0.1199 0.25406
0.029216001 0.085064001 0.29859
0.02922 0.084651001 0.29771999
0.027636001 0.084916003 0.29797
0.031879 0.098759003 0.24420001
0.032903999 0.097286001 0.24296001
0.032145001 0.098667003 0.24394
0.048145 0.10742 0.24890999
0.049841002 0.10804 0.25075999
0.048726 0.10675 0.24899
0.028733 0.068328999 0.23701
0.029663 0.066441998 0.23706
0.028449001 0.06735 0.23778
0.039489001 0.087785996 0.23599
0.041063 0.086902998 0.23548
0.039432 0.087429002 0.2351
0.13032 0.16526 0.26596001
0.13036001 0.16452999 0.26666999
0.032393001 0.14787 0.20103
0.032511 0.14742 0.20044
0.032722998 0.14702 0.20128
0.062756002 0.11787 0.24856
0.061804 0.12032 0.24890999
0.061794002 0.11981 0.24945
0.044989001 0.17395 0.26723
0.045669999 0.17358001 0.26837
0.045952 0.17439 0.26646999
0.040093999 0.10899 0.25266001
0.03867 0.10835 0.25264001
0.028476 0.044229999 0.24070001
0.028599 0.044702001 0.24042
0.029681001 0.043827001 0.24021
0.040569998 0.091677003 0.28485999
0.040252998 0.091531001 0.28272
0.039763 0.090148002 0.28400999
0.036963001 0.12394 0.27061
0.037276 0.12438 0.27089
0.036761001 0.12474 0.27191001
0.055298001 0.17130999 0.25093001
0.054428998 0.17025 0.25005001
0.054632999 0.17091 0.25003001
0.024413001 0.043641001 0.25009
0.024848999 0.044810001 0.24927001
0.035369001 0.14924 0.2446
0.034177002 0.14786001 0.24435
0.034386002 0.14808001 0.24523
0.027377 0.088072002 0.25279
0.027388001 0.088800997 0.25274
0.033893 0.16141 0.26646
0.034030002 0.16230001 0.26721999
0.033991002 0.1611 0.26592001
0.1327 0.16639 0.26396
0.13125999 0.16672 0.26401001
0.13181999 0.16754 0.26438001
0.024417 0.036506999 0.25689
0.024141001 0.036805999 0.25637001
0.024617 0.037486002 0.25624001
0.036297999 0.085073002 0.2344
0.035064001 0.085836999 0.23480999
0.034662001 0.086589999 0.23525
0.039326999 0.15538 0.19742
0.039232999 0.15689 0.19736999
0.040247001 0.15674999 0.19676
0.037900001 0.089218996 0.29056999
0.038977999 0.089248002 0.29058999
0.03878 0.089574002 0.29071999
0.025232 0.048151001 0.24690001
0.025069 0.047343001 0.24632999
0.024906 0.046854001 0.24736001
0.035518002 0.10731 0.25584
0.036098 0.10694 0.25448999
0.035076998 0.10624 0.25494
0.084081002 0.16351999 0.23571999
0.082791999 0.16408999 0.23470999
0.083223999 0.16367 0.23582
0.030028 0.1533 0.26051
0.030431001 0.15273 0.25983
0.030539 0.15262 0.26034999
0.036272001 0.16136999 0.25510001
0.037849002 0.16136999 0.25336999
0.037069 0.15961 0.25391999
0.034949001 0.15166999 0.19965
0.033771999 0.15143999 0.199
0.033016998 0.1513 0.19960999
0.049570002 0.16655999 0.25016999
0.050733998 0.16684 0.25048
0.048877999 0.16549 0.25022
0.036878001 0.16593 0.26618001
0.037021 0.1663 0.26526999
0.036718 0.16586 0.26592001
0.025614001 0.068714999 0.24297
0.025588 0.068719998 0.24273001
0.025309 0.069273002 0.24359
0.059672002 0.03441 0.29390001
0.058743998 0.035101999 0.29319
0.059186999 0.034446999 0.29403001
0.069940001 0.16347 0.23373
0.068080001 0.16271 0.23424
0.069224 0.16338 0.23463
0.076443002 0.17037 0.23348001
0.076104999 0.1693 0.23359001
0.075703003 0.16913 0.23439001
0.030145001 0.033852 0.22172
0.030931 0.034674 0.22251999
0.031016 0.033643 0.22245
0.053629 0.15884 0.24104001
0.052051 0.15825 0.24187
0.052313 0.15859 0.24157999
0.039308 0.1596 0.21059
0.040180001 0.16094001 0.21043999
0.039508998 0.16112 0.20981
0.038467001 0.13333 0.24923
0.037023 0.13486999 0.25093001
0.036380999 0.13448 0.25044999
0.067858003 0.17361 0.23822001
0.068617001 0.17302001 0.23863
0.068301998 0.17212 0.23862
0.042957999 0.16047999 0.19171
0.041877002 0.16107 0.19222
0.043156002 0.16150001 0.19292
0.038504001 0.15961 0.20857
0.036511 0.15921 0.208
0.037475999 0.15967 0.20958
0.036233 0.13150001 0.25178
0.034968998 0.13222 0.25367999
0.060513999 0.17512999 0.25119001
0.060697 0.17518 0.25018001
0.059753999 0.17443 0.25055
0.02744 0.087197997 0.24553999
0.026803 0.086335003 0.24408001
0.026901999 0.086089 0.24528
0.038001999 0.10167 0.27079999
0.046909001 0.1666 0.19204
0.046626002 0.16648 0.19301
0.047421001 0.16692001 0.19281
0.034703001 0.13479 0.24009
0.034766 0.13528 0.24174
0.034345001 0.1354 0.24055
0.041632 0.11669 0.28011999
0.030874001 0.13898 0.26440001
0.030857 0.13788 0.26649001
0.030572999 0.13902 0.2665
0.030571001 0.14611 0.23288999
0.031535 0.14613999 0.23202001
0.046475001 0.14583001 0.18652999
0.066735998 0.11668 0.24848001
0.065591998 0.11619 0.24888
0.065903001 0.11706 0.24875
0.03008 0.036205001 0.22358
0.030270999 0.037774 0.22420999
0.030162999 0.037176002 0.22428
0.041232001 0.090434 0.27932999
0.043037999 0.090741999 0.27809
0.034575 0.12883 0.27592
0.033626001 0.12943 0.27706
0.033716999 0.12949 0.27610001
0.048075002 0.17343999 0.27632999
0.04871 0.17384 0.27505001
0.047529001 0.17338 0.27434999
0.058299001 0.15637 0.18178
0.057331 0.15640999 0.18088999
0.057608999 0.15628 0.18196
0.058882002 0.15502 0.23701
0.059682 0.1561 0.23793
0.053819001 0.17719001 0.26808
0.052818999 0.17749 0.26624
0.052448999 0.17693999 0.26820999
0.045033 0.097707003 0.2421
0.030982999 0.15534 0.21278
0.031273998 0.15579 0.2142
0.031695999 0.15599 0.21308
0.031720001 0.14306 0.21703
0.031870998 0.14382 0.21709999
0.036800001 0.11815 0.27046001
0.036848001 0.11784 0.27072999
0.036959 0.11716 0.27131999
0.031397998 0.10291 0.25007999
0.032425001 0.10351 0.25014001
0.031858001 0.10261 0.25002
0.028223 0.035549998 0.22373
0.034168001 0.13627 0.24525
0.034545001 0.13616 0.24422
0.034754001 0.13609 0.24406999
0.026873 0.091466002 0.25081
0.0266 0.089831002 0.25163001
0.026476 0.090713002 0.25224999
0.039294999 0.16601001 0.2771
0.039489999 0.16673 0.27807
0.042525001 0.091675997 0.27796999
0.072434001 0.17623 0.2282
0.070468001 0.17643 0.22945
0.071027003 0.17664 0.22936
0.032908998 0.15755001 0.26264
0.032793999 0.15861 0.26372001
0.032497998 0.15854999 0.26196
0.033078 0.15817 0.20782
0.033376999 0.15848 0.20731001
0.031984001 0.15700001 0.20841999
0.033617001 0.14064001 0.20984
0.034106001 0.14174999 0.20822001
0.034607001 0.14106999 0.20821001
0.029720001 0.14644 0.27282
0.030576 0.14714 0.27491
0.02925 0.14768 0.27480999
0.065987997 0.18035001 0.22485
0.068934999 0.17973 0.22498
0.066969 0.17967001 0.22556999
0.031746998 0.1552 0.27105001
0.031980999 0.15589 0.27136999
0.032113999 0.15669 0.27092001
0.026146 0.066908002 0.24185
0.025543001 0.066730998 0.24337
0.024875 0.067504004 0.24254
0.042160999 0.1235 0.28216001
0.041335002 0.12349 0.28156999
0.041855998 0.12293 0.28263
0.037602998 0.125 0.27489999
0.038208 0.12535 0.27601001
0.037946001 0.12631001 0.27601001
0.031461 0.043528002 0.23848
0.031109 0.043359999 0.23919
0.031830002 0.043992002 0.23949
0.057911001 0.12983 0.23826
0.056442 0.13011999 0.2379
0.057746001 0.13104001 0.23783
0.044420999 0.10238 0.28033999
0.044588 0.10318 0.28053999
0.043565001 0.10289 0.27961001
0.039593998 0.15739 0.19818
0.040607002 0.1574 0.19638
0.079448 0.038051002 0.27522999
0.039542001 0.15854999 0.19836999
0.039562002 0.15730999 0.19850001
0.039167002 0.15921 0.20058
0.068989001 0.16566999 0.23736
0.068028003 0.16582 0.23778
0.068926997 0.16584 0.23684999
0.040231999 0.15306 0.19227999
0.040523998 0.15267999 0.19201
0.032650001 0.046929002 0.24355
0.033259999 0.045015 0.24269
0.032745 0.044652 0.24142
0.035454001 0.15828 0.27803001
0.034125 0.15884 0.27651
0.035567999 0.15790001 0.27847001
0.035868999 0.15446 0.24912
0.036307 0.15401 0.24872001
0.036516 0.15304001 0.24855
0.027207 0.092735998 0.25525001
0.027068 0.090784997 0.25529
0.027745999 0.092882 0.25540999
0.039910998 0.11178 0.27827999
0.038906001 0.11304 0.27805001
0.039255999 0.11237 0.27693999
0.037007 0.15328 0.23649
0.038697001 0.15331 0.23715
0.038247 0.15349001 0.23534
0.035633001 0.13323 0.25475001
0.034694999 0.13349 0.25540999
0.034575 0.13411 0.25543001
0.035826001 0.13634001 0.23011
0.036104999 0.13472 0.23145001
0.062348001 0.16868 0.24532001
0.062332001 0.16786 0.24547
0.061220001 0.16912 0.24511001
0.04366 0.17186999 0.2714
0.045180999 0.17251 0.27268001
0.070918001 0.1605 0.23344
0.070720002 0.16159 0.23362
0.071442999 0.16042 0.23289999
0.036495999 0.12014 0.27023
0.036332998 0.12032 0.26888001
0.036694001 0.11875 0.26943001
