# .PCD v0.7 - Point Cloud Data file format
VERSION 0.7
FIELDS x y z
SIZE 4 4 4
TYPE F F F
COUNT 1 1 1
WIDTH 1726
HEIGHT 1
VIEWPOINT 0 0 0 1 0 0 0
POINTS 1726
DATA ascii
0.21634001 0.10397 0.21184
0.25244999 0.11229 0.22134
0.24393 0.14476 0.19275001
0.22893 0.11883 0.21217
0.22861999 0.11977 0.2113
0.25624999 0.13119 0.20507
0.25600001 0.12996 0.20627999
0.25725999 0.13121 0.20519
0.27142999 0.056164999 0.21623001
0.27160999 0.054807998 0.21622001
0.31961 0.099210002 0.19677
0.32036999 0.10076 0.19673
0.31952 0.10062 0.19787
0.32027 0.10459 0.19723
0.32115999 0.1033 0.19681001
0.32084 0.10471 0.19685
0.26657999 0.11047 0.22103
0.26538 0.11096 0.22113
0.26662001 0.10971 0.22199
0.26322001 0.11012 0.22229999
0.26137999 0.11342 0.21808
0.26563001 0.11013 0.22235
0.26572999 0.10887 0.22323
0.26247001 0.11366 0.21654999
0.26141 0.11393 0.21635
0.26197001 0.1134 0.21777999
0.22337 0.11467 0.21242
0.22240999 0.11593 0.21172
0.33129999 0.11917 0.16904999
0.3337 0.15866999 0.16205999
0.33329001 0.15755001 0.16212
0.27362999 0.19682001 0.20095
0.26734 0.12436 0.2093
0.26637 0.12386 0.20965999
0.26747 0.12272 0.20979001
0.29065999 0.059432998 0.19783001
0.28986999 0.060674999 0.19772001
0.28887999 0.061967 0.19792999
0.27805999 0.13846999 0.19473
0.27943 0.13837001 0.19521999
0.27932999 0.13465001 0.19891
0.27843001 0.13463999 0.19936
0.27961001 0.13373999 0.19987001
0.21368 0.11474 0.20699
0.25216001 0.11625 0.21398
0.22541 0.12054 0.21032
0.23647 0.14489999 0.19374
0.23525999 0.14477 0.19318999
0.29739001 0.055537999 0.19656999
0.29743999 0.053656999 0.19685
0.25290999 0.10998 0.22306
0.25373 0.11005 0.22311001
0.22956 0.13510001 0.20359001
0.22859 0.13449 0.20315
0.2295 0.13414 0.20431
0.31944999 0.097658001 0.19622
0.3186 0.097718999 0.19679999
0.32023999 0.099293001 0.19568001
0.32128 0.10075 0.19564
0.32170999 0.10203 0.19554
0.32161 0.1033 0.19562
0.32159001 0.1047 0.1956
0.32082 0.10615 0.19682001
0.32190999 0.10596 0.19577999
0.32102001 0.10768 0.1969
0.32023999 0.10761 0.19739
0.32190999 0.10723 0.19568001
0.32077 0.10895 0.19659001
0.32207999 0.10891 0.19575
0.32086 0.11039 0.19693001
0.32181999 0.1105 0.19589999
0.31751001 0.097873002 0.19791999
0.32161 0.11164 0.19546001
0.27735999 0.14128 0.19009
0.2773 0.14046 0.19140001
0.27296999 0.13964 0.19250999
0.27214 0.13950001 0.19267
0.27305999 0.13868999 0.19366001
0.24260999 0.10984 0.22154
0.27302 0.13704 0.19625001
0.27269 0.124 0.20835
0.27408001 0.12374 0.20826
0.27426001 0.13039 0.20324001
0.27439001 0.12969001 0.20421
0.27555999 0.13087 0.20338
0.29547 0.15110999 0.18702
0.27581999 0.19417 0.20066001
0.30653 0.17217 0.17828999
0.27388999 0.19681001 0.19963001
0.27557001 0.19541 0.1998
0.29042 0.059615001 0.19709
0.24986 0.10957 0.22302
0.25020999 0.10832 0.22386999
0.2406 0.13846999 0.20197999
0.25084001 0.14138 0.19839001
0.24503 0.13976 0.19954
0.24484 0.13898 0.20027
0.31167001 0.050811 0.18966
0.31097999 0.050560001 0.19104999
0.31176999 0.050886001 0.18896
0.2236 0.11971 0.2097
0.22454999 0.12013 0.20995
0.22483 0.12105 0.20881
0.21942 0.13623001 0.19587
0.22871999 0.10659 0.21732999
0.2295 0.1068 0.2176
0.24649 0.11344 0.21898
0.24654 0.11253 0.22007
0.24737 0.11263 0.22034
0.2198 0.13079999 0.20175
0.22727001 0.12144 0.20915
0.22855 0.12069 0.21036001
0.22172999 0.13828 0.19544999
0.22296 0.13856 0.19532999
0.23177999 0.11994 0.21146999
0.23289999 0.11992 0.21083
0.27028999 0.14067 0.18985
0.27110001 0.13984001 0.19115999
0.23582999 0.14603999 0.1908
0.23668 0.14593001 0.19092
0.24363001 0.1234 0.20996
0.24374001 0.12206 0.21046001
0.2448 0.12337 0.21012001
0.26043001 0.20034 0.21529
0.22169 0.10554 0.21455
0.22115999 0.10532 0.21427999
0.22243001 0.10413 0.2149
0.26159 0.20077001 0.21436
0.25312001 0.10861 0.22398999
0.32030001 0.097750999 0.19484
0.32104999 0.099372998 0.19489001
0.32192001 0.10054 0.19475999
0.32212999 0.1024 0.19453
0.32233 0.10353 0.19485
0.32275999 0.10485 0.19471
0.32249999 0.10676 0.19481
0.32267001 0.10737 0.19454999
0.32264 0.1089 0.19459
0.32279 0.11019 0.19463
0.32240999 0.11164 0.19458
0.32194 0.11267 0.19459
0.27524999 0.1328 0.20151
0.27410001 0.13298 0.20146
0.27535999 0.13180999 0.20236
0.27410999 0.13191999 0.20242999
0.25 0.14432 0.1938
0.24974 0.14381 0.19483
0.25095999 0.14358 0.19486
0.25896999 0.13722999 0.19932
0.25804999 0.13753 0.19946
0.25891 0.13659 0.20073999
0.27513 0.12588 0.20630001
0.27496001 0.12457 0.20683999
0.25071999 0.11182 0.22127999
0.25064999 0.11106 0.22251
0.25165999 0.11205 0.22143
0.33565 0.13405 0.16892999
0.33579001 0.13552 0.16877
0.23830999 0.10503 0.22188
0.27853 0.19230001 0.19931
0.27733999 0.19318999 0.19995999
0.27704 0.19407 0.19929001
0.2201 0.12481 0.20550001
0.29139999 0.18095 0.19209
0.29155999 0.18241 0.19123
0.29091999 0.18222 0.19237
0.23617999 0.1453 0.1919
0.2462 0.10756 0.22327
0.24517 0.10627 0.22322001
0.23534 0.14534 0.19186001
0.23251 0.14553 0.19045
0.22767 0.12049 0.21021999
0.22747 0.11979 0.21139
0.23225001 0.14492001 0.19182
0.24735001 0.11361 0.21913999
0.24834 0.11298 0.22042
0.22344001 0.10392 0.21523
0.25196999 0.10849 0.22378001
0.25253999 0.10787 0.22409999
0.31994 0.096940003 0.19369
0.32143 0.097932003 0.19385999
0.32135001 0.097144 0.1935
0.32224 0.099055 0.1936
0.32258001 0.10101 0.19371
0.32312 0.10242 0.19340999
0.32311001 0.10381 0.19369
0.32304999 0.10486 0.19355001
0.32308 0.10639 0.19366001
0.32289001 0.10765 0.19371
0.32339001 0.10939 0.19389001
0.32358 0.11046 0.19349
0.32346001 0.11195 0.19372
0.32262 0.11317 0.19344001
0.32232001 0.11451 0.1938
0.23029999 0.13975 0.19859
0.22945 0.13954 0.19847
0.23063 0.13937999 0.19960999
0.27612001 0.12566 0.20575
0.25742999 0.13659 0.2009
0.27500001 0.12647 0.20524999
0.21461999 0.12221 0.20455
0.21362001 0.12176 0.20445
0.21482 0.12127 0.20544
0.33625999 0.13688 0.16854
0.28626001 0.10543 0.20857
0.23254 0.14408 0.19306
0.31273001 0.058936 0.18025
0.26010001 0.050772 0.20878001
0.30456999 0.061336 0.14877
0.21098 0.11619 0.20434999
0.21098 0.11472 0.20513999
0.2122 0.11516 0.20569
0.30642 0.17168 0.1803
0.28165001 0.19078 0.19708
0.28173 0.18938001 0.19819
0.28284001 0.18814 0.1979
0.28290999 0.18937001 0.19702999
0.28016999 0.19255 0.19729
0.23246001 0.14347 0.19403
0.23210999 0.14278001 0.1953
0.22671001 0.12809999 0.20613
0.22664 0.1265 0.20663001
0.25872001 0.19794001 0.21689001
0.25962999 0.19765 0.21617
0.27627 0.1339 0.20059
0.27721 0.134 0.20047
0.26653999 0.13861001 0.19595
0.26642001 0.13734999 0.19709
0.26778001 0.13761 0.19683
0.23231 0.1419 0.19652
0.23238 0.1409 0.19763
0.24618 0.13402 0.20536
0.24427 0.11238 0.22006001
0.24456 0.11106 0.2212
0.24529999 0.11247 0.22026999
0.29609001 0.055769 0.19657999
0.25470001 0.11446 0.2176
0.21355 0.12837 0.19945
0.2139 0.12891001 0.19983
0.21431001 0.12947001 0.19893999
0.25808999 0.13969 0.19605
0.25803 0.13888 0.19706
0.25808999 0.12672 0.20807999
0.25762999 0.12779 0.20733
0.25646001 0.12885 0.20722
0.25712001 0.12901001 0.20683999
0.25738999 0.13000999 0.20591
0.25916001 0.11424 0.21707
0.26008999 0.11359 0.21833999
0.26346999 0.11879 0.21133
0.30794001 0.061407 0.18561
0.30669001 0.061811998 0.18539999
0.30763 0.061252002 0.18644001
0.21936999 0.11602 0.20987999
0.22056 0.11541 0.21099
0.3231 0.099441998 0.19259
0.32381999 0.10091 0.19299001
0.32383001 0.10257 0.19261999
0.32372999 0.10382 0.19247
0.32394001 0.10496 0.19258
0.32356 0.10623 0.19277
0.32396001 0.1076 0.19246
0.32433999 0.10903 0.19249
0.32448 0.11044 0.1925
0.32398999 0.11165 0.19250999
0.32368001 0.11325 0.19227999
0.32301 0.11441 0.19266
0.32282001 0.11567 0.19261
0.22521 0.13052 0.20498
0.22661 0.12947001 0.20544
0.22949 0.13879 0.19957
0.25116 0.10866 0.22389001
0.26982 0.13379 0.20122001
0.26999 0.13267 0.20209999
0.27316001 0.14031 0.19081999
0.27432999 0.14002 0.19099
0.24946 0.13779999 0.20129
0.24925999 0.13693 0.20189001
0.27399001 0.13935 0.19235
0.33625999 0.13821 0.16884001
0.33633 0.13948999 0.16844
0.28586 0.18653999 0.19575
0.28369999 0.18978 0.19604
0.28244999 0.19089 0.19611999
0.24541999 0.11583 0.21416999
0.23231 0.14030001 0.19898
0.23229 0.13933 0.20031001
0.23237 0.13847999 0.20105
0.22477999 0.14112 0.19282
0.22499999 0.14194 0.19132
0.21466 0.11002 0.20991001
0.27821001 0.053812001 0.21703
0.21935 0.13372 0.19874001
0.21935 0.13471 0.19787
0.24524 0.12639 0.20915
0.24522001 0.12522 0.20982
0.26572999 0.051410001 0.21481
0.23237 0.13767 0.2022
0.25727999 0.10768 0.22459
0.23246001 0.13704 0.20316
0.24484 0.1101 0.22174001
0.24585 0.11017 0.22183999
0.24569 0.11134 0.22118001
0.20990001 0.12389 0.19915
0.2536 0.14436001 0.19128001
0.25342 0.14391001 0.19320001
0.25439 0.14387999 0.19255
0.24863 0.11357 0.21917
0.24372 0.14636999 0.19024999
0.26085001 0.11514 0.21396001
0.25940001 0.11498 0.21431001
0.26021999 0.11463 0.21525
0.25793999 0.12557 0.20909999
0.22668 0.13691001 0.19972
0.26019999 0.11398 0.21689001
0.32179001 0.098778002 0.19324
0.22664 0.10714 0.21610001
0.22697 0.10599 0.21652
0.32311001 0.098343 0.19174001
0.32381999 0.099431001 0.19154
0.26464 0.053252 0.21503
0.32424 0.1008 0.19162001
0.32438001 0.10222 0.19113
0.32459 0.10371 0.19154
0.32431 0.10504 0.19159999
0.32444999 0.10624 0.1918
0.3249 0.10771 0.19159999
0.32534999 0.10922 0.19187
0.32528999 0.11044 0.19151001
0.32515001 0.1117 0.19152001
0.32475999 0.11307 0.19158
0.32381001 0.11481 0.19137999
0.32337001 0.11616 0.19156
0.32293001 0.11776 0.19186001
0.26653001 0.14042 0.19189
0.23937 0.12835 0.20914
0.23808999 0.12706999 0.20942
0.23078001 0.11305 0.21360999
0.23221999 0.11321 0.21392
0.22956 0.13603 0.20254999
0.23064999 0.13527 0.20371
0.23073 0.13405 0.20442
0.23368999 0.11433 0.21328001
0.23345999 0.1158 0.2131
0.2376 0.13522001 0.20527001
0.30291 0.11659 0.20388
0.30405 0.11655 0.20352
0.30316001 0.1181 0.20385
0.28683001 0.18664999 0.19484
0.28577 0.1881 0.19506
0.28444001 0.18918 0.19502001
0.28317001 0.19096 0.1948
0.22011 0.051018 0.18368
0.22033 0.051268999 0.18572
0.26227 0.10977 0.22273999
0.24751 0.11204 0.22138999
0.22533999 0.11069 0.2138
0.22619 0.10954 0.2148
0.25771999 0.14274999 0.19141001
0.25935999 0.14268 0.19088
0.21578 0.10903 0.21039
0.21157999 0.11295 0.20533
0.21250001 0.11338 0.20579
0.24663 0.14356001 0.19498999
0.27959999 0.13204999 0.20219
0.25296 0.13255 0.20497
0.22483 0.10778 0.21502
0.22481 0.10623 0.21571
0.22558001 0.10678 0.21547
0.22583 0.14146 0.19389001
0.22661 0.14111 0.19434001
0.22673 0.14168 0.19313
0.23242 0.13567001 0.20395
0.23252 0.13481 0.20476
0.24567001 0.10912 0.22263999
0.22108001 0.13792001 0.19510999
0.25907001 0.11456 0.21568
0.25909001 0.13959 0.1954
0.26021001 0.13841 0.19645
0.26697999 0.12688001 0.20787001
0.26747999 0.1259 0.20873
0.26835001 0.12658 0.2077
0.32295999 0.096933998 0.19044
0.32359999 0.098063 0.19070999
0.32440001 0.099544004 0.19050001
0.32472 0.1011 0.19047
0.32482001 0.10226 0.1902
0.32497999 0.10373 0.19069
0.32506001 0.10502 0.19049001
0.32523 0.10652 0.19058
0.32598999 0.10779 0.19051
0.32635 0.10926 0.19027001
0.32624999 0.11056 0.19056
0.32589 0.1121 0.1904
0.32528001 0.11358 0.19070999
0.32464999 0.11437 0.19079
0.32455 0.11592 0.19075
0.3242 0.11713 0.19052
0.32405999 0.11862 0.1904
0.22967 0.13282999 0.20482001
0.23082 0.13323 0.20524999
0.27241001 0.14050999 0.18980999
0.21296 0.1079 0.20992
0.21219 0.10737 0.20939
0.21312 0.10621 0.21008
0.25470001 0.14511 0.18799999
0.25367999 0.14531 0.18842
0.26868999 0.13808 0.19541
0.26976001 0.1372 0.19662
0.26842999 0.1375 0.19687
0.26989999 0.13681 0.19774
0.2658 0.13366 0.20134
0.26795 0.14079 0.19016001
0.26909 0.13993999 0.19154
0.26517999 0.12801 0.20722
0.26607999 0.12772 0.20678
0.21292 0.12016 0.20491
0.21335 0.11873 0.20539001
0.21438999 0.11938 0.20589
0.25654 0.10481 0.22515
0.2069 0.11883 0.19988
0.25804001 0.13249999 0.20445
0.24349999 0.14069 0.19832
0.27757001 0.12984 0.20396
0.23278999 0.13348 0.20550001
0.23307 0.13218001 0.20579
0.23333 0.13098 0.20704
0.29104999 0.18554001 0.18735
0.28788 0.18504 0.19433001
0.28766 0.18662 0.19363999
0.28847 0.18542001 0.19357
0.28647 0.18816 0.19362999
0.28538001 0.18949001 0.19362999
0.23265 0.11713 0.21265
0.33471 0.13153 0.16866
0.33550999 0.13266 0.16857
0.21218 0.12879001 0.19822
0.21254 0.12761 0.19888
0.21311 0.12926 0.19837999
0.24676 0.14081 0.19802999
0.24784 0.14076 0.19799
0.24566001 0.11388 0.21763
0.24536 0.11328 0.21885
0.24440999 0.11314 0.21886
0.29793 0.072748996 0.19171
0.29745001 0.074161001 0.19242001
0.29960001 0.075615004 0.19018
0.29982001 0.075995997 0.18915001
0.29859999 0.076901004 0.19215
0.26462001 0.10767 0.22423001
0.26572999 0.1077 0.22390001
0.27125001 0.12728 0.20625
0.27031001 0.1275 0.20636
0.2445 0.12511 0.20935
0.23322999 0.13008 0.2079
0.24999 0.11076 0.22218999
0.23326001 0.12906 0.20827
0.26506999 0.11432 0.21272001
0.22232001 0.11697 0.21085
0.22326 0.11646 0.21176
0.31878 0.089790002 0.19123
0.31788999 0.090079002 0.19182
0.32008001 0.091444001 0.19140001
0.32235 0.092773996 0.18966
0.32315999 0.095648997 0.18960001
0.29984999 0.060150001 0.19254
0.32361999 0.096681997 0.18952
0.32444999 0.098111004 0.18943
0.32466999 0.099679001 0.18926001
0.32521001 0.10089 0.1894
0.32578 0.1024 0.18951
0.32556999 0.10372 0.18961
0.32606 0.10502 0.18931
0.32675999 0.10674 0.18956999
0.32690001 0.10784 0.18934999
0.32679999 0.10922 0.18934999
0.32690999 0.11067 0.18932
0.32633999 0.11209 0.18935999
0.32598999 0.11335 0.18925001
0.32561001 0.11484 0.18951
0.32556999 0.11596 0.18932
0.32499999 0.11755 0.18934
0.32492 0.11862 0.1895
0.32427999 0.12011 0.18944
0.32359999 0.1215 0.18982001
0.32280001 0.12267 0.18988
0.32067999 0.12657 0.18983001
0.26857999 0.13666999 0.1981
0.26876 0.13609999 0.19923
0.26993001 0.13564 0.19914
0.31909001 0.13034999 0.18962
0.31915 0.12958001 0.1902
0.22272 0.11982 0.20958
0.22352999 0.1211 0.20884
0.22876 0.12714 0.20697001
0.23001 0.12599 0.20768
0.26567 0.13835999 0.19622
0.26596999 0.12882 0.20640001
0.26578999 0.13045999 0.20546
0.26451999 0.13172001 0.20479999
0.26464 0.13049001 0.20562001
0.26571 0.13129 0.20469999
0.26552999 0.13209 0.20374
0.26449999 0.13259999 0.20400999
0.26456001 0.13483 0.20051999
0.22759999 0.13742 0.19998001
0.26451001 0.13398001 0.20175
0.26456001 0.13339999 0.20294
0.26576 0.13307001 0.20224001
0.21348 0.12376 0.20306
0.21349999 0.12285 0.20358001
0.21454 0.12432 0.20307
0.26019999 0.14229 0.19078
0.26354 0.11698 0.21178
0.26413 0.11528 0.212
0.26482999 0.11705 0.21164
0.26030999 0.11834 0.21151
0.25977001 0.12007 0.21141
0.27733001 0.13974001 0.19225
0.22826 0.13778999 0.20052999
0.22852001 0.13841 0.19946
0.26778001 0.1416 0.18779001
0.26921999 0.14094 0.18836001
0.22181 0.12784 0.20424999
0.22171 0.12657 0.20492999
0.22301 0.12710001 0.20509
0.25711 0.10918 0.22397
0.2164 0.1107 0.21067999
0.22268 0.12820999 0.20453
0.25069001 0.11636 0.21363001
0.26835999 0.051525 0.21546
0.26756999 0.053429 0.21566001
0.26672 0.053286001 0.21555001
0.28940001 0.18511 0.19231001
0.28854001 0.18651 0.1926
0.28726 0.18815 0.19258
0.28591999 0.18946999 0.19272
0.26967001 0.053468 0.21591
0.24799 0.12829 0.20906
0.24698 0.1283 0.20872
0.24773 0.12741999 0.20982
0.33238 0.10695 0.17086001
0.29791 0.064572997 0.19148999
0.29874 0.065874003 0.19047
0.23859 0.14672001 0.18914001
0.2387 0.1462 0.19093999
0.23966999 0.14589 0.19069999
0.27406999 0.05469 0.21644001
0.29824001 0.068490997 0.19034
0.21392 0.13403 0.193
0.21391 0.13311 0.19445001
0.21495 0.13336 0.19496
0.29840001 0.071540996 0.19028001
0.29887 0.072999999 0.19024
0.29877999 0.074461997 0.19013999
0.24879 0.13144 0.20638999
0.24882001 0.13079 0.20708001
0.28154999 0.063651003 0.21019
0.28112999 0.062866002 0.21153
0.28238001 0.062537998 0.21099
0.2437 0.14249 0.19634999
0.25606 0.11208 0.22103
0.27871001 0.12969001 0.20372
0.25049001 0.13602 0.20254999
0.27377999 0.12713 0.20533
0.27491999 0.12779 0.20477
0.32078999 0.089585997 0.18897
0.32192999 0.091271996 0.18862
0.32291999 0.092597 0.18846001
0.32341999 0.093769997 0.18871
0.32416999 0.095527001 0.18833999
0.32446 0.096949004 0.18831
0.32512 0.098017998 0.18848
0.32565001 0.099725001 0.18854
0.32618999 0.10097 0.18851
0.32664001 0.10245 0.18846001
0.32666999 0.10391 0.18855999
0.32679999 0.10522 0.18826
0.32784 0.10659 0.18843
0.32793999 0.10796 0.18805
0.32778999 0.10906 0.18826
0.32745999 0.11058 0.18806
0.32721999 0.11202 0.18802001
0.32646999 0.11325 0.18838
0.32688001 0.11494 0.18832999
0.32666999 0.11587 0.18844999
0.32615 0.11733 0.1884
0.32580999 0.11874 0.18843
0.32484001 0.11999 0.18851
0.32471001 0.12157 0.18843
0.32390001 0.1231 0.18872
0.32325 0.12376 0.18853
0.32211 0.12427 0.18987
0.32253 0.12546 0.18855
0.32126001 0.12681 0.18869001
0.32060999 0.12816 0.18893
0.31988999 0.12801 0.18971001
0.22917999 0.12994 0.20622
0.26661 0.13935 0.19453999
0.26534 0.13923 0.19489001
0.26582 0.12657 0.20784
0.26567999 0.13774 0.19716001
0.26657 0.13685 0.19840001
0.26530001 0.13694 0.1982
0.26692 0.13015001 0.20525999
0.26657 0.13102999 0.20435999
0.26615 0.11421 0.21231
0.26694 0.11524 0.21167
0.26736999 0.11381 0.21212
0.26743001 0.11312 0.21347
0.26377001 0.11398 0.21427999
0.26495001 0.11387 0.21425
0.23295 0.1125 0.21506
0.23202001 0.11199 0.21501
0.23292001 0.11155 0.21619
0.21378 0.12069 0.2052
0.21489 0.11989 0.20619
0.25604001 0.10893 0.22394
0.25690001 0.10989 0.22288001
0.25974 0.13016 0.20587
0.22109 0.078089997 0.21502
0.26269001 0.10798 0.22431
0.21507999 0.11861 0.20675001
0.21438999 0.11793 0.20631
0.25769001 0.10601 0.22488999
0.21608999 0.11185 0.20987
0.22165 0.10843 0.21381
0.22161999 0.10699 0.21399
0.22257 0.10744 0.21431001
0.2481 0.14636 0.18955
0.27614 0.14036 0.19086
0.26241001 0.10913 0.22371
0.26043001 0.13113999 0.20502999
0.27421999 0.12626 0.20623
0.29080001 0.18413 0.191
0.29012999 0.18531001 0.19141001
0.25595999 0.14472 0.18764
0.31057999 0.057379 0.18934999
0.30987999 0.058669999 0.18819
0.22244 0.075935997 0.21622001
0.30144 0.063353002 0.18882
0.30008999 0.064722002 0.189
0.29925001 0.064251997 0.19035999
0.30011001 0.063189998 0.19013
0.29967001 0.065796003 0.18931
0.21616 0.099651001 0.21189
0.21600001 0.098562002 0.21143
0.21657 0.098517001 0.21196
0.29905 0.067280002 0.18917
0.29898 0.068783998 0.18916
0.29859999 0.067151003 0.19028001
0.29886001 0.069936998 0.18931
0.29890001 0.071520999 0.18926001
0.29899999 0.072889 0.18934999
0.29936001 0.074157998 0.18917
0.30017999 0.075909004 0.18832
0.21794 0.11127 0.21126001
0.21709 0.11116 0.21080001
0.21821 0.11003 0.21175
0.23762 0.14670999 0.18933
0.23763999 0.14591999 0.19083001
0.29778001 0.051890999 0.19715001
0.2563 0.12163 0.21111999
0.31358001 0.085671 0.18965
0.31287 0.085565999 0.19042
0.31276 0.084558003 0.18935999
0.27333 0.12978999 0.20396
0.31411001 0.085069999 0.18821
0.31485 0.086124003 0.18948001
0.31584001 0.086976998 0.18995
0.31964001 0.088274002 0.18802001
0.32122999 0.089823999 0.18776999
0.32269001 0.091389 0.18772
0.32376 0.092835002 0.18762
0.32396999 0.094215997 0.18722001
0.32469001 0.095641002 0.18761
0.32532001 0.096923999 0.18739
0.32565999 0.098428003 0.1874
0.32652 0.099808998 0.18737
0.32686999 0.10113 0.18762
0.32736999 0.10266 0.18737
0.32764 0.10361 0.18719
0.32782999 0.10514 0.18724
0.32828 0.10646 0.18712001
0.32842001 0.10844 0.18738
0.32833999 0.10916 0.1873
0.32809001 0.11081 0.18708
0.32754999 0.11197 0.18722001
0.32742 0.11326 0.18718
0.32732001 0.11463 0.18722001
0.32743999 0.11623 0.18734001
0.32688999 0.11757 0.18745001
0.32646 0.1189 0.18743999
0.32572001 0.11993 0.18735
0.32530999 0.12147 0.18756001
0.3247 0.12277 0.1876
0.32396999 0.12402 0.18753999
0.32341999 0.12546 0.18748
0.32214999 0.1267 0.18765999
0.32109001 0.12815 0.18807
0.26802999 0.14142001 0.18904001
0.26886001 0.14042 0.18991999
0.26771 0.13919 0.19476999
0.26864001 0.13869999 0.19415
0.22269 0.12163 0.20767
0.22305 0.12074 0.20875999
0.22347 0.12209 0.20773
0.26262999 0.11417 0.21507999
0.26367 0.11348 0.21595
0.22123 0.10995 0.21317001
0.22032 0.10959 0.21242
0.26710999 0.12883 0.20634
0.20353 0.11178 0.19837999
0.26631001 0.1133 0.21389
0.26488999 0.1133 0.21578
0.26320001 0.1128 0.21772
0.26456001 0.11286 0.21729
0.27335 0.053036001 0.21638
0.2615 0.11475 0.21367
0.22301 0.13600001 0.19896001
0.24893001 0.11684 0.21261001
0.28128001 0.060010999 0.2148
0.24834 0.13590001 0.20272
0.2613 0.13373999 0.20342
0.26238 0.13366 0.20333
0.25832 0.14436001 0.18695
0.25962001 0.1436 0.18804
0.25578001 0.11376 0.21908
0.20908999 0.12457 0.19756
0.20894 0.12556 0.19674
0.29269999 0.18256 0.1903
0.29166001 0.18393999 0.19034
0.29056001 0.18528999 0.19036999
0.28918001 0.1866 0.19059999
0.25404999 0.12867001 0.20874999
0.26767999 0.13847999 0.19568001
0.22938 0.14120001 0.19615
0.30886999 0.060187999 0.18762
0.30195999 0.063335001 0.18797
0.30081999 0.064871997 0.18814
0.29993999 0.066090003 0.18821999
0.29951 0.067406997 0.18828
0.29938 0.068769999 0.18814
0.29929999 0.070061997 0.18844999
0.29962 0.071379997 0.18817
0.29949999 0.072673999 0.18833999
0.29973 0.074386999 0.18815
0.23634 0.1184 0.21111
0.25134999 0.13627 0.20294
0.31338999 0.083590001 0.18715
0.315 0.085331999 0.18731
0.31709 0.086962 0.18708999
0.32009 0.088481002 0.18701001
0.32185999 0.089941002 0.1867
0.32348999 0.091334 0.18644001
0.32431999 0.092444003 0.18640999
0.32438001 0.094273001 0.18661
0.32495001 0.095616996 0.18669
0.32503 0.096882001 0.18624
0.32653999 0.098476 0.18622001
0.32745999 0.099767998 0.18619999
0.32771999 0.10136 0.18610001
0.32791999 0.10261 0.18621001
0.32841 0.10382 0.18626
0.32817 0.10531 0.18622001
0.32878 0.10676 0.18629
0.32899001 0.10789 0.18618
0.32881999 0.10965 0.18618
0.32883 0.11055 0.18625
0.32837999 0.1122 0.18629999
0.32798001 0.11347 0.18627
0.32778001 0.11494 0.18612
0.32786 0.11629 0.18627
0.32752001 0.1177 0.18625
0.32712999 0.11871 0.18645
0.32641 0.12013 0.18628
0.32600999 0.12139 0.18649
0.32543001 0.12298 0.18663999
0.32482001 0.12434 0.18663
0.32433 0.12529001 0.18672
0.32317001 0.12668 0.18652999
0.32275999 0.12842999 0.18577
0.26887 0.1348 0.2001
0.26973 0.13508999 0.19987001
0.2129 0.13016 0.19723
0.21404999 0.13065 0.19791999
0.24359 0.11568 0.21356
0.23124 0.1236 0.20877001
0.23146001 0.12202 0.20936
0.23249 0.12358 0.20879
0.21981999 0.1283 0.20294
0.26539001 0.12 0.21063
0.26399001 0.11991 0.2111
0.26436999 0.11853 0.21100999
0.26345 0.11162 0.22018
0.30112001 0.15202001 0.18977
0.30116001 0.15099999 0.19001999
0.30239999 0.15088999 0.19044
0.22391 0.1348 0.20121001
0.22277001 0.13433 0.20111001
0.22397999 0.13343 0.20231
0.27643999 0.053397 0.21693
0.23882 0.13309 0.20683999
0.23972 0.1346 0.20611
0.20429 0.11124 0.19972
0.20467 0.11014 0.20067
0.26835999 0.12784 0.20659
0.26952001 0.12762 0.20654
0.24853 0.11779 0.21160001
0.32361001 0.15696999 0.18674999
0.32332 0.15843999 0.18675999
0.32282999 0.15712 0.18776
0.32260999 0.15999 0.18697
0.32224 0.1587 0.18779001
0.30340999 0.062673002 0.1497
0.2357 0.1157 0.21228001
0.29311001 0.18263 0.18933
0.29392999 0.18080001 0.18884
0.29221001 0.18369 0.18938001
0.29100001 0.18501 0.18927
0.23559 0.11731 0.21217
0.23560999 0.11486 0.21322
0.30983999 0.0601 0.18651
0.30473 0.062174998 0.18674999
0.30250999 0.063546002 0.18686999
0.30116999 0.064753003 0.18708999
0.30063 0.066118002 0.18701001
0.30013999 0.067578003 0.18708999
0.29995999 0.068603002 0.18708999
0.29976001 0.070265003 0.18706
0.29976001 0.071603 0.18728
0.29949999 0.072995 0.18735
0.29988 0.074322999 0.18723001
0.23554 0.11394 0.21439999
0.31143999 0.080955997 0.18639
0.31308001 0.082353003 0.18645
0.31424999 0.083948001 0.18651
0.31551999 0.085148998 0.18629
0.31779999 0.087085001 0.1858
0.32063001 0.088345997 0.18572
0.32238001 0.089800999 0.18562999
0.32361999 0.091849998 0.18533
0.32460001 0.092997998 0.18556
0.32494 0.094293997 0.18548
0.32547 0.095728002 0.18550999
0.32600001 0.097042002 0.18528999
0.32666999 0.098444 0.18543001
0.32778999 0.099817 0.18514
0.32861999 0.10139 0.18525
0.32879001 0.10259 0.18504
0.32889 0.1036 0.18498001
0.32885 0.10515 0.18515
0.32912001 0.10681 0.18505
0.32916999 0.10811 0.18550999
0.32898 0.10962 0.18516999
0.32894999 0.11093 0.18522
0.32886001 0.11202 0.18506999
0.32835999 0.11357 0.18503
0.32850999 0.11498 0.18539
0.32822001 0.11633 0.18520001
0.32804999 0.11737 0.18539999
0.32751 0.11881 0.18544
0.32721001 0.12037 0.18527
0.32686001 0.12137 0.18535
0.32620001 0.12268 0.18529999
0.32552999 0.12439 0.18538
0.32460001 0.12557 0.18527
0.32401001 0.12650999 0.1857
0.32347 0.12813 0.18464001
0.26028001 0.14169 0.19203
0.28174001 0.053514 0.21657
0.26925001 0.13303 0.20181
0.26883 0.13372 0.20077001
0.22103 0.11073 0.21244
0.22017001 0.11066 0.21229
0.22961 0.14414001 0.19126999
0.23071 0.14444 0.19145
0.23057 0.14512999 0.19016001
0.21534 0.13308001 0.19623999
0.21679001 0.13330001 0.19661
0.21656001 0.13432001 0.19548
0.21789999 0.11425 0.21001001
0.21699999 0.1135 0.20957001
0.21781 0.11293 0.21044999
0.27125999 0.13045 0.20297
0.2721 0.13175 0.20272
0.21579 0.13025001 0.19943
0.21675 0.13071001 0.19959
0.21686 0.13153 0.19879
0.26717001 0.1127 0.21491
0.21245 0.11219 0.20626
0.21589001 0.11466 0.20826
0.21568 0.11309 0.20892
0.2606 0.11535 0.21247
0.23027 0.10846 0.21696
0.23119999 0.10888 0.21742
0.32493001 0.15710001 0.18561
0.32398 0.15875 0.18561999
0.32347 0.16021 0.18569
0.30057001 0.075875998 0.186
0.29633999 0.17818999 0.18787999
0.29539999 0.17941999 0.18806
0.2947 0.18114001 0.18837
0.29367 0.18241 0.1882
0.29245999 0.1839 0.18824001
0.29108 0.18517999 0.18829
0.27614999 0.064934999 0.21098
0.32194999 0.097274996 0.19237
0.23558 0.11308 0.21575999
0.23563001 0.11215 0.21664999
0.31018001 0.060121 0.18526
0.30882001 0.06171 0.18437
0.30292001 0.063826002 0.18607
0.21626 0.092765003 0.21343
0.30164999 0.064680003 0.18584999
0.30105999 0.066159002 0.18628
0.30045 0.067434996 0.18611
0.30057001 0.069181003 0.18606
0.30008 0.070368998 0.18602
0.29998001 0.071676001 0.18604
0.30006999 0.072935 0.18618
0.30024001 0.074656002 0.18605
0.301 0.075705998 0.18504
0.30177999 0.076661997 0.18532
0.31014001 0.079596996 0.18536
0.31217 0.081 0.1855
0.3136 0.082438 0.18538
0.31507999 0.083938003 0.185
0.31654999 0.085419998 0.185
0.31856 0.087001003 0.18506999
0.32089999 0.088496998 0.18456
0.32247001 0.090194002 0.18450999
0.32368001 0.091916002 0.18437
0.32429999 0.092648 0.18436
0.32558 0.094120003 0.18444
0.32559001 0.096087001 0.18442
0.32620001 0.096856996 0.18434
0.32672 0.098585002 0.18424
0.32799 0.099783003 0.18419001
0.32879001 0.10157 0.18395001
0.32896999 0.1026 0.18415999
0.32914999 0.10372 0.18413
0.3292 0.10537 0.18421
0.3294 0.10655 0.18404999
0.32934001 0.10811 0.18436
0.32933 0.1094 0.184
0.32927001 0.11062 0.18413
0.32899001 0.11198 0.18415999
0.32912001 0.11351 0.18429001
0.32868001 0.11474 0.18413
0.32859999 0.116 0.18429001
0.32800001 0.11752 0.18426
0.32804 0.11895 0.18414
0.32754999 0.12009 0.18429001
0.32729 0.12172 0.18424
0.32681 0.12317 0.18415
0.32611999 0.12415 0.18448
0.3256 0.12569 0.18440001
0.32455 0.12695 0.18469
0.25049999 0.11349 0.22013
0.25174001 0.11293 0.22036999
0.24661 0.11444 0.21791001
0.23285 0.11058 0.21719
0.23379 0.11105 0.2172
0.23388 0.11202 0.21641999
0.27032 0.12853999 0.20536999
0.20761 0.10494 0.20697001
0.32879999 0.13753 0.18554001
0.32923001 0.13812 0.18525
0.32890001 0.1389 0.1859
0.22063001 0.10794 0.21348
0.33065 0.13817 0.18438999
0.33107001 0.13936999 0.18432
0.32885 0.14345001 0.18591
0.33037001 0.14351 0.18429001
0.26598001 0.11293 0.21535
0.26581001 0.1126 0.21691
0.26690999 0.11254 0.21683
0.26080999 0.1437 0.18636
0.28033999 0.12583999 0.20596001
0.32543999 0.15576001 0.18450999
0.32495001 0.15456 0.18595
0.32495001 0.15730999 0.18459
0.32453001 0.15842 0.18458
0.32420999 0.16006 0.185
0.32398999 0.16147 0.18479
0.29618999 0.17952999 0.18691
0.29707 0.17812 0.18692
0.29482999 0.18088999 0.18720999
0.29401001 0.18235999 0.18709999
0.29269999 0.18396001 0.18717
0.31107 0.058752999 0.18516
0.2229 0.13674 0.19823
0.31310001 0.057546001 0.18416999
0.31305999 0.056134 0.18503
0.31207001 0.058954999 0.18429001
0.31072 0.059811 0.18435
0.30971 0.061239999 0.18302999
0.3035 0.063476004 0.18483
0.30555001 0.062385999 0.18566
0.30221 0.064866997 0.18516999
0.30136999 0.066252001 0.18514
0.30087 0.067694001 0.18478
0.30057999 0.068912998 0.18534
0.30074 0.07034 0.18516999
0.30024999 0.071764 0.18514
0.30026999 0.073132999 0.18512
0.30068001 0.074193999 0.18494999
0.31018999 0.079441004 0.18418001
0.31301999 0.081146002 0.18425
0.31448999 0.082335003 0.18409
0.31601 0.084037997 0.18412
0.31781 0.085460998 0.18392999
0.32466999 0.093007997 0.18353
0.32554001 0.094466001 0.18341
0.32598999 0.095926002 0.18323
0.32644001 0.097144999 0.18332
0.32695001 0.098301001 0.18311
0.32804 0.099918 0.18322
0.32896 0.1013 0.18303999
0.32967001 0.10258 0.18313
0.32949999 0.1039 0.1833
0.32968 0.1054 0.18302
0.32933 0.10674 0.18307
0.32936999 0.10809 0.18313
0.32927001 0.10946 0.18316001
0.32957 0.11094 0.18305001
0.32947001 0.11222 0.18323
0.32933 0.11359 0.1832
0.32898 0.11479 0.18331
0.32890001 0.11622 0.18325999
0.32872 0.1177 0.18336
0.32819 0.11901 0.18322
0.32811001 0.12031 0.18316001
0.32760999 0.12156 0.18307
0.32710999 0.12294 0.1832
0.32602999 0.12416 0.18353
0.32611001 0.12543 0.18345
0.32527 0.12691 0.18336999
0.27322999 0.13541999 0.19842
0.27314001 0.13492 0.19958
0.27405 0.13507999 0.19960999
0.27309999 0.13389 0.20097999
0.27410001 0.13361999 0.2007
0.27418 0.13573 0.19829001
0.26660001 0.13997 0.19358
0.27070001 0.1358 0.1989
0.27070999 0.13472 0.19984999
0.27127001 0.12913001 0.2043
0.27019 0.12946001 0.20427001
0.27164999 0.12835 0.20486
0.32979 0.13683 0.18449999
0.33074999 0.13665 0.18311
0.33087999 0.13809 0.18313
0.3312 0.13950001 0.18325
0.33136001 0.14050999 0.18319
0.33113 0.14203 0.18334
0.33083001 0.14364 0.18317001
0.33065 0.14495 0.18331
0.33024001 0.14618 0.18289
0.32971999 0.1478 0.1833
0.32914999 0.14912 0.1833
0.26192999 0.14382 0.1859
0.32572001 0.15579 0.18356
0.32611999 0.15457 0.18353
0.32569 0.15717 0.18364
0.32523999 0.15875 0.18348999
0.32446 0.15990999 0.18391
0.32449999 0.16143 0.18382999
0.32482001 0.16281 0.18346
0.32363001 0.16259 0.1849
0.32409 0.16422001 0.18374
0.29692 0.17686 0.18785
0.29750001 0.17678 0.18686
0.29769 0.17803 0.18593
0.29855999 0.17689 0.1855
0.29675001 0.17972 0.18585999
0.29543 0.18087 0.18636
0.29398 0.18226001 0.18604
0.29258001 0.18379 0.18638
0.31264001 0.05886 0.18305001
0.31126001 0.060545001 0.18321
0.31011999 0.061590999 0.18233
0.30822 0.061808001 0.18336999
0.30418 0.063642003 0.18358
0.30641001 0.062346999 0.18441001
0.30204999 0.065012999 0.18374
0.30136001 0.066193998 0.18392
0.30107999 0.067504004 0.1839
0.30083001 0.069039002 0.18418001
0.30059001 0.070449002 0.18374
0.30046001 0.071726002 0.18388
0.30067 0.073105 0.18435
0.301 0.074313 0.18406001
0.30102 0.075802997 0.18391
0.31321001 0.081129998 0.18327001
0.31522 0.082787998 0.18286
0.31705999 0.083903998 0.18306001
0.31845999 0.085775003 0.18256
0.32528001 0.092903003 0.18218
0.32606 0.094578996 0.18231
0.3265 0.095830999 0.18215001
0.32649001 0.096887 0.18217
0.32831001 0.10006 0.18232
0.32943001 0.10102 0.18199
0.32997999 0.10272 0.18206
0.33017999 0.1041 0.18188
0.32969999 0.10555 0.18200999
0.32934999 0.10678 0.18222
0.32949001 0.10806 0.18208
0.32956001 0.10946 0.18209
0.32973999 0.11091 0.18179999
0.32953 0.11213 0.18227001
0.32958001 0.1137 0.18212999
0.32947001 0.11511 0.18189
0.32934999 0.11627 0.18223
0.32898 0.11774 0.18198
0.32864001 0.11888 0.18205
0.32848001 0.12034 0.18216
0.32786 0.12131 0.18268
0.32732999 0.12298 0.1821
0.32639 0.12446 0.18246
0.32640001 0.12578 0.18233
0.32596999 0.12707999 0.1824
0.32571 0.12838 0.18246999
0.32811999 0.13138001 0.18215001
0.32771 0.13298 0.18396001
0.32903999 0.13259999 0.18222
0.32969001 0.13391 0.18229
0.33072001 0.13538 0.18217
0.32971001 0.13587999 0.18419001
0.33142 0.13674 0.18215001
0.3317 0.13819 0.18195
0.33188 0.13965 0.18209
0.33153 0.14083999 0.18233
0.33166999 0.14216 0.18233
0.33166 0.14353999 0.18227001
0.33074999 0.145 0.18187
0.33070001 0.14628001 0.18190999
0.33034 0.14752001 0.18228
0.32967001 0.1488 0.18213999
0.32909 0.15045001 0.18222
0.32896999 0.15173 0.1823
0.32753 0.15458 0.18245
0.32668999 0.15355 0.18344
0.21456 0.12325 0.20377
0.32688001 0.15593 0.18253
0.32666999 0.15527 0.18279999
0.32596999 0.15723 0.18268
0.32550001 0.15881 0.18258999
0.32572001 0.16003001 0.18275
0.32545 0.16133 0.18285
0.32510999 0.1626 0.18256
0.32475999 0.16438 0.18280999
0.32385001 0.16552 0.18288
0.32348999 0.16543999 0.18391
0.32368001 0.16689 0.18296
0.32286999 0.16705 0.18396001
0.29910001 0.17659 0.18461999
0.29815999 0.17804 0.18481
0.29716 0.1797 0.18471
0.29563999 0.18096 0.18479
0.29394001 0.18239 0.18516999
0.31185001 0.060233001 0.18212
0.26210999 0.051210999 0.20750999
0.26280999 0.052018002 0.20649
0.30483001 0.063409999 0.18255
0.30711001 0.062505998 0.18357
0.30225 0.064925998 0.18298
0.30188999 0.066218004 0.18307
0.30092999 0.067633003 0.18308
0.30096 0.068795003 0.18299
0.3008 0.070418 0.183
0.30041999 0.071710996 0.18301
0.30052 0.073250003 0.18327001
0.30072999 0.074804001 0.18303999
0.23316 0.054304998 0.21202999
0.31580999 0.082684003 0.18217
0.31485 0.081605002 0.18174
0.31772 0.084200002 0.18201999
0.32148999 0.088845998 0.18167999
0.32291001 0.090171002 0.18156999
0.32225001 0.090306997 0.18229
0.32113001 0.088482 0.18257
0.32554001 0.093083002 0.18126
0.32648 0.094350003 0.18134999
0.32659999 0.095669001 0.18111999
0.32674 0.097116999 0.18126
0.32861 0.099873997 0.18138
0.32956001 0.10135 0.18116
0.33006001 0.10317 0.18103001
0.33037999 0.10431 0.18102001
0.33048999 0.10544 0.18098
0.33006001 0.10682 0.18113001
0.32975999 0.10844 0.18116
0.32921001 0.10935 0.18084
0.32966 0.11068 0.18131
0.33006001 0.1124 0.18071
0.33002001 0.11358 0.18083
0.33002001 0.115 0.18119
0.32982999 0.11642 0.18109
0.32927999 0.11775 0.18108
0.32896999 0.11892 0.18121
0.32874 0.12041 0.18141
0.32844001 0.12149 0.18138
0.32799 0.12306 0.18137001
0.32756999 0.12428 0.18097
0.32672 0.1259 0.18143
0.32659 0.12711 0.1814
0.32686999 0.12830999 0.18151
0.32743001 0.13004 0.18155999
0.32870999 0.13119 0.18128
0.32964 0.13247 0.18137001
0.33019999 0.13412 0.18128
0.33118001 0.13558 0.18105
0.3321 0.13663 0.18107
0.33205 0.13815001 0.1811
0.33186001 0.1397 0.18097
0.33203 0.14057 0.18099999
0.33199999 0.14234 0.18124001
0.33188999 0.14357001 0.18098
0.33164999 0.14499 0.18119
0.33112001 0.14631 0.18100999
0.33063 0.14771 0.18100999
0.33045 0.14915 0.18115
0.33022001 0.15068001 0.18124001
0.32945001 0.15183 0.1812
0.32925001 0.15321 0.1813
0.32903999 0.15421 0.18131
0.32797 0.15594 0.18144999
0.32710999 0.15708999 0.18144
0.32628 0.15887 0.18163
0.32600999 0.16005 0.18165
0.32604 0.16134 0.18174
0.32580999 0.16272999 0.18178999
0.32532999 0.16430999 0.18173
0.32462999 0.16566999 0.18167
0.32437 0.16685 0.18162
0.32343 0.16841 0.18194
0.29962999 0.17655 0.1837
0.29982999 0.17535 0.18458
0.29811999 0.17842001 0.18404999
0.29686001 0.17978001 0.1839
0.29508999 0.18073 0.18407001
0.31215 0.060401 0.18110999
0.31040999 0.061530001 0.18111999
0.30805001 0.062765002 0.18122
0.30770999 0.062614001 0.18232
0.30543 0.063973002 0.18161
0.30217001 0.065159999 0.18172
0.30168 0.066192999 0.18196
0.30138001 0.067713 0.18216
0.30077001 0.069137998 0.18215001
0.30063 0.070427999 0.18222
0.30063 0.071828999 0.18207
0.30063999 0.073284 0.18204001
0.30103001 0.074619003 0.18208
0.30191001 0.075690001 0.18303999
0.26137 0.050882 0.20852999
0.31735 0.083981 0.18181001
0.32506999 0.091557004 0.18038
0.32609001 0.093231 0.18031999
0.32695001 0.094550997 0.18029
0.32725999 0.095764004 0.1805
0.32721999 0.097180001 0.18041
0.33008 0.10135 0.18004
0.33033001 0.10264 0.18016
0.33058 0.10433 0.17998999
0.33094001 0.10545 0.17985
0.33046001 0.10663 0.18005
0.33002999 0.10842 0.18008
0.32949999 0.10963 0.17996
0.33008999 0.11119 0.1802
0.33035001 0.11229 0.18027
0.33047 0.11366 0.17992
0.33026001 0.11515 0.18007
0.32993999 0.11632 0.17997999
0.32957 0.11769 0.1803
0.32925001 0.11927 0.18020999
0.32934001 0.12046 0.18027
0.32867 0.12182 0.18059
0.32832 0.12295 0.1803
0.32778001 0.12455 0.18038
0.3272 0.12571 0.18041
0.32692999 0.12705 0.18031999
0.32754999 0.12853999 0.18055999
0.32865 0.12999 0.18018
0.32956001 0.13124999 0.18019
0.33041999 0.13246 0.18041
0.33171999 0.13392 0.18014
0.33206999 0.13527 0.17994
0.33241001 0.13683 0.17997
0.33228001 0.13835 0.17992
0.33237001 0.13950001 0.17969
0.33232 0.14102 0.18001001
0.33221 0.14222001 0.18010999
0.33212 0.14353999 0.18031999
0.33184999 0.14480001 0.18002
0.33171999 0.14611 0.18000001
0.33180001 0.14775001 0.18003
0.33129001 0.14905 0.18034001
0.33107001 0.1507 0.18039
0.33012 0.15202001 0.1803
0.32973999 0.1531 0.18028
0.32947001 0.15468 0.18054
0.32911 0.15598001 0.18024001
0.32824001 0.15734001 0.18048
0.32696 0.15869001 0.1806
0.32620001 0.15995 0.18042
0.32659999 0.16133 0.18066999
0.32641 0.16297001 0.18058001
0.32583001 0.16428 0.18066999
0.32556 0.16561 0.18046001
0.32545999 0.16688 0.18107
0.32436001 0.16852 0.18085
0.22073001 0.10421 0.21413
0.29866001 0.17828999 0.18272001
0.26519999 0.11842 0.21108
0.31077999 0.061675001 0.18017
0.30862999 0.062962003 0.1803
0.30566999 0.063681997 0.18085
0.30227 0.065102004 0.18098
0.30160001 0.066163003 0.18076
0.30092999 0.068008997 0.18116
0.30313 0.096888997 0.20480999
0.32426 0.090141997 0.17941
0.32541001 0.091542996 0.1795
0.32655001 0.092872001 0.17925
0.32738 0.094466001 0.17946
0.32763001 0.096088998 0.17930999
0.32749999 0.097344004 0.17928
0.33024001 0.10145 0.17892
0.33098999 0.10315 0.17905
0.33113 0.1039 0.17903
0.33109 0.10569 0.17897999
0.33094001 0.10688 0.17900001
0.33059999 0.10815 0.17892
0.33026999 0.10958 0.17922001
0.33081999 0.11104 0.17924
0.33094999 0.11247 0.17891
0.33090001 0.11374 0.17903
0.33041 0.115 0.17918999
0.33000001 0.11657 0.17896
0.32982999 0.11762 0.17894
0.32958001 0.11892 0.17927
0.32940999 0.1202 0.17942999
0.32886001 0.12143 0.17915
0.32839 0.12316 0.1793
0.32785001 0.12448 0.17927
0.32756999 0.12579 0.17961
0.3274 0.12692 0.17948
0.32855999 0.1285 0.17933001
0.32962 0.12977 0.17926
0.33047 0.13122 0.17914
0.33140001 0.13262001 0.17896999
0.33226001 0.13410001 0.17894
0.33276999 0.1355 0.17900001
0.33293 0.13688 0.17924
0.22909001 0.10166 0.21865
0.22789 0.10181 0.21852
0.29853001 0.17824 0.18178
0.30092001 0.15968999 0.18736
0.29640001 0.13084 0.20157
0.29767001 0.13044 0.2013
0.31933001 0.085528001 0.17964999
0.31751001 0.12184 0.19497
0.31714001 0.12341 0.19462
0.32802999 0.098531 0.17927
0.32874 0.10022 0.17793
0.33036 0.10156 0.17804
0.22013 0.13398001 0.19914
0.22012 0.13521001 0.19806001
0.2202 0.13597 0.19712999
0.23558 0.11126 0.21769001
0.24643999 0.12119 0.21125001
0.22096001 0.13868 0.19424
0.22857 0.14155 0.19468001
0.22028001 0.1373 0.19498999
0.22436 0.12426 0.20652001
0.22382 0.12597001 0.20607001
0.22561 0.11822 0.21177
0.22594 0.11699 0.21264
0.21992999 0.12148 0.20758
0.22066 0.12173 0.20751999
0.22953001 0.14058 0.19715001
0.25066 0.13478 0.20375
0.25555 0.13770001 0.20008001
0.25665 0.13768999 0.20024
0.26686001 0.14098001 0.19069999
0.21484999 0.10709 0.21081001
0.21537 0.10559 0.21108
0.24652 0.1294 0.20802
0.21481 0.10852 0.21046001
0.23044001 0.10729 0.21777999
0.25839001 0.11535 0.21421
0.24931 0.13886 0.20017
0.25103 0.14424001 0.19363999
0.26133001 0.13851 0.19677
0.22661 0.13999 0.19663
0.22655 0.13873 0.19789
0.23579 0.11072 0.21868999
0.2199 0.10143 0.21458
0.21911 0.10066 0.21397001
0.23603 0.10935 0.21987
0.24144 0.11189 0.2199
0.24150001 0.1107 0.22097
0.24243 0.11216 0.22009
0.22181 0.13278 0.20169
0.22307999 0.13327999 0.20226
0.24377 0.11363 0.21777999
0.21075 0.12682 0.19779
0.20981 0.12639 0.1973
0.21072 0.12548999 0.19893
0.22756 0.10763 0.21631999
0.21886 0.080117002 0.21301
0.22408 0.14184 0.19113
0.21495999 0.12931 0.20028999
0.21488 0.12796 0.20094
0.21585999 0.12834001 0.20151
0.21505 0.12696999 0.20168
0.24203999 0.12073 0.21064
0.2427 0.12187 0.21075
0.29899999 0.12932999 0.20226
0.29793 0.12795 0.20262
0.29901999 0.12799001 0.20245001
0.21588001 0.12963 0.20031001
0.22035 0.13683 0.19591001
0.21912 0.13552999 0.19659001
0.21923 0.1328 0.19972
0.21764 0.11939 0.20783
0.21794 0.11815 0.20819999
0.22341 0.10878 0.21415
0.22369 0.10751 0.21455
0.24982999 0.14207 0.19744
0.2306 0.12342 0.20852
0.22448 0.12219 0.20832001
0.2529 0.13090999 0.20679
0.31668001 0.19734 0.24184
0.23032001 0.14546999 0.18977
0.23181 0.11031 0.21702
0.26734 0.13696 0.19831
0.26754001 0.13589001 0.19945
0.271 0.1319 0.20242999
0.27202001 0.13297001 0.20162
0.21717 0.12529001 0.20426001
0.22401001 0.11905 0.21076
0.22483 0.11923 0.21099
0.22401001 0.13235 0.20302001
0.22317 0.13214 0.20300999
0.22435001 0.13154 0.20389999
0.22335 0.13087 0.20367999
0.22374 0.12729 0.20555
0.22494 0.12473 0.20655
0.21116 0.1021 0.20998999
0.23006999 0.12553 0.20813
0.22914 0.12571999 0.20761999
0.22322001 0.11014 0.21317001
0.22535001 0.12219 0.20813
0.22797 0.12684999 0.20672999
0.22446001 0.12308 0.20719001
0.22527 0.12338 0.20759
0.25560001 0.11129 0.22242001
0.21344 0.12624 0.20085
0.21249001 0.12553 0.20102
0.21328001 0.125 0.20171
0.23209 0.10925 0.21797
0.22188 0.12175 0.20769
0.22838999 0.13677999 0.20134
0.2295 0.13722 0.2015
0.22945 0.13799 0.20072
0.23716 0.1435 0.19588
0.23085999 0.12039 0.21131
0.20599 0.11921 0.19829001
0.20200001 0.081281997 0.19449
0.22513001 0.10347 0.21653
0.22284999 0.11866 0.21048
0.2246 0.13646001 0.19933
0.22385 0.13635001 0.19909
0.22476999 0.13574 0.20025
0.22482 0.13468 0.2014
0.25806999 0.14233001 0.1925
0.25924999 0.14189 0.19269
0.26756999 0.13497999 0.20036
0.23407 0.11972 0.21081001
0.23743001 0.1443 0.19465999
0.20225 0.079503998 0.19475
0.20262 0.078270003 0.19565
0.24958999 0.1314 0.20604999
0.26859999 0.11844 0.21129
0.26873001 0.117 0.21122
0.26892999 0.11699 0.21128
0.23004 0.13161001 0.20551001
0.23112001 0.13198 0.20582999
0.22284 0.13513 0.20013
0.22852001 0.13564999 0.20232999
0.22775 0.13552 0.20197999
0.22775 0.13654 0.20126
0.21556 0.13215999 0.19739
0.2166 0.13246 0.19762
0.22652 0.1407 0.19532999
0.22754 0.14091 0.19569001
0.22774 0.14148 0.19423001
0.26954001 0.11402 0.21197
0.26846999 0.11364 0.212
0.26899999 0.11154 0.21596999
0.21579 0.13389 0.19523001
0.22698 0.10973 0.21489
0.22825 0.10993 0.21479
0.22792999 0.1114 0.21431001
0.22574 0.13586 0.20052999
0.22581001 0.13504 0.2017
0.22660001 0.13598999 0.20062999
0.22586 0.13406999 0.20277999
0.22657999 0.13451999 0.20305
0.22660001 0.13526 0.20206
0.22499999 0.13270999 0.20344
0.22511999 0.13174 0.20409
0.22561 0.13941 0.19661
0.22572 0.13880999 0.19719
0.23958001 0.14192 0.19791
0.21270999 0.12649 0.19982
0.27217999 0.13572 0.19889
0.21069001 0.12466 0.2
0.27291 0.13294999 0.20155001
0.26445001 0.11105 0.22150999
0.22983 0.051336002 0.20382001
0.23035 0.051426001 0.20542
0.21489 0.13184001 0.19701999
0.21495999 0.13116001 0.19811
0.22742 0.10854 0.21536
0.27208999 0.13474999 0.19972999
0.22697 0.11101 0.21404999
0.27432999 0.13901 0.19374999
0.27511999 0.13787 0.19503
0.24037001 0.12683 0.20961
0.24031 0.12845001 0.20928
0.22908001 0.13116001 0.20567
0.23023 0.13029 0.20647
0.22875001 0.13359 0.20421
0.21732999 0.11657 0.20882
0.21713001 0.11514 0.20923001
0.21853 0.1158 0.20977999
0.22235 0.13175 0.20264
0.25268999 0.14535999 0.18858001
0.25255001 0.14522 0.19019
0.22849999 0.12836 0.20641001
0.22479001 0.1121 0.21309
0.27072001 0.11185 0.2139
0.26655999 0.10532 0.22495
0.26622 0.10624 0.22443999
0.22172 0.11944 0.20929
0.22741 0.13451 0.20325001
0.24690001 0.11039 0.22214
0.25887001 0.13552999 0.20171
0.25988001 0.13574 0.20167001
0.22386 0.13955 0.19475999
0.22480001 0.14056 0.19406
0.21532001 0.12606999 0.20276
0.22359 0.13861001 0.19595
0.22468001 0.13912 0.19616
0.22479001 0.1399 0.19508
0.25685999 0.050693002 0.20983
0.25771999 0.050923999 0.20984
0.32043999 0.11176 0.19663
0.22398999 0.11188 0.21283001
0.2289 0.14394 0.19101
0.22849999 0.14313 0.19233
0.26447999 0.1355 0.1992
0.26326999 0.1356 0.19943
0.26330999 0.13664 0.19835
0.21976 0.10644 0.21359999
0.21912 0.10712 0.21299
0.21974 0.1077 0.21334
0.22095001 0.10661 0.21405999
0.21950001 0.11055 0.21193001
0.21743999 0.12195 0.20641001
0.21668001 0.12176 0.20629001
0.21804 0.12054 0.20736
0.22764 0.14210001 0.19302
0.26019999 0.12495 0.20844001
0.26097 0.12631001 0.20798001
0.21663 0.12884 0.2015
0.21777 0.12788001 0.20266999
0.21808 0.12711 0.20322999
0.21705 0.12771 0.20236
0.21854 0.11441 0.21032999
0.21698 0.11258 0.2102
0.22227 0.10994 0.21296
0.2225 0.10856 0.21382
0.26107001 0.14022 0.19434001
0.26120999 0.13932 0.19533999
0.25511 0.053022999 0.21351001
0.23507001 0.11983 0.21053
0.24951001 0.11204 0.22149
0.21961001 0.10912 0.21246
0.22048 0.13113999 0.20184
0.24512 0.13761 0.20133001
0.24474999 0.13689999 0.20227
0.28033 0.050330002 0.21628
0.22906999 0.12425 0.20818999
0.26036999 0.12396 0.20922001
0.26148 0.12523 0.20838
0.22194 0.11873 0.20998
0.20803 0.1184 0.20103
0.21013001 0.10899 0.20708001
0.26455 0.13658001 0.19867
0.22795001 0.13236 0.20466
0.22886001 0.13256 0.20483001
0.21979 0.12019 0.20834
0.21998 0.11877 0.20919999
0.22092 0.11912 0.20908999
0.2133 0.11743 0.206
0.21279 0.12162 0.20399
0.21881001 0.12113 0.20721
0.27915999 0.063837998 0.21100999
0.278 0.061613999 0.21462999
0.21484999 0.13293999 0.19599999
0.24724001 0.13694 0.20195
0.25558001 0.14015 0.1969
0.21726 0.11786 0.20799001
0.21822999 0.11696 0.20900001
0.28042001 0.14252999 0.19078
0.28086999 0.14229 0.19131
0.21744999 0.12428 0.20496
0.21816 0.12449 0.20536
0.26062 0.14347 0.18779001
0.21145 0.11794 0.20480999
0.21064 0.11776 0.20434999
0.21180999 0.11664 0.20522
0.26787001 0.10971 0.22206999
0.23112001 0.1119 0.21473999
0.20975 0.12529001 0.19821
0.28323999 0.061455999 0.21138
0.27906999 0.063327998 0.21213
0.25442001 0.14314 0.19386999
0.20908999 0.10928 0.20567
0.20828 0.10901 0.20507
0.21986 0.079129003 0.214
0.223 0.1374 0.19681001
0.22395 0.13802999 0.19701
0.24939001 0.11857 0.21180999
0.2325 0.10566 0.21992999
0.22774 0.14358 0.19091
0.22847 0.14229 0.19366001
0.22961999 0.14353999 0.19233
0.24124999 0.10763 0.222
0.21488 0.12985 0.19904999
0.21594 0.13128 0.19854
0.22592001 0.13774 0.19865
0.23040999 0.13626 0.20296
0.21682 0.12965 0.20036
0.21736 0.13271999 0.19818
0.20452 0.10898 0.2015
0.29128999 0.15004 0.18156999
0.22619 0.10402 0.21657
0.22637001 0.10255 0.21757001
0.2272 0.10308 0.21771
0.20898999 0.11123 0.20392001
0.27535999 0.14037 0.19113
0.20115 0.081885003 0.19362999
0.20104 0.080779999 0.19418
0.20147 0.079360001 0.19458
0.2014 0.078189999 0.19528
0.24938001 0.11294 0.22033
0.22089 0.13709 0.19629
0.22198001 0.13753 0.19655
0.2084 0.10707 0.20671999
0.20962 0.10622 0.20826
0.2085 0.10816 0.2058
0.20971 0.11711 0.20362
0.22012 0.12978999 0.20277999
0.22176 0.12894 0.20381001
0.20974 0.10463 0.20861
0.20179 0.076958999 0.19633
0.27651 0.14113 0.18982001
0.22770999 0.13378 0.20408
0.22596 0.10507 0.21606
0.25852999 0.12037 0.21156999
0.28185999 0.1432 0.18976
0.22144 0.12259 0.20686001
0.22073001 0.12047 0.20843001
0.22171 0.12047 0.20881
0.23287 0.12703 0.20864999
0.23257001 0.12849 0.20824
0.25799999 0.13802999 0.19836999
0.25283 0.14574 0.18696
0.24293 0.11108 0.22079
0.24368 0.11115 0.22126999
0.26330999 0.13489 0.20036
0.26348999 0.13422 0.20187999
0.21665999 0.10936 0.21117
0.24623001 0.13653 0.2022
0.2088 0.10541 0.20746
0.22793999 0.12572999 0.20745
0.21287 0.10913 0.20902
0.27248001 0.12951 0.20401999
0.22539 0.14163999 0.19289
0.2112 0.10699 0.20897999
0.2112 0.099527001 0.21004
0.20964 0.12874 0.19401
0.24118 0.13156 0.20861
0.24084 0.13259999 0.20764001
0.20795999 0.11106 0.20341
0.20822001 0.10995 0.20426001
0.20900001 0.11041 0.20466
0.2189 0.11987 0.20798001
0.26289999 0.12827 0.20761999
0.22228999 0.1241 0.20642
0.26190999 0.12782 0.20722
0.22566 0.11962 0.21104001
0.22667 0.1196 0.21125001
0.22563 0.14239 0.19144
0.22679 0.14320999 0.19058999
0.24349 0.11215 0.2199
0.22073001 0.12734 0.204
0.22115999 0.12627 0.20468999
0.21270999 0.1227 0.20306
0.20883 0.11765 0.20227
0.2121 0.10882 0.20859
0.21077 0.10841 0.20829
0.21145999 0.1056 0.20945001
0.22665 0.14269 0.1919
0.27608001 0.13184001 0.20236
0.21378 0.13226999 0.19581001
0.28292999 0.059898999 0.2138
0.25233001 0.14414001 0.1935
