# .PCD v0.7 - Point Cloud Data file format
VERSION 0.7
FIELDS x y z
SIZE 4 4 4
TYPE F F F
COUNT 1 1 1
WIDTH 1570
HEIGHT 1
VIEWPOINT 0 0 0 1 0 0 0
POINTS 1570
DATA ascii
0.060047001 0.1611 0.18478
0.058889002 0.16058999 0.18494
0.092950001 0.034621999 0.28816
0.12345 0.14377999 0.27724999
0.12293 0.14364 0.27825999
0.057326999 0.16402 0.18547
0.057983 0.16345 0.18426999
0.057156 0.16367 0.18493
0.067815997 0.17098001 0.23120999
0.068416998 0.1725 0.27658001
0.068155997 0.17296 0.27562001
0.084559001 0.16883001 0.25409999
0.083292998 0.16794001 0.25443
0.084775999 0.16771001 0.25409001
0.068415999 0.11388 0.28419
0.067695998 0.11367 0.28483
0.083410002 0.15633 0.22942001
0.070226997 0.17693 0.25558999
0.071171001 0.17684001 0.25477999
0.045954999 0.062178999 0.2483
0.037057001 0.042769998 0.25529
0.037046999 0.042339999 0.25580001
0.037140001 0.041494001 0.25553
0.051096 0.088834003 0.2467
0.051612999 0.088772997 0.24765
0.051272001 0.088353999 0.24707
0.039698001 0.082618997 0.23504999
0.03963 0.081717998 0.235
0.038787 0.082971998 0.23473001
0.11961 0.15612 0.28863001
0.034435 0.043457001 0.24128
0.079175003 0.064369 0.2753
0.080173999 0.064548999 0.27563
0.080383003 0.063444003 0.27561
0.045674998 0.063405 0.24841
0.077850997 0.16114999 0.27963001
0.054026999 0.091978997 0.25751999
0.054820001 0.092547998 0.25619999
0.055084001 0.092909999 0.25639999
0.07818 0.12215 0.25674
0.077431001 0.12215 0.25602999
0.078904003 0.12255 0.25615001
0.083446003 0.16395 0.23725
0.084962003 0.16351999 0.23752999
0.084288001 0.16332 0.23659
0.070175 0.12413 0.28433999
0.069622003 0.12285 0.28369001
0.12051 0.15381999 0.28979999
0.079659998 0.13204999 0.25150999
0.080293 0.13080999 0.252
0.12833001 0.16553 0.27792001
0.12800001 0.16692001 0.27761
0.12692 0.16551 0.27862
0.069882996 0.11746 0.28376001
0.088264003 0.0911 0.28411999
0.073461004 0.16711999 0.23427001
0.072586998 0.16897 0.23469999
0.078024998 0.10019 0.26958001
0.077405997 0.10003 0.26872
0.075116001 0.17071 0.23164999
0.058424 0.15367 0.23597001
0.056644 0.15383001 0.23602
0.057916 0.1543 0.23636
0.052529 0.16293 0.18588001
0.053328998 0.16328 0.18663999
0.069747999 0.093140997 0.26537001
0.089708 0.034915999 0.28481001
0.089775003 0.033888001 0.28342
0.090251997 0.034724001 0.28398001
0.079752997 0.12408 0.27276999
0.079700001 0.12416 0.27188
0.094254002 0.1825 0.25161001
0.094995998 0.183 0.25274
0.072071001 0.049458001 0.28049999
0.072866 0.049199 0.28128001
0.036639001 0.092606999 0.23740999
0.035980001 0.093055002 0.23836
0.036626 0.15372001 0.22645
0.037489999 0.15378 0.22725999
0.037076999 0.15344 0.22556999
0.078454003 0.071418002 0.27458999
0.076297998 0.096605003 0.26815
0.076388001 0.097681999 0.26811001
0.077045999 0.096825004 0.26887
0.094039001 0.13556001 0.27348
0.092410997 0.13639 0.27339
0.12416 0.14824 0.27122
0.046273001 0.080610998 0.24162
0.046077002 0.10462 0.24773
0.045777 0.10553 0.24808
0.087291002 0.13403 0.27278
0.086795002 0.13341001 0.2737
0.095674999 0.18216 0.25360999
0.095992997 0.18276 0.25321001
0.084264003 0.1276 0.26418999
0.077101 0.090088002 0.26751
0.079490997 0.094296999 0.29209
0.033686001 0.034216002 0.24297
0.033535998 0.034449 0.24235
0.033962999 0.034341998 0.24222
0.048510998 0.099913999 0.24597999
0.048595 0.10036 0.24625
0.064740002 0.17669 0.24954
0.070901997 0.042826001 0.28159001
0.072610997 0.042890001 0.28125
0.071919002 0.042624 0.28125
0.074419998 0.094544999 0.26729
0.073962003 0.094318002 0.26727
0.072966002 0.094296001 0.26653001
0.046495002 0.081615999 0.25409999
0.083639003 0.15792 0.26497
0.083062001 0.15810999 0.26475999
0.082621001 0.15831 0.26587
0.061519001 0.11016 0.25192001
0.038853999 0.046310998 0.25055999
0.039344002 0.046847999 0.25149
0.073698997 0.047183 0.28389001
0.075940996 0.15616 0.23097
0.077016003 0.15726 0.23074
0.066822998 0.10239 0.25432
0.072913997 0.18268999 0.22614001
0.072550997 0.18302 0.22764
0.072986998 0.18216 0.22698
0.086119004 0.062570997 0.28114
0.083449997 0.078112997 0.27189001
0.083446003 0.079028003 0.27146
0.038125001 0.045823 0.24832
0.046914 0.081708997 0.25883999
0.047832001 0.082819 0.25964999
0.046004999 0.082171999 0.25975999
0.092851996 0.17362 0.24417999
0.093702003 0.17341 0.24395999
0.078613997 0.12737 0.27778
0.079565004 0.12775999 0.27667999
0.084831998 0.066426001 0.27768999
0.084831998 0.065622002 0.27759001
0.084161997 0.066386998 0.27687001
0.092308998 0.14112 0.27202001
0.090921998 0.14013 0.27153
0.091256 0.14124 0.27153
0.085865997 0.15627 0.26271001
0.049966 0.15187 0.21690001
0.049412001 0.15025 0.21664
0.070642002 0.17152999 0.27537999
0.069794998 0.1002 0.26176
0.069532 0.098780997 0.26197001
0.068949997 0.099258997 0.26054001
0.077298999 0.058297001 0.27717
0.030933 0.067988001 0.23545
0.031674001 0.067185 0.23514999
0.030859999 0.067144997 0.23544
0.076155998 0.068272002 0.27581
0.076173 0.066932999 0.27526
0.075318001 0.067869 0.27609
0.11889 0.14584 0.27000999
0.087759003 0.15169001 0.26866999
0.087278999 0.15277 0.26804999
0.027394 0.045297001 0.24278
0.095861003 0.17688 0.25444999
0.072282001 0.088577002 0.26769
0.071229003 0.087627001 0.26853001
0.071304999 0.088224001 0.26804999
0.042674001 0.054836001 0.25202999
0.079567 0.10092 0.28753
0.078686997 0.10243 0.28676999
0.071933001 0.17084 0.27500999
0.071203999 0.17165001 0.27443001
0.036550999 0.10079 0.24450999
0.044606 0.067993999 0.24687999
0.047708001 0.083893001 0.26142001
0.047922999 0.084399998 0.2617
0.047644999 0.084642999 0.26236001
0.075929999 0.048944999 0.29486001
0.076012999 0.048377998 0.29459
0.050239999 0.16384 0.19007
0.049778 0.1647 0.19053
0.050280999 0.16453999 0.19095001
0.087155998 0.090604998 0.27472001
0.087738 0.089656003 0.27511999
0.087522998 0.089771003 0.27437001
0.073899999 0.062173001 0.27505001
0.082447 0.15998 0.22984
0.084091999 0.15859 0.2297
0.034394 0.039499 0.26065999
0.037477002 0.050567999 0.2432
0.0381 0.050799999 0.24397001
0.036981001 0.049442001 0.24332
0.075822003 0.17522 0.23548
0.081318997 0.10269 0.27812001
0.080643997 0.10288 0.27741
0.042291 0.097896002 0.24129
0.041859999 0.098645002 0.24187
0.056022 0.15346999 0.18179999
0.055704001 0.15381999 0.18106
0.056866001 0.15307 0.18213999
0.044408001 0.068937004 0.2458
0.031114001 0.069017999 0.23571999
0.030127 0.068971999 0.23622
0.071727999 0.10699 0.25849
0.071723998 0.10683 0.25817999
0.071732 0.18362001 0.22693001
0.072199002 0.18319 0.22816999
0.082514003 0.068331003 0.27526999
0.082156003 0.068348996 0.27535999
0.046847001 0.081978999 0.25681999
0.084090002 0.097677998 0.28521001
0.062973 0.17217 0.24613
0.073266998 0.11327 0.26006001
0.073491 0.11275 0.25960001
0.056065999 0.10923 0.24999
0.056646001 0.10914 0.24996001
0.075459003 0.053059001 0.27954
0.076264001 0.053495001 0.28051999
0.041671999 0.056591999 0.24367
0.076692998 0.043905001 0.28193
0.075782001 0.043678999 0.28156999
0.075397 0.043995 0.28178
0.059241001 0.11264 0.25042999
0.058113001 0.11386 0.25086999
0.059222002 0.11375 0.25066
0.049552001 0.15171 0.2176
0.049791999 0.15046 0.21703
0.037057001 0.056593001 0.25834
0.036984999 0.055291999 0.25845999
0.086842 0.064156003 0.28512001
0.040167999 0.057603002 0.24178
0.039517999 0.057732001 0.241
0.048942 0.15866999 0.18587001
0.090350002 0.080718003 0.28285
0.060839001 0.11388 0.25084999
0.062286001 0.1128 0.25048
0.088338003 0.034779999 0.27511001
0.074874997 0.11048 0.26995999
0.086718 0.13461 0.26967999
0.065885 0.16593 0.28786001
0.065972 0.16568001 0.28827
0.06684 0.16571 0.28740999
0.085805997 0.069090001 0.27643001
0.085133001 0.067846 0.27680001
0.084742002 0.068953998 0.27577999
0.043524001 0.15271001 0.22662
0.043178 0.153 0.22758999
0.073573001 0.16897 0.27041
0.085931003 0.15945999 0.25827
0.086070001 0.1596 0.25749999
0.085142002 0.16078 0.25777
0.065839 0.17580999 0.25374001
0.066646002 0.17673001 0.25274
0.065439001 0.17622 0.25292
0.037544001 0.093254 0.23797999
0.038180001 0.092064001 0.23692
0.087444 0.074850999 0.28481001
0.078639999 0.1718 0.24617
0.087160997 0.1354 0.26208001
0.087362997 0.13536 0.26357999
0.076608002 0.11962 0.26995
0.076117001 0.11934 0.27078
0.077365004 0.17191 0.24703
0.076912001 0.17215 0.24774
0.077721998 0.17163999 0.24843
0.068204001 0.098256998 0.25751999
0.067722999 0.098047003 0.25674
0.068504997 0.099065997 0.25744
0.069498003 0.045708001 0.28298
0.096225001 0.18242 0.24901
0.097491004 0.18287 0.24957
0.090278998 0.038979001 0.28290001
0.033296 0.036993001 0.26225001
0.081855997 0.071416996 0.27419999
0.07508 0.10125 0.26589
0.087962002 0.1539 0.26302999
0.045791999 0.093422003 0.24017
0.045795001 0.09217 0.24028
0.066405997 0.17640001 0.25429001
0.066914 0.17655 0.25479999
0.066439003 0.17676 0.25350001
0.073770002 0.17670999 0.2272
0.080969997 0.058265999 0.27886
0.082013004 0.057565 0.27976999
0.13455001 0.16548 0.27028999
0.054915 0.11616 0.25044
0.055452 0.11699 0.24954
0.056095 0.11637 0.24995001
0.043368999 0.069983996 0.24305999
0.04324 0.070990004 0.24309
0.04555 0.15716 0.2172
0.10471 0.14798 0.27197999
0.10396 0.14809 0.27293
0.10445 0.14867 0.27274999
0.085464001 0.091085002 0.28924999
0.084519997 0.092262 0.28959
0.072359003 0.094313003 0.2658
0.07277 0.095513999 0.26541999
0.076699004 0.047224998 0.29266
0.076692 0.046596002 0.29242
0.077120997 0.046487 0.29176
0.087141998 0.16643 0.24411
0.087177999 0.16562 0.2441
0.086571001 0.1656 0.2431
0.072952002 0.17308 0.26677001
0.095558003 0.17863999 0.25494
0.1287 0.154 0.27814001
0.12925 0.15380999 0.27739999
0.12933999 0.15505999 0.27869999
0.086609997 0.13547 0.26769999
0.081354 0.12571 0.27079999
0.081794001 0.1265 0.27088001
0.089390002 0.08743 0.27889001
0.089938 0.087429002 0.28051999
0.089910999 0.086110003 0.27897
0.087238997 0.082950003 0.27304
0.086525001 0.082748003 0.2723
0.075097002 0.12411 0.27908
0.075845003 0.12395 0.27810001
0.072088003 0.043724 0.28262001
0.070413999 0.043834001 0.28268
0.071346 0.044178002 0.28275999
0.089723997 0.074547 0.28353
0.090483002 0.074827 0.28273001
0.057742 0.15658 0.18256
0.056929 0.15649 0.18392
0.057558 0.15625 0.18401
0.041554999 0.066914 0.24004
0.092963003 0.17212 0.25497001
0.092414998 0.17166001 0.25477001
0.092427 0.17219999 0.25454
0.036632001 0.041708 0.25635001
0.035907999 0.041786999 0.25740999
0.073164999 0.097406 0.26436001
0.079322003 0.043338001 0.28400001
0.079046004 0.043251 0.28338
0.077890001 0.15974 0.23032001
0.077711999 0.15864 0.23059
0.076582998 0.15964 0.2313
0.087375 0.070528001 0.27608001
0.067621998 0.16452 0.28828999
0.067227997 0.16523001 0.28762999
0.066789001 0.16395 0.28862
0.063413002 0.11283 0.28740001
0.063449003 0.11385 0.28718999
0.062729001 0.1139 0.28771999
0.072713003 0.11142 0.26115
0.072659001 0.11054 0.26100001
0.080352999 0.043053001 0.28312001
0.080976002 0.042906001 0.28217
0.080213003 0.042677999 0.28151
0.080132999 0.16782001 0.23833001
0.050418999 0.086930998 0.25709
0.050884001 0.087544002 0.25786
0.056058001 0.16226999 0.18392999
0.056327999 0.16320001 0.18460999
0.057108998 0.16215 0.18350001
0.087063998 0.14012 0.26640999
0.087263003 0.13902999 0.26657
0.041101001 0.053442001 0.25420001
0.071464002 0.16505 0.28443
0.047139999 0.14239 0.22
0.047993001 0.14227 0.21956
0.095495999 0.17789 0.25485
0.094893999 0.17925 0.25487
0.036341999 0.053038001 0.24229001
0.075491004 0.11582 0.26734999
0.075213 0.1156 0.26686001
0.036674 0.037234001 0.25861999
0.036065999 0.038185 0.25905001
0.078097999 0.12032 0.26631001
0.041848999 0.085969001 0.23639999
0.041211002 0.087153003 0.23559
0.07959 0.16558 0.26054001
0.079369999 0.16611999 0.26058999
0.079313003 0.16564 0.26109999
0.088880002 0.067858003 0.28292
0.060702998 0.11637 0.24947999
0.060199 0.11596 0.25007999
0.059796002 0.11672 0.24939001
0.079645999 0.12627999 0.27557999
0.080587998 0.12711 0.27507001
0.080000997 0.12695 0.27568999
0.090764001 0.080444001 0.28141001
0.090083003 0.036052 0.28406
0.083094001 0.056258 0.28522
0.083513997 0.056692 0.28632
0.082534 0.055466 0.28556001
0.04496 0.067874998 0.24476001
0.073142 0.11966 0.25246999
0.072697997 0.11857 0.25244999
0.034077 0.079232 0.23214
0.055064 0.11042 0.25071999
0.054439999 0.1629 0.18469
0.055342 0.16198 0.18395001
0.071762003 0.17684001 0.23748
0.073435001 0.17671999 0.23721001
0.073009998 0.17723 0.23692
0.071404003 0.054481 0.27768999
0.072043002 0.054168001 0.27798
0.072292998 0.053002998 0.27836001
0.078225002 0.12905 0.28104001
0.079154998 0.12991001 0.28062001
0.078047 0.12916 0.28178
0.067905001 0.11041 0.25330001
0.066711001 0.11037 0.25255001
0.047168002 0.14026 0.20999999
0.085238002 0.15402 0.27526999
0.085299 0.15363 0.27439001
0.039864 0.080792002 0.23475
0.040716 0.080597997 0.23558
0.089525998 0.083898 0.27498999
0.088947996 0.083970003 0.27445999
0.074410997 0.11996 0.27698001
0.075318001 0.12046 0.27605
0.078906998 0.16755 0.23592
0.079412997 0.16665 0.23545
0.079149999 0.16646001 0.23548
0.065079004 0.10333 0.25262001
0.064281002 0.10355 0.25235
0.11731 0.1435 0.27043
0.066495001 0.17337 0.23047
0.066894002 0.17468999 0.23066001
0.044050999 0.059773002 0.25341001
0.04377 0.060975999 0.2536
0.04332 0.061081 0.25426999
0.12885 0.16342001 0.27851
0.12951 0.16299 0.27845001
0.081174001 0.12962 0.27821001
0.081128001 0.13056999 0.27928001
0.080522999 0.12971 0.27937001
0.089974001 0.086162001 0.28378001
0.089605004 0.086801998 0.28389999
0.12396 0.15493 0.27129
0.070082001 0.17887001 0.22707
0.07068 0.1786 0.22723
0.070955001 0.17798001 0.22792
0.072223999 0.18055999 0.23361
0.071116999 0.18095 0.23361
0.071359999 0.17998999 0.23445
0.075398996 0.041659001 0.27926001
0.075214997 0.042753998 0.28069001
0.041809 0.10448 0.24872001
0.041802999 0.10581 0.24936
0.080381997 0.063486002 0.29405999
0.081363 0.062328 0.29277
0.081331998 0.063469 0.29317999
0.074559003 0.18045001 0.23091
0.073844001 0.18052 0.23204
0.074183002 0.17986999 0.23205
0.082996003 0.094079003 0.28994
0.082543001 0.094472997 0.29028001
0.081937999 0.094433002 0.29078999
0.050916001 0.088317998 0.25793001
0.069960997 0.10545 0.25621
0.068862997 0.10449 0.25545001
0.071428001 0.11457 0.25428
0.072182998 0.11377 0.25527999
0.071323998 0.11369 0.25418001
0.075232998 0.041515999 0.29402
0.084779002 0.15986 0.26010001
0.084030002 0.15999 0.26091999
0.040752999 0.0704 0.23745
0.088036999 0.16759001 0.2484
0.088868 0.1674 0.24704
0.088299997 0.16891 0.24818
0.087619998 0.13703001 0.26901001
0.083107002 0.16877 0.25404
0.065458 0.1116 0.25064
0.064912997 0.11119 0.25119999
0.079884 0.12292 0.26971
0.083761998 0.099794999 0.28235
0.084422 0.099036999 0.28220001
0.083373003 0.10037 0.28143001
0.078047 0.15889999 0.28299999
0.077413 0.15913001 0.28386
0.040952999 0.058683999 0.25617999
0.086521 0.13211 0.26469001
0.086919002 0.13240001 0.26561001
0.086301997 0.13196 0.26633
0.048544999 0.16508999 0.19041
0.048581999 0.16441 0.19001999
0.047764 0.16437 0.19038001
0.087961003 0.088740997 0.28650001
0.087185003 0.088490002 0.28742
0.088055998 0.087599002 0.28663
0.081967004 0.15899 0.26549
0.083062001 0.15875 0.26427999
0.12354 0.1486 0.28643
0.12326 0.14806999 0.28729999
0.078074999 0.048487 0.29086
0.078721002 0.049745001 0.29093
0.077776998 0.049779002 0.29221001
0.080835 0.042580999 0.28042001
0.079893 0.042498 0.27987999
0.10784 0.14734 0.27340999
0.077238999 0.12455 0.27721
0.077572003 0.12499 0.27691001
0.045756999 0.079028003 0.2428
0.045113999 0.078129001 0.24367
0.045361001 0.078401998 0.24252
0.034701001 0.034340002 0.23969001
0.077861004 0.13101999 0.25022
0.078501001 0.13003001 0.25086999
0.099908002 0.13341001 0.28298
0.10031 0.13372 0.28167999
0.10049 0.13444 0.28228
0.057193998 0.15987 0.18511
0.056125998 0.16086 0.18419001
0.057126001 0.16008 0.18449
0.075603999 0.17918 0.23041999
0.075061999 0.1795 0.23105
0.075411998 0.17918999 0.23163
0.036605 0.049945001 0.24330001
0.036245 0.050951 0.24288
0.11576 0.14016999 0.27241999
0.11597 0.1399 0.27298999
0.041101001 0.074784003 0.23743001
0.041742999 0.073964 0.2383
0.040897001 0.073624 0.23725
0.1301 0.1724 0.26896
0.055241 0.092750996 0.25780001
0.040727001 0.081551999 0.23556
0.11591 0.13901 0.28295001
0.11712 0.13996001 0.28338
0.11612 0.13956 0.28391999
0.11675 0.14224 0.27129999
0.11635 0.14168 0.27149001
0.078869998 0.05545 0.29435
0.078543998 0.054368999 0.29403999
0.078927003 0.054083001 0.29304001
0.074042 0.17662001 0.23649999
0.067059003 0.093199998 0.26488
0.067525998 0.093372002 0.2649
0.032566998 0.064586997 0.23633
0.031881001 0.064648002 0.23612
0.039655998 0.048438001 0.24905001
0.039895002 0.048296001 0.24985
0.051233001 0.087356001 0.25205001
0.051568002 0.088515997 0.25207001
0.12864 0.16192 0.27954999
0.12955999 0.16212 0.27871999
0.072250001 0.18089999 0.23306
0.072801001 0.18138 0.23246001
0.078373998 0.17157 0.24705
0.075898997 0.16393 0.27676001
0.075432003 0.16468 0.27722999
0.075356998 0.16411 0.27787
0.064401999 0.17574 0.24828
0.065912999 0.17522 0.24811
0.066923 0.17485 0.22835
0.034972001 0.033443 0.25363001
0.090618998 0.084043004 0.28134999
0.090649001 0.084876999 0.28106999
0.084445 0.086327001 0.27101001
0.083770998 0.087371998 0.27052999
0.084311999 0.087378003 0.27087
0.090072997 0.071230002 0.27663001
0.089396 0.072384998 0.27609
0.11868 0.14055 0.28244999
0.11938 0.14124 0.28277999
0.11879 0.14122 0.28312999
0.11742 0.15725 0.28994
0.11684 0.15792 0.29014999
0.080408998 0.066721998 0.27586001
0.080023997 0.065575004 0.27557999
0.079222001 0.065323003 0.27496001
0.079657003 0.065711997 0.29484999
0.079447001 0.066543996 0.29460999
0.078224003 0.066859998 0.2951
0.042098999 0.15344 0.23725
0.040812001 0.15324 0.23737
0.041703001 0.15334 0.23816
0.057700999 0.095614001 0.25488999
0.071525998 0.10937 0.25714999
0.071897 0.10929 0.25852001
0.072028004 0.10884 0.25835001
0.089130998 0.088454001 0.27827999
0.089363001 0.087856002 0.27792999
0.090033002 0.17230999 0.25477001
0.090639003 0.171 0.25470999
0.090706997 0.17252 0.25486001
0.074129 0.1611 0.28567001
0.074810997 0.12177 0.27699
0.075397 0.12306 0.27788001
0.08946 0.085187003 0.27572
0.089643002 0.083954997 0.27585
0.089176998 0.16892 0.25444001
0.088909 0.16774 0.25428
0.089833997 0.17098001 0.24969
0.089720003 0.17007001 0.24967
0.087461002 0.037980001 0.27581999
0.087227002 0.036963999 0.27706999
0.083495997 0.1573 0.27735999
0.097741999 0.18392 0.25279
0.096902996 0.18345 0.25213
0.1198 0.14836 0.29076999
0.12025 0.14914 0.29115
0.11927 0.14963 0.29124001
0.089153998 0.088567004 0.28237
0.071598001 0.099169999 0.26339999
0.071740001 0.10031 0.26293999
0.10024 0.13352001 0.27895001
0.10069 0.13362999 0.27983001
0.050244 0.085389003 0.25292
0.090903997 0.13350999 0.27401
0.091898002 0.13372999 0.27443999
0.091698997 0.13330001 0.27456
0.038383 0.041609999 0.25097999
0.037758 0.042722002 0.25172001
0.070101999 0.097732998 0.26312
0.070148997 0.098719001 0.26295
0.12809999 0.15272 0.27340999
0.12883 0.15241 0.27430999
0.079435997 0.042275 0.29047999
0.089452997 0.16872001 0.24409001
0.088638999 0.078535996 0.27462
0.089450002 0.079457 0.27601001
0.040111002 0.051323 0.24537
0.040543001 0.052005 0.24512
0.090911001 0.075594999 0.28047001
0.090565003 0.075955003 0.28128999
0.094134003 0.14849 0.27531999
0.094676003 0.14904 0.27621999
0.094945997 0.14826 0.27584001
0.092909999 0.16978 0.24456
0.093038999 0.17110001 0.24461
0.047277 0.15375 0.23834001
0.048347998 0.15525 0.23906
0.049017999 0.15412 0.23824
0.084792003 0.16839001 0.24535
0.083747998 0.16794001 0.24450999
0.083534002 0.16835999 0.24492
0.072737999 0.12395 0.28169999
0.073137 0.1251 0.28207999
0.072454996 0.12463 0.2827
0.081059001 0.12848 0.27513999
0.067032002 0.055084001 0.27860001
0.068447001 0.054501001 0.27825999
0.067518003 0.054026 0.27875
0.088005997 0.16999 0.25446999
0.087213002 0.16977 0.25431001
0.071203999 0.12166 0.28182
0.043791998 0.058672 0.25338
0.044089001 0.058662999 0.25244999
0.070390999 0.066692002 0.27682
0.070304997 0.066091001 0.27654999
0.061352 0.1724 0.28132001
0.060339 0.17219999 0.28185001
0.065448999 0.17183 0.28001001
0.064866997 0.17183 0.27985001
0.043512002 0.055367 0.25012001
0.089195997 0.14583001 0.27068999
0.089357004 0.1459 0.27052999
0.083359003 0.14503001 0.25797999
0.082561001 0.14376999 0.25683001
0.083159998 0.12635 0.26769999
0.048262 0.083892003 0.25887999
0.047901001 0.082873002 0.25854
0.036336999 0.034150001 0.25408
0.036460001 0.034851 0.25497001
0.087067001 0.16091999 0.23694
0.086421996 0.16077 0.23626
0.084822997 0.074836001 0.27384999
0.086282998 0.075277999 0.27429
0.090507999 0.082805 0.27987
0.090760998 0.081703998 0.27867001
0.090461999 0.082856998 0.27812999
0.074639998 0.064588003 0.27524
0.083672002 0.057631001 0.28757
0.084096 0.057723999 0.28702
0.084200002 0.058779001 0.28692999
0.032883 0.044075999 0.24135
0.046971001 0.081666999 0.25319999
0.13076 0.17321999 0.26275
0.13093001 0.17326 0.26334
0.081061997 0.16654 0.26457
0.086524002 0.037078999 0.2868
0.085458003 0.17099001 0.24683
0.086747997 0.093014002 0.27546
0.089868002 0.15065999 0.27632001
0.089966998 0.15001 0.2753
0.039611999 0.060111001 0.24071001
0.062514 0.11355 0.25058001
0.050365001 0.1025 0.2475
0.049761001 0.10353 0.24766
0.074560001 0.054671999 0.27785
0.073988996 0.054253001 0.278
0.087669 0.076365001 0.27529001
0.087655999 0.075878002 0.27575001
0.087277003 0.075943999 0.27445
0.11646 0.14117 0.27250001
0.11742 0.14038999 0.27368999
0.11673 0.14030001 0.27294001
0.048103001 0.15180001 0.21966
0.048764002 0.15051 0.22029001
0.054189 0.17691 0.26229
0.054974001 0.17735 0.26304999
0.082107998 0.13654999 0.25404
0.082783997 0.13708 0.25492001
0.089231998 0.078120999 0.27601999
0.083526 0.094278 0.27215999
0.079121999 0.16322 0.23208
0.037849002 0.097861998 0.24134
0.037475999 0.097135 0.24089999
0.055048 0.17645 0.25974
0.054205999 0.17667 0.26065001
0.12497 0.14723 0.28115001
0.092579 0.15015 0.27720001
0.093122996 0.14964999 0.27684
0.091798 0.15002 0.27614999
0.078143001 0.043855999 0.28628999
0.076853998 0.04459 0.28557
0.077212997 0.044656001 0.28689
0.038899001 0.15355 0.23441
0.038566999 0.15349001 0.23549999
0.03988 0.15338001 0.23562001
0.10944 0.14127 0.27123001
0.11002 0.14144 0.27088001
0.12394 0.15607999 0.28489
0.12482 0.15576001 0.28378999
0.089230999 0.073204003 0.28443
0.089295998 0.072549999 0.28417999
0.09048 0.083143003 0.27915001
0.034311 0.059560999 0.2378
0.034504 0.058738999 0.23825
0.033135999 0.058529001 0.23789001
0.066798002 0.12067 0.28601
0.12233 0.14771 0.26954001
0.12215 0.1472 0.26982999
0.035055999 0.048351999 0.24281
0.086024001 0.040702 0.28325999
0.085965 0.040424 0.28196999
0.084813997 0.040463001 0.28266001
0.086667001 0.071213 0.28571001
0.086028002 0.072350003 0.28639999
0.086152002 0.071488 0.28654999
0.082925998 0.14429 0.25832
0.060382999 0.1198 0.24797
0.060006 0.11945 0.24865
0.082014002 0.040314998 0.2773
0.082667001 0.039455999 0.27649999
0.082103997 0.039822001 0.27711999
0.067910999 0.097312003 0.25924
0.068083003 0.097597003 0.25979999
0.046332002 0.15062 0.22573
0.045889001 0.15098 0.22474
0.045972999 0.15123001 0.22551
0.1063 0.14590999 0.27136999
0.10488 0.14618 0.27208
0.071799003 0.17359 0.25202
0.070802003 0.17386 0.25132999
0.070523001 0.17445999 0.25150001
0.074078999 0.042932998 0.29348999
0.073179998 0.042916 0.29383001
0.074086003 0.04163 0.29459
0.076716997 0.17197999 0.24445
0.076672003 0.17244001 0.24586
0.077468 0.17189001 0.24493
0.079570003 0.095665999 0.26947001
0.078506 0.095312998 0.26905
0.079077996 0.096678004 0.27006
0.043905001 0.075773999 0.24449
0.044062 0.076154001 0.24537
0.043894999 0.075787 0.24518999
0.060603 0.17649999 0.25472999
0.061181001 0.17648999 0.25422001
0.060366999 0.1761 0.25334999
0.080578998 0.16203 0.26462001
0.085846998 0.087615997 0.28931999
0.085781001 0.088708997 0.28935999
0.093457997 0.17567 0.25257999
0.094582997 0.17677 0.25323001
0.094453 0.17618001 0.25371
0.092459999 0.16904999 0.24446
0.092058003 0.16972999 0.24366
0.080826998 0.16097 0.26469001
0.075369 0.1161 0.26089999
0.12458 0.15394001 0.28525001
0.03314 0.068885997 0.23525999
0.033962 0.068843998 0.23507001
0.084182002 0.15762 0.26431
0.077435002 0.069675997 0.2929
0.076214001 0.069859996 0.29313001
0.076917998 0.068787001 0.29396999
0.073820002 0.060045999 0.27511001
0.074529998 0.058781002 0.27562001
0.12536 0.14817999 0.28299001
0.065315999 0.17442 0.24753
0.072314002 0.11745 0.28136
0.072310001 0.1163 0.28132999
0.072953001 0.11621 0.28071001
0.038093999 0.087235004 0.23509
0.03785 0.086356997 0.23476
0.037285998 0.087439001 0.23499
0.033898 0.054331999 0.24047001
0.088281997 0.090862997 0.28518999
0.068668999 0.096701004 0.26298001
0.069050997 0.097700998 0.26297
0.072444998 0.051424 0.27952999
0.072494 0.050882 0.28003001
0.071826003 0.051794 0.27895999
0.074458003 0.12279 0.25466001
0.084884003 0.13761 0.25738999
0.084219001 0.13883001 0.25679001
0.084729999 0.13883001 0.25779
0.084737003 0.041226 0.28411001
0.036782 0.054042999 0.25817999
0.037950002 0.054177001 0.25781
0.089863002 0.13417 0.27291
0.089158997 0.13373999 0.27368
0.088864997 0.13451 0.27272001
0.073742002 0.090772003 0.26704001
0.055147 0.092528999 0.25966999
0.13609 0.16312 0.26776001
0.13567001 0.16306999 0.26607001
0.13519999 0.16278 0.26730001
0.072848998 0.089854002 0.26729
0.036598999 0.094554 0.23846
0.036869999 0.095201001 0.23867001
0.076319002 0.093393996 0.26780999
0.077731997 0.093418002 0.26855999
0.077099003 0.092928998 0.26833999
0.070986003 0.11139 0.25476
0.071749002 0.11057 0.25578001
0.075432003 0.16197 0.28244001
0.075104997 0.16117001 0.28319001
0.080096997 0.038132999 0.27483001
0.080022998 0.036956001 0.27471
0.086714998 0.1586 0.25723001
0.082165003 0.12416 0.26552999
0.072467998 0.16652 0.27987
0.072798997 0.16574 0.28016999
0.086003996 0.15290999 0.27285999
0.085446998 0.15361001 0.27294999
0.077852003 0.094043002 0.26855001
0.078276001 0.095105 0.26857001
0.077307001 0.10707 0.27212
0.077684999 0.10644 0.27304
0.085545003 0.037296001 0.27961999
0.085092999 0.037413001 0.2793
0.085708998 0.038135 0.28027999
0.071630999 0.041469999 0.28080001
0.037677001 0.067878 0.2358
0.038205002 0.068365 0.23576
0.079626001 0.16903 0.26315001
0.079612002 0.16898 0.26208001
0.081041001 0.053886998 0.28231001
0.12501 0.17687 0.26782
0.078859001 0.067700997 0.27566999
0.078679003 0.068728998 0.27520001
0.079429001 0.069017 0.27491
0.079994999 0.097741999 0.27096999
0.078916997 0.097820997 0.27019
0.078758001 0.098843001 0.27055001
0.084521003 0.13221 0.27197999
0.084215999 0.13086 0.27184999
0.084298 0.13172001 0.27160001
0.046142999 0.13886 0.21322
0.045465 0.13871001 0.21286
0.082782 0.12471 0.26276001
0.08326 0.125 0.26346999
0.087066002 0.15997 0.23728
0.086778998 0.15955999 0.23729999
0.078606002 0.12481 0.27437001
0.079639003 0.12525 0.27395001
0.059882998 0.10232 0.2525
0.059266001 0.10088 0.25277999
0.081972003 0.10175 0.28178
0.088444002 0.076916002 0.28424001
0.088276997 0.078339003 0.28556001
0.12563001 0.17603 0.26808
0.12985 0.1684 0.27467999
0.12918 0.16869 0.27535999
0.035727002 0.051642999 0.24201
0.036697999 0.05161 0.24263
0.084302001 0.14117 0.25823
0.082992002 0.15631001 0.27304
0.083058998 0.15691 0.27315
0.085405 0.06543 0.28863999
0.085029997 0.065613002 0.28913
0.065747 0.097708002 0.25582999
0.066835001 0.098054998 0.25615999
0.075136997 0.17915 0.2281
0.075514004 0.17801 0.22764
0.074956 0.17882 0.22755
0.11673 0.13913 0.27471
0.1163 0.13855 0.27520999
0.049422 0.14737999 0.21872
0.063101999 0.11968 0.24859001
0.097415 0.14490999 0.27467
0.098205999 0.14373 0.27447999
0.037156999 0.052421998 0.24267
0.049557999 0.15299 0.21547
0.096086003 0.17945001 0.24875
0.097354002 0.18039 0.24803001
0.096602999 0.18006 0.24924
0.11279 0.13684 0.27998
0.11224 0.13661 0.27840999
0.11345 0.13677999 0.27891999
0.030548001 0.045407999 0.24248999
0.031583998 0.045612998 0.24275
0.11964 0.14392 0.27135
0.069309004 0.16985001 0.28035
0.059921999 0.10375 0.25227001
0.060421001 0.10227 0.25279999
0.081385002 0.12527999 0.25615999
0.081428997 0.12469 0.25703001
0.13003001 0.15305001 0.27322
0.074826002 0.10594 0.26591
0.075227 0.10476 0.26591
0.035145 0.062049001 0.23693
0.034168001 0.062146999 0.23687001
0.034848999 0.063079 0.23654
0.13468 0.16191 0.27276999
0.13337 0.16509999 0.27340001
0.13251001 0.16602001 0.27414
0.083191 0.15854999 0.26345
0.083605997 0.15798 0.26372999
0.078578003 0.11968 0.26383999
0.078635 0.12012 0.26322001
0.082937002 0.038290001 0.27496001
0.083544001 0.037650999 0.27449
0.075728998 0.11668 0.26058999
0.075457998 0.1165 0.26153001
0.037427001 0.035801001 0.24827
0.037468001 0.036313999 0.24979
0.037393 0.035533998 0.24943
0.13168 0.16542 0.26539001
0.13109 0.16662 0.26538
0.13222 0.16538 0.26482999
0.082585 0.16053 0.26828
0.082888998 0.16208 0.26811999
0.052802 0.089872003 0.25198001
0.052326001 0.089667 0.2527
0.12182 0.15282001 0.28900999
0.10958 0.15501 0.27421001
0.10941 0.15383001 0.27418
0.080353998 0.16078 0.27603
0.080011003 0.15967 0.27713999
0.080954999 0.15975 0.27631
0.036478002 0.057546001 0.24033
0.080949999 0.073702998 0.28955999
0.080521002 0.074905999 0.28962001
0.074897997 0.11559 0.25926
0.077574 0.10349 0.26973999
0.077745996 0.10437 0.26984
0.068875998 0.098773003 0.25836
0.068860002 0.099219002 0.25911
0.082902998 0.063598998 0.2899
0.070426002 0.11261 0.28264999
0.071350001 0.11279 0.28189999
0.070915997 0.11376 0.28187999
0.053670999 0.096697003 0.25042
0.053043999 0.096620001 0.24931
0.053320002 0.097635999 0.24934
0.085950002 0.039535001 0.285
0.086751997 0.039604001 0.28433001
0.086377002 0.040236 0.28413999
0.077600002 0.12171 0.2705
0.079085998 0.12296 0.26999
0.086865 0.038442001 0.27636999
0.086632997 0.038690001 0.27553999
0.086130001 0.039198998 0.27590999
0.085244998 0.096927002 0.28266999
0.085640997 0.096640997 0.28347
0.12437 0.15174 0.28674999
0.085014001 0.12846 0.26469001
0.061335001 0.098993003 0.25384
0.060658 0.098481998 0.25461999
0.038440999 0.074841999 0.23325001
0.038715001 0.076016001 0.23291001
0.087278999 0.16558 0.25292999
0.088698998 0.16593 0.25264999
0.088219002 0.16590001 0.25308999
0.053824998 0.093125001 0.25163999
0.054388002 0.094469003 0.25156
0.054916002 0.094213001 0.25299001
0.070100002 0.17202 0.27516001
0.069224998 0.17189001 0.27599001
0.08788 0.090148002 0.28668001
0.084500998 0.059092 0.28277999
0.085853003 0.15449999 0.25746
0.078491002 0.049527999 0.28549999
0.079181999 0.050425999 0.28663
0.078605004 0.049571 0.2868
0.048542999 0.15595999 0.23942
0.083962001 0.15888999 0.26273
0.082965001 0.15899999 0.26280001
0.042332999 0.15311 0.23424999
0.043935999 0.15319 0.23397
0.084853999 0.074799001 0.28722
0.084308997 0.16067 0.25845
0.085266002 0.15967 0.25900999
0.038123 0.045340002 0.25307
0.049616002 0.086432002 0.26122001
0.074594997 0.16164 0.2841
0.074896999 0.16201 0.28336
0.13099 0.17253999 0.26574001
0.13046999 0.17115 0.26510999
0.1309 0.17222001 0.26462001
0.075857997 0.12111 0.27395001
0.072892003 0.11628 0.27753001
0.073198996 0.11715 0.27754
0.072933003 0.11714 0.27917999
0.085322998 0.13665999 0.25817999
0.085054003 0.13682 0.25764
0.05046 0.086066999 0.25130999
0.049787 0.085120998 0.25128001
0.090393998 0.035890002 0.27507001
0.090562999 0.035996001 0.27406001
0.090526 0.036802001 0.27373999
0.092248 0.033459 0.29036
0.081322998 0.12872 0.25339001
0.081905 0.12905 0.25419
0.11483 0.13943 0.27340001
0.11519 0.13862 0.27445999
0.091836996 0.17335001 0.24401
0.045161001 0.065938003 0.24457
0.045350999 0.065316997 0.24517
0.074530996 0.18092 0.22865
0.074036002 0.18126 0.22931001
0.082984 0.058410998 0.28005001
0.12075 0.14271 0.27346
0.12121 0.14271 0.27432999
0.038522001 0.034290999 0.23677
0.038091 0.034095 0.23598
0.059870001 0.11808 0.24869999
0.059179999 0.1171 0.24902999
0.059087999 0.11776 0.24890999
0.067319997 0.11942 0.28549999
0.094025001 0.17586 0.25508001
0.078814 0.1032 0.27359
0.078702003 0.10479 0.27432001
0.084054001 0.12761 0.26154
0.084219001 0.12739 0.26056001
0.13372999 0.15588 0.2746
0.13298 0.15549 0.27426001
0.036619999 0.036982998 0.25758001
0.064490996 0.17195 0.28101999
0.057861999 0.10002 0.25259
0.056945998 0.099930003 0.25209001
0.057184 0.10104 0.25171
0.071534 0.10474 0.28527999
0.072072998 0.10604 0.28411001
0.069732003 0.16548 0.28521001
0.069848999 0.16481 0.28601
0.070336998 0.16429999 0.28551
0.12778001 0.15260001 0.27838999
0.12769 0.15407 0.27919
0.12786999 0.15265 0.27948001
0.089270003 0.069183998 0.27722999
0.089755997 0.069977 0.27704999
0.075778998 0.11713 0.26931
0.075956002 0.11775 0.26993001
0.11346 0.15409 0.27304
0.068585001 0.11436 0.25222
0.068995997 0.11467 0.25183001
0.068747997 0.11365 0.25227001
0.079313003 0.12128 0.25893
0.078359999 0.12087 0.25848001
0.078698002 0.12146 0.25784999
0.050756 0.097906999 0.24719
0.051633 0.096611001 0.24776
0.037620001 0.041561 0.24545
0.037716001 0.041164 0.24440999
0.069390997 0.11479 0.28332999
0.070331 0.11391 0.28237
0.070225 0.11493 0.28257999
0.087754004 0.085850999 0.28786999
0.041707002 0.10021 0.24360999
0.052627001 0.092226997 0.24951001
0.039781 0.048055999 0.2473
0.078415997 0.125 0.25308001
0.077846996 0.12429 0.25374001
0.087096997 0.083995 0.27315
0.088379003 0.083838999 0.27362001
0.079232998 0.099735998 0.28955001
0.075038001 0.16993 0.2683
0.074357003 0.17046 0.26776001
0.073633999 0.17049 0.26903
0.082281999 0.076076999 0.27213001
0.13237999 0.15634 0.26833001
0.13175 0.15594999 0.26839
0.061847001 0.10232 0.25303999
0.045249 0.078230001 0.25516
0.074408002 0.11486 0.27221999
0.066049002 0.096042998 0.25707
0.065484002 0.095219001 0.25709999
0.038819 0.065527 0.25707999
0.039179001 0.065640002 0.25657001
0.038754001 0.066941999 0.25657001
0.037340999 0.074303001 0.23277
0.082475998 0.057574999 0.28003001
0.073775001 0.18153 0.23029
0.074120998 0.18098 0.23064999
0.084078997 0.15824001 0.23029
0.084090002 0.15893 0.23063999
0.045898002 0.080952004 0.25815001
0.046751 0.081021003 0.25808999
0.049339999 0.14820001 0.23378
0.049166001 0.14941999 0.23428001
0.050115 0.14894 0.23533
0.031013999 0.063184999 0.23681
0.031713001 0.062192 0.23695999
0.03105 0.062267002 0.23723
0.11024 0.15058 0.27382001
0.11027 0.14927 0.27371001
0.10859 0.14927 0.27406001
0.074446 0.10447 0.26477
0.074318998 0.10307 0.2651
0.078625001 0.15862 0.22987001
0.073086999 0.16295999 0.23251
0.072438002 0.16321 0.23298
0.071869999 0.16408999 0.23345999
0.097762004 0.18027 0.24865
0.098231003 0.18081 0.24818
0.087713003 0.15291999 0.26688001
0.076108001 0.16542999 0.27394
0.053224999 0.17078 0.19352999
0.052749 0.17066 0.19272
0.051938001 0.17004 0.19293
0.056667 0.11167 0.25027999
0.056917001 0.11253 0.25073001
0.046806 0.14306 0.21324
0.047449999 0.14232001 0.21354
0.098451003 0.13296001 0.27875
0.098467 0.13357 0.27743
0.099572003 0.13337 0.27787
0.038509 0.046246 0.24787
0.038617998 0.046886001 0.24710999
0.039411999 0.04738 0.24800999
0.045703001 0.1036 0.24738
0.04479 0.10278 0.24687999
0.13542999 0.16893999 0.26097
0.13534001 0.16899 0.26025999
0.093025997 0.17588 0.24767999
0.042022001 0.060132001 0.24163
0.041055001 0.060029998 0.24112999
0.040374 0.15318 0.22697
0.041487001 0.15327001 0.22743
0.041685998 0.15354 0.22711
0.080689996 0.052641999 0.28452
0.079522997 0.052133001 0.28422001
0.080187 0.053236 0.28310999
0.085591003 0.065444998 0.27842
0.089443997 0.036008 0.28749999
0.089028999 0.16975001 0.24764
0.077832997 0.10252 0.26988
0.077826001 0.10342 0.2703
0.082340002 0.12389 0.26345
0.082018003 0.12342 0.26265001
0.081537001 0.042488001 0.28862
0.080636002 0.042252999 0.28795001
0.068198003 0.17732 0.25268999
0.067593999 0.17723 0.25200999
0.067465998 0.17705999 0.25339001
0.043419 0.10459 0.24845999
0.13305999 0.16670001 0.26205
0.034497 0.06402 0.23591
0.035585001 0.063522004 0.23709001
0.034047998 0.063368998 0.23661
0.090028003 0.072426997 0.28413001
0.086896002 0.036975 0.28569001
0.047998 0.085956 0.24153
0.047869999 0.085208997 0.24181999
0.047205001 0.086378999 0.24059001
0.088076003 0.16886 0.25461999
0.088025004 0.16738001 0.25409001
0.058313001 0.11564 0.2502
0.058959 0.11627 0.2493
0.057482999 0.10256 0.25149
0.056102 0.10127 0.25132999
0.072654001 0.056736998 0.27592
0.073008999 0.057525001 0.27573001
0.087990999 0.16667999 0.24488001
0.088696003 0.16535001 0.24399
0.088389002 0.16599999 0.24463999
0.047814999 0.089699 0.24151
0.12899999 0.15626 0.28013
0.12828 0.15554 0.27989
0.096752003 0.18134999 0.25421
0.096445002 0.18117 0.25440001
0.057659999 0.15265 0.23541
0.056896001 0.15262 0.23569
0.086200997 0.036724001 0.27952
0.085520998 0.036966 0.27857
0.071497001 0.16181 0.28692999
0.070819996 0.16314 0.28612
0.071135998 0.16253 0.28676
0.031895 0.065750003 0.236
0.031989999 0.066399999 0.2357
0.13330001 0.15623 0.27579999
0.035556 0.043207001 0.24223
0.034899 0.043249998 0.24117
0.035108998 0.043683 0.24214
0.080090001 0.16387001 0.26076999
0.079930998 0.16408999 0.26181
0.059328001 0.11137 0.25071001
0.058316998 0.11274 0.2507
0.085840002 0.079163 0.27254999
0.085630998 0.078261003 0.27285001
0.055636 0.093387999 0.25747001
0.056109 0.094223 0.25713
0.074304998 0.17332 0.24697
0.048218999 0.081678003 0.24398001
0.048558999 0.082731999 0.24426
0.079233997 0.12328 0.25569999
0.075139001 0.063428 0.27491
0.076442003 0.061974999 0.27535999
0.075120002 0.061983 0.27476001
0.13748001 0.16063 0.27074
0.13674 0.16069999 0.27138001
0.13679001 0.15956999 0.27147999
0.074281998 0.16421001 0.23237
0.073174 0.16405 0.23272
0.073527001 0.16463999 0.23253
0.041692998 0.073636003 0.23886999
0.095183998 0.13256 0.27816001
0.095174998 0.133 0.27790001
0.096083 0.13246 0.27812999
0.083742999 0.16443001 0.23766001
0.045017999 0.079539999 0.25714001
0.045182999 0.078899004 0.25577
0.1087 0.14683001 0.27379999
0.10856 0.14594001 0.27331001
0.13491 0.15744001 0.26741001
0.13603 0.15761 0.26767001
0.083535001 0.042569 0.28479001
0.090457 0.069002002 0.28132999
0.082066 0.054471999 0.28479001
0.082216002 0.054667 0.28378999
0.082388997 0.055186 0.28454
0.1245 0.14676 0.28195
0.12483 0.14744 0.28262001
0.038035002 0.040646002 0.25071999
0.072034001 0.063468002 0.27504
0.092968002 0.13522001 0.27331999
0.065856002 0.17699 0.25044
0.084729999 0.13088 0.25786
0.084955998 0.132 0.25725999
0.066404998 0.044980999 0.28376999
0.067281 0.045361999 0.28332999
0.038469002 0.095513999 0.23886
0.13659 0.15972 0.26528001
0.13612001 0.16034 0.26467001
0.043526001 0.068911001 0.25176999
0.069334999 0.094704002 0.26420999
0.074542999 0.11401 0.27175
0.074615002 0.11362 0.27114999
0.033339001 0.074918002 0.23261
0.03286 0.076061003 0.23229
0.033902001 0.076002002 0.23203
0.091909997 0.15016 0.27665001
0.091085002 0.14967 0.27531999
0.076274 0.12728 0.25049999
0.074712999 0.12782 0.25060001
0.074643999 0.1284 0.25068
0.047559001 0.15042999 0.21478
0.047816999 0.14938 0.21469
0.080541 0.099858001 0.27252999
0.066701002 0.17554 0.24887
0.038073 0.035987999 0.24428999
0.038093001 0.034619 0.24519999
0.037919998 0.034743998 0.24415
0.076819003 0.10476 0.28354001
0.075225003 0.079392999 0.27168
0.075925 0.079527996 0.27149999
0.097299002 0.13425 0.27513999
0.096980996 0.13375001 0.27531999
0.096684001 0.13349 0.27566001
0.041451 0.051994 0.24891999
0.042502001 0.05319 0.24976
0.041898001 0.051633 0.25048
0.085235 0.12980001 0.26820001
0.085642003 0.13095 0.26883
0.079415001 0.16213 0.23202001
0.078647003 0.16170999 0.23198
0.039639 0.15346 0.22641
0.039749999 0.15350001 0.22759999
0.076504998 0.12031 0.25911
0.077072002 0.12084 0.25863999
0.041292001 0.072437003 0.23822001
0.041464001 0.071925998 0.23894
0.045853999 0.15550999 0.21933
0.045547999 0.15647 0.21871001
0.032637998 0.058724001 0.23820999
0.033498999 0.057707999 0.23782
0.032800999 0.057303999 0.23861
0.067027003 0.1708 0.23254
0.066813998 0.17214 0.23142999
0.079521999 0.054164 0.29244
0.079815999 0.055458002 0.29190001
0.078020997 0.10582 0.27860999
0.078234002 0.10517 0.27869001
0.043506 0.073700003 0.24566001
0.043267 0.074900001 0.24563999
0.090460002 0.081486002 0.28288001
0.086801998 0.13552999 0.26052001
0.038672999 0.060155999 0.24018
0.084775999 0.14712 0.25968
0.12563001 0.17551 0.26565999
0.12564 0.17685001 0.26554999
0.12763 0.17278001 0.27043
0.12799001 0.17303 0.26963001
0.044119 0.057326999 0.25116
0.053020999 0.15719999 0.18494
0.052370001 0.15718 0.18409
0.052471999 0.15748 0.18567
0.080842003 0.1295 0.27757999
0.081046 0.12931 0.27662
0.12650999 0.16652 0.2782
0.12707999 0.16643 0.27838999
0.12692 0.16695 0.27785999
0.08213 0.16326 0.23367
0.076139003 0.16329999 0.27711001
0.076545998 0.16301 0.27562001
0.086898997 0.078128003 0.27333
0.039368 0.046480998 0.25308001
0.133 0.16907001 0.26124001
0.13244 0.16878 0.26179999
0.091569997 0.035856001 0.27324
0.048443999 0.14865001 0.22998001
0.070141003 0.18276 0.22161999
0.069412999 0.18321 0.22119001
0.069536999 0.18327001 0.22136
0.087548003 0.087286003 0.28753999
0.079732001 0.082813002 0.26973
0.079838 0.083906002 0.26919001
0.080321997 0.082777999 0.26980999
0.078106999 0.16857 0.23875
0.077950999 0.16845 0.23682
0.077554002 0.16919 0.23811001
0.037381999 0.082856998 0.23422
0.13431001 0.16437 0.26633
0.045318998 0.078041002 0.24674
0.042417001 0.1041 0.2485
0.087586001 0.091030002 0.28624001
0.087958999 0.090581998 0.28579
0.087549999 0.091342002 0.28591999
0.071686 0.17316 0.24507
0.072521999 0.17318 0.24552999
0.053645998 0.16098 0.18407001
0.13293 0.16948 0.26572999
0.040261 0.093452998 0.23796999
0.048794001 0.14499 0.21882001
0.11819 0.16005 0.28626001
0.089778997 0.13844 0.27114001
0.058355 0.15514 0.18068001
0.047385 0.14472 0.21133
0.061753999 0.10121 0.25349
0.041377999 0.060968 0.25593001
0.067418002 0.11098 0.28571999
0.079195999 0.042488001 0.27957001
0.079512 0.042537998 0.27827999
0.078193001 0.042176001 0.27897999
0.064402997 0.096441001 0.25560999
0.065320998 0.096473001 0.25626001
0.035742 0.034196999 0.25872001
0.036382999 0.035303999 0.25917
0.080395997 0.16356 0.26901999
0.062523998 0.10604 0.25240999
0.061811 0.10558 0.25271001
0.086303003 0.15270001 0.27182001
0.087482996 0.15152 0.27250999
0.087095998 0.15198 0.27179
0.054956999 0.14894 0.18229
0.081102997 0.16655999 0.26583001
0.068741001 0.11705 0.28422999
0.068871997 0.11822 0.28468999
0.068006001 0.11836 0.2852
0.073645003 0.11465 0.26271999
0.073890999 0.11447 0.26392001
0.12661 0.14812 0.27671
0.12683 0.14940999 0.27614999
0.069807999 0.18179999 0.22202
0.068939 0.18173 0.22284
0.072442003 0.17002 0.2739
0.087235004 0.16892999 0.25441
0.087659001 0.079099 0.27397001
0.087659001 0.078024 0.27438
0.081174999 0.053507 0.28904
0.081367001 0.054024 0.28850001
0.092032999 0.036665998 0.29007
0.064349003 0.11942 0.24843
0.063832998 0.11957 0.24843
0.084054001 0.059868999 0.28040001
0.083549999 0.059322 0.27954
0.0836 0.060173001 0.27880999
0.075069003 0.10933 0.26907
0.075309999 0.10949 0.26982999
0.11852 0.14463 0.28911999
0.1191 0.14432 0.28865999
0.049917001 0.15186 0.23723
0.049451999 0.15244 0.23734
0.049924001 0.15302999 0.23737
0.063072003 0.091870002 0.26618999
0.06213 0.091720998 0.26677999
0.055801 0.15639 0.18129
0.054623 0.15616 0.1816
0.055165999 0.15663999 0.1815
0.089452997 0.1734 0.24448
0.087954998 0.1735 0.24498001
0.088101 0.17431 0.24502
0.048842002 0.15058 0.21125001
0.048548002 0.15038 0.20987999
0.048416998 0.15177 0.21126001
0.12172 0.17315 0.27436
0.12258 0.17347001 0.27336001
0.041763 0.072089002 0.24972001
0.068030998 0.12307 0.28521001
0.082870997 0.12646 0.26888999
0.083187997 0.127 0.26811999
0.046679001 0.080421999 0.24675
0.071235999 0.16639 0.28343999
0.068608999 0.16745 0.28285
0.068143003 0.16835999 0.28298
0.043051001 0.086051002 0.23664001
0.076954 0.17011 0.2658
0.07756 0.16892 0.26640999
0.087793 0.039608002 0.28079
0.087601997 0.039923001 0.28099
0.088114999 0.040219001 0.28233999
0.080480002 0.13211 0.25215
0.081596002 0.13105001 0.25292999
0.081805997 0.092845999 0.27021
0.040144 0.070670001 0.25328001
0.085761003 0.15266 0.28174001
0.086374998 0.15256 0.28088
0.085708 0.15313999 0.28049999
0.054039001 0.097567998 0.24995001
0.053901002 0.099128999 0.25029001
0.068522997 0.11636 0.28397
0.067878 0.11582 0.28435001
0.076687001 0.16246 0.27704
0.075990997 0.16257 0.27779001
0.038045 0.04493 0.25176999
0.081611998 0.12373 0.25865
0.075467996 0.12882 0.28505999
0.075646996 0.12830999 0.28439
0.076180004 0.1285 0.28444001
0.067947999 0.18384001 0.22582
0.067625001 0.18361001 0.22490001
0.072526 0.16508 0.28303999
0.072648004 0.11477 0.27835
0.072966002 0.11391 0.2775
0.050774999 0.088685997 0.25894001
0.050981998 0.089002997 0.25847
0.045062002 0.062224001 0.24530999
0.044238999 0.061170001 0.24432001
0.081051998 0.10094 0.28549001
0.072071001 0.056242 0.27651
0.038727 0.068005003 0.2361
0.038334999 0.069017999 0.23524
0.039127 0.069075003 0.23615
0.083765 0.15951 0.23143999
0.083392002 0.15938 0.23054001
0.082521997 0.16008 0.23164
0.084227003 0.094733998 0.27268001
0.076249003 0.10933 0.27394
0.076699004 0.10911 0.27467999
0.094821997 0.14399999 0.27375001
0.090048 0.13937999 0.27105001
0.10788 0.15552001 0.27360001
0.10799 0.15617999 0.27311999
0.086837001 0.13433 0.26631999
0.086686999 0.1332 0.26622999
0.086975999 0.1345 0.26508999
0.085789002 0.16437 0.24052
0.085998997 0.16565 0.24186
0.12186 0.15538999 0.28762999
0.12204 0.15479 0.28771999
0.11893 0.14261 0.27208
0.082627997 0.16189 0.26919001
0.082005002 0.1631 0.26936999
0.11474 0.14940999 0.27265999
0.11437 0.15058 0.27272001
0.11531 0.15057001 0.27257001
0.08907 0.082773 0.28595999
0.038125999 0.15335 0.2353
0.038102001 0.15339001 0.2362
0.12831999 0.17528 0.26256001
0.089969002 0.16787 0.25141999
0.089631997 0.16665 0.25143
0.089295 0.16648 0.25049999
0.11102 0.13767 0.27404001
0.11189 0.13812999 0.27372
0.11299 0.13829 0.27393001
0.056487001 0.093851998 0.25771999
0.056256 0.093560003 0.25830999
0.048542 0.15006 0.23501
0.049185 0.14946 0.23481999
0.063433997 0.12121 0.24593
0.064078003 0.12108 0.2466
0.063997 0.12131 0.24747001
0.053575002 0.092105001 0.25055999
0.053688999 0.092028998 0.25163001
0.086007997 0.13273001 0.27452999
0.047892001 0.11402 0.25275999
0.047237001 0.11377 0.25283
0.047265001 0.11487 0.25286999
0.056940001 0.15684 0.18161
0.052329 0.089817002 0.25738001
0.095326997 0.17818999 0.2484
0.084905997 0.060841002 0.28703001
0.085565999 0.061002001 0.28586999
0.085695997 0.062058002 0.28611001
0.12206 0.15293001 0.27114001
0.12226 0.15385 0.27131
0.081517003 0.053996 0.28718001
0.070560001 0.10334 0.25914001
0.070148997 0.10349 0.25755
0.070153996 0.18008 0.22536001
0.070542 0.18002 0.22575
0.070697002 0.17948 0.22645999
0.087412 0.035879001 0.27756
0.034467999 0.075044997 0.23203
0.073109001 0.17323001 0.25053
0.072920002 0.17351 0.24893001
0.072172999 0.17362 0.24969999
0.074464999 0.043804999 0.29376
0.079800002 0.12164 0.25869
0.084858 0.078455001 0.28870001
0.12779 0.16416 0.27889001
0.12746 0.16323 0.27915999
0.068470001 0.10436 0.25494999
0.084904 0.093180999 0.27245
0.092917003 0.17614 0.24925999
0.092704996 0.17546 0.24882001
0.093374997 0.17696001 0.24944
0.068843998 0.11158 0.28457999
0.069916002 0.11162 0.28354999
0.082120001 0.16967 0.24311
0.082501002 0.10062 0.28371
0.082520999 0.10133 0.28222999
0.081956998 0.10149 0.28306001
0.042094 0.076056004 0.25200999
0.041862 0.075420998 0.2516
0.04287 0.076187998 0.25103
0.045662999 0.06323 0.24601001
0.045347001 0.063098997 0.24469
0.045118 0.063299 0.24468
0.039347 0.10496 0.24976
0.039528001 0.10592 0.25027999
0.12896 0.17151999 0.26363
0.072524004 0.10687 0.26192999
0.090441003 0.17587 0.24557
0.089537002 0.17531 0.24535
0.083007999 0.14475 0.25690001
0.080847003 0.078778997 0.27124
0.081432998 0.078163996 0.27138999
0.063938998 0.17365 0.24703
0.064707004 0.17343999 0.24671
0.064331003 0.17226 0.24703
0.074635997 0.16531999 0.27722001
0.074515 0.16626 0.27739999
0.047738001 0.14806999 0.22773001
0.047805998 0.14848 0.22708
0.084614001 0.15727 0.2308
0.058093 0.16399001 0.1858
0.058566999 0.16384999 0.18521
0.078431003 0.12325 0.27461001
0.078960001 0.12318 0.2739
0.12281 0.15725 0.28536999
0.12212 0.15828 0.28547001
0.12223 0.15738 0.28602999
0.070597999 0.063606001 0.27542001
0.070525996 0.062091 0.27511999
0.0473 0.14131001 0.20839
0.046280999 0.14277001 0.20964999
0.047001999 0.14146 0.20953999
0.12548 0.15076999 0.2841
0.12492 0.14938 0.28426
0.12568 0.15064 0.28327
0.085488997 0.096166 0.28525001
