# .PCD v0.7 - Point Cloud Data file format
VERSION 0.7
FIELDS x y z
SIZE 4 4 4
TYPE F F F
COUNT 1 1 1
WIDTH 1423
HEIGHT 1
VIEWPOINT 0 0 0 1 0 0 0
POINTS 1423
DATA ascii
-0.046735 0.023643 0.087260999
-0.0066014999 -0.010099 0.069269001
-0.036010001 -0.038903002 0.12139
0.0078048999 0.018021001 0.086450003
0.013612 0.017314 0.085323997
-0.0043207002 -0.0089747999 0.068814002
0.010343 0.00026870001 0.069755003
-0.037608001 0.0028224001 0.088692002
0.073054999 -0.0040707998 0.091651
0.073702 -0.0031995 0.091766998
-0.061760999 0.021796999 0.10625
-0.061854001 0.023089999 0.10682
0.026298 0.014962 0.087321997
-0.029189 -0.013531 0.057046
-0.048083 0.037909999 0.11821
-0.047063999 0.038369 0.11823
-0.04662 0.038268 0.11871
-0.00064024999 -0.0097043999 0.068985
0.081586003 -0.0044991998 0.082479
0.082641996 -0.0050130999 0.082415
0.028689001 -0.039909001 0.069673002
0.081380002 0.017539 0.089378998
0.081928998 0.018920001 0.090666004
-0.011929 0.012793 0.085557997
-0.011954 0.01338 0.086506002
-0.039379999 0.028309001 0.083609998
-0.0614 -0.033100002 0.063037001
-0.012653 -0.030192001 0.11561
-0.012923 -0.030160001 0.11475
-0.01432 -0.030385001 0.11545
0.0092297997 0.012332 0.093059003
0.015055 0.0012024 0.070710003
0.015085 0.0014125 0.071010999
-0.043372001 0.028380999 0.081906997
0.098394997 0.024302 0.079605997
-0.029232999 -0.015018 0.060233999
-0.037505001 -0.021474 0.069949999
-0.051709998 0.028041 0.095156997
-0.037500001 -0.020168001 0.065384999
-0.049336001 -0.031580999 0.059168998
-0.066252999 -0.035610002 0.055962
-0.037402 -0.02148 0.075119004
-0.024495 -0.036015 0.13282
-0.025769001 -0.036713 0.13207
-0.025806 0.0025177 0.085409001
-0.027271001 0.0027953 0.085474998
-0.047545001 0.015245 0.090695001
-0.069054 -0.0014300999 0.11322
-0.068299003 -0.0013466 0.11214
-0.05353 -0.036139 0.071787998
-0.052260999 -0.034995001 0.071863003
-0.053385001 -0.035149001 0.072673999
-0.046778999 -0.0085143 0.088664003
-0.014482 -0.030308001 0.11486
-0.013469 -0.030254001 0.11436
-0.012049 0.0035075 0.079550996
0.027286001 -0.039872002 0.07051
0.026280999 -0.040199999 0.070963003
-0.035528999 -0.020640001 0.061939999
-0.047559001 -0.013837 0.093841001
0.083561003 0.021465 0.085654996
0.084936 0.021405 0.085196003
0.0057434998 0.0080864998 0.074336998
0.0057211998 0.0086927004 0.074841999
0.050624002 -0.02272 0.082648002
-0.053105 -0.0069482001 0.10407
-0.044977002 -0.018439 0.094851002
-0.033211999 -0.028677 0.053869002
-0.033806998 -0.028438 0.053844001
0.095615 0.013531 0.090163
0.09437 0.012066 0.090732001
0.095646001 0.011986 0.090028003
0.093535997 0.029548001 0.08145
0.093437999 0.030858999 0.081417002
-0.050434001 -0.0053602001 0.091764003
-0.047111001 -0.011563 0.087485999
-0.046835002 -0.010889 0.087125003
0.049026001 -0.021646 0.089188002
0.070014 -0.01217 0.085339002
0.070669003 -0.011106 0.085593998
0.071362004 -0.012797 0.084342003
-0.051479001 -0.0092737004 0.096619003
-0.050787002 -0.0094125001 0.095641002
0.016073 0.017615 0.091513999
0.015112 0.017995 0.091016002
-0.053904999 -0.029100999 0.067923002
-0.052956998 -0.029645 0.066097997
-0.031422 0.0036317999 0.090048999
-0.032331001 0.0041339002 0.090524003
0.098444998 0.031093 0.084587999
-0.030370001 -0.011894 0.061813999
-0.030098001 -0.012291 0.063380003
-0.02963 -0.013232 0.061783999
0.0030217001 0.01086 0.078243002
0.051966999 -0.020981001 0.079305001
-0.016334999 -0.0040016002 0.073546
-0.015915001 -0.0031232999 0.073972002
-0.018043 0.00083019998 0.082852997
-0.047455002 0.019497 0.090770997
-0.046932999 0.020114001 0.091334999
-0.049176998 0.0045866999 0.087064996
-0.027287999 -0.028922001 0.059829999
-0.050627999 0.026978999 0.092524998
-0.0077152001 0.0068600001 0.087168999
-0.028951 -0.030926 0.058752
-0.048085 0.012274 0.093584999
-0.047874 0.012159 0.094587997
-0.047849 0.010822 0.094134003
0.035728998 -0.031344999 0.069790997
-0.066225 0.031773999 0.12085
0.058357999 -0.037388001 0.069227003
0.058658 -0.036393002 0.069319002
-0.058956999 0.0075466 0.10175
-0.046544001 0.010991 0.091081001
0.013882 0.018909 0.089576997
-0.07519 0.033408999 0.13264
-0.042169999 -0.015974 0.083814003
-0.025023 -0.037902001 0.13696
-0.078422002 0.030445 0.11878
-0.0092075001 0.0012235 0.073689997
-0.063036002 0.028349999 0.11413
-0.062977999 0.029376 0.11412
-0.060851 -0.039457001 0.059190001
-0.058761999 -0.039283 0.059946001
-0.060102999 -0.039227001 0.060460001
0.085005999 0.024302 0.091317996
0.085251004 0.025255 0.09155
-0.037911002 -0.023569001 0.065902002
-0.051438998 -0.0053552999 0.093442999
-0.076103002 -0.0028868001 0.13658001
-0.064838 0.0038789001 0.1096
-0.039271001 0.032488 0.084923998
-0.039191999 0.031039 0.085832998
-0.029105 0.0069403001 0.091003001
-0.079425 0.021636 0.13847999
-0.049206998 -0.0056921002 0.087132998
0.089024998 0.0055038999 0.084638998
-0.057874002 0.020221001 0.10099
0.012136 0.01245 0.078781001
0.011068 0.012935 0.079634003
0.012486 0.013128 0.079295002
-0.063501 0.0040722 0.10795
-0.063735001 0.0054068002 0.10768
-0.060375001 0.015104 0.12037
-0.060509 0.013749 0.12073
0.078771003 0.011068 0.091279998
0.077891 0.010785 0.092586003
0.078883998 0.0028236001 0.094801001
0.078431003 0.0041076001 0.093791001
0.051440001 -0.032202002 0.068164997
0.050345998 -0.031599998 0.068441004
-0.036274999 -0.024433 0.070974998
-0.034609001 -0.012165 0.068345003
0.052618001 -0.018217999 0.083793998
0.053339001 -0.017278001 0.083814003
-0.078391999 0.024874 0.12627999
-0.079498 0.024976 0.12696999
-0.035014 0.012762 0.089714997
-0.033941999 0.012382 0.089621
-0.033264 -0.035677001 0.056474999
-0.070046 0.0078932997 0.12076
-0.033730999 -0.039448999 0.11769
-0.034889001 -0.039094999 0.11839
-0.051681001 0.036559001 0.1229
-0.050391998 0.036254998 0.12241
0.00062936998 -0.036520001 0.11298
0.0018454 -0.037808999 0.11203
-0.049288999 -0.0083550997 0.10991
0.066647999 -0.0051158001 0.096886002
0.067980997 -0.0041518998 0.096773997
0.021268001 -0.0012702 0.073446997
-0.032499 -0.025474001 0.086599998
-0.032721002 -0.011878 0.057048999
-0.063047998 0.027589999 0.11199
-0.062568001 0.028223 0.11235
0.013155 0.015479 0.083513997
-0.070707001 -0.0091883997 0.12257
-0.073238999 0.041186001 0.12594999
-0.081453003 0.025792001 0.13131
-0.081903003 0.025729001 0.12993
-0.081399001 0.024972999 0.13006
0.063922003 -0.016102999 0.073839001
0.063289002 -0.015224 0.073636003
0.062913999 -0.014651 0.074381001
0.086130999 0.0069432999 0.084687002
-0.04823 0.029718 0.087678
-0.048443999 0.02905 0.088402003
-0.079774 0.023565 0.12273
0.086184002 0.022854 0.085265003
-0.042826001 -0.0024061999 0.086185999
-0.021345999 -0.036633 0.11271
-0.044195 -0.029278999 0.063951001
0.056478001 -0.017622 0.076782003
0.029394999 -0.038941 0.078287996
-0.029394999 -0.016248999 0.060164001
-0.05424 0.010962 0.094237998
-0.054903999 0.010619 0.095112003
0.020622 0.011042 0.077696003
-0.043543998 0.032370999 0.086634003
-0.044233002 0.031019 0.086499996
-0.044955999 0.032379001 0.085940003
-0.028244 -0.034928001 0.11609
-0.028643001 -0.035627998 0.11607
-0.037225001 -0.02335 0.087752998
-0.054143 0.027352 0.098039001
-0.039492998 -0.022632999 0.093711004
-0.047076002 0.017518001 0.093708999
-0.035804 -0.025083 0.094497003
-0.034965999 -0.025417 0.094841003
0.094861999 0.020330001 0.081735
0.096473001 0.021462999 0.081285
0.014871 0.012445 0.078840002
0.022816001 0.017478 0.089873999
0.024676999 0.01737 0.090838999
0.023817999 0.017123001 0.090214998
-0.052829999 -0.0078883003 0.10276
-0.053086001 -0.0074129002 0.10136
0.051114 -0.029284 0.074827
-0.063305996 -0.033282001 0.079296999
-0.063161001 -0.032834999 0.078947999
-0.027601 -0.037610002 0.057684999
0.090622999 0.030377001 0.083117999
-0.066073 0.015197 0.10896
-0.056873001 0.0069805002 0.098388001
-0.056017999 0.0060227001 0.097599998
0.062004998 -0.012761 0.071074001
-0.065664999 -0.0014214 0.11491
-0.064643003 -3.617e-05 0.11644
-0.065191001 -0.00044064 0.11829
0.052324999 -0.029671 0.097767003
0.052793 -0.028731 0.097969003
-0.077422 0.024111999 0.13797
0.0055583999 -0.0078325998 0.069784001
0.0051953001 -0.0068858 0.069329001
-0.056883 -0.00017421 0.10551
-0.055891 -0.0010994 0.10677
-0.056417 -0.00042823999 0.10714
-0.0079736998 0.0021218001 0.073620997
-0.0089467 0.0019039999 0.074373998
-0.057960998 0.025714001 0.10212
-0.057732001 0.026395001 0.10261
-0.030152 -0.0035512 0.082116
-0.031342 -0.0033501 0.082400002
-0.041650999 0.032497998 0.085878
-0.042473 0.032999001 0.085381001
-0.026535001 0.030926 0.10713
-0.069641002 -0.010458 0.12474
-0.068161003 -0.010743 0.12554
-0.069239996 -0.010524 0.12535
-0.040367998 0.0027766 0.088606
0.013065 -0.0041204998 0.070915997
-0.078745 -0.0037368 0.12741999
-0.043207999 -0.010964 0.085281
-0.013476 -0.032938998 0.11078
-0.011983 -0.032924999 0.11039
-0.075129002 -0.0074558002 0.12346
0.021214001 -0.038803998 0.075254999
0.047952 -0.032611001 0.077299997
0.048241999 -0.031615999 0.076605998
0.069678999 -0.01028 0.089447998
0.099601001 0.043177001 0.078851998
0.081552997 0.018688999 0.089786999
0.10072 0.024670999 0.078653
0.10166 0.02495 0.078607
0.055133 -0.020911001 0.075589001
-0.069509998 0.014506 0.1214
-0.074171998 -0.0070278002 0.1221
-0.073748998 -0.0073527 0.12271
-0.073342003 -0.0078766998 0.12329
0.020868 0.010109 0.077274002
0.057955999 -0.020683 0.071084
-0.080082998 -0.0043533999 0.1236
-0.059555002 -0.031564001 0.070113003
-0.058800999 -0.031018 0.069872998
0.08286 0.024286 0.087329
-0.040289 -0.0054974002 0.082583003
-0.039921001 -0.0048059002 0.083283998
-0.036047 -0.01375 0.071110003
0.083517 0.026976001 0.088471003
-0.045054 0.018121 0.089916997
0.099679001 0.045766 0.078442
0.10127 0.045584001 0.079323001
0.088535003 0.017576 0.084000997
0.087278999 0.018823 0.084190004
0.088411003 0.018944999 0.083549999
0.069835 -0.039101999 0.071158998
-0.067272 0.0094953002 0.11771
0.055008002 -0.018138999 0.076576002
0.081805997 -0.011516 0.082785003
-0.038571 -0.0097658001 0.079166003
0.018604999 0.011376 0.078537002
0.057484001 -0.028209999 0.068888001
0.057521001 -0.027061 0.068689004
-0.031819001 -0.037533998 0.1318
-0.031567 -0.037182 0.12989999
-0.032545999 -0.037673999 0.13016
0.0014695 0.0040834001 0.071168996
-0.064341001 0.0052784001 0.10835
-0.060518999 0.034019001 0.10312
-0.044780999 0.025970001 0.097836003
-0.044831999 0.026928 0.099468
-0.044721 0.025875 0.098842002
-0.071107 -0.0093802996 0.12537999
-0.072166003 -0.0088531002 0.12614
-0.075430997 0.036527999 0.12869
-0.074786998 0.036063001 0.12971
-0.049102001 0.026151 0.090079002
-0.048684001 0.026722999 0.089887999
0.0091971001 0.01185 0.076839998
-0.026388999 0.0012118 0.088367
-0.064866997 -3.4053999e-05 0.11224
-0.064181 -0.0016533 0.11162
-0.064549997 -0.00065290998 0.11153
-0.035790998 -0.024116 0.089397997
0.028210999 -0.035657998 0.064718999
0.028984999 -0.035195999 0.064084999
-0.063507996 -0.012031 0.12321
-0.063740999 -0.012221 0.12178
-0.063894004 -0.010784 0.12172
-0.02004 -0.0030193999 0.07835
-0.048974998 -0.012002 0.095489003
-0.061705001 0.03675 0.10357
-0.036146998 0.031135 0.10874
-0.035337001 0.031640999 0.10881
-0.034621999 0.032085001 0.10854
-0.056334 -0.0011352 0.10461
-0.066625997 0.0017323 0.11236
-0.059413999 -0.03314 0.060174
-0.065300003 -0.01812 0.12186
0.072624996 -0.0066714999 0.088532999
0.073103003 -0.0056242002 0.087278001
0.00043774 -0.0055181002 0.068388999
-0.046865001 -0.0085441004 0.089139998
-0.04744 -0.0082323998 0.089683004
-0.023561001 0.044537999 0.10763
-0.02437 0.043297999 0.10835
-0.024707001 0.044679001 0.10815
-0.044190999 0.044098001 0.11879
-0.067011997 0.018395999 0.11196
-0.060950998 -0.034363002 0.060633998
-0.071199 0.034632999 0.13186
-0.070918001 0.033592999 0.13240001
-0.070157997 0.033488002 0.13167
0.084092997 0.033612002 0.087922998
0.083687 0.033851001 0.088734999
0.083733998 0.034696002 0.087883003
-0.030089 -0.0001676 0.085736997
-0.029387999 -0.00062086002 0.085688002
-0.037519999 0.0078148004 0.091952004
0.095559999 0.0085663004 0.087683
0.094332002 0.0079616001 0.086802997
-0.048009001 0.031918999 0.10293
-0.038079999 -0.012088 0.076095998
-0.03816 -0.013217 0.076117001
-0.074152999 0.023128999 0.12195
0.052962001 -0.015321 0.086921997
-0.031670999 -0.032033 0.055319998
-0.031939998 -0.032887999 0.056782
0.059002001 -0.014027 0.084223002
-0.017573999 -0.0041053002 0.074074998
-0.039627999 0.013511 0.091351002
-0.039732002 0.013097 0.091476001
-0.040316001 0.013699 0.092030004
-0.010523 -0.0081906002 0.069632001
-0.070570998 0.0050610998 0.1152
-0.015714999 -0.030285001 0.11534
-0.015725 -0.030544 0.11573
0.017766001 -0.0026225999 0.072164997
0.017635999 -0.0012302001 0.072071001
0.018436 -0.0025605999 0.072908998
-0.030711999 -0.036963999 0.1304
-0.035990998 -0.0039479001 0.082088001
-0.066051997 0.0068450999 0.1234
-0.066032 0.0082087005 0.1231
0.059241999 -0.012295 0.072890997
0.022963 0.012534 0.10169
0.035840001 -0.031835001 0.074008003
0.035831999 -0.031536002 0.072572
0.028189 0.017116001 0.097764999
0.028909 0.016866 0.098612003
0.0027647 0.013227 0.087136
-0.053367 -0.032466002 0.058766998
-0.0024500999 -0.0016977 0.069247998
-0.0013074999 -0.0017109 0.068966001
0.0076847998 0.0065588998 0.072273999
0.0073577999 0.0075449999 0.072884999
0.0074637001 0.007404 0.072462
-0.040506002 0.033876002 0.085288003
-0.041455001 0.033500001 0.085364997
-0.05288 -0.037620999 0.057358999
-0.046654001 0.00027935 0.086575001
-0.073996 0.040973999 0.12185
0.028709 -0.03644 0.067107998
0.028547 -0.035489 0.065745004
0.060656 -0.011617 0.068346001
-0.049226001 0.033656001 0.095141001
-0.040337998 0.014859 0.092353001
0.10042 0.045634001 0.079377003
-0.033087 0.012694 0.090699002
-0.031122999 0.033822 0.10862
-0.030441999 0.033675 0.10919
-0.053568002 0.0040177 0.094765
-0.02221 -0.00061832002 0.087186001
-0.020671001 5.9869999e-05 0.087086
-0.029898999 -0.036725 0.060010001
-0.030755 -0.037806999 0.061127
-0.029433001 -0.037900001 0.060159001
-0.047742002 0.031957 0.098761998
0.086438999 0.019053999 0.085414
-0.035278998 -0.035498001 0.1198
-0.034534 -0.034968 0.11936
0.076342002 0.0010791 0.092007004
-0.034782 -0.028387001 0.054129999
0.014248 0.0079680998 0.073302001
0.013074 0.0083705997 0.073117003
-0.046888001 -0.029588999 0.063568003
-0.045288999 -0.029296 0.064186998
0.085712001 0.037616 0.08783
0.086765997 0.03692 0.088610001
0.040378001 -0.033998001 0.067184001
-0.033199999 -0.019629 0.061154
-0.066707 0.016333001 0.12184
-0.065428004 0.016394001 0.12162
-0.067431003 0.016563 0.12093
-0.032127999 -0.030903 0.054533999
-0.030977 -0.029912001 0.053869002
-0.031211 -0.030532001 0.054303002
-0.031411 0.0085960999 0.087932996
0.051297002 -0.029324999 0.071828999
-0.050863001 0.024347 0.092582002
-0.059117999 0.038339999 0.12316
0.078162 -0.01067 0.082754001
0.076424003 -0.010869 0.083255
-0.069711 -0.0062936 0.11864
-0.068471998 -0.0052888999 0.11808
-0.068958998 -0.0062128999 0.11774
-0.054652002 -0.032288 0.059455
0.063169003 -0.01476 0.072674997
0.062711999 -0.015165 0.071327999
0.062350001 -0.01338 0.071114004
-0.022755999 0.044608001 0.10755
-0.023626 0.043145001 0.10759
-0.048804998 0.0085397996 0.088588998
-0.065599002 -0.0011850999 0.13109
0.086211003 0.013464 0.084650002
-0.069293998 0.01076 0.11965
-0.027825 0.0063805999 0.088533998
-0.027589001 0.0054943999 0.089336
-0.027099 0.0055618999 0.088544004
-0.031865001 -0.0075464002 0.076774001
-0.085124999 0.025309 0.12537
-0.033172 0.036453001 0.1088
0.016129 0.014996 0.094811
0.015915001 0.015946999 0.094360001
0.076683 -0.0038763001 0.086255997
0.07728 -0.0044423002 0.084152997
-0.010702 0.010644 0.087777004
-0.065761998 -0.013578 0.12445
-0.02025 -0.031075001 0.12181
0.068814002 -0.0093815997 0.091894001
0.067776002 -0.0094581004 0.092754997
0.068171002 -0.0088911997 0.09285
0.0065478999 0.014014 0.081904002
0.086052001 0.027035 0.091453001
0.049771 -0.032405 0.068241999
0.048549 -0.033464 0.067993
-0.024102001 -0.0038143999 0.079485998
-0.024274999 -0.0034087 0.080702998
-0.070619002 0.039586 0.113
-0.050678 -0.0040925001 0.091802001
0.014205 0.010013 0.075570002
0.013772 0.010809 0.076567002
0.015254 0.010672 0.076085001
0.055411998 -0.024018999 0.072687998
0.055769999 -0.023003001 0.072844997
0.056150999 -0.022913 0.071583003
-0.028227 -0.017727001 0.059774999
-0.057900999 -0.03118 0.071149997
0.096421003 0.017449999 0.081877001
0.097332999 0.017872 0.081655003
0.058403 -0.03035 0.069319002
0.058488 -0.029717 0.069165997
0.056088001 -0.014399 0.080807
0.057039 -0.013944 0.080343999
0.0047312002 -0.0053849001 0.069004998
0.077010997 0.0017704 0.092226997
-0.044364002 -0.012028 0.086820997
-0.042281002 -0.018935001 0.088025004
0.082795002 0.040052 0.090230003
0.083380997 0.039923999 0.089512996
-0.033115 -0.027889 0.053794
0.10185 0.045302 0.078589998
0.10227 0.044346999 0.078759998
0.044831999 -0.034988999 0.066949002
0.046224002 -0.035089001 0.067273997
0.022831 -0.037616 0.076894999
0.023759 -0.037857998 0.077569999
0.00015219999 0.01126 0.080558002
0.051984999 -0.019365 0.082367003
0.052181002 -0.018916 0.083392002
-0.02342 -0.030594001 0.11753
-0.024676001 -0.030957 0.11802
-0.065295003 0.030081 0.12166
0.029890999 -0.03458 0.066375002
-0.044436 -0.035037 0.057089001
-0.044695999 -0.036375001 0.056988999
-0.073155001 0.040181998 0.12065
0.068080999 -0.013076 0.087557003
-0.053580999 -0.0031049999 0.096490003
-0.0011841001 -0.039115001 0.11241
-0.039310001 -0.019959999 0.084035002
0.082036003 0.020066001 0.090577997
-0.055296 0.024307 0.098526999
-0.054549001 0.035457 0.11656
-0.052767001 0.035303999 0.11732
-0.041196 0.012002 0.087370001
-0.030149 -0.039985999 0.058818001
-0.031695999 -0.039754 0.057953998
0.083356 0.0067520998 0.085654996
-0.072527997 0.0066722999 0.12648
-0.079452999 -0.0033034999 0.12797999
-0.070441 -0.037652001 0.066294
-0.071002997 -0.037462 0.065167002
-0.075703003 -0.0029757 0.12868001
-0.074392997 -0.0029527 0.12802
-0.041244999 0.038070999 0.079071
-0.040933002 0.038187999 0.079049997
0.081837997 0.020048 0.087783001
-0.072746001 -0.002206 0.12861
-0.072981998 -0.0027266999 0.12740999
-0.076026 -0.00072290999 0.12281
-0.069697998 -0.00068180001 0.12698001
0.056646999 -0.026106 0.068464004
-0.069914997 0.037021 0.11534
-0.019580999 -0.032349002 0.12597001
-0.020532999 -0.031614002 0.126
0.083925001 -0.0026416001 0.082676999
0.083829999 -0.0013737 0.082837
0.090696998 0.017943 0.083378002
-0.068180002 0.013807 0.12318
-0.067469001 0.014483 0.12303
-0.041933998 -0.013246 0.083792999
-0.042343002 -0.014844 0.084588997
-0.042433001 -0.013511 0.084431998
0.080811001 -0.0041009998 0.082483001
0.080248997 -0.0030381 0.08348
0.060178999 -0.030720999 0.070124
0.059942 -0.031266 0.070506997
-0.060286999 -0.032816999 0.062479999
0.076958999 0.00076606002 0.08918
-0.03503 -0.01393 0.066270001
-0.029168 -0.029717 0.054391
0.0069380999 0.0087133003 0.074492
-0.031803999 -0.038975999 0.11558
0.017747 0.0024820999 0.072079003
0.055512 -0.037597999 0.069204003
0.056120001 -0.039264001 0.069388002
-0.040057998 0.028538 0.099758998
-0.039168 0.029234 0.10028
-0.038422 0.029377 0.099570997
-0.042502001 0.011987 0.087379001
0.086070001 0.004979 0.083677001
0.079209 0.00185 0.089846998
-0.034875002 -0.022351 0.073822998
-0.070487998 0.0077530001 0.12233
-0.070500001 0.0082203997 0.12166
-0.038718 -0.029743999 0.056116
-0.069982 0.013625 0.12038
-0.069935001 0.013484 0.12172
0.081761003 0.017573999 0.087834999
0.081387997 0.018054999 0.088970996
0.081587002 0.018739 0.087921999
0.076516002 -0.013643 0.083144002
-0.036311001 -0.016824 0.065393001
-0.056492999 0.0052840002 0.098213002
-0.019905999 -0.030422 0.1159
-0.047853999 -0.031048 0.068604998
-0.046604998 -0.030709 0.067985997
-0.030750001 -0.037466999 0.13125999
-0.072067 0.028448001 0.11661
-0.041448999 0.042084999 0.079550996
-0.063629001 -0.013431 0.12325
-0.060433 -0.034497 0.060883999
0.048733 -0.017751001 0.088211998
0.076374002 -0.001838 0.088023998
0.075577997 -0.0026159999 0.088620998
0.077804998 0.011975 0.095555998
0.033004999 -0.032210998 0.077134997
-0.047734998 0.020446001 0.091338001
-0.048997998 0.021430001 0.091577999
-0.046806999 -0.014949 0.10146
-0.073881999 0.032334998 0.11935
-0.037797 0.00080331002 0.086430997
-0.037439 -4.9693001e-05 0.085822001
0.010949 0.014241 0.092101
0.010649 0.013572 0.092354
-0.038591001 -0.023209 0.096170999
-0.038447998 -0.023664 0.094920002
-0.037919 -0.023448 0.095872998
-0.069328003 0.027136 0.11274
-0.035797998 -0.021028001 0.060899999
-0.064232998 -0.0050352002 0.10796
-0.064227 -0.0041386001 0.10815
0.056343999 -0.037902001 0.069104999
0.048372999 -0.023251999 0.093102001
-0.077292003 0.02974 0.11779
-0.077675 0.030456999 0.1183
-0.065908998 0.037726 0.1171
-0.066032998 0.036552001 0.11709
-0.066854998 0.037351001 0.11795
-0.014354 0.0037127 0.088077001
-0.061087999 0.038566001 0.12282
0.063349001 -0.027131001 0.079499997
0.063293003 -0.026618 0.080734998
-0.026143 0.00038533 0.087242
0.00018541 -0.039868001 0.11475
-0.011962 0.0022432001 0.076544002
-0.010573 0.0028402 0.076474003
-0.011017 0.0021834001 0.075935997
0.10384 0.030339001 0.077466004
-0.063033998 0.015075 0.12123
-0.063681997 0.013506 0.12186
-0.031886999 -0.0037475999 0.081661999
-0.064727999 -0.0047372999 0.10867
-0.064668998 0.02727 0.12999
-0.064678997 0.028418999 0.13012999
-0.065690003 0.026896 0.13062
0.060961001 -0.012536 0.074656002
-0.070129 0.035526 0.11422
0.055672999 -0.020020001 0.075475
0.054653998 -0.020112 0.076352
-0.024134999 0.042746 0.111
-0.071630999 -0.0056099002 0.11757
0.023419 -0.038075 0.070719004
0.013151 0.012951 0.078736
0.078042999 -0.0053925002 0.083033003
0.078419998 -0.0042003999 0.083454996
-0.031466998 -0.034673002 0.11991
-0.032359 -0.035138998 0.12014
-0.031693 -0.035792999 0.12052
-0.040718999 -0.019562 0.086161003
0.020869 0.018381 0.089538001
0.021857999 0.017983001 0.090037003
0.085023999 0.026993999 0.085561
0.085670002 0.026751 0.085359998
0.054076001 -0.018510001 0.079187997
0.017082 0.010993 0.076337002
-0.061276 -0.038626999 0.055291001
-0.060594998 -0.038977001 0.055877
-0.037051 -0.025916999 0.055277001
0.10117 0.029324001 0.081835002
-0.051920999 0.0028766 0.092244998
-0.051481001 0.0012281 0.092846997
-0.051943 0.0026542 0.092633002
0.019896001 0.0063191 0.074525997
-0.071170002 0.00017823 0.11555
0.087360002 0.036573 0.088345997
0.087039001 0.036674999 0.090189002
0.087688997 0.036256999 0.089427002
0.05429 -0.028185001 0.069020003
0.053383 -0.028664 0.069719002
0.051557001 -0.02613 0.086381003
-0.027566001 -0.040305998 0.058077998
-0.0057051 0.0042105 0.07463
-0.083714001 -0.0017447 0.12848
-0.054648001 0.043836001 0.10076
0.036541 -0.031597 0.079147004
0.035928998 -0.032175001 0.080021001
0.083214 0.024839999 0.086585999
-0.069227003 0.0068302001 0.11705
-0.068937004 0.0057402998 0.11761
-0.076742999 0.032465 0.1191
-0.076086 0.032947 0.1192
-0.030061999 -0.026463 0.084312998
-0.06095 0.039402001 0.1252
-0.050721999 -0.034754999 0.057142001
-0.076206997 -0.0041236999 0.12017
-0.055619001 0.0097949998 0.095724002
-0.055732999 0.010252 0.096005
0.054632001 -0.016853999 0.081389003
-0.030513 -0.030898999 0.054800998
-0.010823 -0.029624 0.1164
-0.0099636 -0.030289 0.11722
-0.055659998 0.014861 0.097649999
-0.059858002 0.013508 0.10227
-0.031819001 -0.026387 0.052907001
0.0067762001 -0.039882999 0.11272
0.0081454003 -0.038929999 0.11369
-0.061953001 0.035985 0.10597
0.023968 -0.036793001 0.075391002
-0.013443 0.0063318 0.085915998
-0.069973998 0.0054716999 0.12061
0.053785998 -0.033643 0.068204999
0.0070412001 -0.038757998 0.11206
0.0062460001 -0.038162999 0.11216
0.0073225 -0.038215 0.11205
-0.072550997 -0.0015749 0.12909999
-0.071493 -0.0021772999 0.12793
-0.064920001 0.015101 0.11379
-0.064928003 0.016128 0.11401
0.012166 0.016825 0.090461999
0.087998003 0.035096999 0.087861001
-0.061283998 0.0019608 0.10324
0.078579001 0.0051230998 0.093321003
0.078318 0.0040449998 0.092499003
-0.053617999 -0.0050369999 0.098499998
-0.054063998 -0.0051079998 0.099627003
-0.046856001 -0.030657999 0.06024
-0.048115999 -0.030311 0.060268998
-0.016294001 -0.010822 0.070256002
-0.015206 -0.011016 0.069728002
-0.01504 -0.012169 0.069679998
-0.058864001 -0.031916 0.062766001
0.097810999 0.026732 0.084751002
0.097411998 0.028394001 0.085256003
0.096993998 0.028209999 0.085878
-0.071833 -0.0025539999 0.11638
-0.071624003 -0.0040823999 0.11706
-0.0018848 0.012937 0.085698999
-0.061735999 0.0040556001 0.11454
-0.061349999 0.0056862002 0.11477
-0.02833 -0.029131999 0.054451
-0.028519999 -0.029809 0.055477001
-0.056726001 0.00030965 0.1071
0.060550999 -0.014714 0.069192
0.060524002 -0.013736 0.068539999
0.092055 0.033759002 0.084866002
0.092487998 0.033691999 0.085879996
0.058194999 -0.014897 0.074826002
0.058177002 -0.014532 0.075469002
-0.052106 -0.0090885004 0.097983003
-0.017264999 -0.032747 0.11226
-0.01681 -0.031863 0.11299
-0.021942999 -0.031550001 0.12797999
-0.070688002 0.027488001 0.11319
-0.068011001 -0.0040479 0.11942
-0.041035999 -0.036571998 0.11926
-0.040158998 -0.037937 0.11907
-0.048886001 -0.031005999 0.068865001
-0.038720001 0.039308 0.082015
-0.040295001 0.039310001 0.082764998
-0.041023999 0.00078643998 0.087908
-0.040631998 0.0016285999 0.088059999
-0.032090001 -0.0097335996 0.071542002
0.10243 0.039425001 0.080115996
0.10205 0.038722001 0.080429003
0.090594999 0.028244 0.088476002
0.083985999 0.028439 0.089861996
-0.056646001 -3.3675002e-05 0.099274002
-0.046098001 -0.013676 0.090361997
-0.073982 0.0043441001 0.12507001
-0.072839998 0.0035745001 0.12603
0.041908 -0.031477001 0.070335999
0.040477999 -0.031422999 0.070692003
-0.033367999 -0.029828001 0.064851001
-0.047345001 -0.0080947001 0.086103
0.048590001 -0.021534 0.092116997
0.034118999 -0.031587001 0.075327002
-0.037980001 -0.035305001 0.1181
0.077375002 -0.0011699999 0.088311002
0.051858 -0.021132 0.079998001
-0.044553 -0.018439 0.09787
-0.044287998 -0.01849 0.098777004
0.080534004 -0.010671 0.082578003
-0.032377999 -0.039225001 0.11717
-0.064305998 0.02978 0.11493
-0.061919 0.033631001 0.10938
-0.062627003 0.033452999 0.10996
-0.067934997 0.0071802 0.11712
-0.016843 -0.0038999 0.074551001
-0.059078999 -0.032180998 0.072924003
-0.058630999 -0.031307001 0.073008001
-0.041269999 -0.0047578001 0.083472997
0.071387999 -0.013325 0.084628001
-0.0029356999 0.001129 0.071138002
-0.0030356001 0.0017362999 0.071429998
-0.034244999 -0.0068795001 0.079742998
-0.062867999 0.030595001 0.11228
-0.072752997 -0.0068788999 0.1215
-0.072793998 -0.0072591002 0.12239
-0.067645997 -0.039234001 0.066598997
-0.065659001 -0.039124999 0.067198001
-0.063603997 0.00035059001 0.11594
0.03506 -0.031796001 0.068388999
-0.066253997 -0.0025530001 0.11587
-0.03142 -0.035723999 0.057560999
-0.033047002 -0.022582 0.074743003
-0.071849003 0.0015153 0.11639
-0.072306998 7.1233997e-05 0.11628
0.036880001 -0.035041001 0.081298999
0.084743999 0.038148999 0.087800004
0.10036 0.039218999 0.084344998
0.10052 0.037827 0.084518999
0.10169 0.039202001 0.083631001
-0.039926 -0.022330999 0.092913002
-0.059560999 0.034545999 0.1029
-0.059207998 0.034910001 0.10215
-0.069112003 -0.038430002 0.064800002
-0.068871997 0.024276 0.11079
-0.069922 0.024445999 0.11131
-0.068795003 0.025808999 0.11087
0.057946999 -0.028406 0.080551997
-0.044590998 0.031016 0.085868999
-0.045747999 0.031028001 0.086243004
-0.032699 -0.0057414998 0.079584002
-0.032510001 -0.0052367998 0.080372997
0.10725 0.030454 0.076867998
0.10843 0.030433999 0.076961003
-0.071895003 -0.038201001 0.055064
-0.077404 0.025970001 0.11698
-0.053289 0.01091 0.092749998
-0.053798001 0.011526 0.093514003
-0.046528999 0.035344001 0.091205999
-0.047582 0.034469999 0.091062002
-0.044149 0.0011926 0.087630004
0.097964004 0.037810002 0.085242003
-0.067575999 0.034474 0.11876
0.085509002 0.032535002 0.086346
0.084616996 0.032274 0.087054998
0.084455997 0.033658002 0.087196998
0.050903998 -0.025665 0.083962999
-0.056001998 0.024227001 0.099590003
-0.056642 0.024245 0.10035
-0.042536002 0.030236 0.088604003
-0.042746998 0.03097 0.089244001
-0.077252999 0.023881 0.13732
-0.049807001 -0.008657 0.10872
0.0066538001 0.013005 0.079813004
0.0056085 0.01321 0.080333002
0.033459999 -0.033206001 0.081541002
0.054087002 -0.026565 0.072963998
-0.030213 -0.032187 0.058924001
-0.029345 -0.03128 0.060128
-0.029841 -0.031955 0.060097001
-0.059271 0.017967001 0.12169
0.058352999 -0.013394 0.075710997
0.058355 -0.012534 0.076612003
-0.045274999 -0.039039001 0.058097001
-0.049013 0.009141 0.089155003
-0.021519 0.035053 0.11228
-0.070200004 0.026123 0.11648
0.079108998 -0.0041056001 0.082877003
-0.038543999 0.037687 0.082301997
-0.039163001 0.037411001 0.082992002
-0.0083961999 0.010666 0.086264998
-0.046751998 0.019242 0.093047999
0.026107 -0.036382001 0.081161
0.027518 -0.035165999 0.080797002
0.027042 -0.035948001 0.080564998
-0.073096998 0.035262 0.12018
0.089060999 0.0014217 0.084406003
0.088541001 0.0011086999 0.083269
-0.054042 0.040428001 0.10119
-0.047389001 0.035902001 0.10468
-0.032559998 0.00046040001 0.086038001
-0.015567 -0.03221 0.11243
-0.023700999 -0.031668 0.12378
-0.022741999 -0.031619001 0.1237
-0.057856001 0.024325 0.10196
-0.054795999 0.016995 0.097166002
-0.073452003 -0.0040334002 0.13101999
-0.065894999 -0.033773001 0.080237001
-0.032326002 -0.0081856996 0.074961998
-0.051265001 0.038679998 0.11983
-0.064355999 0.01081 0.10742
0.071234003 -0.0038916999 0.093988001
-0.077078 0.038864002 0.12376
0.0045566 0.0075063002 0.074069999
0.0050319 0.0073702 0.073706001
0.081216 0.016146 0.088687003
0.081216998 0.017116001 0.088595003
0.0050142002 -0.040064 0.11272
0.0050511998 -0.039209001 0.11185
0.0060488 -0.038996 0.11195
0.060504001 -0.026903 0.086886004
-0.061884001 0.032710001 0.10632
-0.061149999 0.0045479001 0.10242
-0.050021999 -0.011751 0.10282
-0.022668 0.038010001 0.10726
0.0045703002 -0.010681 0.069530003
-0.063167997 -0.037528001 0.070358001
-0.018972 -0.0043843999 0.073825002
0.0024436 -0.0042095999 0.069201
-0.038818002 -0.02774 0.063352004
-0.0036549999 -0.010973 0.068997003
-0.060033001 -0.031592999 0.075687997
-0.077619001 0.023502 0.13531999
-0.076833002 0.023459001 0.13646001
-0.024038 -0.0067167999 0.076502003
0.024168 0.014097 0.084307
0.025065999 0.01402 0.084409997
-0.024729 -0.027533 0.084230997
-0.024404 -0.027787 0.085689999
-0.024961 -0.027605999 0.085510999
0.022659 0.018278999 0.090558
-0.045639999 0.021586999 0.090557002
0.051148999 -0.015577 0.08884
-0.074337997 -0.0074475999 0.12398
0.054177999 -0.027195999 0.070886001
0.050213002 -0.026358999 0.094976999
-0.022849999 -0.0040332 0.079398997
-0.021443 -0.0038304999 0.078634001
-0.046617001 0.027492 0.086020999
0.075777002 -0.0028184999 0.087632
-0.031399999 -0.0060117999 0.078956001
0.082815997 -0.0065679001 0.081932001
0.082657002 -0.0061062998 0.081956998
-0.049929 2.2468999e-05 0.087107003
-0.050363 0.00093343999 0.087605998
-0.049881998 0.0015873 0.087095
-0.068538003 -0.036981001 0.056379002
0.08326 0.040167999 0.089060001
0.071675003 -0.0079233004 0.088813998
0.059085999 -0.012942 0.092772998
0.058240999 -0.012707 0.092964001
0.059028 -0.012316 0.093608998
-0.060582001 0.016124001 0.10293
-0.050659999 0.018634999 0.092404999
-0.049802002 0.018199001 0.091895998
-0.079784997 0.03424 0.12723
-0.054302 -0.0033197999 0.098292001
-0.012422 0.001556 0.076003
-0.024924001 0.044176999 0.10869
-0.045267001 0.044397 0.11709
-0.044895001 0.045276001 0.11742
0.052258998 -0.024424 0.080509998
-0.067948997 -0.011773 0.1249
-0.068274997 -0.011857 0.12406
-0.032547999 -0.025626 0.053389002
-0.082428999 -0.0043593999 0.12678
-0.045747001 0.040626999 0.11717
-0.029712999 -0.0099021997 0.073422
-0.029495001 -0.010087 0.072883002
0.013118 0.014015 0.080618002
0.013205 0.014483 0.081340998
-0.053766999 -0.0053558 0.10581
-0.032382999 -0.0096257003 0.073014997
-0.042762998 -0.0068414002 0.084501997
0.093020998 0.014923 0.090571001
-0.042771999 0.015128 0.089314997
0.05308 -0.024444001 0.079782002
-0.068415001 -0.0049294 0.11517
-0.067919999 -0.0046774 0.11487
-0.067267999 -0.0041240999 0.11655
0.082781002 0.0045250002 0.091116004
0.083076999 0.0044983001 0.091224
-0.032862 -0.0084634004 0.075087003
-0.048124999 0.028796 0.097988002
-0.061650999 0.004892 0.119
-0.010639 -0.037321001 0.111
-0.011749 -0.037487999 0.11115
-0.065021001 -0.033987001 0.068608001
0.025171001 -0.037595 0.078349002
0.024672 -0.038091 0.078210004
0.024561999 -0.039007999 0.077279001
-0.038649 0.033883002 0.080601998
-0.050646 0.013503 0.092689
0.084573001 0.027665 0.085814998
-0.053947002 -0.029796001 0.070759997
-0.054988999 -0.0030461999 0.1064
-0.054575 -0.0041176002 0.10616
-0.072944 -0.0028131001 0.11725
-0.073099002 -0.0014679 0.11734
0.094782002 0.010232 0.087038003
0.095109001 0.010216 0.087144002
-0.051743001 0.017163999 0.092510998
-0.062937997 0.0015725 0.11395
-0.062352002 0.0019223 0.1138
-0.062089 0.0021788001 0.11453
-0.065403998 -0.033576 0.078668997
-0.064443 -0.033386 0.077725001
-0.080343001 0.026206 0.11952
-0.028237 -0.0050626998 0.079444997
-0.035422999 -0.039239001 0.056642
0.056290001 -0.028943 0.095086999
0.057310998 -0.02949 0.095725
0.055955 -0.029205 0.096299
-0.022952 -0.030495999 0.11797
-0.022885 -0.030183 0.11904
0.041342001 -0.030675 0.075967997
-0.059799001 0.0057616001 0.11457
0.0055435002 -0.0053309002 0.069311999
-0.069251999 -0.0046927999 0.11487
-0.069371 -0.0052525001 0.11564
0.086847998 0.0065918998 0.092399999
0.087779 0.0054456 0.092274003
0.087674998 0.0067906999 0.092436999
-0.032614999 0.0079789003 0.094001003
0.027731 0.013495 0.085111
0.027865 0.013242 0.086414002
0.028196 0.012613 0.084982999
0.031300999 0.013264 0.10231
0.030079 0.013425 0.10289
0.029779 0.01272 0.1035
-0.035867002 -0.037563 0.1237
0.11119 0.02767 0.077173002
0.095573999 0.013487 0.083258003
0.096657 0.013586 0.083002001
0.080113001 0.0026217001 0.094421998
0.080085002 0.0039296001 0.094338998
-0.027225999 -0.022065001 0.056230001
-0.034559999 0.0079763997 0.088694997
-0.059308 -0.031196 0.068613
-0.01983 -0.038741998 0.11576
-0.019171 -0.039558001 0.11725
-0.038447998 0.036626 0.082198001
-0.031415999 -0.0072281999 0.076036997
-0.064580999 -0.039246999 0.063703999
0.013005 -0.002477 0.070684001
0.013002 -0.0013922 0.070625
0.060665 -0.015861001 0.083682999
-0.032224 0.0068784999 0.08766
-0.0064925002 -0.0029465 0.069527
-0.046301998 0.0026219001 0.087925002
-0.080068 0.027571 0.13297001
-0.079568997 0.028229 0.13336
-0.080372997 0.028376 0.1331
-0.030619999 0.0090562999 0.088864997
-0.029348001 0.0085091004 0.089666001
-0.037503 -0.023698 0.094659001
-0.037347998 -0.023964001 0.095973
0.034756001 -0.031548999 0.080017
-0.044713002 -0.003614 0.086750999
-0.045297999 -0.0028444999 0.087177001
-0.044594001 -0.0026205999 0.086815998
-0.049559999 0.020302 0.091444001
0.019599 -0.0026395 0.073123001
-0.035530999 -0.0077208001 0.080045998
-0.050347 -0.002688 0.092092
0.032703001 -0.032441001 0.069816999
0.099262998 0.033027999 0.082915999
0.099000998 0.032984 0.082342997
-0.03083 -0.037239 0.056044001
0.086731002 0.0042407 0.083694004
-0.0691 0.013546 0.12297
0.026102001 0.011837 0.081414998
0.025419001 0.01147 0.081072003
0.0034956001 0.0013543 0.069404997
0.091718003 0.033443999 0.083734997
0.091394 0.032648999 0.085049003
-0.040731002 -0.0034399999 0.084977999
-0.034033999 -0.032837 0.056074001
-0.033482999 -0.032001998 0.055121999
-0.074972004 -0.0020474 0.12658
0.066786997 -0.010786 0.091480002
0.066212997 -0.010524 0.092771001
-0.034811001 -0.016027 0.063141003
0.020982999 0.0025116999 0.073923998
-0.046673998 0.0055739 0.088137001
-0.046785999 -0.034979001 0.057002999
-0.045607999 -0.034988001 0.057108
-0.013255 -0.032060001 0.11113
-0.012046 -0.032171 0.11062
-0.082249001 -0.0021474001 0.12806
0.050399002 -0.024218 0.08365
0.050455 -0.022906 0.084009998
-0.040428001 0.040362 0.082396001
-0.046197999 -0.032338999 0.058462001
-0.047548 -0.032085001 0.058846999
-0.055376999 -0.0024399001 0.10648
-0.054931 -0.0021488001 0.10778
-0.043345001 0.025718 0.094531
-0.043788999 0.025527 0.095415004
-0.043393001 0.024360999 0.095261998
0.093983002 0.0081676999 0.090126999
-0.072209999 0.037291002 0.11848
-0.049233001 -0.0047344002 0.086919002
-0.034481999 -0.011953 0.066416003
-0.034488998 -0.011466 0.067346998
0.085832 0.0078848004 0.084789999
-0.025173999 -0.010143 0.073322996
-0.039508998 -0.022050999 0.098243997
-0.038752999 -0.021422001 0.099466003
0.054448999 -0.027633 0.081344999
0.022058999 0.017236 0.089128003
0.023133 0.016806001 0.089510001
-0.04408 0.034924001 0.087190002
-0.041448001 -0.013544 0.083168
-0.056653999 0.014775 0.098180003
-0.037314001 -0.028425001 0.055367999
-0.034678001 -0.025319999 0.091701999
-0.0052438001 0.011188 0.082864001
-0.005719 0.011694 0.083815001
-0.0045902999 0.011728 0.083273999
-0.022466 -0.033020999 0.12949
0.053509001 -0.026823999 0.080257997
0.087398998 0.013369 0.084287003
0.082396999 0.0050436002 0.089345001
0.082347997 0.023895999 0.088270999
-0.050618999 -0.0093063004 0.094497003
-0.043127999 0.022712 0.092569999
-0.053750001 -0.031266 0.061866999
-0.054919999 -0.031250998 0.062670998
-0.052885 -0.030683 0.063056998
-0.031179 0.010636 0.090139002
-0.030641001 0.0099745002 0.090104997
0.010138 0.011339 0.07767
-0.0022962999 -0.012279 0.069170997
0.080688 0.0080463002 0.090365
-0.0031646001 -0.015800999 0.068878002
-0.0041756998 -0.016193001 0.068687998
-0.0033277001 -0.015292 0.068411
-0.035771001 -0.023352001 0.055948999
-0.035006002 -0.023666 0.05452
0.096132003 0.037572999 0.084665999
-0.050253 0.010452 0.089920998
-0.049284 0.010451 0.089706004
-0.058162998 0.0078637004 0.099843003
-0.075576 0.022856001 0.11842
-0.010466 0.00026561 0.073201001
0.036137 -0.030881001 0.077133998
0.069920003 -0.0084699998 0.090562999
-0.043582 0.013277 0.088529997
-0.037594002 -0.021958999 0.082442999
0.10976 0.029443 0.075597003
0.11132 0.029231001 0.076376997
0.11095 0.029108001 0.075576
-0.046776999 -0.015726 0.093059003
0.077648997 -0.0038523001 0.095605999
0.077481002 -0.002751 0.095431998
-0.043228 -0.00028857999 0.086994998
-0.063538 0.040192001 0.11703
-0.056472 0.035330001 0.11572
-0.055875 0.035332002 0.11692
-0.055125002 0.035213001 0.11551
0.094934002 0.035473 0.081436001
0.095049001 0.034678999 0.081105001
0.052058 -0.01387 0.089663997
0.051713001 -0.014526 0.090184003
-0.047194 0.033312999 0.091982
-0.047022998 0.03413 0.091867
-0.044009998 0.028201001 0.094048001
-0.044406999 0.027323 0.095049001
0.071245998 -0.0096704997 0.08698
0.071469001 -0.010622 0.085022002
-0.068273 -0.0048268 0.11626
0.028216001 -0.035470001 0.069034003
0.1015 0.021754 0.080995001
-0.057289999 0.040061999 0.10237
-0.074933 0.029775999 0.11909
-0.074081004 0.030959001 0.11974
-0.064699002 0.0001003 0.11365
-0.03548 -0.035898 0.1164
-0.071618997 0.021578001 0.11366
-0.037078001 0.00042624 0.086446002
0.094972998 0.024154 0.082188003
0.073403999 -0.0016693 0.094772004
-0.037152998 -0.017402001 0.070542
-0.037728 -0.018895 0.071287997
0.0029362999 0.015258 0.085795
-0.0066141002 0.0097283004 0.082404003
-0.0053494 0.010878 0.082419001
-0.037760001 -0.020264 0.064003997
-0.038107999 -0.021779999 0.063773997
0.073682003 -0.0040656999 0.089622997
0.074533001 -0.0036645001 0.088945001
-0.011431 -0.039898001 0.11542
-0.011416 -0.039873 0.11453
-0.010093 -0.039997 0.11478
0.025003999 0.015311 0.088253997
-0.080348998 -0.0058598001 0.12575001
-0.031870998 -0.033883002 0.061381999
-0.032644 -0.034076001 0.062091
-0.042282 0.033580001 0.088875003
-0.084987998 0.020769 0.12714
-0.037687 0.0070548998 0.091458999
-0.011253 -0.038013998 0.11241
-0.0048527 -0.037967 0.11297
0.068985 -0.014665 0.086085998
0.068520002 -0.014828 0.086792
-0.034988001 0.0043040002 0.090361997
-0.033895999 0.0057963999 0.090443
-0.050609 -0.035558999 0.056790002
0.021974999 0.01471 0.084679998
-0.064222001 -0.0030435 0.11078
-0.068386003 0.035151001 0.10786
0.032320999 -0.03269 0.066749997
0.032065 -0.033073999 0.066215999
0.081772998 0.038392 0.089906998
0.086157002 0.01476 0.091854997
-0.037012 -0.024433 0.063121997
-0.037142999 -0.024908001 0.064415999
-0.048615001 -0.001289 0.086352997
0.019809 0.019497 0.091352999
0.075000003 -0.00041440999 0.094967999
-0.069636002 -0.0094339 0.12186
-0.042057998 0.014256 0.089966998
-0.045109 -0.0038224999 0.087123998
0.0064245998 -0.0028609999 0.069086
0.0055442001 -0.0032112999 0.069095999
0.071547002 -0.0028065001 0.095269002
0.032979 0.019876 0.098847002
-0.0082796002 -0.0093067 0.069110997
-0.0077239 -0.0098941 0.069069996
-0.03813 -0.016128 0.072539002
-0.038155999 -0.015557 0.072168
-0.072663002 0.040649001 0.12156
-0.071817003 0.040249001 0.12118
0.013291 0.0053178999 0.072189003
-0.032993998 -0.035275001 0.11629
-0.033128999 -0.036368001 0.11568
0.079319 0.001311 0.085892998
0.094307996 0.011979 0.083428003
0.093393996 0.011713 0.083580002
0.011502 0.018199001 0.085437998
-0.0094488002 0.0037273001 0.076477997
-0.010308 0.0037968 0.077354997
-0.061641999 0.0015819001 0.10222
-0.060502 0.0015574 0.10307
-0.062038999 0.035215002 0.10283
0.089636996 0.019146999 0.083240002
0.089750998 0.020261001 0.083080001
0.090685003 0.020183001 0.083175004
0.050071999 -0.018469 0.087599002
0.015626 0.0011949 0.10642
-0.070006996 -0.0045741 0.11546
-0.071027003 -0.0041963002 0.11596
-0.0090015996 0.0045137 0.077358
0.081868999 0.018262001 0.087121002
0.081945002 0.018859999 0.087072998
-0.030393999 -0.013506 0.054641001
-0.027881 -0.021286 0.056547999
-0.059735999 0.0035563 0.10618
0.054804001 -0.014536 0.085859999
-0.063639998 -0.013414 0.12171
0.10316 0.041699 0.081253998
0.1026 0.042642999 0.080991998
0.10245 0.041738998 0.082071997
-0.061974 0.002939 0.11472
0.058706999 -0.012055 0.069983996
-0.036295999 -0.039512999 0.1247
0.055778999 -0.035126999 0.069095999
-0.069541998 0.036766998 0.10913
0.078305997 0.014295 0.095959999
-0.025350001 0.0011064 0.089414999
-0.041955002 0.0016573 0.088655002
0.013728 0.015043 0.082624003
-0.068464004 -0.039315 0.064140998
-0.068636 -0.039338 0.063015997
-0.067805998 -0.039499 0.062442999
0.085892998 0.00030099001 0.082355998
-0.058614999 0.0039467998 0.10265
0.0038494 0.0062589999 0.071328998
0.022220001 -0.039243001 0.068710998
0.022459 -0.038043 0.068824001
-0.068957001 -0.0047593 0.11481
0.10218 0.043099001 0.081525996
-0.043726001 0.032357 0.084174998
-0.048542999 0.018200999 0.095496997
-0.0092334999 -0.0051842998 0.069641002
-0.0087027 -0.0060772998 0.069453001
-0.041607998 0.037825 0.079585999
-0.024876 -0.0072546001 0.076559998
-0.038849998 0.040936999 0.080907002
-0.037866 -0.021578001 0.065249003
-0.073430002 -0.0019967 0.1296
0.0039324998 0.012761 0.080513999
0.0054345001 0.01263 0.079784997
0.054060001 -0.025699999 0.077959999
0.053831998 -0.026284 0.078818001
0.053426001 -0.025312001 0.078659996
0.027154 0.01322 0.083848998
-0.034037001 -0.0099641001 0.072512999
-0.015349 0.00193 0.084008001
-0.014618 0.0028728 0.084390998
-0.059002001 0.016202999 0.12264
-0.047541 0.01565 0.093782
-0.037436999 -0.021593001 0.069475003
-0.037491001 -0.023177 0.069665998
0.010919 0.0099285003 0.075822003
-0.071855001 0.0042305002 0.12665001
-0.070851997 0.0054011 0.12622
0.10074 0.044130001 0.080536
0.080728002 0.0086979 0.094993003
0.081478 0.0085343001 0.094757996
-0.078644998 0.027199 0.11804
-0.078576997 0.028411999 0.11824
-0.039523002 -0.022745 0.090945996
-0.071589001 -0.0051666 0.11709
-0.060763001 0.024374999 0.10554
0.087498002 0.020145999 0.090879999
0.087544002 0.021613 0.090924002
0.085831001 0.021584 0.091375999
-0.076870002 0.023854 0.13492
0.072774999 -0.010495 0.084459998
0.074183002 -0.010317 0.083970003
-0.043846 2.1198999e-05 0.087137997
0.039480999 -0.031688001 0.071098
-0.029802 -0.038658999 0.055273
-0.032207999 -0.019548001 0.060339
-0.013435 -0.0014645 0.073715001
-0.013726 -0.0021819 0.073283002
-0.061081 0.037569001 0.10349
-0.047740001 -0.012127 0.088574
-0.064631999 0.028616 0.12375
-0.043818999 0.0072603999 0.090853997
0.056093 -0.013006 0.089078002
0.073945001 -0.0038423999 0.097328998
-0.075818002 0.0058414 0.12684999
-0.076134004 0.0057561998 0.12619001
-0.044902001 -0.017755 0.098985001
0.093419001 0.034232002 0.082166001
0.058065999 -0.016292 0.073615
0.005651 -0.013864 0.072333001
0.075584002 -0.014903 0.083780997
-0.070943996 0.00025618999 0.12352
-0.071610004 -0.00038129001 0.12402
-0.070808999 -0.00032346 0.12484
-0.065087996 0.034683999 0.11013
-0.072006002 -0.00098748005 0.12404
-0.03607 -0.038371999 0.12365
-0.067711003 0.018750999 0.11017
-0.040548 0.030343 0.087401003
-0.040603999 0.029626001 0.088096999
-0.034938 0.0073715001 0.089597002
0.10377 0.025388001 0.078353003
0.10322 0.024929 0.079016
-0.026314 -0.031778 0.11778
-0.026009999 -0.031486001 0.11855
0.059866998 -0.017212 0.071179003
-0.056784 0.031922001 0.10178
0.00013604001 0.010064 0.078962997
-0.00076448999 0.0099269003 0.079430997
-0.00051084999 0.010475 0.080003999
-0.058499999 0.0038017 0.10783
-0.032648001 -0.0075444998 0.077129997
-0.066529997 0.021443 0.11601
-0.064648002 0.021748999 0.11658
-0.065931 0.022211 0.11673
-0.049081001 -0.00054977997 0.090259001
-0.050170001 5.2779e-05 0.089886002
-0.049364001 -0.00074718997 0.089863002
-0.067100003 0.036814 0.11013
-0.066301003 0.035939999 0.11089
-0.058617 -0.031479999 0.066353001
-0.058118999 -0.032028001 0.065145999
-0.072287001 0.022696 0.11342
-0.071538001 0.022367001 0.11304
-0.062577002 -0.034412 0.057284001
0.016367 0.0066483999 0.072779998
-0.00030556001 0.0087499004 0.077477999
-0.001191 0.0095081003 0.078512996
0.061163001 -0.015342 0.069711
-0.0096918 -0.0059684999 0.070004001
0.012991 0.0050479998 0.071598999
0.012916 0.0040568998 0.071408004
-0.047763001 0.016415 0.091664001
-0.048785999 0.016692 0.091724001
0.085568003 -0.0053225001 0.082811996
0.086369999 -0.0055404999 0.083264999
-0.0046963999 0.0063012 0.076242
-0.039921999 0.045485999 0.080155998
-0.040876001 0.044580001 0.081027001
-0.071845002 0.039335001 0.12729999
-0.078691997 -0.0065756999 0.12431
-0.079639003 -0.0062103998 0.12467
0.063440003 -0.012691 0.092133
-0.056706998 0.036837 0.10262
-0.02304 -0.031202 0.12194
-0.070161 -0.0085995998 0.12136
-0.034605999 0.014406 0.093004003
-0.034979999 0.015365 0.093671001
-0.034187 0.014366 0.094120003
-0.024670999 -0.036635 0.13527
0.069735996 -0.0094023002 0.090356998
0.070482001 -0.0091917003 0.089576997
-0.046521001 0.012974 0.088691004
0.054935001 -0.028938999 0.097492002
0.053902999 -0.028891999 0.098402001
0.026560999 -0.035236999 0.077866003
0.026051 -0.035594001 0.077041
-0.050625999 0.0016323 0.087361
-0.073045999 7.7964003e-05 0.11727
-0.034529001 -0.01494 0.061269999
-0.043682002 0.033011999 0.083286002
-0.016856 0.00040408 0.083521999
-0.048209 -0.0064544999 0.088744
-0.048172001 -0.0054448 0.089088
-0.0036211 -0.039069999 0.11331
-0.055555999 -0.0012294 0.10808
-0.054171 -0.0021830001 0.1092
-0.032621 -0.040079001 0.056178998
-0.033690002 -0.039861999 0.057355002
-0.033863001 -0.040001001 0.056720998
-0.048900001 0.034352999 0.11458
-0.068360001 0.012975 0.12304
-0.023523999 -0.034910999 0.13094001
-0.021675 -0.034942999 0.13157
-0.022582 -0.034474 0.13111
-0.047798999 0.0099724 0.093735002
0.10683 0.027337 0.079374
0.051667001 -0.028073 0.095314004
0.051105 -0.027295001 0.095464997
0.018293001 0.016592 0.08602
0.018959999 0.016764 0.086916
-0.061313 0.0059420001 0.10408
-0.043630999 0.011167 0.087559998
-0.011507 -0.0011209 0.09189
-0.010907 -0.0018304 0.092781998
-0.069417998 0.0040369998 0.12563001
-0.070019998 0.0053305002 0.12536
0.076352 0.00043203001 0.089900002
-0.031716 0.011352 0.090506002
0.087448001 0.03548 0.090264998
-0.051592 0.014338 0.094226003
-0.041597001 -0.021152001 0.094907999
0.0054724002 0.017015001 0.085825004
0.0060354001 0.016202999 0.08715
-0.027216 -0.027578 0.085470997
-0.025397001 -0.027518 0.086308002
0.072013997 -0.0093342001 0.086069003
-0.071409002 0.0040020002 0.11804
-0.015934 0.0035840999 0.087826997
-0.0028796 0.0098051 0.080613002
-0.0035999001 0.0091388999 0.079750001
-0.042601999 0.032171998 0.087853
-0.042497002 0.031024 0.088009
0.084691003 0.029553 0.090515003
0.084794998 0.031072 0.090461999
-0.060024001 0.036942001 0.10468
-0.058621 0.036157001 0.10434
-0.032522 -0.018157 0.062959999
-0.032777 -0.0186 0.062772997
