# .PCD v0.7 - Point Cloud Data file format
VERSION 0.7
FIELDS x y z
SIZE 4 4 4
TYPE F F F
COUNT 1 1 1
WIDTH 1486
HEIGHT 1
VIEWPOINT 0 0 0 1 0 0 0
POINTS 1486
DATA ascii
0.16374999 0.034603 -0.0078189
0.13523 0.077261001 -0.034423001
0.13641 0.076590002 -0.033463001
0.13484 0.076067001 -0.033950001
0.059981 0.045446001 0.047579002
0.058956999 0.045536999 0.048048999
0.059207 0.044450998 0.048144002
0.09747 0.044117998 -0.0084287999
0.097103998 0.043799002 -0.0090058995
0.096642002 0.043464001 -0.0091586001
0.14203 0.048726 0.010244
0.13954 0.048388001 0.011008
0.14063001 0.049240999 0.010204
0.090580001 0.082216002 0.022476001
0.090591997 0.080297001 0.022358
0.089562997 0.081033997 0.022910999
0.086185001 0.091654003 0.038469002
0.086801 0.092648998 0.037737999
0.085602999 0.093075998 0.037974
0.13642 0.098403998 -0.064713001
0.13486999 0.097690001 -0.065820999
0.13471 0.098899998 -0.065581001
0.1323 0.086565003 -0.042849999
0.13319001 0.085035004 -0.042647999
0.044665001 0.11201 0.083622999
0.044764001 0.11171 0.082732998
0.043926001 0.11084 0.083203003
0.084344998 0.037112001 -0.00090357999
0.084645003 0.038803998 -0.002043
0.083924003 0.03703 -0.00027153001
0.13257 0.11307 -0.055684999
0.13135 0.11425 -0.054912999
0.13155 0.11523 -0.053888999
0.070707999 0.035707999 0.077412002
0.069329001 0.034859002 0.077928998
0.069486998 0.035501 0.078539997
0.13573 0.093648002 -0.039822001
0.13552999 0.091611996 -0.037622999
0.12001 0.1147 -0.048781998
0.12053 0.11444 -0.050117999
0.11948 0.11421 -0.049807999
0.082399003 0.077249996 0.02262
0.081413001 0.075448997 0.021715
0.081230998 0.076218002 0.020908
0.10912 0.10546 -0.021818001
0.10954 0.10452 -0.021725001
0.10965 0.10338 -0.02131
0.054816999 0.058736999 0.034111999
0.054184999 0.059572 0.034053002
0.055353001 0.060084999 0.033829998
0.071953997 0.050556999 0.059749
0.071618997 0.049906 0.060763001
0.071709998 0.050535001 0.058681
0.038166001 0.092579998 0.095490001
0.038261998 0.093754999 0.094967999
0.075482003 0.081040002 0.025012
0.075432003 0.080477998 0.024629001
0.074354999 0.080077998 0.024792001
0.13741 0.10907 -0.013762
0.13631 0.1084 -0.013779
0.088767998 0.067979001 0.02544
0.086258002 0.067528002 0.025708999
0.086030997 0.068223 0.025397001
0.098050997 0.041652001 -0.020179
0.097338997 0.040994 -0.021331999
0.096513003 0.042054001 -0.019663
0.059388001 0.050779 0.035425998
0.058805 0.050602999 0.036860999
0.041343998 0.10798 0.093108997
0.041852999 0.10649 0.091536999
0.041345 0.10672 0.091794997
0.066886999 0.064655997 0.027334001
0.13636 0.097814001 -0.051401999
0.13722 0.10013 -0.052499
0.13609999 0.098872997 -0.052354999
0.052870002 0.066907004 0.035622001
0.051787999 0.066618003 0.035381999
0.11435 0.056070998 -0.014308
0.11439 0.054689001 -0.01455
0.11457 0.056017 -0.013387
0.13398001 0.081345998 -0.034931
0.13353001 0.081901997 -0.036183
0.13428 0.082147002 -0.03531
0.11465 0.11825 -0.030366
0.11495 0.1167 -0.029193001
0.11484 0.11597 -0.030208999
0.034545999 0.045998 0.047405999
0.034359999 0.045433 0.047223002
0.032915 0.044996001 0.047277
0.046057999 0.04225 0.053149998
0.045671999 0.042704001 0.052391998
0.087114997 0.052735001 0.0010606
0.086369 0.050976999 0.00051513
0.086525001 0.052839 0.0015579
0.087035 0.065068997 0.029486001
0.086462997 0.064883001 0.029341999
0.084519997 0.064851001 0.030478001
0.12639 0.11199 -0.059280001
0.12632 0.11244 -0.059218999
0.12581 0.11256 -0.05816
0.032850001 0.034511 0.019099001
0.033365998 0.035119999 0.019065
0.10775 0.086006999 -0.024889
0.10744 0.086185999 -0.023505
0.1079 0.087444 -0.024069
0.029051 0.045708001 0.047015
0.029527999 0.044909 0.045829002
0.028921001 0.045248002 0.046211999
0.038236 0.041469999 0.049768001
0.036362 0.041611999 0.051052999
0.037177 0.041508 0.049734
0.10778 0.089607999 -0.022885
0.10773 0.087747999 -0.02287
0.10727 0.087636001 -0.022786001
0.098802 0.036657002 0.052526001
0.098439001 0.036200002 0.052783001
0.097153001 0.037154 0.051231999
0.14261 0.055158 0.0047483002
0.14241999 0.053741001 0.0060088001
0.14275999 0.053998001 0.0056393999
0.080964997 0.067046002 0.027577
0.078045003 0.067404002 0.026420999
0.080356002 0.067331001 0.026881
0.16328 0.038612001 -0.015744001
0.16275001 0.041142002 -0.015811
0.1636 0.03957 -0.017496999
0.16022 0.042585999 -0.0095819002
0.15978 0.041689001 -0.01208
0.15887 0.041615002 -0.0098556997
0.042242002 0.10533 0.091025002
0.040688999 0.10634 0.091176003
0.12115 0.099789999 -0.066241004
0.12131 0.10053 -0.066224001
0.12279 0.099679001 -0.067621998
0.13602 0.056991 -0.0044045001
0.13647 0.057762999 -0.0040408
0.13668001 0.056038 -0.0037429
0.085826002 0.066258997 0.02719
0.085591003 0.066690996 0.026969999
0.085431002 0.065608002 0.025719
0.15209 0.046020001 0.011908
0.15073 0.045641001 0.0093978001
0.15042999 0.045400001 0.010422
0.1166 0.078331999 -0.041958999
0.11639 0.079627 -0.042096999
0.11636 0.078534 -0.042413
0.044798002 0.049872998 0.045338999
0.046209 0.049830999 0.044757001
0.046971999 0.050489001 0.043855999
0.080254003 0.067171 0.02482
0.078682996 0.067340001 0.024598001
0.080045 0.069342002 0.024057999
0.14763001 0.055808999 0.012575
0.14766 0.055560999 0.011726
0.14653 0.056318 0.011451
0.13631999 0.055737 -0.00011171
0.13662 0.054857999 -0.00059433997
0.13673 0.056233 -0.00032039001
0.12061 0.086240001 -0.044893
0.12187 0.086333998 -0.045182999
0.12217 0.085577004 -0.045012999
0.13456 0.092795998 -0.037978999
0.13600001 0.093422003 -0.038644001
0.13574 0.092883997 -0.038495999
0.043907002 0.040851999 0.032117002
0.042366002 0.039746001 0.033635002
0.043928001 0.040495999 0.032616001
0.037082002 0.038479 0.020781999
0.037611999 0.038883999 0.021839
0.054522 0.054939002 0.035590999
0.053265002 0.054281 0.036952
0.053645998 0.055837002 0.036660001
0.12895 0.051171001 -0.0064131999
0.12747 0.049357001 -0.0079020001
0.12823001 0.051120002 -0.0077710999
0.056922 0.070523001 0.031136001
0.056784999 0.069781996 0.031587999
0.056685001 0.071128003 0.031358
0.1099 0.056267999 -0.0095945001
0.10852 0.057032 -0.0097289998
0.10848 0.071877003 -0.019698
0.11015 0.071494997 -0.020796999
0.10881 0.070936002 -0.019928001
0.069284998 0.035794999 0.081056997
0.10563 0.067433 -0.015551
0.10495 0.069007002 -0.015977999
0.10492 0.067029998 -0.016381999
0.08427 0.038228001 0.0032662
0.082486004 0.037905 0.0021865
0.083002001 0.037629999 0.0037008999
0.054556999 0.076128997 0.047658999
0.053380001 0.076251999 0.046709999
0.053289 0.075663999 0.047582
0.086341999 0.035544001 -0.024778999
0.085666001 0.037005 -0.024023
0.085465997 0.036111999 -0.025722999
0.044663001 0.080758996 0.080241002
0.044821002 0.079922996 0.079170004
0.044169001 0.079764001 0.080615997
0.13663 0.11683 -0.0010851
0.13733999 0.11447 9.7686003e-05
0.13751 0.11601 -0.00061887002
0.13537 0.093200997 -0.027713001
0.13545001 0.094149999 -0.027922999
0.13567001 0.094466999 -0.026579
0.038371999 0.098682001 0.098131999
0.038260002 0.097263001 0.096873999
0.037788998 0.098325998 0.097962998
0.074662998 0.071523003 0.024029
0.075355001 0.070391998 0.023291999
0.074083 0.069894001 0.02416
0.11651 0.044605002 0.0035880001
0.11542 0.0451 0.0048059998
0.11621 0.045196999 0.0036897999
0.13065 0.088946 -0.047865
0.12974 0.090804003 -0.046193998
0.12962 0.089478001 -0.046975002
0.087573998 0.087954 0.030370001
0.086873002 0.086764 0.027797
0.086962998 0.087056004 0.028643999
0.13371 0.11435 -0.04964
0.13341001 0.11385 -0.051215
0.13293 0.11462 -0.050145
0.13277 0.086089998 -0.039135002
0.13478 0.084871002 -0.038125999
0.13377 0.085598998 -0.038283002
0.13918 0.11591 -0.00022789001
0.13733999 0.116 -0.00037178001
0.048018999 0.056274999 0.039427001
0.048144002 0.057193 0.039964002
0.048347 0.057264999 0.039422002
0.1279 0.11199 -0.059796002
0.12791 0.11289 -0.058456
0.12924001 0.1121 -0.059714999
0.13978 0.11396 -0.0010861
0.13977 0.11288 -0.0015942
0.13941 0.11511 -0.0017879
0.12377 0.11071 -0.058584999
0.12294 0.10968 -0.058389999
0.12253 0.11065 -0.057077002
0.076595999 0.075207002 0.02232
0.075364999 0.075572997 0.023108
0.074634999 0.075943001 0.022717999
0.13654 0.10474 -0.057923
0.13564 0.1066 -0.058828998
0.13576999 0.10613 -0.058058999
0.083681002 0.081395 0.021055
0.084596001 0.082183003 0.021569001
0.084609002 0.081231996 0.021368001
0.13425 0.10667 -0.061292998
0.13349999 0.10623 -0.061291002
0.039414998 0.034552 0.025928
0.038795002 0.034334 0.025317
0.038504999 0.034433998 0.023556
0.13519999 0.092413001 -0.038143001
0.13545001 0.091349997 -0.037696
0.17373 0.037519 -0.0033090001
0.1741 0.037806001 -0.0047777002
0.17264 0.037611999 -0.0044538998
0.089837998 0.063844003 0.027295001
0.090899996 0.063658997 0.027866
0.089906 0.064521998 0.027547
0.040208001 0.103 0.091491997
0.04163 0.1044 0.090732999
0.040658001 0.10232 0.090796001
0.13104001 0.067459002 -0.058979999
0.13036001 0.067070998 -0.057185002
0.13067999 0.066418 -0.058796
0.1292 0.11133 -0.060563002
0.12726 0.10903 -0.061404001
0.12684999 0.11073 -0.06106
0.061579999 0.052257001 0.036162
0.060580999 0.051725999 0.035441
0.06044 0.052113 0.03551
0.039395999 0.11165 0.097002
0.039237998 0.11057 0.096951999
0.038846999 0.1114 0.097515002
0.11811 0.087099999 -0.042553
0.11845 0.087658003 -0.041120999
0.11914 0.089365996 -0.043458998
0.10611 0.077117004 -0.019595999
0.10479 0.078149997 -0.018781999
0.10519 0.077873997 -0.02005
0.093711004 0.04174 -0.022441
0.093861997 0.041143 -0.020901
0.093915999 0.040821999 -0.021791
0.072149999 0.042936001 0.073482998
0.07192 0.044450998 0.072084002
0.072563 0.043115001 0.072457001
0.10856 0.087669998 -0.024154
0.1077 0.087692998 -0.024357
0.14974999 0.054736 0.012766
0.14911 0.053486001 0.013014
0.14915 0.054958999 0.013113
0.12966999 0.051397 -0.0064923
0.12913001 0.051003002 -0.0062850998
0.12478 0.10477 -0.065141998
0.12611 0.10517 -0.066170998
0.12534 0.10484 -0.065513
0.14648999 0.062422 0.018871
0.1452 0.063065998 0.017178999
0.14544 0.062857002 0.018169001
0.10594 0.082331002 -0.020024
0.10583 0.081632003 -0.020081
0.10619 0.083423004 -0.02108
0.099096999 0.044309001 -0.015747
0.097107999 0.042436998 -0.016922001
0.096809 0.043728001 -0.015187
0.10117 0.048248999 0.0043163998
0.10231 0.048778001 0.0049578999
0.099872999 0.047660001 0.0058507998
0.17543 0.036187999 -0.0030143
0.17488 0.037813999 -0.0046166
0.17526001 0.037783001 -0.0039609
0.12627 0.11481 -0.057108
0.12729 0.11466 -0.057914998
0.12621 0.11332 -0.058499001
0.082200997 0.064443 0.029971
0.081069 0.064347997 0.032111
0.081376001 0.064966999 0.030053999
0.11007 0.099776998 -0.025061
0.1103 0.10129 -0.024548
0.11119 0.099866003 -0.025041999
0.055445001 0.061958 0.032161001
0.054439001 0.061794002 0.032051999
0.055837002 0.061811 0.032494001
0.16563 0.040038001 -0.0024251
0.16618 0.041182 -0.00079200999
0.16653 0.040472999 -0.0020635
0.060056001 0.084099002 0.042861
0.060081001 0.085327998 0.041701
0.059385002 0.083370999 0.042057
0.084109999 0.067566998 0.025308
0.084228002 0.068177 0.023765
0.085335001 0.067833997 0.024981
0.069968 0.062169999 0.029553
0.069651 0.061537001 0.029462
0.069482997 0.061074 0.030219
0.13609999 0.082413003 -0.028864
0.13601001 0.084132999 -0.028607
0.1356 0.083443999 -0.027178001
0.020807 0.037443999 0.048409998
0.020258 0.037052002 0.048423
0.020352 0.036942001 0.049109999
0.018871 0.034940001 0.050517999
0.017956 0.034623999 0.051047001
0.018397 0.035222001 0.051438
0.071898997 0.092409998 0.041903999
0.070867002 0.092303 0.041032001
0.070657 0.090777002 0.040856
0.12804 0.083384 -0.061326001
0.12909 0.083025001 -0.059438001
0.12935001 0.083719999 -0.060966998
0.13203 0.11391 -0.053847
0.13163 0.1132 -0.053854
0.13338 0.11295 -0.053341001
0.12758 0.082055002 -0.059718002
0.12757 0.082978003 -0.058658
0.12858 0.083453998 -0.059838001
0.043820001 0.090414003 0.082117997
0.043876 0.091545001 0.081638999
0.044289 0.091990001 0.080863997
0.025823999 0.039870001 0.040267002
0.02562 0.038412001 0.041129999
0.026031001 0.040798001 0.041467998
0.16408999 0.040150002 -0.0071234
0.16241001 0.041352 -0.0057251002
0.16362999 0.041421998 -0.0062140999
0.13551 0.10626 -0.059900001
0.13485999 0.10556 -0.061243001
0.13508999 0.10738 -0.060430001
0.13597 0.11196 -0.031318001
0.13586999 0.11132 -0.030510001
0.13635001 0.10972 -0.031484999
0.062844999 0.066228002 0.028088
0.061629999 0.066477999 0.027509
0.061818 0.067776002 0.028019
0.10296 0.038090002 -0.026786
0.10294 0.03692 -0.026673
0.1025 0.037967999 -0.028093001
0.13751 0.084191002 -0.019235
0.13789 0.083125003 -0.019593
0.13875 0.083921999 -0.021112001
0.12831999 0.090778999 -0.045942001
0.12949 0.091636002 -0.045798
0.095760003 0.064121999 0.0069358
0.095616996 0.063010998 0.0077435998
0.097636998 0.063579999 0.0071581001
0.065894999 0.048765998 0.052664001
0.064281002 0.048009999 0.052067
0.065260001 0.047911 0.050556999
0.1205 0.089018002 -0.043203
0.12061 0.089354999 -0.043646999
0.12105 0.089016996 -0.043691002
0.048183002 0.033978999 0.026577
0.047495998 0.033971999 0.027141999
0.046728998 0.033656001 0.028144
0.042112999 0.038798999 0.019726999
0.043678001 0.038215 0.019685
0.12954 0.085097998 -0.045442998
0.12932999 0.084830999 -0.047226999
0.13064 0.086534999 -0.047589999
0.067139 0.050067998 0.050863001
0.066821001 0.051187001 0.050659001
0.066739999 0.049385 0.052062001
0.10605 0.081900999 -0.018968999
0.10615 0.082837 -0.018579001
0.10567 0.083282001 -0.019546
0.091250002 0.085375004 0.024698
0.090869002 0.084370002 0.024928
0.089656003 0.085559003 0.0251
0.019014001 0.0361 0.052283999
0.018976999 0.035778001 0.052475002
0.018890001 0.03585 0.054781999
0.080994003 0.089133002 0.033891998
0.079604 0.088960998 0.033395998
0.079363003 0.088251002 0.034102
0.12168 0.079153001 -0.050078999
0.12271 0.078755997 -0.052172001
0.12217 0.079631999 -0.051918
0.089334004 0.064868003 0.027930001
0.090919003 0.063961998 0.028148999
0.13315 0.075370997 -0.052345
0.13150001 0.07632 -0.052588999
0.13213 0.076802 -0.052632999
0.13613001 0.093827002 -0.023399999
0.13601001 0.095100001 -0.023213999
0.12890001 0.070252001 -0.060640998
0.12932999 0.071313001 -0.060578998
0.12971 0.070064001 -0.060552999
0.16368 0.042661 -0.0022604
0.16303 0.041797001 -0.0030916999
0.16243 0.042709999 -0.0021373001
0.054343998 0.049899999 0.040043
0.053982001 0.049502999 0.040713001
0.047897 0.081344999 0.076209001
0.048464999 0.082211003 0.077303998
0.048792001 0.082121 0.077215001
0.049045 0.088059999 0.087829001
0.049020998 0.090209998 0.086235002
0.047887001 0.091256 0.087278001
0.1051 0.072143003 -0.016082
0.10482 0.072849996 -0.01598
0.10469 0.071335003 -0.016310001
0.15135001 0.048928998 0.013981
0.1515 0.049451001 0.014895
0.15105 0.049557 0.015707999
0.11829 0.11007 -0.044348001
0.11875 0.1095 -0.045728002
0.13663 0.07277 -0.020685
0.13668001 0.074564002 -0.020369999
0.13784 0.073960997 -0.019371999
0.16539 0.035686001 -0.0036069001
0.16456001 0.035416 -0.0056881998
0.16615 0.035169002 -0.0052351002
0.096143 0.042327002 -0.021885
0.095531002 0.042606 -0.019983999
0.036189999 0.044978 0.047781002
0.034959 0.046147998 0.046936002
0.036210999 0.045958001 0.047463
0.062391002 0.080926999 0.036796
0.12827 0.082933001 -0.058545001
0.12972 0.081964001 -0.057803001
0.12909 0.083549 -0.058430001
0.032868002 0.043616001 0.039581001
0.034506001 0.044282999 0.04067
0.034596 0.043234002 0.038614001
0.10711 0.10654 -0.017766001
0.10573 0.10826 -0.016346
0.10611 0.10814 -0.017720001
0.095861003 0.061317999 0.0023030001
0.096156999 0.060348999 0.0014332
0.11197 0.054474 -0.0097161001
0.1124 0.054598998 -0.010661
0.14507 0.042275999 0.010164
0.14511999 0.043228999 0.011504
0.14514001 0.043040998 0.010371
0.15846001 0.044007 0.0022710999
0.15782 0.043761 0.0037743
0.15854999 0.044252999 0.002296
0.041159999 0.10973 0.093792997
0.040213998 0.10837 0.093131997
0.039696001 0.10782 0.093557
0.028999999 0.038550999 0.021125
0.028703 0.037526 0.019649001
0.028398 0.037264001 0.021400999
0.099668004 0.049423002 0.00060686999
0.098904997 0.049477 0.0010971
0.099928997 0.051493 4.1081999e-05
0.14282 0.059096999 0.0078779003
0.14238 0.057420999 0.0060075
0.14339 0.057303 0.0060032001
0.13736001 0.10107 -0.056855999
0.13742 0.10234 -0.058061998
0.13744999 0.10293 -0.056306999
0.081147 0.088564999 0.033413
0.080650002 0.088687003 0.032026999
0.079456002 0.087774999 0.032885998
0.096537001 0.089501001 0.028271999
0.095445998 0.089358002 0.029301999
0.095389001 0.089890003 0.028572001
0.017719001 0.035078999 0.05452
0.017123001 0.034986999 0.055077001
0.019164 0.035404999 0.054595001
0.058247 0.073541 0.032519002
0.058309 0.073602997 0.032579001
0.059002999 0.072883002 0.032290999
0.12316 0.074486002 -0.057707001
0.1243 0.074681997 -0.056814998
0.12407 0.073423997 -0.056283001
0.14369 0.043444999 0.017069999
0.1426 0.044658002 0.016662
0.081886999 0.035939999 0.0046673999
0.081266999 0.035964999 0.0057994002
0.081643 0.037324999 0.0049494999
0.074166998 0.042303 0.077230997
0.074097998 0.041869 0.078354999
0.073067002 0.042463001 0.076944001
0.047476999 0.043602001 0.050206002
0.046000998 0.043148998 0.051158998
0.046581 0.044139002 0.050411001
0.12919 0.099234 -0.064879
0.1301 0.099460997 -0.064942002
0.12980001 0.09849 -0.064773999
0.084461004 0.089901 0.039935999
0.082714997 0.090475999 0.040693998
0.13446 0.058375001 -0.011781
0.13477001 0.059983 -0.012673
0.13415 0.059473 -0.012601
0.10444 0.035728 -0.027338
0.10283 0.035061002 -0.027991001
0.10348 0.035330001 -0.028669
0.069573998 0.050618 0.05765
0.070568003 0.051091 0.056545001
0.070159003 0.050448 0.057495002
0.1265 0.072577998 -0.056329999
0.12605999 0.071483001 -0.055828001
0.13564 0.056596 -0.0056655002
0.13579001 0.056223001 -0.0065938998
0.13618 0.058235001 -0.0059000002
0.13685 0.092704996 -0.020719999
0.13733999 0.093765996 -0.021051999
0.13652 0.094071001 -0.019661
0.11489 0.095287003 -0.033053
0.11504 0.097066998 -0.032132
0.1153 0.097241998 -0.033342
0.12372 0.073623002 -0.057900999
0.12305 0.072334997 -0.060079001
0.12283 0.073239997 -0.058809999
0.12485 0.11169 -0.058176
0.13146999 0.051008001 -0.0036549999
0.13175 0.051167998 -0.0043302001
0.13161001 0.052085999 -0.0050630998
0.16339 0.036056999 -0.011748
0.1631 0.036788002 -0.013677
0.16384999 0.037191998 -0.013009
0.047882002 0.070890002 0.071213998
0.048041999 0.072219998 0.071866997
0.049139 0.072016999 0.070941001
0.14797001 0.057466999 0.017643001
0.1478 0.056680001 0.018274
0.14881 0.057934999 0.019019
0.13436 0.082828 -0.030229
0.13544001 0.083319999 -0.02871
0.107 0.056568 -0.0070425002
0.10585 0.057464998 -0.0066586002
0.106 0.057934999 -0.0057099001
0.13686 0.088857003 -0.026567999
0.13629 0.090011001 -0.027768999
0.13603 0.089307003 -0.028200001
0.087360002 0.049022999 -0.0014773
0.087237 0.048278 -0.0021683001
0.087022997 0.048618 -0.0018805
0.11552 0.092844002 -0.041421
0.11471 0.093234003 -0.040143002
0.11609 0.093341999 -0.041405998
0.12556 0.062941 -0.051520001
0.12589 0.062289 -0.049490001
0.12585001 0.061558999 -0.051938999
0.11007 0.10179 -0.022344001
0.10841 0.098609 -0.021077
0.10891 0.10127 -0.021895001
0.1061 0.040486999 -0.022043999
0.10514 0.040415 -0.022741999
0.10645 0.039912999 -0.021423001
0.098498002 0.034705002 0.046997
0.098140001 0.034497999 0.049022999
0.097920001 0.034207001 0.047882002
0.14001 0.062089 0.0044455002
0.1392 0.062290002 0.0027238
0.13970999 0.062231999 0.0049465001
0.092072003 0.056331001 0.0011651
0.092280999 0.057760999 0.00045045
0.092312001 0.056086 0.00094212999
0.10508 0.076486997 -0.014839
0.10583 0.075491004 -0.014735
0.10599 0.076641001 -0.014384
0.073578998 0.065208003 0.026676999
0.072959997 0.065699004 0.025439
0.073265001 0.066047996 0.025407
0.10654 0.1103 -0.012408
0.10494 0.11073 -0.012652
0.10567 0.11133 -0.012432
0.13655999 0.10895 -0.045072
0.13609999 0.10817 -0.044532999
0.13610999 0.10752 -0.045012999
0.040925998 0.11426 0.097828999
0.040406 0.11303 0.096188001
0.039900001 0.11318 0.096196003
0.071070001 0.061267 0.029793
0.13597 0.070858002 -0.024305001
0.13422 0.071960002 -0.024757
0.13568 0.072205 -0.025753001
0.045975 0.038775001 0.027447
0.046007 0.038520001 0.026007
0.045554999 0.038183 0.026563
0.078426003 0.066803001 0.024010999
0.078537002 0.066367999 0.02365
0.041464999 0.11764 0.10044
0.041664999 0.11694 0.10021
0.040061001 0.11698 0.10064
0.12974 0.089224003 -0.042613
0.13014001 0.089575 -0.043753002
0.12933999 0.090669997 -0.042181998
0.035440002 0.036807001 0.018734001
0.033284999 0.036414001 0.018877
0.10072 0.050113998 0.0017026
0.10034 0.049509 0.0027536
0.11469 0.051183 -0.0093403002
0.11574 0.051934998 -0.0087094
0.11593 0.049701001 -0.0071254
0.041262999 0.10105 0.087927997
0.041691002 0.10042 0.088160999
0.040966999 0.10106 0.089183003
0.14032 0.061321001 0.0054230001
0.14109001 0.059994999 0.0043266998
0.14057 0.06171 0.0043178
0.070090003 0.037184998 0.083241001
0.069334 0.037636999 0.081505001
0.11283 0.114 -0.033008002
0.11255 0.11459 -0.032825999
0.11306 0.11314 -0.034079999
0.11125 0.075585999 -0.026714001
0.11117 0.074239001 -0.026784999
0.11209 0.073755004 -0.026177
0.051364999 0.058394998 0.036286
0.050996002 0.058277 0.036943998
0.13349999 0.11482 -0.050237
0.13428999 0.11467 -0.050733
0.13401 0.1143 -0.052889999
0.11128 0.092804998 -0.02703
0.11133 0.09313 -0.026520001
0.11077 0.094373003 -0.028171999
0.11093 0.075474001 -0.026883001
0.047598999 0.098907001 0.089506
0.048193999 0.098436996 0.088629998
0.047823999 0.099514 0.088835999
0.063862003 0.044996001 0.056597002
0.064351998 0.045185 0.056956001
0.062638 0.043678999 0.056177001
0.12681 0.073276997 -0.05443
0.12506001 0.072838001 -0.054953001
0.12546 0.074011996 -0.054855
0.11374 0.047371998 9.3937997e-05
0.11375 0.045752998 0.0021646
0.11306 0.046875 0.0011355
0.033704001 0.035746999 0.020595999
0.031468999 0.036483001 0.019237
0.031970002 0.036545001 0.020331001
0.13492 0.11546 -0.025668001
0.13366 0.11623 -0.027612999
0.13451999 0.11688 -0.025854001
0.053346001 0.067676 0.035167001
0.12636 0.046769001 -0.0015284
0.12559 0.046982002 -0.0024234999
0.12498 0.047366999 -0.0039837002
0.10427 0.035186 0.051054001
0.10301 0.035684001 0.050818998
0.10347 0.035693999 0.051488001
0.13616 0.062148001 -0.011338
0.13644999 0.062054001 -0.011665
0.037889998 0.038077001 0.021621
0.038150001 0.038534999 0.020230999
0.10583 0.056926001 -0.0051793
0.10489 0.057535 -0.0052287998
0.10479 0.056662999 -0.0056586
0.1389 0.10855 -0.0011588
0.13916001 0.107 -0.0011438
0.13944 0.10822 -0.0022315001
0.085275002 0.074262001 0.021126
0.087054998 0.073885001 0.020993
0.086699001 0.075007997 0.020517999
0.048960999 0.087507002 0.086176999
0.049215 0.087929003 0.084921002
0.048996001 0.088919997 0.086850002
0.072012 0.088595003 0.036325
0.072333999 0.088326998 0.035657998
0.072205998 0.087842003 0.035220999
0.13412 0.087297998 -0.034265
0.13449 0.088662997 -0.035206001
0.1346 0.088657998 -0.034519002
0.045095999 0.081023999 0.082551003
0.046503 0.080107003 0.081281997
0.11873 0.073034003 -0.054396
0.11833 0.074620001 -0.053509001
0.11851 0.073353 -0.053805001
0.10872 0.11231 -0.019053999
0.10879 0.11139 -0.020168999
0.10881 0.11183 -0.019764001
0.11648 0.057032 -0.017371001
0.11488 0.057523999 -0.017446
0.11553 0.058180999 -0.017775999
0.13086 0.088013001 -0.043961
0.13034 0.088907003 -0.042943001
0.066826001 0.053879999 0.035208002
0.067739002 0.053969 0.036214001
0.065834001 0.053637002 0.034690998
0.13976 0.061888002 0.0055856998
0.13970999 0.062295001 0.0047824001
0.14760999 0.055319998 0.013284
0.14676 0.055519 0.013461
0.14707001 0.055163998 0.015568
0.15852 0.036486998 -0.0082456004
0.15752 0.037131 -0.0087601999
0.15818 0.037135001 -0.0082994001
0.084724002 0.046374001 0.00011644
0.084458999 0.046959002 0.0010197
0.084794 0.048186999 0.00098979997
0.13846999 0.053272001 0.0025633001
0.13853 0.053291 0.0027145001
0.13719 0.052101001 0.0019033001
0.068512 0.073918 0.025451001
0.069518 0.074138001 0.026404001
0.068870999 0.07299 0.025235999
0.062059 0.084578998 0.044380002
0.062470999 0.084698997 0.043717001
0.061958998 0.083888002 0.044268001
0.1106 0.070000999 -0.020678001
0.1112 0.067938 -0.021477001
0.11025 0.069201 -0.020803999
0.035645999 0.040392 0.052058998
0.035367999 0.040585 0.051197998
0.1323 0.053723 -0.0068028001
0.13244 0.052707002 -0.0065017999
0.13313 0.052855998 -0.0073223999
0.086938001 0.090341002 0.033771999
0.086351 0.092377998 0.034782998
0.086939 0.091335997 0.033273999
0.043567002 0.087476999 0.083458997
0.044686999 0.088789001 0.081162997
0.043896001 0.087898999 0.081761003
0.073825002 0.080559999 0.026315
0.074917004 0.080224998 0.024917001
0.16711 0.041037999 -7.3511001e-05
0.16812 0.040839002 -0.0019795001
0.10676 0.085346997 -0.022244999
0.13357 0.084301002 -0.039023999
0.13301 0.083292998 -0.038189001
0.13367 0.084057003 -0.037757002
0.12716 0.081479996 -0.059579998
0.10176 0.050354 0.00099248998
0.099950001 0.051902998 0.00010996
0.048152 0.061528001 0.041875001
0.047336001 0.062799998 0.043466002
0.047279 0.063211001 0.043765999
0.092304997 0.056563001 -0.0002346
0.092736997 0.056139 -0.0010934999
0.091576003 0.05545 -0.0015637
0.047493 0.081028998 0.080565996
0.10345 0.1161 -0.01073
0.10378 0.11476 -0.01094
0.10391 0.11406 -0.010489
0.11437 0.098548003 -0.030401001
0.11376 0.099628001 -0.031272002
0.11474 0.098632999 -0.031847998
0.15655001 0.043207999 -0.0067985998
0.15524 0.043722 -0.0080217998
0.15733001 0.044992998 -0.0071812999
0.12793 0.062968001 -0.051917002
0.12749 0.063937999 -0.051435001
0.12796 0.064439997 -0.053259
0.11733 0.089400001 -0.041304
0.11768 0.088211998 -0.040741
0.11715 0.089651003 -0.040945001
0.13235 0.1164 -0.027264001
0.13386001 0.11723 -0.026702
0.12279 0.059788 -0.048248999
0.12365 0.059691001 -0.050510999
0.1234 0.059981 -0.049082
0.052471001 0.046255 0.046560001
0.051174 0.046344001 0.046404999
0.11505 0.079434 -0.036894001
0.11585 0.077909999 -0.036848001
0.11489 0.079426996 -0.036539
0.13296001 0.087282002 -0.042612001
0.13156 0.087719999 -0.043738998
0.083369002 0.090481997 0.034495998
0.082549997 0.089351997 0.034603
0.11384 0.080398001 -0.037400998
0.11225 0.081219003 -0.036129002
0.11325 0.082258001 -0.035170998
0.15505999 0.044369001 0.0090913996
0.15546 0.044487 0.0077999998
0.15516999 0.043848999 0.0099815996
0.032798 0.043060999 0.03283
0.034697 0.042870998 0.031334002
0.032568 0.043296002 0.031129001
0.10723 0.075741999 -0.019820999
0.10882 0.074552998 -0.019424001
0.1078 0.074124001 -0.020049
0.054621998 0.069080003 0.035071
0.092409 0.043813001 -0.0067721
0.091030002 0.043263 -0.0061170999
0.091583997 0.044220999 -0.006089
0.071383998 0.089015 0.039933
0.071130998 0.089988001 0.039767001
0.070136003 0.089612998 0.039236002
0.12437 0.10958 -0.061602999
0.12414 0.1083 -0.062581003
0.12366 0.10817 -0.061011001
0.14785001 0.055978 0.011514
0.10448 0.10353 -0.0094264997
0.10472 0.10497 -0.0089021996
0.10476 0.10545 -0.0088465
0.15344 0.040151 -0.017238
0.1551 0.040794998 -0.019174
0.1541 0.040070001 -0.018332999
0.14223 0.064332001 0.011346
0.14142001 0.064492002 0.012456
0.079251997 0.064234003 0.030696999
0.078823 0.063817002 0.030903
0.077662997 0.065150999 0.02942
0.12801 0.078919001 -0.054366998
0.12892 0.078619003 -0.055256002
0.12952 0.079833999 -0.055089001
0.13537 0.10521 -0.060247
0.13574 0.10592 -0.059487998
0.094385996 0.063104004 0.0050499002
0.095179997 0.064257003 0.0048346999
0.095321 0.062472001 0.0042752
0.11705 0.083163001 -0.041152
0.11627 0.083503 -0.041512001
0.11752 0.083621003 -0.041416001
0.14464 0.034513999 0.020186
0.14517 0.035262 0.019525999
0.14557999 0.034990001 0.018795
0.026858 0.051002 0.059285998
0.025779 0.051394999 0.060173001
0.026362 0.050903998 0.058056999
0.10834 0.080528997 -0.022603
0.10905 0.082420997 -0.023778999
0.10893 0.080557004 -0.023755999
0.12898999 0.079682998 -0.057675
0.12734 0.078261003 -0.058022
0.12859 0.080043003 -0.058049999
0.030921999 0.040073 0.025477
0.032263 0.039618999 0.024515999
0.031151 0.040846001 0.024196999
0.044002 0.074056 0.077405997
0.045630001 0.074375004 0.076970004
0.045536999 0.073618002 0.077127002
0.1274 0.11278 -0.048932001
0.12603 0.11181 -0.049371999
0.12689 0.11139 -0.049132001
0.039356999 0.086707003 0.088412002
0.039570998 0.087785996 0.087770998
0.040245 0.085890003 0.087857999
0.13316 0.10001 -0.064444996
0.13219 0.099567004 -0.065214001
0.13335 0.10138 -0.064985998
0.12839 0.078220002 -0.055946998
0.125 0.078647003 -0.053227
0.12512 0.078032002 -0.053148001
0.12476 0.078405999 -0.051422998
0.051514 0.042424999 0.054584
0.049653001 0.043262001 0.053452
0.049320001 0.042831 0.052919999
0.12716 0.064360999 -0.051002
0.12732001 0.063105002 -0.050462998
0.13433 0.11385 -0.025936
0.13527 0.11561 -0.025587
0.13411 0.11407 -0.026476
0.046498001 0.080701001 0.082629003
0.047720999 0.080863997 0.082768001
0.11133 0.094821997 -0.026945001
0.11086 0.094547004 -0.026456
0.091989003 0.043593001 -0.011516
0.091747001 0.043113999 -0.011548
0.092035003 0.042971 -0.010647
0.039136 0.10118 0.10267
0.037443001 0.10117 0.10402
0.037556 0.10233 0.10386
0.11326 0.057007 -0.01543
0.11495 0.057282001 -0.015639
0.11543 0.056676999 -0.015944
0.15693 0.037753999 -0.012228
0.15695 0.037186 -0.010901
0.15587001 0.037971001 -0.012477
0.13663 0.094775997 -0.017022001
0.13655999 0.096097 -0.018812999
0.13648 0.095528997 -0.016672
0.099748001 0.062406 0.0020594001
0.099485002 0.062430002 0.002629
0.098998003 0.063293003 0.0041947002
0.091697998 0.034084 -0.027482999
0.089803003 0.034896001 -0.027284
0.090178996 0.034007002 -0.028548
0.13239001 0.068805002 -0.061804
0.13215999 0.069030002 -0.062337998
0.13316 0.068348996 -0.062611997
0.044551998 0.083071999 0.076684996
0.045028001 0.082235001 0.076433003
0.094901003 0.034251001 -0.028206
0.094902001 0.034333002 -0.027055001
0.093806997 0.033622 -0.025575001
0.033279002 0.043612 0.042544998
0.033698 0.043504 0.042989001
0.032519002 0.044808999 0.044388998
0.043179002 0.041758001 0.031776998
0.043885998 0.041184999 0.032418001
0.092877001 0.041058 -0.022035999
0.091861002 0.041301999 -0.022825999
0.027649 0.044273 0.046252999
0.026205 0.045106001 0.047625002
0.026996 0.044592001 0.046636
0.052014001 0.053799 0.038254999
0.050514001 0.055007 0.037694
0.050825998 0.055160999 0.037278
0.09877 0.043163002 -0.019011
0.099926002 0.042854998 -0.019431001
0.098520003 0.042523999 -0.018342
0.13786 0.11644 -0.00065929
0.13714001 0.11671 0.00039889
0.1244 0.088587001 -0.046139002
0.12412 0.090158999 -0.045878999
0.1236 0.089791998 -0.047446001
0.1353 0.071066 -0.027117999
0.13454001 0.071725003 -0.024836
0.13403 0.071397997 -0.026280999
0.065944001 0.094728 0.041988999
0.065944999 0.094380997 0.041248001
0.065343998 0.093656003 0.042302001
0.13181999 0.059099998 -0.018377
0.13008 0.059363 -0.018306
0.13062 0.059905998 -0.018751999
0.064103 0.047896001 0.042808998
0.063063003 0.047699999 0.043823
0.061730001 0.04747 0.043060999
0.092795998 0.066953003 0.023216
0.093961999 0.067157999 0.02289
0.091645002 0.093506999 0.034487002
0.092037998 0.093790002 0.034637
0.091590002 0.093777001 0.033255
0.040580001 0.063992001 0.079163998
0.041258998 0.064681001 0.080388002
0.040995002 0.064427003 0.078575
0.12432 0.064667001 -0.054095
0.12435 0.063230999 -0.053082
0.12391 0.064170003 -0.053408001
0.12851 0.1 -0.066638
0.1278 0.099386998 -0.066522002
0.12691 0.10046 -0.065776996
0.059443001 0.079051003 0.039802998
0.059478 0.079003997 0.039778002
0.058162 0.078648999 0.040242001
0.10681 0.04033 -0.023584999
0.10839 0.038862001 -0.022803999
0.042438 0.1065 0.085390002
0.042417999 0.10523 0.085481003
0.042598002 0.10518 0.086987004
0.096009001 0.039280001 -0.024015
0.12211 0.082061999 -0.049757998
0.12224 0.080811001 -0.050731
0.12209 0.081703998 -0.050384
0.027641 0.047483999 0.049740002
0.026307 0.046684999 0.048138
0.025974 0.046365 0.050664999
0.097227 0.062323999 0.021617001
0.097581998 0.063219003 0.020105001
0.098277003 0.061799999 0.019858001
0.1211 0.099857002 -0.063162997
0.12047 0.10159 -0.063887998
0.12182 0.10158 -0.064984001
0.070315003 0.093023002 0.037765998
0.069582999 0.093620002 0.038419999
0.069719002 0.094019003 0.038513999
0.16109 0.043292001 0.0043274001
0.16087 0.043612 0.0022797999
0.15970001 0.042727001 0.0046227998
0.034210999 0.042659 0.047529001
0.034054998 0.043269999 0.046544999
0.033009999 0.043292999 0.045850001
0.047386002 0.085065 0.075728998
0.048351999 0.086719997 0.075142004
0.047766 0.086402997 0.076059997
0.064437002 0.078229003 0.03029
0.065058999 0.077932999 0.028589999
0.064448997 0.078941002 0.029611001
0.04857 0.034903999 0.029983001
0.049194999 0.035703 0.029237
0.049070001 0.036525998 0.028314
0.15847 0.043853998 -0.0065412
0.15747 0.04386 -0.0049227001
0.12793 0.11097 -0.060272999
0.12756 0.11192 -0.059785001
0.030994 0.034885999 0.01836
0.030184001 0.035307001 0.016340001
0.030547 0.035767999 0.017448001
0.074644998 0.059909999 0.033360001
0.072659999 0.059916001 0.033287998
0.073005997 0.061303001 0.032109
0.096009001 0.072916001 0.02067
0.067799002 0.047635 0.060828999
0.067575999 0.047332 0.059390999
0.067741998 0.049577001 0.059237
0.10882 0.062875003 -0.018044
0.11046 0.064225003 -0.018487999
0.11115 0.063267 -0.018842001
0.071603 0.037953001 0.078754999
0.071918003 0.037399001 0.076196998
0.070836999 0.037152 0.078385003
0.039081 0.11233 0.099885002
0.039308999 0.11186 0.10042
0.040282998 0.11211 0.10097
0.030846 0.042661998 0.027660999
0.029891999 0.041609999 0.026611
0.031159 0.042064998 0.028023001
0.12803 0.054995999 -0.015711
0.12778001 0.054563001 -0.014814
0.1276 0.054338001 -0.014452
0.1356 0.1108 -0.0030769999
0.13452999 0.10905 -0.0032307999
0.13474999 0.10953 -0.0019181001
0.074653 0.092555001 0.040460002
0.075580999 0.091978997 0.041808002
0.073863 0.092864998 0.040913999
0.051649999 0.062084001 0.034655001
0.051346 0.063670002 0.036015999
0.052347999 0.063461997 0.03534
0.14075001 0.064212002 0.012651
0.13947 0.063607998 0.01173
0.13956 0.062858 0.013322
0.12299 0.061113 -0.048896
0.12238 0.063197002 -0.048613999
0.12301 0.062187001 -0.048997998
0.11193 0.10217 -0.027186999
0.11177 0.10076 -0.027593
0.11191 0.10287 -0.025533
0.073344998 0.087015003 0.034605999
0.073786996 0.085524 0.033094
0.073504001 0.08766 0.033982001
0.10234 0.037934002 -0.028452
0.10199 0.037370998 -0.03074
0.10174 0.036970001 -0.030270999
0.13477001 0.081261002 -0.036286
0.11376 0.080824003 -0.036927
0.12441 0.091444999 -0.041944001
0.12379 0.093189999 -0.0427
0.040587999 0.086716004 0.086897999
0.039292999 0.087540999 0.087160997
0.066716999 0.070499003 0.026436999
0.065545 0.07096 0.027005
0.066324003 0.071768999 0.027291
0.08529 0.041258998 0.00057567999
0.085339002 0.043257002 0.0013387999
0.086553 0.043573 0.00033484001
0.12762 0.066527002 -0.059773002
0.1261 0.067134 -0.060208999
0.12614 0.067198001 -0.059897002
0.061207999 0.081087999 0.038387999
0.061117001 0.079370998 0.038350001
0.093537003 0.085683003 0.02619
0.092802003 0.084908001 0.025521001
0.092793003 0.085584998 0.025008
0.12492 0.048014998 -0.0060919998
0.12512 0.048524 -0.0043322002
0.12335 0.048399001 -0.0058789002
0.13641 0.099316999 -0.055551
0.13663 0.099100001 -0.056309
0.13672 0.099889003 -0.056434002
0.046434 0.084466003 0.075315997
0.044955999 0.086662002 0.075813003
0.045634001 0.08625 0.074061997
0.046622999 0.070138 0.072692998
0.046117 0.068550996 0.072649002
0.046158001 0.069663003 0.072957002
0.13685 0.11591 -0.0011178
0.13683 0.11539 -0.0019743999
0.13621999 0.11532 -0.002113
0.047876999 0.062951997 0.045113999
0.047605 0.061108999 0.045285001
0.047198001 0.068043001 0.070995003
0.046771001 0.067698002 0.071364999
0.046998002 0.067915 0.072440997
0.038584001 0.084178001 0.093162999
0.037287999 0.085089996 0.093493998
0.037230998 0.085346997 0.092912003
0.063046001 0.058711998 0.029763
0.062772997 0.057107002 0.030929999
0.057884 0.046989001 0.042553999
0.057592999 0.045829002 0.044303
0.057186998 0.046982002 0.043437
0.12118 0.11413 -0.051964998
0.12047 0.11369 -0.052774001
0.12102 0.11348 -0.053070001
0.066386998 0.049361002 0.05455
0.066440001 0.048365001 0.055661999
0.066586003 0.049123999 0.054559
0.13754 0.10932 -0.042603999
0.138 0.11045 -0.042826999
0.13783 0.11009 -0.043721002
0.02667 0.045731001 0.050246
0.025175 0.044305999 0.049146999
0.024666 0.044815999 0.050946001
0.096336 0.070485003 0.019954
0.095694996 0.071038 0.020540999
0.097024001 0.070845 0.018836999
0.066803001 0.092304997 0.040057998
0.066288002 0.092606999 0.041306
0.066575997 0.092591003 0.040699001
0.083026998 0.064009003 0.031789001
0.081188001 0.063648999 0.032400999
0.081542 0.063542999 0.032350998
0.13894001 0.10119 -0.0061436002
0.13816001 0.10135 -0.0081278002
0.13902999 0.10166 -0.0073393001
0.10294 0.055851001 -0.0019733999
0.10416 0.056602001 -0.0020169001
0.10378 0.055672999 -0.0018485
0.10809 0.064857997 -0.014287
0.10751 0.065784 -0.014898
0.10697 0.065796003 -0.014483
0.13752 0.10759 -0.0093681002
0.1366 0.10897 -0.0088114999
0.13697 0.10756 -0.0080477996
0.048795 0.06357 0.041338
0.047938 0.061875999 0.041129
0.046077002 0.081534997 0.076127
0.045643002 0.082025997 0.075571001
0.047327999 0.081933998 0.076356001
0.029914999 0.042660002 0.038493998
0.029083 0.042555999 0.040008001
0.12423 0.074901 -0.052157
0.12467 0.074662998 -0.053893998
0.1236 0.075273998 -0.053187001
0.094713002 0.070607997 0.020137001
0.094561003 0.071226001 0.020577
0.14656 0.061477002 0.022043001
0.14638001 0.062189002 0.02117
0.14658999 0.06058 0.02148
0.045722999 0.056883998 0.044395
0.046271 0.056765001 0.042419001
0.045047998 0.056152001 0.043173999
0.040353 0.10002 0.090622
0.040394999 0.098408997 0.090248004
0.039864 0.099223003 0.090324
0.10605 0.10074 -0.014637
0.10584 0.10155 -0.014021
0.10539 0.10095 -0.015807001
0.11804 0.082396001 -0.046410002
0.11836 0.083457001 -0.045221001
0.11807 0.083226003 -0.046232
0.042789999 0.041653 0.031867001
0.042080998 0.042890001 0.031598002
0.15679 0.040878002 -0.013756
0.15648 0.041095998 -0.014054
0.15644 0.041689001 -0.014096
0.063666999 0.045894999 0.053637002
0.064139001 0.046275001 0.054398999
0.062652998 0.045324001 0.053314999
0.049206 0.086309001 0.087284997
0.13214999 0.081563003 -0.046165001
0.13218001 0.081598997 -0.046760999
0.13128 0.081753999 -0.045713998
0.067336001 0.048617002 0.056597002
0.067112997 0.049373999 0.056446999
0.068559997 0.049694002 0.056382
0.11347 0.097232997 -0.030712999
0.074277997 0.062709004 0.027935
0.074098997 0.062743001 0.028382
0.073284999 0.06174 0.027933
0.045641001 0.088592 0.079680003
0.045113001 0.090196997 0.080388002
0.046985999 0.089838997 0.080215998
0.11571 0.084311001 -0.036869001
0.11633 0.084784001 -0.038157001
0.11559 0.084384002 -0.038017001
0.11583 0.080130003 -0.039361
0.11533 0.081560999 -0.040424999
0.069257997 0.055668999 0.034621999
0.067791 0.054182999 0.034405001
0.068589002 0.055052999 0.034015998
0.086741999 0.040380999 -0.0039248001
0.086990997 0.040194999 -0.0038213001
0.086369999 0.039055999 -0.0038832
0.1374 0.10755 -0.00037314001
0.13822 0.10991 -0.00098471995
0.030432999 0.038509998 0.020269999
0.031364001 0.037425 0.020903001
0.030796999 0.037220001 0.018959001
0.10253 0.037661999 -0.013894
0.10331 0.037687 -0.015105
0.1027 0.037335001 -0.016097
0.13367 0.056092001 -0.0098280003
0.13463999 0.057404999 -0.011067
0.134 0.055739 -0.010835
0.047816999 0.055250999 0.040945001
0.048020002 0.055084001 0.039964002
0.12224 0.074409001 -0.057595
0.12134 0.075030997 -0.057472002
0.12223 0.074111998 -0.057215001
0.14529 0.049226001 0.0090140998
0.13583 0.086565003 -0.030119
0.13534001 0.085137002 -0.030967999
0.13501 0.085134 -0.031523
0.098324999 0.037122 0.04981
0.097149 0.038155999 0.049989998
0.14918 0.059361 0.017157
0.14872 0.058926001 0.018113
0.14791 0.057526 0.016416
0.13552 0.067377999 -0.018023999
0.13373999 0.06594 -0.019452
0.13472 0.066756003 -0.018717
0.10657 0.10786 -0.013533
0.10647 0.1072 -0.014237
0.1049 0.10805 -0.013933
0.034012999 0.041101001 0.02643
0.033883002 0.040697999 0.026126999
0.033498 0.041269999 0.026652999
0.065527998 0.057241999 0.031982999
0.049883001 0.088367 0.082235999
0.048946001 0.089102998 0.080641001
0.049297001 0.088363998 0.082337998
0.14839999 0.037856001 0.0044487999
0.14912 0.038020998 0.005992
0.14821 0.038864002 0.0038425999
0.10477 0.073104002 -0.015397
0.10565 0.073991001 -0.014444
0.10521 0.074871004 -0.014665
0.081050001 0.083508 0.025051
0.080149002 0.083185002 0.025443001
0.079513997 0.084611997 0.025824999
0.09962 0.037386999 -0.029949
0.099587999 0.035677999 -0.029583
0.099413 0.037636001 -0.029053001
0.047166999 0.045772001 0.048345
0.046822999 0.045180999 0.048751
0.046358999 0.044532999 0.048009001
0.099815004 0.048739001 0.0019005
0.099670999 0.049479999 0.0017838
0.13568 0.098618001 -0.022143001
0.13546 0.10005 -0.023057999
0.13584 0.099978 -0.022599
0.13016 0.052073002 -0.0083851004
0.055929001 0.046184 0.044158
0.065033004 0.046071999 0.056651
0.13698 0.10902 -0.039579999
0.13777 0.10871 -0.038656998
0.13673 0.10846 -0.038895
0.15241 0.047299001 0.012881
0.15279 0.047316998 0.013009
0.066693 0.068917997 0.026582999
0.037854001 0.052085001 0.051321998
0.038435001 0.053146999 0.051576
0.066684 0.052441999 0.039305001
0.066817999 0.051534001 0.040532999
0.066445999 0.051975001 0.039652999
0.11395 0.086418003 -0.041756999
0.11457 0.087071002 -0.041598
0.11535 0.087347001 -0.041090999
0.11331 0.091623999 -0.033518001
0.11434 0.093255997 -0.033411
0.11367 0.092060998 -0.033075999
0.16932 0.039549001 0.00028004
0.16832 0.040787 0.00061370002
0.16858 0.039670002 0.00046565
0.077753 0.090248004 0.036440998
0.078161001 0.088917002 0.035549998
0.077822 0.089258999 0.034954999
0.1349 0.080560997 -0.034667999
0.1349 0.080746002 -0.035464
0.020227 0.033782002 0.047254998
0.020485001 0.035264999 0.048004001
0.020543 0.033709001 0.046700001
0.13638 0.092889003 -0.022705
0.13623001 0.093487002 -0.023639999
0.13732 0.10081 -0.057029001
0.13643999 0.099767998 -0.058628
0.13605 0.10049 -0.057941999
0.13658001 0.093181998 -0.023010001
0.13668001 0.091527998 -0.024327001
0.13603 0.092390999 -0.023322999
0.15353 0.051027998 0.016961999
0.15166999 0.051527999 0.016627001
0.1524 0.051518001 0.018181
0.12650999 0.071870998 -0.058258001
0.027876999 0.040465999 0.036207002
0.028855 0.039135002 0.034306999
0.027764 0.038274001 0.036451999
0.10007 0.064539 0.0075221001
0.10028 0.064285003 0.0058529
0.12596001 0.11031 -0.060251001
0.12483 0.10986 -0.060378
0.12392 0.11016 -0.058646999
0.047277 0.041962001 0.052887999
0.047049001 0.043081 0.051739998
0.067726001 0.074327998 0.026334001
0.068576999 0.073046997 0.024785001
0.066643 0.072699003 0.025942
0.11687 0.050423998 -0.00715
0.026996 0.050306 0.059324
0.10484 0.12208 -0.0094908997
0.1056 0.12157 -0.010818
0.10425 0.12022 -0.0098956004
0.049384002 0.086113997 0.082313001
0.048108 0.084844001 0.081523001
0.049029998 0.085468002 0.081568003
0.10416 0.051024001 0.0015001
0.10271 0.050673001 0.0015282
0.10234 0.050997999 0.0019998001
0.041563999 0.077973001 0.081798002
0.041981 0.075965002 0.082442001
0.041125 0.075221002 0.083766997
0.026218001 0.052143 0.058724001
0.026543001 0.054037001 0.058908999
0.027294001 0.053119 0.058680002
0.047302999 0.084881 0.080958001
0.047591001 0.085658997 0.080505997
0.091599002 0.075622 0.020878
0.041852999 0.083770998 0.084187999
0.041373 0.086056001 0.084783003
0.042626999 0.084972002 0.083347999
0.042585 0.046523999 0.048406001
0.043205 0.045736998 0.047536999
0.042594999 0.046381999 0.048278
0.029707 0.049283002 0.051966999
0.11537 0.069937997 -0.040522002
0.11526 0.072030999 -0.040619001
0.091508001 0.062288001 0.0066966
0.092367999 0.061345 0.0074156998
0.091503002 0.060543999 0.0074988999
0.089828998 0.036359999 -0.028106
0.088908002 0.035743002 -0.028563
0.088005997 0.037207998 -0.028093001
0.044002 0.094045997 0.081202
0.045231 0.095765002 0.081997
0.044697002 0.094650999 0.080966003
0.068245001 0.047518998 0.057445999
0.067552 0.048106998 0.057964001
0.066730998 0.046831001 0.05742
0.11771 0.048262998 -0.0037401
0.11551 0.047683001 -0.0037207999
0.081414998 0.085081004 0.027496001
0.082007997 0.085101999 0.027416
0.079944 0.085621998 0.027222
0.079240002 0.086911999 0.030103
0.078036003 0.086217999 0.029139999
0.077411003 0.086525999 0.029820999
0.093768001 0.069150001 0.020981999
0.094144002 0.068554997 0.021671001
0.092744 0.069192 0.021056
0.10781 0.11156 -0.011253
0.10536 0.11346 -0.011479
0.10518 0.11261 -0.01152
0.10945 0.069885999 -0.019429
0.1085 0.068526998 -0.017798999
0.10896 0.070329003 -0.0189
0.10954 0.039113998 -0.027004
0.10848 0.037896 -0.026585
0.10767 0.039421 -0.026071001
0.14771 0.048261002 0.013396
0.14669 0.048836 0.013106
0.14713 0.048760001 0.013099
0.10616 0.1151 -0.0096404999
0.10658 0.11593 -0.009877
0.10698 0.11589 -0.0086092995
0.092638999 0.035634998 0.049803
0.092931002 0.035427999 0.049626
0.092750996 0.035537001 0.051594
0.046165999 0.065972 0.071183003
0.045988999 0.067767002 0.072435997
0.025180999 0.044837002 0.052639
0.025137 0.042390998 0.051856998
0.025715001 0.043233 0.052802999
0.14776 0.049660001 0.010743
0.1476 0.051169001 0.010192
0.048757002 0.076448999 0.075312003
0.046633001 0.076719999 0.074614003
0.049279999 0.077494003 0.076251999
0.067253001 0.077674001 0.026764
0.069316 0.077881999 0.026481999
0.068268001 0.077560998 0.026609
0.040647998 0.10386 0.092229001
0.14621 0.056040999 0.013611
0.13528 0.11529 -0.027558999
0.13407999 0.11506 -0.029580999
0.13420001 0.11485 -0.028372001
0.085167997 0.070193 0.023644
0.085029997 0.071898997 0.023045
0.093686998 0.043692 -0.019715
0.091853999 0.043347999 -0.018226
0.14627001 0.050859001 0.0093623996
0.14696001 0.050884001 0.0091370996
0.019732 0.035928998 0.051856
0.017441001 0.035245001 0.052901
0.066845998 0.088532001 0.040358
0.068714 0.088619001 0.039694998
0.067272998 0.087494999 0.038996
0.12168 0.087655 -0.043873999
0.12177 0.086329997 -0.043598
0.12157 0.086498 -0.044505
0.11124 0.11135 -0.01936
0.10969 0.11105 -0.020065
0.1112 0.11157 -0.019377001
0.15104 0.060350999 0.022593001
0.15128 0.060764 0.021672999
0.1507 0.061329 0.023278
0.049787998 0.078295998 0.081170999
0.049687002 0.078222997 0.080601998
0.049371999 0.078713998 0.081982002
0.14063001 0.060458001 0.0060020001
0.041790999 0.051594 0.048315998
0.042142998 0.053080998 0.048307002
0.041997999 0.051759001 0.048198
0.10649 0.10018 -0.017236
0.097540997 0.052035999 -0.0012881
0.096887998 0.053094 -0.0022503
0.097382002 0.05274 -0.002144
0.039760001 0.092963003 0.090554997
0.039641999 0.094461001 0.089447998
0.039645001 0.093053997 0.088298
0.04239 0.041430999 0.032641001
0.089372002 0.050666999 -0.0018167
0.089456998 0.051251002 -0.0015936
0.089189 0.050283 -0.0023034001
0.047423001 0.10282 0.084128998
0.047106002 0.10436 0.084078997
0.048287001 0.10386 0.085289001
0.10252 0.11428 -0.010429
0.1027 0.11472 -0.010184
0.13494 0.093285002 -0.038160998
0.13553999 0.079782002 -0.034472998
0.13541 0.079007 -0.036104001
0.13417 0.079117 -0.036506001
0.10573 0.081444003 -0.017468
0.10668 0.081734002 -0.015989
0.1054 0.081474997 -0.017374
0.054421 0.074615002 0.040336002
0.054017998 0.072594002 0.039289001
0.053242002 0.072907001 0.040789999
0.047733001 0.097792 0.087125003
0.047986999 0.098018996 0.085911997
0.048896 0.097512998 0.087067001
0.14726 0.038352001 0.015787
0.14658999 0.039776001 0.016257999
0.1462 0.040057998 0.015351
0.090967 0.088595003 0.027998
0.090663999 0.087430999 0.027727
0.090947002 0.088698 0.02885
0.058038998 0.078183003 0.04002
0.056901 0.078263998 0.040792
0.12933999 0.11503 -0.057449002
0.12895 0.1137 -0.058717001
0.12887 0.11289 -0.059523001
0.1063 0.092913002 -0.014725
0.1067 0.093984 -0.015822999
0.11116 0.091937996 -0.027097
0.111 0.091989003 -0.025761001
0.14945 0.062380999 0.019419
0.15081 0.061055001 0.019709
0.15044001 0.060844999 0.019228
0.15338001 0.041609999 -0.015283
0.15621001 0.041942999 -0.01521
0.15454 0.041809 -0.016689001
0.10336 0.058159001 -0.0020687
0.10392 0.056802001 -0.0028315999
0.16593 0.040243 -0.0083063999
0.16553999 0.039641999 -0.0094707999
0.1649 0.039585002 -0.0085669998
0.070505999 0.051192001 0.057206001
0.11801 0.083022997 -0.043053001
0.11737 0.082951002 -0.042390998
0.14125 0.048492 0.011705
0.15399 0.040205002 -0.016688
0.15299 0.040707 -0.015644001
0.022515001 0.034961 0.045193002
