# .PCD v0.7 - Point Cloud Data file format
VERSION 0.7
FIELDS x y z
SIZE 4 4 4
TYPE F F F
COUNT 1 1 1
WIDTH 1625
HEIGHT 1
VIEWPOINT 0 0 0 1 0 0 0
POINTS 1625
DATA ascii
0.16304 -0.030355999 0.19508
0.16303 -0.031166 0.19468001
0.16221 -0.030126 0.19520999
0.19999 0.027895 0.1109
0.20502 -0.0023858999 0.097382002
0.20521 -0.0039984002 0.096046001
0.20356999 -0.0034709999 0.097457998
0.11635 -0.050321002 0.1629
0.15143999 -0.037780002 0.18584
0.1595 -0.025862999 0.17419
0.18268 -0.0013878 0.16459
0.16275001 -0.052356999 0.20025
0.16213 -0.052871 0.20013
0.16441 -0.053015001 0.19858
0.23464 -0.039717 0.14050999
0.21554001 -0.0059926002 0.12363
0.21409 -0.0070704999 0.12391
0.20286 0.026477 0.10792
0.20334999 0.027806999 0.1077
0.14109001 -0.0097991005 0.19794001
0.14021 -0.0092826998 0.19679999
0.17363 0.0018207 0.15820999
0.13789999 -0.039556999 0.1865
0.21732999 0.0244 0.083577998
0.22962999 -0.020116 0.12793
0.22071999 0.0010459 0.1111
0.21974 0.00068771001 0.11017
0.20236 0.032552999 0.11165
0.23435999 0.02207 0.076242
0.23341 0.021295 0.077915996
0.19874001 0.00021419 0.15357
0.19718 0.0010125 0.15295
0.17067 -0.039533999 0.19478001
0.17087001 -0.041181002 0.19487999
0.214 0.030532001 0.090984002
0.21247999 0.030692 0.091156997
0.21269999 0.030249 0.091328003
0.14515001 -0.030499 0.19809
0.14511999 -0.030146999 0.19674
0.14653 -0.030017 0.19662
0.22623 0.014999 0.10149
0.22667 0.014669 0.10309
0.21877 0.023186 0.081713997
0.19431999 0.0045841001 0.15142
0.1945 0.0052708001 0.15051
0.19408999 0.0053928001 0.14991
0.22719 -0.028298 0.13987
0.23181 -0.012064 0.11257
0.23194 -0.012945 0.11302
0.20576 0.0057518999 0.10737
0.22500999 0.021677 0.096258998
0.17827 -0.0059432001 0.16677
0.17919999 -0.0077932002 0.16709
0.17946 -0.0058308998 0.16627
0.21217 -0.0077681998 0.15016
0.12321 -0.037466999 0.16651
0.12211 -0.036642998 0.16732
0.12377 -0.035526998 0.16683
0.1339 -0.037004001 0.17926
0.18043999 0.0041648 0.15662
0.17929 0.0049180002 0.15651
0.16952001 -0.03822 0.19574
0.15031999 -0.040119998 0.18492
0.15093 -0.03898 0.18544
0.20784999 -0.0060466998 0.15222
0.20739 -0.0052244002 0.15261
0.21081001 -0.011193 0.15810999
0.20972 -0.012623 0.15875
0.21083 -0.013106 0.15768
0.19693001 -0.046757001 0.11168
0.18508001 -0.044213001 0.1805
0.18389 -0.044454001 0.17924
0.18358999 -0.044411998 0.18012001
0.12827 0.0081615001 0.21402
0.12882 0.0090821004 0.21412
0.18041 -0.049722999 0.11822
0.13767 -0.013294 0.18809
0.13698 -0.014476 0.18874
0.13775 -0.012872 0.18831
0.19513001 -0.052186001 0.17681
0.19528 -0.052398 0.17686
0.19452 -0.051693998 0.17697001
0.14729001 -0.022304 0.1945
0.15651 -0.014483 0.16625001
0.23266999 0.0014105 0.11032
0.22483 -0.039172001 0.13006
0.17628001 0.0062446999 0.15433
0.25178 -0.042571001 0.13299
0.22672001 0.015790001 0.10059
0.13978 -0.040288001 0.18763
0.16912 0.00067534001 0.15354
0.17 0.001431 0.15294001
0.20772 -0.0015519999 0.1094
0.20720001 -0.0027802 0.1076
0.22668999 0.012385 0.10653
0.20344 0.028303999 0.10942
0.20431 0.030002 0.11015
0.27059999 -0.050066002 0.12353
0.27083001 -0.049302999 0.12183
0.20235001 0.032113999 0.1086
0.20373 0.031498 0.10829
0.23631001 0.021297 0.11897
0.16598 -0.031461 0.18437
0.16582 -0.030835001 0.18427999
0.16535001 -0.030599 0.18384001
0.18636 0.0041641998 0.14932001
0.22363999 0.0074570999 0.10892
0.23405001 -0.036146998 0.14066
0.20804 0.01819 0.10686
0.16643 -0.01629 0.16756
0.19516 -0.047479998 0.11518
0.19622999 -0.048280999 0.1153
0.23187 -0.017394001 0.12262
0.11106 -0.053514998 0.16446
0.1104 -0.052997999 0.16464999
0.19005001 -0.018978 0.16462
0.19166 -0.018087 0.16506
0.12698001 -0.0011537001 0.20818999
0.21822 0.025257999 0.078273997
0.12938 -0.00084287999 0.20878001
0.17855 0.0045496002 0.15617
0.17767 0.0041390001 0.15711001
0.18625 0.0019274 0.15785
0.18779001 0.0020621 0.15782
0.18689001 0.0030463999 0.15706
0.15831999 -0.027651001 0.18550999
0.15936001 -0.027581999 0.18577
0.22605 -0.034627002 0.13946
0.23891 -0.024154 0.13962001
0.23853 -0.024814 0.13831
0.23785 -0.024749 0.13971999
0.2305 0.0025279 0.10282
0.23061 0.0044763 0.10301
0.22999001 0.0048294002 0.10447
0.22658999 0.011704 0.10515
0.13206001 -0.018765001 0.19587
0.13231 0.031532999 0.21589001
0.16222 -0.044507001 0.19083001
0.16261999 -0.044323001 0.19188
0.22595 0.022004999 0.072319999
0.14433999 -0.016178001 0.17013
0.22352 -0.031318001 0.14427
0.22429 -0.03122 0.14343999
0.22432999 0.022382 0.082203001
0.22186001 0.022744 0.082661003
0.22328 0.022832001 0.083397999
0.14963999 -0.022529 0.17622
0.14946 -0.014416 0.16666999
0.22935 0.0085439999 0.10988
0.20957001 -0.040213 0.1401
0.20688 -0.039441999 0.14105
0.20777 -0.039584 0.13997
0.13133 -0.020035001 0.19729
0.23108999 0.029314 0.096986003
0.23098999 0.018394001 0.11276
0.20685001 0.020563999 0.10756
0.16665 -0.052891999 0.19584
0.16717 -0.052288 0.19593
0.16967 0.0019297 0.15854999
0.17110001 0.0025545 0.15794
0.17019001 0.0032565999 0.15800001
0.14848 -0.022206999 0.17628001
0.20416 -0.049968001 0.10083
0.20382001 -0.050646 0.10111
0.23 0.013454 0.1155
0.14067 -0.0084111001 0.20013
0.25082001 -0.045549002 0.13828
0.13842 0.0075551998 0.20236
0.13813999 0.0071279001 0.20231
0.1381 0.0091239996 0.20277999
0.18159001 0.0027483001 0.15973
0.15723 -0.0037289001 0.15938
0.20776001 -0.018417999 0.1603
0.20653 -0.0038427999 0.10383
0.20721 -0.0028098 0.10249
0.23102 0.021872001 0.072548002
0.19103999 -0.0060411999 0.16616
0.19348 -0.050754 0.11583
0.21637 -0.030332999 0.15256
0.21605 -0.030479001 0.1532
0.22763 0.012996 0.11072
0.14768 -0.01394 0.16739
0.14650001 -0.013925 0.16793001
0.23474 0.020748001 0.068066001
0.23362 0.021157 0.069155
0.16365001 -0.01012 0.16697
0.16406 -0.0093849003 0.16605
0.23224001 0.025463 0.069422998
0.23122001 0.025947001 0.071520999
0.23216 0.02537 0.070901997
0.12322 -0.033381999 0.17211001
0.12266 -0.035891999 0.16914
0.12239 -0.034906 0.17032
0.12256 -0.035833001 0.16958
0.2236 0.021224 0.099546999
0.26012999 -0.051674001 0.12874
0.25917 -0.050848 0.1288
0.21101999 0.011536 0.10433
0.24154 -0.049725 0.14534999
0.22846 -0.026348 0.14098001
0.16906001 -0.024233 0.19661
0.16941001 -0.025373001 0.19583
0.16205999 0.0043620998 0.15504999
0.24107 -0.044883002 0.14277001
0.23978999 -0.045005001 0.14249
0.11085 -0.054008 0.16405
0.20649999 0.015238 0.1083
0.23642001 -0.027005 0.12823001
0.23599 -0.024959 0.12953
0.23705 -0.026162 0.12955
0.13478 -0.037868001 0.18274
0.13415 -0.037595 0.18164
0.14275999 -0.026040999 0.19967
0.14448 -0.017836999 0.19510999
0.14579999 -0.017608 0.19655
0.1407 -0.0078051002 0.19965
0.12928 0.029886 0.21800999
0.22882999 -0.0073422999 0.11318
0.22984 -0.0073504001 0.11175
0.16551 -0.00087600999 0.16073
0.16621999 -0.0016151 0.16152
0.17645 -0.048978001 0.18995
0.20042001 0.021139 0.11088
0.1937 -0.0050331 0.16520999
0.19413 -0.0060492 0.16543999
0.25503001 -0.043097999 0.12666
0.23105 -0.0013589 0.11155
0.23187999 -0.0020715999 0.11286
0.23055001 -0.0017668999 0.1137
0.16845 -0.0077165999 0.16536
0.18866 0.0037893001 0.15471999
0.25519001 -0.050606001 0.13313
0.25440001 -0.051644001 0.13333
0.22835 0.027781 0.078950003
0.22965001 0.028959 0.078516997
0.22877 0.028639 0.078006998
0.17924 0.0014886 0.16038001
0.21243 0.032919999 0.092780001
0.21273001 0.031973999 0.092813998
0.19654 -0.04693 0.11414
0.19555999 -0.048124999 0.11349
0.18121 -0.020338001 0.16418999
0.23477 0.0016863 0.10909
0.23343 0.0014347 0.10882
0.18972 -0.0045206998 0.16599
0.18927 -0.0033845 0.16564
0.21788999 0.024932999 0.080440998
0.21777 0.024174999 0.082006998
0.24171001 -0.041142002 0.14689
0.24078 -0.041365001 0.14624
0.18796 -0.0039116 0.16554999
0.24501 -0.035948999 0.14782
0.17517 -0.0020802999 0.16433001
0.20497 -0.0014163 0.14624999
0.20552 -0.0017285 0.14628001
0.18977 -0.053479001 0.17739999
0.18906 -0.052916002 0.17786001
0.18965 -0.051927 0.17696001
0.26732001 -0.048638999 0.11245
0.26686999 -0.048478998 0.11184
0.22569001 -0.019238001 0.13314
0.22971 0.01918 0.10301
0.23622 -0.0053053 0.10832
0.23621 -0.0060379999 0.10974
0.23662999 0.021005001 0.089721002
0.18686 -0.048131999 0.12027
0.22028001 -0.0077423998 0.12518001
0.21942 -0.0083526997 0.12423
0.19287001 -0.048675999 0.1785
0.24285001 -0.053633001 0.14674
0.24246 -0.05294 0.14707001
0.26868999 -0.050469 0.12417
0.15875 0.0062364 0.15801001
0.19176 0.0017804001 0.14748
0.19017 0.0024812999 0.14724
0.13004 -0.0065019 0.20477
0.12986 -0.0060053002 0.20318
0.15125 -0.017728999 0.16898
0.19008 -0.00051798002 0.16150001
0.20822001 0.00091468001 0.1121
0.20948 0.0018255 0.11038
0.1538 -0.026137 0.1786
0.19794001 -0.036233 0.13288
0.13252001 0.012886 0.21448
0.13334 0.01312 0.21353
0.15882 -0.025824999 0.17339
0.11828 -0.042445 0.16816001
0.20995 -0.036189001 0.14812
0.14958 -0.035626002 0.18836001
0.14933001 -0.037866 0.18888
0.19774 -0.030309999 0.15518001
0.23537999 0.023146 0.089760996
0.23611 0.022581 0.088881001
0.23684999 0.021793 0.088533998
0.22961999 -0.013315 0.11858
0.20047 0.019402999 0.10947
0.19957 0.019002 0.10895
0.1353 -0.036040999 0.18769
0.22731 -0.011341 0.11859
0.22752 -0.010948 0.11952
0.21758001 -0.0051397001 0.11949
0.13079 0.020719999 0.21268
0.13170999 0.020837 0.21269999
0.16389 -0.02478 0.16965
0.16433001 -0.025216 0.16947
0.22335 0.028131001 0.070262
0.12724 0.013607 0.22342999
0.12791 0.014348 0.22448
0.15137 -0.038430002 0.18455
0.23512 0.018655 0.1214
0.23513 0.018787 0.12036
0.23439001 -0.030531 0.14019001
0.13478 0.0070722001 0.20671999
0.23479 -0.039496001 0.13722
0.23398 -0.040373001 0.13587999
0.18001001 -0.021023 0.16369
0.18370999 -0.051295001 0.186
0.22471 0.014972 0.1042
0.22296999 0.014737 0.10599
0.22349 0.013705 0.10579
0.23210999 0.020272 0.092290998
0.13764 0.0035275 0.20307
0.18397 -0.045107 0.18054999
0.20985 0.020563999 0.10614
0.19909 -0.0095813004 0.16486999
0.19894999 -0.0077763 0.16491
0.19877 -0.0087497002 0.16489001
0.12634 -0.0012013 0.20597
0.13673 0.0047368999 0.20334999
0.21604 -0.011529 0.14564
0.21861 -0.012481 0.14612
0.20705 -0.00073680002 0.1111
0.20840999 -0.0012317999 0.11252
0.20882 0.00067688001 0.11194
0.18964 -0.052829999 0.1142
0.19047999 -0.052779 0.11313
0.21602 -0.0083986996 0.1241
0.21638 -0.0076307999 0.12365
0.24453001 -0.048466001 0.14408
0.18914001 -0.046255 0.1222
0.18697999 -0.045793999 0.12331
0.15243 -0.0033289001 0.15831999
0.22607 -0.037813 0.13252001
0.22689 -0.038199998 0.13082001
0.22772001 -0.038238 0.1313
0.16462 -0.014171 0.16722
0.16487999 -0.013002 0.16677999
0.2044 0.033755001 0.11091
0.20498 0.033847 0.10879
0.22026999 -0.00076144002 0.11603
0.2208 -0.00011712 0.11459
0.22081 -0.0023340001 0.11506
0.19764 -0.018379999 0.16453999
0.12398 -0.034949001 0.17441
0.12282 -0.034095999 0.17411
0.16177 -0.02956 0.19461
0.21164 0.032655001 0.091849998
0.18976 -0.051982999 0.18199
0.16822 -0.033872001 0.19536
0.23450001 0.027690999 0.1216
0.18663999 -0.052574001 0.18267
0.13835999 -0.0064208 0.20103
0.22949 0.01464 0.11057
0.22753 0.011577 0.108
0.22768 0.010001 0.10833
0.12659 -0.00072120002 0.2078
0.15527 -0.015737001 0.16732
0.15612 -0.016039999 0.16689999
0.13841 -0.028325999 0.19894999
0.13947 -0.036199 0.19313
0.13942 -0.035726 0.19324
0.21981999 0.011136 0.10476
0.24027 -0.046142999 0.13801999
0.14228 -0.041967001 0.18364
0.20926 -0.037868001 0.14470001
0.20717999 -0.038600001 0.14397
0.20237 -0.0079266997 0.16117001
0.18987 -0.053034998 0.11483
0.18024001 -0.012102 0.16606
0.22975001 0.015241 0.116
0.18742999 -0.0031312001 0.16423
0.18711001 -0.0035304001 0.1666
0.17887001 0.0052140998 0.15238
0.16074 -0.035215002 0.19519
0.14169 -0.011403 0.19642
0.14855 -0.023567 0.19272999
0.14752001 -0.023056 0.19327
0.22093 -0.029641001 0.14757
0.23552001 -0.0095212003 0.10308
0.23563001 -0.0099521 0.10309
0.23499 -0.0097236 0.10312
0.20982 -0.025074 0.15783
0.21233 -0.039235 0.14309999
0.18430001 -0.047554001 0.11968
0.25038001 -0.044482999 0.13609
0.25141001 -0.044725999 0.13716
0.25584999 -0.042948999 0.12916
0.25415999 -0.043366998 0.12951
0.23545 -0.030379999 0.14148
0.2281 0.0082226004 0.10734
0.24826001 -0.052671 0.13902
0.16528 -0.0023189001 0.16271999
0.21082 0.016012 0.10401
0.21085 0.018244 0.10414
0.14534 -0.036513001 0.19204
0.14438 -0.035728 0.19314
0.18745001 -0.023019999 0.16046
0.1883 -0.023624999 0.16073
0.14791 -0.041021999 0.18382999
0.148 -0.039912999 0.18422
0.21393999 -0.0094261002 0.14875001
0.21355 -0.0092628999 0.14964999
0.16128001 -0.05015 0.19983999
0.18832999 -0.018328 0.16607
0.18944 -0.018213 0.16452
0.17354 -0.019399 0.16666999
0.17403001 -0.018834 0.16632
0.20574 -0.0055442001 0.1568
0.16101 -0.0068764002 0.16259
0.23033001 -0.0040187999 0.10762
0.23531 0.025288999 0.12165
0.20442 -0.049931001 0.099931002
0.20469999 -0.048671 0.099039003
0.19494 -0.046073001 0.11298
0.19410001 -0.044720002 0.11499
0.1953 -0.045366999 0.11476
0.22073001 0.01943 0.093837
0.22060999 0.020695999 0.094177999
0.16253 -0.027678 0.16988
0.16373999 -0.028271999 0.16848999
0.16387001 -0.026017999 0.17051999
0.13961001 -0.0044374 0.19316
0.13959999 -0.0043862001 0.19332001
0.13862 -0.0037175 0.19339
0.13260999 0.024021 0.21111
0.13208 0.025984 0.21272001
0.21755999 -0.013553 0.14727999
0.21826001 -0.01409 0.14674
0.18528 -0.00033469 0.16215999
0.22215 -0.018219 0.14274
0.15919 -0.032396 0.19351999
0.13160001 0.0025524001 0.21159001
0.12983 0.0035800999 0.21289
0.19867 -0.033904999 0.14862999
0.17633 -0.044456001 0.18933
0.17828999 -0.045169 0.18876
0.13122 0.017208001 0.21967
0.22093999 -0.0099384999 0.12640999
0.2211 -0.0084790001 0.12529001
0.20926 -0.0048346999 0.13985001
0.20872 -0.0044343001 0.14185999
0.13463999 -0.013287 0.20487
0.21325 0.014198 0.10368
0.21343 0.013593 0.10334
0.21295001 0.013736 0.10404
0.1159 -0.050035 0.15820999
0.11547 -0.050104 0.15793
0.20638999 0.0043123998 0.10681
0.20558999 0.0041331998 0.10751
0.16407999 -0.027181 0.18802001
0.16295999 -0.025891 0.18883
0.16191 -0.025477 0.18829
0.22967 0.022231 0.074731
0.13473 0.0070914999 0.20872
0.23162 -0.020111 0.12205
0.23169 -0.019886 0.12119
0.23141 -0.018200999 0.1225
0.23011 0.00068082003 0.10438
0.16013999 -0.021043001 0.16998
0.21857999 -0.015893999 0.14774001
0.20841999 -0.025226001 0.15832999
0.21156999 -0.027179001 0.15552001
0.21201 -0.027999001 0.15583999
0.22050001 -0.031636 0.14697
0.16366 0.0064861998 0.15708999
0.17651001 -0.023001 0.16124
0.21566001 0.0071044001 0.10501
0.23682 -0.01357 0.1082
0.23726 -0.013512 0.10759
0.23725 -0.01118 0.10762
0.18594 -0.044296 0.17726
0.22785001 0.018457999 0.097694002
0.22826 0.019304 0.098113999
0.15553001 -0.015464 0.1672
0.15508001 -0.015158 0.16631
0.20546 0.02162 0.11017
0.20615999 0.021593001 0.1106
0.13109 -0.01897 0.19623999
0.23455 0.018538 0.12106
0.2315 0.021573 0.069183998
0.23136 -0.033179998 0.14204
0.23242 -0.031302001 0.1425
0.23111001 -0.031977002 0.14034
0.20245001 0.0059529999 0.10549
0.2045 0.0061010998 0.10388
0.20428 0.0053284001 0.10415
0.18260001 -0.049660999 0.12407
0.18875 -0.045283999 0.17947
0.18265 -0.049029998 0.18629999
0.21973 -0.0012655 0.11295
0.2207 0.0063295998 0.10792
0.21949001 0.0057021999 0.10618
0.20338 0.030819001 0.11252
0.13493 -0.0099181002 0.20522
0.16853 -0.032706998 0.19178
0.23806 -0.035542998 0.14519
0.21502 -0.033464 0.15098999
0.24754 -0.039747 0.14459001
0.24795 -0.039726999 0.14371
0.2485 -0.038883999 0.14241
0.23305 0.026830001 0.064622998
0.233 0.026896 0.065825999
0.23413999 0.022123 0.069012001
0.25121 -0.043671001 0.13637
0.24993999 -0.042681001 0.13742
0.25048 -0.044197001 0.13721
0.17495 -0.049835999 0.19175
0.19728 -0.027363 0.15762
0.19840001 -0.027344 0.15711001
0.19859999 -0.027005 0.15736
0.14888 -0.025101 0.18877999
0.14912 -0.024259999 0.18962
0.14962 -0.024243999 0.19058999
0.17258 0.0021856001 0.15863
0.25797001 -0.050517999 0.13131
0.25604999 -0.051228002 0.13188
0.25703999 -0.051504999 0.13127001
0.24166 -0.041838001 0.14725
0.1638 -0.0021883999 0.16
0.16466001 -0.0018916 0.15975
0.12616999 -8.2972998e-05 0.20991001
0.16633999 -0.027482999 0.16492
0.16642 -0.027214 0.1644
0.16596 -0.026523 0.16502
0.1857 0.0024651 0.15782
0.17299999 -0.014429 0.16799
0.17352 -0.014403 0.16838001
0.23631001 -0.022984 0.13255
0.23559999 -0.023151999 0.13144
0.23585001 -0.022868 0.13327
0.14849 -0.0084809996 0.16202
0.23624 0.018113 0.11925
0.13128 -0.013113 0.19736999
0.13197 -0.014995 0.19606
0.13083 -0.015263 0.1973
0.20863999 -0.010362 0.15992001
0.19979 -0.029255001 0.15614
0.22747 -0.029561 0.13925
0.22888 0.011809 0.11005
0.22403 -0.018569 0.13361999
0.22451 -0.018553 0.13196
0.21625 -0.017066 0.15283
0.19307999 -0.017988 0.16692001
0.19282 -0.017709 0.16539
0.21789999 0.020962 0.088270999
0.22925 0.016016999 0.1158
0.22961 0.015146 0.11629
0.22438 0.027008001 0.070194997
0.21128 -0.0026811 0.13692001
0.15645 -0.030115001 0.18553001
0.15763 -0.029386001 0.18601
0.1935 -0.026768999 0.15525
0.19487 -0.027902 0.15469
0.17511 -0.024421001 0.16033
0.23912001 -0.045219999 0.13894001
0.1398 -0.00080112001 0.19918001
0.13959999 -0.00049713999 0.19787
0.13998 0.00072940998 0.19687
0.22875001 0.01446 0.11143
0.22502001 0.0077817002 0.10857
0.18151 -0.044737998 0.17681
0.15301 -0.021120001 0.17228
0.15327001 -0.021528 0.17159
0.13368 0.015059 0.20990001
0.13241 0.015905 0.21067999
0.20704 -0.022322999 0.15880001
0.1805 -0.014335 0.16666
0.24745999 -0.051943999 0.14266001
0.24645001 -0.050554 0.14256001
0.19719 -0.0037406001 0.16305
0.1989 -0.0051838998 0.16401
0.19321001 -0.049913999 0.1179
0.19408 -0.050342999 0.11639
0.20272 -1.3841e-05 0.14756
0.13189 -0.034265 0.17278001
0.13042 -0.034460001 0.17219
0.25237 -0.043483 0.13124999
0.25332999 -0.043313999 0.12935001
0.25277001 -0.043147001 0.12918
0.19909 0.023159999 0.11035
0.19617 -0.031750999 0.15037
0.19563 -0.030710001 0.15042999
0.19642 -0.030306 0.14979
0.14135 -0.021501999 0.20276
0.14038 -0.022596 0.20198999
0.14098001 -0.022507001 0.20224001
0.20285 -0.049435999 0.10146
0.20443 -0.048695002 0.10047
0.13222 -0.029956 0.18371999
0.21725 -0.019656001 0.15234999
0.14120001 -0.040734999 0.18619999
0.13978 -0.039988 0.18607
0.13454001 -0.0094216 0.20514999
0.21455 0.027758 0.088964
0.19942001 -0.0073456001 0.16434
0.18859001 -0.022992 0.16064
0.22274999 0.015055 0.1028
0.13422 -0.03421 0.18232
0.16881999 -0.037654001 0.19032
0.16788 -0.035399001 0.18928
0.16870999 -0.036203999 0.18996
0.23124 0.019154999 0.071351998
0.22958 0.021032 0.070615001
0.23479 -0.032242 0.1435
0.17188001 -0.039650999 0.19269
0.24439999 -0.033365998 0.14399999
0.23295 0.02792 0.065268002
0.21882001 0.019929999 0.094950996
0.21913999 0.019966999 0.096616
0.20627999 0.016442001 0.11037
0.20534 0.015784999 0.11045
0.20558 0.015487 0.10945
0.19571 -0.050060999 0.11483
0.25813001 -0.047552001 0.13048001
0.25841999 -0.046838 0.13059001
0.26977 -0.052864 0.12037
0.26905999 -0.052560002 0.12263
0.21335 -0.0065166 0.12132
0.21438 -0.0059655001 0.12101
0.22804999 0.026965 0.069565997
0.22758 0.027550001 0.068723001
0.12970001 -0.040869001 0.17455
0.12868001 -0.039088 0.17512
0.12863 -0.040607002 0.17524
0.17622 -0.0042714998 0.16628
0.17747 -0.0037392001 0.16505
0.20058 -0.019515 0.16286001
0.22161999 0.015919 0.10775
0.22168 0.015679 0.10649
0.16603 -0.05271 0.19266
0.16676 -0.052675001 0.19256
0.20205 0.029002 0.10879
0.21989 -0.032435 0.14746
0.21988 -0.032021001 0.14797001
0.15176 -0.027008001 0.18554001
0.19356 -0.017302999 0.16629
0.23886 -0.023881 0.13477001
0.12563001 0.01553 0.22293
0.24098 -0.030479999 0.14112
0.15752 -0.034795001 0.19086
0.18358999 0.0064413999 0.1525
0.18437 0.0070457999 0.1529
0.17042001 0.0035573 0.15304001
0.15441 -0.0058623999 0.1605
0.15513 -0.0049160002 0.16
0.22822 0.012321 0.11041
0.24878 -0.042321 0.14249
0.16086 -0.013242 0.16547
0.19979 0.0026827001 0.14825
0.20502 0.017286999 0.10997
0.21133 0.0076102 0.10565
0.21001001 0.0064496999 0.1055
0.19149999 -0.01511 0.1656
0.21696 -0.0034435 0.11712
0.21006 -0.00072875997 0.13526
0.2088 -0.00059919001 0.13422
0.22570001 0.0044530001 0.11219
0.22477999 0.0027222999 0.11388
0.13397001 -0.033973999 0.18752
0.1339 -0.032255001 0.18708999
0.16159999 0.0014085 0.15712
0.14019001 -0.032653 0.1963
0.2199 0.020561 0.082217999
0.15553001 -0.025361 0.17668
0.15114 -0.0080891997 0.16246
0.13861001 -0.040792 0.18604
0.12696999 -0.043265998 0.1619
0.12761 -0.044744 0.16305999
0.12784 -0.044948 0.16264001
0.21921 -0.015138 0.14646
0.21921 -0.015728001 0.14617001
0.23061 0.00062647997 0.11045
0.23063999 -0.00031100999 0.11036
0.17518 -0.051355001 0.19122
0.13094001 0.016717 0.21599001
0.21995001 0.024080001 0.079217002
0.26657999 -0.047892001 0.12382
0.18377 -0.0079506999 0.16663
0.18364 -0.0065485002 0.167
0.16312 0.0043472 0.15821999
0.16222 0.0038794 0.15723
0.164 0.0040581999 0.15719999
0.19093999 -0.052843001 0.11238
0.19004001 -0.053174 0.11295
0.2323 0.027789 0.096212
0.15696 -0.011452 0.16443001
0.22685 -0.0010559 0.11333
0.22631 -0.00067371002 0.11308
0.22679999 -0.00039016001 0.11271
0.11588 -0.053119998 0.16661
0.24076 -0.032701001 0.14489
0.24116001 -0.032352999 0.14418
0.24028 -0.031325001 0.14455999
0.16201 0.0049410001 0.15549999
0.13327999 -0.032364 0.18628
0.13398001 -0.031915002 0.18567
0.13313 -0.031548001 0.18501
0.23624 -0.011325 0.1118
0.23465 -0.011487 0.11098
0.23445 0.033307001 0.12103
0.23578 0.031806 0.12085
0.23560999 0.033027999 0.12089
0.23397 0.020337 0.11589
0.23370001 0.019002 0.11455
0.17928 -0.049277 0.18885
0.17839 -0.044376001 0.18339001
0.23709001 -0.035576999 0.14465
0.16491 -0.023946 0.16867
0.16319001 -0.024158999 0.16978
0.2182 0.00097722001 0.11259
0.2185 0.0020019 0.11154
0.20268001 0.024309 0.11372
0.20051 0.022998 0.11306
0.26995 -0.05091 0.12374
0.27017999 -0.050459001 0.12338
0.22537 0.013791 0.10328
0.13372 -0.032177001 0.19137
0.16590001 -0.030664001 0.16181
0.16663 -0.030376 0.16260999
0.16459 -0.030214 0.16401
0.22531 -0.012198 0.1211
0.22335 -0.011608 0.12133
0.17714 -0.021058001 0.164
0.17639001 -0.021230999 0.16379
0.22763 0.02279 0.076272003
0.13529 -0.036958002 0.18629999
0.21466 0.016207 0.10019
0.153 -0.020041 0.17038999
0.13195001 0.027411999 0.21489
0.19456001 -0.038035002 0.12853
0.15236001 -0.0090920003 0.15482
0.21795 -0.025974 0.15142
0.21035001 -0.040235002 0.13956
0.20434999 0.024235999 0.10857
0.20437001 0.023329999 0.10772
0.20437001 0.025087999 0.10762
0.21838 0.0091813998 0.10403
0.16618 -0.044709001 0.19521999
0.16712999 -0.043248001 0.19543999
0.16637 -0.044171002 0.19574
0.19513001 0.0040964 0.15015
0.18785 0.0063347002 0.15124001
0.18754999 0.0064619998 0.1525
0.19485 -0.018971 0.16597
0.24686 -0.053036999 0.13940001
0.24417999 -0.052749 0.14025
0.24510001 -0.052636001 0.13888
0.12944999 0.017836001 0.20762999
0.12849 0.018668 0.20916
0.18456 0.00055012002 0.16162001
0.16204999 -0.0016905 0.15896
0.16301 -0.001192 0.15866999
0.16113 -0.00075697002 0.15893
0.22165 0.026063999 0.073982999
0.22077 0.026464 0.074749999
0.20765001 0.0023125 0.10663
0.24690001 -0.052935001 0.13849001
0.1821 -0.048080001 0.12045
0.1822 -0.048574999 0.11941
0.25266999 -0.044257 0.13469
0.25095999 -0.043912999 0.13406
0.13149001 -0.037826002 0.17422
0.21567 -0.02806 0.15432
0.14483 -0.037802 0.19019
0.14602999 -0.037705999 0.18952
0.21811 -0.0023833001 0.11596
0.13305999 -0.028465999 0.19351999
0.22950999 -0.013586 0.11759
0.22925 -0.012399 0.11662
0.23353 -0.01702 0.1164
0.21978 -0.038139001 0.13841
0.14576 -0.020436 0.19744
0.14514001 -0.019574 0.19673
0.13992999 -0.00091368001 0.19758999
0.24121 -0.024644 0.13912
0.24090999 -0.024605 0.13771001
0.23972 -0.024212001 0.13752
0.23525999 0.020079 0.11586
0.13702001 -0.039205998 0.18465
0.19554 -0.0091324002 0.16559
0.19552 -0.0081965998 0.16617
0.13 -0.0029757 0.20654
0.12966999 -0.0025891 0.20640001
0.20367 -0.048980001 0.095371
0.13191 0.011774 0.21585
0.16063 0.0067969998 0.1552
0.17315 -0.0015289 0.16362999
0.17394 -0.001601 0.16279
0.17303 0.0057947999 0.15571
0.22256 -0.030141 0.14618
0.22341999 -0.028996 0.14629
0.20762999 -0.0040656999 0.14877
0.16425 -0.0264 0.16878
0.16484 -0.024922 0.16799
0.17794 -0.043467 0.17915
0.21547 -0.030924 0.15222999
0.13771001 0.0041299998 0.20435999
0.16145 -0.051452 0.19457
0.17676 -0.052595999 0.18701001
0.17896 -0.052645002 0.18666001
0.13409001 -0.032763999 0.19329999
0.21041 -0.027922001 0.15502
0.21073 -0.027832 0.15625
0.24305999 -0.041909002 0.1489
0.24513 -0.041703001 0.14867
0.16077 -0.025815999 0.18675999
0.20246001 -0.030412 0.15557
0.20089 -0.029093999 0.15682
0.19778 -0.05116 0.11201
0.19892 -0.049727999 0.11152
0.19781999 -0.051518999 0.11257
0.23654 -0.0085621001 0.11034
0.23695999 -0.0087177996 0.10893
0.23689 -0.0085135 0.10961
0.23398 0.019257 0.086071
0.15911999 0.0010938999 0.1574
0.16092999 0.00083391002 0.1576
0.15812001 -0.00081374001 0.15834001
0.17261 -0.0052236002 0.16615
0.17331 -0.0064765001 0.16584
0.21809 0.015064 0.10293
0.20203 0.0043775002 0.10877
0.13668001 0.0014900001 0.20509
0.13619 0.0031613 0.20597
0.2228 0.020570001 0.096786998
0.17705999 3.8299e-05 0.16204
0.17587 0.00014636001 0.16156
0.22363999 0.024235999 0.069009997
0.18268999 -0.043676998 0.12459
0.18195 -0.043141 0.12465
0.18069001 -0.042794999 0.12347
0.21987 0.0091006998 0.10633
0.22148 -0.011491 0.12359
0.18535 -0.050354 0.18416999
0.18973 0.00038479001 0.15876999
0.19024999 0.0017002 0.15767001
0.20907 0.020248 0.10609
0.16546001 -0.051495001 0.19802
0.16091 -0.0038443001 0.15033001
0.19028001 -0.019802 0.16433001
0.18884 -0.019118 0.16446
0.18822999 -0.019986 0.1638
0.23733 -0.037733 0.14523
0.20919 -0.025078001 0.15871
0.2287 0.014742 0.1059
0.12442 -0.034582 0.17459001
0.12242 -0.040831 0.17319
0.21976 -0.037493002 0.14015
0.22007 -0.038371999 0.13908
0.23679 0.016604001 0.11888
0.23648 0.017580001 0.11769
0.11482 -0.053709999 0.15824001
0.11687 -0.05288 0.15747
0.18711001 -0.043836001 0.12583999
0.13122 -0.010443 0.2
0.22882999 -0.0066999998 0.11265
0.22776 -0.0061190999 0.11283
0.19203 0.00093411998 0.15882
0.13804001 0.021167001 0.20076001
0.13833 0.012988 0.20114
0.13072 0.010133 0.21637
0.22844 -0.018011 0.12878001
0.24602 -0.052501 0.14016999
0.23362 -0.017076001 0.1137
0.23456 -0.018145001 0.11364
0.23391999 -0.017352 0.11239
0.12630001 -0.052368999 0.16133
0.12484 -0.051472001 0.16159
0.12495 -0.052586999 0.16038001
0.13761 0.025534 0.19537
0.19447 -0.022756999 0.16161001
0.21047001 0.00010053 0.13677
0.21033999 -0.00074166001 0.13665999
0.20946001 0.0015603 0.13593
0.16444001 -0.025152 0.19324
0.21133 0.020802001 0.10003
0.21086 0.022167001 0.10041
0.21111 0.021069 0.10069
0.23661 -0.0032774 0.10763
0.2192 -0.039863002 0.13488001
0.21977 -0.03926 0.13646001
0.21841 -0.039827 0.13603
0.15356 -0.0090886997 0.16218001
0.15349001 -0.0080522997 0.16167
0.15254 -0.0093924003 0.16161001
0.23968001 -0.045690998 0.13959
0.25018001 -0.047311999 0.13837001
0.22741 0.027690001 0.066698998
0.22775 0.028169001 0.066962004
0.22724 0.027977999 0.064946003
0.16497 -0.040169999 0.19728
0.16373999 -0.012914 0.16696
0.16677999 -0.024302 0.16701999
0.16708 -0.024909001 0.16687
0.16725001 -0.024025001 0.16711999
0.11979 -0.049040001 0.1664
0.11946 -0.049454 0.16468
0.19276001 -0.048709001 0.12014
0.19160999 -0.049231 0.11952
0.19255 -0.047991998 0.11889
0.23382001 0.023211 0.070175998
0.13762 -0.042011 0.17845
0.20277999 -0.0040404 0.15851
0.19401 0.0060413 0.15114
0.2322 -0.036832001 0.1382
0.23143999 -0.036936998 0.13744999
0.24036001 -0.033541001 0.14511999
0.24066 -0.033574998 0.14605001
0.24277 -0.044780001 0.1446
0.24304999 -0.044955999 0.14475
0.17452 -0.024412001 0.1602
0.22688 -0.035526 0.1374
0.20501 -0.010236 0.16101
0.16107 -0.042047001 0.18881001
0.21505 -0.033054002 0.15109999
0.12139 -0.035282999 0.16996001
0.20376 0.027093999 0.10937
0.27526999 -0.050999001 0.11928
0.22070999 0.0013017 0.11196
0.22945 0.0096992003 0.111
0.22894 0.010031 0.11147
0.229 0.0091332998 0.11016
0.14839999 -0.032951999 0.19246
0.14861 -0.032251 0.19242001
0.14838 -0.03204 0.19306999
0.2296 0.027682999 0.068692997
0.21646 -0.03579 0.14756
0.208 0.0022898 0.10648
0.19306999 -0.015947999 0.16684
0.14545999 -0.021117 0.19848
0.2051 -0.0035786999 0.15039
0.20523 -0.0023588999 0.15126
0.23206 -0.036297001 0.13749
0.23114 -0.036316 0.13756999
0.13958 0.00060621998 0.19818
0.20047 0.027821001 0.11236
0.22213 -0.0048704999 0.12114
0.18302999 -0.052733999 0.12035
0.13835 0.022348 0.19855
0.13801999 0.023522001 0.19963001
0.1374 0.02293 0.19997001
0.18443 -0.053029001 0.11945
0.18435 -0.053162001 0.12061
0.16798 -0.02713 0.19371
0.13888 -0.0066470001 0.19561
0.13850001 -0.0084931999 0.19552
0.13882001 -0.0092952996 0.19484
0.23436999 0.0093879001 0.11099
0.23525 0.010101 0.11046
0.21716 -0.023250001 0.15222999
0.11836 -0.040874001 0.16846
0.19527 0.0055530998 0.14894
0.19155 0.0040930999 0.15233
0.21686 -0.021845 0.15362
0.20482001 -0.012799 0.162
0.22766 -0.010214 0.1163
0.1141 -0.050565001 0.1655
0.11319 -0.051461998 0.16565999
0.23372 -0.029327 0.13855
0.22901 0.013628 0.11311
0.22882999 0.012301 0.11375
0.2278 0.013898 0.11363
0.18423 -0.0072691999 0.16693
0.13494 -0.012817 0.20428
0.24224 -0.026633 0.1455
0.21468 0.024301 0.087537996
0.21457 0.025051 0.087664001
0.21362001 0.025766 0.087137997
0.21241 -0.022409 0.15583
0.22002 0.0041556 0.10724
0.22007 0.0059306002 0.10613
0.21958999 0.0050084 0.10617
0.1436 -0.017718 0.20069
0.14161 -0.017785 0.20145001
0.2138 0.0067995 0.10628
0.21111 -0.00046245 0.13575999
0.20976 0.00022140999 0.13502
0.19963001 -0.029824 0.15603
0.2316 0.015605 0.11877
0.24112999 -0.049713999 0.14274
0.23976 -0.050698001 0.14337
0.11798 -0.052875001 0.16527
0.11691 -0.052588999 0.16617
0.14881 -0.034651998 0.1911
0.14877 -0.035344999 0.1911
0.14911 -0.036045 0.18949001
0.13308001 -0.011299 0.20329
0.2377 -0.026598999 0.13004
0.19984999 -0.011341 0.16501001
0.19991 -0.011899 0.16506
0.16021 -0.017062001 0.16762
0.16169 -0.017100001 0.16793001
0.23601 0.015321 0.1184
0.13229001 0.010716 0.21445
0.16451 -0.015287 0.1674
0.16536 -0.014763 0.16613001
0.25558001 -0.044349 0.12937
0.27015999 -0.048813 0.12173
0.2207 -0.010594 0.12616
0.22153001 -0.010394 0.12646
0.23323999 0.0017703 0.10777
0.13403 -0.040192001 0.17670999
0.13282999 -0.038422 0.17568
0.14165001 -0.037142999 0.19254
0.14308 -0.037331998 0.19186001
0.13909 0.0089113005 0.19939999
0.13887 0.0089371996 0.2006
0.20491 -0.0048902002 0.15567
0.20469999 -0.0039261999 0.1566
0.20152 0.019021999 0.10943
0.24774 -0.04143 0.14507
0.24811999 -0.041044999 0.14488
0.13482 0.016900999 0.20881
0.13478 0.017947 0.20964
0.21710999 0.010887 0.1037
0.21788999 0.0099531002 0.10319
0.15971 -0.052735999 0.1947
0.18354 -0.048565999 0.1198
0.21431001 0.00032781999 0.11037
0.14985 -0.025069 0.19076
0.14928 -0.023162 0.19134
0.14926 -0.025566 0.19225
0.13377 -0.034949001 0.18172
0.13269 -0.033073999 0.18133999
0.14912 -0.0089073004 0.16289
0.16543999 0.00048918999 0.15334
0.16414 -0.00049498002 0.15321
0.1864 0.0054261 0.15020999
0.22355001 -0.038226999 0.13598999
0.22148 -0.0086875996 0.11982
0.22184999 -0.0089865001 0.11885
0.22792999 0.0015941 0.10805
0.21264 0.023441 0.10034
0.15696999 -0.010989 0.1639
0.16783001 -0.019886 0.16845
0.16924 -0.018433999 0.16769999
0.24031 -0.025575001 0.14144
0.23875 -0.024937 0.14024
0.23915 -0.026502 0.14191
0.15906 -0.0054437998 0.15088999
0.15988 -0.0062656002 0.14940999
0.15886 -0.0058372002 0.15008
0.20472001 -0.0019351 0.15142
0.15851 -0.015915999 0.16708
0.2333 0.0065291999 0.10813
0.23257001 0.0066359998 0.10789
0.20716999 -0.0025839999 0.11297
0.20818999 -0.0028458999 0.11345
0.20734 -0.00098923 0.11208
0.23709001 -0.0081765 0.1104
0.23872 -0.041515999 0.14458001
0.13144 -0.0091701997 0.20296
0.13314 -0.0095178001 0.20416
0.1313 -0.0083790002 0.20471001
0.18534 -0.044817001 0.17986
0.16847999 -0.050767001 0.19525
0.16895001 -0.049972001 0.19588999
0.19419999 -0.027127 0.1561
0.1726 -0.052012 0.19104999
0.17193 -0.05246 0.19089
0.17163999 -0.052684002 0.19072001
0.1344 -0.042831998 0.17551
0.18918 0.0054049999 0.15107
0.2164 -0.011311 0.14662001
0.14533 -0.037055001 0.19171
0.15304001 -0.013062 0.16388001
0.15245999 -0.01398 0.16585
0.24284001 -0.042594999 0.14641
0.11568 -0.049887002 0.15976
0.19757 -0.030304 0.15449999
0.19599 -0.029617 0.15394001
0.15934999 -0.010816 0.16446
0.18617 -0.047254998 0.17543
0.18787 -0.046537001 0.17495
0.186 -0.047343999 0.17478999
0.18982001 -0.045931999 0.12305
0.18855 -0.044925999 0.12381
0.23083 0.019842001 0.11789
0.23045 0.018314 0.11741
0.21975 -0.0060625998 0.11975
0.11465 -0.053176001 0.15917
0.1139 -0.052056 0.15790001
0.23693 -0.018634001 0.10965
0.13590001 -0.0074661998 0.20431
0.19791999 -0.00085064 0.15727
0.19667 0.0002272 0.15504999
0.19665 -0.00019021 0.15684
0.20638999 -0.001478 0.11194
0.20640001 -0.0020158 0.1116
0.1869 -0.042569 0.12838
0.20273 0.019898999 0.10489
0.20195 0.020176001 0.10609
0.18399 -0.037319001 0.12854999
0.20545 -0.030517001 0.15463001
0.22238 0.024545999 0.074532002
0.19787 -0.030681999 0.15354
0.14935 -0.0063569001 0.15798999
0.14888 -0.0075711999 0.15855999
0.21647 0.011733 0.10308
0.175 -0.044771001 0.19034
0.17584001 -0.044780999 0.19065
0.23842999 -0.025475999 0.13344
0.22491001 -0.00012195 0.1172
0.22431999 -0.0010681 0.11726
0.24495 -0.049222 0.14278001
0.18818 -0.025038 0.15699001
0.18781 -0.024320001 0.15599
0.18657 -0.024223 0.15484001
0.23897 -0.044608999 0.13947
0.23838 -0.04346 0.14037
0.18477 -0.0064666001 0.16672
0.18271001 -0.050949 0.12549999
0.23131 0.018196 0.11455
0.23109999 0.018541999 0.1161
0.19399001 -0.01481 0.16733
0.20952 0.0072185998 0.10395
0.17794999 -0.0046887998 0.16637
0.24538 -0.024935 0.14324
0.22734 -0.0029388 0.11135
0.1926 0.0029712999 0.15453
0.21088 -0.0043107001 0.13598
0.22904 0.027299 0.064419001
0.22881 0.028277 0.064916998
0.16229001 -0.029185999 0.19515
0.16157 -0.028386001 0.19580001
0.13801 -0.0061174999 0.20345999
0.13305999 0.022 0.20807
0.16508 -0.049523 0.19397999
0.21911 0.024045 0.078511
0.13790999 0.010504 0.20203
0.23277 -0.015742 0.11527
0.19905999 -0.048418 0.1097
0.19179 -0.0023163001 0.16389
0.20206 -0.048046999 0.10214
0.20171 -0.048868999 0.10153
0.20049 -0.038213 0.13623001
0.20006 -0.038355 0.13432001
0.1212 -0.048875999 0.17005
0.1211 -0.049339999 0.16822
0.16099 -0.019832 0.16883001
0.15071 -0.040112998 0.1839
0.18122999 -0.049242001 0.12409
0.23127 0.0042865002 0.10452
0.23083 0.0042731999 0.10579
0.13389 0.0066721002 0.21063
0.13276 0.0087224003 0.21139
0.19490001 0.00034472 0.15845001
0.18178999 0.0045984001 0.15543
0.18121 0.0041840998 0.15628999
0.17238 -0.042144001 0.18769
0.17083 -0.042718001 0.1864
0.2405 -0.050042 0.14590999
0.13585 0.018134 0.20671
0.22498 -0.03506 0.13897
0.13231 -0.029678 0.19092
0.1329 -0.027696 0.19091
0.13191 -0.028340001 0.19064
0.19281 -0.051495999 0.1155
0.20591 -0.0020093 0.10088
0.16448 -0.025049999 0.19657999
0.21516 0.020585001 0.096974999
0.22959 0.0073679001 0.10737
0.22975001 0.0079054004 0.10814
0.23122001 0.016945999 0.11888
0.23143999 0.017849 0.11922
0.19670001 -0.024045 0.16188
0.20759 -0.021206001 0.15898
0.20784 -0.019765001 0.15953
0.18190999 -0.0020471001 0.16451
0.19234 -0.034345001 0.13022
0.17709 -0.01994 0.16500001
0.1682 -0.028599 0.15898
0.16769999 -0.028959 0.15922
0.2154 -0.010624 0.14659999
0.21608999 -0.011023 0.14669999
0.18223 -0.045549002 0.12297
0.18199 -0.044080999 0.12319
0.11167 -0.050903998 0.16662
0.22673 -0.016946999 0.12671
0.22732 -0.016298 0.1252
0.20689 0.018212 0.11011
0.22973 -0.010311 0.11412
0.15808 -0.023638999 0.17269
0.15928 -0.024591999 0.17215
0.20176999 -0.016578 0.16368
0.19485 -0.045150001 0.11588
0.19437 -0.045676999 0.11814
0.2131 -0.032779001 0.15209
0.21196 -0.033036999 0.15207
0.20851 -0.040477 0.1383
0.20712 -0.040646002 0.13795
0.20783 -0.04101 0.13655999
0.13223 0.030311 0.21642999
0.13091999 0.011819 0.21628
0.13101 0.011391 0.21684
0.1892 -0.035776 0.12987
0.19246 -0.0029767 0.16376001
0.206 0.0082922 0.10386
0.2066 0.0074717002 0.10401
0.16893999 -0.034072999 0.19419999
0.22495 0.020861 0.067346998
0.22581001 0.020396 0.066523001
0.233 -0.018645 0.11866
0.23285 -0.017184 0.11895
0.23190001 0.0051936 0.111
0.13265 0.032802001 0.21589001
0.12980001 0.032942999 0.21678001
0.13612001 0.0044702999 0.20434
0.13718 0.0062334999 0.20337
0.13666999 0.0058372999 0.20441
0.16844 -0.025108 0.16576999
0.16935 -0.0242 0.16576
0.16842 -0.024083 0.16688
0.11724 -0.042096 0.16535001
0.2247 -0.028894 0.14347
0.2255 -0.028483 0.14158
0.15976 -0.052398998 0.20105
0.13804001 0.014084 0.19842
0.14329 -0.025028 0.20079
0.23458999 -0.02324 0.12364
0.23475 -0.023293 0.12281
0.16046999 -0.00022091001 0.15919
0.19205 -0.0013540999 0.16141
0.16998 -0.041786999 0.19451
0.17013 -0.040766999 0.19465999
0.16235 -0.023751 0.16992
0.20971 -0.0091628004 0.15579
0.20551001 0.0076915999 0.10468
0.12064 -0.032884002 0.17377
0.23494001 0.020652 0.090333998
0.22658999 0.012642 0.10483
0.2252 0.01474 0.10339
0.20057 -0.00089541002 0.15584999
0.14658999 -0.012673 0.16204
0.21878999 -0.011362 0.12502
0.21797 -0.012209 0.12478
0.22811 0.015547 0.10234
0.22714999 0.015004 0.1013
0.18238001 -0.034061 0.12515999
0.18260001 -0.035856999 0.12626
0.18198 -0.035094 0.12657
0.19524001 -0.049020998 0.17847
0.19442999 -0.048544999 0.17916
0.18263 -0.035650998 0.12581
0.18179999 -0.037340999 0.12517001
0.182 -0.037276998 0.1256
0.20803 0.0013187 0.11047
0.19313 -0.035638001 0.13012999
0.19362999 -0.038052 0.12931
0.21208 0.01777 0.10197
0.21269999 0.018362001 0.10223
0.21180999 0.018818 0.10419
0.16169 -0.043203998 0.1929
0.16159999 -0.041372001 0.19279
0.21805 0.019137001 0.096919999
0.21095 0.0063938 0.091954999
0.21086 0.0044507999 0.090971999
0.21311 -0.018449999 0.15702
0.16346 -0.017488001 0.16847999
0.20370001 0.031778999 0.11185
0.20448001 0.030477 0.11076
0.20479 0.03153 0.11044
0.2123 0.030812999 0.090069003
0.24129 -0.040523 0.14827
0.23946001 -0.038421001 0.14786001
0.13792001 0.020401999 0.19871999
0.13795 0.020636 0.19828001
0.13781001 0.021961 0.19812
0.14541 -0.035078 0.19201
0.22409999 -0.012964 0.12457
0.22376999 -0.012619 0.12407
0.23622 0.015358 0.11597
0.18652999 -0.00019884 0.16314
0.22189 0.02318 0.075266004
0.22115 0.023327 0.074809998
0.24526 -0.045841999 0.14562
0.24437 -0.045924999 0.14478999
0.15917 -0.027735 0.18418001
0.12593 0.016731 0.22192
0.22248 -0.016935 0.14105999
0.22713999 -0.00037878999 0.11247
0.22736999 0.00076328003 0.11178
0.22032 -0.021360001 0.14872999
0.23018999 -0.017098 0.12161
0.20531 0.0080869002 0.10173
0.16607 -0.025150999 0.19322
0.18226001 -0.045014001 0.17687
0.18343 -0.044780001 0.17737
0.14004999 -0.033172 0.19498999
0.1406 -0.034091 0.19482
0.13969 -0.034019999 0.19382
0.11885 -0.039988 0.16842
0.11747 -0.040878002 0.16817001
0.16091999 0.0046537002 0.15859
0.15972 0.0050980002 0.15784
0.15505999 -0.038327001 0.18440001
0.15498 -0.038327001 0.18377
0.25931001 -0.045446001 0.12817
0.21472999 -0.01493 0.15403
0.2133 -0.014031 0.15481
0.20441 -0.0066220998 0.15823001
0.20482001 -0.0057016001 0.15885
0.20479999 -0.0050909002 0.15906
0.2326 -0.035468999 0.14338
0.23316 -0.033679999 0.14461
0.25948 -0.050824001 0.12995
0.16619 -0.025091 0.16719
0.16659001 -0.025684001 0.16628
0.16904999 -0.046436001 0.19451
0.23582999 -0.012754 0.11268
0.23241 0.027449001 0.067241997
0.22164001 -0.016385 0.1292
0.22257 -0.017134 0.13063
0.2227 -0.016480001 0.13098
0.17012 -0.02767 0.16339999
0.17044 -0.026481001 0.16329999
0.16822 -0.024336999 0.19769999
0.21221 0.015053 0.1037
0.21133 0.016442001 0.10429
0.2106 0.015905 0.1048
0.13176 0.032193001 0.21571
0.22269 0.00050601002 0.11821
0.20934001 0.019847 0.10572
0.20841999 0.020675 0.10618
0.14732 -0.040932 0.18430001
0.14835 -0.017821999 0.17140999
0.14914 -0.017188 0.17162
0.18584999 -0.022934999 0.15899999
0.1865 -0.023745 0.1596
0.18601 -0.023427 0.15979999
0.18076 -0.0028242001 0.16517
0.22982 0.019471001 0.10091
0.22811 0.018526999 0.10141
0.1218 -0.043967001 0.17352
0.13847999 0.0063470998 0.20193
0.22608 0.021802999 0.091884002
0.13388 -0.033408999 0.18515
0.13398001 -0.032588001 0.18489
0.13397001 -0.032678001 0.18409
0.14444 -0.034653001 0.19483
0.24849001 -0.041377001 0.14357001
0.19943 -0.0045039998 0.16167
0.20062999 -0.0050355 0.16135
0.13652 0.024736 0.19891
0.1347 0.024737 0.20009001
0.18475001 -0.046346001 0.18531001
0.24061 -0.031551 0.14054
0.24266 -0.032295998 0.13999
0.15899999 -0.051474001 0.20073999
0.24685 -0.043740999 0.14545999
0.24607 -0.042693 0.14639001
0.24513 -0.044075999 0.14635
0.13962001 -0.0016407 0.19877
0.19594 -0.021392999 0.16298001
0.146 -0.017395999 0.17491999
0.22349 -0.0041864002 0.12116
0.22001 0.02599 0.076254003
0.20816 -0.0018921 0.11335
0.14853001 -0.039388999 0.18652
0.14503001 -0.023793001 0.19787
0.14666 -0.024164001 0.19764
0.17833 -0.020904001 0.16362999
0.25931999 -0.045428999 0.12694
0.16334 -0.027860999 0.19524001
0.16524 -0.02746 0.19712999
0.16452 -0.02672 0.19667999
0.20409 0.032349002 0.11197
0.20444 0.030789999 0.1121
0.2359 -0.0039895 0.10879
0.16516 0.0010122 0.15477
0.12906 0.028826 0.213
0.13809 0.0014103 0.20254
0.22022 -0.0062048002 0.123
0.21922 -0.0079220003 0.12322
0.21975 -0.0077828001 0.12375
0.20672999 -0.00074069999 0.10873
0.18516 -0.044594999 0.12474
0.18494 -0.043717001 0.12684999
0.18358 -0.044011001 0.12512
0.11894 -0.036580998 0.17259
0.11933 -0.035595998 0.17429
0.11832 -0.035191 0.17248
0.23219 -0.020987 0.12838
0.23059 -0.020151 0.12883
0.21054 0.023054 0.10561
0.21805 -0.0057256999 0.11857
0.21928 -0.0060019 0.11719
0.12715 -0.040293001 0.17502999
0.19950999 0.00089327001 0.15104
0.17595001 -0.045488 0.18995
0.17718001 -0.046354 0.18997
0.23097999 -0.0037159999 0.10793
0.17715 0.0057438002 0.15356
0.22431999 0.023965999 0.071340002
0.19731 -0.0023556999 0.16049001
0.19785 -0.0016289999 0.15990999
0.19593 -0.0031421999 0.16095001
0.13235 -0.0084277997 0.20499
0.133 -0.0082802996 0.20479999
0.24039 -0.030486001 0.14419
0.17941 -0.019833 0.16362999
0.1795 -0.018410999 0.16453999
0.13212 0.0040495 0.21168999
0.13203999 0.0048962999 0.21221
0.16868 -0.043449 0.19489001
0.16952001 -0.042452 0.19571
0.15133999 -0.024674 0.17793
0.14993 -0.024464 0.17753001
0.15027 -0.0097163999 0.16339999
0.15839 -0.0062517999 0.15087
0.20933001 -0.018405 0.15915
0.16959 0.0011166 0.15942
0.16852 0.0019767999 0.15764
0.16823 0.0012345 0.15879001
0.13713001 0.026752001 0.19572
0.1373 0.026498999 0.19656
0.24753 -0.041558001 0.14578
0.1309 0.032458 0.21741
0.13056 0.031155 0.21741
0.18039 -0.048101 0.18715
0.17901 -0.047896001 0.18746001
0.16601001 -0.017123999 0.16752
0.16565999 -0.018932 0.16817001
0.20469999 -0.0021975001 0.14838
0.20920999 -0.0036152001 0.10696
0.22589 0.024173999 0.070028
0.15447 -0.028433001 0.18359999
0.15242 -0.028072 0.18351001
0.15398 -0.027721001 0.18415
0.19235 -0.047614001 0.17856
0.25367001 -0.048083998 0.13468
0.25448 -0.050400998 0.1354
0.23165999 0.027448 0.068478003
0.18438999 -0.051562998 0.12314
0.2149 0.016849 0.10051
0.214 0.016765 0.10173
0.21391 0.020370999 0.10089
0.15673 -0.013412 0.16511001
0.15559 -0.012747 0.16506
0.22104 0.022298999 0.084942997
0.2191 0.02249 0.085065998
0.17922001 -0.0047002002 0.16542999
0.17986999 -0.0046246001 0.16536
0.23086999 -0.00093664997 0.1148
0.13744999 -0.019312 0.20344999
0.24112999 -0.053773001 0.14224
0.24281 -0.053521998 0.14312001
0.2173 -0.040706001 0.13693
0.21679001 -0.040665001 0.13541
0.13868999 -0.0059496998 0.19963001
0.13699 -0.037500001 0.1876
0.12801 0.0096445996 0.21492
0.20796999 0.0010596 0.10866
0.13289 -0.031713001 0.18416999
0.20423 -0.037586 0.14685
0.23643 0.025140001 0.12132
0.23774999 0.025326001 0.12151
0.13239001 -0.025743 0.19336
0.1318 -0.024315 0.19467001
0.16562 -0.027054001 0.19722
0.13911 0.0071057999 0.19736999
0.17076001 -0.038631 0.1946
0.22302 0.0037883001 0.11258
0.16859999 -0.052625999 0.19441
0.16889 -0.053387001 0.19209
0.23371001 0.024196001 0.075120002
0.16559 -0.047630999 0.19341999
0.16639 -0.046411 0.19381
0.14154001 -0.015636001 0.20171
0.14149 -0.013686 0.20227
0.13541999 0.0049993 0.20656
0.1964 -0.032970998 0.14839
0.17849 0.0023477999 0.15814
0.22078 -0.034274999 0.14498
0.22143 -0.033438001 0.14545999
0.22044 -0.033461001 0.14578
0.16122 -0.023608999 0.17042001
0.11405 -0.049578998 0.16333
0.11334 -0.050096001 0.16274001
0.19085 -0.037618 0.11816
0.19193999 -0.037744001 0.1186
0.14422999 -0.017565001 0.19938999
0.14336 -0.016062999 0.19965
0.22333001 -0.035395 0.14165001
0.23176 -0.023249 0.13334
0.13234 -0.020809 0.19997001
0.24427 -0.042778999 0.14766
0.20421 -0.0042114998 0.15651999
0.20471001 -0.051231001 0.10052
0.19690999 -0.010719 0.16621
0.16263001 0.00082508998 0.1577
0.17141999 -0.050793 0.19323
0.22019 0.016097 0.10714
0.23235001 -0.00088496 0.11423
0.13091999 -0.016876001 0.19797
0.132 -0.017026 0.19915
0.13872001 -0.0085174004 0.20300999
0.20730001 -0.0015408 0.10243
0.20328 -0.024014 0.15948001
0.17822 -0.0074697998 0.16678999
0.17746 -0.0066326 0.16635001
0.19278 -0.044369999 0.1205
0.19310001 -0.045299001 0.12012
0.25040999 -0.042954002 0.14041001
0.21465001 -0.0067711002 0.12317
0.13942 0.0045683999 0.19678999
0.13913999 0.0041928999 0.1964
0.13936 0.0059729 0.19697
0.17072 -0.040895998 0.18876
0.16553999 -0.048392002 0.19403
0.16631 -0.049293999 0.19314
0.23399 -0.018088 0.11675
0.14638001 -0.026089 0.19649
0.18915001 -0.042642001 0.12638
0.20254999 -0.037220001 0.14221001
0.20326 -0.037206002 0.14163999
0.14057 -0.038547002 0.19073001
0.16053 -0.022348 0.16966
0.16188 -0.022035999 0.16921
0.23701 0.029048 0.12031
0.18398 -0.046960998 0.1216
0.13397001 -0.026867 0.19986001
0.22816999 -0.012458 0.11843
0.22924 -0.013359 0.1184
0.21337999 0.015397 0.1022
0.21483999 0.013868 0.10193
0.16992 -0.051008001 0.19381
0.12103 -0.042987999 0.17325
0.22102 0.024817999 0.075718001
0.15839 -0.040651001 0.1913
0.23536 -0.02379 0.12789001
0.23451 -0.022963 0.12695999
0.23432 -0.021957001 0.12739
0.2192 -0.012269 0.12485
0.13001999 0.017665001 0.21944
0.13891 -0.033968002 0.19399001
0.14003 -0.034600999 0.19453999
0.16447 -0.026636999 0.16914
0.16467001 -0.026001001 0.16951001
0.22733 -0.017612001 0.12553
0.14709 -0.013542 0.16588999
0.14633 -0.012768 0.16563
0.16335 -0.025785999 0.19282
0.16487999 -0.018289 0.168
0.16518 -0.016797001 0.16834
0.16407 -0.017109999 0.16779
0.20849 0.0090448996 0.097965002
0.20847 0.0066411002 0.097487003
0.15143 -0.021842999 0.17275999
0.15333 -0.022946 0.17274
0.20153999 0.029775999 0.10815
0.20586 -0.029896 0.15597001
0.22847 0.013867 0.11181
0.19594 -2.1865e-05 0.15684
0.14514001 -0.018877 0.1983
0.14498 -0.017432 0.19733
0.14511999 -0.01733 0.19824
0.18907 -0.02139 0.16223
0.22975001 -0.0017289 0.10778
0.23009001 -0.00031032 0.10649
0.18291999 0.0057875998 0.15509
0.18196 0.0045161 0.15548
0.1934 0.0035528999 0.1478
0.19303 0.0028055999 0.14808001
0.13802999 0.014365 0.20047
0.1382 0.013407 0.20151
0.1383 -0.038777001 0.18712001
0.12659 0.0034805001 0.20961
0.19537 -0.0019753 0.16188
0.26662999 -0.050898999 0.12568
0.26602 -0.052356001 0.12423
0.24952 -0.038323998 0.14187001
0.24946 -0.038392998 0.14098001
0.24921 -0.038504001 0.14105
0.20252 0.0054858001 0.10552
0.23187999 0.019204 0.071020998
0.23489 -0.010181 0.10428
0.23464 -0.012017 0.10336
0.23525 -0.010961 0.10361
0.1374 -0.020749999 0.20378999
0.19428 -0.0062660999 0.16489001
0.19279 -0.022915 0.16176
0.17235 -0.041467 0.19256
0.1724 -0.041669998 0.19142
0.17509 0.00068661 0.15918
0.24056999 -0.052988 0.14623
0.21265 -0.0088670002 0.1481
0.15178999 -0.011026 0.16267
0.18472999 0.0025627001 0.14972
0.2324 0.030710001 0.095297001
0.13801999 0.012142 0.19851001
0.13959999 0.011959 0.19955
0.22134 0.017227 0.099036999
0.22165 0.017216001 0.098229997
0.16159999 -0.037515 0.19639
0.16079 -0.037193 0.19571
0.22757 0.0046864999 0.10983
0.2274 0.0047579999 0.10865
0.2265 0.0068184999 0.10988
0.21938001 0.0071545001 0.10685
0.2198 0.026563 0.072750002
0.22803 0.0094513996 0.10977
0.15327001 -0.034095999 0.18720999
0.154 -0.033661 0.18732999
0.25751999 -0.046929002 0.13023999
0.24529 -0.044374999 0.14634
0.1811 -0.022986 0.1604
0.17876001 -0.02263 0.16077
0.18058001 -0.023128999 0.16004001
0.24647 -0.039016999 0.14669999
0.17264 -0.047042001 0.19228999
0.14528 -0.042884 0.17925
0.16947 -0.0061238999 0.16590001
0.16868 -0.0074276999 0.16525
0.16613001 -0.052733999 0.19193999
