# .PCD v0.7 - Point Cloud Data file format
VERSION 0.7
FIELDS x y z
SIZE 4 4 4
TYPE F F F
COUNT 1 1 1
WIDTH 1486
HEIGHT 1
VIEWPOINT 0 0 0 1 0 0 0
POINTS 1486
DATA ascii
0.303 0.081877999 0.034623999
0.29600999 0.081147 0.041611999
0.30823001 0.082308002 0.098114997
0.30914 0.084004 0.096514001
0.27232999 0.058681 0.076401003
0.29468 0.051507998 0.057169002
0.26947999 -0.0049391999 0.028681999
0.32036999 0.077716999 0.094903
0.32137001 0.077582002 0.093406998
0.32007 0.076830998 0.095036998
0.29848 0.045566998 0.053819999
0.26047 0.013319 0.024072001
0.26164001 0.014817 0.023503
0.26106 0.01274 0.02534
0.31474999 -0.048443999 0.053562999
0.31369001 -0.048347 0.052294001
0.30862999 0.075975999 0.10455
0.30678999 -0.031744 0.041591998
0.26078001 0.068419002 0.027930999
0.31417999 0.074055001 0.10488
0.31694999 -0.053001001 0.064016998
0.2694 0.028410999 0.021693001
0.27318999 0.050985001 0.066543996
0.25863001 0.048014 0.031415001
0.25931001 0.047378 0.030537
0.28611001 0.058649 0.053755999
0.25608999 -0.0074133999 0.028391
0.25623 -0.0076064998 0.029658999
0.29341999 0.062364999 0.056177001
0.32225001 -0.0077157002 0.047150001
0.31729001 -0.045967001 0.048613001
0.31478 -0.046415001 0.047499001
0.21424 0.081891 0.054118998
0.31676999 -0.044937 0.048712
0.29376999 0.065665998 0.058371998
0.30892 0.066514999 0.050747
0.2624 0.061335001 0.038497999
0.26183 0.060747001 0.038389999
0.32407001 -0.042535 0.042385001
0.32499 -0.043391999 0.043290999
0.26651999 0.067776002 0.067998998
0.25310999 -0.010698 0.026319999
0.29025999 0.024269 0.042851001
0.24150001 0.045956999 0.025460999
0.24291 0.045554001 0.024331
0.31632999 0.016175 0.035401002
0.27199 0.084155001 0.022151001
0.30778 0.00661 0.049970001
0.30717999 0.0061928998 0.048964001
0.30706999 0.0061689001 0.051018
0.25606999 -0.026365001 0.016757
0.31939 -0.027569 0.049355999
0.21258999 0.079594001 0.050124999
0.21224 0.078705996 0.050340999
0.27476001 -0.040228002 0.014015
0.26817 0.057020999 0.075611003
0.3096 0.082616001 0.096895002
0.31130999 0.082266003 0.096980996
0.27654999 -0.0090528997 0.020165
0.27603 -0.0086214002 0.01784
0.27627999 -0.0072106002 0.016674999
0.32334 -0.051415 0.059012
0.26831999 -0.017558999 0.022852
0.27002999 -0.016169 0.022149
0.26851001 -0.017378001 0.023639999
0.26934999 0.051711999 0.067741998
0.32099 0.077849001 0.096008003
0.26679 0.070518002 0.066825002
0.27129 0.072016001 0.067024
0.26988 0.070933998 0.066288002
0.33050001 -0.047256999 0.050482001
0.25904 -0.045196 0.0139
0.25856 -0.045947999 0.015923999
0.25848001 -0.044959001 0.014802
0.26212999 0.069317997 0.043740999
0.29435 -0.0011565 0.011159
0.25547999 -0.024747999 0.021670001
0.25336999 -0.016813001 0.026445
0.29455 0.0029342 0.030159
0.29391 0.0024357 0.031229001
0.26811999 0.030522 0.030778
0.27011001 0.030188 0.030926
0.29549 0.0058102999 0.041221
0.26603001 -0.0028005 0.031587001
0.30858001 0.075094 0.10562
0.30776 0.075358003 0.10697
0.26853999 0.062284 0.075727001
0.26876 0.063092999 0.075777002
0.27232 0.041994002 0.048932999
0.21186 0.067670003 0.044500999
0.21308 0.067762002 0.044638
0.21754999 0.072512999 0.045908999
0.28061 0.016956 0.042553999
0.26409999 0.066794999 0.066872999
0.26403999 0.065084003 0.067527004
0.25946999 0.060061999 0.071203999
0.27437001 -0.041329 0.014495
0.27364999 -0.039618 0.014661
0.2269 0.075613998 0.039096002
0.22892 0.075703003 0.038229
0.31669 0.075018004 0.10244
0.21142 0.073085003 0.049954999
0.26491001 -0.001306 0.031410001
0.24285001 0.056965999 0.031449001
0.29642001 0.078553997 0.049043
0.29613 0.079763003 0.046661999
0.29444 0.0023637 0.033241
0.29297999 0.0035512999 0.032639001
0.29762 0.020494999 0.041932002
0.29504001 0.020005999 0.041827999
0.29629001 0.020920999 0.042210001
0.26232001 -0.035085 0.017170999
0.30866 0.053057 0.063391
0.30961001 0.052623 0.063294001
0.32178 0.051082 0.080546997
0.31764001 0.049295999 0.074878
0.30857 0.0744 0.1074
0.30943999 0.075332999 0.10691
0.29411 0.0059611001 0.038001001
0.29469001 0.0058583999 0.038539
0.27743 -0.0050566001 0.019712999
0.21709 0.062531002 0.036940001
0.28090999 0.065306999 0.067250997
0.26062 -0.043591 0.014288
0.26089001 -0.043889999 0.013249
0.27544999 0.0017802001 0.028215
0.27911001 0.039988 0.048594002
0.30568999 0.066771001 0.051596999
0.30485001 0.067475997 0.051281001
0.32797 0.064719997 0.086816996
0.26905 0.0061416002 0.031955998
0.30998999 -0.035174001 0.044601999
0.30851001 -0.033477999 0.04366
0.26348001 0.014218 0.024882
0.26142001 0.013896 0.024081999
0.26238999 0.015644999 0.024424
0.29982999 0.056570001 0.056108002
0.29971001 0.057197001 0.056804001
0.28468001 0.056051999 0.053773001
0.30423 -0.03005 0.040658001
0.30520999 -0.029106 0.040583
0.32156 -0.048753999 0.051782999
0.31985 -0.048317999 0.052499
0.32179001 -0.047731999 0.053196002
0.27805001 -0.027257999 0.017996
0.24228001 0.047222 0.029871
0.27787 0.00033849 0.027751001
0.32319999 -0.030234 0.045660999
0.31812999 -0.010469 0.055484001
0.31883001 -0.0093997 0.054133002
0.29416001 0.0076405001 0.040210001
0.22606 0.080790997 0.042789999
0.22539 0.078752004 0.0418
0.25505 0.089897998 0.057546999
0.25325 0.064172998 0.019602999
0.27096999 0.069467999 0.070338003
0.29001999 0.043152999 0.057348002
0.28992999 0.044673 0.055840999
0.22889 0.078037001 0.035216998
0.22816999 0.077455997 0.035739999
0.23127 0.074693002 0.031109
0.23208 0.076102003 0.032940999
0.23383 0.074147001 0.032751001
0.27943 0.068455003 0.068081997
0.27880001 0.067617998 0.067622997
0.25292999 0.046868 0.029967999
0.32233 -0.027651999 0.046788
0.22059 0.086760998 0.049366001
0.28634 0.059643999 0.053619999
0.25850999 0.0084784003 0.025465
0.25832999 0.0084301 0.025364
0.2599 0.045582 0.039816
0.27493 -0.023855999 0.018932
0.27520001 -0.021326 0.018592
0.25716001 -0.044923 0.016078001
0.24109 0.048151001 0.028225999
0.24222 0.047954001 0.030076999
0.29108 0.020628 0.042907
0.28984001 0.019595999 0.042259
0.27616 0.037857 0.045554999
0.27629 0.037501 0.046087999
0.25955999 0.013484 0.013873
0.25863001 0.011929 0.013662
0.2396 0.059950002 0.036571998
0.26877001 -0.026939999 0.023025
0.26864001 -0.028446 0.023205001
0.24052 0.052285999 0.033209
0.24054 0.050664999 0.031957999
0.24145 0.051837001 0.03294
0.26794001 -0.0013785 0.030521
0.26896 -0.0017289 0.030687001
0.27021 -0.0013427 0.029561
0.26811999 -0.019211 0.023724001
0.26883 -0.019739 0.022142
0.30779999 0.075713001 0.036718
0.2746 0.078762002 0.063822001
0.31303999 0.078778997 0.098194003
0.25038001 0.063744999 0.021392999
0.24985 0.063101999 0.022209
0.25556999 0.057845 0.034703001
0.32339999 -0.051135998 0.057640001
0.32258001 -0.050845001 0.059725001
0.31220999 0.055907998 0.077492997
0.2843 0.061430998 0.055955999
0.26811999 0.064562999 0.071502
0.26798001 0.064917997 0.071736
0.32099 -0.016896 0.051325999
0.27957001 0.074300997 0.065696999
0.26350001 0.014689 0.026524
0.21789999 0.086332001 0.044851001
0.21651 0.084618002 0.048245002
0.27065 -0.020166 0.021221999
0.24289 0.052641999 0.031821001
0.30563 -0.035138 0.036242001
0.30796 -0.035608001 0.035401002
0.30601999 -0.035496 0.037533
0.32336 0.071321003 0.094704002
0.26808 0.034465 0.041122999
0.32606 0.071268998 0.084400997
0.21254 0.079811998 0.053339999
0.21323 0.079855002 0.051701002
0.25964999 0.069156997 0.023974
0.25830999 0.068034001 0.023197001
0.31411999 -0.019230001 0.051771
0.27835 0.063649997 0.069022
0.26819 0.080404997 0.05773
0.26910999 0.081228003 0.058214001
0.26266 0.073123999 0.032228
0.28637001 0.090392001 0.026165999
0.25619 0.050473001 0.03458
0.28602001 0.075041004 0.060727999
0.28878 0.020764001 0.043906
0.29051 0.019707 0.042773999
0.28955001 0.020947 0.043244999
0.28628001 0.081162997 0.060633
0.20872 0.072327003 0.041992001
0.22779 0.054030001 0.038998999
0.22754 0.053580999 0.037032001
0.26778001 0.073568001 0.062918
0.29251999 0.036708001 0.049226999
0.27587 0.060323998 0.067808002
0.28281999 0.063265003 0.062199999
0.28048 0.062997997 0.061223999
0.28198001 0.063358001 0.062882997
0.28955999 0.059356 0.055783
0.29141 0.059452999 0.05562
0.29504001 0.029014001 0.042126
0.26706001 0.086135998 0.049550001
0.32736 -0.053491998 0.057652
0.30754 0.06825 0.11155
0.25863999 0.066297002 0.01963
0.26018 0.066526003 0.035852998
0.26078001 0.067800999 0.034719002
0.23783 0.053994998 0.03686
0.23678 0.051771 0.036015999
0.26223999 0.040511999 0.038022999
0.30529001 0.044626001 0.047667999
0.30436999 0.043873999 0.046608999
0.27327001 0.062256999 0.07485
0.27372 0.062623002 0.075243004
0.28711 0.028935 0.046264
0.32161999 0.0077189999 0.039026
0.26102999 0.056604002 0.038539998
0.26155999 0.055427 0.037489001
0.26300001 0.065228999 0.059726
0.30243 0.073022 0.049679998
0.30397001 0.073945999 0.050299998
0.30619001 0.022821 0.036541998
0.30807 0.021144001 0.036589999
0.27403 0.066494003 0.069095999
0.33166999 -0.051256999 0.045832999
0.22987001 0.076288998 0.037271999
0.22262 0.067295998 0.042084999
0.26686999 0.077198997 0.058660999
0.26526999 0.077377997 0.058405001
0.26651999 0.077197999 0.058607999
0.29539999 0.035904001 0.049011
0.28894001 0.015452 0.041136
0.30728 -0.017197 0.034988001
0.30673 -0.017542001 0.034954999
0.30813 -0.015064 0.035657
0.30054 0.084201999 0.031883001
0.30219999 0.084234998 0.033622999
0.31794 -0.035764001 0.045256998
0.31847 -0.035172001 0.045568999
0.31 0.043570999 0.039129
0.2674 -0.044588 0.019161001
0.30750999 0.018715 0.040904999
0.27381 0.042002 0.04823
0.22418 0.065903001 0.040546998
0.31305999 -0.051451001 0.051155001
0.31398001 -0.053927001 0.051043
0.23046 0.070058003 0.037710998
0.23257001 0.070456997 0.037368
0.31189999 0.063390002 0.078980997
0.31369999 0.057234999 0.078675002
0.29528001 0.0028132999 0.032246999
0.29598999 -0.0026815999 0.028728999
0.28701001 0.097241998 0.067258999
0.28637001 0.095527999 0.066095002
0.27858001 0.025161 0.043556001
0.27908 0.027215 0.043657999
0.31022999 0.068109997 0.080651
0.31200999 0.069675997 0.081349
0.32010999 0.051982999 0.077872999
0.28317001 0.025927 0.045678999
0.28297001 0.028209001 0.044847999
0.30770001 0.050266001 0.061740998
0.30926001 0.050333001 0.061234001
0.26480001 -0.0075156 0.029979
0.31597999 -0.045720998 0.046149001
0.26104 -0.046039999 0.022917001
0.21644001 0.082647003 0.056201998
0.27147999 0.080063999 0.058639999
0.29618999 0.035530001 0.046319999
0.32425001 -0.019639 0.046530999
0.32383001 -0.016112 0.046471
0.32455999 -0.017277 0.046599999
0.31931001 -0.0040210001 0.052405
0.32023999 -0.0052371002 0.052072
0.28367999 0.088071004 0.067184001
0.28275999 0.087757997 0.066693
0.22276001 0.088880002 0.044881001
0.22637001 0.051109001 0.031784002
0.27862 -0.037167002 0.0086652003
0.22757 0.063965 0.039026
0.22748999 0.064126998 0.039016999
0.32943001 -0.053392999 0.054542001
0.31990001 -0.032616999 0.045892
0.26152 0.069316 0.044886999
0.31316 -0.046631999 0.045476999
0.27961999 0.087154001 0.040375002
0.28077 0.054664999 0.053041
0.26061001 2.2775001e-05 0.030641999
0.25995001 0.0025420999 0.030812001
0.26096001 0.0024844001 0.030890999
0.26649001 0.035413999 0.038899999
0.32278001 0.066955999 0.10081
0.3229 0.066979997 0.099657997
0.24483 0.059016 0.031137999
0.27429 -0.019709 0.018851001
0.27092001 0.081214003 0.058348998
0.30914 0.062739 0.072244003
0.31586999 0.0011505 0.051238999
0.31589001 0.00045463999 0.052085001
0.31211999 -0.035780001 0.043744002
0.21313 0.076583996 0.044659
0.30188 0.0019299 0.048519
0.25852999 -0.0069312002 0.028612001
0.33364999 -0.051298 0.056340002
0.26061001 -0.022947 0.024828
0.26091 -0.021229001 0.0265
0.25933 -0.021491 0.024956999
0.30708 0.0077483999 0.049791999
0.30636001 0.0078908 0.048769001
0.32710001 -0.023010001 0.040360998
0.32565001 -0.023411 0.038841002
0.32475999 -0.024008 0.037608001
0.25676 -0.0010514 0.028848
0.25402999 0.055675998 0.032035999
0.30572 0.01176 0.045773
0.31432 0.016998 0.038346
0.27164 -0.041783001 0.016043
0.29714 0.052600998 0.056010999
0.30314001 -0.022753 0.039090998
0.27013001 0.027798001 0.02806
0.27467999 0.087532997 0.032591999
0.27584001 0.087684996 0.031325001
0.27443001 0.086770996 0.032517999
0.31083 -0.0074225999 0.052639
0.31026 0.051001001 0.065839
0.31097999 0.051061001 0.065144002
0.25902 0.044006001 0.034375001
0.22104 0.060591001 0.038100999
0.22114 0.060095001 0.039299998
0.30539 0.067547999 0.049187999
0.30623001 0.067929998 0.049911
0.30770999 0.067294002 0.049463
0.25876999 0.059046999 0.076266997
0.25196999 -0.010304 0.021873999
0.25159001 -0.0082336999 0.021562999
0.27720001 0.070924997 0.068824001
0.31099999 0.067809001 0.10728
0.25839999 0.05717 0.072876997
0.2938 0.075732 0.049821999
0.29247999 0.076716997 0.049917001
0.26212999 0.070568003 0.041138001
0.2617 0.068700999 0.041049
0.26899001 0.029733 0.028655
0.28692999 0.024553001 0.042755999
0.27456 0.083719999 0.056058001
0.30346999 -0.018919 0.041432001
0.30401999 -0.018056 0.042815
0.26591 0.077990003 0.060516
0.329 -0.051222999 0.062755004
0.29857999 -0.0024898001 0.036223002
0.3145 0.066597998 0.034906
0.31468999 0.065733999 0.034802999
0.22063001 0.057275001 0.035842001
0.22283 0.057360001 0.037425
0.3055 0.013931 0.045101002
0.30554 0.013149 0.04479
0.28093001 0.088546 0.068512999
0.28262001 0.088785999 0.067259997
0.31217 -0.00099643006 0.054352
0.29394001 0.0022622 0.030332999
0.25788 0.0057521998 0.02861
0.28968 0.040362999 0.054834999
0.30992001 0.069688998 0.045150001
0.24025001 0.061639 0.035996001
0.23901001 0.060175002 0.034584001
0.27789 0.088145003 0.068276003
0.27936 0.088932 0.068190999
0.28354001 0.026333001 0.045694999
0.26420999 0.088510998 0.056823
0.22702 0.071439996 0.038187001
0.26069999 0.067974001 0.053929999
0.25613999 0.087843999 0.049479999
0.25492999 0.088932 0.050308
0.25488001 0.088955998 0.048858002
0.31165999 0.065871999 0.077753
0.32172 -0.018239999 0.050625
0.32058999 -0.016896 0.051307
0.26565999 -0.046856001 0.02362
0.26607001 -0.048188999 0.024181001
0.2933 0.0061642998 0.038798001
0.28349999 0.029098 0.047777999
0.25536999 0.062325001 0.029815
0.30325001 0.083788 0.032991
0.30375001 0.083917998 0.03249
0.26302999 0.072094999 0.032788999
0.26216 0.072246 0.031198001
0.26122001 0.072371997 0.032844
0.29357001 0.049644001 0.057181999
0.29233 0.048152 0.057277001
0.29414999 0.049286 0.057252999
0.29324999 0.042243 0.054992002
0.2748 0.036056999 0.044312999
0.29268 0.072881997 0.051991999
0.32001001 0.071971998 0.10022
0.32087001 0.071217999 0.099982999
0.24095 0.066486999 0.031272002
0.24151 0.066233002 0.028100999
0.24014001 0.067377999 0.029912001
0.21932 0.068967 0.043691002
0.26210001 0.074754998 0.052685998
0.26199999 0.072971001 0.053249002
0.27055001 -0.049911998 0.018402001
0.30873001 0.066701002 0.045975
0.30195999 0.025598001 0.038040999
0.31141001 0.070032999 0.10781
0.31380001 -0.046909999 0.048496999
0.31244999 -0.045914002 0.049929999
0.31470001 -0.045033 0.048778001
0.30326 -0.022430001 0.042211
0.26537001 0.077680998 0.057216998
0.26457 0.077426001 0.05937
0.30952999 0.062514998 0.063901998
0.25937 0.053881001 0.039969001
0.26065999 0.053472001 0.038998999
0.28026 0.047846999 0.053002998
0.23861 0.068402 0.029451
0.2377 0.070835002 0.031089
0.23864999 0.069397002 0.02932
0.27531001 0.059508 0.071993999
0.28075001 0.057204999 0.056600001
0.23447999 0.075446002 0.033860002
0.30961999 -0.0046933 0.053105
0.3096 -0.0063073002 0.052333999
0.32282001 0.072568998 0.095321
0.26471999 0.014919 0.028829001
0.3123 -0.050227001 0.043781999
0.31242001 -0.049787 0.043719999
0.26381999 -0.038936999 0.015078
0.27406999 -0.040798001 0.015023
0.3272 0.059574001 0.085533001
0.26418 0.04042 0.043561
0.26951 0.031746998 0.031157
0.29821 0.017289 0.043435998
0.29903999 0.019622 0.044298001
0.27559 0.081781998 0.061315
0.24146999 0.057142001 0.03083
0.30406001 0.054405 0.057594001
0.26497999 0.05071 0.044814002
0.26546001 0.050324999 0.044898
0.26672 0.034972001 0.040240001
0.28220001 0.058284 0.056244999
0.28167 0.058892999 0.055684999
0.28235 0.059324998 0.056552
0.32455999 0.064524002 0.095348999
0.26076999 0.082503997 0.059057001
0.30833 0.044351999 0.043735001
0.30790001 0.077422 0.1067
0.25507 0.061641999 0.03128
0.29863 0.072206996 0.048804
0.22930001 0.075947002 0.036702
0.22853 0.075808004 0.037326001
0.31046 0.069260001 0.10834
0.26762 -0.025712 0.024465
0.28483999 0.090843998 0.034713998
0.28309 0.090346999 0.034581002
0.31022 0.056692999 0.071286999
0.30917999 0.059234001 0.072933003
0.27210999 0.022980999 0.030227
0.27059999 0.025293 0.030710001
0.25463 -0.015418 0.026388999
0.26205 -0.011679 0.029945999
0.25896999 -0.029889001 0.018843001
0.29427001 0.075461999 0.050065
0.25940001 0.057610001 0.036908001
0.27002001 -0.01581 0.022290999
0.27816001 0.030796999 0.045680001
0.28944001 0.074546002 0.056747999
0.27548999 -0.0027019 0.025003999
0.30335 0.072451003 0.048250999
0.22803999 0.059751999 0.040091999
0.27428001 -0.0085049998 0.020238999
0.27393001 -0.0091522997 0.021769
0.27340999 -0.0093558999 0.021159999
0.26622 0.033300001 0.038424
0.28053999 -0.049160998 0.0080994004
0.28121001 -0.048648 0.0092583001
0.26201999 0.072598003 0.061531998
0.26251 0.072168998 0.060605999
0.31033 -0.051575001 0.02864
0.31185001 -0.051546 0.03009
0.31619999 -0.047538001 0.052485999
0.31692001 -0.046900999 0.054032002
0.31689 -0.046257999 0.051357001
0.27623999 0.039409999 0.047097001
0.28974 0.035491001 0.051114999
0.28957 0.037505999 0.051807001
0.32534 0.055606 0.086479001
0.31286001 -0.013659 0.051477998
0.28352001 0.090048999 0.027292
0.28343999 0.090659 0.029561
0.31000999 -0.051913999 0.036945
0.31490999 -0.032288 0.046413999
0.30540001 0.018368 0.040562999
0.29269999 0.081868 0.049575999
0.28152001 0.088768996 0.045480002
0.28128001 0.090079002 0.045423001
0.32457 0.062233999 0.095544003
0.32394999 0.064343996 0.095579997
0.32337001 0.060378 0.094300002
0.27279001 -0.0093334997 0.021876
0.26640999 0.046707999 0.045467999
0.26459 0.046744999 0.044656001
0.24596 0.052129 0.032224
0.24781001 0.054088999 0.031808998
0.24614 0.054945 0.032005001
0.25940999 0.066143997 0.042268999
0.2604 0.067043997 0.040582001
0.26927 0.064912997 0.074492998
0.26754999 0.063597001 0.075682998
0.21148001 0.077812001 0.052664999
0.24089999 0.058881 0.032820001
0.24135 0.058628 0.032432999
0.26510999 0.065343 0.069645002
0.28597999 0.0067944 0.037990998
0.32354 -0.024836 0.045738
0.32460001 -0.022502 0.044156
0.31299001 -0.012815 0.052345999
0.31297001 -0.013512 0.051059999
0.25939 -0.02385 0.024557
0.26098001 0.079694003 0.049555998
0.26019999 0.079288997 0.049881998
0.28942001 0.015864 0.041591
0.31880999 -0.048278999 0.052921999
0.28191999 0.058478002 0.057675
0.28088999 0.060805 0.058665998
0.26609001 0.016504999 0.028201001
0.26609001 0.018219 0.027716
0.27897 0.087777004 0.045366
0.27776 0.087989002 0.045037001
0.27625 -0.026258999 0.018883999
0.27577999 -0.02582 0.019514
0.31220001 -0.045065999 0.040222
0.30285999 -0.0073444 0.035480998
0.31228 0.055503 0.075029001
0.31913999 -0.051167998 0.054368
0.32036999 -0.051938999 0.054386001
0.32352 0.067934997 0.097958997
0.32284001 0.068492003 0.097317003
0.28426 0.076604001 0.061531
0.31698 0.060729001 0.10908
0.26113999 0.054400001 0.072540998
0.28939 0.071520001 0.056603
0.20983 0.072539002 0.051855002
0.2111 0.072085999 0.051137
0.31779 0.080477998 0.096431002
0.29405999 0.011167 0.041969001
0.29541999 0.010983 0.042436998
0.27897999 0.049839001 0.050779998
0.32076001 -0.011915 0.050411999
0.21104001 0.069723003 0.047251999
0.20964999 0.071580999 0.048749
0.31682 0.076438002 0.10082
0.27776 0.083283 0.060247
0.28151 0.033666 0.047274001
0.28123 0.034051999 0.047384001
0.27689001 -0.041079 0.015945001
0.31902999 0.058341999 0.1003
0.32075 0.058981001 0.099191003
0.32049999 0.056986 0.10058
0.28970999 0.01677 0.042536002
0.29951 0.0067721 0.043613002
0.28676 0.083769001 0.063781999
0.32163 -0.012021 0.050946999
0.26921001 -0.032976002 0.021289
0.28325999 0.087930001 0.068919003
0.25935 0.014433 0.022043001
0.27704999 0.082664996 0.057737
0.27764001 0.083402999 0.060118001
0.31241 0.056127999 0.075320996
0.21337999 0.074674003 0.048401002
0.26267999 0.046218999 0.042213
0.27114001 -0.025931999 0.022756999
0.21599001 0.071327999 0.048886999
0.21571 0.072558999 0.047633
0.31110999 0.062316999 0.077289
0.31180999 0.060681 0.079125002
0.32771999 0.060497999 0.087035999
0.30660999 -0.015619 0.041436002
0.28478 0.089089997 0.035138
0.28433999 0.090790004 0.035413001
0.26515999 -0.0092273001 0.028170001
0.25804001 0.0084002996 0.024808999
0.31744 -0.052258998 0.059666999
0.31871 -0.050827 0.057994001
0.23153 0.053385001 0.03717
0.31529 0.061531998 0.10585
0.2124 0.073565997 0.053291999
0.26231 0.075723 0.056742001
0.26934999 0.0093021998 0.030808
0.27533001 -0.028441999 0.020880001
0.27706999 0.014475 0.036938
0.27518001 0.015308 0.037889998
0.31391999 0.056469001 0.08083
0.28661001 0.089139998 0.027479
0.28601 0.092237003 0.071548
0.28648001 0.091052003 0.069656998
0.29763001 0.065975003 0.058036
0.31363001 -0.047161002 0.046062
0.31375 -0.046983998 0.045458
0.31299999 -0.048020002 0.044477999
0.31233999 0.060759999 0.079860002
0.30579001 0.029161001 0.033760998
0.27192 -0.0027802 0.0286
0.26938 -0.0029370999 0.029256999
0.24445 0.062256001 0.02531
0.27903 0.087132998 0.070095003
0.2534 0.057038002 0.030592
0.25240999 0.057576999 0.031348001
0.29168001 0.0085118003 0.039237
0.27533999 0.074441001 0.067465998
0.31592 -0.029682999 0.047262002
0.33085999 0.061983 0.081960998
0.3328 0.062178001 0.082310997
0.26736 0.038068999 0.044305
0.26416001 -0.011425 0.028601
0.28145999 0.086839996 0.047435001
0.26175001 0.071584001 0.030627999
0.31352001 -0.053507999 0.043906
0.31364 -0.053192001 0.043400999
0.27572 0.087126002 0.034641001
0.27603999 0.086600997 0.033199001
0.30155 0.016755 0.043715999
0.32209 0.054609999 0.086058997
0.26107001 0.067052998 0.032166
0.27061 -0.017690999 0.018653
0.27074 -0.019241 0.018913999
0.31488001 0.015529 0.041329999
0.31536999 0.014722 0.040022001
0.31494999 0.016376 0.039919
0.30687001 0.0526 0.064318001
0.30677 0.052685998 0.063386999
0.27103001 0.0077586002 0.031730998
0.30230999 0.037849002 0.043311
0.30381 -0.0075258999 0.039625999
0.30322 -0.0080057997 0.039831001
0.30454001 0.073991999 0.04042
0.30447 0.074083 0.041081
0.27526 0.025365001 0.040180001
0.27443999 0.024792001 0.037604999
0.27526 0.029203 0.043444999
0.32348001 0.072935 0.096326999
0.32232001 0.072397999 0.095174
0.32256001 0.072201997 0.094444998
0.32076001 -0.041652001 0.043793999
0.28097999 0.062112998 0.064738996
0.28064001 0.062424 0.064851999
0.28108001 0.062963001 0.064989001
0.30934 0.066137001 0.047759999
0.26625001 0.075607002 0.062077999
0.245 0.061817002 0.029004
0.31957999 0.010704 0.039983001
0.30724999 -0.0070914999 0.051357001
0.28963 0.012075 0.040566999
0.32029 -0.01661 0.051120002
0.21303999 0.079334997 0.046071
0.26357999 0.065543003 0.072333001
0.31011999 0.051697001 0.064519003
0.30169001 -0.0039442 0.043933999
0.32325 -0.041110002 0.041864
0.30515 -0.0099975998 0.035879999
0.30425 -0.0095001999 0.035700001
0.30241001 -0.0094988998 0.034885999
0.31081 0.0049442002 0.051038999
0.31603 -0.026419001 0.048613001
0.30906001 0.056411002 0.070712
0.30847999 0.058945 0.071168996
0.26991001 0.026973 0.030334
0.27618 -0.034570001 0.016434001
0.27612999 -0.034963999 0.015817
0.2985 -0.0024498 0.028461
0.30272001 0.070836 0.050252002
0.26587999 0.039848 0.042971
0.26493999 0.041466001 0.045442998
0.29065001 0.050246 0.057367001
0.29793999 0.034713 0.044544
0.26585999 -0.022609999 0.023271
0.25928 0.067511 0.054646999
0.28760001 0.095544003 0.072654001
0.28672001 0.095201001 0.072897002
0.32244 -0.043272 0.042706002
0.26021999 0.061151002 0.077575997
0.26089999 0.041979 0.033971999
0.26188999 0.041788999 0.031272002
0.26245001 0.064877003 0.041825999
0.26087001 0.064144999 0.040318999
0.30627 0.069458 0.049605001
0.21906 0.061191 0.039372999
0.25845999 0.050671998 0.035247002
0.27088001 0.055523001 0.075677
0.30847999 0.084184997 0.096086003
0.22831 0.084073 0.040511999
0.25769001 0.088285998 0.057937
0.30796999 0.083819002 0.097834997
0.30768001 0.032586001 0.030959999
0.29240999 0.064058997 0.057240002
0.30706999 0.075384997 0.10603
0.30671999 0.074373998 0.10613
0.21839 0.063929997 0.038745999
0.21941 0.062936999 0.040187001
0.21969999 0.063309997 0.039533
0.29284999 0.037808001 0.051332001
0.29570001 0.064083003 0.057229001
0.29484001 0.063359 0.058577001
0.21827 0.061080001 0.038775001
0.21926001 0.061526999 0.038913999
0.32652 -0.047455002 0.049484
0.32602 -0.047038 0.051229
0.32472 -0.046487998 0.049941
0.28883001 0.091848001 0.069724001
0.23364 0.053025 0.036678001
0.23411 0.052441001 0.035305999
0.2613 -0.043954 0.012829
0.25883001 0.058853999 0.075694002
0.2608 0.062812001 0.068562001
0.26109001 0.062785998 0.066082001
0.31233999 0.05954 0.077036999
0.31206 0.060368001 0.075448997
0.3087 0.017116001 0.042234998
0.32304001 0.066959001 0.095261998
0.31294999 0.062419001 0.079217002
0.31422001 0.068966001 0.037684001
0.22412001 0.056324001 0.039425001
0.2683 -0.020529 0.024689
0.26846999 -0.021972001 0.023073001
0.23011 0.076325998 0.036727998
0.27147999 0.083578996 0.054345999
0.2721 0.084945001 0.055271
0.27441999 0.025203999 0.035665002
0.25951999 0.070214003 0.033695001
0.26028001 0.067524001 0.034954999
0.24916001 0.049291 0.030587999
0.25751999 -0.027627001 0.018013
0.27282 0.028720999 0.037673
0.27195001 0.031047 0.03875
0.30079001 0.040881 0.049593002
0.3021 0.041661002 0.046953999
0.31073999 -0.033686999 0.044725999
0.26596999 0.078431003 0.059337001
0.28207999 0.079538003 0.063150004
0.28169 0.079400003 0.062876001
0.28354001 0.078544997 0.062270999
0.30599001 0.022093 0.037875
0.26359001 0.091043003 0.054382998
0.25617 0.0093283998 0.020485001
0.22479001 0.076194003 0.041134998
0.31492999 -0.045395002 0.047139
0.28354999 0.095693998 0.068268999
0.29567999 -0.0048059002 0.004795
0.32710001 -0.044677999 0.046622999
0.31279001 -0.047548 0.048432998
0.31378001 0.080385998 0.10028
0.25569001 0.054473002 0.032800999
0.25486001 0.053442001 0.032221999
0.25529 0.053279001 0.034010999
0.26909 0.023341 0.024970001
0.22973 0.050935 0.035957001
0.27228999 -0.013982 0.0189
0.27105999 -0.015502 0.019846
0.27252999 -0.013515 0.019824
0.27577001 0.088642001 0.02973
0.27669999 0.087366998 0.031366002
0.27917999 -0.00018993 0.023851
0.30601999 -0.0061404002 0.044530001
0.28733 0.082924001 0.063804999
0.23405001 0.056430999 0.036674
0.21267 0.073902003 0.050429001
0.27404001 0.027241999 0.034832001
0.30680999 -0.033477999 0.036764
0.30561 -0.035032 0.040026002
0.30570999 -0.033670001 0.038743
0.30998999 0.069182999 0.045692001
0.29705 0.080871001 0.043191999
0.29545999 0.080090001 0.043751001
0.26247999 0.041584998 0.041397002
0.26276001 0.041310001 0.040674999
0.30475 -0.027439 0.035944
0.31066999 0.05452 0.074585997
0.31143999 0.052655999 0.074106999
0.31202999 0.052806001 0.074014001
0.26391 0.017624 0.016921001
0.31194001 0.058765002 0.074190997
0.28053999 0.039411999 0.049357001
0.26188001 -0.024574 0.025343001
0.26168001 -0.023279 0.025813
0.2845 0.061923001 0.055162001
0.28501999 0.061792001 0.055672001
0.28784999 0.060594 0.055562001
0.22473 0.066542998 0.040624999
0.28839999 0.088262998 0.065448001
0.30868 0.062909998 0.068746001
0.31039 0.059836999 0.074339002
0.32725999 0.072382003 0.080279
0.26502001 0.035847001 0.040325999
0.28926 0.027368 0.043878999
0.29010001 0.026974 0.043476999
0.21241 0.077940002 0.047734998
0.30754 0.060997002 0.070588998
0.30994999 0.081458002 0.095706001
0.29265001 0.038853001 0.050813001
0.29277 0.036254998 0.052468002
0.30961999 0.067061998 0.046866
0.26559001 0.016277 0.028194999
0.26587999 0.015823999 0.027538
0.26653999 0.014476 0.028364001
0.24532001 0.054715 0.03119
0.24344 0.056278002 0.031417001
0.26791 -0.045538001 0.020151
0.26783001 -0.045123 0.019486001
0.22684 0.071690999 0.0385
0.29883 0.027711 0.039868999
0.29811999 0.026753001 0.040144
0.26809001 -0.010783 0.025706001
0.27465999 0.028134 0.043577999
0.27386001 0.029108999 0.041131999
0.30969 0.058460001 0.064553
0.30987 -0.019934 0.048797
0.26631001 0.060253002 0.080110997
0.26521999 0.060283002 0.080531001
0.30471 0.059528999 0.056906
0.30495 0.060348999 0.056113999
0.26945999 0.050848 0.067382
0.27219999 0.050491001 0.066223003
0.26903 0.018208999 0.032846998
0.2133 0.071386002 0.049029998
0.31839001 -0.025707001 0.049293999
0.31987 -0.025625 0.048772
0.23820999 0.050191 0.029611001
0.23639999 0.049217001 0.027896
0.30520001 0.064442001 0.054017
0.30441999 0.064044997 0.055007
0.2529 0.062468 0.028434001
0.22676 0.072025001 0.039627001
0.25711 0.091519997 0.057813998
0.25196001 0.05136 0.031603001
0.25332001 0.051435001 0.032822002
0.25220999 0.053968001 0.031420998
0.28928 0.050246 0.056740001
0.26528999 -0.025935 0.023591001
0.26510999 -0.023861 0.025255
0.28981 0.025714001 0.044535998
0.28663 0.036369 0.052035999
0.31977001 0.013096 0.034081001
0.31948 0.011994 0.034352999
0.29347 0.046124998 0.056738
0.29271001 0.046064999 0.057620998
0.26143 -0.012118 0.029817
0.26409 0.0099016 0.031259
0.30801001 -0.011286 0.045736998
0.30739 -0.012343 0.046355002
0.30822 -0.013068 0.045671001
0.24138001 0.064228997 0.027938999
0.24062 0.064328998 0.029265
0.24339999 0.062605001 0.028713999
0.27529001 -0.039730001 0.012391
0.27711999 -0.039671998 0.010433
0.27456999 0.043657001 0.048817001
0.27614999 0.043455001 0.048280999
0.25896001 0.014966 0.017588999
0.31062999 -0.026869001 0.046867002
0.25314999 0.050716002 0.030762
0.25470001 0.051617 0.031272002
0.29729 0.055716999 0.055945002
0.2814 0.093878001 0.064700998
0.30340001 0.020424999 0.042082001
0.30394 0.019243 0.040321998
0.28290999 0.094856001 0.068683997
0.21967 0.088515997 0.052565999
0.27061999 0.038841002 0.046895999
0.26993999 0.038414001 0.046503
0.25916001 -0.0093566999 0.028975001
0.26072001 0.013601 0.021966999
0.26128 0.014237 0.023002001
0.27601001 0.086048998 0.05342
0.29205 0.029843001 0.044048
0.31825 -0.026997 0.047892001
0.31832001 -0.027964 0.047850002
0.30603999 -0.009331 0.047164999
0.27153 0.076834999 0.062479001
0.25694999 0.049038999 0.032120999
0.25669 0.047724999 0.030683
0.25742999 0.047704 0.031099999
0.30785999 0.021861 0.033597
0.30783001 0.024331 0.032614999
0.30653 0.02341 0.032499999
0.28213 0.029006001 0.047148999
0.30500001 0.031314999 0.034577001
0.30763 0.066826001 0.047318
0.30869001 0.021555001 0.038458001
0.26666 0.0119 0.029270999
0.27096 0.030762 0.033482999
0.26234001 0.072678998 0.02575
0.31940001 -0.0085961996 0.054713
0.21708 0.069663003 0.045419
0.29710999 0.068558998 0.056230001
0.29822999 0.066758998 0.055782001
0.29914001 0.082231998 0.036045
0.25514001 0.090065002 0.049203999
0.27915999 0.0042055999 0.027736999
0.27873001 0.0029247 0.029270999
0.27831 0.0036829 0.02888
0.26098999 0.078280002 0.050027002
0.26282999 0.076699004 0.048654001
0.26120999 0.076981999 0.049598999
0.28101999 0.01258 0.040941998
0.32104999 0.061119001 0.1035
0.26065001 -0.021586999 0.026267
0.26835001 -0.023065001 0.025010001
0.28321999 0.095720001 0.065904997
0.28198999 0.094332002 0.064903997
0.28279999 0.095016003 0.06752
0.22048 0.074584 0.043965001
0.30686 -0.021527 0.045798998
0.26137999 0.081767 0.051863
0.27415001 0.025700999 0.037827
0.29222 0.038479999 0.054211002
0.29185 0.040642999 0.054471999
0.26245001 -0.027024999 0.021934999
0.26837 0.042614002 0.047752
0.27023 0.043026999 0.046783
0.29875001 0.081321999 0.041499998
0.29679999 0.080605 0.038098998
0.30693001 -0.032458 0.039400999
0.31861001 -0.045033 0.045754001
0.31887001 -0.043370999 0.047706001
0.27103999 0.084348001 0.052857999
0.26144001 0.066832997 0.042819999
0.26058 0.065784 0.040874999
0.271 0.059930999 0.075935997
0.2633 0.073207997 0.062645003
0.27476001 0.052749999 0.066395
0.27265 0.052967999 0.065693997
0.27673 -0.049989998 0.01218
0.27864999 -0.05037 0.012069
0.22349 0.058979999 0.040359002
0.22561 0.059277002 0.041055001
0.31513 0.066933997 0.034901001
0.31522 0.067093998 0.034341998
0.27623001 -0.035909001 0.013559
0.27807999 -0.034921002 0.014772
0.27801001 0.085827 0.049715001
0.31073999 0.072604001 0.1037
0.23915 0.054117002 0.033888999
0.23997 0.052912999 0.032255001
0.31237 -0.049355999 0.047641002
0.31265 -0.050145 0.046282999
0.30857 0.050251 0.062542997
0.3098 0.050423998 0.062794998
0.30880001 0.049649999 0.063362002
0.30441999 0.037717 0.044803999
0.30307001 0.037478998 0.043398999
0.30915001 0.064159997 0.060242001
0.31718001 -0.049419001 0.058471002
0.31797999 -0.050329 0.058378
0.31255999 0.070297003 0.038925
0.27325001 -0.046658002 0.015125
0.30712 0.013259 0.043912001
0.30651999 0.01546 0.044360001
0.30592999 0.014196 0.044521999
0.30046001 0.039271001 0.046925001
0.30934 -0.016766001 0.049683999
0.27412999 0.0059262998 0.030944001
0.27575001 0.0054580998 0.033289
0.28295001 0.089945003 0.025819
0.27412999 0.057682998 0.069213003
0.28101 0.068457 0.066403002
0.28229001 0.069252998 0.066348001
0.28176999 0.069361001 0.066298001
0.27465001 0.061383002 0.072320998
0.27546 0.063694999 0.072778001
0.22487999 0.087774001 0.045646999
0.2133 0.069688998 0.046487998
0.29657 0.044284999 0.055046
0.29776001 0.044698998 0.055107001
0.28086999 0.089684002 0.032127999
0.27989 0.089844003 0.032313999
0.31263 -0.051274002 0.049038
0.31154001 -0.052818 0.048937
0.31274 -0.051763002 0.049417
0.21209 0.076459996 0.040998999
0.27662 0.043278001 0.049502999
0.27221 -0.016518001 0.013887
0.27443001 -0.017340999 0.015899001
0.29606 0.071790002 0.051263001
0.27952999 -0.047811002 0.0092329998
0.31869999 0.058715001 0.10211
0.31259 0.051771998 0.080678999
0.31393 0.052400999 0.080017999
0.30827999 0.076243997 0.036942001
0.27763 0.0038982001 0.029312
0.32095999 0.0072078998 0.041832
0.26784 0.0023866999 0.031369001
0.25455999 0.00045009999 0.026172001
0.25905001 -0.022740001 0.024537001
0.27958 -0.050027002 0.0099422
0.31535 0.063173003 0.10429
0.24482 0.060439002 0.028948
0.31402001 0.059470002 0.086539
0.27941 0.089858003 0.065034002
0.24054 0.050280001 0.03317
0.33195001 -0.049642 0.053851001
0.21758001 0.063580997 0.030742999
0.21705 0.062406 0.029616
0.21690001 0.062155999 0.030901
0.30342999 0.019796999 0.042796999
0.27785 0.029699 0.045031
0.32242 0.069429003 0.10036
0.31927001 0.070194997 0.10145
0.28093001 0.063639 0.066798002
0.27678001 0.019183001 0.039395999
0.29907 -0.00019588 0.041636001
0.29934001 -0.001046 0.042884
0.27561 -0.045205001 0.013787
0.26604 0.021360001 0.020335
0.29008001 0.050347999 0.057358
0.28222999 0.0083587002 0.037165999
0.2832 0.0068522999 0.038113002
0.2814 0.049164999 0.050206002
0.30063 0.071013004 0.048640002
0.27465001 0.057240002 0.068207003
0.26192001 0.085045002 0.058791
0.27746001 -0.0063343998 0.019509999
0.26515001 0.068498001 0.066749997
0.2823 0.088992 0.045230001
0.26159 0.067285001 0.060362998
0.31786001 -0.035820998 0.045724001
0.27281001 -0.015402 0.018692
0.26219001 -0.044126999 0.0087454002
0.26238999 -0.043620002 0.0092708999
0.26256999 -0.044714 0.0081142001
0.31237 0.059257001 0.074216999
0.30425999 -0.027392 0.037117001
0.28955001 0.0065720002 0.035172001
0.26203001 0.084035002 0.057921
0.23385 0.072591998 0.035473
0.27340999 0.010575 0.034788001
0.26056001 0.091077 0.055482
0.26603001 0.061407998 0.079666004
0.28696999 0.090660997 0.067968003
0.28408 0.020932 0.043538
0.28696999 0.021575 0.043791998
0.3127 -0.052623998 0.047116
0.31048 -0.046558999 0.036272999
0.28503001 0.064496003 0.063419998
0.28511 0.065456003 0.062321
0.31485999 -0.046394002 0.050698999
0.315 -0.046652 0.052203
0.26003999 -0.033927999 0.015567
0.28501001 0.028456001 0.046294
0.30796999 -0.036800001 0.035137001
0.30737999 -0.036082 0.034113999
0.29299 0.039113998 0.052221999
0.26346001 0.041296002 0.041751001
0.31116 0.061988 0.074003004
0.31439 0.070239 0.1036
0.29587001 0.030283 0.042266
0.31999001 0.01251 0.037735
0.24178 0.059429999 0.034228999
0.29701999 0.082735002 0.039627001
0.29868001 0.075695001 0.049789
0.25509 0.058224998 0.032676
0.31277001 -0.049651999 0.049187999
0.31275001 -0.049522001 0.049897999
0.31248999 -0.049279001 0.048728999
0.29758 0.081951998 0.041425999
0.26536 0.017638 0.022273
0.26565999 0.019435 0.023589
0.26139 0.071399003 0.061838999
0.26190001 0.070666999 0.061448
0.26877999 -0.037772998 0.017028
0.31766999 0.015479 0.035340998
0.31694001 0.014655 0.036949001
0.2631 -0.044835001 0.022120999
0.26339 -0.044410001 0.022764999
0.23497 0.058348998 0.035893001
0.23545 0.059797999 0.035992
0.33142 -0.051929001 0.054862998
0.33173001 -0.049745999 0.054947
0.28738999 0.013835 0.041230001
0.26276001 -0.024467001 0.025026999
0.27333999 -0.0010162001 0.028472999
0.29832 0.025301 0.040879
0.29548001 0.023512 0.041492
0.30528 0.018238001 0.039797999
0.30609 0.017428 0.041694999
0.29942 0.050871 0.054917999
0.29883999 0.050843 0.056557
0.25659001 0.091167003 0.058052
0.30107999 0.056715 0.056642
0.30063 0.056146 0.056295
0.25781 0.044914 0.024293
0.22431 0.088855997 0.048526
0.22420999 0.090490997 0.047440998
0.30537999 0.060107999 0.058256999
0.29488999 0.0047279 0.041336998
0.26049 0.060460001 0.076388001
0.26036999 0.061578002 0.074100003
0.32042 -0.037616 0.043917999
0.27687001 -0.031665001 0.015131
0.30296001 0.081284001 0.035278998
0.29383999 0.0060512 0.035170998
0.31187999 -0.050946999 0.045763999
0.31318 -0.050948001 0.044503
0.29962999 0.044036001 0.053337999
0.30022001 0.045315001 0.052308001
0.32111999 -0.043090999 0.047518
0.31911999 0.0030121999 0.047336001
0.31999999 0.0027290001 0.047648001
0.26467001 0.060862001 0.081780002
0.26682001 0.061106998 0.078782998
0.28253999 0.024164001 0.044321001
0.26385 0.017235 0.023010001
0.22412001 0.069449998 0.040458001
0.22213 0.085184 0.045703001
0.26567999 -0.02905 0.023068
0.30517 0.013936 0.044057999
0.22008 0.057652 0.035882
0.21898 0.060518 0.038070999
0.29473999 0.021035001 0.042438999
0.29524001 0.022286 0.042452998
0.29407001 0.0012438 0.029453
0.29525 0.0022183999 0.030822
0.28358999 0.0054163998 0.037694
0.26038 0.092569999 0.055431999
0.25996 0.092721999 0.055330001
0.27042001 -0.045549002 0.017209999
0.26982 -0.047205999 0.016928
0.32517001 -0.032127999 0.039932001
0.24899 0.056949001 0.030629
0.27846 -0.0019876 0.022121999
0.27922001 -0.00037142 0.022053
0.27833 -0.0012742 0.023166999
0.31698999 -0.012014 0.053443
0.27619001 0.081696004 0.060194001
0.27647001 0.084036998 0.060201999
0.25591001 0.094020002 0.056147002
0.27724999 0.083893999 0.058446001
0.25795001 0.0079006003 0.026241999
0.25766999 0.0066446001 0.026218001
0.28830999 0.094811 0.072655
0.25665 -0.020094 0.021028999
0.25525999 -0.021653 0.022031
0.28284001 0.080063999 0.061988998
0.31047001 0.062941998 0.065205999
0.30873001 0.063024998 0.065279
0.32023001 -0.014193 0.050827999
0.31942001 -0.015439 0.051286001
0.26622 0.077574998 0.060125999
0.2728 0.087041996 0.040592998
0.28727001 0.021131 0.044232
0.26510999 0.074911997 0.020552
0.26429 0.073510997 0.019258
0.26396 0.07322 0.020912999
0.30831 0.016246 0.03892
0.26976001 0.0048866002 0.031449001
0.26971999 0.0054644998 0.032202002
0.30812001 0.065063 0.056979999
0.30945 0.064370997 0.055659998
0.31000999 0.066233002 0.055922002
0.21371999 0.067093998 0.040709998
0.21453001 0.066895001 0.042470999
0.27570999 -0.040978 0.012795
0.25856 -0.0057119001 0.030802
0.25792 0.058954999 0.073109999
0.27326 -0.046062 0.015191
0.27103999 0.077009 0.062876001
0.32416001 -0.029728999 0.042341001
0.26069999 0.057994001 0.079668999
0.31426999 0.054492999 0.083977997
0.31575 0.055245999 0.086048998
0.31525001 0.054203998 0.085023001
0.29688999 0.080233999 0.047152001
0.24236999 0.045621 0.0232
0.31242001 0.067603998 0.11033
0.31277001 0.068190999 0.11
0.26945999 -0.036230002 0.019348999
0.27767 0.061916001 0.072594002
0.32302999 0.066711999 0.10089
0.29738 0.0023993 0.043806002
0.26943001 0.040068001 0.046914
0.27085999 0.060499001 0.079190999
0.27928999 0.089114003 0.063513003
0.28130999 0.019489 0.042817
0.27201 0.0083338004 0.031528998
0.27698001 -0.038833 0.012062
0.27739 -0.039661001 0.011564
0.27748999 -0.040135998 0.011087
0.28863999 0.052096002 0.054504
0.28946 0.054899 0.054582
0.28955999 0.057039 0.053784002
0.29354 0.029805999 0.042638998
0.30423 0.062081002 0.057512
0.27886999 0.090047002 0.062665999
0.285 0.023504 0.044454999
0.31169999 -0.048955999 0.040378001
0.31186 -0.050535999 0.039574001
0.26469001 -0.031314 0.019555001
0.26526999 -0.029898001 0.021276999
0.25492001 0.046916999 0.030920999
0.30588001 -0.010222 0.040931001
0.26625001 0.087084003 0.055063002
0.31948999 -0.0044415002 0.051424999
0.31240001 0.066917002 0.05494
0.28726 0.011416 0.040801998
0.28490001 0.010509 0.042156
0.28705001 0.012223 0.041749999
0.29758 0.059064001 0.056481998
0.30875999 0.063809 0.057441998
0.30777001 0.064728998 0.059259001
0.25916001 0.043965999 0.032859001
0.30529001 -0.02311 0.046950001
0.22518 0.051649999 0.029648
0.30603999 0.027737999 0.034501001
0.30542001 0.027884999 0.032065999
0.3057 0.0284 0.033707999
0.26841 0.040146001 0.044280998
0.22611 0.056039002 0.038327999
0.31955999 0.0019683 0.050165001
0.31957 0.0032046 0.048255999
0.26977 0.051061001 0.066079997
0.25852999 -0.020291001 0.024822
0.25161001 0.048253998 0.03018
0.30835 0.050113998 0.060726002
0.30039001 0.025725 0.038766
0.29965001 0.025021 0.040286999
0.227 0.053211 0.037877999
0.21066999 0.076080002 0.051913001
0.21137001 0.075599998 0.053300001
0.21256 0.076393999 0.053978
0.21684 0.080899999 0.056442998
0.21525 0.080385998 0.055977002
0.2173 0.081079997 0.05632
0.24869999 0.047959 0.03207
0.28485 0.065739997 0.063977003
0.30827001 0.077986002 0.030196
0.28806999 0.072842002 0.059797
0.28854001 0.073320001 0.060144
0.28876999 0.020582 0.043288
0.25663 -0.00041673001 0.027256999
0.25720999 0.00094353 0.029397
0.26892 0.046893999 0.047665998
0.31068999 0.052092001 0.066680998
0.31083 0.066725999 0.11115
0.25363001 0.093050003 0.057363
0.31445 -0.046376001 0.047699999
0.27125999 -0.049609002 0.016365999
0.22119001 0.063142002 0.040440001
0.25735 0.086553 0.049238998
0.29361999 0.078489996 0.049100999
0.30241999 -0.0012324 0.045882002
0.30153999 -0.00015969999 0.046804
0.30992001 -0.012503 0.050843
0.23207 0.062382001 0.035955999
0.31261 -0.052772999 0.048110999
0.30745 0.026386 0.028765
0.30779999 0.026697 0.028393
0.30728 0.027974 0.027884999
0.32078001 -0.035402 0.044321999
0.29322001 0.035069 0.049343001
0.29341 0.033950999 0.048661001
0.28378001 0.032258999 0.047692001
0.32457 -0.053358998 0.057537999
0.32398 -0.054281998 0.060047999
0.21917 0.077864997 0.046349
0.21935 0.077568002 0.046227001
0.21998 0.078442 0.045947
0.25525999 0.091022998 0.051183
0.32416001 0.053468 0.079117
0.27835 0.082128003 0.065647997
0.29758999 -0.0034952001 0.0063792998
0.29890001 -0.0032875 0.0060422001
0.29725 -0.0024774999 0.0071017002
0.30373001 -0.024654999 0.044061001
0.30407 -0.023938 0.042637002
0.29705 0.085426003 0.037266999
0.31422001 0.048478 0.063963003
0.28253001 0.066655003 0.065173998
0.31252 -0.020583 0.051660001
0.27416 -0.0089518996 0.022952
0.28031999 0.020470999 0.042723998
0.31661999 -0.038091 0.045224998
0.31683001 -0.038755 0.044259001
0.31804001 -0.037923999 0.045201998
0.32019001 -0.017147001 0.049568001
0.31305999 0.0078204004 0.050058998
0.28744 0.013918 0.042277001
0.24201 0.057491999 0.031138999
0.22532 0.061473001 0.043127999
0.28744999 0.015769999 0.041554999
0.27202001 -0.024027999 0.022515999
0.31924999 0.0077585001 0.043474
0.29435 0.068993002 0.057704002
0.28850999 0.0060735 0.0297
0.22401001 0.053484 0.031383
0.22282 0.054373 0.032127999
0.31415001 -0.041395001 0.043786999
0.28227001 0.024863999 0.044822998
0.33133999 -0.051219001 0.049954001
0.28984001 0.090764999 0.064094
0.28937 0.090020001 0.064539
0.26278001 0.042879999 0.033503
0.26065001 0.042782001 0.033899002
0.32032999 -0.039478 0.042383
0.32012001 -0.039310001 0.043067999
0.32003 -0.038720999 0.044794999
0.31510001 -0.032412998 0.045024
0.31703001 0.058341999 0.10777
0.31693 0.057797 0.10673
0.31467 0.067679003 0.10677
0.2974 0.068351999 0.055167001
0.24568 0.061806001 0.027579
0.27785999 0.033978999 0.045885
0.27987999 0.036281999 0.047359999
0.26396 -0.039891001 0.014413
0.28694999 0.048611999 0.055571999
0.27021 -0.042580999 0.017859001
0.26403001 0.047754001 0.042156
0.26187 0.047070999 0.042603999
0.26304001 -0.0031266001 0.030331001
0.26255 -0.0016933 0.030099001
0.31086999 -0.0056340001 0.053376999
0.32247999 -0.043995999 0.049902
0.29234999 0.073132999 0.051484
0.29675999 0.036040001 0.048308
0.26174 -0.021631001 0.026059
0.26089001 0.079108 0.049316999
0.26695001 0.082663 0.051856
0.28850999 0.096822001 0.070900999
0.30167001 0.067221999 0.055441
0.30276999 0.067859001 0.055346999
0.30996001 0.057142001 0.066863999
0.30878001 0.057502002 0.066372
0.31194001 0.045683999 0.059112001
0.28872001 0.065016001 0.055985998
0.28995001 0.065449998 0.056386001
0.31319001 -0.048478998 0.047945
0.31378001 -0.047936 0.047178999
0.31325999 -0.048889 0.046073001
0.29776999 0.030072 0.040553998
0.30882999 0.083440997 0.097998999
0.25102001 -0.01401 0.025904
0.32611999 -0.046330001 0.048496
0.30612999 0.039854001 0.039850999
0.25382 0.057976998 0.030741001
0.25260001 0.057411 0.03053
0.2493 0.052519999 0.03198
0.25093001 0.051947001 0.032471001
0.31378001 -0.049593002 0.044645999
0.30985001 -0.017085001 0.050186999
0.28 0.029867999 0.046468001
0.31240001 0.066494003 0.042472001
0.30822 0.075800002 0.10466
0.23768 0.047911 0.027981
0.26222 -0.0059123002 0.030316999
0.26368999 -0.0036539999 0.031651001
0.3082 0.041706 0.039354
0.30695999 0.042017002 0.041317999
0.30682001 0.039777 0.038768001
0.30199999 0.024538999 0.038389999
0.25696 0.065016001 0.02695
0.31059 0.077321 0.106
0.30048999 0.040849 0.050533
0.29931 0.040732998 0.050379001
0.27956 0.026027 0.044192001
0.30978 0.067608997 0.074181996
0.27008 0.030873001 0.031787999
0.25545999 0.011595 0.01816
0.25654 0.010534 0.018665001
0.32341 -0.033165999 0.042410001
0.32203001 -0.034418002 0.042831
0.31239 0.080358997 0.094617002
0.31264001 0.079779997 0.096005999
0.31690001 0.062728003 0.092745997
0.31538999 0.061108999 0.092693999
0.26241001 0.083424002 0.057985999
0.22750001 0.076425001 0.039822999
0.22673 0.076256998 0.039896999
0.31718999 -0.034529999 0.045375999
0.25935999 0.047844 0.040493999
0.26108 0.047451001 0.039783001
0.28562 0.015164 0.042746
0.25977999 0.067359999 0.032345001
0.29861999 0.062645003 0.056078002
0.29908001 0.062056001 0.056740999
0.30838999 0.046254002 0.055454001
0.25167999 -0.0098128002 0.024583001
0.28819999 0.047642 0.056727
0.25757 0.065004997 0.018015999
0.25766999 0.066133 0.017774001
0.29947001 0.017029 0.044351999
0.30687001 0.059137002 0.061147999
0.30249 0.041896999 0.049431998
0.26622 -0.04293 0.016665
0.31669 0.05841 0.108
0.26602 0.077105999 0.062844999
0.26883 0.076134004 0.063593
0.31305999 0.056205001 0.080192998
0.29927999 0.078626998 0.042544998
0.29765001 0.080078997 0.043010999
0.31799001 0.078832 0.096686997
0.31738999 0.077859998 0.098697998
0.26618999 0.065852001 0.070496
0.26558 0.066096999 0.070362002
0.28325 0.088964999 0.037810002
0.27191001 0.025831999 0.031716999
0.21465001 0.066659003 0.039239001
0.31086999 0.070083998 0.042321
0.30129999 0.086494997 0.029261
0.28490999 0.077336997 0.060818002
0.23895 0.069362 0.035354
0.26256999 0.069334 0.028251
0.26306999 0.066316001 0.058113001
0.26927999 0.024482001 0.019151
0.29718 0.0097556002 0.042413
0.28808999 0.021198999 0.041726999
0.24014001 0.064410001 0.032867
0.28606001 0.050397001 0.055691
0.31092 -0.050067998 0.039156001
0.31241 -0.049121 0.040109999
0.28636 0.032988999 0.048106
0.28716001 0.033433001 0.048611
0.26980001 0.058786999 0.080344997
0.29644999 0.0071848002 0.042465001
0.20957001 0.073054999 0.046349999
0.25716999 -0.018564999 0.026733
0.22646999 0.054443002 0.037266999
0.30041999 -0.0048171999 0.038222998
0.29907 -0.0025919001 0.036692999
0.24897 0.062112998 0.027395001
0.27386999 0.089102 0.040713999
0.29804999 0.015521 0.043419
0.31334999 0.0023845001 0.051440001
0.31426001 0.0055630002 0.051910002
0.30563 0.0096193999 0.048737001
0.30559999 -0.027065 0.042013999
0.30434999 -0.026195001 0.041715
0.28806001 0.089100003 0.063814998
0.32491001 -0.033707 0.038173001
0.32609999 -0.032625999 0.037060998
0.26225999 0.0127 0.028046001
0.31268001 -0.052271999 0.041395999
