# .PCD v0.7 - Point Cloud Data file format
VERSION 0.7
FIELDS x y z
SIZE 4 4 4
TYPE F F F
COUNT 1 1 1
WIDTH 1662
HEIGHT 1
VIEWPOINT 0 0 0 1 0 0 0
POINTS 1662
DATA ascii
0.18212 0.22991 0.26523
0.18983001 0.24585 0.26504001
0.18999 0.24671 0.26429
0.18793 0.2447 0.26449999
0.19044 0.20146 0.25468999
0.19098 0.20225 0.25584999
0.19181 0.20083 0.25698999
0.16053 0.11382 0.26190001
0.16152 0.11442 0.2608
0.16126999 0.11387 0.26154
0.18407001 0.23634 0.26102
0.18336999 0.23664001 0.26166001
0.18385001 0.23667 0.26063001
0.17929 0.23088001 0.27478001
0.17761999 0.23067001 0.27684999
0.17855 0.22949 0.27610001
0.15627 0.24151 0.26591
0.15737 0.24062 0.2667
0.15915 0.24093001 0.26539001
0.12114 0.056141999 0.25233999
0.12105 0.056611001 0.25301999
0.12079 0.057471 0.25029999
0.13383999 0.071763001 0.26078999
0.13364001 0.071505003 0.26196
0.13365 0.072097003 0.26183
0.16328 0.093732998 0.27087
0.11728 0.052126002 0.25523999
0.11841 0.052832998 0.25661999
0.16614 0.16261999 0.27304
0.16452 0.16395 0.27302
0.16485 0.16343001 0.27192
0.17636 0.050241001 0.2947
0.17652 0.049770001 0.29642001
0.17456 0.051002 0.29607999
0.19842 0.056584001 0.31832001
0.19745 0.055675998 0.31891999
0.19825 0.054722 0.31893
0.21506999 0.05243 0.27573001
0.17678 0.15394001 0.28637999
0.17742001 0.15338001 0.28828999
0.17521 0.15195 0.28803
0.17876001 0.17016999 0.26945999
0.17914 0.171 0.27055001
0.17748 0.16918001 0.2701
0.19555999 0.091577001 0.26197001
0.19448 0.093281999 0.26041001
0.19622999 0.092182003 0.26194
0.16389 0.13206001 0.26877001
0.1644 0.13316999 0.26925999
0.16457 0.13327999 0.26761001
0.17693999 0.13417999 0.28353
0.17733 0.13128 0.28334999
0.17773999 0.13225 0.28450999
0.18591 0.11588 0.27256
0.18453 0.11649 0.273
0.18465 0.11542 0.27331001
0.2016 0.085989997 0.25988999
0.20229 0.087090999 0.25814
0.20001 0.086323999 0.25861999
0.16661 0.13426 0.27116999
0.16813999 0.18333 0.27074999
0.16718 0.18362001 0.27213001
0.16659001 0.18086 0.27127999
0.14706001 0.088004 0.26423001
0.14848 0.087475002 0.26388001
0.14826 0.089982003 0.26295
0.17669 0.23916 0.28211999
0.17636999 0.23714 0.28176001
0.17645 0.23845001 0.28058001
0.17151999 0.079616003 0.29887
0.17248 0.079930998 0.30098999
0.17128 0.081051998 0.29879999
0.18251 0.085266002 0.30335
0.18307 0.085176997 0.30094999
0.18173 0.18505 0.26921999
0.18072 0.18471 0.27197
0.18049 0.18283001 0.26929
0.16285001 0.17433999 0.26236001
0.16339999 0.17478 0.26488999
0.16277 0.17519 0.26251
0.18998 0.12676001 0.26043001
0.18791001 0.1245 0.26091999
0.18934999 0.12639999 0.25940001
0.15038 0.061588001 0.27994001
0.1496 0.061207 0.28005999
0.1506 0.060695 0.27974999
0.193 0.15154 0.26539999
0.19320001 0.15041 0.26585001
0.16524 0.24000999 0.27039999
0.16683 0.24083 0.26927999
0.16568001 0.20546 0.26984999
0.16502 0.20602 0.27151999
0.16655999 0.20618001 0.27099001
0.19706 0.075594999 0.30469999
0.16896001 0.18652 0.27987999
0.16923 0.18478 0.28007999
0.17134 0.18657 0.28060001
0.18366 0.23639999 0.26705
0.18554001 0.2357 0.26525
0.18466 0.23679 0.26414001
0.19626001 0.070601001 0.30478999
0.19392 0.070910998 0.30377001
0.19461 0.070951998 0.30544001
0.17072999 0.16597 0.27236
0.16926999 0.16538 0.27237001
0.16988 0.16607 0.27147999
0.17400999 0.14821 0.28827
0.17376 0.14726999 0.28634
0.17570999 0.14484 0.28751001
0.15209 0.082610004 0.27181
0.15199 0.080279 0.26956999
0.13313 0.073170997 0.25795001
0.13333 0.073435999 0.25782001
0.1329 0.074337997 0.25843
0.16315 0.13064 0.26102
0.16373 0.12959 0.25962999
0.16350999 0.13080999 0.25929001
0.18831 0.1104 0.27748001
0.18877 0.11006 0.27524
0.1881 0.11003 0.27581
0.19528 0.10117 0.26431999
0.19423001 0.099212997 0.26462001
0.19442999 0.099384002 0.26503
0.17628001 0.18743999 0.28301001
0.17502999 0.18524 0.28176001
0.17652 0.18513 0.28200999
0.19133 0.14308999 0.26635
0.19103999 0.14133 0.26774001
0.19147 0.14149 0.26677001
0.22587 0.053312998 0.23092
0.22741 0.053174999 0.23103
0.22725999 0.053817999 0.23079
0.19089 0.22169 0.25104001
0.19126999 0.22122 0.25077
0.19196001 0.22082999 0.25044
0.18441001 0.23943999 0.26545
0.18606 0.23873 0.26545
0.18533 0.24029 0.26550999
0.16891 0.18196 0.27258
0.16996001 0.18141 0.27375999
0.16998 0.18131 0.27252001
0.22414 0.050760999 0.23404001
0.22482 0.050459001 0.23491
0.22406 0.050039999 0.23253
0.17563 0.12531 0.27551001
0.17474 0.1259 0.27601999
0.20615999 0.061454002 0.26653001
0.20827 0.061740998 0.26609999
0.20937 0.060873002 0.26622
0.1787 0.21813001 0.28345999
0.17824 0.21815 0.28298
0.17917 0.21815 0.28095999
0.15847 0.22487999 0.25814
0.15487 0.2238 0.25694999
0.15691 0.22561 0.25837001
0.1605 0.099793002 0.2714
0.16274001 0.098301999 0.27403
0.16052 0.099403001 0.27393001
0.1855 0.1567 0.27416
0.18653999 0.15748 0.27340001
0.18739 0.15688001 0.27333
0.17102 0.17877001 0.27364999
0.17253999 0.17737 0.27316999
0.17041001 0.17838 0.27355
0.1629 0.15776999 0.27827001
0.16111 0.15667 0.27869999
0.16315 0.15802 0.27936
0.15985 0.2252 0.27048999
0.16173001 0.2264 0.27081999
0.15994 0.22774 0.27212
0.17964999 0.24661 0.26321
0.17750999 0.24603 0.2617
0.17614 0.24594 0.26334
0.21611001 0.055535998 0.24112
0.21397001 0.056733999 0.24231
0.21328001 0.055659 0.2419
0.15519001 0.18664999 0.25740001
0.15228 0.18711001 0.25659999
0.15441 0.13444 0.26187
0.15487 0.13608 0.26326999
0.15398 0.13535 0.26208001
0.18793 0.12921999 0.27133
0.18852 0.12953 0.27186999
0.15888 0.11772 0.26751
0.15995 0.11686 0.26789999
0.16124 0.11902 0.26846999
0.1672 0.14867 0.2775
0.1666 0.14647 0.27785
0.16635001 0.14741001 0.27879
0.18697999 0.14952999 0.27395001
0.1886 0.14856 0.27383
0.18714 0.15012001 0.27456999
0.1781 0.2165 0.28229001
0.17677 0.21845999 0.28150001
0.19855 0.060635999 0.31298
0.19914 0.061469 0.31154001
0.19824 0.061416 0.31055999
0.17305 0.094870001 0.28138
0.15143999 0.14572001 0.26508999
0.14967 0.14548001 0.26547
0.14967 0.14478999 0.26324001
0.18669 0.15832999 0.26978999
0.18487 0.15800001 0.26929
0.18521 0.15879001 0.27182999
0.17828 0.22397999 0.27151
0.17802 0.22542 0.27195001
0.1786 0.22454 0.27129999
0.19924 0.062550999 0.30515
0.19835 0.063623004 0.30462
0.19942001 0.062638 0.30643001
0.13799 0.081460997 0.26319
0.14052001 0.081583001 0.26495999
0.17389999 0.19377001 0.28331
0.18694 0.13812999 0.26662001
0.18825001 0.13981 0.26636001
0.18873 0.14005999 0.26661
0.15929 0.083043002 0.27972999
0.16012 0.080735996 0.27855
0.18921 0.11274 0.26232001
0.18948001 0.11471 0.26109001
0.18894 0.11479 0.26126
0.16957 0.052308001 0.29108
0.16975001 0.053589001 0.28931999
0.1699 0.051479999 0.29097
0.16289 0.20176999 0.26618999
0.18931 0.057528 0.31918001
0.18945 0.056880001 0.31990001
0.18889 0.057659 0.31935999
0.18062 0.23894 0.27072001
0.1794 0.23857 0.26956999
0.18184 0.23808999 0.26930001
0.14805999 0.14934 0.25522
0.14658 0.1503 0.25391999
0.14734 0.15141 0.25299001
0.19183999 0.13233 0.24049
0.19310001 0.13224 0.24260999
0.17110001 0.17015 0.27357
0.17174999 0.16863 0.27418
0.17158 0.17005999 0.27372
0.19892 0.060513001 0.30193999
0.19964001 0.060975999 0.30320001
0.19611 0.061933 0.30201
0.17752001 0.21448 0.28003001
0.18047 0.21526 0.27991
0.16542999 0.13885 0.273
0.16316999 0.13736001 0.27109
0.16671 0.13875 0.27186
0.19489001 0.087480001 0.28990999
0.19303 0.089107998 0.29146999
0.19359 0.087673999 0.29122001
0.18483999 0.099428996 0.27559
0.18503 0.098251 0.27652001
0.18516999 0.096924998 0.27517
0.16415 0.23339 0.26655999
0.16394 0.23345 0.26398
0.17526001 0.21213 0.28211999
0.17843001 0.21404999 0.28044999
0.17568 0.21414 0.28167
0.16359 0.17748 0.27088001
0.16242 0.17734 0.27024001
0.16495 0.17708001 0.26916
0.14748999 0.075654 0.26758999
0.14825 0.076117001 0.26809001
0.14621 0.077104002 0.26585001
0.15563001 0.17931999 0.26258001
0.15535 0.18066999 0.26196
0.15514 0.18006 0.26174
0.17054 0.20727 0.28062999
0.17078 0.20881 0.27991
0.17038999 0.20931 0.28143999
0.15261 0.20100001 0.26366001
0.15232 0.1999 0.26418999
0.17948 0.21538 0.27843001
0.17962 0.21496999 0.27789
0.17974 0.21651 0.28027001
0.14408 0.089947999 0.25435001
0.14529 0.090617999 0.25519001
0.14559001 0.089110002 0.25465
0.1797 0.24117 0.27044001
0.18001001 0.24288 0.27133
0.19160999 0.058770999 0.31674999
0.19165 0.059551999 0.31535
0.19051 0.059312001 0.31542
0.18464001 0.091116004 0.28953999
0.18453 0.092192002 0.289
0.19348 0.092602 0.26530001
0.19189 0.091821 0.26596999
0.19208001 0.090645999 0.26497
0.17738999 0.23071 0.27899
0.17592999 0.23104 0.27972999
0.17634 0.23039 0.28025001
0.11934 0.052262999 0.26007
0.12086 0.052062001 0.26203001
0.12019 0.052145001 0.26161999
0.20877001 0.049492002 0.2886
0.16022 0.22545999 0.26898
0.16022 0.22802 0.26774999
0.15861 0.22660001 0.26725999
0.17225 0.063821003 0.29188001
0.17141999 0.064347997 0.29111001
0.17012 0.063868001 0.28997001
0.18023001 0.064909004 0.31031001
0.18024001 0.065646999 0.30921
0.17868 0.064984001 0.3114
0.15407 0.18418001 0.25705001
0.16164 0.18856999 0.27235001
0.16201 0.18889999 0.27339
0.16042 0.19693001 0.27146
0.16211 0.1974 0.27052
0.15689 0.19699 0.26973
0.13544001 0.063299 0.25850999
0.13613001 0.064053997 0.25756001
0.13745999 0.063878998 0.25955001
0.1943 0.13534001 0.24929
0.19414 0.13420001 0.24694
0.17515001 0.15944 0.27293
0.17654 0.16075 0.27522999
0.17738999 0.15910999 0.27563
0.18465 0.13606 0.28608999
0.18478 0.13860001 0.28604999
0.18481 0.1372 0.28659999
0.17903 0.091298997 0.28806001
0.16828001 0.20736 0.27373999
0.16711999 0.20547 0.27489999
0.16855 0.20724 0.27539
0.17910001 0.071639001 0.30474001
0.18047 0.073242001 0.30384001
0.17993 0.073063999 0.30337
0.19334 0.14733 0.26517001
0.19385999 0.14888 0.26457
0.14275999 0.086375996 0.26482999
0.14416 0.085670002 0.26626
0.14411999 0.086924002 0.26442999
0.15205 0.057913002 0.28529999
0.15364 0.058502998 0.28318
0.20548999 0.050926 0.28817001
0.20748 0.050785001 0.28780001
0.15350001 0.12108 0.26783001
0.15555 0.12163 0.26791999
0.1547 0.11999 0.2667
0.1771 0.23283 0.27542999
0.17560001 0.23187999 0.27768001
0.17856 0.23202001 0.27608001
0.17201 0.23229 0.27373999
0.17033 0.23228 0.27645001
0.17448001 0.074911997 0.29999
0.17325 0.24675 0.27645001
0.17351 0.24587999 0.27904001
0.16498999 0.062189002 0.29082999
0.16495 0.060608 0.29109001
0.16511001 0.061085001 0.29170999
0.19512001 0.1137 0.26028001
0.19451 0.11236 0.25871
0.19420999 0.11266 0.26069
0.14624 0.14687 0.25937
0.14594001 0.14796001 0.25714001
0.14636 0.14721 0.25760001
0.17765 0.058065999 0.30680999
0.17693 0.058373999 0.30581999
0.17549001 0.090338998 0.28127
0.17354 0.090934999 0.28209999
0.17411 0.09149 0.28297001
0.18685 0.13756999 0.26438001
0.18746001 0.13694 0.26774999
0.18772 0.13809 0.26773
0.18919 0.13386001 0.25766
0.18833999 0.13296001 0.25909999
0.19017 0.13384999 0.25953999
0.20704 0.061209999 0.28534999
0.20646 0.060134999 0.28481999
0.18647 0.11927 0.26216999
0.18491 0.11934 0.2613
0.18528 0.11918 0.26073
0.18574999 0.16942 0.25351
0.18447 0.1665 0.25266999
0.18588001 0.16665 0.25314999
0.15792 0.19022 0.26947999
0.156 0.19213 0.26758999
0.15816 0.19175 0.26729
0.18167 0.19543 0.2825
0.18027 0.19631 0.28240001
0.17972 0.19542 0.28275001
0.18472999 0.24420001 0.26668999
0.18551999 0.24360999 0.26769999
0.20042001 0.080954999 0.26569
0.1991 0.081246004 0.26743999
0.19959 0.080017 0.26600999
0.21584 0.059243001 0.24180999
0.21808 0.059556 0.24049
0.18605 0.16586 0.26743999
0.18661 0.16734999 0.26550999
0.18594 0.16677 0.26547
0.15633 0.085323997 0.26877001
0.15588 0.085316002 0.26783001
0.15530001 0.085230999 0.26605001
0.17842001 0.083182 0.30464
0.18006 0.082888 0.30294001
0.13499001 0.085557997 0.25464001
0.13673 0.085708 0.2545
0.13680001 0.086116001 0.25283
0.18396001 0.11932 0.27169001
0.18298 0.11973 0.27228001
0.18359999 0.11921 0.2735
0.15809999 0.20017 0.26973999
0.15803 0.20286 0.27033001
0.15726 0.20213 0.26795
0.17865001 0.16068999 0.27568001
0.18029 0.16031 0.27634999
0.15907 0.24335 0.26251
0.13677 0.080967002 0.26301
0.13742 0.081303 0.26140001
0.13768999 0.082029 0.26229
0.17963 0.053319 0.31817001
0.18029 0.054598 0.31911999
0.21308 0.071324997 0.23882
0.2113 0.069972999 0.24142
0.21287 0.07119 0.24018
0.19473 0.085414 0.29084
0.19576 0.084734 0.29179999
0.19469 0.083651997 0.29135999
0.19128001 0.24028 0.24874
0.19112 0.23995 0.24933
0.18991999 0.24098 0.24834999
0.18914001 0.19609 0.26073
0.18754999 0.19697 0.25996
0.18585999 0.19473 0.26003
0.15657 0.17918 0.26212999
0.15685 0.18113001 0.26223001
0.17730001 0.24144 0.28149
0.17589 0.24146999 0.28033999
0.17457999 0.24308001 0.28101
0.1613 0.21604 0.2744
0.16279 0.21602 0.27473
0.16083001 0.21686999 0.27482
0.21221 0.055978 0.28241
0.21223 0.057734001 0.28213
0.21279 0.055399001 0.28351
0.21832 0.060125999 0.23819999
0.17465 0.207 0.28303
0.17533 0.20514999 0.28314999
0.17484 0.20566 0.2823
0.18955 0.24324 0.25353
0.19199 0.2439 0.25400001
0.19024 0.24379 0.25296
0.15181001 0.12405 0.26175001
0.15362 0.12354 0.26251
0.16808 0.20197999 0.27287999
0.16845 0.20004 0.27259001
0.16861001 0.20298 0.27360001
0.17321999 0.098498002 0.27847001
0.17112 0.098356001 0.27943999
0.16142 0.17175999 0.25723001
0.16075 0.1698 0.25604001
0.16169 0.17047 0.25718999
0.16326 0.13975 0.27322
0.16333 0.13889 0.27296001
0.16505 0.13756999 0.27361
0.16252001 0.11525 0.26962
0.1593 0.11629 0.26896
0.16013999 0.1137 0.26837999
0.183 0.19228999 0.28029001
0.18237001 0.19230001 0.28266001
0.15818 0.11506 0.26618001
0.15899 0.11474 0.26596001
0.19660001 0.11307 0.26291999
0.19639 0.11214 0.26412001
0.19573 0.11231 0.26157001
0.18960001 0.10324 0.27287999
0.18804 0.10554 0.27146
0.1327 0.065966003 0.26021001
0.13541 0.066666 0.26133001
0.13349999 0.067659996 0.26172
0.17504001 0.16844 0.27507001
0.18286 0.090935998 0.29139
0.18559 0.090783 0.28996
0.18324 0.091968998 0.29084
0.155 0.05373 0.29563999
0.15419 0.053902999 0.29469001
0.15419 0.053567 0.2965
0.17028999 0.24725001 0.28167999
0.17275999 0.24487001 0.28099
0.17279001 0.24676999 0.28253999
0.17281 0.098062001 0.27969
0.17196 0.099738002 0.27801999
0.18321 0.059082001 0.31441
0.18404 0.059601001 0.31369001
0.18055999 0.058812998 0.31332001
0.16145 0.14283 0.27724001
0.16061001 0.14184999 0.27528
0.16269 0.14192 0.27592999
0.16248 0.18239 0.26876
0.16279 0.18424 0.26896
0.1647 0.18221 0.26763999
0.20057 0.0572 0.28694001
0.20219 0.057394002 0.28755
0.20216 0.059211999 0.28602001
0.17715999 0.21443 0.28097001
0.17670999 0.21538 0.28255001
0.17867 0.087334 0.29543999
0.17643 0.087869003 0.29505
0.17054 0.078579001 0.29343
0.17193 0.078565001 0.29519001
0.16170999 0.21448 0.27487001
0.1619 0.21269999 0.27184999
0.1609 0.21445 0.27287
0.1918 0.15742999 0.25154001
0.18128 0.050108999 0.32293999
0.18125001 0.050542999 0.32216001
0.18425 0.049226001 0.32245001
0.13180999 0.086323999 0.25411001
0.13083 0.085421003 0.25442001
0.17294 0.13741 0.28571001
0.1737 0.13939001 0.28634
0.17214 0.13954 0.28432
0.15344 0.060692001 0.27961001
0.15195 0.061934002 0.28196999
0.15403 0.062930003 0.28024
0.13621999 0.069370002 0.26118001
0.13806 0.067723997 0.26166999
0.13641 0.068715997 0.26326999
0.15006 0.14523 0.26438999
0.18866999 0.11403 0.26503
0.1884 0.11412 0.26631999
0.18968 0.11519 0.26585001
0.19205 0.14049 0.26194999
0.19143 0.13798 0.26212999
0.19018 0.13794 0.26251
0.14803 0.052232001 0.28665999
0.14912 0.051456999 0.28648001
0.19533999 0.062705003 0.29538
0.19320001 0.064267002 0.29584
0.19396 0.062881999 0.29628
0.15064 0.092235997 0.25213
0.14938 0.090015002 0.25003001
0.14925 0.091026999 0.2527
0.16591001 0.060844999 0.29078001
0.12982 0.053715002 0.26170999
0.12823001 0.055355001 0.26198
0.1275 0.054554999 0.26368999
0.18651 0.23511 0.26445001
0.18773 0.233 0.26343
0.17154001 0.2102 0.27759001
0.17144001 0.2106 0.27796999
0.17089 0.20988999 0.27798
0.16670001 0.064346999 0.28977001
0.16677999 0.065834999 0.28889999
0.16804001 0.06628 0.28928
0.17878 0.15492 0.28580999
0.17655 0.15701 0.28509
0.17643 0.1568 0.28674999
0.1929 0.089818001 0.26907
0.19293 0.089749999 0.26783001
0.19361 0.089956 0.26715001
0.16511001 0.12624 0.26728001
0.16621 0.12702 0.26751
0.16696 0.12758 0.26758999
0.15837 0.22335 0.26989999
0.15714 0.22255 0.26734
0.15906 0.22149999 0.26934999
0.15913001 0.071230002 0.28055
0.16068 0.071994998 0.28046
0.15931 0.071836002 0.27914
0.19968 0.081243001 0.27034
0.199 0.079163998 0.26897001
0.19821 0.081592999 0.26894
0.20051999 0.060424 0.31341001
0.20107 0.060056999 0.31330001
0.19972999 0.061917 0.31303999
0.14968 0.085199997 0.26747999
0.14928 0.086810999 0.26705
0.15041 0.085107997 0.26859
0.15096 0.087176003 0.24868
0.15137 0.088361003 0.24846999
0.15084 0.089137003 0.24913
0.12754001 0.055895999 0.26269001
0.12737 0.054848 0.26345
0.12763 0.053523999 0.26122999
0.17614 0.14161 0.28837001
0.20705999 0.063827999 0.27677
0.2061 0.061310001 0.27590999
0.20599 0.062937997 0.27522001
0.1902 0.13873 0.26594999
0.17753001 0.1319 0.28749999
0.17731 0.13535 0.28632
0.16531 0.088226996 0.27739999
0.16484 0.086534001 0.27706999
0.16406 0.087329 0.27801001
0.18003 0.17478999 0.27371001
0.17962 0.17569 0.27493
0.18104 0.17472 0.27656999
0.14991 0.062150002 0.27976999
0.15726 0.17380001 0.26115999
0.15861 0.17292 0.26242
0.16721 0.23935001 0.27263001
0.16607 0.23868001 0.27358001
0.1674 0.23885 0.27160001
0.12066 0.056839 0.25343001
0.12238 0.057661999 0.25102001
0.19047999 0.23558 0.24659
0.1895 0.23622 0.24666999
0.18849 0.23556 0.24729
0.19888 0.074120998 0.30436999
0.19819 0.072204001 0.30404001
0.19785 0.071443997 0.30486
0.15627 0.19686 0.26565
0.15505999 0.19564 0.26467001
0.12995 0.081086002 0.25911
0.13004 0.079139002 0.25924
0.12978999 0.081749998 0.25909999
0.14812 0.14895 0.26442
0.14898001 0.14854001 0.26372999
0.15142 0.050544001 0.29183
0.15286 0.051307999 0.29347
0.15034001 0.050811999 0.29223999
0.15883 0.086568996 0.27041
0.17566 0.071952999 0.29413
0.17359 0.070881002 0.29479
0.17455 0.071291 0.29488
0.17648 0.1417 0.28848001
0.17745 0.14218 0.28782001
0.17693999 0.14372 0.2881
0.18275 0.19923 0.27603
0.18241 0.20061 0.27612999
0.18319 0.20084 0.27706999
0.17395 0.056488 0.29319999
0.17584001 0.056784 0.29159999
0.17508 0.053645998 0.29107001
0.20429 0.056575999 0.31055
0.20463 0.058402002 0.30886
0.20474 0.058107998 0.30981001
0.16294 0.097323999 0.27377999
0.16373999 0.097194999 0.27518001
0.17061 0.099909998 0.27882001
0.17858 0.24462999 0.25587001
0.17881 0.24413 0.25656
0.18024001 0.24422 0.25903001
0.17566 0.11469 0.27897999
0.17557 0.1129 0.28014001
0.15976 0.17482001 0.26265001
0.16181 0.1759 0.26339
0.15851 0.17542 0.26378
0.15837 0.096236996 0.26712
0.15696 0.096468002 0.26664999
0.1574 0.096395999 0.26706001
0.13755 0.075223997 0.26100999
0.13850001 0.074803002 0.26058999
0.13675 0.076132998 0.26196
0.21482 0.064741999 0.23901001
0.21517999 0.064012997 0.23875999
0.2154 0.064522997 0.2405
0.1754 0.12026 0.27441001
0.17518 0.12231 0.27695
0.16484 0.20322999 0.27116001
0.16617 0.20245001 0.27221
0.16573 0.20409 0.27131999
0.15990999 0.22925 0.26877001
0.15967999 0.22713999 0.26853999
0.16218001 0.22925 0.27114999
0.16500001 0.16924 0.26925001
0.16642 0.16938999 0.26980999
0.16706 0.16856 0.27061
0.19358 0.060453001 0.31294999
0.19517 0.060591001 0.31494001
0.13617 0.072636001 0.25951001
0.13536 0.072885998 0.26043001
0.13451999 0.072929002 0.26115
0.15471999 0.24507 0.25646999
0.12482 0.057868 0.26056999
0.12345 0.055810001 0.26194
0.12646 0.055404998 0.26254001
0.18174 0.1402 0.29003999
0.18163 0.13925999 0.28830999
0.18203001 0.14182 0.28887001
0.18961 0.20647 0.25990999
0.18805 0.20409 0.26023999
0.18657 0.20603 0.26143
0.18432 0.13652 0.28753999
0.18401 0.13336 0.28757
0.18408 0.13356 0.28652999
0.1621 0.12582999 0.25889999
0.16161001 0.1244 0.25979999
0.16162001 0.12482 0.25979999
0.16085 0.22596 0.27054
0.16044 0.22689 0.27065
0.17096999 0.092436999 0.27906999
0.17128 0.094873004 0.27945
0.19243 0.15827 0.25795999
0.18976 0.15726 0.25685
0.19042 0.15662999 0.25898999
0.20460001 0.066361003 0.27406001
0.20446 0.065563999 0.27335
0.20321 0.067235999 0.27214
0.17467 0.22047 0.28020999
0.17694999 0.22293 0.28093001
0.17522 0.22093 0.28009999
0.16011 0.080622002 0.27915999
0.16102999 0.079213001 0.27972999
0.18747 0.073661 0.30612999
0.18513 0.073973998 0.30441999
0.18591 0.072571002 0.30601999
0.21435 0.074758001 0.23380999
0.21458 0.073958002 0.23349001
0.21543001 0.075263001 0.23477
0.15919 0.1205 0.26390001
0.15933999 0.12229 0.26451001
0.15832999 0.12268 0.26199001
0.16045 0.064433999 0.29025999
0.16157 0.066100001 0.29102001
0.15944 0.065402001 0.29012999
0.19457 0.090333 0.26438999
0.19502001 0.089304 0.26317
0.18201999 0.20740999 0.27586001
0.18316001 0.20646 0.27761
0.18351001 0.20801 0.27770999
0.17378999 0.24448 0.28053999
0.18867999 0.24375001 0.25553
0.18653999 0.24171001 0.25446001
0.18973 0.24169999 0.25431001
0.15695 0.15589 0.27094001
0.15734001 0.15657 0.27107999
0.15734001 0.15714 0.27048001
0.15488 0.20246001 0.26475
0.15704 0.20112 0.26589999
0.15601 0.20283 0.26761001
0.1543 0.067496002 0.28290999
0.15685999 0.065355003 0.28400001
0.15638 0.066483997 0.28402001
0.17699 0.11417 0.28095999
0.17823 0.11382 0.28011999
0.14701 0.13142 0.25747001
0.14675 0.13183001 0.25843
0.14740001 0.13269 0.25839001
0.164 0.16937 0.26923001
0.16281 0.17088 0.27022001
0.16407999 0.17252 0.26923999
0.15627 0.19796 0.25606
0.15512 0.19884001 0.25533
0.15697999 0.19857 0.25595
0.15270001 0.20063999 0.26435
0.16877 0.085225999 0.28202999
0.16978 0.08506 0.28321001
0.16823 0.085486002 0.28455001
0.22383 0.055553999 0.22781999
0.22529 0.056813002 0.22855
0.22355001 0.056522001 0.22795001
0.17733 0.05951 0.30215001
0.17876001 0.058781002 0.29914001
0.17767 0.059138 0.29815999
0.18336 0.14132001 0.289
0.18398 0.14241999 0.28716001
0.18217 0.14069 0.28802001
0.19295 0.087582998 0.26876
0.19179 0.085957997 0.27028999
0.17606001 0.10582 0.27767
0.17989001 0.051449999 0.31953999
0.18353 0.051392 0.32207999
0.1891 0.23129 0.26519999
0.18889 0.23157001 0.26495001
0.13764 0.086943999 0.24942
0.16429 0.15752 0.27443001
0.16471 0.16023 0.27417001
0.16517 0.12662999 0.26818001
0.16279 0.12591 0.26984
0.16328 0.1257 0.26738
0.1508 0.087306 0.26817
0.15112001 0.087284997 0.26969001
0.15199 0.087507002 0.26809001
0.2052 0.053957 0.28604999
0.20442 0.054331999 0.28731999
0.20389 0.05517 0.28773001
0.16989 0.051367 0.29008999
0.16934 0.048544001 0.29010001
0.16007 0.077160001 0.27810001
0.1587 0.080266997 0.28040999
0.15905 0.079320997 0.27993
0.19595 0.098109998 0.26293999
0.19479001 0.097498 0.26295999
0.19481 0.096382998 0.26313001
0.18119 0.19209 0.27561
0.1811 0.19276001 0.27717
0.18118 0.19199 0.27555999
0.16402 0.12093 0.26644999
0.16633999 0.12123 0.26774999
0.20361 0.064884 0.28077999
0.20287 0.064808004 0.28141001
0.18051 0.057730999 0.31654999
0.17946 0.055934999 0.31624001
0.17867 0.055371001 0.31553
0.18656 0.10933 0.27735001
0.18463001 0.10978 0.27879
0.18215001 0.10868 0.27809
0.16666999 0.11708 0.26989001
0.16856 0.11699 0.26798001
0.16635001 0.11686 0.26842999
0.20122001 0.05161 0.31742999
0.20191 0.051089 0.31898999
0.20061 0.052575 0.31742999
0.16389 0.074084997 0.28687999
0.16664 0.072347999 0.28806001
0.16546001 0.073293999 0.2877
0.20025 0.079432003 0.25992
0.20146 0.080199003 0.25988001
0.20123 0.079048 0.26025999
0.15558 0.23447999 0.26449999
0.1569 0.23425999 0.26424
0.15632001 0.23523 0.26501
0.16700999 0.089042999 0.27913001
0.16822 0.090023004 0.28115001
0.16745999 0.090425 0.27994999
0.13921 0.087892003 0.25134999
0.13948999 0.087242998 0.25173
0.18698999 0.14578 0.27914
0.1856 0.14646 0.2807
0.18587001 0.14384 0.27858999
0.15003 0.053764001 0.28615999
0.14963 0.055534001 0.28806001
0.15087999 0.055725999 0.28551
0.19937 0.083594002 0.26809999
0.19769 0.081990004 0.26835001
0.1983 0.082299002 0.26786
0.16019 0.21867999 0.27208999
0.16238999 0.21652 0.27322
0.16153 0.21819 0.27204999
0.18677001 0.1938 0.26783001
0.1867 0.19538 0.26842001
0.18683 0.19562 0.26914001
0.19444001 0.13913 0.24363001
0.21301 0.058084 0.27447999
0.2113 0.058607001 0.27485001
0.19287001 0.050485 0.32069001
0.19317 0.050386 0.32113001
0.19323 0.051309999 0.31985
0.19171 0.095931999 0.26778999
0.19158 0.093964003 0.26879001
0.19187 0.094834998 0.26824999
0.12888999 0.082896002 0.25591001
0.12964 0.083026998 0.25538999
0.18803 0.21652 0.25448
0.18819 0.21685 0.25521001
0.18806 0.21724001 0.25457999
0.18302999 0.15944 0.27807999
0.18475001 0.15837 0.27858999
0.18358 0.15651999 0.27823001
0.15778001 0.066150002 0.28689
0.15778001 0.066937 0.2861
0.15804 0.066595003 0.28573
0.15673 0.073944002 0.27642
0.15592 0.075015001 0.27445999
0.15746 0.07361 0.27573001
0.18089999 0.1963 0.27171999
0.18107 0.19654 0.27254999
0.18169001 0.1953 0.27241001
0.16869999 0.075770997 0.29036
0.16862001 0.075487003 0.29043001
0.16806 0.074649997 0.28992999
0.18126 0.24075 0.26899999
0.1824 0.23766001 0.26752999
0.18234 0.23901001 0.26710001
0.21527 0.051897999 0.26615
0.21555001 0.052141 0.26514
0.18713 0.088850997 0.28885999
0.1864 0.091476001 0.28907001
0.18685 0.089029998 0.2897
0.16037001 0.22789 0.26944
0.15947001 0.226 0.26909
0.14534 0.050870001 0.28845999
0.19001999 0.056743 0.32001999
0.17365 0.093947999 0.28327
0.15259001 0.2141 0.25702
0.15454 0.21416999 0.25922999
0.1551 0.21615 0.26010999
0.18255 0.058931999 0.31562001
0.18254 0.059723001 0.31507
0.18125001 0.058166001 0.31450999
0.14642 0.070538998 0.26456001
0.14624999 0.070095003 0.26585999
0.14614999 0.068199001 0.26508999
0.15431 0.21780001 0.25914001
0.15299 0.21887 0.26038
0.15323 0.21847001 0.25946
0.1841 0.16885 0.25911999
0.18119 0.16953 0.25838
0.18003 0.16913 0.25746
0.18175 0.13067999 0.28871
0.18100999 0.22160999 0.2798
0.15023001 0.053141002 0.28981999
0.1506 0.052340999 0.29062
0.18627 0.062024001 0.30662999
0.18855999 0.060465001 0.30745
0.18915001 0.060185999 0.30469999
0.17517 0.062835999 0.29282999
0.17214 0.064346001 0.29291001
0.17399 0.063399002 0.29143
0.20196 0.071234003 0.26492
0.20190001 0.071193002 0.26543
0.20404001 0.070819996 0.26289999
0.16715001 0.12834001 0.27346
0.16838001 0.12943 0.27388999
0.16802999 0.12966 0.27215999
0.15539999 0.077762999 0.27287
0.16996001 0.23878001 0.27386999
0.17027999 0.2379 0.27511999
0.17091 0.23893 0.27595001
0.19167 0.11348 0.27045
0.19234 0.11369 0.26964
0.19205999 0.114 0.27342999
0.1283 0.065003 0.26247001
0.12915 0.065559 0.26091999
0.13059001 0.067463003 0.2617
0.16486999 0.096100003 0.27316999
0.16497 0.096802004 0.27575999
0.17904 0.072581001 0.30737001
0.17833 0.073246002 0.30636001
0.17961 0.071555004 0.30627
0.14729001 0.057172 0.28455999
0.14753 0.058603 0.2834
0.16483 0.19102 0.27476001
0.16147999 0.19001999 0.27439001
0.16252001 0.18975 0.27533001
0.1569 0.10784 0.26449001
0.15640999 0.10454 0.26299
0.15524 0.10647 0.26613
0.16167 0.14193 0.27445999
0.15934999 0.13846999 0.27427
0.16082001 0.14026999 0.27298
0.19125 0.10321 0.27147999
0.1925 0.10445 0.27155
0.17900001 0.1777 0.27083001
0.17772999 0.17822 0.27291
0.17839999 0.17574 0.27265999
0.19077 0.15796 0.26583999
0.18745001 0.15888 0.26456001
0.18904001 0.15741999 0.26747
0.16162001 0.13947999 0.27401
0.16222 0.13892999 0.27355999
0.16263001 0.13912 0.27432001
0.16622999 0.11532 0.26730999
0.16423 0.11612 0.26817
0.1638 0.1161 0.26787999
0.15601 0.13643999 0.26278001
0.15561999 0.13734999 0.26271001
0.15468 0.13459 0.26076001
0.21180999 0.077453002 0.24405
0.21261001 0.075886004 0.24461
0.21329001 0.077978998 0.2429
0.15594 0.19554999 0.26482999
0.15763 0.19459 0.26609001
0.15769 0.19749001 0.26571
0.21641 0.050081 0.26756001
0.21541999 0.049463 0.26773
0.17964999 0.23124 0.27654001
0.17918999 0.23078001 0.27625
0.17889 0.23176 0.27596
0.19943 0.081905 0.26681
0.16769999 0.12673999 0.27377999
0.16725001 0.12517001 0.27267
0.16923 0.12637 0.27533001
0.17363 0.22111 0.27996999
0.17499 0.21981999 0.28015
0.17367999 0.22224 0.28051001
0.18854 0.12073 0.25661999
0.18802001 0.11824 0.25562
0.18697 0.11939 0.25643
0.13539 0.058564 0.25114
0.13489 0.060288001 0.24913999
0.13604 0.058869001 0.24993999
0.16238999 0.13897 0.27282
0.17462 0.1138 0.27858001
0.17436001 0.11521 0.27680999
0.16790999 0.19594 0.27875999
0.15471999 0.12707999 0.25788
0.15423 0.12673 0.25601
0.15299 0.12474 0.25648999
0.14896999 0.15305001 0.26442
0.14817999 0.15561999 0.26409999
0.14759 0.15475 0.26398
0.18819 0.12865999 0.27559
0.18837 0.12797 0.27516001
0.18972 0.12948 0.27426001
0.18605 0.16471 0.27034
0.18627 0.16457 0.26883999
0.18449 0.16463999 0.26767001
0.21468 0.06143 0.23578
0.21365 0.060047999 0.23731001
0.2138 0.061043002 0.23678
0.19032 0.13952 0.26326999
0.19061001 0.13941 0.26381999
0.18987 0.1392 0.26392999
0.16444001 0.17637999 0.26339
0.16234 0.17479999 0.26295
0.18528 0.21084 0.27173999
0.18385001 0.21007 0.27307001
0.18440001 0.21233 0.27237999
0.18613 0.088661999 0.30733001
0.18612 0.085813999 0.30857
0.18602 0.087297 0.30856001
0.18361001 0.059928998 0.31145
0.17732 0.10029 0.28080001
0.17806 0.098543003 0.28187001
0.18065999 0.098568 0.28224999
0.17626999 0.23115 0.27647001
0.1779 0.2288 0.27497
0.18297 0.13767999 0.28683001
0.18332 0.1355 0.28696001
0.18346 0.13708 0.28735
0.13835999 0.083412997 0.25536999
0.13827001 0.084928997 0.25565001
0.15931 0.092382997 0.26908001
0.16157 0.091586001 0.27153999
0.15987 0.091068 0.26984
0.18906 0.15748 0.26456001
0.18875 0.15789001 0.26302999
0.16113999 0.15621001 0.27381
0.20427001 0.088522002 0.24819
0.20621 0.087503999 0.24924999
0.16057999 0.070446 0.28343999
0.16086 0.070736997 0.28388
0.17984 0.23024 0.26662001
0.17962 0.23013 0.26765001
0.16467001 0.21558 0.27377
0.16428 0.21594 0.27735001
0.16585 0.21654999 0.27564001
0.13235 0.077132002 0.26221001
0.14830001 0.051812999 0.2872
0.18531001 0.13485999 0.28382999
0.18531001 0.13581 0.28176001
0.18521 0.1362 0.28288001
0.20719001 0.053612001 0.28762999
0.2077 0.054414 0.28847
0.15497001 0.11134 0.26571
0.15507001 0.10889 0.26546001
0.15576001 0.10909 0.26728001
0.16586 0.11687 0.26761001
0.1675 0.11704 0.26782
0.16595 0.21544001 0.27518001
0.16316 0.21887 0.27239001
0.16458 0.21641 0.27463001
0.16850001 0.21984001 0.27342001
0.16893999 0.22265001 0.27241999
0.16675 0.22184999 0.27173001
0.16021 0.1539 0.27746999
0.15965 0.15429001 0.27976999
0.15965 0.15273 0.27807999
0.13395999 0.081147 0.26117
0.13519999 0.082310997 0.25992
0.13485999 0.081967004 0.26072001
0.1577 0.10301 0.2694
0.17546 0.087278001 0.29795
0.18592 0.14116 0.28044999
0.18567 0.13988 0.28112
0.18437 0.13987 0.27945
0.19095001 0.11228 0.27353999
0.19042 0.11223 0.27489999
0.18986 0.085318998 0.30792999
0.18988 0.086387001 0.30768001
0.18856999 0.08636 0.30932999
0.15113001 0.15577 0.26617
0.18323 0.24331 0.26690999
0.18246999 0.24392 0.26844999
0.15491 0.20953999 0.26271001
0.156 0.20898999 0.2642
0.15463001 0.21010999 0.26209
0.14999001 0.082264997 0.26952001
0.1517 0.081009999 0.26791999
0.15048 0.080440998 0.2687
0.21037 0.059625998 0.28169
0.20951 0.059154999 0.28088999
0.15887 0.13642 0.26791999
0.15961 0.13677999 0.26912999
0.15978999 0.13869999 0.26798001
0.17618001 0.056072 0.29649001
0.17660999 0.05607 0.29797
0.17621 0.057059001 0.29800999
0.17422999 0.11346 0.28167
0.13767999 0.078254998 0.26374
0.13728 0.076736003 0.26446
0.13809 0.076839 0.26372999
0.15731999 0.13398001 0.25966001
0.15748 0.13494 0.26076999
0.15552001 0.13417 0.26069999
0.18208 0.24607 0.26273
0.18203001 0.24462999 0.26253
0.18198 0.24518 0.26140001
0.18791001 0.083976001 0.30050999
0.18983001 0.086962 0.30230001
0.18897 0.085391998 0.30281001
0.18069001 0.22834 0.26794001
0.18102001 0.22671001 0.26822001
0.18083 0.22857 0.26787001
0.20891 0.061996002 0.26923001
0.17868 0.11671 0.27061999
0.17777 0.11861 0.27004999
0.17814 0.11698 0.27013999
0.22782999 0.05147 0.22987001
0.22735 0.052292999 0.22837999
0.22770999 0.052138999 0.22902
0.15673 0.10493 0.26488
0.15757 0.10621 0.26488999
0.19310001 0.1576 0.25645
0.19404 0.15683 0.25674
0.19422001 0.15696999 0.25540999
0.18100999 0.21453001 0.27024001
0.18155999 0.21326999 0.26921001
0.182 0.21292999 0.26980999
0.21456 0.077202 0.23333
0.21675 0.076857001 0.23513
0.15719999 0.21723001 0.26161
0.15764999 0.21732 0.26084
0.13097 0.052510999 0.26196
0.13133 0.051162001 0.26207
0.13222 0.050455999 0.26188001
0.20186 0.086737998 0.25141999
0.20159 0.087387003 0.24944
0.2015 0.086836003 0.25031999
0.15125 0.076387003 0.26995999
0.1521 0.075387999 0.27114001
0.13965 0.083187997 0.26087001
0.14065 0.082953997 0.26111001
0.13977 0.084486999 0.26129001
0.17595001 0.086741 0.29574001
0.17708001 0.087784998 0.29725999
0.17714 0.0858 0.2969
0.17043 0.068497002 0.29031
0.17066 0.066779003 0.28871
0.17038 0.067387998 0.28931001
0.15013 0.12808 0.25997001
0.15004 0.12709001 0.26007
0.14929999 0.12571 0.26038
0.1436 0.050282001 0.2845
0.14353 0.051663 0.28467
0.14414001 0.050425999 0.28411999
0.19070999 0.15874 0.27098
0.18946999 0.15825 0.27162999
0.19092 0.15696 0.27236
0.16074 0.21388 0.27382001
0.16184001 0.21486001 0.27437001
0.16101 0.2137 0.27326
0.18517999 0.10948 0.27728
0.17045 0.15186 0.28191999
0.16735999 0.15116 0.28105
0.16743 0.15039 0.28
0.19600999 0.060178999 0.31413999
0.19532999 0.060766999 0.31305
0.19649 0.059656002 0.31363001
0.19191 0.15592 0.26835999
0.19267 0.15764999 0.26962
0.19156 0.15706 0.27031001
0.16452999 0.20688 0.26876
0.16441 0.20422 0.26769999
0.16369 0.2041 0.26958001
0.16534001 0.22181 0.27057001
0.16226999 0.22265001 0.26945001
0.16372 0.22037999 0.27024001
0.18467 0.17654 0.26269999
0.18636 0.17719001 0.26247999
0.1576 0.067262001 0.28453001
0.15735 0.066657998 0.28411001
0.15148 0.15876 0.25731
0.15164 0.15800001 0.25784999
0.1525 0.051302001 0.29028001
0.15116 0.053969 0.29126999
0.21923 0.053417999 0.24011999
0.21798 0.054381002 0.24147999
0.21837001 0.052212998 0.23912001
0.16827001 0.13789999 0.27373001
0.17184 0.093406998 0.28088
0.17244001 0.093725003 0.27893999
0.1714 0.092923999 0.27893001
0.18923 0.13346 0.27322999
0.13146999 0.076521002 0.25455001
0.13202 0.076807998 0.25540999
0.13354 0.077032998 0.25619
0.15800001 0.18142 0.26238999
0.16013999 0.18139 0.26230001
0.15939 0.18267 0.26143
0.15793 0.083440997 0.27526
0.15747 0.081318997 0.27544999
0.15783 0.081918001 0.27610999
0.13922 0.082355 0.26113001
0.14024 0.082718 0.26036
0.18889 0.14264999 0.26548001
0.19032 0.14191 0.26506001
0.19202 0.14346001 0.26420999
0.19535001 0.086749002 0.29006001
0.19514 0.088187002 0.28881001
0.19532 0.088014998 0.29165
0.20062 0.076789998 0.30302
0.20042001 0.079842001 0.30430001
0.19798 0.080069996 0.30407
0.17757 0.094532996 0.28198001
0.17580999 0.094209999 0.28327
0.1753 0.094028004 0.28299999
0.16512001 0.18328001 0.27153
0.16438 0.18607999 0.27192
0.16315 0.18566 0.27173999
0.16114999 0.13192999 0.26273999
0.15909 0.13108 0.26247999
0.15961 0.13327999 0.26183999
0.18328001 0.059487998 0.30774999
0.18294001 0.061861999 0.30689001
0.1837 0.060525998 0.30779999
0.20635 0.06318 0.28038001
0.20428 0.063580997 0.28369999
0.20621 0.062564999 0.28116
0.15285 0.23791 0.25505999
0.15290999 0.23807 0.25516999
0.15182 0.2393 0.25578001
0.16495 0.080441996 0.28575999
0.16518 0.079859003 0.28723001
0.16683 0.087949 0.28738999
0.16963001 0.086829998 0.28819001
0.16269 0.18352 0.27184001
0.16223 0.18401 0.26894999
0.16332 0.18406001 0.27164999
0.16331001 0.11191 0.27801001
0.16271999 0.11254 0.27757001
0.16209 0.11201 0.27721
0.15525 0.23942 0.25663999
0.15381999 0.23706999 0.25639001
0.15528999 0.23645 0.25861999
0.17861 0.18437999 0.278
0.17753001 0.18346 0.27768001
0.17844 0.18430001 0.27970001
0.13913 0.054389 0.27261001
0.13992999 0.053624 0.27217999
0.13902 0.054542001 0.27465999
0.15688001 0.053459998 0.29723999
0.15747 0.050485998 0.29754999
0.18951 0.11656 0.26164001
0.18862 0.11719 0.26170999
0.14762001 0.14281 0.26118001
0.18753999 0.11483 0.27028
0.18633001 0.11307 0.27103001
0.18926001 0.11308 0.27045
0.16199 0.073918998 0.28310999
0.16091 0.072079003 0.28086001
0.16222 0.072304003 0.28319001
0.19059999 0.11294 0.26424
0.18900999 0.1133 0.26251999
0.16658001 0.13553999 0.27404001
0.16608 0.13538 0.27432001
0.16669001 0.13583 0.27412999
0.20654 0.070681997 0.24853
0.20828 0.072646998 0.24823
0.20761 0.071489997 0.24837001
0.15639 0.11144 0.27046001
0.15694 0.11179 0.27088001
0.18795 0.16016001 0.26473001
0.18844999 0.15745001 0.26482001
0.18923 0.15782 0.26416001
0.19021 0.056609999 0.31937
0.15855999 0.17332 0.25946
0.16073 0.097420998 0.27092001
0.17438 0.064338997 0.29618001
0.17606001 0.065415002 0.296
0.17432 0.065559 0.29791999
0.192 0.075020999 0.30081001
0.19343001 0.072834 0.30204999
0.15795 0.057119001 0.29539001
0.15797 0.058724999 0.29411
0.15785 0.056487001 0.29495001
0.12142 0.058658 0.25685999
0.12045 0.058490001 0.25646001
0.11985 0.058586001 0.25731999
0.19074 0.22281 0.25433001
0.19044 0.22204 0.25317001
0.18962 0.22327 0.25367001
0.16119 0.20231 0.27133
0.16208 0.20393001 0.27019
0.16060001 0.20277999 0.27067
0.16498999 0.12954 0.26655999
0.20513999 0.056864001 0.31433001
0.20568 0.056839 0.31314
0.20479 0.058171999 0.31316999
0.16192999 0.18773 0.27057999
0.16126999 0.18578 0.26929
0.16219001 0.18523 0.26898
0.13777 0.087467 0.25415
0.13472 0.086990997 0.25271001
0.13507 0.087548003 0.25191
0.20867001 0.053197 0.28797999
0.20574 0.053865999 0.2877
0.18012001 0.13916001 0.29029
0.17942999 0.13709 0.29019001
0.18134999 0.13877 0.28931999
0.16756 0.080954999 0.28760999
0.16951001 0.081326 0.28753
0.16866 0.082267001 0.28608
0.18714 0.077463999 0.30803999
0.18787999 0.078244999 0.30644
0.18934 0.079245001 0.30796
0.18179999 0.1812 0.26813999
0.18308 0.18004 0.26817
0.18353 0.17985 0.26723
0.19224 0.10399 0.26852
0.19191 0.10282 0.27113
0.19279 0.10186 0.26866999
0.1875 0.24242 0.26317
0.18908 0.24041 0.26457
0.18764 0.24048001 0.26337999
0.20197 0.085107997 0.2615
0.20017999 0.087178998 0.26258999
0.19997001 0.085367002 0.26227999
0.15858001 0.11548 0.26267001
0.15954 0.11458 0.26431999
0.14672001 0.13441999 0.25843
0.13267 0.084643997 0.24886
0.13334 0.085496001 0.25029999
0.12962 0.084011003 0.25027001
0.20034 0.078648999 0.25850001
0.20013 0.076881997 0.25856
0.20138 0.077243 0.25788999
0.13070001 0.084120996 0.25628
0.13160001 0.082705997 0.25573999
0.20043001 0.054104 0.31865001
0.20012 0.053342 0.31762999
0.16734 0.15211 0.27932
0.16831 0.15003 0.28097001
0.18842 0.21191999 0.25483999
0.18938001 0.21505 0.25257999
0.18915001 0.21265 0.25364
0.20338 0.070014 0.26861
0.20276 0.069668002 0.26646
0.1699 0.14901 0.28314
0.19423001 0.073105998 0.30179
0.19484 0.072949998 0.30294999
0.19913 0.073763996 0.30486
0.19935 0.072415002 0.30160001
0.1991 0.072889 0.30338001
0.14697 0.15242 0.25692999
0.14679 0.15081 0.25847
0.14546999 0.15124001 0.25836
0.12831999 0.052703001 0.26177001
0.1899 0.20593999 0.26007
0.18953 0.20434999 0.2604
0.1893 0.20444 0.25856999
0.15131 0.12849 0.26007
0.15143999 0.12982 0.25872001
0.15214001 0.12998 0.25927001
0.16046 0.058917001 0.29315001
0.18776999 0.069386996 0.30888
0.18775 0.071788996 0.30803001
0.18759 0.070689999 0.30719
0.21476001 0.057799999 0.26475999
0.21439999 0.057959002 0.26201999
0.21281999 0.059399001 0.26265001
0.15548 0.1329 0.25891
0.1576 0.13291 0.25917
0.15886 0.13341001 0.25729999
0.13461 0.060222998 0.25825
0.13225 0.060770001 0.25994
0.12981001 0.060038 0.25849
0.19088 0.072246999 0.30383
0.19171999 0.073283002 0.30265
0.18844 0.071521997 0.3039
0.19137 0.05424 0.32189
0.1909 0.052554999 0.32093999
0.18933 0.051182002 0.32113001
0.16793001 0.12334 0.26741001
0.16827001 0.1234 0.26857999
0.16791999 0.1241 0.26932001
0.15188 0.087619998 0.26811001
0.14951 0.088033997 0.26865
0.16969 0.055983 0.28913999
0.1692 0.055769999 0.28974
0.17072999 0.053265002 0.29078999
0.17141999 0.086695001 0.29063001
0.17042001 0.087075002 0.28918999
0.16877 0.085459001 0.29056001
0.17763001 0.23714 0.27307001
0.17752001 0.23512 0.27357
0.17603 0.23480999 0.27447999
0.12537 0.058882002 0.25830999
0.12593 0.059597999 0.25659001
0.12507001 0.059285998 0.25648001
0.18731 0.13417999 0.26275
0.18655001 0.13401 0.26179001
0.18767001 0.13481 0.26245001
0.17168 0.15916 0.27562001
0.17122 0.15929 0.27526
0.17234001 0.15838 0.27423
0.17862 0.15200999 0.28657001
0.13239001 0.082663 0.25683999
0.13062 0.082194999 0.25782001
0.13079999 0.082822002 0.25825
0.17310999 0.099702999 0.28042001
0.17332 0.097792 0.28103
0.17264 0.098095 0.28103
0.15739 0.20068 0.26963001
0.15713 0.19971 0.26716
0.15791 0.20052999 0.26859999
0.15474001 0.23841 0.2552
0.18110999 0.059113 0.31242999
0.18109 0.060286999 0.31305
0.17752001 0.15451001 0.28714001
0.17942999 0.15569 0.28604001
0.17903 0.15594 0.28615999
0.17012 0.092913002 0.27983999
0.17204 0.093804002 0.27803001
0.19456001 0.082369998 0.28766
0.19656999 0.083691999 0.28751001
0.19651 0.086052001 0.28705001
0.13600001 0.056584999 0.26244
0.13812 0.056823 0.26188001
0.13699999 0.056823 0.26098001
0.17301001 0.22317 0.27858999
0.17186999 0.22285999 0.27952999
0.17343999 0.22307999 0.27968001
0.18419001 0.0942 0.27794001
0.18398 0.094091997 0.27717999
0.1829 0.093454003 0.27915999
0.18122999 0.1464 0.28698999
0.1807 0.14478 0.28764999
0.18058001 0.14489999 0.28803
0.18171 0.18577 0.28396001
0.18169001 0.18863 0.2834
0.18149 0.18478 0.28422999
0.19164 0.12751999 0.2447
0.19002999 0.12684 0.24613
0.18097 0.21623001 0.28207001
0.17956001 0.21723001 0.28106999
0.17981 0.21661 0.28033999
0.20704 0.065945998 0.26231
0.2077 0.067486003 0.26032999
0.20660999 0.067974001 0.26144001
0.16909 0.23669 0.27559999
0.16906001 0.23491 0.27456999
0.15214001 0.24476001 0.25635001
0.15288 0.24376 0.25549999
0.16274001 0.21019 0.26899999
0.16046999 0.20909999 0.26953
0.16241001 0.20918 0.26907
0.21352001 0.052073002 0.28180999
0.21448 0.053252 0.28081
0.18345 0.21510001 0.27465999
0.18385001 0.21444 0.27339
0.21423 0.073701002 0.24212
0.21308 0.073945001 0.24234
0.2148 0.073608004 0.24074
0.16557001 0.11826 0.26853001
0.15739 0.088506997 0.26982
0.15730999 0.088453002 0.27067
0.13448 0.075755998 0.25632
0.13451 0.075565003 0.25703999
0.16453999 0.16906001 0.27004999
0.16354001 0.16812 0.26947001
0.17161 0.067314997 0.29297999
0.17157 0.068989001 0.29350999
0.17083 0.069968998 0.29282001
0.17589 0.11893 0.27465001
0.17572001 0.11771 0.27428001
0.18633001 0.12815 0.27998999
0.18672 0.12796 0.27994001
0.18544 0.12836 0.28053001
0.15983 0.23416001 0.26615
0.15968999 0.23327 0.26455
0.16096 0.2316 0.26418999
0.21222 0.05869 0.28058001
0.214 0.057840001 0.28007001
0.20816 0.071810998 0.25002
0.20773999 0.071961001 0.24959999
0.20908999 0.072183996 0.2498
0.15956999 0.069580004 0.28727999
0.1613 0.070179 0.2879
0.17342 0.15222 0.28793001
0.13717 0.074367002 0.25415
0.1362 0.074196003 0.25615001
0.1602 0.13026001 0.26120999
0.16089 0.13087 0.26249
0.16015001 0.13078 0.26280001
0.15556 0.24564999 0.26140001
0.15594999 0.24495 0.26063001
0.17491999 0.087755002 0.29695001
0.17343 0.087119997 0.29866999
0.17788 0.1244 0.26995
0.17781 0.12319 0.26934001
0.17414001 0.10866 0.27803999
0.17429 0.10645 0.27956
0.17535 0.10758 0.28014001
0.20564 0.066275001 0.26778999
0.20534 0.067244999 0.26772001
0.20347001 0.07023 0.25341001
0.20214 0.070937 0.25523999
0.2031 0.071661003 0.25598001
0.17575 0.23436999 0.27355999
0.17625999 0.23356 0.27419999
0.17647 0.23058 0.27243999
0.19478001 0.062776998 0.30522999
0.19531 0.061980002 0.30576
0.19412 0.063536003 0.30559
0.17845 0.058509 0.30403
0.17653 0.058426 0.30408001
0.1582 0.22971 0.26550001
0.15884 0.23208 0.26363999
0.15939 0.22958 0.26471999
0.19088 0.20107999 0.25896001
0.18927 0.20063999 0.25824001
0.1904 0.19955 0.25865999
0.15899 0.089225002 0.27118999
0.18573999 0.19716001 0.27123001
0.18443 0.19875 0.27116999
0.18353 0.1978 0.2712
0.15699001 0.19171999 0.27181
0.15843999 0.19384 0.27340001
0.15722001 0.19186001 0.27070001
0.19899 0.082294002 0.30307999
0.20063999 0.081462003 0.30469999
0.19983 0.080293 0.30408001
0.18448 0.12878001 0.28097001
0.18682 0.12843999 0.27889001
0.18494999 0.12767 0.27871001
0.184 0.078768 0.30884999
0.18226001 0.078594998 0.30867001
0.18249001 0.078057997 0.31018001
0.17803 0.16144 0.27291
0.17572001 0.16064 0.27307001
0.17716999 0.16046 0.27371001
0.18203001 0.1087 0.27853
0.18404999 0.11063 0.27783999
0.1815 0.18713 0.28468999
0.18215001 0.18505 0.28268
0.1821 0.18736 0.28435001
0.18889999 0.093597002 0.27160999
0.18747 0.093681999 0.27192
0.18862 0.093111999 0.2721
0.14674 0.062886998 0.27621001
0.14657 0.065824002 0.27496001
0.14628001 0.063971996 0.27397001
0.18483999 0.1683 0.26387
0.18485001 0.1661 0.26324001
0.18388 0.16877 0.26552999
0.1578 0.24074 0.25924999
0.15730999 0.2386 0.26045001
0.18163 0.14154001 0.28779
0.18782 0.061514001 0.31287
0.18673 0.061990999 0.31345999
0.18752 0.059942 0.31301999
0.21955 0.053856 0.23853
0.21979 0.052436002 0.23985
0.22070999 0.053628001 0.23766001
0.15454 0.090375997 0.26192999
0.15556 0.089741997 0.26367
0.15509 0.089221999 0.26445001
0.18263 0.075037003 0.30715999
0.18115 0.073317997 0.30700999
0.18267 0.074084997 0.30633
0.15899 0.067838997 0.2861
0.15826 0.067976996 0.28558999
0.15744001 0.068524003 0.28505999
0.13049001 0.076008998 0.26067999
0.12915 0.07722 0.26087999
0.12876 0.076467998 0.26199001
0.14555 0.067542002 0.27419999
0.14849 0.068038002 0.27579001
0.15746 0.18387 0.25823
0.15594999 0.18508001 0.25771001
0.15716 0.18472999 0.25779
0.20801 0.062380001 0.26429999
0.1684 0.21341 0.27739999
0.17014 0.21634001 0.28075999
0.17038 0.21601 0.27875999
0.12613 0.059140999 0.26067001
0.12689 0.057029001 0.26120999
0.1831 0.22796001 0.26609999
0.18269999 0.22718 0.26563001
0.18322 0.18442 0.26993001
0.18209 0.18478 0.26774999
0.18671 0.17806 0.26583999
0.18741 0.17692 0.26447999
0.18844999 0.17963 0.26521999
0.17041001 0.078257002 0.29174
0.17031001 0.078854002 0.29170999
0.19463 0.1542 0.26379001
0.19325 0.15327001 0.26368999
0.19385 0.15299 0.26295999
0.17764001 0.2216 0.28211999
0.17792 0.22085001 0.28343001
0.18020999 0.22183999 0.28231001
0.14902 0.15652999 0.26484999
0.15064 0.15821999 0.26554
0.15042999 0.15778001 0.26517999
0.14916 0.063230999 0.28044999
0.14968 0.065605 0.27945
0.14864001 0.062779002 0.27956
0.17287 0.065557003 0.29407999
0.17389999 0.066221997 0.29516
0.17144001 0.066887997 0.29392999
0.18242 0.17768 0.26747999
0.18190999 0.17812 0.26572001
0.16907001 0.19485 0.28156
0.17023 0.193 0.28154999
0.16937 0.19439 0.28213999
0.14185999 0.056743 0.27880999
0.13999 0.057433002 0.27871999
0.14201 0.056024998 0.28066
0.20732 0.079474002 0.24947
0.20638999 0.080724001 0.24809
0.20750999 0.079708003 0.24884
0.19065 0.23692 0.25037
0.19125 0.23650999 0.24977
0.19223 0.23794 0.25312001
0.15713 0.12952 0.26898
0.15511 0.12773 0.26625001
0.15627 0.1294 0.26846001
0.18429001 0.15998 0.26977
0.18460999 0.15877999 0.27285999
0.18466 0.15915 0.27181
0.17058 0.10917 0.28167999
0.17027999 0.11114 0.28151
0.17069 0.11004 0.28081
0.17570999 0.16146 0.27307001
0.20874 0.063026004 0.26065999
0.20931 0.061159998 0.26196
0.20943999 0.062550001 0.26244
0.17964999 0.23242 0.27046001
0.18031999 0.23092 0.27134001
0.17712 0.23067001 0.27008
0.18851 0.083756998 0.30831
0.1885 0.084008999 0.30739999
0.18952 0.085306004 0.30688
0.16157 0.11972 0.25957
0.15933 0.11889 0.26078999
0.16080999 0.12 0.26093
0.19002999 0.15245999 0.27340999
0.18982001 0.15440001 0.27355999
0.18872 0.15394001 0.27471
0.18495999 0.051752999 0.32326999
0.18436 0.049633 0.32299
0.17003 0.096520998 0.27928999
0.16975001 0.097198002 0.2798
0.17230999 0.22418 0.27825001
0.17206 0.22424001 0.27989
0.17220999 0.22421999 0.27807999
0.19863001 0.071811996 0.30482
0.20033 0.070208997 0.30465999
0.19986001 0.072793998 0.30434999
0.18876 0.24276 0.26348001
0.16 0.15557 0.27726001
0.16082001 0.1538 0.27847001
0.1567 0.22631 0.26163
0.15696 0.22604001 0.25825
0.15673 0.22577 0.26008999
0.15838 0.080034003 0.27619001
0.15736 0.080087997 0.27636999
0.15726 0.081079997 0.27575001
0.17208 0.22192 0.28064001
0.17237 0.22319999 0.27947
0.16942 0.20076001 0.27454999
0.16895001 0.19987001 0.27471
0.14599 0.086438 0.26550001
0.14845 0.088123001 0.26572001
0.14719 0.087852001 0.26513001
0.18411 0.16166 0.27160999
0.18354 0.16237999 0.27263999
0.16026001 0.055920001 0.29633
0.15906 0.057291001 0.29484999
0.16171999 0.059512999 0.29407999
0.14742 0.072991997 0.26716
0.14785001 0.073729999 0.26594001
0.14755 0.074658997 0.26701999
0.17644 0.055546999 0.30303001
0.18656 0.13491 0.26260999
