# .PCD v0.7 - Point Cloud Data file format
VERSION 0.7
FIELDS x y z
SIZE 4 4 4
TYPE F F F
COUNT 1 1 1
WIDTH 1620
HEIGHT 1
VIEWPOINT 0 0 0 1 0 0 0
POINTS 1620
DATA ascii
0.10529 0.17939 0.21225999
0.10486 0.18105 0.21255
0.10407 0.18173 0.21258999
0.1049 0.18355 0.21301
0.10533 0.18460999 0.21186
0.10469 0.18655001 0.21159001
0.10361 0.18728 0.21122999
0.10383 0.18911 0.21074
0.10355 0.19068 0.21021999
0.10266 0.19196001 0.20923001
0.1016 0.19284 0.20697001
0.10084 0.19481 0.20581
0.10351 0.17224 0.21286
0.10388 0.17365 0.21262001
0.10434 0.17517 0.21189
0.10341 0.17673001 0.21227001
0.10349 0.17826 0.21269999
0.10404 0.17912 0.21298
0.10365 0.18020999 0.21357
0.10414 0.18178 0.21221
0.10404 0.18344 0.21235999
0.10384 0.18476 0.21234
0.10333 0.18578 0.21156
0.10268 0.18707 0.21127
0.10248 0.18893 0.21028
0.10157 0.19092999 0.20908999
0.10169 0.19193 0.20862
0.099693999 0.19393 0.20618001
0.099225998 0.19431999 0.20569
0.10309 0.17213 0.21239001
0.10356 0.17310999 0.21285
0.1023 0.17463 0.21233
0.1027 0.17656 0.21223
0.10305 0.17805 0.21326999
0.1037 0.17907999 0.21277
0.10239 0.18087 0.21255
0.1026 0.18182001 0.21288
0.10252 0.18350001 0.2122
0.10221 0.18550999 0.21182001
0.10209 0.18672 0.21189
0.10098 0.18839 0.21146999
0.10167 0.18906 0.20975
0.10049 0.19050001 0.20920999
0.099986002 0.19199 0.20651001
0.10166 0.17339 0.21267
0.10098 0.17475 0.21325
0.10171 0.17739999 0.21357
0.10222 0.17786001 0.21304999
0.10083 0.17918999 0.21245
0.10156 0.18042 0.21265
0.10164 0.18189999 0.21247999
0.10159 0.18309 0.21231
0.10128 0.18564001 0.21243
0.10088 0.18587001 0.21244
0.10057 0.18838 0.21122
0.099311002 0.18905 0.21043999
0.099391997 0.19025999 0.20852999
0.098113999 0.19193 0.20692
0.10013 0.17462 0.21359999
0.10158 0.17247 0.21241
0.10041 0.17239 0.21314
0.10131 0.17470001 0.21344
0.1005 0.17737 0.21294001
0.10083 0.17730001 0.21343
0.10076 0.17914 0.21393999
0.10066 0.18064 0.21338999
0.10098 0.18254 0.21363001
0.10027 0.18334 0.21353
0.099878997 0.18498001 0.21265
0.10001 0.18588001 0.2129
0.099698998 0.18758 0.21193001
0.098021999 0.18889999 0.20958
0.097671002 0.19028001 0.20665
0.10009 0.17372 0.21349999
0.099435002 0.17504001 0.21404
0.099834003 0.17633 0.2142
0.10002 0.17824 0.21392
0.099220999 0.17929 0.21354
0.099192999 0.18133 0.21385001
0.10028 0.18246999 0.21377
0.099252999 0.1839 0.2129
0.099079996 0.18493 0.21212
0.099108003 0.18639 0.21216001
0.099049002 0.18792 0.21153
0.098085999 0.18959001 0.20995
0.097050004 0.191 0.20674001
0.063028 0.12105 0.22693001
0.061648998 0.1237 0.22653
0.098769002 0.17220999 0.21416
0.098768003 0.17078 0.21337
0.099439003 0.17363 0.21378
0.098334 0.17539001 0.21421
0.098517001 0.17594001 0.21446
0.099156998 0.17798001 0.21367
0.098798998 0.17901 0.21386001
0.098664001 0.18066999 0.2145
0.098812997 0.18205 0.21306001
0.097268 0.18367 0.21298
0.097979002 0.18474001 0.21246
0.097622998 0.18618 0.21198
0.096383996 0.18731 0.21133
0.094939001 0.18964 0.20874999
0.093998 0.19152001 0.20716999
0.094379 0.1921 0.20686001
0.10916 0.20001 0.27146
0.1093 0.20015 0.27110001
0.10853 0.19776 0.27110001
0.089809999 0.066458002 0.26225001
0.096901998 0.1709 0.21348
0.099776998 0.17007001 0.21357
0.096996002 0.17211001 0.21432
0.098030999 0.17354999 0.21450999
0.098338999 0.17543 0.21430001
0.097933002 0.17647 0.21393999
0.097198002 0.17772999 0.21438
0.097493999 0.17948 0.21478
0.097018003 0.18073 0.21403
0.097250998 0.18266 0.21452001
0.096969999 0.18302 0.21269
0.097058997 0.18494999 0.21261001
0.096410997 0.18512 0.21156
0.095159002 0.18782 0.20996
0.093984 0.18877999 0.20801
0.093335003 0.19112 0.20735
0.095011003 0.090970002 0.25830001
0.083846003 0.064130001 0.25494999
0.092698999 0.19783001 0.26783001
0.096896999 0.17045 0.21458
0.096167997 0.16879 0.21464001
0.096929997 0.17309999 0.21501
0.096236996 0.17400999 0.21459
0.096633002 0.17549001 0.21543001
0.096949004 0.17579 0.21488
0.097480997 0.17803 0.21506
0.096256003 0.17894 0.21417999
0.096694998 0.18165 0.214
0.096043997 0.18189 0.21297
0.095996998 0.18273 0.21346
0.095610999 0.18525 0.21337999
0.095262997 0.18618 0.21199
0.094356999 0.18753 0.2095
0.096040003 0.17218 0.21487001
0.094957002 0.16975001 0.21424
0.095063001 0.17246 0.21504
0.095535003 0.17329 0.21489
0.095513001 0.17494 0.21589001
0.096156999 0.17696001 0.21559
0.095677003 0.17862999 0.21477
0.095278002 0.17863999 0.2148
0.095585003 0.18092 0.21437
0.095504001 0.18254 0.21353
0.095091 0.18361001 0.2132
0.094645001 0.18466 0.21202999
0.093206003 0.18667001 0.21071
0.091968998 0.18727 0.20873
0.056743 0.15544 0.22698
0.093383998 0.16981 0.21555001
0.093019001 0.16967 0.21581
0.094457 0.17129 0.21455
0.093656003 0.17043 0.21525
0.095463999 0.17193 0.21535
0.094957002 0.17377 0.21611001
0.094820999 0.17516001 0.21506999
0.094644003 0.17622 0.21557
0.093955003 0.17728999 0.2154
0.094557002 0.17888001 0.21493
0.095370002 0.18046001 0.21513
0.093621001 0.18190999 0.21441001
0.093911998 0.18298 0.21396001
0.093852997 0.18467 0.21272001
0.091857001 0.18573999 0.20999999
0.091449 0.18790001 0.20886
0.10594 0.070439003 0.2631
0.068282999 0.13679001 0.2359
0.093620002 0.17218 0.2164
0.094504997 0.17434999 0.21599001
0.094449997 0.17512999 0.21565001
0.092932001 0.17676 0.21649
0.094217002 0.17779 0.21504
0.093069002 0.17937 0.2146
0.093355998 0.18105 0.21499
0.092952996 0.18215001 0.21407001
0.092981003 0.18347999 0.21341
0.092068002 0.18446 0.21221
0.091159999 0.18582 0.20987999
0.091021001 0.18786 0.20948
0.092849001 0.17047 0.21582
0.093423001 0.17218 0.21639
0.093258999 0.17398 0.21645001
0.092133 0.17449 0.21622001
0.093530998 0.1771 0.21578
0.092246003 0.17827 0.21634001
0.093015999 0.17851 0.21523
0.093768999 0.18065999 0.21456
0.092102997 0.18178 0.21461
0.090933003 0.18343 0.213
0.090145998 0.18430001 0.21032
0.088959001 0.18592 0.20914
0.089364998 0.1883 0.20996
0.093483001 0.19143 0.20761999
0.091591999 0.17024 0.21592
0.091925003 0.17218 0.21634001
0.091085002 0.17352 0.2167
0.091907002 0.17512999 0.21633001
0.091599002 0.17641 0.21625
0.091224 0.17748 0.21599001
0.092107996 0.17957 0.21527
0.091608003 0.18045001 0.2149
0.090728998 0.18204001 0.21421
0.090191998 0.18285 0.21277
0.088905998 0.18455 0.21054
0.087880999 0.18672 0.20947
0.088871002 0.18782 0.21111
0.097892001 0.064805001 0.25856
0.099207997 0.065017998 0.25985
0.099578999 0.06363 0.25793001
0.089720003 0.16678999 0.21638
0.090434998 0.169 0.21652
0.091344997 0.17065001 0.21648
0.091581002 0.17163 0.21758001
0.091651998 0.1741 0.21687999
0.091158003 0.17456999 0.2167
0.090846002 0.17759 0.21622001
0.090686999 0.17806999 0.21642999
0.090510003 0.17917 0.2158
0.089941002 0.18036 0.21584
0.090379998 0.1814 0.21512
0.088729002 0.18373001 0.21253
0.087241001 0.18539 0.21035001
0.087925002 0.18623 0.21100999
0.067336001 0.060807999 0.24157999
0.066281997 0.058763001 0.24076
0.066110998 0.060224999 0.24033999
0.11574 0.11164 0.26833999
0.11526 0.11281 0.26910001
0.11608 0.11081 0.26791999
0.089959003 0.16745999 0.21714
0.090558 0.16535001 0.21857999
0.089759 0.16923 0.21673
0.089659996 0.17049 0.21704
0.090351 0.17239 0.21759
0.089919999 0.17371 0.21802001
0.090340003 0.17535999 0.21712001
0.090250999 0.17588 0.21713001
0.089854002 0.17798001 0.21687999
0.089252003 0.17903 0.21641999
0.089382 0.18057001 0.21574
0.088237002 0.18241 0.21426
0.087119997 0.18336999 0.21213999
0.081880003 0.19137 0.26029
0.095417999 0.065816998 0.25931001
0.11695 0.11096 0.26840001
0.11418 0.11255 0.26822001
0.11473 0.11261 0.26912999
0.088336997 0.16619 0.2166
0.08856 0.16822 0.2163
0.088790998 0.16951001 0.21743999
0.088655002 0.17145 0.21720999
0.089551002 0.17220999 0.21833999
0.089841001 0.17425001 0.2173
0.088992 0.17526001 0.21785
0.089607 0.17665 0.2174
0.089783996 0.17822 0.21764
0.087904997 0.17969 0.21615
0.088512003 0.18155999 0.21526
0.087407 0.18254 0.21477
0.086236 0.18302 0.21228001
0.10055 0.063359 0.25677001
0.10227 0.062259998 0.25679001
0.10169 0.062904 0.25600001
0.10881 0.11949 0.27522001
0.11007 0.099450998 0.25516
0.11021 0.10038 0.25615999
0.11121 0.10145 0.25676
0.11016 0.10199 0.25602999
0.11042 0.10575 0.25683999
0.11145 0.10493 0.25793001
0.087467998 0.12673999 0.24911
0.087118998 0.16756999 0.21739
0.087719001 0.16789 0.21610001
0.087194003 0.16983999 0.21707
0.088260002 0.17106 0.21799
0.088143997 0.17257001 0.21797
0.088298 0.17364 0.21784
0.088007003 0.17448001 0.21744999
0.088551998 0.1759 0.21815
0.087072 0.17754 0.21634001
0.087232001 0.17905 0.21645001
0.087564997 0.18055999 0.21556
0.085386999 0.18175 0.21283001
0.084709004 0.18367 0.21198
0.084367998 0.18495999 0.21266
0.032361999 0.060631 0.25992
0.11437 0.10858 0.26100001
0.11029 0.10883 0.25983
0.11129 0.10916 0.26144001
0.11119 0.10842 0.26008999
0.11 0.087953001 0.2568
0.11065 0.089181997 0.25718999
0.10909 0.090297997 0.25553
0.10997 0.091845997 0.25602001
0.10862 0.091551997 0.25538999
0.10871 0.092662998 0.25499001
0.10875 0.094417997 0.25549001
0.10774 0.096391998 0.25556001
0.10897 0.097669996 0.25494
0.10834 0.099012002 0.25512999
0.1087 0.10019 0.25597
0.10888 0.10221 0.25545999
0.10871 0.10358 0.25633001
0.1092 0.10452 0.25608
0.072949998 0.18009 0.25215
0.073289998 0.17837 0.25224
0.072019003 0.17836 0.25189999
0.1102 0.10654 0.25819999
0.11021 0.10706 0.25801
0.085698001 0.16639 0.21754999
0.086792 0.1684 0.21701001
0.087054998 0.16978 0.21751
0.087214001 0.17118999 0.21768001
0.087774999 0.17200001 0.21806
0.087931 0.17428 0.21798
0.086816996 0.17501999 0.21793
0.086465999 0.17592999 0.21735001
0.086287998 0.17745 0.21686999
0.086101003 0.17873999 0.21610001
0.085344002 0.18054 0.21467
0.084467001 0.18194 0.21353
0.083644003 0.18419001 0.21236999
0.084747002 0.18533 0.21307001
0.11033 0.084435999 0.25878
0.10939 0.083261997 0.25900999
0.10961 0.085118003 0.25887999
0.10891 0.085918002 0.25725001
0.1085 0.086773001 0.25747001
0.10869 0.089080997 0.2568
0.10762 0.089850999 0.25549001
0.10777 0.091677003 0.25569001
0.1078 0.092633002 0.25452
0.10757 0.095340997 0.25470999
0.10679 0.096349001 0.25496
0.10766 0.097149 0.25516999
0.10731 0.098692 0.25466001
0.10806 0.09984 0.25615999
0.10813 0.10078 0.25621
0.108 0.10351 0.25639001
0.10793 0.10421 0.25738999
0.10817 0.10539 0.25696
0.11199 0.10784 0.25911
0.10977 0.10717 0.25836
0.11029 0.10777 0.25911
0.10872 0.10871 0.25928
0.085634001 0.1682 0.21769001
0.086286001 0.16936 0.21816
0.086240001 0.17127 0.21831
0.086626001 0.17238 0.21906
0.086249001 0.17378999 0.21917
0.086296998 0.17409 0.21845999
0.086153001 0.17699 0.21834999
0.086087003 0.17815 0.21720999
0.085547999 0.17937 0.21698999
0.084048003 0.18076 0.21416999
0.082832001 0.18276 0.21386001
0.083035 0.18407001 0.21421
0.11063 0.079239003 0.26139
0.11166 0.11618 0.27515
0.11198 0.11533 0.27612999
0.10971 0.078607 0.26023
0.10915 0.080026001 0.26019001
0.10978 0.081891999 0.25953999
0.10922 0.081527002 0.26021999
0.11122 0.081141002 0.26028001
0.10902 0.082555003 0.25940999
0.10796 0.084642999 0.25883001
0.10801 0.085289001 0.25692999
0.1074 0.087270997 0.25694999
0.10728 0.089215003 0.25663
0.10689 0.090455003 0.25665
0.10653 0.091750003 0.25512001
0.106 0.093886003 0.25532001
0.1058 0.095011003 0.25465
0.10555 0.096141003 0.25519001
0.10646 0.096525997 0.25481001
0.10561 0.098295003 0.25580999
0.10712 0.10015 0.25527
0.10669 0.10095 0.25589001
0.10659 0.10322 0.25738999
0.10671 0.10454 0.25599
0.10783 0.10591 0.25685999
0.10785 0.1081 0.25819999
0.085450999 0.16993 0.21886
0.085444003 0.17098001 0.21952
0.085450999 0.17228 0.21946
0.085580997 0.17405 0.21946999
0.085130997 0.17566 0.21831
0.085258998 0.17563 0.21803001
0.084541 0.17771 0.21768001
0.083247997 0.17929 0.21618
0.083154 0.18077999 0.21379
0.082066998 0.18260001 0.21369
0.082948998 0.18402 0.21402
0.10974 0.074600004 0.26161999
0.10985 0.075763002 0.26175001
0.11073 0.076066002 0.26137999
0.10886 0.076058 0.26135999
0.10738 0.076683 0.2595
0.10951 0.077165999 0.26007
0.10799 0.078957997 0.25951001
0.1062 0.079910003 0.26019001
0.1064 0.081261002 0.25933999
0.10699 0.082719997 0.25940001
0.10626 0.084284 0.25819001
0.10625 0.086055003 0.25771001
0.10603 0.087305002 0.25793999
0.10484 0.088836998 0.25714001
0.10542 0.091022 0.25650001
0.1056 0.091941997 0.25586
0.10493 0.092951 0.25477999
0.10508 0.094547004 0.25512999
0.10498 0.096239001 0.25499001
0.10549 0.098016001 0.25479999
0.10425 0.098963 0.25481001
0.10557 0.10087 0.25514999
0.10561 0.10189 0.25628999
0.10553 0.10262 0.25606
0.1065 0.10389 0.25702
0.1059 0.10574 0.25734001
0.10708 0.10731 0.25802001
0.10736 0.10789 0.2599
0.10861 0.10962 0.26089001
0.10701 0.10991 0.26071
0.083269998 0.16876 0.21894
0.084244996 0.17025 0.21967
0.084725 0.17158 0.21833999
0.084582001 0.17314 0.2199
0.084458001 0.17459001 0.21915001
0.083539002 0.17660999 0.21833999
0.083871 0.17798001 0.21782
0.082561001 0.17900001 0.21569
0.080909997 0.18032999 0.21501
0.081528001 0.18176 0.21514
0.10924 0.074674003 0.26069999
0.115 0.11478 0.27559
0.11483 0.11532 0.27469999
0.10723 0.074146003 0.26065999
0.1067 0.075332999 0.26034999
0.10615 0.076945998 0.25992
0.10649 0.079322003 0.25971001
0.10617 0.080544002 0.25918001
0.10572 0.081547998 0.25900999
0.10586 0.083135001 0.25828001
0.1055 0.084735997 0.25816
0.10526 0.085778996 0.25828999
0.10526 0.087145999 0.25751001
0.10517 0.088891 0.25672001
0.10471 0.0902 0.25593001
0.10447 0.091742001 0.25576001
0.10335 0.093941003 0.25542
0.10339 0.094642997 0.25511
0.10419 0.095798999 0.25558999
0.10364 0.098157004 0.25544
0.10387 0.098692998 0.2559
0.1048 0.10017 0.25634
0.10427 0.10223 0.25624999
0.1038 0.10265 0.25722
0.10537 0.10453 0.25678
0.10489 0.10609 0.25742
0.10537 0.10807 0.25825
0.10613 0.10902 0.26023999
0.10597 0.11008 0.26063001
0.083117001 0.16979 0.21968
0.084256999 0.1714 0.21995001
0.083699003 0.17216 0.22
0.083885998 0.17378999 0.21917
0.083880998 0.17526001 0.22017001
0.082442001 0.17631 0.21857999
0.082115002 0.17703 0.21792001
0.081707001 0.17962 0.21647
0.081036001 0.18052 0.21572
0.081426002 0.18313999 0.21534
0.11356 0.19375999 0.27327001
0.10735 0.072686002 0.26190001
0.10883 0.073386997 0.26245999
0.10571 0.074749999 0.26100999
0.10539 0.076458 0.26124999
0.10482 0.077623002 0.26016
0.10557 0.078987002 0.25961
0.10505 0.079604998 0.25914001
0.10504 0.081459999 0.25839001
0.1048 0.082996003 0.25863999
0.10466 0.085116997 0.25803
0.10357 0.086060002 0.25779
0.10417 0.087444998 0.25748
0.10424 0.088863999 0.25727001
0.10324 0.089736 0.25698999
0.10384 0.091237999 0.25584999
0.10327 0.093102001 0.25555
0.10265 0.094495997 0.25538999
0.1028 0.096161999 0.25547001
0.10316 0.097580999 0.25599
0.1028 0.098261997 0.25615999
0.1032 0.10026 0.25641
0.10323 0.10206 0.25613001
0.10352 0.10286 0.25709999
0.10409 0.10458 0.25759
0.10394 0.10652 0.25813001
0.10479 0.10741 0.25826001
0.10575 0.10874 0.25977999
0.10478 0.11039 0.26029
0.082340002 0.16687 0.21866
0.083297998 0.16867 0.21906
0.082800001 0.17064001 0.21987
0.082047001 0.17307 0.22028001
0.082814001 0.17397 0.21964
0.081672996 0.1742 0.21924999
0.082402997 0.17636 0.21897
0.081501 0.17701 0.2172
0.080214001 0.17862 0.21675999
0.079976998 0.18099 0.21568
0.11527 0.11362 0.27408001
0.10534 0.072719999 0.26175001
0.10465 0.074905999 0.26122999
0.1051 0.074571997 0.26063001
0.1041 0.077216998 0.25907001
0.10369 0.079242997 0.25935
0.10375 0.079700001 0.25955999
0.10247 0.082059003 0.25882
0.10366 0.083567999 0.25889
0.10339 0.084270999 0.25808001
0.10284 0.086143002 0.25757
0.10209 0.087571003 0.25764
0.10187 0.088665999 0.25713
0.10288 0.090278 0.25646999
0.10217 0.092382997 0.25633001
0.102 0.093597002 0.2559
0.10104 0.095138997 0.25560999
0.10153 0.095778003 0.25529
0.10139 0.097930998 0.25551
0.10128 0.099102996 0.25650999
0.10191 0.10118 0.25645
0.10163 0.10188 0.25650001
0.10308 0.10393 0.25683999
0.10315 0.10407 0.25777999
0.10404 0.10605 0.25806999
0.10381 0.10672 0.25894001
0.10415 0.10844 0.25872999
0.064478002 0.080421999 0.23845001
0.081064001 0.16823 0.22014
0.080636002 0.16641 0.21962
0.080770999 0.16931 0.2203
0.081735 0.17030001 0.22067
0.081315003 0.17259 0.22081
0.082060002 0.1728 0.22107001
0.081141002 0.17485 0.21995001
0.080389999 0.17659999 0.22007
0.080448002 0.17837 0.21768001
0.079498999 0.1794 0.21638
0.079223 0.18106 0.21591
0.088644996 0.18849 0.25996
0.087007001 0.18817 0.25977001
0.077221997 0.1322 0.2405
0.078120999 0.13057999 0.24054
0.076753996 0.13056999 0.23938
0.095818996 0.053316001 0.24865
0.095486999 0.05508 0.24753
0.096533999 0.052825999 0.24845
0.096202001 0.056862999 0.24874
0.097245999 0.054749001 0.2489
0.12143 0.11092 0.27546
0.12026 0.11126 0.27465001
0.11904 0.11197 0.27482
0.10412 0.071990997 0.26197001
0.10357 0.073913001 0.26166001
0.10377 0.074846998 0.26085001
0.10378 0.077054001 0.26047999
0.10313 0.077552997 0.26056999
0.10377 0.079526998 0.26025
0.10247 0.080686003 0.25972
0.10229 0.081061997 0.25924999
0.10243 0.083462998 0.25836
0.10192 0.084500998 0.25814
0.10173 0.086026996 0.25780001
0.10189 0.087569997 0.25768
0.10144 0.088629 0.25644001
0.10109 0.090985 0.25731
0.10055 0.092444003 0.25619
0.10076 0.093442999 0.25472
0.10078 0.094585001 0.25562999
0.10001 0.096424997 0.25612
0.10137 0.097653002 0.2561
0.10074 0.099010997 0.25634
0.10019 0.10062 0.25632
0.10113 0.1024 0.25645
0.10083 0.10357 0.25694999
0.10425 0.11094 0.26126
0.080265 0.16583 0.21943
0.080279 0.16884001 0.22029001
0.079522997 0.17033 0.22005001
0.081008002 0.17072999 0.22130001
0.081023 0.17297 0.22096001
0.081018999 0.17428 0.22125
0.080025002 0.17596 0.22052
0.079263002 0.17662001 0.21896
0.078821003 0.17862 0.21769001
0.079037003 0.17945001 0.21714
0.079060003 0.18020999 0.21653999
0.095429003 0.051975001 0.24726
0.095017001 0.053174999 0.24700999
0.095586002 0.050836999 0.24716
0.094961002 0.052154001 0.24766
0.095018998 0.054272 0.24747001
0.094999 0.055454999 0.24878
0.095016003 0.057399999 0.24981999
0.096254997 0.058674 0.25053
0.097447 0.060109999 0.25172001
0.10318 0.069390997 0.26243001
0.10277 0.070647001 0.26174
0.1036 0.071603 0.26172999
0.10277 0.073570997 0.26188999
0.10209 0.074743003 0.26109999
0.10201 0.075557001 0.26126999
0.10228 0.077218004 0.2604
0.10217 0.078888997 0.26010001
0.10266 0.080103002 0.25964001
0.10157 0.082241997 0.26006001
0.10141 0.082969002 0.25889999
0.10103 0.085132003 0.25830999
0.1012 0.085092001 0.25812
0.10072 0.087260999 0.25791001
0.10073 0.088868 0.25705001
0.10019 0.090377003 0.25683001
0.098945998 0.091632999 0.25573999
0.099287003 0.092683002 0.25589001
0.098897003 0.094769999 0.25551
0.099547997 0.096721001 0.25617999
0.099823996 0.097646996 0.25560001
0.099679999 0.098592997 0.25681999
0.099624999 0.10104 0.2563
0.099946998 0.102 0.25727001
0.10133 0.10303 0.25762999
0.068011999 0.18100999 0.25492001
0.090648003 0.063092999 0.25363001
0.090067998 0.063968003 0.25555
0.079526 0.16663 0.22035
0.078879997 0.16824 0.22044
0.079433002 0.16976 0.22176
0.079346001 0.17012 0.2219
0.080177002 0.17411999 0.22150999
0.079350002 0.17499 0.22060999
0.077701002 0.1771 0.21883
0.077170998 0.17874999 0.21744999
0.093185 0.053389002 0.24827
0.093755998 0.054703001 0.24899
0.093878999 0.056139998 0.24931
0.094282001 0.058394 0.25055
0.095752999 0.058775 0.2509
0.095703997 0.059886001 0.25224999
0.096701004 0.061503999 0.25332001
0.094947003 0.087848 0.25852999
0.094779998 0.089060999 0.25827
0.10183 0.069084004 0.26234999
0.10177 0.070646003 0.26172
0.1021 0.071767002 0.26146001
0.1018 0.073374003 0.26181
0.10163 0.074996002 0.26137999
0.1024 0.075571001 0.26140001
0.1009 0.077561997 0.26029
0.10108 0.078977004 0.26056999
0.1004 0.080526002 0.25959
0.1007 0.082111999 0.25973001
0.1006 0.082850002 0.25914001
0.099882998 0.085198998 0.25916001
0.099785998 0.086089 0.25883999
0.099165 0.088694997 0.25773999
0.098783001 0.088803001 0.25677001
0.099716999 0.091027997 0.25718001
0.098159999 0.093180001 0.25602001
0.097635999 0.093840003 0.25658
0.099114999 0.094485 0.2559
0.098893002 0.095606998 0.25623
0.09843 0.097778998 0.25571999
0.098624997 0.099784002 0.25626001
0.099367999 0.10049 0.25549001
0.076649003 0.18364 0.25529
0.088128999 0.10115 0.24335
0.091470003 0.12478 0.2525
0.078433 0.16711999 0.22096001
0.078808002 0.1682 0.22137
0.078806996 0.16931 0.22138
0.078597002 0.17092 0.22211
0.078348003 0.17163 0.22154
0.077830002 0.1742 0.22108001
0.077875003 0.17551 0.22098
0.076375 0.17654 0.21941
0.077128001 0.17815 0.2177
0.033312 0.063350998 0.26212001
0.12226 0.1097 0.27678001
0.12146 0.10994 0.27579001
0.12093 0.11216 0.27618
0.10409 0.053745002 0.25375
0.10424 0.053467002 0.25327
0.1175 0.1095 0.26565
0.11687 0.10904 0.26504999
0.11602 0.10917 0.26519001
0.072783001 0.075915001 0.24710999
0.073353998 0.075799003 0.24837001
0.072447002 0.074028999 0.24866
0.092257999 0.054749001 0.24887
0.092702001 0.056081001 0.2489
0.093595996 0.059198 0.2502
0.094516002 0.058571 0.25145999
0.094678 0.060139 0.25139999
0.095096 0.061457999 0.25279
0.094080001 0.11088 0.24984001
0.092959002 0.11253 0.25013
0.093479998 0.11176 0.25222
0.10023 0.068708003 0.26148
0.10081 0.071411997 0.26205
0.10066 0.071649 0.26119
0.10075 0.073210001 0.26210001
0.10037 0.074960001 0.26225001
0.10065 0.076742001 0.26124001
0.10065 0.078256004 0.26126
0.10071 0.078565001 0.26012999
0.099916004 0.080137998 0.26058999
0.099531002 0.082622997 0.26045999
0.099391997 0.084618002 0.2597
0.098989002 0.085144997 0.25874999
0.098513 0.086085998 0.25918001
0.099610999 0.088125996 0.25852001
0.098062001 0.090127997 0.25788999
0.097295001 0.090802997 0.25623
0.098059997 0.091562003 0.25709
0.09764 0.093855999 0.25756001
0.097773999 0.095353998 0.25705999
0.097888999 0.096355997 0.25707
0.096601002 0.096038997 0.25681001
0.097882003 0.098261997 0.25646999
0.097774997 0.099459 0.25635001
0.097994998 0.10097 0.25659999
0.077915996 0.16761 0.22105999
0.076572999 0.16835 0.2211
0.076550998 0.16952001 0.22164001
0.078069001 0.17126 0.22224
0.078014001 0.17222001 0.22214
0.077969998 0.17383 0.22124
0.077310003 0.17456999 0.22032
0.075755 0.17607 0.21851
0.076059997 0.17756 0.2192
0.091496997 0.055236999 0.24845
0.091989003 0.055854999 0.24877
0.092409 0.057507999 0.25024
0.092102997 0.058954 0.24978
0.093253002 0.060800999 0.25104001
0.099683002 0.066150002 0.26197001
0.1003 0.064194001 0.25845999
0.099869996 0.068870999 0.2617
0.099366002 0.070044003 0.26126999
0.099825002 0.072272003 0.26256999
0.099408999 0.073213004 0.26222
0.10015 0.075328998 0.26170999
0.099434003 0.075861998 0.26131001
0.099253997 0.077659003 0.26065001
0.098504998 0.079295002 0.26146999
0.098840997 0.080735996 0.2606
0.098411001 0.082672998 0.26047999
0.098352 0.082684003 0.25953001
0.098241001 0.084826 0.25990999
0.097411998 0.086534001 0.25896001
0.098348998 0.087476 0.25799999
0.097714998 0.088421002 0.25802001
0.096610002 0.090149 0.25762999
0.097107999 0.092266999 0.257
0.096951 0.093603 0.25683001
0.095904998 0.094279997 0.25738001
0.10166 0.063607998 0.25832
0.11043 0.11716 0.27664
0.076586001 0.16626 0.22137
0.076831996 0.16812 0.22205999
0.077032998 0.16948999 0.22154
0.076765999 0.17019001 0.22323
0.076916002 0.17271 0.22267
0.076632001 0.17404 0.2226
0.075865 0.17465 0.21988
0.075534001 0.1769 0.21844999
0.061466001 0.086623996 0.23354
0.062523998 0.088578001 0.23054001
0.11363 0.11232 0.26675999
0.11343 0.11239 0.26728001
0.11421 0.11156 0.26651999
0.10455 0.20028 0.27024001
0.10569 0.1997 0.26975
0.10459 0.19882999 0.27037999
0.10469 0.20164999 0.27032
0.10454 0.20271 0.27063999
0.10556 0.20123 0.27076
0.089574002 0.055458002 0.24852
0.090614997 0.056472 0.24921
0.090962999 0.057974 0.24954
0.092174001 0.058532 0.25042999
0.091689996 0.060927998 0.25134
0.092377 0.061510999 0.25240001
0.097374 0.064816996 0.25887999
0.097358003 0.064773001 0.25745001
0.097534999 0.066532999 0.26139
0.098272003 0.067760997 0.26231
0.098723002 0.069715001 0.26233
0.098591998 0.069897003 0.26159
0.098495997 0.072483003 0.26159
0.097571999 0.072967 0.26155001
0.098713003 0.075090997 0.26214001
0.098096997 0.076309003 0.26190001
0.097384997 0.077416003 0.26183999
0.097585998 0.079098001 0.26095
0.097808003 0.080661997 0.26080999
0.097686999 0.081798002 0.26073
0.097191997 0.082566001 0.26071
0.096989997 0.085440002 0.25982001
0.097001001 0.084957004 0.25929001
0.096614003 0.087693997 0.25854999
0.095620997 0.088466004 0.25870001
0.096357003 0.090703003 0.25768
0.096056998 0.092095003 0.25740999
0.075535998 0.16687 0.2228
0.074896 0.16842 0.22220001
0.075367004 0.16901 0.223
0.076096997 0.17114 0.22305
0.075768001 0.17259 0.22318
0.075038001 0.17352 0.22209001
0.074074 0.17555 0.2207
0.074597001 0.17644 0.21943
0.047956001 0.14126 0.22277001
0.046723001 0.13982999 0.22284999
0.10338 0.19774 0.26883999
0.10385 0.19960999 0.26989999
0.10351 0.20254 0.27079999
0.10381 0.20190001 0.27065
0.089899004 0.053592999 0.24861
0.090108998 0.055596001 0.24823999
0.090311997 0.056699999 0.24953
0.089539997 0.057976998 0.25047001
0.090402 0.059395999 0.25038001
0.090204999 0.060598001 0.25138
0.091632999 0.062328 0.25295001
0.091624998 0.062688001 0.25272
0.094322003 0.064870998 0.25876999
0.096785001 0.066680998 0.26159999
0.097782001 0.066749997 0.26267999
0.098044001 0.069080003 0.26258999
0.096947998 0.070524998 0.26304999
0.097456001 0.072485 0.26216
0.096247002 0.073706999 0.26297
0.098116003 0.074856997 0.26219001
0.097419001 0.076425001 0.26249999
0.097239003 0.078358002 0.26091999
0.096639 0.078470998 0.26168001
0.096923001 0.080519997 0.26106
0.096738003 0.082585 0.25955001
0.095954001 0.083144002 0.26012
0.095700003 0.084610999 0.25933999
0.095867999 0.086852998 0.25929999
0.095807001 0.088454001 0.25902
0.10725 0.11564 0.27168
0.11696 0.11301 0.27285999
0.11654 0.11237 0.2735
0.11766 0.11247 0.27171001
0.10472 0.052437 0.25529
0.10386 0.050866 0.25465
0.10479 0.052193999 0.25463
0.074522004 0.16834 0.22199
0.074914001 0.16991 0.22316
0.075406998 0.17115 0.22310001
0.074805997 0.17209999 0.22310001
0.074354999 0.17347001 0.22164001
0.073629998 0.1752 0.22104999
0.073931001 0.17632 0.22089
0.059004001 0.12953 0.22921
0.058036 0.12905 0.22927
0.10242 0.20003 0.26938
0.10265 0.20062 0.2701
0.10152 0.20268001 0.27156001
0.1032 0.20400999 0.27125999
0.097869001 0.20093 0.27013999
0.088610999 0.054375999 0.24811
0.089396998 0.054265 0.24893001
0.088039003 0.056304 0.24964
0.088693 0.058807001 0.25020999
0.08952 0.059165999 0.25121999
0.089197002 0.060417999 0.25145
0.090718001 0.061921 0.25310999
0.03858 0.12927 0.22732
0.094997004 0.066177003 0.26124999
0.096337996 0.067428 0.2626
0.097207002 0.069656 0.26265001
0.096313 0.070859 0.26230001
0.095817 0.072428003 0.26260999
0.096435003 0.073689997 0.26227999
0.095981002 0.074488997 0.2626
0.096120998 0.076233998 0.26188999
0.095150001 0.077793002 0.26151001
0.095980003 0.078529999 0.26089999
0.095588997 0.080894999 0.26122001
0.095455997 0.081868 0.26065001
0.095345996 0.083080001 0.26058
0.095002003 0.084624998 0.26010001
0.094584003 0.086401001 0.25906
0.077964 0.052997001 0.24635001
0.076939002 0.053084999 0.24435
0.075709999 0.055287 0.24523
0.077065997 0.051444001 0.24563
0.076802999 0.051406 0.24442001
0.073197998 0.18693 0.26227999
0.073540002 0.16703001 0.2228
0.073714003 0.16851 0.22291
0.074474998 0.16959 0.22396
0.074192002 0.17087001 0.22405
0.074003004 0.17256001 0.22284999
0.073376998 0.17362 0.22121
0.072995 0.17562 0.2216
0.12036 0.11062 0.27336001
0.12129 0.10905 0.27274001
0.11996 0.1106 0.27267
0.080585003 0.055847 0.25011
0.079833001 0.057039 0.25036001
0.11635 0.10608 0.26216999
0.10132 0.19850001 0.26842001
0.10213 0.19959 0.26938
0.10199 0.20125 0.27006
0.10149 0.2032 0.27085
0.092414998 0.065342002 0.25966999
0.094094999 0.066381 0.26201999
0.087095 0.054005001 0.24957
0.087361999 0.055126 0.24913999
0.088338003 0.056318 0.24976
0.087854996 0.058189001 0.24962001
0.088694997 0.059199002 0.25130001
0.089909002 0.060458999 0.25165999
0.089679003 0.06213 0.25277001
0.090535 0.063617997 0.25389999
0.094644003 0.066294 0.26056999
0.095195003 0.068512 0.26295
0.095160998 0.068861 0.26304999
0.095123 0.069913 0.26341
0.095238 0.072477996 0.26225999
0.095097996 0.072916001 0.26221001
0.095089003 0.075066 0.26216999
0.093905002 0.076497003 0.26298001
0.095048003 0.077331997 0.26236001
0.094205998 0.079286002 0.26144999
0.095109999 0.081623003 0.26080999
0.093956001 0.082684003 0.2606
0.095523998 0.083339997 0.26069
0.093699999 0.084287003 0.26032001
0.072887003 0.16976 0.22458
0.072723001 0.16851 0.22327
0.074135996 0.17125 0.22395
0.072306998 0.17282 0.22303
0.071332 0.17349 0.22159
0.071971998 0.17506 0.2208
0.092974 0.066494003 0.26210001
0.033289 0.16893999 0.23202001
0.099665001 0.20004 0.26951
0.099060997 0.19805001 0.26767999
0.099531002 0.20130999 0.26949
0.099257998 0.20197 0.27147999
0.086783998 0.05218 0.24911
0.085697003 0.054062001 0.24989
0.086503997 0.051895998 0.24895
0.086562 0.054582 0.25014001
0.086453997 0.056430001 0.25128001
0.087242998 0.057565998 0.25198001
0.08704 0.059829999 0.25134999
0.087785996 0.060183998 0.25235999
0.089313 0.062056001 0.25424999
0.094517998 0.067282997 0.26304999
0.095519997 0.069422998 0.26293999
0.093993999 0.070088997 0.26273999
0.094178997 0.071918003 0.26341999
0.093971997 0.073426999 0.26255
0.093932003 0.076044999 0.26242
0.093192004 0.076502003 0.26175001
0.093813002 0.077526003 0.26190999
0.092488997 0.079305001 0.26234999
0.093551002 0.080692001 0.26174
0.092727996 0.081984997 0.26098001
0.092892997 0.083107002 0.2604
0.10704 0.053059001 0.25876999
0.10535 0.058153 0.25737
0.10608 0.057082001 0.26047
0.1066 0.056596 0.26039001
0.10643 0.054497 0.25979
0.089194998 0.064170003 0.25659001
0.038957998 0.061519999 0.25863999
0.071947999 0.16663 0.22342999
0.071082003 0.16817001 0.22369
0.072728001 0.16947 0.22437
0.072553001 0.17112 0.22421999
0.070946001 0.17211001 0.22307
0.070694 0.17394 0.22183999
0.070906997 0.17491999 0.22232001
0.075476997 0.16622999 0.26306
0.079025999 0.051773999 0.24724001
0.079161003 0.053711999 0.24812999
0.098880999 0.19695 0.26754999
0.098236002 0.1983 0.26751
0.098727003 0.19942001 0.26865
0.099446997 0.20189001 0.27057999
0.085043997 0.052871998 0.24891999
0.085196003 0.053924002 0.24913
0.085528001 0.055149999 0.25042
0.085771002 0.056205999 0.25031999
0.085827 0.058006998 0.25077
0.086390004 0.059365999 0.25200999
0.086602002 0.060221002 0.25240001
0.087990001 0.062045999 0.25303999
0.093768001 0.067743003 0.26344001
0.093667999 0.069063 0.26409
0.092818998 0.070532002 0.26354
0.093686 0.071842 0.26320001
0.09403 0.073570997 0.26298001
0.093875997 0.074694999 0.26267001
0.092030004 0.076526001 0.26304001
0.092708997 0.078004003 0.26212999
0.092739001 0.079464003 0.26165
0.092105001 0.079756998 0.26144999
0.12113 0.10532 0.26783001
0.12026 0.10594 0.26728001
0.11988 0.10608 0.26796001
0.11923 0.10577 0.26473001
0.11849 0.10729 0.26552999
0.10584 0.11484 0.26978999
0.10576 0.1161 0.26885
0.10557 0.1169 0.26839
0.063013002 0.089399002 0.23029999
0.054053999 0.15175 0.22525001
0.084031999 0.070593998 0.25698
0.10555 0.056419 0.25852999
0.083838999 0.071548 0.2579
0.070825003 0.16835999 0.2245
0.069969997 0.16662 0.22431999
0.071102001 0.1705 0.22465999
0.069828004 0.17291 0.22274999
0.069959998 0.17457999 0.22251999
0.058371998 0.058803 0.23915
0.098002002 0.19702999 0.26721001
0.097755 0.19582 0.26776001
0.099734001 0.19592001 0.26734999
0.097273 0.19859999 0.26795
0.096037 0.19690999 0.26681
0.097929999 0.19966 0.26943001
0.083722003 0.052917 0.24999
0.083421998 0.052065 0.24981999
0.084409997 0.055535 0.25013
0.085392997 0.056894999 0.25132999
0.085373998 0.057996999 0.25176001
0.086139001 0.059482999 0.25170001
0.085640997 0.060745001 0.25229001
0.092652 0.067827001 0.26339999
0.092955999 0.069337003 0.26388001
0.092775002 0.070643999 0.264
0.092119001 0.071832001 0.26398
0.092123002 0.073150001 0.26431
0.092944004 0.075126 0.26291001
0.091559999 0.076874003 0.26247001
0.091370001 0.078259997 0.26282999
0.091727003 0.079567999 0.26223001
0.087269999 0.19231001 0.26256999
0.10389 0.11364 0.26479
0.10358 0.11185 0.26411
0.11879 0.10969 0.26837
0.11896 0.10948 0.26846999
0.11811 0.11051 0.26844999
0.11959 0.10797 0.26841
0.11873 0.10804 0.26696
0.11889 0.1091 0.26826999
0.030658999 0.16575 0.23010001
0.070017003 0.17129999 0.22505
0.069904998 0.17244001 0.22379
0.069245003 0.17333999 0.22304
0.031061999 0.16321 0.2288
0.031298999 0.164 0.22957
0.063335001 0.12751 0.22984999
0.095468998 0.1972 0.26594999
0.095495 0.1956 0.26582
0.095535003 0.1983 0.26795
0.083442003 0.051846001 0.25040999
0.082670003 0.054453999 0.24948999
0.083495997 0.055333 0.25007001
0.084178999 0.055953 0.25049001
0.083250999 0.058155999 0.25202
0.083616003 0.059046999 0.25242001
0.084801003 0.059955001 0.25239
0.084204003 0.061746001 0.25341001
0.085619003 0.063824996 0.25457001
0.091352001 0.068462998 0.26334
0.090801001 0.069817998 0.26429
0.091691002 0.070598997 0.26357999
0.091283999 0.072338998 0.26345
0.090914004 0.073274001 0.26372999
0.091099001 0.07485 0.26361999
0.091055997 0.076861002 0.26363999
0.090140998 0.073999003 0.26418999
0.10108 0.061375 0.25582001
0.11299 0.10742 0.26061001
0.11316 0.10734 0.26018
0.10727 0.1163 0.27333
0.10692 0.11821 0.27294001
0.091977 0.12201 0.25248
0.068369001 0.17130999 0.22463
0.093092002 0.19625001 0.26655
0.094765 0.19611999 0.26609001
0.093842 0.19972 0.26785001
0.081988998 0.053532001 0.25048
0.082250997 0.054845002 0.25059
0.083048999 0.057032 0.25094
0.081851996 0.057661001 0.25139999
0.082171001 0.059994001 0.25222
0.083036996 0.060665 0.25341001
0.084550001 0.061811 0.25433001
0.090121001 0.072594002 0.26431999
0.10674 0.11567 0.27147999
0.10855 0.11481 0.27059999
0.10745 0.11441 0.26923999
0.11969 0.11186 0.2762
0.10667 0.055872999 0.26100001
0.10724 0.054299999 0.26084
0.069039002 0.098810002 0.22733
0.068099 0.099890001 0.22656
0.069701001 0.10063 0.2254
0.068712004 0.10438 0.22555999
0.067109004 0.10321 0.22549
0.067537002 0.10478 0.22564
0.11313 0.10983 0.26383999
0.11389 0.11028 0.26493999
0.1143 0.1101 0.26399001
0.11637 0.11045 0.26591
0.11344 0.11305 0.26984
0.11498 0.1098 0.26481
0.11589 0.10848 0.26339999
0.11089 0.11392 0.2696
0.1115 0.11348 0.27020001
0.11296 0.11283 0.26914999
0.069449998 0.16992 0.22572
0.067840002 0.17098001 0.22431
0.091110997 0.1973 0.2667
0.081483997 0.058841001 0.25266001
0.082368001 0.060520001 0.25374001
0.082745001 0.061838999 0.25476
0.078124002 0.055525001 0.24684
0.078342997 0.053553 0.24736001
0.12201 0.10928 0.27511999
0.12116 0.11003 0.27366
0.067523003 0.097393997 0.22698
0.069649003 0.09736 0.22678
0.066795997 0.099145003 0.22601999
0.066872999 0.1006 0.22641
0.067317002 0.10134 0.22567999
0.066829003 0.10427 0.22509
0.066607997 0.10455 0.22566999
0.067581996 0.10693 0.22588
0.067084998 0.1058 0.22494
0.067527004 0.10744 0.22624999
0.067923002 0.10755 0.2263
0.067062996 0.10842 0.22544999
0.067856997 0.10897 0.2255
0.065966003 0.1088 0.22459
0.068727002 0.11147 0.22575
0.066812001 0.11031 0.2255
0.070649996 0.096940003 0.22834
0.066657998 0.11172 0.22553
0.067110002 0.16951001 0.22678
0.031613 0.15295 0.23002
0.092207 0.19410001 0.26381001
0.091205001 0.19727001 0.26622999
0.090676002 0.19527 0.26508
0.081013002 0.059379999 0.25332001
0.066102996 0.050586998 0.23688
0.067371003 0.050834998 0.23813
0.065332003 0.051219001 0.23759
0.11167 0.19965 0.27225
0.10928 0.20067 0.27102
0.12204 0.10893 0.27439001
0.066821001 0.098187 0.2274
0.067295 0.098977 0.22628
0.065503001 0.10078 0.22594
0.065902002 0.10097 0.22547001
0.065145001 0.10392 0.22566999
0.065488003 0.10466 0.22531
0.065338999 0.10637 0.22547001
0.065713003 0.10767 0.22431
0.066523001 0.10955 0.22477999
0.065327004 0.11015 0.22431999
0.065824002 0.11194 0.22533999
0.065306 0.11294 0.22516
0.029664 0.13962001 0.22711
0.030624 0.14921001 0.22773001
0.031723 0.15046 0.2299
0.089000002 0.19177 0.26258999
0.089717001 0.19351 0.26368001
0.089795999 0.1935 0.26308
0.029475 0.14072999 0.22668
0.029844999 0.14292 0.2272
0.077722996 0.18088 0.25378999
0.076266997 0.18238001 0.25387999
0.076925002 0.18199 0.25413999
0.12306 0.10884 0.27555999
0.12229 0.10765 0.27469
0.065226004 0.096689001 0.22756
0.065242998 0.098661996 0.22578
0.064611003 0.096841 0.22675
0.064957 0.099579997 0.22648001
0.065036997 0.10068 0.22555999
0.063933998 0.10169 0.22464
0.063579999 0.10372 0.22483
0.064392 0.10518 0.2254
0.063763998 0.10563 0.22469001
0.064925998 0.10836 0.22539
0.063864 0.10921 0.22561
0.063896999 0.11042 0.22416
0.063773997 0.11155 0.22563
0.063709997 0.11329 0.22600999
0.064985998 0.11412 0.22584
0.036509 0.13725001 0.22423001
0.093331002 0.10538 0.25171
0.085175999 0.19076 0.26111999
0.086268 0.18956999 0.25988999
0.085377 0.1881 0.25946999
0.084706999 0.18937001 0.25999999
0.085871004 0.19255 0.26183999
0.035225 0.059819002 0.25771999
0.030136 0.14405 0.22801
0.11369 0.19779 0.27296999
0.112 0.19735999 0.27206999
0.078902997 0.055470001 0.24715
0.11553 0.11403 0.27586001
0.11299 0.11425 0.27195999
0.11421 0.11396 0.27070999
0.106 0.11912 0.27136001
0.062761001 0.061058 0.24293
0.063767001 0.061866999 0.24346
0.064314999 0.060842 0.24226999
0.063525997 0.099650003 0.22573
0.062945999 0.10108 0.22488999
0.063088 0.10223 0.22518
0.062991001 0.103 0.22454999
0.063093998 0.10529 0.22473
0.062925003 0.10584 0.22468001
0.062886998 0.10831 0.22425
0.062927999 0.10918 0.22391
0.062378999 0.11002 0.22378001
0.062325001 0.11208 0.22418
0.063023001 0.11384 0.22462
0.062918998 0.11398 0.22594
0.063469 0.11595 0.22565
0.12299 0.10802 0.27619001
0.035964999 0.13851 0.22381
0.036302 0.13989 0.2243
0.082603 0.18657 0.25784999
0.083943002 0.18914001 0.25891
0.084361002 0.19171999 0.26047999
0.10488 0.054287001 0.25604999
0.12156 0.10777 0.27094001
0.10993 0.11504 0.27232999
0.11106 0.11545 0.27338001
0.11087 0.11445 0.27204001
0.1131 0.11443 0.27179
0.064216003 0.098485999 0.22628
0.062391002 0.097880997 0.22626001
0.062197 0.099624999 0.22536001
0.060970001 0.10043 0.22553
0.061719 0.10219 0.22424001
0.061811998 0.10368 0.22545999
0.061087001 0.10434 0.22436
0.061159 0.10616 0.22513001
0.061324999 0.10758 0.22428
0.061158001 0.10896 0.22465999
0.060973 0.11042 0.22389001
0.061547998 0.1117 0.22449
0.061283998 0.11338 0.22544999
0.062189002 0.11422 0.22545999
0.061280001 0.11641 0.2256
0.062831998 0.11679 0.22566999
0.082629003 0.11675 0.23881
0.082071997 0.11605 0.23773
0.082397997 0.11794 0.23875
0.10982 0.052538998 0.29837999
0.080940999 0.18723001 0.25718001
0.081575997 0.18764 0.25848001
0.081919 0.18901999 0.25915
0.082615003 0.19068 0.26100999
0.10073 0.052225001 0.32229999
0.10079 0.051890999 0.32093999
0.10218 0.05139 0.32069001
0.11689 0.10942 0.26704001
0.11176 0.11485 0.27250001
0.061133999 0.096949004 0.22627001
0.061014 0.098851003 0.22589999
0.060587 0.099138997 0.22486
0.06047 0.10079 0.22461
0.060706001 0.10246 0.22435001
0.060741998 0.10423 0.22423001
0.060435001 0.10503 0.22465999
0.060392998 0.10646 0.22446001
0.060035001 0.10805 0.22361
0.059650999 0.10936 0.22437
0.060251001 0.1108 0.22412001
0.060102999 0.11114 0.22426
0.060400002 0.11358 0.22474
0.061042 0.11422 0.22488999
0.06061 0.11485 0.22525001
0.060708001 0.11695 0.22529
0.060924001 0.11882 0.22606
0.12224 0.1048 0.27059001
0.064185001 0.16034 0.23073
0.063813001 0.16039 0.23029999
0.065039001 0.16154 0.23039
0.072488002 0.18601 0.25650999
0.081441998 0.18568 0.25615001
0.079646997 0.18701001 0.25655001
0.079784997 0.18547 0.25617
0.080274999 0.18826 0.25799999
0.081119999 0.18968999 0.25918001
0.073553003 0.073019996 0.24882001
0.074345 0.073524997 0.24853
0.071175002 0.076053001 0.24851
0.070458002 0.075860001 0.24753
0.073853999 0.077839002 0.24786
0.11744 0.10812 0.2642
0.11636 0.10703 0.26300001
0.10784 0.11395 0.26883
0.064204998 0.088857003 0.22943
0.064428002 0.090209998 0.23066001
0.063515 0.091903999 0.22846
0.061648 0.092502996 0.22713999
0.060775001 0.094846003 0.22634999
0.074242003 0.060497999 0.24649
0.060059 0.097088002 0.22627001
0.060506001 0.098168999 0.22586
0.060249001 0.099532001 0.22479001
0.059760001 0.10138 0.22476
0.059425 0.10182 0.22487
0.058777001 0.10409 0.22451
0.059149001 0.1055 0.22409
0.058848001 0.10687 0.22411001
0.058251999 0.10739 0.2235
0.059032999 0.109 0.22292
0.059813 0.11071 0.22408
0.059168 0.11222 0.22446001
0.059161 0.11259 0.22458
0.058913 0.11538 0.22435001
0.059625 0.11532 0.22481
0.059427001 0.11762 0.22461
0.059374999 0.11878 0.2255
0.060006998 0.12042 0.22644
0.059769001 0.12172 0.22607
0.061186001 0.123 0.22713
0.062316 0.12624 0.22905999
0.062261 0.12996 0.23092
0.062169999 0.12962 0.23116
0.10669 0.11771 0.27094999
0.1068 0.11585 0.2701
0.10597 0.11723 0.27021
0.10824 0.11884 0.27348
0.1074 0.12002 0.27331999
0.12082 0.10889 0.27156001
0.062781997 0.16009 0.23011
0.062664002 0.16211 0.23040999
0.078690998 0.18494 0.25626001
0.078281999 0.18695 0.25645
0.079019003 0.18813001 0.25801
0.079806998 0.18963 0.25847
0.10806 0.053133 0.26332
0.074000001 0.064446002 0.24807
0.072100997 0.065471999 0.24921
0.10616 0.054806001 0.2595
0.071870998 0.068443 0.24844
0.071768001 0.071672998 0.24969
0.071696997 0.073161997 0.24871001
0.071828 0.074579999 0.24868999
0.097213998 0.063175999 0.25490999
0.098131999 0.063164003 0.25441
0.097562 0.063545004 0.25387999
0.11875 0.11241 0.27311
0.060722999 0.089276001 0.22875001
0.059925999 0.091427997 0.22815
0.059774 0.092159003 0.22706001
0.059390001 0.094315 0.22674
0.059787001 0.095399998 0.22605
0.058938 0.097014003 0.22600999
0.058554001 0.098104998 0.226
0.057778001 0.099348001 0.22454
0.058203001 0.10126 0.22498
0.059068002 0.10279 0.22393
0.058235999 0.10353 0.22415
0.057193 0.10544 0.22415
0.057319 0.10617 0.22356001
0.057581998 0.10807 0.22321001
0.056198999 0.10937 0.22339
0.057743002 0.11069 0.22437
0.057573002 0.11158 0.22336
0.057654999 0.11354 0.22515
0.057371002 0.11418 0.22415
0.058192 0.116 0.22375
0.058688 0.11712 0.22423001
0.058800999 0.11926 0.22533999
0.058506999 0.11982 0.22618
0.058945999 0.12147 0.22635999
0.058586001 0.1223 0.22639
0.060143001 0.1242 0.22757
0.060856 0.12524 0.22709
0.059654001 0.12556 0.22822
0.060752999 0.1275 0.22922
0.060504999 0.12876 0.22984999
0.062281001 0.12725 0.22882
0.10618 0.11431 0.26778999
0.10479 0.11553 0.26727
0.10543 0.11373 0.26730001
0.10742 0.11277 0.26751
0.10882 0.11376 0.26958001
0.10751 0.11386 0.26846001
0.12113 0.10924 0.27272999
0.11962 0.11015 0.27191001
0.11841 0.10783 0.26613
0.12136 0.10579 0.27113
0.11766 0.10984 0.26609999
0.063986003 0.15815 0.23159
0.061709002 0.15956999 0.23012
0.062024001 0.16156 0.22984999
0.076637998 0.18399 0.25488001
0.076733001 0.18583 0.25532001
0.065572999 0.057358 0.23820999
0.064851999 0.058449 0.23904
0.069545001 0.063423999 0.24747001
0.070183001 0.064975999 0.24775
0.071813002 0.064750001 0.24762
0.071060002 0.063879997 0.24713001
0.070854001 0.066610999 0.24853
0.070042998 0.066807002 0.24807
0.070839003 0.068988003 0.24884
0.072338998 0.067056999 0.24876
0.070832998 0.069948003 0.2493
0.070239 0.072057001 0.24864
0.071488 0.073128998 0.24789
0.070237003 0.074052997 0.24799
0.069487996 0.075753003 0.24775
0.078405999 0.052000001 0.24612001
0.064626999 0.085776001 0.23522
0.065439001 0.085419998 0.23585001
0.065251 0.085832 0.23586001
0.064034998 0.085336 0.23571999
0.063974999 0.086167999 0.23431
0.064199001 0.087123998 0.23295
0.060470998 0.088509999 0.23069
0.059344001 0.089042999 0.22896001
0.059374001 0.092040002 0.22744
0.058598999 0.093036003 0.22743
0.058072999 0.095129997 0.22693001
0.057916 0.096353002 0.2262
0.057594001 0.097076997 0.22603001
0.057353001 0.098494001 0.22526
0.056605 0.10046 0.22397999
0.056361001 0.10096 0.2243
0.056653999 0.10234 0.22368
0.056898002 0.10388 0.22390001
0.056341 0.10614 0.22348
0.056198999 0.10693 0.22353999
0.056044001 0.10876 0.22341
0.056003999 0.10989 0.22291
0.056005001 0.11073 0.22358
0.056495 0.11259 0.22328
0.056260001 0.11352 0.22409
0.057392001 0.11457 0.22461
0.056102 0.11605 0.22493
0.056947999 0.11783 0.22373
0.057183001 0.11925 0.22459
0.056851 0.1197 0.22558001
0.057250999 0.1211 0.22623999
0.057273999 0.12257 0.22633
0.058943 0.12424 0.22682001
0.058540002 0.1258 0.22745
0.058781002 0.12626 0.22877
0.060495 0.12817 0.23030999
0.10999 0.11412 0.27024001
0.11087 0.11401 0.26804999
0.10784 0.11341 0.26798999
0.10999 0.1132 0.26796001
0.11213 0.11341 0.26855001
0.11107 0.11329 0.26787001
0.10629 0.052885 0.25977999
0.1089 0.11422 0.27208
0.10139 0.060440999 0.25310999
0.11641 0.11373 0.27484
0.060338002 0.16150001 0.22962999
0.060144 0.15916 0.22902
0.060070001 0.16682 0.22882
0.059326999 0.16766 0.22916
0.060825001 0.16835 0.22874001
0.074634999 0.18258999 0.25376999
0.075277001 0.18313999 0.25544
0.075649999 0.18561999 0.25511
0.076196998 0.18691 0.25692001
0.064879 0.17839 0.25264999
0.065145999 0.059450999 0.23997
0.068777002 0.063427001 0.24582
0.069457002 0.064098999 0.24789999
0.069242999 0.066224001 0.24811999
0.070150003 0.067886002 0.24884
0.069050997 0.069462001 0.24857
0.069577001 0.071149997 0.24883001
0.069452003 0.071699999 0.24831
0.069822997 0.072860003 0.24902
0.069960997 0.073958002 0.24822
0.062850997 0.083443999 0.23706
0.061503001 0.084674001 0.23582999
0.060690001 0.087096997 0.23361
0.059282001 0.088445 0.23019999
0.058736 0.089658 0.22846
0.057518002 0.092037998 0.22784001
0.057668 0.092602 0.22684
0.057225 0.093615003 0.22741
0.056813002 0.095816001 0.22638001
0.056575 0.096942998 0.2262
0.055994999 0.097827002 0.22566
0.055408999 0.099889003 0.22474
0.055516999 0.10111 0.22423001
0.055103 0.1021 0.22418
0.055422001 0.1045 0.22407
0.054786999 0.10625 0.22325
0.054680999 0.10667 0.22248
0.054864999 0.10761 0.22296999
0.054211002 0.1096 0.22329
0.054655001 0.11023 0.22416
0.054595999 0.11145 0.22342999
0.055144001 0.1134 0.22421999
0.055504002 0.11469 0.22409999
0.056118 0.11643 0.22359
0.055744998 0.1169 0.22451
0.056302998 0.11907 0.22416
0.056134 0.11993 0.22539
0.056370001 0.12159 0.22599
0.056419998 0.12301 0.22605
0.057117999 0.12411 0.22669999
0.058061998 0.12558 0.2273
0.057252001 0.12757 0.22793999
0.057379 0.12841 0.2286
0.10469 0.12091 0.26908001
0.10448 0.12077 0.27052
0.1053 0.11969 0.27059001
0.1054 0.11943 0.27044001
0.11357 0.11133 0.26598999
0.10524 0.053665999 0.25677001
0.05821 0.15904 0.22796001
0.057573002 0.15731999 0.22764
0.057587001 0.1591 0.22786
0.058869001 0.15772 0.22855
0.058931999 0.16028 0.22826999
0.058637001 0.16119 0.22894
0.058487002 0.16236 0.22901
0.060206998 0.16225 0.22954001
0.059287 0.16396999 0.22973999
0.058566 0.16536 0.22829001
0.059181001 0.16536 0.22871999
0.058952 0.16592 0.22940999
0.059367001 0.16842 0.23006
0.073615 0.18203001 0.25374001
0.072223999 0.18083 0.25297999
0.073491998 0.18415 0.25509
0.0744 0.18565001 0.25551999
0.063933 0.059762001 0.24132
0.066079997 0.062904 0.24429999
0.067395002 0.062859997 0.24705
0.067754999 0.065182 0.24841
0.067603998 0.066161998 0.24849001
0.068190001 0.067280002 0.24819
0.067952 0.069185004 0.24871001
0.068659 0.070444003 0.24832
0.068833001 0.071656004 0.24916001
0.068458997 0.072397001 0.24893001
0.068017997 0.073930003 0.24831
0.062628999 0.080948003 0.23845001
0.061524 0.081808001 0.23815
0.061076 0.084009998 0.23619001
0.060098998 0.085514002 0.23525999
0.059698001 0.086538002 0.23243999
0.058338001 0.088385999 0.2305
0.057046 0.089979 0.22993
0.056953002 0.091076002 0.22836
0.056963999 0.092896 0.22816999
0.055643 0.094169997 0.22637001
0.055582002 0.094296999 0.22633
0.056123 0.096931003 0.22684
0.055647001 0.098007999 0.22553
0.054171 0.099826001 0.22508
0.054834999 0.1015 0.22384
0.053553 0.10285 0.22348
0.053934999 0.10437 0.2238
0.053583998 0.10564 0.22390001
0.054200001 0.10694 0.22302
0.053943001 0.10804 0.22364999
0.054063998 0.1095 0.22375999
0.054515 0.11068 0.22341999
0.054437999 0.11195 0.22442999
0.054354999 0.11438 0.22458
0.054990999 0.11465 0.22412001
0.054140002 0.11642 0.22459
0.053571001 0.11769 0.22414
0.053775001 0.11848 0.22461
0.054620001 0.12043 0.22474
0.055381998 0.12168 0.22590999
0.055996999 0.12236 0.22631
0.056191001 0.12323 0.227
0.055845 0.12559 0.22765
0.056248002 0.12594 0.22785001
0.056083001 0.12747 0.22893
0.10329 0.052983999 0.25233999
0.10882 0.11352 0.26609999
0.10872 0.11585 0.27401
0.056008 0.15716 0.22711
0.056398999 0.15879001 0.2272
0.056584001 0.16085 0.22826999
