# .PCD v0.7 - Point Cloud Data file format
VERSION 0.7
FIELDS x y z
SIZE 4 4 4
TYPE F F F
COUNT 1 1 1
WIDTH 1446
HEIGHT 1
VIEWPOINT 0 0 0 1 0 0 0
POINTS 1446
DATA ascii
0.051459 0.0096987002 0.051431999
0.046309002 -0.0035559 0.048237
0.046797 -0.0045491001 0.048886001
0.050767001 -0.0023225001 0.050515998
0.079411 -0.018003 0.10653
0.073522002 0.010032 0.10184
0.067270003 -0.030672001 0.041850001
0.062072001 0.027302001 0.10885
0.062256001 0.033119999 0.093866996
0.063328996 0.033826001 0.092772998
0.064336002 0.026411001 0.096515
0.06081 0.035824999 0.095752001
0.078293003 0.0079584001 0.089143001
0.078160003 0.0075677 0.089695998
0.0098909996 0.083086997 0.11925
0.0084475996 0.085487999 0.11682
0.0082969004 0.083283998 0.11561
0.0088144001 0.085704997 0.11546
0.053952001 0.036860999 0.10756
0.018844999 0.065575004 0.14538001
-0.055911999 0.080219999 0.11443
0.059069 -0.038098 0.042700998
0.060768999 -0.037671 0.042645998
0.068953998 -0.023872999 0.041958001
0.057751 -0.040743999 0.045873001
0.057932999 -0.038759999 0.044369001
0.059014998 -0.041110002 0.046140999
0.053350002 -0.0010148 0.049387001
0.0045925998 0.097093001 0.10011
0.0040618 0.095834002 0.1013
0.0043906998 0.096063003 0.099762
0.0059930002 0.072591998 0.099605002
0.076081999 -0.02785 0.10391
0.077440001 -0.028206 0.10239
0.076800004 -0.027232001 0.10451
0.076425001 -0.032120001 0.060116999
0.076362997 -0.030616 0.059588999
0.073284999 0.011611 0.10121
0.071043998 0.0082337996 0.11924
0.070372999 -0.046425998 0.10173
0.071014002 -0.046641 0.10108
0.0082438001 0.084082998 0.11741
0.0092382003 0.085611001 0.11735
0.025677999 0.037064999 0.13976
0.025696 0.039834 0.13947
0.026103999 0.037294 0.13959
0.030306 0.042869002 0.081246004
0.0065310998 0.065527998 0.11477
0.064158 -0.048404999 0.12833001
0.063726 -0.048053 0.13014001
0.0032788999 0.069398999 0.11003
0.0059483 0.068143003 0.11055
0.076122999 -0.029138001 0.060688
0.075750001 -0.027252 0.060793001
0.075149998 -0.026178 0.060245998
0.076467 -0.028785 0.059103001
0.076425001 -0.028337 0.058173999
0.075832002 -0.029381 0.060479
0.077349 -0.0065497998 0.11335
-0.047284 0.063184001 0.12628999
-0.047858 0.065590002 0.12425
0.061306 0.034304 0.095453002
0.0085728001 0.087339997 0.11717
0.0087623 0.086779997 0.11721
-0.019927001 0.057558 0.13944
-0.019608 0.058240999 0.13797
0.0076992 0.088813998 0.11525
0.0076223998 0.088968001 0.11555
-0.013313 0.05257 0.1434
-0.0019188999 0.099716 0.090790004
-2.4817e-05 0.099494003 0.092739001
1.7894001e-05 0.097995996 0.092060998
-0.0087912995 0.054988001 0.14021
0.014412 0.047155999 0.13489
0.014353 0.048296999 0.13556001
0.054848 0.0004695 0.051309999
0.055367 0.0021078 0.052069999
0.032237999 -0.013832 0.049073
0.030161001 -0.014593 0.049348999
0.031521998 -0.012889 0.049663
0.052816 -0.039755002 0.043478999
0.054384999 -0.039345998 0.043685
0.055007 -0.036956999 0.041080002
0.055789001 -0.036970001 0.041414998
0.045378 -0.0026648999 0.047764
0.046822 -0.0029845999 0.048840001
0.075037003 -0.024351001 0.059927002
0.077793002 -0.024436999 0.10071
0.078534 -0.023351001 0.10033
0.078845002 -0.023303 0.10172
0.065375 0.021234 0.10363
0.076562002 0.0057146 0.10981
0.077607997 -0.0068747001 0.10949
0.0018204 0.099473 0.097142003
0.0035435001 0.099722996 0.09911
0.070656002 0.016705001 0.099528
0.0089557003 0.083348997 0.11683
0.0082985004 0.087081999 0.11566
0.0076398998 0.090498 0.11307
0.0072479998 0.091256 0.11302
0.065214001 -0.011346 0.056597002
0.065865003 -0.012335 0.057893999
-0.045143001 0.063888997 0.13112999
-0.014938 0.055698 0.14173
0.0035009 0.070680998 0.10695
0.0025191 0.070950001 0.10589
0.0031951 0.070731997 0.10585
0.030325999 -0.022732001 0.049963001
0.030943001 -0.021577001 0.048988
0.032574002 -0.022430001 0.050696999
0.074900001 -0.021822 0.056233
0.07491 -0.023677999 0.056768
0.056743 0.0054708999 0.053142
0.0060053002 0.073544003 0.098825999
0.0067711999 0.073560998 0.098265998
0.054949 0.0029239 0.051291998
0.055360001 0.0046266001 0.051894002
0.008835 0.048586 0.13420001
0.01036 0.048758 0.13404
-0.018881001 0.070284002 0.13478
0.079680003 -0.017594 0.10025
0.079493001 -0.017212 0.098504998
0.079783998 -0.015369 0.10009
0.073839001 -0.023154 0.059551999
0.072697997 -0.021904999 0.059039
0.0095418999 0.059358001 0.1311
0.0079078004 0.086479001 0.11401
0.0080596004 0.088900998 0.11416
0.0073727998 0.089606002 0.1127
0.0063939001 0.090971999 0.11247
-0.051814001 0.084371999 0.11572
0.056357998 -0.017481999 0.040585
0.058146998 -0.016045 0.04087
0.057719 -0.017521 0.039622001
-0.057797998 0.082009003 0.11359
-0.057461999 0.08292 0.11321
0.059082001 0.0061796 0.054285001
0.066624999 -0.024187 0.040511999
0.065159999 -0.023321999 0.039595
0.065246999 -0.022493999 0.039969001
0.010674 0.060812 0.13223
0.010712 0.059087999 0.13391
0.010864 0.059085999 0.13335
0.053707 0.014584 0.05517
0.057433002 -0.024707001 0.038150001
0.055544 -0.023615999 0.037565999
0.057179 -0.022798 0.037377
0.0098072998 0.047254 0.13336
0.0042229998 0.0071947002 0.066811003
0.0039952998 0.0079686996 0.067955002
0.071973003 -0.020445 0.058047999
0.075499997 0.014613 0.094668001
0.055321001 0.032241002 0.11053
0.073205002 0.0012106 0.11995
0.016116999 0.051426999 0.13887
0.016514 0.049950998 0.13790999
0.010191 0.068380997 0.11476
0.0077897999 0.088541001 0.11293
0.0052960999 0.076399997 0.089993998
0.0061240001 0.076118998 0.090850003
0.0030839001 0.0071263998 0.066403002
0.0026660999 0.0065637999 0.067015
0.043728001 0.044158999 0.088099003
0.040780999 0.044381998 0.086699001
-0.053831 0.070647001 0.12105
-0.053762 0.070788004 0.12012
-0.053073999 0.070556 0.12083
0.0035172999 0.076614998 0.092552997
0.0034757 0.077597998 0.091456003
0.036757 0.042219002 0.078345999
0.037145 0.042087998 0.076716997
0.036022 0.041453999 0.076727003
-0.013532 0.053165 0.14495
0.046190001 0.043076001 0.086259998
0.047701001 0.042948999 0.086227
0.046354 0.043246001 0.084739
0.012954 0.056933001 0.13764
0.012275 0.057007998 0.13739
0.012717 0.059280999 0.13831
0.052127 -0.033961002 0.040141001
0.052370001 -0.032549001 0.040135
0.058857001 0.018042 0.058697
0.045504 0.018459 0.053950001
0.011485 0.046487 0.13330001
0.055581 -0.022163 0.038144
0.057585001 -0.021908 0.038642999
0.056625001 -0.020723 0.037845999
-0.058889002 0.083766997 0.11597
-0.057913002 0.083769999 0.11442
-0.057627998 0.082436003 0.11695
0.064611003 0.026434001 0.10059
0.064208001 0.027117001 0.099528998
0.064777002 0.027097 0.1008
0.065540001 0.025699999 0.10104
0.045471001 -0.047506999 0.055004999
0.074364997 0.00018028 0.11742
0.0072452002 0.088541001 0.11219
0.0077232998 0.086902 0.11302
0.0076706 0.089928001 0.1118
0.059030998 0.021609999 0.061576001
0.058269002 0.021190001 0.061439
0.058292001 0.022158001 0.062093001
0.042771 0.043889999 0.088381998
0.041710999 0.044571001 0.087944999
0.034302998 0.041903 0.077445999
0.034928001 0.042378999 0.078157999
0.034782998 0.041028 0.075842001
-0.019657999 0.063268997 0.13338999
-0.05381 0.089969002 0.11684
0.055567 0.037087001 0.10299
0.055853002 0.036284 0.10399
0.056648001 0.035762001 0.10367
0.055626001 0.036830001 0.10173
0.036846999 0.042948 0.079172
0.038325001 0.041763999 0.078009002
0.035078 0.041515999 0.077013001
0.072618999 -0.039540999 0.065970004
0.073830999 -0.038973998 0.065451004
0.072737999 -0.04064 0.067148
0.045703001 0.042801999 0.085663997
0.044121999 0.042762 0.083747
0.045256 0.043296002 0.084719002
0.044629999 0.042417999 0.082731999
0.039349001 0.042642999 0.078744002
0.039877001 0.042877 0.079703003
0.040045001 0.042192999 0.078619003
0.040812999 0.042378999 0.078924999
0.0038379 0.080628999 0.087091997
0.0036682 0.082405999 0.087168999
0.0044624 0.080836996 0.087746002
0.058527999 -0.025056001 0.037656002
0.058859002 -0.025162 0.038006
0.059361 -0.025589 0.038125001
0.057782002 -0.026488001 0.037273999
0.0071977 0.048516002 0.13334
0.0080730002 0.049920999 0.13312
0.0088967998 0.050000999 0.1338
-0.051831 0.076422997 0.11675
0.059266999 -0.042130001 0.047803
0.059468001 -0.042698 0.048698999
0.00075325998 0.079552002 0.093868002
-0.00013664999 0.080935001 0.093401
0.00047142999 0.079674996 0.093252003
0.076021001 0.012629 0.094903998
0.075407997 0.012826 0.093855999
0.067588001 0.025324 0.089780003
0.068614997 0.023775 0.090159997
0.068089001 -0.048700001 0.10589
0.068080001 -0.04755 0.10588
0.067828998 -0.047513001 0.10646
0.0060949 0.09307 0.11009
0.0065647 0.093193002 0.10831
0.0060554999 0.093598001 0.10887
0.0064023002 0.093148999 0.10991
0.014105 -0.040429 0.061055001
0.016268 -0.040796001 0.060741998
0.014586 -0.042405002 0.060566001
0.046549998 -0.0011683 0.048009999
0.045653999 -0.036532 0.042895
0.045777 -0.035420001 0.041986
-0.046285 0.084549002 0.12188
-0.054779001 0.077794001 0.11461
0.064560004 -0.010078 0.056329001
0.062530003 -0.0084889 0.054598
0.064457998 -0.0085305003 0.056311
-0.054097001 0.072490998 0.11956
0.0030658999 0.076865003 0.095306002
0.0034904 0.076171003 0.094833001
-0.033054002 0.062786996 0.1304
-0.032593999 0.063487999 0.12964
-0.027658001 0.058325 0.13808
0.045054998 0.043880999 0.086139999
0.044819999 0.043970998 0.086863004
0.046379 0.043543998 0.087474003
0.049977001 0.043196 0.092409998
0.050709002 0.042946 0.093842
0.052203 0.042176001 0.093474999
0.050742999 0.042922001 0.092874996
0.043398999 0.043196999 0.084072001
0.044002999 0.043786999 0.085758999
0.054641001 0.039981999 0.096160002
0.053245001 0.040787 0.097310998
0.055452999 0.038773999 0.097061001
0.054294001 0.039391 0.097558998
0.045697 0.042266 0.083806999
0.041354999 0.043244999 0.081315003
0.042295001 0.041568998 0.080743
-0.056265 0.079278 0.11436
-0.048291001 0.066064999 0.12531
0.031610999 -0.02012 0.048296001
0.031129999 -0.018321 0.047944002
0.032692999 -0.019734999 0.048877001
0.058013 -0.023719 0.037067998
0.059909001 -0.023944 0.037951
0.052692998 -0.031129999 0.038964
0.0071053999 0.050407 0.13372999
0.0086720996 0.051197 0.13441999
0.064691 -0.032033999 0.041404001
0.069358997 -0.045290999 0.10241
-0.012334 0.045823999 0.14114
-0.011273 0.046854001 0.14166
0.063454002 0.020066001 0.10923
0.063538998 0.020509001 0.11071
0.063561 0.019437 0.10949
0.065788999 0.029911 0.088096
0.065053999 0.031254999 0.088319004
0.075014003 -0.036471002 0.062164001
-0.019616 0.063355997 0.13405
0.0031504 0.083699003 0.088138998
0.002813 0.084628001 0.087401003
0.0020883 0.085754 0.087145001
0.027713999 0.064234003 0.16066
0.041113999 0.043953001 0.084431
0.042780999 0.044298001 0.085978001
0.0098249996 0.069380999 0.10655
0.0090763001 0.069600999 0.10579
0.0089071002 0.069145001 0.10626
-0.021141 0.057750002 0.13781001
-0.022081999 0.057039 0.13766
0.008866 0.068998002 0.15999
-0.032067001 0.064691 0.12932999
-0.032391999 0.065528996 0.12811001
-0.030079 0.067157 0.12898999
0.053672999 0.039817002 0.098766997
0.053038001 0.040049002 0.099817
0.054866999 0.039602999 0.10039
0.053245001 0.039926998 0.10035
0.054306 0.038562998 0.10164
0.054837 0.038663998 0.10088
0.045910999 0.044601999 0.087674998
0.047474001 0.044093002 0.088160001
0.046854001 0.044392001 0.088486999
0.052850001 0.042539999 0.093681
0.051732998 0.042265002 0.095224999
0.043575998 0.042619001 0.082709
0.042105 0.04397 0.083345003
0.056722999 0.037462 0.10029
0.055746 0.038259 0.10124
0.056848001 0.037243001 0.10076
0.055459999 0.038665 0.098678999
0.055367999 0.038996 0.098413996
0.053401999 0.041908 0.095684998
0.042557001 0.043161999 0.081348002
0.042704001 0.042819999 0.080793999
0.068384998 -0.013715 0.060111001
0.066830002 -0.013454 0.058106001
0.066542998 -0.011777 0.058970001
-0.045616999 0.088339999 0.12755001
0.047873002 0.042810999 0.085336
0.04758 0.042548001 0.084542997
0.077685997 -0.026203001 0.10492
0.0013205 0.013273 0.083065003
0.00055955001 0.012989 0.083870001
0.0010296 0.014532 0.083701998
0.061709002 0.028401 0.10804
0.059751 0.029688001 0.10826
0.076467998 0.0035544999 0.10887
-0.035983 0.065802 0.12712
0.0048965998 0.096014 0.1058
0.00508 0.094545998 0.10525
0.0067047002 0.095103003 0.10647
0.029183 0.059854001 0.16359
0.029890001 0.060973998 0.16482
-0.033530001 0.081251003 0.13123
0.042711001 0.043731 0.086965002
0.033268001 0.0097142998 0.050627999
0.033126999 0.0090158004 0.050342999
0.031808998 0.011257 0.050365001
0.054899 0.036885001 0.10445
0.051325001 0.042043 0.095532
0.050742999 0.041375 0.096694
0.052836999 0.040651999 0.098383002
0.048135001 0.042906001 0.092267998
0.047212999 0.044192001 0.089252003
0.047883999 0.042789999 0.090911999
0.051925998 0.041924 0.095843002
0.053176001 0.040293999 0.097914003
0.050345998 0.042966999 0.092936002
0.047738001 0.043697 0.090346999
0.042079002 0.043035001 0.082796998
0.040957 0.043641001 0.081229001
0.0026656999 0.092246003 0.10997
0.068520002 0.010383 0.11832
0.068429001 0.010445 0.11782
0.067930996 0.010269 0.11832
0.054322999 0.040769 0.094688997
0.044401001 0.043005001 0.082731001
0.0080811996 0.069294997 0.16271999
0.0081396997 0.068216003 0.16401
0.0095007 0.068443999 0.16429
0.021648001 0.067304 0.15207
0.022663999 0.067901 0.15436999
0.023019999 0.067681 0.15358999
0.048012 0.043217 0.086801
0.048965 0.042518001 0.086427003
0.046844002 0.043265998 0.082644001
0.032621 -0.018508 0.047722001
0.0058044 0.094071001 0.10352
0.0062875999 0.094076 0.10547
0.060747001 -0.021377999 0.038440999
0.060348 -0.020516001 0.038210001
0.060995001 -0.019735999 0.038981002
0.060120001 -0.019536 0.039229002
0.059526999 -0.018750001 0.039673999
0.061143 -0.018529 0.039815001
0.065624997 0.022077 0.10031
-0.053890001 0.078757003 0.11549
0.078059003 -0.011567 0.10992
0.078418002 -0.012591 0.11
0.069332004 -0.040367 0.05325
0.068664998 -0.041359998 0.051874999
0.052170001 0.0096452003 0.052246999
0.060563002 -8.2642e-05 0.055124
0.061556999 0.00073471997 0.055514999
0.061561 -0.00042875999 0.055075001
0.0066701998 0.093167 0.10626
0.0058819 0.095163003 0.10752
0.064705998 0.023355 0.10066
0.0056904 0.095752999 0.1046
0.0050201002 0.096646003 0.10494
0.065123998 0.020148 0.1014
0.0039575002 0.085253 0.12224
0.0031870001 0.084877998 0.12303
0.0045810002 0.083586998 0.12506001
0.017731 0.067924 0.14920001
0.016685 0.068365999 0.15005
0.043618999 0.04411 0.088026002
0.039182998 0.043795001 0.082842
0.050597999 0.042583998 0.094300002
0.0025873 0.0055498001 0.066710003
0.002746 0.0064198999 0.066719003
0.049008001 0.043094002 0.090245001
0.038293999 0.04214 0.079948999
0.053217001 0.042078 0.094044998
0.049068999 0.042722002 0.088615
0.048595 0.043086 0.088431001
0.050044 0.043200001 0.089610003
0.049449999 0.042265002 0.087526999
0.037416 0.042273998 0.076904997
0.045194 0.041554999 0.082291998
-0.0011626 0.050512001 0.13402
-0.0018296 0.050173 0.13493
-0.049113002 0.068646997 0.12094
-0.050129998 0.069784001 0.12051
-0.049422 0.069953002 0.12078
0.070418 -0.0012146001 0.062763996
0.069646001 -0.0010035 0.062350001
0.070277996 0.0001061 0.062969998
0.064002 0.017302999 0.10983
0.063252002 0.018493 0.11057
0.065044999 0.032621998 0.087701
0.065425999 0.030854 0.088334002
0.064753003 0.032370999 0.087211996
0.050854001 0.015276 0.053635001
0.058407001 0.034356002 0.10417
0.062537 -0.021562999 0.038727999
0.0069689001 0.075088002 0.092572004
0.0054600998 0.091704004 0.10615
0.022859 0.067209996 0.15736
0.022073001 0.067799002 0.15817
0.024214 0.067267001 0.15819
0.044530001 0.043676 0.088593997
0.060527999 0.036125001 0.094632998
0.060368001 0.036334999 0.094717003
0.038743999 0.044117998 0.082121
0.061627001 0.035980999 0.091719002
0.061540999 0.034400001 0.092230998
-0.042550001 0.080283001 0.12339
-0.043813001 0.081565998 0.12224
0.054102998 0.038109001 0.10267
-0.048092999 0.089055002 0.12789001
-0.046771001 0.088592 0.12893
-0.047219001 0.088500999 0.12707999
0.042342 0.044234 0.084498003
0.039574999 0.043024 0.082285002
-0.022570999 0.061515 0.1332
0.0065567 0.069193996 0.15862
0.0067099999 0.068843998 0.15885
0.0079023996 0.068829 0.15787999
0.020436 -0.052540999 0.066214003
0.017355001 -0.051594999 0.065704003
0.018719999 -0.051601 0.066022001
0.049346998 0.042987 0.092413001
0.033119 0.041280001 0.075382002
0.033229001 0.040819999 0.075296
0.033918999 0.040034998 0.074849002
-0.045511998 0.064797997 0.126
0.039639998 0.042675 0.080569997
0.066593997 -0.01434 0.057815999
-0.045175999 0.086583003 0.12714
0.0075400001 0.069312997 0.16287
0.0064655999 0.069325998 0.16292
0.049908999 0.043635 0.089832
0.050620001 0.043262001 0.091062002
0.05057 0.042851999 0.089622997
0.047423001 0.043048002 0.087894
0.0058825999 0.068754002 0.16126999
-0.051064 0.091174997 0.12658
-0.050188001 0.090085998 0.12634
0.050553001 0.042286001 0.088505
0.045154002 0.041963998 0.081591003
0.001135 0.10031 0.094224997
0.045761 -0.048384 0.054880001
0.045844998 -0.047444999 0.054395001
0.047798 -0.047906999 0.054246999
0.067253001 -0.047603 0.082520001
0.065200999 -0.049217001 0.082546003
0.065752 -0.047502998 0.080812
0.030948 -0.015701 0.049322002
0.018269001 0.050443001 0.13868
0.012756 0.070478 0.10824
0.011842 0.07102 0.1075
0.01309 0.071515001 0.10729
0.012403 0.071661003 0.10624
0.013279 0.072076999 0.10683
0.078817002 -0.019907 0.10598
0.051617 -0.00091991998 0.049685001
0.01209 0.068198003 0.13534001
0.01418 0.017131001 0.069356002
0.014727 0.018107001 0.067745999
0.014339 0.017778 0.06679
0.0085437 0.071238004 0.10045
0.0092642996 0.071289003 0.10271
0.059703 0.033964999 0.099241003
-0.053316999 0.093033999 0.1212
0.045772001 0.043678999 0.089706004
0.0076341 0.069173001 0.16078
0.036782999 0.043977998 0.080114
0.059211999 -0.011115 0.052740999
0.04084 0.043825001 0.083892003
0.038966998 0.043407999 0.081184
0.043120001 0.042996999 0.086051002
0.042137999 0.043563001 0.085162997
-0.018874999 0.063713998 0.13492
0.0018342 0.071129002 0.10711
0.0026404001 0.07051 0.10748
0.063148998 -0.019443 0.039712999
0.061641 -0.019642999 0.039310999
0.06219 -0.018309999 0.039595999
0.039064001 0.04211 0.077799
-0.0025249999 0.050822001 0.13500001
0.0049445 0.095968001 0.10266
0.051833 0.04214 0.089426003
0.043540001 0.042197 0.080329999
0.060731001 0.021779999 0.062052999
0.012534 0.066261999 0.14007001
0.046886001 0.0029418999 0.047883999
-0.0079992004 0.053521 0.13947
0.011874 0.071226001 0.10521
0.026307 0.049453001 0.14650001
0.038180999 0.018121 0.053328998
0.037735999 0.01953 0.053254001
0.038192 0.020068999 0.053245999
0.077767998 -0.00050023 0.095990002
0.070851997 0.021196 0.086888
0.037213001 0.014002 0.049906
0.038631 0.013808 0.050039999
0.078753002 -0.0011167 0.099009998
0.077030003 -0.0013241 0.099381998
0.0089595001 0.067783996 0.10965
0.0038395 0.058063 0.13027
0.0023497001 0.057797 0.12946001
0.071989 0.011572 0.10912
0.0052884999 0.068733998 0.15713
0.035617001 0.042720001 0.080255002
0.038334001 0.042695999 0.080016002
-0.0017663999 0.083973996 0.088770002
0.0070306002 0.068558 0.15756001
-0.032338999 0.080487996 0.13124
0.050949998 0.042458002 0.091103002
0.052434001 0.041124001 0.092500001
0.036802001 0.041485 0.075374998
0.062419999 0.034384999 0.088749997
0.056968998 0.037847001 0.098422997
0.052065 0.041409001 0.090444997
0.042158 0.041460998 0.080086
0.064645 -0.011159 0.055636
0.021655001 -0.027703 0.052793998
0.022544 -0.024948001 0.052390002
0.045850001 0.0014232 0.048411001
0.043373998 -0.018061999 0.048126001
0.044038001 -0.0199 0.048843998
0.076362997 -0.028268 0.060369
0.078544997 -0.020186 0.10582
0.078759998 -0.020826001 0.1066
0.074345 -0.032967001 0.065930001
0.076093003 -0.026132001 0.059748001
0.042484999 -0.019338001 0.048866998
0.075673997 -0.024565 0.058906
0.071805999 0.011637 0.10983
0.026473001 0.064989001 0.16133
0.028100999 0.063901 0.16285001
0.036869001 0.042927999 0.079694003
0.011452 0.068829998 0.16324
0.013731 0.067654997 0.16489001
0.013518 0.067907996 0.16336
0.036295 0.042823002 0.078328997
0.035456002 0.040970001 0.075080998
0.035425998 0.040695999 0.075176999
0.034899998 0.040635001 0.073899001
0.034479 0.041115001 0.074603997
0.011788 0.06735 0.14359
0.053064 0.041887 0.091698997
0.053787 0.041448999 0.092923
0.054958001 0.040514998 0.094122998
0.065036997 -0.026655 0.040100999
0.065128997 -0.027677 0.040401001
0.0058484999 0.061508 0.12303
-0.033967 0.062834002 0.13021
-0.0015505 0.084423997 0.083453
0.045983002 0.00031765999 0.048333
0.042560998 -0.015935 0.048530001
0.074403003 -0.023135999 0.058986999
0.05624 -0.02471 0.037746999
0.054035999 -0.023569001 0.038656998
0.043133002 -0.015053 0.047628
0.062711999 0.031429 0.095858999
0.074784003 -0.022017 0.058965001
0.0092305001 0.069932997 0.16114999
0.0091132997 0.068875 0.16281
0.018374 0.068498001 0.14907999
0.018602001 0.067760997 0.14957
0.019656001 0.067846999 0.14904
-0.0045675002 0.090375997 0.082222998
-0.015553 0.055036999 0.14361
0.0045252 0.072267003 0.10224
0.0065171998 0.071345001 0.10265
0.051649 -0.020289 0.040663999
0.050804 -0.02153 0.040688001
0.050104 -0.021095 0.041405
0.056228001 0.038874999 0.096355997
0.055093002 0.039997 0.096084997
0.0043402999 0.069692999 0.15868001
0.0036051001 0.068632998 0.15800001
0.065246999 -0.024992 0.039809
-0.0088253999 0.051483002 0.13923
0.043138999 -0.012451 0.047522999
0.073468 -0.021226 0.057748001
0.076512001 0.0077273999 0.094917998
0.075934 0.0085067004 0.096547998
0.077010997 0.0061625 0.096111998
0.078147002 -0.0055443002 0.10908
-0.0047113001 0.050857 0.13541999
-0.0039515998 0.051775999 0.13559
-0.0035971999 0.050987002 0.13535
0.070051998 -0.018891999 0.063112997
0.069792002 -0.020733001 0.063317001
0.069789998 -0.018495999 0.062199
0.072696999 -0.019293999 0.057464
-8.8956003e-05 0.099601999 0.093837999
-0.00062339002 0.10041 0.095723003
0.00068713998 0.099390998 0.094985001
0.043164998 -0.012545 0.047586001
0.0068027 0.079414003 0.13067999
0.0054425001 0.080187999 0.12919
0.0054489002 0.080885001 0.12921999
0.059903 -0.016581999 0.040426999
0.059347998 -0.016733 0.039815001
0.058616001 -0.016523 0.040656
0.0092099998 0.067838997 0.11074
0.0082905004 0.066584997 0.11219
0.061747 0.021082001 0.064894997
0.061905 0.021817001 0.064079002
0.062445998 0.021281 0.064755999
0.062022001 0.019272 0.062818997
0.018965 -0.01508 0.052592002
0.017860999 -0.015143 0.053502001
0.018083001 -0.01385 0.053263001
0.0013389 0.063922003 0.12074
0.061365999 -0.022696 0.038945999
0.060091998 -0.022615001 0.038105
0.042996 -0.011471 0.047295999
0.067566 -0.045775998 0.11021
0.066846997 -0.046619002 0.11125
0.078487001 -0.0049247001 0.10953
0.078280002 -0.0046470999 0.11071
0.043184999 -0.0092594996 0.047079999
0.046057001 0.0095504997 0.050124001
0.077437997 -0.014208 0.11054
-0.056026999 0.094155997 0.12476
-0.055218 0.094549999 0.12363
-0.057080001 0.094567001 0.12279
0.0039045999 0.069154002 0.15634
-0.029777 0.062128 0.13173001
0.060010001 -0.00060177001 0.054669
-0.051254999 0.078778997 0.11647
0.042700998 -0.0083534997 0.047678001
0.042302001 -0.0069924002 0.047671001
0.070522003 -0.044697002 0.10128
0.071287997 -0.044147 0.099514998
0.070111997 -0.043221001 0.10027
0.0085442001 0.052944001 0.13462
0.078644998 -0.0030928 0.11074
0.0050734002 0.073744997 0.096283004
-0.0064432998 -0.051514 0.091265
-0.0053264 -0.052677002 0.089855999
0.028407 0.064099997 0.16176
0.070166998 -0.0048425002 0.062694997
0.071133003 -0.0044584 0.062909998
0.071020998 -0.0048606 0.064074002
0.0042821998 0.053332001 0.13406999
0.0049536 0.054094002 0.13342001
-0.0024149001 0.050042 0.13462
0.05161 -0.044257 0.048583001
0.042722002 -0.0054255999 0.047295
0.073086999 0.016076 0.092556998
0.0093125999 0.072228998 0.098132998
0.0063304999 0.06899 0.10609
0.047933001 0.043147001 0.082884997
0.052820999 -0.042369999 0.046354
0.043003 -0.0037101 0.047796
0.063995004 0.027954999 0.10084
0.0012051 0.067216001 0.11594
0.0018468 0.067387 0.11514
0.02981 -0.052568 0.068783998
0.059916999 -0.029596999 0.038513999
-0.011032 0.055486999 0.14
0.057220999 -0.041887999 0.047543999
-0.046402998 0.063633002 0.12808
0.053305998 -0.040522002 0.045196999
0.055034 -0.040874999 0.045368001
0.046110999 -0.014919 0.048223
0.043032002 -0.0024834001 0.047304999
0.043365002 -0.0014486 0.047194999
-0.049447998 0.071783997 0.1201
-0.047770001 0.071640998 0.1204
-0.041804999 0.062228002 0.13101
-0.042436 0.062540002 0.13046999
0.071377002 0.020552 0.083754003
0.071540996 0.020532999 0.085097
0.071493 0.021755001 0.083815999
4.2177999e-05 0.097432002 0.092064001
0.077760004 -0.017579 0.1097
0.075439997 -0.024638999 0.058194
0.004218 0.056605998 0.13203
0.0034685 0.057278998 0.13204999
0.0097535001 0.074685998 0.096063003
0.0090210997 0.075545996 0.094076999
0.0096268998 0.077008002 0.096000001
0.0044477 0.070626996 0.106
0.051994 0.0070956 0.051174998
0.05263 0.0065756999 0.051346
0.046041001 0.041469999 0.081542999
0.045449 0.042149 0.080658004
0.044349998 0.041652001 0.079236001
0.044684 0.041590001 0.080154002
0.054953001 -0.039494999 0.043338999
0.043031 9.7814001e-05 0.047304999
0.075485997 -0.02328 0.057937998
0.059907001 0.034022 0.099206999
0.060141001 0.035388999 0.098177001
-0.033034001 0.061106998 0.13154
-0.033172999 0.061469998 0.13146999
0.065076999 0.023101 0.10091
0.074417002 -0.022084 0.058026001
0.073757999 -0.020623 0.057372
0.0071680001 0.091637999 0.10929
0.046863999 0.042968001 0.082434997
0.056387998 -0.037973002 0.042435002
0.046176001 -0.017798999 0.04843
0.046948001 -0.015019 0.048537001
0.042504001 0.0020047 0.046732001
0.071699001 -0.040878002 0.059966002
0.073761001 -0.038199998 0.059657998
0.072419003 -0.040252 0.061248001
0.071299002 -0.049059 0.098224998
0.071658 -0.046991002 0.098343
0.070914 -0.046693999 0.099025004
-0.030097 0.063591003 0.13018
-0.031152001 0.063042998 0.13001999
-0.029704001 0.063137002 0.1303
0.014914 0.011849 0.06013
0.070398003 0.0050813002 0.12415
0.068943001 0.0068395999 0.12379
0.069576003 0.0049732001 0.12551001
-0.049819 0.084328003 0.11761
0.042893 0.0031240999 0.047299001
-0.030305 0.062066 0.13180999
0.050584 -0.03162 0.039657999
0.049679998 -0.034102999 0.039887998
0.042709999 0.0042534 0.047899
0.057744998 -0.0096139004 0.052553002
0.049942002 -0.035082001 0.040617999
0.042066 0.0054891999 0.046978001
0.053934999 0.019680999 0.057222001
0.015639 0.063391998 0.14167
0.015118 0.063965999 0.14108001
0.071002997 0.0049506999 0.12287
0.070097998 0.0069443998 0.12311
0.068952002 0.0080268001 0.12211
0.0016488 0.058573 0.12963
0.058359001 -0.028779 0.038012002
0.042318001 0.0069229002 0.048925001
0.071618997 -0.045189001 0.084562004
0.070756003 -0.046053998 0.084568001
0.070485003 -0.046526998 0.083316997
0.059842002 0.0088804998 0.055311002
0.060382999 0.0084522003 0.056921002
0.061402999 -0.025908999 0.038453002
0.033225 0.016075 0.051872998
0.032664999 0.014086 0.051768001
0.030882001 0.0146 0.051860999
0.071604997 0.0055565001 0.12247
0.070632003 0.0074033001 0.12257
0.069769002 0.0080949999 0.1218
0.068714999 0.0097506996 0.12193
0.067400001 0.0098628001 0.12224
0.057564002 -0.026644999 0.037703998
0.058137 -0.028496001 0.038338002
0.042668998 0.024581 0.056573998
0.057909001 -0.024847999 0.037909999
0.028666999 0.043072 0.085311003
0.026606999 0.042667001 0.086098999
0.042520002 0.0081644002 0.048841
0.066613004 0.016547 0.10252
0.065178998 0.017182 0.10417
0.066486001 0.016176 0.1052
0.073600002 -0.0057048998 0.12266
0.072089002 -0.0062381998 0.12262
0.072541997 -0.0067467 0.12297
0.073435001 -0.0069149002 0.12339
0.071186997 0.0061706002 0.12198
0.071842 0.00428 0.12341
0.071534 0.0044316002 0.12178
0.071222998 0.0073449998 0.12099
0.069496997 0.0081193997 0.12114
0.069008 0.010051 0.12103
0.068021998 0.011011 0.12038
0.067097999 0.01135 0.11925
0.068139002 0.015865 0.066895001
0.067170002 0.01546 0.064962
0.068216003 0.015728001 0.065986998
0.057739001 -0.022104001 0.037574999
0.042064998 0.010253 0.049665999
0.041948002 0.011302 0.049447998
0.076084003 -0.028961999 0.056743
0.076462999 -0.027589001 0.056364
0.046459999 -0.012707 0.048482999
0.058832999 0.019990001 0.060780998
0.073266998 0.0012738 0.12079
0.072154 0.001148 0.12196
0.073082 -3.2729e-05 0.12242
0.072999001 0.0024582001 0.12124
0.072612002 0.0027610001 0.12189
0.072330996 0.0047670002 0.12063
0.071956001 0.0052394001 0.12114
0.071382999 0.0065641999 0.12068
0.070143998 0.0080818003 0.11937
0.069289997 0.0089106997 0.11904
0.049766 -0.030624 0.039824001
-9.6702999e-05 0.056889001 0.13503
0.041639 0.013087 0.050680999
-0.02458 0.061257001 0.13252001
-0.025311001 0.061971001 0.13294999
-0.024101 0.062573999 0.13157
0.059778001 0.022604 0.11413
0.059824001 0.022668 0.11528
0.059597999 0.021468 0.1158
0.060911998 0.021578001 0.11476
-0.0067039998 0.056958999 0.13992999
0.057750002 -0.020749001 0.038601
0.056003001 -0.019882999 0.038594
0.050535999 -0.030415 0.039448999
0.041202001 0.014015 0.049973
-0.041974001 0.06256 0.13234
0.010489 0.067592002 0.11287
0.061296001 0.01921 0.11543
0.067133002 0.011297 0.11725
0.042167 -0.044734001 0.052026
0.042612001 -0.044938002 0.051139001
0.027403999 -0.052668002 0.075299002
0.029213 -0.052987002 0.077232003
0.025564 -0.052917 0.076227002
0.050714001 -0.0014525 0.04967
0.071445003 -0.044996999 0.098635003
0.070683002 -0.045474 0.098915003
0.075251997 -0.031048 0.058499001
-0.039119001 0.078469001 0.12513
-0.037907001 0.077463999 0.12452
-0.039170001 0.079346001 0.12454
0.040274002 0.018269001 0.053716
0.039974 0.019819999 0.053709999
0.025477 0.042401001 0.14038999
0.024296001 0.043212 0.14008
0.025033999 0.043272 0.14150999
-0.037983 0.067979001 0.12664001
0.0081545003 0.067477003 0.10837
0.0036665001 0.083480999 0.095017001
0.0035816 0.084046997 0.095698997
0.0046029999 0.083039999 0.095955998
0.075986996 -0.031497002 0.061698999
0.075452 -0.033271998 0.061864
0.073146999 -0.044394001 0.085793003
0.072462998 -0.042945001 0.084784999
0.073147997 -0.041746002 0.086099997
0.077128001 -0.026627 0.084362
0.076870002 -0.026373999 0.084532
0.077358 -0.027697001 0.084825002
0.013626 0.070046 0.11454
0.01263 0.071280003 0.11383
0.012867 0.072691999 0.11387
0.010178 0.074135996 0.11377
0.010851 0.073648997 0.11493
0.071687996 -0.042557001 0.095131002
0.070886001 -0.042426001 0.096173003
0.071585998 -0.044126999 0.096900001
0.076719999 -0.018431 0.087624997
0.077564999 -0.017969999 0.089189999
0.077418 -0.020001 0.088463001
0.079380997 -0.0029354999 0.10598
0.078670003 -0.0015104 0.10583
0.076537997 -0.018235 0.075237997
0.076107003 -0.017126 0.075025
0.076654002 -0.018538 0.075606003
0.078790002 -0.0033805 0.10549
0.079000004 -0.0032089001 0.10639
0.076030001 0.0075677 0.074997
0.076578997 0.0068672001 0.074124001
0.076102003 0.0078919996 0.074979998
0.078155003 -0.012662 0.080201998
0.077402003 -0.011461 0.079907
0.078217 -0.012185 0.080261998
0.079195 -0.0040203002 0.10708
0.062954001 0.030974001 0.094617002
0.062748998 0.032876998 0.094356999
0.078792997 -0.0034795001 0.10804
0.076770999 -0.03232 0.093222998
0.077922001 -0.031159 0.093493
0.077574 -0.030513 0.093796998
0.061466001 0.034203 0.094379999
0.0045757 0.093966 0.10259
0.0048087998 0.092630997 0.10302
0.063974001 0.018167 0.10995
0.080144003 -0.0062199999 0.098334998
0.080131002 -0.0065155001 0.099742003
0.081060998 -0.0078539001 0.099799998
0.077532001 -0.028744999 0.095144004
0.078143999 -0.026323 0.094999999
0.077705003 -0.026395001 0.095729001
0.076238997 -0.017477 0.076021999
0.071586996 0.0089215999 0.068217002
0.070903003 0.0098730996 0.067648999
0.071007997 0.0099831996 0.068201996
0.079210997 3.1014999e-05 0.10597
0.071080998 0.010909 0.067712002
0.070533 0.011876 0.067396998
0.070611998 0.012093 0.068231001
0.0081425002 0.076493002 0.10352
0.0083673997 0.077028997 0.10464
0.0099382997 0.074942 0.10459
0.077840999 -0.025191 0.10477
0.077997997 -0.025542 0.1055
0.006542 0.077863999 0.11102
0.0052927001 0.079324 0.10962
0.0063244002 0.077294998 0.11121
0.076360002 0.012001 0.081534997
0.074790999 0.013724 0.080682002
0.075438999 0.011625 0.081174999
0.079152003 -0.021565 0.092834003
0.07846 -0.021836 0.093552999
0.077852003 -0.022709001 0.093979999
0.078423999 -0.0041391999 0.10169
0.078497 -0.0042535998 0.10152
0.078896999 -0.0023719999 0.10168
0.0039128 0.082119003 0.093313001
0.003916 0.084411003 0.093730003
0.005049 0.082677998 0.094061002
0.074927002 -0.031171 0.079531997
0.075309001 -0.029533001 0.079351999
0.076022997 -0.029359 0.081104003
0.012556 0.072380997 0.11621
0.012951 0.072082996 0.11738
0.012607 0.070772 0.11761
0.073829003 -0.019647 0.050042
0.073735997 -0.019626001 0.052136999
0.074147999 -0.019825 0.052467
0.0078352997 0.076332003 0.11691
0.0073902002 0.076700002 0.11783
0.0078071998 0.076390997 0.11824
0.079190999 -0.020222999 0.095981002
0.078846 -0.019716 0.094148003
0.079442002 -0.018823 0.095678002
0.0087064998 0.074908003 0.11401
0.0073146001 0.076052003 0.11471
0.0066995001 0.076089002 0.11442
0.0078499997 0.075622 0.11491
0.075753003 0.011285 0.081832998
0.077317998 -0.013388 0.079744004
0.0099553997 0.075612999 0.10415
0.067974001 -0.019726999 0.041478001
0.067098998 -0.018351 0.042321
0.068865001 -0.019018 0.042020001
0.013105 0.071726002 0.11251
0.012869 0.072779 0.11296
0.079007998 -0.0023320999 0.10385
0.079374999 -0.0015305 0.10396
0.079466999 -0.0010176999 0.1049
0.076121002 -0.0075492002 0.074461997
0.076286003 -0.0073048999 0.073276997
0.077027999 -0.0068537001 0.074849002
0.079235002 -0.0021720999 0.10262
0.079793997 -0.0023598 0.10472
0.077087 0.011139 0.089024
0.077699997 0.010236 0.089633003
-0.019130001 0.057257999 0.14142001
0.077517003 0.0065445001 0.096424997
0.076480001 0.0079375999 0.097441003
0.071015 -0.044007 0.098191001
-0.011611 0.054473002 0.14135
0.067019999 0.027215 0.081954002
0.067803003 0.026766 0.082934998
0.068338998 0.025533 0.082987003
0.071957998 -0.037517 0.081439003
0.072534002 -0.037218999 0.081940003
0.071827002 -0.035755999 0.082282998
0.071978003 -0.021183999 0.067275003
0.072981998 -0.02208 0.067671999
0.073665 -0.023047 0.068299003
0.076628 -0.033456001 0.092478998
0.076794997 -0.032481 0.093599997
0.072632998 -0.022328001 0.067074001
0.070363998 0.0082646003 0.064003997
0.070321999 0.0062631001 0.064658999
0.072783001 0.016578 0.082782
0.073036999 0.015745999 0.081707999
0.072116002 0.018017 0.082489997
0.0077443002 0.07818 0.11613
0.0078282999 0.078098997 0.11734
-0.001502 0.049546 0.13501
0.0046231002 0.081253998 0.096027002
0.0051691001 0.080718003 0.097398996
0.0066753002 0.080337003 0.097420998
0.0076835998 0.083474003 0.11614
0.0082395999 0.082846001 0.11699
0.0076061999 0.080600001 0.11679
0.0083245998 0.082842 0.11868
0.0095923999 0.082607999 0.1191
0.058649 0.017147001 0.058524001
0.058922999 0.01591 0.058394
0.028293001 0.063348003 0.16095001
0.078670003 -0.0053118002 0.10226
0.079099 -0.0040600998 0.10319
0.079060003 -0.0034701 0.10438
0.063761003 -0.048732001 0.13195001
0.062980004 -0.0502 0.13203
0.078934997 -0.0059821 0.08134
0.078543998 -0.0053639999 0.080658004
0.079014003 -0.0060649002 0.081789002
0.075825997 -0.026149999 0.055261001
0.077076003 -0.025962001 0.053555001
0.077039003 -0.024664 0.054652002
0.079020999 -0.019547001 0.097846001
0.079347998 -0.01977 0.099136002
0.078902997 -0.021051001 0.099506997
0.076670997 -0.027687 0.054646999
0.075769998 -0.028224999 0.054458998
0.076605 -0.024033001 0.053911999
0.07621 -0.023414999 0.054582998
0.076131999 -0.024357 0.053031001
0.078667 -0.021493999 0.099271998
0.078737997 -0.023209 0.099304996
0.078813002 -0.022632999 0.098369002
0.081234001 -0.0096642002 0.098416001
0.080848999 -0.0078798998 0.098691002
0.070538998 -0.042860001 0.098511003
0.076231003 -0.029331001 0.053355001
0.076116003 -0.029371999 0.054526001
0.080655001 -0.010421 0.099712998
0.080660999 -0.0091730999 0.10031
0.080190003 -0.0087999003 0.10199
0.066349 -0.033711001 0.042668
0.065282002 -0.033080999 0.041954
0.0016826 0.092703 0.094857998
0.00088685 0.093976997 0.094307996
0.0012127 0.094405003 0.094929002
0.0024131001 0.090659 0.097308002
0.0012431 0.0911 0.096749
0.0026126001 0.093468003 0.097438
0.071231999 -0.02571 0.067677997
0.072180003 -0.024534 0.067038998
0.072846003 -0.025188999 0.068291001
0.073271997 -0.023774 0.068145998
0.0082107 0.076764002 0.098607004
0.0080340002 0.078245997 0.098930001
0.0091396999 0.077214003 0.099246003
0.071558997 -0.027092 0.069118999
0.074216999 -0.035654001 0.087775998
0.073600002 -0.035098001 0.089060999
0.073572002 -0.036428001 0.088863999
0.077922001 0.0043465998 0.080885999
0.077777997 0.0055712 0.081269003
0.078542002 0.0053182002 0.081927001
0.068030998 -0.048509002 0.10667
0.071061999 -0.041138001 0.098259002
0.072206996 -0.039822001 0.097765997
0.071888 -0.040189002 0.099462003
-0.026371 0.065105997 0.13086
0.071257003 -0.038399 0.051182002
0.071877003 -0.037749 0.052815001
0.070748001 -0.039496999 0.052271999
0.076508 -0.029789001 0.054643001
0.070069999 -0.039067999 0.051323999
0.072645001 -0.037136 0.050604999
0.072244003 -0.036084 0.051305
0.073647998 -0.034809999 0.051360998
0.073149003 -0.034855999 0.051692002
0.073383003 -0.035764001 0.054513
0.074224003 -0.034869999 0.054196
0.073826998 -0.036435999 0.054671999
0.079866 -0.0071115 0.10069
0.079274997 -0.0067095002 0.10204
0.079195 -0.0082187997 0.10185
0.0016057 0.095670998 0.094787002
0.0012605001 0.095693998 0.095821999
0.047642 0.00017324 0.047263999
0.04623 -0.00078398001 0.048216999
0.049525 -0.046112999 0.052315
0.0025434 0.088477999 0.098265998
0.0021897999 0.088748999 0.096235
0.0024736 0.090547003 0.097661003
0.062999003 -0.029312 0.039538
0.021085 -0.030773001 0.054026999
0.048842002 -0.047628 0.053934
0.077523999 -0.025798 0.10437
0.078119002 -0.024338 0.10445
0.0030805001 0.098118 0.097641997
0.0030067 0.096018001 0.097622
0.075519003 0.0093087004 0.074064001
0.074662998 0.011774 0.073894002
0.074318998 0.010283 0.075948998
0.075776003 -0.030097 0.053208001
0.071971998 -0.046978001 0.085594997
0.071474999 -0.046613 0.086612001
0.072146997 -0.047239002 0.087195002
0.073803999 -0.033140998 0.051065002
0.073519997 -0.033140998 0.052949
0.072209999 -0.038529001 0.054338001
0.073173001 -0.037762001 0.055135999
0.074124999 -0.032496002 0.051419999
0.075433001 -0.031507999 0.05161
0.074726999 -0.030384 0.050845001
0.075638004 -0.031266998 0.051479999
0.075303003 -0.027953001 0.050686002
0.075214997 -0.028834 0.051750001
0.075455002 -0.027047001 0.050317999
0.075845003 -0.027708 0.051589001
0.075324997 -0.033441 0.054129001
0.074546002 -0.032945 0.054962002
0.074184999 -0.034936 0.054845002
0.075778998 -0.026758 0.050386
0.075893 -0.026137 0.051380001
0.064572997 0.025041001 0.10059
0.078599997 -0.010845 0.083625004
0.079709999 -0.0083919 0.083598003
0.078984 -0.010714 0.084919997
0.073565997 -0.038561001 0.10013
0.073302999 -0.038368002 0.098908
0.074952997 -0.036493 0.10007
0.0019361 0.090781003 0.095655002
0.0020002001 0.091066003 0.094407998
0.0019191999 0.092983 0.095893003
-0.0015749 0.090797 0.085872002
-0.0016501 0.091534004 0.085419998
-0.0025032 0.092942998 0.086213998
0.073265001 -0.037825 0.097910002
0.074615002 -0.037083 0.098220997
0.075103 -0.036587 0.098929003
-0.050154001 0.084882997 0.1187
-0.051041 0.087906003 0.11852
-0.050620001 0.086505003 0.11931
0.075595997 -0.035418 0.098090999
0.075172998 -0.036111001 0.098894
0.079700001 -0.0016443999 0.1021
0.078983001 -0.00077917002 0.10193
0.079002 -0.00012185 0.10286
0.0028703001 0.096217997 0.096855998
0.0019228 0.094291002 0.097208001
0.077620998 -0.027394 0.10277
0.0076969001 0.077413 0.10986
0.0074594999 0.076406002 0.1119
0.077923998 -0.024413999 0.10311
0.078143999 -0.023476999 0.10323
0.076174997 -0.024724999 0.051371999
0.076209001 -0.024870999 0.051642999
0.075364001 -0.023809999 0.051312
0.075801998 -0.02397 0.05164
0.07536 -0.022791 0.050416999
0.075005002 -0.022608999 0.051771
0.071672 -0.03889 0.055295002
0.074945003 -0.021407999 0.051504001
0.074762002 -0.020616001 0.051511999
0.075049996 -0.032173 0.053911
0.075346 -0.031408001 0.054761998
0.071378 -0.039407 0.054375
0.080233 -0.0095411995 0.084435999
0.075429 -0.035321999 0.099467002
0.076559998 -0.019779 0.080023997
0.076952003 -0.019892 0.080959
0.077046998 -0.020901 0.080913
0.076909997 -0.0036659001 0.074484996
0.075636998 -0.0026438001 0.073596001
0.077082999 -0.0040028002 0.07502
0.059760999 -0.021574 0.037889998
0.059415001 -0.021002 0.038615
0.050829001 -0.036892001 0.041342001
0.051722001 -0.034701001 0.040105
0.075825997 -0.033950001 0.098163001
0.076066002 -0.03472 0.099413998
0.073059 -0.039616998 0.10028
0.0091124 0.075845003 0.10695
0.0097251004 0.074692003 0.1086
0.011587 0.073826 0.10741
0.0024921999 0.094789997 0.096092001
0.039333999 0.021194 0.054042999
-0.011694 0.046881001 0.14086001
0.073320001 -0.018774999 0.051529001
0.010885 0.071365997 0.10154
0.0093099 0.070589997 0.10066
0.011089 0.072222002 0.10043
0.071207002 -0.049042001 0.089529
0.071486004 -0.048927002 0.088554002
0.072016999 -0.047552999 0.089681
0.076674998 -0.033121999 0.097987004
0.076411001 -0.032901 0.099445
0.0057385 0.075200997 0.094953001
-0.01276 0.038690001 0.14165001
-0.012507 0.037098002 0.14117
0.075255997 -0.031142 0.080265999
0.075765997 -0.028717 0.081597999
0.0078054001 0.07626 0.10724
-0.00060388999 0.090547003 0.085617997
-0.001531 0.089541003 0.085409001
0.078028999 -0.0099975001 0.079267003
0.078020997 -0.0076898001 0.080015004
0.078672998 -0.0083531998 0.080512002
0.037172001 0.042365 0.17694999
0.062886998 -0.021244001 0.039172001
0.010871 0.060901001 0.13096
-0.0022030999 0.092597 0.085134998
-0.0024965999 0.091958001 0.083356
0.056540001 -0.00022875 0.052115001
0.057429999 -0.00089367002 0.051764
0.076632999 -0.03091 0.097607002
0.076491997 -0.031280998 0.098677002
0.073925003 -0.039382 0.064510003
0.074518003 -0.039032999 0.062173001
0.074741997 -0.037067998 0.063400999
0.076848999 -0.025258999 0.098623
0.078024 -0.024464 0.098665997
0.078088 -0.023412 0.1002
0.074848004 -0.035030998 0.094944
0.075014003 -0.035018999 0.093404002
0.075878002 -0.034347001 0.095319003
0.00563 0.08027 0.098636001
0.0047225999 0.081188999 0.099292003
0.0062182001 0.079933003 0.10045
0.076453999 -0.03334 0.093849003
0.076182999 -0.029622 0.097529002
0.076954998 -0.0297 0.099155001
0.078230001 -0.0025716 0.09866
0.078346997 -0.0023699 0.099916004
0.079086997 -0.0044561001 0.099733002
0.072322004 -0.040681999 0.063004002
0.07243 -0.040428001 0.064544998
0.072186001 -0.041836999 0.063796997
0.076715 -0.028026 0.097507998
0.076870002 -0.028019 0.099408001
0.013224 0.011553 0.064461999
0.012085 0.013151 0.064391002
0.013868 0.012947 0.063496999
0.076753996 -0.0014290001 0.075466
0.077852003 -0.0025303001 0.075424999
0.076692 -0.0030592999 0.075822003
0.036998998 0.042668998 0.17561001
0.037046 0.043386001 0.17738
0.038704999 0.022748999 0.054646999
0.076575004 -0.028109999 0.10477
0.056492999 0.015121 0.056827001
0.057266001 0.015059 0.056421001
0.057062 0.014125 0.055497002
0.011624 0.072121002 0.10256
0.011778 0.074198 0.10166
0.012257 0.07209 0.10362
0.024212999 -0.040486 0.056898002
0.024645001 -0.042612001 0.059618
0.021904999 -0.043040998 0.060488999
0.076077998 -0.026954999 0.098325998
0.076895997 -0.027127 0.098801002
0.079400003 -0.013234 0.10188
0.080340996 -0.013149 0.10102
0.079397 -0.011468 0.10172
0.077237003 -0.0039785998 0.079944
0.078590997 -0.0034246 0.081721999
0.078833997 -0.0050885002 0.081188999
0.073316 -0.033861 0.085120998
0.074896 -0.033004001 0.085070997
0.074441001 -0.032912001 0.085960999
0.078895003 -0.020515 0.10175
0.079039 -0.018576 0.10219
0.079337999 -0.018428 0.10408
0.078652002 -0.0024416 0.10076
0.078804001 -0.0010286 0.10133
0.071905002 0.019711999 0.082282998
0.050771002 -0.0079639005 0.049515001
0.077624999 -0.024862999 0.098010004
0.078881003 -0.021213001 0.10207
0.076035999 -0.033725999 0.1012
0.077118002 -0.032472 0.10113
0.076820999 -0.034247998 0.10159
0.077198997 -0.031022999 0.10031
0.077221997 -0.030948 0.10173
0.077462003 -0.032175001 0.10228
0.063887998 0.027868001 0.099189997
0.036653001 0.043983001 0.1761
0.036881998 0.045513 0.17629001
0.036736 0.045554001 0.17643
0.035714999 0.047125001 0.17576
-0.058621 0.091783002 0.11666
-0.057833999 0.090058997 0.11724
-0.058125999 0.090760998 0.11872
0.028695 0.063383996 0.16373
0.0037626999 0.089654997 0.10293
0.0039496999 0.090577997 0.10415
0.0036843 0.088320002 0.10399
-9.4103001e-05 0.088756002 0.086498998
0.0010564 0.088852003 0.087476999
0.0012549 0.086990997 0.088030003
0.077853002 0.0044851 0.081812002
0.079016998 0.0027772 0.082353003
0.078725003 0.00071261002 0.081276
0.078415997 0.00090186001 0.080510996
0.078821003 0.0021825 0.081372999
0.075062998 -0.031828001 0.084062003
0.075571001 -0.031206001 0.083679996
0.075952999 -0.030712999 0.084582001
0.065586001 -0.0075792 0.056898002
0.065922 -0.0087094996 0.056738999
0.079761997 -0.013426 0.10375
0.079770997 -0.013644 0.10289
0.079402998 -0.011121 0.10389
0.065227002 0.022117 0.10296
0.065406002 0.022407001 0.10135
0.076807998 -0.019498 0.084307
0.077169001 -0.018705999 0.084964998
0.077652 -0.020533999 0.084856004
0.079662003 -0.0087984996 0.10313
0.079643004 -0.0079070004 0.10292
0.079677999 -0.0092099998 0.10318
0.079882003 -0.012131 0.10249
0.079333 -0.01058 0.10224
0.079584002 -0.010842 0.10375
0.0053333999 0.081214003 0.094099998
0.0063356999 0.081109002 0.095114999
0.011707 0.072897002 0.10953
0.012158 0.074045002 0.11018
0.013072 0.072373003 0.11015
0.072074004 -0.033004001 0.07254
0.071961999 -0.03404 0.074193999
0.072039999 -0.035202 0.074066997
-0.0025909999 0.086792998 0.082364
-0.0028023999 0.088590004 0.082911
-0.0022328 0.086632997 0.082447998
0.0559 0.0025911999 0.052354001
0.056228999 0.0048265001 0.052294001
0.057649001 0.0022738001 0.052983999
0.078516997 -0.024137 0.097984999
0.043772999 0.022169 0.055597998
0.078786999 -0.022562999 0.097305
0.011502 0.0048607001 0.060743999
0.0105 0.0040096999 0.059502002
0.0092256004 0.0037131 0.059858002
0.036371 0.044073001 0.17445
0.037593 0.042828001 0.17512999
0.037020002 0.045961 0.17526001
0.036458999 0.046642002 0.17521
0.0039905999 0.091794997 0.10295
0.0051274002 0.091821 0.10399
0.057489 0.0053340001 0.052965
0.079740003 0.00010891 0.10142
0.078730002 -0.021228001 0.10369
0.078190997 -0.021495 0.10311
0.078864001 -0.019874999 0.10345
0.031076999 0.056770999 0.16680001
0.076968998 0.0032790999 0.073910996
0.076027997 0.0041258 0.074019998
0.076753996 0.0041532 0.074780002
0.079034001 -0.0023552 0.084663004
0.078213997 -0.0028582001 0.084168002
0.079265997 -0.00059797999 0.085368998
0.064329997 0.027357999 0.098390996
0.067364998 0.026788 0.087323003
0.067653 0.026846999 0.086860001
0.0034181001 0.085984997 0.10309
0.0038346001 0.086971998 0.10462
0.0037863001 0.085685 0.10395
0.018832 -0.037133999 0.055392001
0.019703999 -0.035905998 0.055248
-0.012674 0.058809001 0.13844
-0.012074 0.058681 0.13869999
0.038716 0.028310999 0.17258
0.039004002 0.029943001 0.17293
0.038368002 0.041425001 0.17391001
0.037859 0.041576002 0.17474
0.037034001 0.042406999 0.17384
0.037516002 0.043421 0.17331
0.036401 0.045150001 0.17367999
0.036439002 0.047015999 0.17506
0.036014002 0.048526999 0.17434999
0.072012998 -0.022945 0.065788001
0.071774997 -0.024040001 0.066509999
0.071482003 -0.023062 0.065381996
-0.0085717002 0.051288001 0.13872001
-0.0081885997 0.052255001 0.13913999
0.059744 -0.044842999 0.050540999
0.061016999 -0.042688999 0.048110999
0.012568 0.059085 0.13734999
0.012525 0.060493 0.13786
0.070657998 -0.035948999 0.072989002
0.070058003 -0.036832999 0.074516997
0.077474996 0.0094098998 0.080913
0.076751001 0.0074519999 0.080071002
0.077301003 0.0097709997 0.081130996
0.077940002 -0.0014949 0.083253004
0.078822002 0.00010297 0.084216997
0.079063997 -0.0076444 0.1036
0.0032013 0.094053999 0.098155998
0.0023066001 0.092327997 0.098803997
0.0071940999 0.079967998 0.093707003
0.0056600999 0.081234001 0.093255997
0.0067527001 0.080154002 0.094218999
0.0012279 0.080485001 0.087021001
0.071590997 0.019241 0.088257998
0.010331 0.072603002 0.13053
0.039588001 0.031573001 0.17182
0.040165 0.033445001 0.17228
0.040410001 0.034844998 0.1725
0.040052999 0.035464998 0.17285
0.039901 0.035151001 0.17331
0.039448 0.036715001 0.17304
0.039444 0.038270999 0.1725
0.038555998 0.039682001 0.17327
0.038012002 0.041007001 0.17263
0.037641998 0.042013999 0.17314
0.0372 0.043373 0.17296
0.035969999 0.045600001 0.17326
0.035898998 0.046767 0.17305
