# .PCD v0.7 - Point Cloud Data file format
VERSION 0.7
FIELDS x y z
SIZE 4 4 4
TYPE F F F
COUNT 1 1 1
WIDTH 1564
HEIGHT 1
VIEWPOINT 0 0 0 1 0 0 0
POINTS 1564
DATA ascii
0.1627 0.058143999 0.21022999
0.16212 0.058417998 0.21089999
0.15978999 0.058366999 0.21243
0.15895 0.059424002 0.21236999
0.16046 0.05883 0.21145999
0.16272999 0.061935998 0.21049
0.16353001 0.062389001 0.20954999
0.17157 0.065784998 0.20582999
0.17084 0.065586001 0.20606001
0.16989 0.065742001 0.20630001
0.16923 0.065737002 0.20695999
0.17246 0.066358998 0.20456
0.17487 0.068397999 0.20393001
0.1754 0.069132 0.2036
0.10994 -0.053387001 0.23665
0.040750999 -0.052547 0.27179
0.041352 -0.052882001 0.27210999
0.040224999 -0.051917002 0.27243999
0.039156001 -0.051150002 0.27267
0.038102999 -0.050496999 0.27340001
0.038098 -0.05046 0.27250999
0.070795 -0.050409999 0.25707999
0.065012999 -0.049210001 0.25986999
0.064999998 -0.048911002 0.25966999
0.10739 -0.049479 0.23848
0.035767999 -0.048604999 0.27450001
0.036486 -0.048960999 0.27410001
0.068816997 -0.048209999 0.25826001
0.034791999 -0.047286 0.27526
0.06983 -0.047798 0.25760001
0.035491999 -0.048416 0.27485001
0.10641 -0.047706001 0.23830999
0.10676 -0.047219999 0.23896
0.10616 -0.046588998 0.23851
0.067997001 -0.047669001 0.25922
0.067867003 -0.047084998 0.25881001
0.067904003 -0.046948001 0.25817001
0.06741 -0.046746999 0.25841999
0.033902999 -0.046393 0.27566999
0.033271998 -0.046064001 0.27575999
0.033002999 -0.045295 0.27636999
0.032531001 -0.045033999 0.27645999
0.10574 -0.043990999 0.23861
0.031947002 -0.044009998 0.27676001
0.10552 -0.042314 0.23919
0.087783001 -0.041572999 0.24818
0.087058999 -0.041935999 0.24828
0.086712003 -0.041848999 0.24846999
0.088541001 -0.041379001 0.24749
0.090811998 -0.041673999 0.2464
0.089179002 -0.041234002 0.24703
0.030359 -0.041373 0.27785
0.028014001 -0.037512999 0.27921
0.028129 -0.037544999 0.27869001
0.10596 -0.036635 0.23851
0.027396999 -0.036327999 0.27902001
0.11866 -0.033909 0.23247001
0.11831 -0.034586001 0.23244999
0.10733 -0.034019999 0.23808999
0.062235001 -0.033105001 0.26131001
0.062355999 -0.033356 0.26139
0.062283002 -0.033895001 0.26096001
0.062343001 -0.033934999 0.26109001
0.11945 -0.033461999 0.23172
0.060554001 -0.032699998 0.26286
0.026422 -0.033190001 0.27948001
0.026683001 -0.034069002 0.27932
0.026439 -0.032992002 0.27985999
0.062392 -0.032249998 0.26168001
0.060915001 -0.033233002 0.26177999
0.12049 -0.032145001 0.23161
0.10851 -0.032024998 0.23785
0.057829 -0.031948 0.26341
0.056428999 -0.031039 0.26528001
0.057257999 -0.031585 0.26396
0.12132 -0.031349 0.2315
0.12109 -0.031559002 0.23126
0.11193 -0.031505998 0.23568
0.16421001 -0.031021999 0.20938
0.16455001 -0.030478001 0.20924
0.12134 -0.031032 0.2308
0.10935 -0.031311002 0.23699
0.060819998 -0.030564999 0.26192999
0.061051998 -0.031213 0.26151001
0.16446 -0.029495001 0.20929
0.12242 -0.029728999 0.23024
0.12214 -0.029975999 0.2304
0.12182 -0.030412 0.23052999
0.025268 -0.029386999 0.27893001
0.025362 -0.029449999 0.28020999
0.025371 -0.029155999 0.27983001
0.16421001 -0.028898999 0.20936
0.12238 -0.029297 0.23005
0.11038 -0.029482 0.23724
0.060938001 -0.029305 0.26269001
0.024907 -0.028429 0.28033999
0.11224 -0.028775999 0.23605999
0.11127 -0.02832 0.23649999
0.16437 -0.027499 0.20928
0.060329001 -0.028679 0.26225001
0.16441999 -0.026938001 0.20939
0.060040001 -0.026821001 0.26273
0.061152998 -0.025947999 0.26232001
0.060598001 -0.025407 0.26214999
0.060449 -0.024851 0.26241001
0.1256 -0.025878999 0.22857
0.12645 -0.024870001 0.22826999
0.060155001 -0.024328999 0.26216
0.024799 -0.024491999 0.28082001
0.024768 -0.023848001 0.28099
0.16408999 -0.022901 0.20949
0.16436 -0.023891 0.20934001
0.16444001 -0.022074001 0.20953
0.12962 -0.02177 0.22734
0.1636 -0.021256 0.20968001
0.13053 -0.021018 0.22675
0.16395 -0.020384001 0.2096
0.13065 -0.020884 0.22623999
0.16441999 -0.019358 0.20947
0.16483 -0.018621 0.20938
0.024875 -0.019454001 0.28011
0.13236 -0.019497 0.22429
0.13248999 -0.019474 0.22502001
0.16309001 -0.017527999 0.21010999
0.13507999 -0.017109999 0.22261
0.13530999 -0.017165 0.22363999
0.13586 -0.016463 0.22321001
0.16355 -0.018348999 0.2098
0.16282 -0.01637 0.20986
0.025451001 -0.016422 0.28064001
0.16229001 -0.015955999 0.21027
0.16136999 -0.016074 0.21061
0.16131 -0.01572 0.21086
0.13751 -0.015228 0.22243001
0.15791 -0.014108 0.21246
0.15866999 -0.014295 0.21211
0.15712 -0.013158 0.21323
0.1569 -0.013715 0.21287
0.026387 -0.014239 0.27928999
0.026343999 -0.014291 0.28011999
0.15648 -0.013296 0.21338999
0.15569 -0.013719 0.21314999
0.15524 -0.014849 0.21302
0.15459999 -0.014324 0.21363001
0.13996001 -0.013482 0.22101
0.039106 -0.013195 0.27399001
0.037795 -0.012309 0.27382001
0.038814999 -0.01254 0.27419001
0.15449999 -0.012473 0.21434
0.15401 -0.012105 0.21466
0.027184 -0.012122 0.27961999
0.15353 -0.01187 0.21489
0.15237001 -0.011522 0.21562999
0.15279 -0.012286 0.21489
0.15157001 -0.011254 0.21603
0.15090001 -0.010957 0.21622001
0.15048 -0.011238 0.21596999
0.14563 -0.010946 0.21844
0.14464 -0.011273 0.21938001
0.037857 -0.011408 0.27439001
0.037418999 -0.011218 0.27463999
0.1495 -0.011201 0.21614
0.14974999 -0.010667 0.21686
0.14793999 -0.011467 0.21642999
0.14904 -0.010945 0.21679001
0.14857 -0.011477 0.21599001
0.14717001 -0.01091 0.21728
0.14783999 -0.01088 0.21691
0.036396001 -0.010119 0.27494001
0.028586 -0.010008 0.27864
0.028446 -0.010196 0.27930999
0.028596999 -0.010872 0.27866
0.035464998 -0.0095808003 0.27542001
0.029573999 -0.0096079996 0.27803999
0.030022001 -0.0089416998 0.27807
0.056802999 -0.0085076997 0.26392001
0.058125999 -0.0086928997 0.264
0.034738999 -0.0098056998 0.27537
0.030526999 -0.0091131004 0.27765
0.056825001 -0.0078544999 0.26370999
0.057776 -0.0040789 0.26343
0.058235001 -0.0014285001 0.26370999
0.060134999 0.0033559999 0.26264
0.064740002 0.0042571002 0.26052999
0.063808002 0.0039565 0.26010001
0.064011 0.0048313001 0.26034999
0.060398001 0.0039682002 0.26205
0.061229002 0.0047888001 0.26177001
0.064009003 0.005506 0.26056001
0.064328998 0.0052161999 0.26067999
0.06154 0.0056083999 0.26118001
0.16429 0.035220001 0.20947
0.16178 0.036527 0.21058001
0.16102 0.036782 0.21098
0.1627 0.036657002 0.21001001
0.16213 0.037087999 0.21036001
0.16179 0.03734 0.21065
0.16344 0.037377 0.20942
0.16618 0.038630001 0.20826
0.16598 0.038311001 0.20767
0.1672 0.040312 0.20753001
0.16796 0.040297002 0.20655
0.16838001 0.041280001 0.20725
0.16889 0.041418999 0.20682
0.17033 0.041664001 0.20546
0.17112 0.042167999 0.20533
0.1744 0.044305999 0.20398
0.17557 0.045665 0.20313001
0.18333 0.045366999 0.19943
0.18122 0.046188001 0.20044
0.17839999 0.046767998 0.20153999
0.16603 0.057934001 0.20847
0.16522001 0.057822999 0.20884
0.16428 0.058081001 0.20929
0.1594 0.059767999 0.21177
0.15967999 0.059232999 0.21171001
0.16797 0.059321001 0.20655
0.16878 0.059315 0.20652001
0.16031 0.060286 0.21082
0.15986 0.060433 0.21141
0.16337 0.062281001 0.20979001
0.16576 0.063988999 0.20801
0.16717 0.064737 0.20714
0.17236 0.065613002 0.20513
0.17312001 0.066701002 0.20405
0.17358001 0.067426004 0.20392001
0.17452 0.067900002 0.20448001
0.17441 0.067832001 0.20381001
0.17973 0.070079997 0.20173
0.17915 0.069395997 0.20144001
0.17967001 0.069146998 0.20209
0.17547999 0.069193996 0.20291001
0.1772 0.070308 0.20276999
0.17884 0.070776001 0.20175
0.17816 0.070711002 0.20173
0.17794 0.070169002 0.20162
0.11053 -0.053451002 0.23643
0.1096 -0.052974001 0.23656
0.041703999 -0.053165 0.27175999
0.10896 -0.052288 0.23686001
0.10861 -0.051840998 0.2374
0.10832 -0.051927 0.23649
0.10835 -0.051364999 0.23748
0.10804 -0.050276998 0.2378
0.071001999 -0.050896 0.25672999
0.070487998 -0.049702998 0.257
0.064106002 -0.050071001 0.26030001
0.064548999 -0.049672 0.26010999
0.10751 -0.049830001 0.23802
0.10729 -0.049054999 0.23807
0.037099998 -0.049497999 0.27403
0.10738 -0.050087001 0.23712
0.10685 -0.049229998 0.23717
0.070152 -0.048346002 0.25694999
0.10674 -0.048353001 0.23816
0.068487003 -0.047490999 0.25788999
0.069012001 -0.047641002 0.25747001
0.034818001 -0.048087001 0.27483001
0.14308 -0.047063001 0.21950001
0.14393 -0.047603 0.21938001
0.14228 -0.046610001 0.22009
0.14257 -0.046911001 0.22067
0.066811003 -0.046750002 0.25881001
0.032979 -0.045506001 0.27625999
0.10582 -0.045060001 0.23856001
0.031847 -0.044261999 0.2757
0.10553 -0.043111 0.23884
0.082370996 -0.042791001 0.25138
0.03087 -0.042275 0.27735001
0.085114002 -0.042449001 0.24946
0.084539004 -0.042199999 0.24963
0.091688998 -0.042199999 0.24602
0.089959003 -0.041175999 0.24661
0.030198 -0.041260999 0.27754
0.029968999 -0.040881999 0.27768001
0.10527 -0.039577998 0.23918
0.0294 -0.039916001 0.27774999
0.028708 -0.038284 0.27847001
0.10519 -0.038550999 0.23885
0.10565 -0.037595998 0.23905
0.027753999 -0.037027001 0.27864999
0.10638 -0.034940001 0.23741999
0.10644 -0.035691001 0.23859
0.10679 -0.035087001 0.23810001
0.10718 -0.034437999 0.23818
0.10701 -0.034068 0.23661999
0.059959002 -0.033015002 0.26242
0.026232 -0.032680999 0.27959999
0.10796 -0.033346001 0.23757
0.10857 -0.032219999 0.23746
0.061755002 -0.032230001 0.26120001
0.059315 -0.032961 0.26244
0.058781002 -0.032423001 0.26287001
0.12018 -0.032219 0.23064999
0.11972 -0.032669999 0.23062
0.11921 -0.033039 0.2308
0.061949 -0.031709 0.26153001
0.025708999 -0.032184001 0.27893999
0.025761999 -0.032106999 0.28009
0.11303 -0.032088 0.23559
0.11258 -0.032148 0.23503
0.10888 -0.031590998 0.23754001
0.062368002 -0.031388 0.26196
0.05601 -0.031608999 0.26422
0.056639001 -0.032281999 0.26319
0.055881001 -0.031759001 0.26368999
0.16355 -0.030696999 0.20929
0.11169 -0.030153999 0.23582
0.025749 -0.031254999 0.27969
0.10964 -0.030584 0.23689
0.16323 -0.029874999 0.20936
0.061037 -0.030133 0.26212001
0.060151 -0.029565999 0.26179999
0.025318 -0.029933 0.27943999
0.11191 -0.029598 0.2359
0.111 -0.029839 0.23623
0.11032 -0.030331001 0.23646
0.11067 -0.029738 0.23678
0.11089 -0.030523 0.23638
0.16237 -0.030384 0.2097
0.16295999 -0.029503001 0.2094
0.11112 -0.029002 0.23646
0.16309001 -0.028646 0.20942
0.16353001 -0.027403999 0.20948
0.024736 -0.028038001 0.2802
0.16256 -0.027469 0.20974
0.16320001 -0.026802 0.20939
0.1248 -0.026775001 0.22913
0.16482 -0.025828 0.20901
0.16329999 -0.025849 0.20931
0.0612 -0.026898 0.26174
0.024536001 -0.026649 0.27965
0.024646999 -0.026942 0.27994001
0.024735 -0.026205 0.28051001
0.16443001 -0.025488 0.20911001
0.024538999 -0.025968 0.27954
0.16478001 -0.02493 0.20892
0.059542 -0.025133001 0.26238
0.16441999 -0.024901999 0.20897999
0.16271 -0.025292 0.20943999
0.16326 -0.024868 0.20951
0.12699001 -0.024024 0.22781
0.16340999 -0.024338 0.20941
0.16269 -0.024114 0.20969
0.12786999 -0.02304 0.22724
0.12746 -0.023755001 0.22721
0.12862 -0.022745 0.2271
0.16326 -0.022476999 0.20972
0.12828 -0.023229999 0.22713999
0.024525 -0.022205999 0.28031999
0.16294999 -0.022224 0.20959
0.16268 -0.021475 0.20983
0.12939 -0.021916 0.22674
0.12981001 -0.021504 0.22662
0.061191998 -0.021341 0.26161
0.061811998 -0.021309 0.26153001
0.16242 -0.020505 0.20987
0.16274001 -0.019471999 0.20976
0.1638 -0.019562 0.20942
0.13186 -0.019807 0.22542
0.16382 -0.018952999 0.20969
0.024902999 -0.018539 0.27989
0.1618 -0.017789001 0.21010999
0.13423 -0.018185001 0.22452
0.16196001 -0.016872 0.21055
0.025463 -0.016783999 0.27993
0.024933999 -0.017655 0.28025001
0.16103999 -0.016689001 0.21065
0.15916 -0.016058 0.21146999
0.15956999 -0.01541 0.21149001
0.16013999 -0.016692 0.21097
0.15933999 -0.016483 0.21122
0.13722999 -0.015743 0.22276001
0.13648 -0.016155999 0.22212
0.15868001 -0.015519 0.21182001
0.15891001 -0.016109001 0.21164
0.02592 -0.014792 0.27950001
0.13812 -0.014939 0.22202
0.15786 -0.015019 0.21214999
0.15685 -0.015249 0.21255
0.1561 -0.01393 0.21331
0.15549 -0.01319 0.2138
0.15470999 -0.013044 0.21413
0.15455 -0.0135 0.21387
0.15367 -0.013294 0.21439999
0.14086001 -0.013103 0.22060999
0.14052001 -0.013449 0.22001
0.026732 -0.013048 0.27950001
0.027015001 -0.012295 0.27912
0.15291999 -0.013456 0.2145
0.14189 -0.012842 0.22031
0.14281 -0.012036 0.21954
0.1521 -0.012175 0.21529999
0.15197 -0.011552 0.21562
0.1513 -0.012073 0.21522
0.15132999 -0.01137 0.2157
0.14387 -0.011769 0.2193
0.027402001 -0.011533 0.27928999
0.14478 -0.011147 0.21861
0.036791001 -0.011433 0.27405
0.037462998 -0.011865 0.27390999
0.028047999 -0.010901 0.27884999
0.027797 -0.011273 0.27871999
0.14629 -0.010694 0.21795
0.036539 -0.010982 0.27429
0.035801001 -0.010577 0.27430001
0.035107002 -0.010245 0.27463999
0.029329 -0.010485 0.27744001
0.029137 -0.0096822996 0.27836999
0.035526998 -0.0094176996 0.2753
0.056921002 -0.0069292998 0.26388001
0.056919001 -0.0042284001 0.2633
0.056219999 -0.0049592 0.26317
0.057519998 -0.0031729999 0.26324001
0.057886001 -0.0014342 0.26352
0.057195999 -0.0016269 0.26267001
0.057636 -0.0024065999 0.26320001
0.058178 -0.00067158998 0.26317
0.058297001 -0.00024084 0.26321
0.058506001 0.00010253 0.26337999
0.058745001 0.0011957 0.26276001
0.059071001 0.0016728 0.26271001
0.059886001 0.0034823001 0.26216
0.063624002 0.0053213998 0.26023999
0.063612998 0.0058045001 0.26052999
0.16816001 0.035177 0.2077
0.16901 0.034986999 0.20658
0.16932 0.035025999 0.20658
0.16945 0.035204999 0.20733
0.16915999 0.035285 0.2079
0.16807 0.035112001 0.20796999
0.16741 0.034389999 0.20711
0.1657 0.034942001 0.20792
0.16698 0.034850001 0.2086
0.16616 0.034832001 0.20904
0.16656999 0.034740001 0.20757
0.16525 0.034998 0.20853999
0.16545001 0.034970999 0.20917
0.16430999 0.035404 0.20897999
0.16361 0.035985999 0.2093
0.16338 0.036658999 0.2094
0.16260999 0.037709001 0.20983
0.16412 0.037705 0.20897
0.16502 0.037622001 0.20798001
0.16517 0.037916999 0.20864999
0.16711 0.039113998 0.20768
0.16734999 0.039275002 0.20671
0.16858 0.041001 0.20676
0.16982999 0.041313998 0.206
0.16918001 0.041113 0.20645
0.16971999 0.041618999 0.20649999
0.17156 0.042868 0.20514999
0.17242999 0.043510001 0.20482001
0.17456999 0.044753 0.20343
0.17364 0.044036999 0.20383
0.17327 0.043869998 0.20426001
0.1752 0.045194 0.20361
0.17715 0.045639001 0.20213
0.17746 0.045825999 0.20196
0.17612 0.045790002 0.20271
0.18186 0.045818001 0.1996
0.18121 0.045834001 0.19972
0.18104 0.045791999 0.19943
0.18063 0.045869 0.20028
0.18028 0.046209998 0.20047
0.17834 0.046486001 0.20163999
0.17941 0.046794001 0.20096999
0.17917 0.047132999 0.20111001
0.17903 0.047060002 0.20151
0.16564 0.058371998 0.20807999
0.16527 0.058297001 0.20879
0.16698 0.058412001 0.20776001
0.16418999 0.059289001 0.20874
0.16482 0.059117001 0.20846
0.16324 0.059392001 0.20923001
0.16158 0.059232999 0.21021999
0.16095001 0.059172001 0.21066999
0.16260999 0.059555002 0.2095
0.16052 0.059356999 0.21107
0.16967 0.059889998 0.20558999
0.16106001 0.060825001 0.21053
0.17186999 0.061163999 0.20489
0.17247 0.061090998 0.20537999
0.17178001 0.060869999 0.20561001
0.17126 0.060821 0.20513
0.16168 0.061135001 0.20993
0.16237999 0.061650999 0.20959
0.16205999 0.061634999 0.21012001
0.16348 0.062059999 0.20919
0.16362999 0.062396999 0.20920999
0.16677999 0.064742997 0.20754001
0.16787 0.064998999 0.20735
0.16799 0.065234996 0.20654
0.17183 0.065893002 0.2049
0.17122 0.065461002 0.20516001
0.17061 0.065222003 0.20544
0.16994999 0.065396003 0.20598
0.16903 0.065554999 0.20636
0.17299999 0.066772997 0.20303001
0.17478999 0.068167001 0.2035
0.17851999 0.069835998 0.20121001
0.17921001 0.069967002 0.20138
0.17594001 0.069193996 0.20163999
0.17648 0.070047997 0.20255999
0.17628001 0.069454998 0.20186
0.17715999 0.070247002 0.20186999
0.041554 -0.052699 0.27101001
0.041875001 -0.052972998 0.27054
0.040258002 -0.052055001 0.27114001
0.040316999 -0.051892001 0.27180001
0.039088 -0.051236 0.27254
0.069918998 -0.050298002 0.25670999
0.070192002 -0.049492002 0.2568
0.038575999 -0.050666001 0.27217001
0.069611996 -0.050402999 0.25626999
0.038047999 -0.050216999 0.27333
0.037326001 -0.049610998 0.27373001
0.037190001 -0.049323998 0.27289
0.036708999 -0.049385 0.27322
0.1063 -0.04871 0.23726
0.065861002 -0.047706999 0.25907001
0.065871999 -0.048388001 0.25964999
0.1062 -0.047084998 0.23814
0.14324 -0.047235999 0.21949001
0.066651002 -0.046089999 0.25863999
0.067197002 -0.045770001 0.25819001
0.067061998 -0.044787001 0.25828999
0.067319997 -0.045905001 0.25745001
0.066480003 -0.044861 0.25859001
0.033323001 -0.045827001 0.27516001
0.067082003 -0.045031998 0.25773001
0.066990003 -0.044116002 0.25828001
0.066542 -0.044009 0.25867
0.066826999 -0.043894999 0.25781
0.066848002 -0.043318 0.25793001
0.066734001 -0.043341 0.2586
0.066538997 -0.042743001 0.25823
0.082805 -0.042537 0.25053
0.081552997 -0.042757999 0.25044999
0.080953002 -0.042619001 0.25130999
0.081666999 -0.042688001 0.2511
0.066229001 -0.042222001 0.25832
0.085986003 -0.042185999 0.24865
0.10529 -0.041216999 0.23897
0.10527 -0.040403999 0.23897
0.030556001 -0.042438 0.27625999
0.030960999 -0.043076999 0.27610999
0.030547 -0.041905001 0.27671
0.029509 -0.040337 0.27774999
0.029293001 -0.039657 0.27695999
0.028883001 -0.039151002 0.27787
0.028341001 -0.038527001 0.27728
0.10507 -0.038738001 0.23827
0.1049 -0.039641 0.23831999
0.028021 -0.037532002 0.27768001
0.10543 -0.037558999 0.23774999
0.027209001 -0.035737 0.27822
0.027241001 -0.036127001 0.27858001
0.026874 -0.035126999 0.27912
0.026761999 -0.034483999 0.27906999
0.11853 -0.034258001 0.23120999
0.11892 -0.033567 0.23105
0.10773 -0.033454999 0.23682
0.10839 -0.032990001 0.23733
0.058825999 -0.032907002 0.26254001
0.026256001 -0.033431001 0.27880001
0.11199 -0.032012001 0.23506001
0.10899 -0.03221 0.23675001
0.057069998 -0.031874999 0.26354
0.11093 -0.031083001 0.23589
0.11 -0.031254001 0.23616999
0.025296999 -0.030526999 0.27871999
0.12115 -0.030641999 0.22983
0.16236 -0.029052 0.20983
0.16156 -0.030066 0.20976999
0.12316 -0.028956 0.22973999
0.025010999 -0.028756 0.27919999
0.12365 -0.028266 0.22931001
0.05965 -0.028976001 0.26122001
0.16195001 -0.028678 0.20972
0.16162001 -0.027477 0.21003
0.12342 -0.028424 0.229
0.16065 -0.027586 0.21012001
0.16166 -0.026943 0.20977999
0.16196001 -0.026161 0.20982
0.1631 -0.026131 0.20948
0.12472 -0.026458001 0.22791
0.12577 -0.025822001 0.22770999
0.12533 -0.026117999 0.22746
0.024545999 -0.025033001 0.28042001
0.12605999 -0.025277 0.22725999
0.059618 -0.023894999 0.26223001
0.16242 -0.023002001 0.20979001
0.16165 -0.023479 0.20973
0.12842999 -0.022887001 0.22614001
0.16159 -0.022263 0.20987999
0.12892 -0.022422001 0.22555999
0.16106001 -0.022644 0.20992
0.16148999 -0.021287 0.20991001
0.12984 -0.021903999 0.22594
0.024635 -0.021135001 0.28037
0.16176 -0.020609001 0.20999999
0.13034999 -0.021118 0.22585
0.060444001 -0.021375 0.26133001
0.061016001 -0.020447001 0.26155001
0.024797 -0.021153999 0.27965999
0.12986 -0.021640001 0.22529
0.13073 -0.020566 0.22479001
0.024783 -0.020451 0.27965999
0.16168 -0.019820999 0.21008
0.16089 -0.020521 0.21021999
0.16087 -0.019834001 0.21033999
0.13151 -0.020128001 0.22437
0.024985 -0.019469 0.27835
0.024861 -0.020677 0.27919
0.024727 -0.019495999 0.27873999
0.16096 -0.018851001 0.21036001
0.1601 -0.018784 0.21063
0.16009 -0.019615 0.21069001
0.025069 -0.017805001 0.27902001
0.024961 -0.01877 0.27919999
0.15995 -0.017960001 0.21069001
0.025206 -0.017643001 0.27976
0.15921 -0.017592 0.21109
0.13410001 -0.018118 0.22329
0.025279 -0.017285001 0.27913001
0.13542999 -0.016672 0.22243001
0.15835001 -0.017076001 0.21155
0.13719 -0.015641 0.22160999
0.15751 -0.015998 0.21213
0.15588 -0.015082 0.21277
0.15459 -0.015122 0.21348999
0.15369999 -0.014115 0.21408001
0.13861001 -0.014852 0.22093999
0.15309 -0.014178 0.21401
0.1522 -0.01326 0.21476001
0.026891001 -0.013393 0.27906999
0.14102 -0.013166 0.21946999
0.14467999 -0.011879 0.21791001
0.037018001 -0.012061 0.27382001
0.027618 -0.012006 0.27857
0.14519 -0.011451 0.21783
0.14894 -0.011123 0.21623001
0.14594001 -0.011214 0.21777
0.035684001 -0.011327 0.27421001
0.028484 -0.011353 0.278
0.029307 -0.010608 0.27733999
0.032489002 -0.0097033996 0.27610999
0.031697001 -0.0095897 0.27653
0.031164 -0.0095969997 0.27693999
0.030894 -0.010172 0.2766
0.031431999 -0.010703 0.27607
0.033503 -0.0097645996 0.27542999
0.030169001 -0.0099927997 0.27715999
0.056258 -0.0063566999 0.26324001
0.055844001 -0.0070350999 0.26337999
0.057225998 -0.0025347001 0.26291999
0.057647001 -0.00024207 0.26242
0.05838 0.0012381 0.26214001
0.057911001 0.00026867 0.26219001
0.059131999 0.0020387 0.26218
0.059551001 0.0027735 0.26172999
0.059737001 0.0030322 0.26151001
0.060566001 0.004073 0.26163
0.062848002 0.003943 0.25984001
0.062944002 0.0048302002 0.26001
0.062586002 0.0054611 0.26051
0.062569998 0.0058808001 0.26072001
0.16806 0.034882002 0.2066
0.16784 0.034515999 0.20581
0.16467001 0.035339002 0.20837
0.16408999 0.036550999 0.2085
0.16547 0.037898999 0.20805
0.16680001 0.038201999 0.20721
0.1688 0.040525999 0.20609
0.17064001 0.041786 0.20477
0.17005999 0.041212 0.2049
0.17209999 0.042831998 0.20445
0.1772 0.045620002 0.20097999
0.17847 0.046259999 0.20092
0.16746999 0.058995999 0.2068
0.16726001 0.058538999 0.20743001
0.16669001 0.059074 0.20731001
0.16534001 0.059287 0.20773
0.16904999 0.059687998 0.20601
0.16103999 0.060309999 0.21029
0.16155 0.060430001 0.20986
0.1708 0.061358001 0.20439
0.16226999 0.061361998 0.20920999
0.17306 0.062199999 0.20427001
0.17332999 0.062725 0.20393001
0.17366 0.062932 0.20405
0.17488 0.064638004 0.20209
0.17466 0.063670002 0.20344999
0.17428 0.064180002 0.20280001
0.17038 0.064586997 0.20484
0.17036 0.064621001 0.20544
0.16975001 0.064608 0.20551001
0.1771 0.066324003 0.20204
0.17651001 0.065612003 0.20265
0.17595001 0.065652996 0.20190001
0.17817 0.066439003 0.20232999
0.17777 0.067128003 0.20171
0.17733 0.067414001 0.20113
0.17766 0.068223 0.20117
0.17851 0.067377001 0.20172
0.17855 0.068121001 0.20123
0.17809001 0.068712004 0.20088001
0.17749 0.069811001 0.2014
0.11056 -0.053684 0.23522
0.11119 -0.053987 0.23603
0.10989 -0.053626001 0.23571
0.10922 -0.053015001 0.23609
0.10946 -0.053303 0.23571999
0.042941 -0.053392 0.27000001
0.041317999 -0.052629001 0.27063999
0.10872 -0.052545998 0.23632
0.039522 -0.051233001 0.27166
0.10773 -0.050857 0.23665
0.069489002 -0.049346 0.25628999
0.036396999 -0.048962999 0.27337
0.064956002 -0.047426 0.259
0.064421996 -0.048087999 0.25920001
0.10624 -0.047373001 0.23776001
0.065186001 -0.047653001 0.25907999
0.035599999 -0.048168998 0.27368999
0.034632999 -0.047561001 0.27419001
0.10595 -0.047749002 0.23758
0.10552 -0.047348998 0.23677
0.065348998 -0.047198001 0.25894001
0.034187999 -0.047196001 0.27427
0.14283 -0.047015 0.21907
0.14219999 -0.046535999 0.21877
0.10587 -0.046688002 0.23779
0.068655998 -0.046737 0.25692001
0.069320001 -0.047703002 0.25674
0.067812003 -0.04679 0.25751001
0.065476999 -0.046879999 0.25872001
0.066010997 -0.046769001 0.25894001
0.033978 -0.046890002 0.27502999
0.067622997 -0.046541002 0.25757
0.14162 -0.046213999 0.21953
0.10533 -0.046064999 0.23794
0.065710999 -0.045724001 0.25867
0.10538 -0.044911999 0.23807
0.10539 -0.044202 0.23822001
0.065691002 -0.044943999 0.25834
0.065476 -0.044013999 0.25834
0.10508 -0.043225002 0.23825
0.080661997 -0.043047 0.25079
0.079979002 -0.042846002 0.25126001
0.065618001 -0.042169999 0.25850999
0.090434 -0.042486999 0.24557
0.091123998 -0.042312998 0.24533001
0.091086 -0.043083001 0.24552999
0.084922001 -0.042275999 0.24886
0.084178001 -0.042571001 0.24905001
0.083144002 -0.042578001 0.24962001
0.082422003 -0.042904999 0.25005001
0.081928998 -0.042470999 0.25046
0.10468 -0.041288 0.23820999
0.087201998 -0.042311002 0.24737
0.08653 -0.042281002 0.24766999
0.085685998 -0.042396002 0.24816
0.090337001 -0.041715 0.2462
0.089662999 -0.041602001 0.24624
0.089060001 -0.041614 0.24642999
0.088211998 -0.041687001 0.24673
0.10459 -0.040461998 0.23841999
0.029236 -0.040559001 0.27678001
0.10557 -0.038096 0.23804
0.027306 -0.036855001 0.27810001
0.10581 -0.036628999 0.23755001
0.10598 -0.035813 0.23811001
0.026818 -0.035094 0.27836001
0.1064 -0.035672002 0.23799001
0.061856002 -0.034123 0.25994
0.062210001 -0.035229001 0.25999999
0.061703 -0.034304 0.26062
0.11763 -0.034731001 0.23152
0.11787 -0.034522001 0.23224001
0.11825 -0.034522999 0.23179001
0.026532 -0.034350999 0.27886999
0.061381001 -0.033147998 0.26034999
0.060918 -0.033523001 0.2615
0.059590999 -0.033466 0.26157999
0.10799 -0.032862999 0.23675001
0.058830999 -0.033335999 0.26183999
0.0581 -0.032903999 0.26192001
0.057969 -0.032607 0.26255
0.10918 -0.032152001 0.23619001
0.10854 -0.032644 0.23665
0.11148 -0.031987999 0.23495001
0.11199 -0.032329999 0.23465
0.11057 -0.031936999 0.2352
0.11132 -0.03176 0.2353
0.060708001 -0.031783 0.26056999
0.060876001 -0.032398 0.2604
0.060614001 -0.031215999 0.26073
0.057353001 -0.032457002 0.26249
0.11058 -0.031603001 0.23559
0.11001 -0.031681001 0.23597001
0.025372 -0.031155 0.27873001
0.025533 -0.031367 0.27925
0.060375001 -0.030591 0.26124001
0.06047 -0.030037001 0.2617
0.060231999 -0.030038999 0.26115999
0.12245 -0.029281 0.22883999
0.059981 -0.029731 0.2613
0.16069999 -0.028930999 0.21004
0.12282 -0.028929999 0.2287
0.16015001 -0.028736001 0.21027
0.12358 -0.028015001 0.22899
0.12424 -0.027365999 0.22829001
0.16023999 -0.026131 0.21032
0.15984 -0.0266 0.21036001
0.15987 -0.027608 0.21042
0.024781 -0.027677 0.27959999
0.16032 -0.025629999 0.21010999
0.16044 -0.025 0.21007
0.059191 -0.025891 0.26159
0.059101 -0.024042999 0.26161999
0.059098002 -0.024971999 0.26157001
0.16162001 -0.024094 0.20973
0.16031 -0.024134999 0.21006
0.15977 -0.02414 0.21026
0.12705 -0.024294 0.22723
0.12734 -0.023971001 0.22645
0.05926 -0.023335001 0.26234001
0.058883999 -0.02324 0.26181
0.024458 -0.022683 0.27947
0.16058999 -0.023477999 0.21021999
0.12803 -0.023589 0.22660001
0.024432 -0.023728 0.27928001
0.16060001 -0.022422999 0.21006
0.16102999 -0.021302 0.21016
0.15985 -0.021376999 0.21032
0.15954 -0.020623 0.21074
0.1591 -0.020803999 0.21080001
0.15832999 -0.020404 0.21131
0.15801001 -0.021276001 0.21119
0.060237002 -0.020725001 0.26148
0.15803 -0.020555001 0.21103001
0.15872 -0.019929999 0.21129
0.15775999 -0.019715 0.21153
0.15726 -0.019719001 0.2119
0.15745001 -0.020392001 0.21159001
0.15948001 -0.019523 0.21129
0.15757 -0.018673001 0.21177
0.15857001 -0.017859001 0.21122
0.15771 -0.018036 0.21164
0.15721001 -0.018885 0.21175
0.15685 -0.018588999 0.212
0.15707 -0.017917 0.21182001
0.15662 -0.017595001 0.2122
0.15696999 -0.016860999 0.21223
0.15651999 -0.016903 0.21204001
0.15778001 -0.01692 0.21179
0.13467 -0.017550999 0.22301
0.15559 -0.016084 0.21262001
0.15488 -0.016104 0.2129
0.02589 -0.016673001 0.27860999
0.15587001 -0.016547 0.21238001
0.15676001 -0.015776001 0.21228001
0.15396 -0.015888 0.21335
0.15362 -0.014794 0.21383999
0.154 -0.015453 0.21351001
0.1533 -0.015414 0.21364
0.1525 -0.015018 0.21373001
0.1525 -0.01426 0.21391
0.026904 -0.014321 0.27825999
0.15175 -0.013345 0.21461
0.13959999 -0.013965 0.22042
0.027086001 -0.012987 0.27847999
0.15112001 -0.012416 0.21493
0.037299 -0.012651 0.27326
0.037241001 -0.013341 0.27272001
0.027866 -0.012387 0.27798
0.14277001 -0.012132 0.21889
0.14252 -0.012269 0.21943
0.036685001 -0.01247 0.27351001
0.15019999 -0.01235 0.21496999
0.15074 -0.011913 0.21533
0.14930999 -0.011608 0.21596
0.035691001 -0.012175 0.27388
0.028493 -0.011467 0.27783
0.02823 -0.012253 0.27764001
0.14339 -0.012217 0.21832
0.035080001 -0.011343 0.27421999
0.034143999 -0.010779 0.27480999
0.055741001 -0.010412 0.26330999
0.056662999 -0.01048 0.26361999
0.056503002 -0.010002 0.26350999
0.055688001 -0.0095180003 0.26324001
0.033371001 -0.010592 0.27519
0.032788001 -0.010362 0.27553001
0.031408999 -0.011305 0.27546999
0.030703001 -0.011266 0.27590001
0.029837999 -0.010521 0.27682
0.056189999 -0.0098555004 0.26365
0.030596999 -0.010467 0.27658001
0.056992002 -0.0095616998 0.26379001
0.031746998 -0.011411 0.27509001
0.055826999 -0.0086415997 0.26332
0.056398001 -0.0085389996 0.26326999
0.056302 -0.0076655 0.26328999
0.055771001 -0.0079672998 0.26326999
0.056588002 -0.0043456 0.26306999
0.056777 -0.0034538 0.26293999
0.063720003 0.0031496999 0.2597
0.060839001 0.0038952001 0.26054999
0.061175 0.0044759 0.26104999
0.061438002 0.0048972 0.26084
0.062261999 0.0047344998 0.26001999
0.16703001 0.034761 0.20646
0.16635001 0.034830999 0.20668
0.17019001 0.034726001 0.20479999
0.17042001 0.035149001 0.20550001
0.16965 0.035018001 0.20593999
0.16887 0.034497 0.2054
0.16569 0.035006002 0.20750999
0.17129999 0.035358999 0.2045
0.17132001 0.035324998 0.20521
0.17072 0.034993999 0.20483001
0.16534001 0.035845999 0.20739999
0.16492 0.035953999 0.20777
0.1654 0.036587998 0.20712
0.16474 0.036483999 0.2078
0.16549 0.037335999 0.20734
0.1646 0.037039999 0.20784999
0.16616 0.037365001 0.20685001
0.16647001 0.038102999 0.20678
0.16801 0.038926002 0.20615999
0.16764 0.038180001 0.20603
0.16745999 0.038422 0.20637
0.16700999 0.038562998 0.20687
0.16783001 0.03929 0.20666
0.16876 0.040153001 0.20546
0.16966 0.040894002 0.20522
0.17137 0.041988999 0.20432
0.17045 0.041331001 0.20421
0.17182 0.042144001 0.20389
0.17184 0.042424001 0.20434999
0.17237 0.042886999 0.20406
0.17265999 0.042879999 0.2034
0.17352 0.043538 0.20318
0.17328 0.042826001 0.20305
0.17433999 0.043818999 0.2024
0.18387 0.043797001 0.19746999
0.18435 0.044144001 0.19836999
0.18468 0.043421 0.19741
0.17454 0.044424001 0.20281
0.1823 0.044911001 0.19859
0.18234 0.045485999 0.19885001
0.18133999 0.045464002 0.19893
0.17531 0.045444001 0.20257001
0.17984 0.045667 0.19963001
0.17687 0.045485001 0.20144001
0.17591 0.045462001 0.20185
0.17903 0.046245001 0.20058
0.16615 0.060098998 0.20715
0.16854 0.060426999 0.20561001
0.1682 0.059824001 0.206
0.16723 0.060229 0.20645
0.1656 0.059950002 0.2077
0.16486999 0.059834 0.20802
0.16377001 0.060458999 0.20825
0.16361 0.060035001 0.20869
0.16315 0.060134001 0.20872
0.16314 0.059897002 0.20886999
0.16229001 0.059919 0.20936
0.1693 0.06041 0.2054
0.16670001 0.060594998 0.20698
0.16466001 0.060400002 0.20784
0.16261999 0.060582001 0.20902
0.1655 0.060555998 0.20717999
0.16455001 0.060938999 0.20750999
0.17017999 0.060989 0.20465
0.16235 0.061089002 0.20915
0.17179 0.061918002 0.20372
0.17253999 0.06233 0.20375
0.16336 0.061969999 0.20857
0.1626 0.061561 0.20895
0.17262 0.062739 0.20331
0.16401 0.062412001 0.20802
0.17339 0.062783003 0.20305
0.16419999 0.063036002 0.20787001
0.16542999 0.063571997 0.20724
0.16492 0.063271001 0.20769
0.16535001 0.062913001 0.20682
0.16607 0.063873 0.20646
0.17550001 0.064489 0.20290001
0.16652 0.064452 0.20706999
0.16951001 0.064415 0.20545
0.16721 0.064663999 0.20657
0.17083 0.064782999 0.20437001
0.17118999 0.065146998 0.20446999
0.1689 0.064718001 0.20587
0.16783001 0.064644001 0.20616999
0.17274 0.065962002 0.20361
0.17758 0.066862002 0.20173
0.17732 0.066936001 0.20163
0.17376 0.067335002 0.20321
0.17445999 0.068070002 0.20272
0.17501999 0.068317004 0.20217
0.17820001 0.069085002 0.20115
0.17551 0.068810999 0.20234001
0.17806999 0.069700003 0.20117
0.1768 0.069502003 0.20155001
0.17641 0.069141999 0.20124
0.11026 -0.053569999 0.23463
0.058403999 -0.051587 0.26109999
0.059967 -0.051863998 0.26144001
0.058958001 -0.05235 0.26192999
0.040343001 -0.051731002 0.27052999
0.061028 -0.051272001 0.26102999
0.059797999 -0.051442001 0.26111001
0.037250001 -0.049552999 0.27212
0.068704002 -0.047336999 0.25650001
0.064932004 -0.046723001 0.25882
0.067524999 -0.046201002 0.25674
0.033689 -0.046502002 0.27467
0.064887002 -0.045807 0.25867
0.032807998 -0.045841999 0.27417001
0.032179002 -0.044752002 0.27524
0.091838002 -0.042874999 0.24561
0.10468 -0.042328998 0.23792
0.089758001 -0.042102002 0.2458
0.065387003 -0.041276 0.25832
0.064924002 -0.041218001 0.25849
0.065552004 -0.040357001 0.25852999
0.064691998 -0.040348999 0.25878
0.065169998 -0.040185001 0.25736001
0.065112002 -0.039519001 0.2586
0.064787 -0.039276998 0.25882
0.063387997 -0.036998 0.25922
0.063635997 -0.037652999 0.25911
0.06295 -0.036913 0.25928
0.027166 -0.036642 0.27717
0.02692 -0.036091998 0.27720001
0.10613 -0.036290001 0.23744
0.061590001 -0.034747999 0.2604
0.026311999 -0.033967 0.27781001
0.060497001 -0.034081999 0.26093
0.059847001 -0.033925001 0.26109001
0.054935001 -0.032276999 0.26256999
0.055656001 -0.031810001 0.26335999
0.10939 -0.031842001 0.23552001
0.12072 -0.031213 0.22958
0.12321 -0.028659999 0.22795001
0.15876999 -0.028671 0.21043999
0.15883 -0.027849 0.21076
0.12372 -0.027722999 0.2277
0.15807 -0.027812 0.21083
0.15803 -0.026866 0.21047001
0.15887 -0.026724 0.21062
0.15879001 -0.025911 0.21066999
0.059294 -0.027563 0.26107001
0.15824001 -0.025914 0.21070001
0.15892 -0.025041999 0.21041
0.15891001 -0.024284 0.21059
0.12645 -0.024941999 0.22731
0.12642001 -0.024936 0.22644
0.059599999 -0.024223 0.26122999
0.15885 -0.02361 0.21038
0.12853999 -0.022756999 0.22609
0.15909 -0.022232 0.2106
0.15727 -0.022336001 0.21133
0.15831999 -0.022330999 0.21081001
0.15721001 -0.021446001 0.21155
0.060068998 -0.020655001 0.26109001
0.15644 -0.020571999 0.21178
0.13049001 -0.02101 0.22499999
0.024352999 -0.021017 0.27908
0.060460001 -0.019757999 0.26120999
0.15628999 -0.019443 0.21177
0.15573999 -0.018539 0.21189
0.13301 -0.018758001 0.22358
0.1556 -0.019614 0.21186
0.1336 -0.018344 0.22258
0.13375001 -0.018305 0.22325
0.15598001 -0.017863 0.21202999
0.15477 -0.016867001 0.21262001
0.1552 -0.017547 0.21251
0.154 -0.016648 0.21303999
0.15346999 -0.01602 0.21328001
0.13593 -0.016417 0.22213
0.025976 -0.016100001 0.27884999
0.13792001 -0.014929 0.22121
0.026179001 -0.015238 0.27851
0.058228999 -0.014313 0.26234999
0.057192001 -0.014039 0.26245999
0.058006 -0.014966 0.26212999
0.026656 -0.015288 0.27811
0.15188 -0.014881 0.21367
0.15176 -0.014164 0.21404
0.13891999 -0.014319 0.22043
0.058518 -0.013204 0.26264
0.057126999 -0.013151 0.26271001
0.058692999 -0.013997 0.26242
0.15086 -0.013065 0.21424
0.027404999 -0.013278 0.27770999
0.14963999 -0.01325 0.21430001
0.15000001 -0.012952 0.21444
0.14159 -0.01296 0.21877
0.028882001 -0.012049 0.27674001
0.14497 -0.01202 0.21715
0.035619002 -0.011552 0.27423999
0.14668 -0.01161 0.21683
0.14614999 -0.011192 0.21719
0.029082 -0.011446 0.27682
0.033034999 -0.011341 0.27454001
0.056681 -0.01146 0.26322001
0.056899 -0.0023514 0.26271999
0.058318 0.0013335 0.26146999
0.059250001 0.0023804 0.26131001
0.063112997 0.0033972999 0.25959
0.061445002 0.0043068002 0.26010001
0.1693 0.034713 0.205
0.17479999 0.036485001 0.20212001
0.17428 0.036109999 0.20299
0.17404 0.036056001 0.20248
0.16680001 0.037466999 0.20601
0.16857 0.039023999 0.20539001
0.16986001 0.040552001 0.20444
0.1692 0.040068999 0.20509
0.17245001 0.042275999 0.20332
0.18277 0.044101998 0.1978
0.18328001 0.043359999 0.19681001
0.17462 0.044723 0.20231
0.17974 0.045000002 0.19911
0.18025 0.045170002 0.19825
0.17776 0.045400001 0.20051999
0.16789 0.061191 0.20589
0.16717 0.061432999 0.20649
0.16508999 0.061306 0.20734
0.17027999 0.060451999 0.20489
0.16655999 0.061301999 0.20652001
0.16358 0.060972001 0.20799001
0.16306999 0.061257999 0.20830999
0.16366 0.062222 0.20796999
0.1744 0.064416997 0.20206
0.16999 0.063587002 0.20469999
0.16923 0.063657999 0.20521
0.16776 0.063647002 0.20585001
0.16856 0.063514002 0.2053
0.16704001 0.063569002 0.20625
0.17188001 0.065577999 0.204
0.17614999 0.066129997 0.20135
0.17659999 0.066702001 0.2013
0.17398 0.067612998 0.20255999
0.17738999 0.069168001 0.20113
0.10926 -0.053259 0.23514999
0.045184001 -0.053353999 0.26690999
0.045359999 -0.053571999 0.26811999
0.043813001 -0.053169999 0.26774999
0.043249 -0.053169001 0.26881999
0.043510001 -0.053525999 0.26977
0.041582 -0.052437 0.26965001
0.059289001 -0.051391002 0.26069
0.040045999 -0.051422998 0.2712
0.10739 -0.051610999 0.23569
0.10725 -0.051116999 0.23623
0.10758 -0.051972002 0.23517001
0.039184 -0.051142 0.27085999
0.038210001 -0.050351001 0.27133
0.10693 -0.049825002 0.23711
0.037817001 -0.050053999 0.27166
0.068513997 -0.047766 0.25635001
0.035064001 -0.047742002 0.27379999
0.14256001 -0.047393002 0.21856
0.063748002 -0.046746001 0.25865
0.14140999 -0.047003999 0.21856
0.064277999 -0.045448001 0.25850001
0.063418999 -0.046053 0.2586
0.033725001 -0.046716001 0.27392
0.067496002 -0.045782998 0.25602999
0.068181999 -0.046137001 0.25659001
0.064891003 -0.045093998 0.25843999
0.066311002 -0.044009 0.25666001
0.064479999 -0.043065999 0.25795999
0.064404003 -0.044121999 0.25821
0.031773001 -0.044355001 0.2748
0.032019999 -0.044626001 0.27456
0.085233003 -0.042803001 0.24803001
0.084619999 -0.042833999 0.24831
0.083113998 -0.042722002 0.24885
0.083911002 -0.042899001 0.24864
0.083798997 -0.043451998 0.24801999
0.080263004 -0.043202002 0.24957
0.090153001 -0.042895 0.24516
0.086112998 -0.042592999 0.24756999
0.085303999 -0.043395001 0.24707
0.081886001 -0.042787999 0.24968
0.030603999 -0.042801 0.27548999
0.065490998 -0.042093001 0.25709999
0.088209003 -0.042059001 0.24659
0.088555999 -0.042004 0.24602
0.065637998 -0.041514002 0.25701001
0.066004001 -0.041536 0.25802001
0.030298 -0.042034999 0.27544999
0.029849 -0.041276999 0.27634001
0.063770004 -0.039438002 0.25900999
0.063872002 -0.038295999 0.25895
0.064397 -0.038835999 0.25852999
0.063083999 -0.037455998 0.25922999
0.10572 -0.036846001 0.2368
0.062887996 -0.035897002 0.25951999
0.063401997 -0.036557999 0.25828999
0.062222999 -0.037301 0.25922
0.061719999 -0.037742998 0.25920999
0.06244 -0.035636999 0.25975001
0.061576001 -0.036821 0.25926
0.10628 -0.035587002 0.23652001
0.11707 -0.035489999 0.23112001
0.1171 -0.034981001 0.23193
0.060858998 -0.035939001 0.25966001
0.060100999 -0.035273001 0.25985
0.060784999 -0.034674 0.26045999
0.10753 -0.033661 0.23622
0.10728 -0.033996999 0.23599
0.059292 -0.034170002 0.26085001
0.11829 -0.034295 0.23027
0.059114002 -0.033572 0.26128
0.11984 -0.032331001 0.22953001
0.056361999 -0.032327998 0.26232001
0.061179999 -0.031959999 0.25975999
0.060754001 -0.031789999 0.26014
0.060582999 -0.031136001 0.26010999
0.060045 -0.030514 0.26014999
0.059567999 -0.029514 0.26036999
0.15803 -0.028694 0.21066999
0.024669999 -0.027907001 0.27900001
0.024716999 -0.028936001 0.27801001
0.024685999 -0.027590999 0.27832001
0.15753999 -0.027221 0.21074
0.15724 -0.026684999 0.21105
0.12466 -0.026860001 0.22694001
0.058476001 -0.027712001 0.25973001
0.058701999 -0.027884999 0.26036
0.15689 -0.02557 0.21101999
0.024656 -0.026973 0.27873999
0.15654001 -0.024891 0.21135999
0.1567 -0.025390999 0.21116
0.058481 -0.024923 0.26120999
0.024468999 -0.024991 0.27945
0.15775 -0.024584999 0.21093
0.15803 -0.023321999 0.21066999
0.15716 -0.023711 0.21123999
0.12706 -0.024265001 0.22607
0.12792 -0.023367999 0.22549
0.15621001 -0.023378 0.21156
0.15546 -0.0232 0.21171001
0.15553001 -0.022194 0.21187
0.058557 -0.022939 0.26102999
0.057874002 -0.023001 0.26144999
0.12723 -0.024039 0.22441
0.12789001 -0.023519 0.22455999
0.058433 -0.02299 0.26179999
0.058047999 -0.022761 0.26177999
0.058129001 -0.022466 0.26129001
0.024626 -0.023081999 0.27921
0.15654001 -0.022268999 0.21156999
0.024838001 -0.021443 0.27846
0.15639 -0.021302 0.21168
0.12932999 -0.021978 0.22521999
0.13022999 -0.021373 0.22404
0.13 -0.021780999 0.22458
0.059870999 -0.021357 0.26091999
0.13121 -0.020393999 0.22382
0.15499 -0.020327 0.21199
0.15467 -0.018952999 0.21222
0.15451001 -0.019836999 0.21208
0.15460999 -0.019470001 0.2122
0.13221 -0.019588999 0.22341999
0.1542 -0.018631 0.21251
0.15394001 -0.017611001 0.21250001
0.15352 -0.018774001 0.21257
0.13462999 -0.017759001 0.22222
0.15334 -0.017003 0.21314999
0.025697 -0.017676 0.27772
0.15268999 -0.016053 0.21335
0.15200999 -0.015973 0.21304999
0.057190001 -0.014967 0.26208001
0.057077002 -0.016005 0.26155001
0.057792999 -0.015830001 0.26199999
0.026341001 -0.01605 0.27812999
0.026436999 -0.016047999 0.27731001
0.13824999 -0.015077 0.22006001
0.1513 -0.015049 0.21328001
0.026666 -0.015039 0.27772999
0.13987 -0.013862 0.21971001
0.13987 -0.013978 0.21915001
0.056986999 -0.014049 0.26249
0.056483001 -0.013384 0.26295
0.056178 -0.013999 0.26223001
0.027146 -0.014124 0.27759001
0.15075999 -0.013776 0.21428999
0.14061999 -0.013669 0.21882001
0.056458998 -0.012266 0.26276001
0.056049999 -0.012474 0.26230001
0.056244999 -0.013388 0.26227
0.036231998 -0.012916 0.27316001
0.036655001 -0.013522 0.27265
0.028196 -0.013065 0.27713001
0.14912 -0.012029 0.21532001
0.14173999 -0.013047 0.21833
0.14892 -0.012706 0.21484999
0.14835 -0.012353 0.21524
0.14793999 -0.011863 0.21574999
0.14292 -0.012662 0.21781
0.055893999 -0.011841 0.26288
0.055920999 -0.011684 0.26308
0.034288 -0.011863 0.27408999
0.034846999 -0.012021 0.27388999
0.14492001 -0.01237 0.21653999
0.033688001 -0.011647 0.27419999
0.055128001 -0.010733 0.26302001
0.055218998 -0.0118 0.26280001
0.029921999 -0.011673 0.27625999
0.030111 -0.011262 0.27599999
0.055112001 -0.0077431998 0.26293999
0.055608999 -0.0044447002 0.26227999
0.055585001 -0.0050805002 0.26258001
0.057670001 0.00017298 0.26148
0.058928002 0.0016497 0.26104999
0.062664002 0.0019438 0.25896999
0.063281 0.0021229 0.25931001
0.063543998 0.0013295 0.25918001
0.059370998 0.0023602 0.26058
0.061073001 0.0040124999 0.26003
0.062056001 0.0041993 0.25959
0.061793 0.0032669001 0.25911999
0.061561 0.0041828002 0.25935999
0.17130999 0.035084002 0.20373
0.16977 0.034224998 0.204
0.17091 0.034587 0.20354
0.16584 0.035643 0.20649999
0.16614 0.036393002 0.20655
0.16749001 0.037156999 0.20536
0.16867 0.038585 0.20512
0.16847 0.038222 0.20482001
0.169 0.039138 0.20485
0.17165001 0.041802999 0.20299
0.17123 0.041361 0.2031
0.17287999 0.042006001 0.20223001
0.17369001 0.042884 0.20248
0.17407 0.042952001 0.20189001
0.18288 0.044443998 0.1983
0.17473 0.044105001 0.20209999
0.17565 0.045081001 0.20152
0.17565 0.044698 0.20137
0.18148001 0.045113999 0.19842
0.17663001 0.0451 0.20085999
0.17921001 0.045591 0.19988
0.17863999 0.044821002 0.19923
0.17891 0.045276999 0.19971
0.1691 0.061216999 0.20482001
0.16864 0.060945999 0.20550001
0.16769999 0.061937001 0.20581
0.16851 0.062109999 0.20533
0.17084999 0.061735 0.20377
0.16680001 0.061916001 0.20624
0.16594 0.061907001 0.20653
0.16531 0.062024999 0.20687
0.16435 0.061781 0.20738
0.16914999 0.062027 0.20476
0.16915999 0.062734999 0.20486
0.1684 0.062863 0.20534
0.16759001 0.062709004 0.20582999
0.16701999 0.062802002 0.20606001
0.17377999 0.063698001 0.20294
0.17145 0.065094002 0.20362
0.17248 0.065995 0.20332
0.17664 0.067249 0.20104
0.17531 0.068608999 0.20179
0.10929 -0.053681999 0.23512
0.056333002 -0.053247999 0.26218
0.057411 -0.053174 0.26230001
0.056469999 -0.053571999 0.26282999
0.055435002 -0.053261001 0.26262999
0.056828 -0.052947 0.26208001
0.042420998 -0.052981999 0.26934001
0.042004 -0.052783001 0.26982
0.040894002 -0.052345 0.27017999
0.058550999 -0.051796999 0.26119
0.057868 -0.051978 0.26124001
0.039832 -0.051408 0.27050999
0.10725 -0.051151998 0.23541
0.10692 -0.050384998 0.23613
0.10656 -0.050336 0.23532
0.068498999 -0.050576001 0.25580999
0.069485001 -0.050691999 0.25573999
0.069068998 -0.051006 0.25525999
0.060261998 -0.050308999 0.26001
0.068704002 -0.049486998 0.25593001
0.068764001 -0.048758 0.25601
0.068370998 -0.049302001 0.25565001
0.068644002 -0.049056999 0.25598001
0.035882 -0.048261002 0.27254999
0.035409998 -0.048478 0.27296001
0.036327999 -0.048616 0.27135
0.033948999 -0.047472 0.27361
0.14188001 -0.047711 0.21819
0.06859 -0.046712998 0.2561
0.10516 -0.047164001 0.23649999
0.10455 -0.046393 0.23652001
0.10512 -0.046048 0.23713
0.063614003 -0.046642002 0.2588
0.068016 -0.045869999 0.25623
0.066885002 -0.045823 0.25681999
0.14067 -0.045988001 0.21863
0.14143001 -0.045699 0.21973
0.066680998 -0.044996999 0.25685999
0.1049 -0.045101002 0.23733
0.064391002 -0.044886 0.25832999
0.032248002 -0.045120999 0.27408001
0.10465 -0.044126 0.23733
0.064791001 -0.044445001 0.25839001
0.031440001 -0.043891001 0.27502999
0.078570999 -0.043735001 0.25053
0.079203002 -0.043265998 0.25062999
0.079378001 -0.043485001 0.25009999
0.066146001 -0.043148 0.25709999
0.031166 -0.043218002 0.27520001
0.10442 -0.043421 0.23744
0.10418 -0.042286001 0.23748
0.090296 -0.043296002 0.24527
0.084403999 -0.043340001 0.24777
0.089322999 -0.043178 0.24530999
0.086871997 -0.043200001 0.24611001
0.087925002 -0.042447999 0.2462
0.085761003 -0.043290999 0.24687999
0.088962004 -0.042443 0.24569
0.088489003 -0.042300001 0.24593
0.030319 -0.042408001 0.27474001
0.1042 -0.041315001 0.23772
0.029423 -0.041087002 0.27601999
0.10425 -0.040500998 0.23779
0.063878 -0.042608 0.25824001
0.029362001 -0.040282 0.2764
0.063268997 -0.039777 0.25861001
0.063298002 -0.040472001 0.25839999
0.10458 -0.039508998 0.23717999
0.064974003 -0.03951 0.25757
0.064479999 -0.038658999 0.25808999
0.028545 -0.039445002 0.27642
0.10497 -0.038571 0.23721001
0.10489 -0.038261 0.23681
0.062460002 -0.038543999 0.25907999
0.10524 -0.037586 0.23712
0.063928001 -0.037579 0.25852999
0.027812 -0.037842002 0.27656001
0.027837001 -0.038422 0.27658001
0.027505999 -0.037563998 0.27700999
0.063842997 -0.037087001 0.25791001
0.064228997 -0.037733998 0.25791001
0.10587 -0.036541998 0.23647
0.062881 -0.035861 0.25902
0.061772 -0.035983 0.25964001
0.063156001 -0.036118001 0.25821999
0.062540002 -0.035395999 0.25942001
0.026536001 -0.035078 0.27735001
0.11653 -0.036040999 0.23123001
0.062717997 -0.034914002 0.25882
0.10654 -0.035114001 0.23608001
0.10632 -0.035227999 0.23661999
0.059425998 -0.035101 0.26039001
0.061811 -0.034054998 0.25944
0.062183999 -0.034345001 0.25889999
0.058623001 -0.034237001 0.26082
0.058561999 -0.033656001 0.26146999
0.10775 -0.033255 0.23582999
0.057604 -0.033239 0.26165
0.026172999 -0.033594999 0.27788001
0.026022 -0.033100002 0.27794999
0.061156001 -0.033133999 0.26001
0.061671998 -0.033039998 0.25920999
0.056899 -0.032848999 0.26168999
0.1088 -0.032334 0.23546
0.025767 -0.032621998 0.27776
0.11953 -0.032883 0.22966
0.1109 -0.032184999 0.23401
0.1101 -0.032092001 0.2343
0.10957 -0.032437999 0.23372
0.10913 -0.032265 0.23491
0.12057 -0.031387001 0.22909001
0.12151 -0.030526999 0.22876
0.025474999 -0.031328999 0.2782
0.059852999 -0.030079 0.26032999
0.025342001 -0.0306 0.27801001
0.025271 -0.029498 0.27829
0.12196 -0.029722 0.22822
0.059237 -0.028808 0.26041999
0.15765999 -0.028901 0.21027
0.15688001 -0.028333001 0.21044999
0.15669 -0.027758 0.21077
0.15593 -0.027889 0.21085
0.15536 -0.026742 0.21144
0.15606999 -0.026882 0.21119
0.15546 -0.027575999 0.21119
0.058679 -0.026969001 0.26054001
0.15424 -0.027388001 0.21175
0.15391 -0.026729999 0.21213
0.15459999 -0.026513999 0.21214999
0.15366 -0.027226999 0.21196
0.15462001 -0.026156999 0.21195
0.15513 -0.025831999 0.21201
0.12517001 -0.026223 0.22722
0.024591999 -0.025878999 0.27855
0.15377 -0.025921 0.21224999
0.15485001 -0.023926999 0.21178
0.15462001 -0.025245 0.21211
0.15375 -0.024908001 0.21224
0.12639999 -0.025209 0.22524001
0.058600001 -0.025676001 0.26113001
0.024743 -0.02503 0.27836001
0.15548 -0.024065999 0.21195
0.15378 -0.024418 0.21211
0.15498 -0.023417 0.21189
0.060346 -0.024099 0.26087999
0.060362 -0.023407999 0.26111999
0.059983 -0.023272 0.2606
0.15469 -0.022699 0.21216001
0.12853999 -0.022794001 0.22496
0.12941 -0.022132 0.22452
0.12891001 -0.022701999 0.22476
0.024653001 -0.022221001 0.27847999
0.15493 -0.021008 0.21213999
0.15373001 -0.021470999 0.21204001
0.057314001 -0.021292999 0.26144999
0.057526998 -0.021513 0.26122999
0.057167001 -0.020617001 0.26164001
0.15439001 -0.020214999 0.212
0.15380999 -0.019715 0.21217
0.15368 -0.018216001 0.21258999
0.15316001 -0.018154001 0.21267
0.025289999 -0.018621 0.27770999
0.15209 -0.016717 0.21284001
0.15285 -0.016874 0.21307001
0.025823001 -0.016814001 0.27803999
0.026164999 -0.016638 0.27761999
0.1355 -0.016953001 0.22153001
0.13619 -0.016372001 0.22102
0.13666999 -0.015768001 0.22081
0.1357 -0.016457999 0.22111
0.056747001 -0.015014 0.26155999
0.15182 -0.015271 0.2133
0.13755 -0.015268 0.22056
0.056428999 -0.014718 0.26203001
0.038221002 -0.014941 0.27221999
0.038387001 -0.016068 0.27136999
0.037831999 -0.015776999 0.27135
0.037294 -0.015679 0.27127999
0.037594002 -0.016117999 0.271
0.15030999 -0.014692 0.21376
0.15104 -0.014337 0.21387
0.1391 -0.014391 0.21969
0.13854 -0.014514 0.21998
0.037048999 -0.014686 0.27175999
0.036784001 -0.01417 0.27212
0.027177 -0.015019 0.27713999
0.027248001 -0.0143 0.27755001
0.026865 -0.015696 0.27695999
