# .PCD v0.7 - Point Cloud Data file format
VERSION 0.7
FIELDS x y z
SIZE 4 4 4
TYPE F F F
COUNT 1 1 1
WIDTH 1669
HEIGHT 1
VIEWPOINT 0 0 0 1 0 0 0
POINTS 1669
DATA ascii
0.15335999 0.12623 0.25883001
0.15242 0.12598 0.26012
0.15284 0.12546 0.26036999
0.1856 0.126 0.2658
0.1859 0.12733001 0.26585001
0.18636 0.12616 0.26704001
0.18212 0.065604001 0.30842999
0.18252 0.065577 0.30728999
0.18283001 0.066344 0.30752999
0.17146 0.16438 0.27202001
0.17169 0.16283999 0.27201
0.15666001 0.18533 0.25587001
0.15688001 0.18615 0.25595
0.15627 0.18609001 0.25591999
0.17496 0.15798999 0.28415999
0.17584001 0.1584 0.28295001
0.17528 0.15813001 0.28343999
0.1857 0.2441 0.26696
0.18491 0.24431001 0.2665
0.18577 0.24421 0.26741999
0.16493 0.11302 0.27173999
0.16531 0.11309 0.27226001
0.16588999 0.11308 0.27138999
0.16223 0.16779999 0.25863001
0.16184001 0.16825999 0.25872001
0.1622 0.16872001 0.25852999
0.16235 0.074980997 0.28461
0.16309001 0.074758001 0.28573
0.16293 0.075640999 0.28560001
0.17682999 0.079488002 0.30779999
0.17694999 0.078433 0.30798
0.17022 0.18533 0.27851
0.1707 0.18529999 0.27799001
0.15364 0.12435 0.26006001
0.15387 0.12498 0.25938001
0.15325999 0.12503 0.26064
0.16927999 0.12458 0.27574
0.16863 0.12524 0.27498999
0.17072999 0.23078001 0.27609
0.17047 0.23224001 0.27787
0.16971 0.23214 0.27715999
0.20292 0.053986002 0.31863999
0.20365 0.054141 0.31755999
0.20332 0.055351999 0.31751001
0.19160999 0.094901003 0.27195999
0.19199 0.094752997 0.27078
0.19197001 0.095908999 0.27028
0.16464999 0.058024 0.29315999
0.16328 0.058008999 0.29295
0.16261999 0.058150999 0.29293001
0.17362 0.24498001 0.27787
0.17444 0.24450999 0.27867001
0.15775999 0.050895002 0.29758999
0.15792 0.051599 0.2978
0.15758 0.051794998 0.29674
0.17839 0.051608 0.31465
0.17836 0.053172 0.31443
0.17846 0.052947 0.31342
0.14285 0.056630999 0.27002001
0.14267001 0.055475 0.26967999
0.1416 0.055768002 0.27057001
0.15628999 0.12135 0.26912001
0.15774 0.12146 0.26916
0.16185001 0.18024001 0.27057001
0.16328 0.18043999 0.27090001
0.16218001 0.18149 0.27065
0.18381 0.085922003 0.30557999
0.18368 0.085437 0.30644
0.18406001 0.086313002 0.30719
0.14004999 0.056869999 0.26203999
0.13931 0.058076002 0.26111001
0.13929 0.056573 0.26161999
0.16968 0.092038997 0.27886999
0.16864 0.091949001 0.27948999
0.16873001 0.091264002 0.2798
0.15729 0.050505999 0.29660001
0.16313 0.050551001 0.29674
0.1617 0.050898999 0.29767001
0.17892 0.22193 0.28055
0.1798 0.22245 0.27981001
0.18314999 0.15932 0.27584001
0.182 0.15902001 0.27674001
0.18212999 0.15874 0.27592
0.17727 0.19277 0.28391001
0.17775001 0.19167 0.28489
0.1779 0.19306 0.28439
0.16086 0.12246 0.26789001
0.15949 0.12231 0.26738
0.16057 0.12104 0.26789001
0.15441 0.18404999 0.25712001
0.15437999 0.18313999 0.25734001
0.15352 0.18288 0.25725001
0.15178999 0.18576001 0.25762001
0.15329 0.18551999 0.25709
0.1525 0.18553001 0.25727001
0.1778 0.075762004 0.30597001
0.17804 0.077400997 0.30638
0.12098 0.055737998 0.25031
0.12098 0.056694001 0.25001001
0.12199 0.056533001 0.24985
0.14743 0.13124 0.25667
0.1481 0.13122 0.25556001
0.14737999 0.12992001 0.25661001
0.16249 0.13872001 0.27177
0.16202 0.13765 0.27121001
0.16332 0.13772 0.27039999
0.15107 0.13283999 0.26025
0.17433 0.19133 0.28275999
0.17398 0.19262999 0.28264001
0.15440001 0.085525997 0.27261999
0.15538999 0.084582999 0.27357
0.15436 0.085202999 0.27327001
0.19157 0.057197999 0.31628999
0.19197001 0.058324002 0.31557
0.19145 0.057911001 0.31589001
0.19638 0.063320003 0.30366999
0.19491 0.062895 0.30340001
0.19589999 0.062619999 0.30454999
0.176 0.085611001 0.2992
0.17575 0.086949997 0.29883999
0.17524 0.086344004 0.29971999
0.16912 0.20291001 0.27906001
0.16968 0.20164999 0.28042999
0.16986001 0.20326 0.28042001
0.16208 0.16907001 0.26302001
0.16361 0.16915999 0.26328
0.16332 0.1701 0.26344001
0.18373001 0.098499998 0.27831
0.18483999 0.098425999 0.27737001
0.18509001 0.099473998 0.27756
0.15144999 0.082074001 0.26622
0.15219 0.082305998 0.26765001
0.15165 0.083425999 0.26644
0.16974001 0.16769999 0.27155
0.17083 0.16782001 0.27077001
0.16956 0.16898 0.27144
0.14654 0.1516 0.26118001
0.14629 0.15252 0.25922
0.14584 0.15188 0.26023999
0.15806 0.11346 0.26719001
0.15851 0.11278 0.26824999
0.15877999 0.11333 0.26804999
0.17189001 0.17524999 0.27364999
0.17262 0.17557999 0.27236
0.13184001 0.066898003 0.24146
0.13233 0.066578001 0.24021
0.13206001 0.065857999 0.24123999
0.16701999 0.1725 0.27048001
0.16622999 0.17291 0.26982
0.16633999 0.17136 0.27000999
0.16625001 0.10113 0.27816001
0.16706 0.10092 0.27792999
0.16719 0.10203 0.27833
0.15945999 0.076407 0.27965
0.15914001 0.075740002 0.28077
0.17089 0.076637 0.29524001
0.17091 0.077983998 0.29578
0.17069 0.078111 0.29508999
0.17769 0.085639998 0.29716
0.17777 0.084477 0.29712999
0.18167 0.083671004 0.30294999
0.18034001 0.083058998 0.30204001
0.1806 0.083322003 0.30337
0.15459 0.23965 0.25152999
0.15335999 0.23867001 0.25207001
0.15335999 0.23991001 0.25222
0.13293999 0.061783001 0.24229001
0.13372 0.062743001 0.24163
0.13372999 0.062082998 0.24097
0.17329 0.081745997 0.29842001
0.17448001 0.082304999 0.29927
0.17443 0.083429001 0.29936001
0.17868 0.15031999 0.28681999
0.17956001 0.15132999 0.28648999
0.17881 0.15098 0.28672999
0.15967999 0.17912 0.25759
0.15994 0.17787001 0.25751001
0.15961 0.17797001 0.25771999
0.15353 0.24557 0.25564
0.15462001 0.24585 0.25604999
0.15413 0.24626 0.25483999
0.1762 0.051787 0.29765999
0.17629001 0.051566001 0.29832
0.17619 0.05184 0.29899001
0.17698 0.20815 0.28244001
0.16415 0.16515 0.26323
0.1644 0.16655 0.26315999
0.16349 0.1663 0.26309001
0.15511 0.10863 0.26271001
0.15499 0.10996 0.26277
0.15476 0.10974 0.26190001
0.15261 0.058685001 0.28687999
0.15328 0.058646001 0.28676
0.1533 0.058513999 0.28558999
0.17601 0.05813 0.29554
0.17569999 0.056878999 0.2947
0.1759 0.056913 0.296
0.18534 0.086933002 0.28292999
0.18559 0.086572997 0.28288999
0.1856 0.086133003 0.28231999
0.16853 0.15757 0.27638
0.16763 0.15866999 0.27515
0.17678 0.13367 0.27147001
0.17646 0.13492 0.27254999
0.17611 0.13354 0.27261001
0.17859 0.082345001 0.30728
0.15304001 0.20916 0.25740001
0.15289 0.20938 0.25696
0.15823001 0.213 0.26122999
0.15719 0.21465001 0.26098001
0.15684 0.21317001 0.26108
0.14399 0.056678999 0.26736
0.1435 0.055644002 0.26719999
0.14303 0.057011001 0.26842999
0.15255 0.092343003 0.25288999
0.15376 0.092243999 0.25376999
0.15354 0.092081003 0.25198999
0.17133 0.22685 0.27430999
0.17165001 0.22617 0.27315
0.14162 0.083296999 0.26278999
0.1406 0.082979001 0.26197001
0.14094 0.082506001 0.26302999
0.18043 0.19049001 0.28538001
0.18082 0.19070999 0.28455001
0.18055999 0.19185001 0.28411001
0.16766 0.12853 0.27144
0.16812 0.12746 0.27140999
0.16057 0.24458 0.26223001
0.15897 0.24484999 0.26308
0.15936001 0.24440999 0.26328
0.15885 0.17149 0.26093
0.15810999 0.17298 0.26168999
0.15825 0.1726 0.26073
0.15511 0.21199 0.26107001
0.15444 0.21069001 0.26186001
0.15627 0.21191999 0.26186001
0.14543 0.050551001 0.28496
0.14745 0.050655 0.28679001
0.14656 0.050586 0.28694001
0.15806 0.21143 0.26293999
0.15815 0.21078999 0.26374
0.15894 0.21186 0.26269999
0.16844 0.12747 0.26951
0.16844 0.12726 0.26931
0.16868 0.12626 0.26936999
0.16153 0.2177 0.26249
0.16077 0.21842 0.26258999
0.1618 0.21823999 0.26299
0.18846001 0.060566001 0.31156
0.13245 0.067227997 0.23988999
0.14892 0.066829003 0.27632999
0.14959 0.068001002 0.27614
0.14856 0.067792997 0.27504
0.16158 0.22435001 0.27129
0.1609 0.22424001 0.27133
0.16155 0.22278 0.27094001
0.16436 0.24090999 0.26776999
0.16349 0.24094 0.26692
0.1644 0.23997 0.26719001
0.18288 0.19433001 0.27926001
0.18291 0.19407 0.27842
0.18288 0.19462 0.27774
0.15722001 0.19429 0.26817
0.15786999 0.19551 0.26892
0.15773 0.19554 0.26815999
0.15714 0.14241 0.26525
0.15758 0.14249 0.26497999
0.15621001 0.14255001 0.26513001
0.16971999 0.24571 0.26626
0.16846 0.24496 0.26525
0.1689 0.24548 0.26697999
0.18143 0.21829 0.28138
0.18154 0.21961001 0.28185001
0.16151001 0.097135998 0.27081999
0.16151001 0.097370997 0.27268001
0.16091999 0.097398996 0.27167001
0.17647 0.079469003 0.30645001
0.1767 0.078126997 0.30719
0.1728 0.087723002 0.28885999
0.1723 0.087820999 0.28834
0.17136 0.087493002 0.28929001
0.13940001 0.056456 0.27375001
0.14082 0.057480998 0.27338001
0.14015 0.056766 0.27283001
0.15873 0.21438 0.26058999
0.15814 0.21557 0.26142001
0.1577 0.21472999 0.26118001
0.17274 0.15380999 0.28648001
0.17325 0.15436999 0.28626001
0.17313001 0.15519001 0.28613001
0.16981 0.23353 0.27526
0.16927999 0.23435 0.27473
0.17065001 0.233 0.27408999
0.17749 0.095886998 0.28121001
0.17847 0.096092001 0.28016001
0.1779 0.097262003 0.28154001
0.18298 0.19436 0.28016999
0.18274 0.19301 0.28115001
0.18311 0.19279 0.28018001
0.12838 0.059046999 0.24643999
0.12672 0.059025999 0.24690001
0.12756 0.058481 0.24795
0.14297 0.054350998 0.28082001
0.14218999 0.052815001 0.28165001
0.14266001 0.054042 0.28174999
0.18674999 0.10974 0.27781001
0.18752 0.10944 0.27669001
0.18764 0.11113 0.27688
0.16854 0.14040001 0.27601999
0.16908 0.1399 0.27465001
0.16951001 0.14125 0.27500001
0.16305 0.10834 0.27452999
0.16481 0.10744 0.27506
0.16378 0.10698 0.27403
0.17608 0.084599003 0.29958999
0.17501999 0.084605001 0.29982999
0.14372 0.058859002 0.27621999
0.14302 0.058889002 0.2755
0.14246 0.058506999 0.27612001
0.15626 0.088500001 0.26556
0.15637 0.088510998 0.26688001
0.15633 0.089373998 0.26716
0.17002 0.23328 0.27862999
0.13153 0.058458 0.24909
0.13222 0.058912002 0.24842
0.13075 0.05869 0.2484
0.18169001 0.1349 0.27996001
0.18144999 0.13388 0.27930999
0.18234999 0.13500001 0.28024
0.16281 0.081913002 0.28244001
0.15775 0.23838 0.26039001
0.15752 0.23714 0.26056001
0.15721001 0.23793 0.26067001
0.18505 0.10483 0.27785
0.18243 0.093433999 0.28031
0.18132 0.094645001 0.27941
0.18182001 0.093498997 0.27904001
0.15384001 0.060532 0.28231999
0.15384001 0.06213 0.28244001
0.15377 0.060748 0.28149
0.13443001 0.089068003 0.24964
0.13274001 0.089552999 0.24944
0.13375001 0.089626998 0.25055
0.17761 0.072375 0.29771999
0.18582 0.14629 0.28222001
0.1865 0.14782 0.28290001
0.18643001 0.14643 0.28292999
0.14868 0.15392999 0.24924999
0.156 0.24558 0.26084
0.15618999 0.24571 0.26154
0.16525 0.12351 0.2676
0.16538 0.12232 0.26754999
0.16586 0.12388 0.26729
0.17287 0.13710999 0.28376999
0.17339 0.13616 0.28442001
0.17302001 0.13675 0.28494
0.16991 0.21558 0.28051001
0.17036 0.21585999 0.28132999
0.15972 0.2129 0.26133001
0.15883 0.2132 0.26106
0.15942 0.21199 0.26194999
0.16861001 0.058139 0.29012999
0.16982999 0.056781001 0.28946999
0.16997001 0.058134001 0.28977999
0.18045001 0.11333 0.28046
0.1785 0.11334 0.28049999
0.17952999 0.11335 0.28095999
0.15921 0.11485 0.26745
0.15869001 0.11495 0.26603001
0.1586 0.11463 0.26693001
0.15579 0.067157 0.28156999
0.15614 0.067855999 0.28077999
0.15553001 0.066662997 0.28048
0.17648999 0.14131001 0.28795001
0.17608 0.14004 0.28753
0.17666 0.14014 0.28786999
0.16134 0.071162 0.28522
0.16276 0.070689999 0.28602999
0.16236 0.071390003 0.28490999
0.16687 0.2219 0.27785999
0.16809 0.22307999 0.27862999
0.16717 0.22305 0.27755001
0.18062 0.092137001 0.28918999
0.18076 0.092731997 0.2877
0.17955001 0.092166997 0.28839001
0.15289 0.18546 0.26148999
0.15414 0.18531001 0.26223001
0.15381999 0.18674 0.26236999
0.16954 0.23334 0.27777001
0.16969 0.23438001 0.27847001
0.16992 0.23343 0.27805001
0.17963 0.064021997 0.30741
0.17844 0.064874001 0.30831
0.18630999 0.16542 0.26672
0.18796 0.1662 0.26741999
0.18773 0.16553 0.26806
0.1454 0.050280999 0.28400999
0.14828999 0.050894 0.28670001
0.18614 0.060536001 0.31262001
0.18677001 0.060609002 0.31154001
0.18581 0.061078999 0.31075001
0.13090999 0.071013004 0.25661999
0.13023999 0.070913002 0.25755
0.13186 0.071777999 0.25756001
0.15614 0.24333 0.26350999
0.15662 0.24425 0.26337999
0.15583 0.24313 0.26287001
0.18647 0.2281 0.26524001
0.18761 0.22791 0.26497999
0.16799 0.24196 0.27333
0.16768999 0.24117 0.27243
0.16779 0.24102999 0.27293
0.16456001 0.11721 0.25685
0.16562 0.11737 0.25821999
0.16539 0.1175 0.25759
0.15272 0.24093001 0.25650999
0.15262 0.24223 0.25650001
0.18325 0.14925 0.28619
0.18448 0.14729001 0.28573
0.18458 0.14889 0.28558001
0.13273001 0.076719999 0.26209
0.13186 0.076729998 0.26179999
0.13228001 0.075528003 0.26109001
0.15871 0.24671 0.25933
0.15893 0.24642999 0.26087001
0.15981001 0.24617 0.25992
0.14317 0.072844997 0.26255
0.14244001 0.072214998 0.26306999
0.16813999 0.19402 0.27765
0.16847999 0.19293 0.27785
0.16561 0.10564 0.27766001
0.16474 0.10481 0.27667001
0.16542 0.10482 0.27816001
0.17795999 0.15939 0.27563
0.17826 0.15880001 0.27533001
0.13921 0.085862003 0.25413001
0.13737001 0.085968003 0.25415
0.13839 0.085552 0.25466999
0.12846 0.065660998 0.25929999
0.12917 0.066480003 0.2581
0.12913001 0.065765001 0.25825
0.18086 0.18934999 0.28466001
0.15270001 0.064586997 0.27989
0.15186 0.063083999 0.28018999
0.15281001 0.063242003 0.28007999
0.16274001 0.18141 0.26811001
0.16288 0.18185 0.26879999
0.16329999 0.18178 0.26719999
0.18853 0.16614 0.26324999
0.1885 0.16539 0.26332
0.18753999 0.1655 0.26429
0.17967001 0.16389 0.27397001
0.17929 0.16494 0.27351999
0.17065001 0.15741 0.27939001
0.1716 0.15774 0.27891001
0.17038999 0.15728 0.27774999
0.15915 0.098466001 0.27114999
0.18512 0.088238001 0.30087
0.18551999 0.088834003 0.30210999
0.13399 0.078300998 0.24124999
0.13366 0.078045003 0.23996
0.13364001 0.078382 0.24065
0.15827 0.075905003 0.27779001
0.15873 0.076917 0.27754
0.15843 0.076260999 0.27711999
0.12954 0.061597001 0.25988001
0.13107 0.062026002 0.25999001
0.131 0.06301 0.26019999
0.15101001 0.064562 0.27981001
0.15174 0.064290002 0.28005999
0.1636 0.24355 0.26806
0.1635 0.24462 0.26837999
0.16418 0.24349 0.26859
0.18353 0.20186 0.27756
0.18331 0.20141 0.27845001
0.1833 0.20055 0.27788001
0.20018999 0.059526 0.31452
0.20096 0.059310999 0.31503001
0.14945 0.14135 0.26323
0.15007 0.14004999 0.26383999
0.14995 0.14156 0.26401001
0.1578 0.15379 0.27673
0.15710001 0.15456 0.27627999
0.13474 0.060759 0.25865
0.17869 0.12375 0.27110001
0.17907 0.12276 0.27103999
0.1803 0.12363 0.27184999
0.16886 0.23959 0.27776
0.16926999 0.24099 0.27675
0.17923 0.16773 0.26873001
0.17930999 0.1692 0.26833001
0.17873999 0.16836999 0.26853001
0.13883001 0.085635997 0.24874
0.13765 0.085408002 0.24796
0.13827001 0.086184002 0.24911
0.12014 0.053343002 0.24369
0.12017 0.052108001 0.24350999
0.1193 0.053111002 0.24394999
0.15719999 0.23827 0.26547
0.15736 0.23944999 0.26559001
0.15668 0.23968001 0.26528001
0.17331 0.21960001 0.28226
0.17323001 0.21836001 0.28227001
0.17398 0.21934 0.28112999
0.17551 0.16271 0.27342001
0.1761 0.16245 0.27228999
0.17605001 0.1639 0.27235001
0.13837001 0.067047998 0.26159
0.13875 0.066740997 0.26021999
0.13947999 0.067307003 0.26118001
0.15625 0.059177 0.29038
0.15556 0.058175001 0.29150999
0.15684 0.058697999 0.29071999
0.17075001 0.20704 0.28119999
0.1706 0.20573001 0.28147
0.17175999 0.20693 0.28198001
0.14675 0.13512 0.25657001
0.14726999 0.13526 0.25542
0.14732 0.13486999 0.2545
0.17377 0.12846 0.27561
0.17386 0.12730999 0.27597001
0.15881 0.11368 0.26280001
0.15913001 0.11417 0.26335001
0.15931 0.11497 0.26345
0.18970001 0.24488001 0.26420999
0.18945 0.24591 0.26434001
0.18836001 0.24582 0.26449999
0.15645 0.24067 0.26504999
0.15742999 0.24044999 0.26550999
0.15807 0.24112 0.26567999
0.12069 0.056609001 0.25242999
0.12112 0.057698999 0.25165001
0.1327 0.071731001 0.26100001
0.13301 0.070531003 0.26064
0.13359 0.072006002 0.26098999
0.16274001 0.094874002 0.2723
0.11763 0.051559001 0.25611001
0.11829 0.053242002 0.25641999
0.16580001 0.16275001 0.27314001
0.16552 0.16243 0.27248001
0.16502 0.1636 0.27223
0.17567 0.050840002 0.29661
0.17619 0.049823001 0.29682001
0.17617001 0.050500002 0.29742
0.19753 0.05548 0.31900001
0.19707 0.055473 0.31861001
0.19732 0.054503001 0.31900001
0.18658 0.086397 0.28292999
0.17592999 0.15272 0.28718999
0.17686 0.15283 0.28687999
0.1761 0.15148 0.28694999
0.17843001 0.17050999 0.26991001
0.17894 0.17027999 0.27085999
0.17846 0.16898 0.26942
0.16362999 0.13255 0.26822001
0.16415 0.13356 0.26804
0.16329999 0.13377 0.26841
0.17764001 0.13243 0.28424001
0.17754 0.13229001 0.28468999
0.17728999 0.13255 0.28544
0.13489 0.060444999 0.24175
0.13491 0.062073 0.24191
0.18559 0.11601 0.27293
0.18411 0.11625 0.27353001
0.18467 0.11486 0.27428001
0.20093 0.086756997 0.25946999
0.20108999 0.087102003 0.25782999
0.19984999 0.086878002 0.25863999
0.16763 0.13492 0.27099001
0.16816001 0.18251 0.26995999
0.16749001 0.18246999 0.271
0.16680001 0.18171 0.27094999
0.14805 0.15239 0.25158
0.14766 0.15246999 0.2511
0.14668 0.088133 0.26457
0.14820001 0.087612003 0.26447001
0.14726 0.088313997 0.26385999
0.17621 0.23836 0.28174999
0.17645 0.23728999 0.28163999
0.17667 0.23849 0.28036001
0.13119 0.070790999 0.25488001
0.1309 0.069582 0.25498
0.13006 0.069238998 0.25588
0.17172 0.079659 0.29936001
0.17196 0.079302996 0.29989001
0.17236 0.080744997 0.29925999
0.18246 0.084537998 0.3037
0.18246999 0.084445 0.30171001
0.16316 0.17423999 0.26350001
0.163 0.17422999 0.26438001
0.16344 0.1754 0.26345
0.15030999 0.061801001 0.28016001
0.14928 0.060706999 0.27934
0.15038 0.060483001 0.28015
0.1648 0.24066 0.26879001
0.16554999 0.23978999 0.26881999
0.16571 0.20578 0.27039999
0.16602001 0.20553 0.27182001
0.16592 0.2067 0.27059999
0.19653 0.076033004 0.30518001
0.17009 0.18668 0.28018999
0.17014 0.18538 0.28038001
0.17072 0.18659 0.28123999
0.18065 0.12993 0.28241
0.17916 0.13019 0.28279001
0.17930999 0.13117 0.28244999
0.19581001 0.071608998 0.30443999
0.19487999 0.071662001 0.30464
0.19473 0.070763998 0.30485001
0.17016999 0.16608 0.27243
0.17069 0.16517 0.27213001
0.16964 0.16575 0.27158999
0.17443 0.14748 0.28821999
0.17353 0.14776 0.28744999
0.17494 0.1463 0.28784999
0.15265 0.081749998 0.27083001
0.15195 0.081593998 0.26973999
0.13383999 0.073155999 0.2577
0.1345 0.074325003 0.25766
0.13493 0.073541 0.25775
0.16334 0.13109 0.26007
0.16459 0.13125999 0.25907001
0.16438 0.13012999 0.25974
0.18898 0.10989 0.27616999
0.19009 0.10988 0.27542001
0.18895 0.11106 0.27654999
0.17768 0.069324002 0.30302
0.17702 0.069620997 0.30184001
0.17724 0.068319 0.30181
0.14383 0.088074997 0.2529
0.1426 0.088087 0.252
0.17595001 0.18641999 0.28285
0.17493001 0.18522 0.28242999
0.17621 0.18566 0.2827
0.18391 0.23948 0.26631001
0.18476 0.23925 0.26600999
0.18450999 0.23963 0.26628
0.169 0.18169001 0.27225
0.16897 0.18178999 0.27384001
0.16879 0.182 0.27320999
0.17513999 0.12621 0.27522999
0.17418 0.12627 0.27603
0.16174001 0.18454 0.26194999
0.16246 0.18305001 0.26266
0.16195001 0.18427999 0.26271001
0.17951 0.21827 0.28272
0.17878 0.21712001 0.28200999
0.17942999 0.21746001 0.28257999
0.15724 0.22485 0.25729999
0.15586001 0.22392 0.25727001
0.15624 0.22431 0.25843999
0.16033 0.099607997 0.27241001
0.16129 0.098531999 0.27325001
0.16072001 0.099477001 0.27364999
0.17146 0.17783999 0.27318999
0.17184 0.17681 0.27382001
0.17077 0.17802 0.27404001
0.16316 0.15717 0.27818
0.16238999 0.15730999 0.27847999
0.16340999 0.15719999 0.27919999
0.16068999 0.22590999 0.27125999
0.16154 0.22696 0.271
0.16069999 0.22711 0.27083999
0.15521 0.22053 0.25409999
0.15597001 0.21913999 0.25488001
0.15561 0.22071999 0.25492001
0.18029 0.13614 0.27307999
0.18042 0.13601001 0.27175
0.18111999 0.13641 0.27180001
0.15511 0.12127 0.25946
0.15583999 0.12055 0.26065999
0.15428001 0.1211 0.25990999
0.15448 0.1864 0.25698
0.15346999 0.18663 0.25734001
0.15805 0.19035 0.26381001
0.15685999 0.19073001 0.26396
0.15764999 0.18931 0.26306999
0.15443 0.13512 0.26179999
0.15452 0.13586999 0.26218
0.15356 0.13621999 0.26275
0.15986 0.11857 0.26714
0.16 0.11686 0.26719999
0.16087 0.1187 0.26787001
0.16686 0.14755 0.27783
0.16712999 0.14646 0.27776
0.16669001 0.14746 0.27869001
0.11845 0.051463999 0.24616
0.11793 0.051746 0.24499001
0.11807 0.050650999 0.24604
0.19802999 0.080623999 0.30008
0.17763001 0.21691 0.28143001
0.17651001 0.21809 0.28154999
0.19848999 0.060651999 0.31257999
0.19927 0.060958002 0.31183001
0.19796 0.061507002 0.31158999
0.15716 0.11203 0.25918999
0.17344999 0.093529001 0.28215
0.16836999 0.19580001 0.27540001
0.16819 0.19689 0.27610001
0.15147001 0.14496 0.26467001
0.15073 0.14494 0.26495999
0.15101001 0.1442 0.26468
0.20013 0.061698999 0.30509999
0.19878 0.061914999 0.30513999
0.19927 0.061519999 0.30599999
0.14241 0.087227002 0.26062
0.14312001 0.086963996 0.25951999
0.14222001 0.086970001 0.26041999
0.13872001 0.081726 0.26381999
0.13924 0.0814 0.26394999
0.17338 0.19415 0.28246999
0.15988 0.082438998 0.27879
0.16016001 0.082139 0.27959001
0.17024 0.053073 0.29012999
0.16940001 0.052836001 0.29084
0.16948999 0.051869001 0.29100999
0.17154001 0.14035 0.27847999
0.17276999 0.13911 0.27803001
0.17259 0.13919 0.27928001
0.18905 0.057774 0.3186
0.18982001 0.056761999 0.32003999
0.18994001 0.057555001 0.31916001
0.14743 0.15026 0.25492999
0.14777 0.15064 0.25362
0.14787 0.15023001 0.25371
0.17161 0.16915999 0.27493
0.17185 0.16915999 0.27329999
0.17189001 0.169 0.27416
0.18224999 0.13516 0.27827999
0.18257999 0.13590001 0.27812001
0.18324 0.13584 0.27932
0.17862 0.21428999 0.28055999
0.17975999 0.21568 0.27963999
0.16502 0.13754 0.27246001
0.1648 0.13851 0.27197
0.16609 0.13774 0.27149999
0.19381 0.088397004 0.29023999
0.19292 0.088707 0.29100001
0.19395 0.088141002 0.29157001
0.16362999 0.23361 0.26688001
0.16309001 0.23323999 0.26561999
0.17702 0.21201 0.28213
0.17755 0.21321 0.28117999
0.17675 0.21308 0.28174999
0.16342001 0.17765 0.27076
0.16236 0.17734 0.27011001
0.16469 0.17655 0.26982
0.14785001 0.075963996 0.26664999
0.14732 0.076710999 0.26649001
0.14674 0.076866999 0.26594999
0.15576001 0.17924 0.26190001
0.15515 0.17981 0.26219001
0.15479 0.17951 0.26119
0.17096999 0.20827 0.28072
0.17047 0.20813 0.27969
0.171 0.20764001 0.28095999
0.15335 0.20191 0.26458001
0.15343 0.20062 0.26471001
0.17964 0.21439999 0.27788001
0.18002 0.2155 0.2775
0.18035001 0.21575999 0.27860999
0.14455999 0.089534998 0.25369999
0.14555 0.090538003 0.25490001
0.14516 0.090295002 0.25358999
0.1622 0.20818 0.26751
0.16226 0.20957001 0.26594999
0.1626 0.20843001 0.26664999
0.18997 0.058959 0.31674999
0.19093999 0.058800001 0.31628001
0.19064 0.059014998 0.31514999
0.18471999 0.091666996 0.2886
0.18556 0.091011003 0.28834
0.18386 0.091973998 0.28937
0.17343 0.13387001 0.2755
0.17476 0.13242 0.27485999
0.17478999 0.13388 0.27450001
0.17654 0.23077001 0.2789
0.17659999 0.23045 0.27965
0.17649999 0.23069 0.28014001
0.12 0.05297 0.26051
0.1202 0.052437 0.26107001
0.12057 0.052937999 0.26177001
0.16847999 0.19 0.27395001
0.16978 0.19174001 0.27309999
0.16809 0.19059999 0.27368999
0.15958001 0.22598 0.26888001
0.16034999 0.22724 0.26767999
0.16013999 0.22644 0.26778001
0.17165001 0.064345002 0.29104
0.171 0.064280003 0.29006001
0.17125 0.063291997 0.28966001
0.1798 0.064528003 0.31048
0.18035001 0.065719999 0.31046
0.17925 0.064773001 0.31036001
0.1543 0.18548 0.25737
0.16181999 0.18793 0.27245
0.16253 0.18824001 0.27339
0.15989999 0.19654 0.27056
0.16079 0.19732 0.26995999
0.15876 0.19672 0.27002001
0.13482 0.064144 0.2586
0.13537 0.062604003 0.25821
0.13625 0.063194998 0.25825
0.17583001 0.16021 0.27415001
0.17580999 0.15983 0.27559999
0.17644 0.15876 0.27471
0.18467 0.13606 0.28593001
0.18491 0.13745999 0.28597
0.18424 0.13772 0.28644001
0.17922001 0.091677003 0.28902999
0.16769999 0.20699 0.27338001
0.16777 0.20556 0.27401999
0.16833 0.20586 0.27489001
0.17707001 0.054522 0.30373001
0.17682 0.055397 0.30379
0.14347 0.085873 0.26571
0.14443 0.085481003 0.26600999
0.14387999 0.087113 0.26561001
0.17253 0.13629 0.27561
0.17239 0.13744 0.27561
0.17130999 0.13619 0.27553999
0.15291999 0.058120999 0.28522
0.15346 0.058113001 0.28420001
0.15392999 0.12089 0.26782
0.15389 0.12062 0.26767001
0.15421 0.11974 0.26710999
0.17121001 0.23187 0.27505001
0.17038999 0.23216 0.27609
0.17538001 0.074446 0.29914001
0.17319 0.24623001 0.27759999
0.17319 0.24591 0.27849999
0.15593 0.19796 0.25066999
0.15604 0.19663 0.25084001
0.15501 0.19676 0.25202999
0.16456001 0.061618 0.29181001
0.16478001 0.061154999 0.29172999
0.16542999 0.06182 0.29146001
0.15550999 0.10748 0.25942999
0.15637 0.10736 0.25878999
0.15527 0.10607 0.25938001
0.15952 0.22434001 0.26389
0.15914001 0.22484 0.26381001
0.14639001 0.14775001 0.25892001
0.14645 0.14772999 0.25858
0.14636999 0.14749999 0.25757
0.17743 0.056999002 0.30627999
0.17769 0.057720002 0.30717
0.1785 0.062031001 0.29663
0.17516001 0.091201 0.28200001
0.17422 0.090828001 0.28169
0.17428 0.091237999 0.28224999
0.15764 0.19013 0.26894
0.15759 0.19186001 0.26833999
0.15745001 0.19055 0.26809001
0.13219 0.064649001 0.24117
0.13279 0.065701999 0.24032
0.18018 0.12508 0.27160999
0.18127 0.12504999 0.27200001
0.18133 0.12614 0.27217001
0.18077999 0.19684 0.28198001
0.17927 0.19660001 0.28292999
0.17959 0.19548 0.28297001
0.18582 0.24337 0.26574001
0.18647 0.24453001 0.2667
0.18612 0.16532999 0.26582
0.18641999 0.16651 0.26497
0.18649 0.16646001 0.26598999
0.15736 0.15369999 0.26813999
0.15621001 0.15355 0.26756999
0.15636 0.15279999 0.26752001
0.17974 0.082967997 0.30456001
0.17997 0.082643002 0.30241001
0.13512 0.086106002 0.25413001
0.13634001 0.085326001 0.25488001
0.1371 0.086622 0.25365999
0.18409 0.1189 0.27182999
0.18267 0.12002 0.27232999
0.18307 0.11857 0.27243999
0.12217 0.055109002 0.23842999
0.12231 0.055178002 0.23762
0.12186 0.054855 0.23791
0.15752999 0.20051 0.26941001
0.15764 0.20144001 0.26984
0.15803 0.20176999 0.26896
0.17889 0.16011 0.27667001
0.17974 0.15998 0.27761999
0.15903001 0.24437 0.2638
0.13668001 0.080733001 0.26212999
0.13654 0.081568003 0.26122999
0.13756 0.082000002 0.26087001
0.18007 0.054055002 0.31863001
0.18088999 0.054060999 0.31972
0.17755 0.18801001 0.27596
0.17747 0.18756001 0.27688
0.17705999 0.18728 0.27575999
0.15616 0.18053 0.26229
0.15718 0.18051 0.26254001
0.15572 0.21808 0.25296
0.15595999 0.21805 0.25125
0.15701 0.21712001 0.25198001
0.17577 0.24085 0.28132001
0.17567 0.24146 0.28066
0.17527001 0.24222 0.28069001
0.16134 0.21569 0.27410001
0.16257 0.21672 0.27487999
0.16174001 0.21693 0.27414
0.17498 0.2069 0.2834
0.17517 0.20570999 0.28385001
0.17602 0.20584001 0.28356001
0.15154999 0.12484 0.26214999
0.15288 0.124 0.26205
0.1679 0.20169 0.27340001
0.16813999 0.20059 0.27296999
0.16881999 0.20168 0.27393001
0.17156 0.098521002 0.27886
0.17046 0.098677002 0.27847999
0.16125999 0.16252001 0.25429001
0.16065 0.16277 0.25527
0.16125 0.16414 0.25426999
0.16101 0.17155001 0.257
0.16097 0.17037 0.25677001
0.16178 0.17009 0.25813001
0.16335 0.13849001 0.27406001
0.16398001 0.13866 0.27305999
0.1644 0.13749 0.27340001
0.14284 0.087286003 0.25766
0.14263999 0.087853 0.25847
0.14306 0.087766998 0.25830001
0.16171999 0.11481 0.26887
0.16015001 0.11464 0.2687
0.16079 0.11452 0.26947001
0.18257999 0.19199 0.28128999
0.18222 0.19160999 0.28213
0.15848 0.11457 0.26559001
0.15825 0.11379 0.26639
0.15764 0.10805 0.26723999
0.15812001 0.10817 0.26613
0.15864 0.10733 0.26635
0.15785 0.095982999 0.26352
0.1583 0.097211003 0.26381999
0.15697999 0.097194999 0.26295
0.13349999 0.065977998 0.26086
0.13482 0.065609001 0.26017001
0.13391 0.066473 0.26133001
0.17488 0.16799 0.27484
0.18223 0.091427997 0.29102001
0.18402 0.091058001 0.29117
0.18322 0.092061996 0.29012001
0.15468 0.054246001 0.29565001
0.15434 0.054087002 0.29481
0.15423 0.052827999 0.29582
0.17217 0.24711999 0.28119999
0.17220999 0.24597 0.28154001
0.17295 0.24597 0.28200001
0.17228 0.098416001 0.27925
0.17264 0.099646002 0.27919999
0.18238001 0.059023999 0.31439
0.18232 0.059372 0.31270999
0.18155 0.058998 0.31354001
0.16173001 0.14263 0.27583
0.16202 0.14144 0.27598
0.16327 0.1425 0.27590999
0.14634 0.15161 0.25747001
0.14702 0.15028 0.25648999
0.14689 0.15003 0.25736001
0.16337 0.18269999 0.26890001
0.16321 0.18431 0.26877999
0.16446 0.18297 0.26787001
0.16247 0.12241 0.25350001
0.16264001 0.12265 0.25274
0.16260999 0.12235 0.25182
0.17702 0.21464001 0.28141001
0.17684001 0.21546 0.28130001
0.14708 0.088541001 0.24798
0.1786 0.087860003 0.29666001
0.17782 0.088563003 0.29554999
0.17056 0.078345999 0.29385999
0.17095999 0.079232 0.29552999
0.16135 0.21454 0.27263001
0.16182999 0.21332 0.27296999
0.16117001 0.2146 0.27331999
0.18193001 0.050613001 0.32225999
0.18109 0.050448 0.32122001
0.18317001 0.050804999 0.32210001
0.15728 0.094394997 0.25281999
0.15712 0.094815999 0.25382
0.15706 0.096299 0.25350001
0.13124999 0.086522996 0.25446999
0.13034999 0.085644998 0.25398001
0.17299999 0.1388 0.28626999
0.17290001 0.14008 0.2861
0.1724 0.14005999 0.28490001
0.15373001 0.061562002 0.28086001
0.15391999 0.061806999 0.28172001
0.15376 0.063298002 0.28048
0.13689999 0.067947 0.2617
0.13812999 0.068167999 0.26229
0.13748001 0.068939999 0.26227
0.15028 0.14503001 0.26447999
0.14884999 0.051543999 0.28703001
0.14820001 0.051860001 0.28637999
0.16625001 0.060518 0.29089999
0.1295 0.054244999 0.26216999
0.12857001 0.055507999 0.26245001
0.12815 0.053991999 0.26260999
0.171 0.20993 0.27713001
0.17088 0.2103 0.27787
0.17102 0.21073 0.27678001
0.16655999 0.065641999 0.28953999
0.16692001 0.065302998 0.28962001
0.16755 0.065454997 0.28907999
0.17682 0.076384999 0.30340999
0.17713 0.075772002 0.30344999
0.17769 0.075965002 0.30476001
0.1779 0.15595999 0.28626999
0.17668 0.15637 0.28586999
0.17667 0.15561 0.28622001
0.16534001 0.12644 0.26765001
0.16562 0.12616 0.26719999
0.16526 0.12741999 0.26806
0.15793 0.22312 0.26881999
0.15785 0.2235 0.26800001
0.15838 0.22197001 0.26899999
0.15922999 0.071691997 0.28075999
0.16045 0.071882002 0.28095001
0.15985 0.071745001 0.27981001
0.20022 0.060472999 0.31415999
0.20046 0.060880002 0.31231001
0.19960999 0.060763001 0.31305
0.14999001 0.085937001 0.26831001
0.14923 0.085556 0.26729
0.14964999 0.084537998 0.26831999
0.17712 0.053057998 0.30373999
0.17724 0.054118998 0.30535001
0.17096999 0.087416001 0.28865001
0.17059 0.087357998 0.28696001
0.16971999 0.087550998 0.28769001
0.12785999 0.055371001 0.26233
0.12665001 0.054937001 0.2622
0.12784 0.054361999 0.26245001
0.17579 0.14113 0.28727001
0.17676 0.13361 0.28580001
0.17655 0.13395999 0.28507999
0.16516 0.088284999 0.27761
0.16435 0.086978003 0.27662
0.1653 0.086971998 0.27772999
0.15449999 0.086248003 0.24948999
0.15387 0.086746998 0.24968
0.15376 0.087286003 0.24970999
0.1506 0.063127004 0.27983001
0.14149 0.085721001 0.25511
0.14172 0.084674001 0.25490999
0.14245 0.084743001 0.25565001
0.1578 0.22465999 0.2563
0.15843 0.22544 0.25661001
0.15818 0.22472 0.25553
0.15727 0.17433999 0.26097
0.15809 0.17405 0.26187
0.16794001 0.23973 0.27162001
0.16745999 0.23971 0.27206999
0.16745 0.23864999 0.27158001
0.1212 0.058118001 0.25224
0.1215 0.057603002 0.25086001
0.19832 0.073109999 0.30476999
0.19757999 0.073147997 0.30461001
0.19726001 0.072094001 0.30475
0.15563001 0.19664 0.26539001
0.15613 0.1956 0.26546001
0.12980001 0.079487003 0.25854999
0.12952 0.079640999 0.25927001
0.12939 0.080936998 0.25938001
0.14779 0.14875001 0.26348001
0.14828999 0.14809 0.26392999
0.15164 0.050907999 0.29236999
0.15283 0.050730001 0.29407001
0.15174 0.050545 0.29315999
0.15945999 0.087241001 0.27153999
0.17508 0.071962997 0.29486001
0.17353 0.071819 0.29512
0.17437001 0.071953997 0.29526001
0.17665 0.14252 0.28806999
0.17778 0.14253999 0.28863001
0.17769 0.14365 0.28839001
0.18297 0.19909 0.27587
0.18307 0.20057 0.27594
0.18333 0.20058 0.2766
0.17491999 0.055557001 0.29326001
0.17462 0.055750001 0.29201001
0.17439 0.054257002 0.29181999
0.16326 0.097297996 0.27443001
0.16285001 0.097600996 0.27428001
0.17151999 0.099416003 0.27880999
0.17521 0.11346 0.28020999
0.17433999 0.11346 0.27976999
0.15975 0.17377999 0.26312
0.1603 0.17499 0.26320001
0.1595 0.17524999 0.26333001
0.19829001 0.066790998 0.2999
0.19765 0.066229001 0.30092999
0.19762 0.066757001 0.29903001
0.15706 0.095509999 0.26712
0.15758 0.096579999 0.26672
0.13744999 0.074671999 0.26124001
0.13838001 0.074839003 0.26148999
0.13723999 0.075525001 0.26144001
0.18542001 0.12376 0.27046001
0.18532 0.12468 0.27092001
0.17506 0.1213 0.27537999
0.1742 0.12122 0.27643999
0.16511001 0.20314001 0.27065
0.16605 0.20307 0.27182001
0.16606 0.20417 0.27179
0.16113 0.229 0.26819
0.16 0.22795001 0.26921999
0.16096 0.22885001 0.26932999
0.16598 0.16996001 0.26991001
0.16601001 0.16926999 0.26980001
0.16659001 0.16923 0.27098
0.19539 0.060536001 0.31266999
0.19482 0.060307 0.31399
0.13674 0.071790002 0.2599
0.13565999 0.072337002 0.26001999
0.13445 0.072076 0.26052999
0.15403 0.24510001 0.25663999
0.12555 0.057367001 0.26072001
0.1248 0.056573 0.26122001
0.12571 0.056418002 0.26181
0.18173 0.14034 0.28909999
0.18211 0.13868 0.28887999
0.18183 0.13991 0.28863001
0.18402 0.1348 0.28751001
0.184 0.13359 0.28731999
0.1848 0.13373999 0.28670999
0.1591 0.2253 0.26982999
0.15996 0.22590999 0.27070001
0.16958 0.093429998 0.27869999
0.17027999 0.093493998 0.27834001
0.15654001 0.095982999 0.25457999
0.15640999 0.094679996 0.25472
0.15648 0.094719999 0.25549001
0.19694 0.076219998 0.30127999
0.19707 0.075075999 0.30094001
0.19679999 0.075718999 0.29980999
0.17518 0.2221 0.28061
0.17668 0.22199 0.28022999
0.17581999 0.2216 0.28072
0.15975 0.080613002 0.27985001
0.16068 0.081013002 0.28031
0.18703 0.072857998 0.30603999
0.18584999 0.072566003 0.30535999
0.18576001 0.072593004 0.3062
0.15954 0.12162 0.26334
0.15892 0.12217 0.26423001
0.15959001 0.12256 0.26345
0.16001999 0.064522997 0.29010999
0.16066 0.065900996 0.28959
0.16039 0.065183997 0.29038
0.17505001 0.24356 0.28046
0.15526 0.20265 0.26629999
0.15618999 0.20173 0.26594999
0.15601 0.20268001 0.26631001
0.15606999 0.066794999 0.2832
0.15640999 0.066453002 0.28380999
0.15681 0.067124002 0.28448001
0.17754 0.11318 0.27965999
0.17854001 0.11333 0.27877
0.14735 0.13253 0.25669
0.14731 0.13248999 0.25813001
0.14697 0.13266 0.25760999
0.16963001 0.17522 0.26984
0.1688 0.17663001 0.26925001
0.16888 0.1751 0.26903999
0.16347 0.17021 0.26901999
0.16355 0.17020001 0.27026999
0.16372 0.17151999 0.26944
0.18517999 0.088606 0.29894999
0.1841 0.088371001 0.29811999
0.18566 0.088086002 0.29861999
0.16859999 0.2386 0.27078
0.16925 0.23982 0.27173999
0.16851 0.23987 0.27195999
0.1779 0.070890002 0.29761001
0.1785 0.071780004 0.29833999
0.17789 0.072146997 0.29743001
0.15324999 0.19927999 0.26458001
0.17804 0.059229001 0.30094999
0.17794 0.05906 0.29922
0.17736 0.057953998 0.29927999
0.18282001 0.14121 0.28777999
0.18299 0.14241 0.28773001
0.1824 0.14199001 0.28832
0.16335 0.21713001 0.25290999
0.16159999 0.21689001 0.25244999
0.16279 0.21742 0.25255001
0.16328999 0.11271 0.24739
0.16252001 0.11271 0.24665
0.16229001 0.11258 0.24857
0.17592999 0.10578 0.27937001
0.18031 0.050402001 0.31981999
0.18377 0.050391 0.32161
0.13823 0.087217003 0.24952
0.16497 0.15902001 0.27447
0.16426 0.16023 0.27347001
0.16430999 0.12633 0.26826
0.16324 0.12627999 0.26857999
0.1644 0.12471 0.26820999
0.15155999 0.087899998 0.26839
0.15129 0.087888002 0.26925999
0.15177 0.087585002 0.26870999
0.17024 0.050398 0.29012001
0.16949999 0.050269999 0.29028001
0.15989 0.078381002 0.27959001
0.15922 0.079524003 0.28047001
0.15896 0.079268999 0.27970999
0.16520999 0.12099 0.26743999
0.16616 0.12093 0.26686001
0.18068001 0.056573 0.31593999
0.17968 0.055697002 0.31544
0.17918999 0.055149 0.31604001
0.18516999 0.10864 0.27748001
0.18370999 0.10947 0.27875
0.18332 0.10862 0.27763
0.16696 0.11731 0.26982999
0.16731 0.11728 0.26862001
0.16705 0.1162 0.26885
0.20175999 0.051651001 0.31848001
0.2023 0.052361 0.31856999
0.20159 0.053243 0.31823
0.16525 0.073183998 0.28685999
0.16603 0.073169999 0.28826001
0.16522001 0.073453002 0.28766999
0.15644 0.23483001 0.26378
0.15703 0.23470999 0.26471999
0.15673999 0.23558 0.26464999
0.16733 0.089576997 0.27965999
0.16811 0.089684002 0.27991
0.16811 0.090883002 0.27998999
0.13913 0.087991998 0.25235
0.13826001 0.088064 0.25119999
0.1496 0.054329 0.28696999
0.15025 0.055693999 0.28777
0.15054999 0.055716 0.28709
0.16073 0.21802001 0.27263999
0.16084 0.21704 0.27340001
0.16089 0.21833 0.27342001
0.14692999 0.14125 0.25418001
0.14726999 0.14127 0.25286001
0.14747 0.14009 0.25312999
0.19179 0.051888 0.32174999
0.19268 0.050689999 0.32108
0.19261 0.051817 0.32089001
0.19213 0.095627002 0.26831001
0.19109 0.094850004 0.26925999
0.19131 0.094720997 0.26800999
0.12998 0.083237 0.25608
0.12988999 0.083269 0.25492999
0.18475001 0.088212997 0.29578
0.18458 0.087499 0.29449001
0.1842 0.087911002 0.29427999
0.17053001 0.24524 0.25992
0.1693 0.24541999 0.25924999
0.17059 0.24547 0.25979999
0.15721001 0.065713003 0.28608999
0.15832999 0.067015 0.28667
0.15744001 0.066754997 0.28551
0.15662999 0.075052001 0.27575001
0.15617999 0.074488997 0.27474001
0.15681 0.074408002 0.2757
0.16879 0.075787 0.29032001
0.16873001 0.075429 0.2895
0.16771001 0.074653 0.28955999
0.15805 0.23119 0.25486001
0.15817 0.23107 0.25613001
0.15776999 0.23142 0.25532001
0.15992001 0.22706001 0.26966
0.1596 0.22736 0.26865
0.14567 0.050466999 0.28652999
0.14424001 0.087491997 0.25134999
0.1437 0.087499999 0.25108001
0.14342 0.087797001 0.25139001
0.18871 0.056169 0.31935
0.17455 0.094770998 0.28273001
0.15425 0.21427 0.25835001
0.15487 0.21439999 0.25996
0.15477 0.21546 0.25968999
0.18311 0.059043001 0.31534001
0.18212999 0.058758002 0.31472
0.18252 0.058442 0.31617999
0.14646 0.069223002 0.26646
0.14578 0.070687003 0.26528999
0.14565 0.069417998 0.26530999
0.15363 0.21969999 0.25895
0.15379 0.21878999 0.26010001
0.15296 0.21991 0.26014999
0.18232 0.13112999 0.28737
0.18126 0.22205 0.27954
0.14937 0.052919 0.29014999
0.15045001 0.052807 0.29012001
0.17455 0.063230999 0.29313001
0.17361 0.064755 0.29301
0.17402001 0.063196003 0.29238001
0.16789 0.12899999 0.27219
0.16782001 0.12981001 0.27305999
0.16763 0.12974 0.27268001
0.15567 0.077785999 0.27261999
0.19318999 0.1135 0.27129
0.19169 0.11346 0.27063
0.19208001 0.1135 0.27225
0.12834001 0.066854998 0.26137999
0.12944999 0.066907004 0.26137999
0.1302 0.066808 0.26152
0.16449 0.096014 0.27425
0.16384999 0.096988998 0.27498999
0.17874999 0.071731001 0.30746001
0.17905 0.073288001 0.30746001
0.17927 0.072127998 0.30612001
0.14767 0.057089999 0.28343001
0.1477 0.057599001 0.28310999
0.16257 0.19056 0.27508
0.16159999 0.19039001 0.27443999
0.16256 0.18934999 0.27497
0.20495 0.051809002 0.30957001
0.20469999 0.052868001 0.31108001
0.20505001 0.051663 0.31077
0.16407999 0.15903001 0.24984001
0.16328999 0.1592 0.24896
0.16252001 0.1585 0.24945
0.15640999 0.10741 0.26402
0.15623 0.10607 0.26341
0.15581 0.10725 0.26429
0.15775999 0.094469003 0.25068
0.15759 0.093192004 0.25071999
0.15722001 0.094618998 0.25202999
0.16136999 0.1409 0.27437001
0.15954 0.14129999 0.27452999
0.16102999 0.14 0.27373001
0.18614 0.12841 0.26582
0.18489 0.12757 0.26510999
0.17852999 0.17664 0.27131999
0.17891 0.17804 0.27298999
0.17893 0.17732 0.27300999
0.16564 0.11623 0.26806
0.16441 0.11608 0.26865
0.16492 0.11564 0.26846999
0.15606 0.13602 0.26201001
0.15513 0.1365 0.26280001
0.15512 0.13485 0.26108
0.17404 0.24571 0.27214
0.17229 0.24586999 0.27228999
0.1733 0.24605 0.27344999
0.15725 0.19554999 0.26535001
0.1582 0.19566 0.26506999
0.15725 0.19693001 0.26557001
0.16798 0.12614 0.27303001
0.16813 0.12483 0.27300999
0.16834 0.12487 0.27415001
0.17332999 0.22216 0.27985999
0.17418 0.2211 0.28020999
0.1741 0.22211 0.28004
0.18362001 0.1631 0.26808
0.18289 0.16243 0.26890999
0.16226 0.13982999 0.27329001
0.16168 0.13875 0.27269
0.16181999 0.13967 0.27294999
0.17496 0.11479 0.27835
0.17572001 0.11463 0.27774
0.16804001 0.19547001 0.27882999
0.14909001 0.14755 0.24922
0.14893 0.14765 0.25018001
0.14887001 0.14869 0.25015
0.14777 0.15394001 0.26335001
0.1481 0.15501 0.26289001
0.14722 0.15375 0.26271001
0.18602 0.16358 0.2696
0.18677001 0.16405 0.26896
0.1856 0.16463999 0.26800999
0.16264001 0.17512999 0.26313001
0.16247 0.17426001 0.26324001
0.18457 0.21189 0.27346
0.18404999 0.21058001 0.27366999
0.18458 0.21197 0.27258
0.18683 0.088404 0.30785999
0.18523 0.086896002 0.30813
0.18652 0.087054998 0.30882001
0.18493 0.060585 0.31180999
0.17813 0.099955998 0.28154001
0.17801 0.098644003 0.28139001
0.17951 0.098463997 0.28095999
0.18411 0.13742 0.28755999
0.18299 0.13629 0.28826001
0.18378 0.13620999 0.2872
0.13902999 0.084426999 0.25558001
0.13855 0.084840998 0.25523001
0.15997 0.092044003 0.27035999
0.16068999 0.091577001 0.27039999
0.15992001 0.091107003 0.27041
0.16297001 0.15613 0.27462
0.16075 0.071016997 0.28417999
0.16123 0.071019001 0.28371
0.16464999 0.21585999 0.27623999
0.16467001 0.21584 0.27671999
0.16503 0.21669 0.27599001
0.132 0.077169001 0.26276001
0.14751001 0.052083999 0.28703001
0.15605 0.096059002 0.25624001
0.15593 0.097166002 0.25659001
0.15643001 0.096023001 0.25527
0.15544 0.11107 0.26611999
0.15518001 0.10993 0.26616001
0.15618999 0.11006 0.26732001
0.16654 0.11661 0.26747999
0.16662 0.11721 0.26741999
0.16498999 0.21574 0.27428001
0.16421001 0.21684 0.27311
0.16492 0.21627 0.27340001
0.16833 0.11474 0.27138001
0.16742 0.11473 0.27068001
0.16722 0.11334 0.27072999
0.16744 0.22164001 0.27282
0.16763 0.22239 0.27296999
0.16802 0.22193 0.27164
0.15992001 0.15391999 0.27818999
0.15913001 0.15397 0.27814999
0.15975 0.15288 0.27768001
0.13496 0.080646001 0.26183999
0.13461 0.08196 0.26034999
0.13409001 0.081707999 0.26097
0.15694 0.10215 0.2692
0.17631 0.087209001 0.29767001
0.18569 0.14128 0.28055
0.18545 0.14015999 0.28046
0.18494 0.13975 0.27923
0.19152001 0.11141 0.27322
0.19089 0.11232 0.27430999
0.19 0.086129002 0.30763999
0.19025999 0.087369002 0.30735999
0.18941 0.085749 0.30827001
0.17911001 0.071190998 0.29955
0.17791 0.070731997 0.29923001
0.15101001 0.15543 0.26528999
0.18292999 0.24347 0.26673999
0.18213999 0.24483 0.2678
0.18187 0.24325 0.26785001
0.1547 0.20971 0.26295999
0.15593 0.20973 0.26411
0.15532 0.21087 0.26278001
0.15141 0.081311002 0.26892
0.15175 0.081808999 0.26808
0.15143999 0.081087999 0.26855001
0.15927 0.13734999 0.26785001
0.15939 0.13770001 0.26909
0.15931 0.13903999 0.2678
0.17646 0.057037 0.29718
0.17666 0.055753998 0.29839
0.17704999 0.056573998 0.29826
0.17411999 0.11328 0.28116
0.13834 0.078230001 0.26455
0.13775 0.077128999 0.26427001
0.13821 0.077258997 0.264
0.15741 0.13393 0.25955999
0.15705 0.13496999 0.26089999
0.15635 0.13449 0.26047
0.15710001 0.10464 0.26444
0.15785 0.10614 0.26519001
0.12207 0.055603001 0.24055
0.12186 0.056343999 0.24116001
0.12228 0.056465998 0.24145
0.15696999 0.21557 0.26152
0.15696 0.21661 0.26161999
0.13093001 0.051635001 0.26223001
0.13188 0.051082999 0.26214001
0.13245 0.050879002 0.26188001
0.15837 0.18163 0.25617
0.15718 0.18263 0.25547999
0.15704 0.18156999 0.25536999
0.15172 0.075865999 0.26969999
0.15124001 0.075195998 0.2703
0.15639 0.10656 0.26229
0.15666001 0.10711 0.26284999
0.14015999 0.083158001 0.25999999
0.14069 0.083112001 0.26085001
0.14082 0.083981 0.26032999
0.17602 0.088037997 0.29620999
0.17687 0.086932003 0.29638001
0.17655 0.087281004 0.29593
0.16969 0.067741998 0.29025
0.16983999 0.066858999 0.28964001
0.17034 0.067174003 0.29067001
0.1487 0.12842 0.25996
0.14905 0.1277 0.26025999
0.15012001 0.12722 0.2608
0.14316 0.050707001 0.28437999
0.14304 0.051697001 0.28431001
0.1437 0.051286001 0.28435001
0.19106001 0.15764999 0.27116999
0.19017 0.1574 0.27179
0.19008 0.15694 0.2719
0.16187 0.2131 0.27379999
0.16195001 0.21438999 0.27546
0.16169 0.21458 0.27419001
0.17523 0.050979 0.29459
0.17557999 0.050483 0.29403999
0.1759 0.050418999 0.29561999
0.18506999 0.1093 0.27812001
0.16874 0.15133999 0.28141001
0.16769999 0.15138 0.28069001
0.1679 0.15037 0.28044999
0.19776 0.061221 0.31331
0.19580001 0.060637001 0.31332001
0.19694 0.060993001 0.31446999
0.19278 0.15771 0.26804999
0.19188 0.15764999 0.26835001
0.19255 0.15737 0.26942
0.16391 0.20575 0.26815
0.16415 0.20434999 0.26793
0.16332 0.20433 0.26901001
0.16435 0.22096001 0.2701
0.16257 0.22176 0.27022001
0.16334 0.22082999 0.27109
0.1566 0.066555001 0.28485
0.15646 0.065564997 0.28503999
0.15103 0.1578 0.25816
0.15166999 0.15774 0.25738001
0.15175 0.052014001 0.29058
0.15187 0.053095002 0.29126999
0.1688 0.13779999 0.27437001
0.17172 0.092330001 0.28057
0.17192 0.093385004 0.27972999
0.17174999 0.092556998 0.27952999
0.15859 0.18149 0.26245001
0.15971 0.18164 0.26201001
0.15943 0.18269999 0.26128
0.15731999 0.082043 0.27535999
0.15704 0.080692001 0.27516001
0.15803 0.081941999 0.27587
0.13917001 0.082630999 0.26113001
0.13932 0.082855999 0.26085001
0.19548 0.086929001 0.28995001
0.19462 0.087233 0.28995001
0.19483 0.087329999 0.29104
0.19881 0.078387998 0.30438
0.19943 0.078837 0.30375001
0.19949999 0.079492003 0.30454999
0.17666 0.094788998 0.28220001
0.17601 0.094922997 0.28272
0.17584001 0.093819 0.28228
0.16353001 0.18398 0.2721
0.16508999 0.18559 0.27252999
0.1635 0.18556 0.27232999
0.16009 0.13252001 0.26233
0.16015001 0.13177 0.26255
0.1596 0.13245 0.26337999
0.18288 0.060749002 0.30805999
0.18392 0.060936 0.30737999
0.18348999 0.061434001 0.30691001
0.15245 0.23852 0.25455001
0.15252 0.2383 0.25588
0.15293001 0.23981 0.25608999
0.15511 0.13531999 0.25055999
0.15569 0.13529 0.25119001
0.15479 0.13454001 0.25071001
0.16419999 0.080812998 0.28604001
0.16419999 0.079620004 0.28624001
0.16777 0.087148003 0.28803
0.16879 0.087679997 0.28782001
0.1627 0.18419001 0.27162999
0.16181999 0.18426999 0.27094001
0.16282 0.18334 0.27142
0.18077999 0.18804 0.27968001
0.16355 0.11111 0.27781999
0.1635 0.11253 0.27766001
0.16230001 0.11238 0.27699
0.15458 0.23830999 0.25781
0.15364 0.23728999 0.25716001
0.15442 0.23711 0.25795001
0.16821 0.19279 0.27884999
0.16836999 0.19303 0.27952
0.18513 0.088772997 0.2974
0.18557 0.087346002 0.29730999
0.16394 0.18296 0.25691
0.1637 0.18403 0.25692001
0.16515 0.18414 0.25644001
0.13963 0.055502001 0.27193001
0.13912 0.054145999 0.27173001
0.13874 0.055275999 0.27274001
0.13055 0.082116 0.25064
0.13068999 0.083388001 0.25003001
0.13111 0.083401002 0.24961001
0.15627 0.052662 0.29701
0.15649 0.05161 0.29664001
0.14696001 0.14246 0.26111999
0.18776999 0.11362 0.26941001
0.18743999 0.1136 0.27033001
0.18832 0.11322 0.27044001
0.16131 0.073367 0.28185999
0.16141 0.072034001 0.28149
0.16201 0.072938003 0.28266999
0.16590001 0.13542999 0.27452999
0.1662 0.13522001 0.27347001
0.16642 0.13528 0.27421999
0.15514 0.15656 0.26797
0.15524 0.15503 0.26844001
0.15606999 0.1564 0.26929
0.15679 0.1126 0.26967001
0.15705 0.11085 0.27000001
0.16626 0.085795 0.28209999
0.16779 0.085859999 0.28241
0.16712999 0.085773997 0.28158
0.14796001 0.15407 0.25218999
0.19077 0.056871001 0.31979999
0.15809999 0.17283 0.26014999
0.16146 0.22991 0.26427999
0.16117001 0.22847 0.26431999
0.16038001 0.097199 0.26993999
0.17532 0.064736001 0.29644999
0.17501 0.065084003 0.29739001
0.17464 0.065669999 0.29732999
0.15794 0.056821 0.29440999
0.15737 0.057459999 0.29426
0.15723 0.056953002 0.29492
0.12195 0.058175001 0.25674
0.12139 0.058409002 0.25604001
0.12063 0.057698 0.25674999
0.16128001 0.20198999 0.27048001
0.16096 0.20283 0.26969001
0.15974 0.20253 0.27090999
0.16610999 0.12964 0.26747999
0.20558 0.056605998 0.31417999
0.20502999 0.056968998 0.31307
0.20446999 0.057840001 0.31364
0.16083001 0.18685 0.26958999
0.16144 0.18652 0.26923001
0.1617 0.18561999 0.26962
0.13653 0.087208003 0.25318
0.13471 0.087380998 0.25334001
0.13437 0.087876998 0.25261
0.18032999 0.13884 0.28918999
0.17949 0.13709 0.28862
0.18057001 0.13779999 0.28940001
0.16807 0.081368998 0.2877
0.16842 0.082246996 0.28727999
0.16763 0.082213998 0.28615999
0.18692 0.077930003 0.30796
0.18780001 0.078000002 0.30734
0.18878999 0.078488 0.30803001
0.18835001 0.24214 0.26277
0.18945 0.24090999 0.26409
0.18788999 0.24094 0.26334
0.20099001 0.085841 0.26144999
0.19909 0.085663997 0.26148999
0.20022 0.085849002 0.26233
0.16012 0.11445 0.2622
0.147 0.1336 0.25816
0.16836999 0.12392 0.27191001
0.16828001 0.12478 0.27182999
0.16850001 0.12483 0.27054
0.13097 0.084677003 0.25622001
0.13102999 0.083508 0.25643
0.19991 0.054338001 0.31869
0.20069 0.052972998 0.31782001
0.16703001 0.15143999 0.27998999
0.16717 0.15009999 0.27957001
0.16546001 0.20818 0.26901001
0.16595 0.20798001 0.26971999
0.17011 0.14884999 0.28178
0.19504 0.074440002 0.30173999
0.19553 0.073198996 0.30265
0.199 0.073399998 0.30436
0.19905999 0.072054997 0.30333
