# .PCD v0.7 - Point Cloud Data file format
VERSION 0.7
FIELDS x y z
SIZE 4 4 4
TYPE F F F
COUNT 1 1 1
WIDTH 1702
HEIGHT 1
VIEWPOINT 0 0 0 1 0 0 0
POINTS 1702
DATA ascii
0.20653 0.19257 0.24268
0.21236999 0.17553 0.24236999
0.21322 0.17551 0.24276
0.21357 0.17636 0.24258
0.2368 0.15118 0.26831999
0.23608001 0.098566003 0.26944
0.25239 0.19222 0.23847
0.25288999 0.19188 0.23852
0.23082 0.15294001 0.27553001
0.22979 0.15270001 0.27577999
0.20882 0.17986 0.17912
0.20935 0.17900001 0.17893
0.25295001 0.11691 0.264
0.25161001 0.12152 0.25738999
0.19687 0.1793 0.29001001
0.27068001 0.13739 0.23384
0.21517 0.16411 0.29271001
0.21525 0.16520999 0.29324999
0.26585999 0.16869999 0.25249001
0.23778 0.17919999 0.25244999
0.23863 0.17906 0.25231001
0.20573001 0.17834 0.28821999
0.20479999 0.17911001 0.28856999
0.2299 0.18361001 0.24365
0.22976001 0.18454 0.24462999
0.2604 0.11261 0.26005
0.2606 0.11117 0.25997999
0.22735 0.18129 0.24375001
0.22853 0.18206 0.24345
0.26244 0.11364 0.25560001
0.26205999 0.11306 0.25681999
0.23829 0.052698001 0.20208
0.25369 0.12122 0.25781
0.25358999 0.12085 0.25843999
0.25564 0.071719997 0.26973999
0.22285999 0.18824001 0.23774
0.25624001 0.15922999 0.25768
0.23397 0.18892001 0.24225999
0.23519 0.18932 0.24241
0.22934 0.13399 0.2378
0.27258 0.14971 0.24071001
0.24583 0.16976 0.25870001
0.24751 0.11281 0.26657
0.24600001 0.11338 0.26602
0.2377 0.057043999 0.26510999
0.28374001 0.10075 0.23472001
0.28376999 0.10196 0.23451
0.20073 0.19227999 0.17788
0.20057 0.19181 0.17842001
0.25145 0.13765 0.2494
0.23424999 0.18674 0.24417999
0.23379999 0.18709999 0.24378
0.23319 0.18708 0.24338
0.28246999 0.10434 0.23353
0.28264001 0.10319 0.23378
0.23991001 0.056928001 0.20688
0.23597001 0.12151 0.24011999
0.23614 0.12154 0.241
0.25707999 0.19113 0.2383
0.25729999 0.19067 0.23848
0.24360999 0.14760999 0.25612
0.24405999 0.15827 0.26976001
0.24333 0.15738 0.27002999
0.26054999 0.054710999 0.26356
0.29155001 0.10044 0.23404001
0.25731 0.18574999 0.24665
0.25582999 0.18567 0.2474
0.24388 0.10777 0.26916
0.24468 0.10761 0.26912999
0.20362 0.17955001 0.28891
0.27028999 0.14591999 0.24258
0.2387 0.085413001 0.26885
0.25749999 0.098402999 0.25898999
0.23883 0.11799 0.25108999
0.23835 0.11742 0.25053
0.24835999 0.10748 0.26890999
0.24912 0.10711 0.26899999
0.26923999 0.18438999 0.22921
0.26876 0.18469 0.23029999
0.26932001 0.18379 0.23014
0.23625 0.10207 0.21371
0.23637 0.10277 0.21444
0.23607001 0.10313 0.21351001
0.25968999 0.14207 0.24833
0.21055999 0.19959 0.21291
0.25150999 0.18621001 0.24671
0.25966999 0.13368 0.24800999
0.21093 0.18618999 0.2403
0.21213999 0.18669 0.23662999
0.21360999 0.18719999 0.23546
0.24476001 0.12031 0.25650999
0.24495 0.11992 0.25797001
0.2351 0.19305 0.23635
0.24346 0.13858999 0.24946
0.25064999 0.050517999 0.27500999
0.23999999 0.14494 0.25408
0.2235 0.14300001 0.23898
0.24501 0.054985002 0.21064
0.24822 0.11902 0.26115
0.19994 0.18928 0.17566
0.20013 0.19002999 0.17583001
0.20068 0.19007 0.17527001
0.29043999 0.095247 0.23314001
0.25216001 0.051732998 0.27513
0.25147 0.12436 0.25518
0.27447 0.17422999 0.23244999
0.24066 0.099394001 0.26966
0.25538999 0.060621001 0.26831999
0.25409999 0.060773 0.26934001
0.25468999 0.060545001 0.26898
0.26010001 0.18888 0.23936
0.2472 0.050760001 0.20784999
0.24704 0.051100999 0.20683999
0.25734001 0.1846 0.24772
0.24805 0.12389 0.25486001
0.26897001 0.14071999 0.23828
0.26995 0.13991 0.23706
0.26945001 0.14082 0.23676001
0.25154001 0.097585998 0.26712999
0.19918001 0.16410001 0.29192999
0.24893001 0.063497998 0.26853999
0.19222 0.18794 0.28031999
0.19193999 0.18776 0.27941
0.19941001 0.18096 0.17200001
0.19929001 0.18009999 0.1707
0.19208001 0.17369001 0.28479999
0.23328 0.16941001 0.27449
0.23263 0.16947 0.27544999
0.23241 0.15332 0.27555999
0.19879 0.1788 0.17281
0.19724999 0.17782 0.17275999
0.23455 0.1019 0.25966999
0.23455 0.10205 0.26073
0.23212001 0.12103 0.23171
0.23213001 0.12024 0.23193
0.23237 0.1212 0.23305
0.24895 0.16312 0.26153001
0.24953 0.16274001 0.26047999
0.21225999 0.19383 0.24998
0.21196 0.19347 0.24953
0.25949001 0.066482 0.26456001
0.26923001 0.18305001 0.23683
0.26960999 0.18340001 0.23601
0.28608999 0.098064996 0.23035
0.23308 0.12327 0.23643
0.23273 0.12364 0.23649999
0.24222 0.11837 0.25841999
0.23434 0.16853 0.27436
0.23365 0.16892999 0.27432999
0.2237 0.19 0.23429
0.22307999 0.18974 0.23504999
0.22367001 0.18927 0.23573001
0.24123999 0.11783 0.25839001
0.21024001 0.18260001 0.23794
0.21089 0.18356 0.23831999
0.24925999 0.10176 0.26914001
0.21267 0.19997001 0.21122999
0.23427001 0.17758 0.25266001
0.20917 0.17825 0.28141999
0.23396 0.10194 0.20708001
0.23999 0.18673 0.24353001
0.24078 0.18731999 0.24395999
0.23068 0.17324001 0.25338
0.2313 0.17267001 0.25501001
0.22483 0.19022 0.23445
0.25601 0.10409 0.26530999
0.26440999 0.1684 0.25386
0.26392001 0.16864 0.25417
0.24033 0.17235 0.25766999
0.24117 0.17299999 0.25828001
0.25406 0.12823001 0.25149
0.25347 0.12875 0.25170001
0.25239 0.12846 0.25163999
0.26800001 0.1744 0.24668001
0.23683999 0.050923999 0.2764
0.23694 0.051265001 0.27542999
0.23812 0.051054001 0.27552
0.22559001 0.15905 0.28376999
0.22664 0.16028 0.28343999
0.25997999 0.1173 0.25810999
0.24115001 0.13996001 0.24996001
0.23725 0.11381 0.25849
0.24022 0.10474 0.26899999
0.23818 0.051584002 0.27912
0.23797999 0.050645001 0.27759999
0.24375001 0.10538 0.26980001
0.24489 0.10554 0.26938999
0.2405 0.10419 0.26905
0.19586 0.18076999 0.17185999
0.19581001 0.18099 0.17092
0.22556999 0.1718 0.28238001
0.23694 0.17302001 0.25657001
0.23739 0.11465 0.25029999
0.21777999 0.16275001 0.29223999
0.21803001 0.16344 0.29211
0.26631001 0.17633 0.24668001
0.26776001 0.17533 0.24631
0.26771 0.17629001 0.24525
0.27011001 0.14418 0.2395
0.27112001 0.14544 0.23968001
0.26076999 0.050877001 0.26144001
0.25982001 0.050632 0.26219001
0.2111 0.18463001 0.24033
0.21231 0.18458 0.2403
0.25606999 0.12526 0.25240001
0.25512001 0.12488 0.25338
0.25641 0.12422 0.25306001
0.26844001 0.14480001 0.24526
0.26736 0.14472 0.24642999
0.21069001 0.20020001 0.24914999
0.21133 0.20066001 0.24824999
0.22747 0.15342 0.27463001
0.22778 0.15381999 0.27509001
0.23632 0.17795999 0.25382
0.23671 0.17732 0.25487
0.21156999 0.16170999 0.29069999
0.21074 0.16084 0.29039001
0.21166 0.16083001 0.29014999
0.24906 0.12292 0.25601
0.26897001 0.15449999 0.24963
0.2694 0.15455 0.24902
0.26958999 0.15474001 0.24839
0.23391999 0.10099 0.2077
0.23465 0.19315 0.22729
0.24146 0.12556 0.24902999
0.27006999 0.18272001 0.23485
0.27059001 0.18206 0.23478
0.23761 0.10319 0.26784
0.24101999 0.19182999 0.23884
0.2423 0.13612001 0.24824999
0.24131 0.13718 0.24800999
0.24886 0.16421001 0.26082
0.27175999 0.17885 0.23695
0.24557 0.061852999 0.26244
0.26528001 0.18799999 0.23280001
0.26368001 0.18892001 0.23131
0.27335 0.17737 0.23142999
0.27285999 0.17862999 0.23238
0.27336001 0.17767 0.23247001
0.22223 0.18903001 0.23712
0.22212 0.18883 0.23749
0.20487 0.17544 0.22191
0.2053 0.17608 0.22322001
0.20559999 0.17633 0.22262
0.20423 0.18091001 0.28580999
0.25562 0.15470999 0.25725999
0.26976001 0.14569999 0.24387001
0.26923001 0.14538001 0.24414
0.26864001 0.14465 0.24425
0.23659 0.17024 0.26256001
0.23547 0.17046 0.26402
0.22660001 0.15823001 0.28105
0.27454001 0.10813 0.23029999
0.27339 0.10885 0.23026
0.27337 0.10897 0.23129
0.23454 0.053621002 0.27164
0.22841001 0.13521001 0.23541
0.22863001 0.13414 0.2353
0.24194001 0.052005 0.28143001
0.23558 0.10986 0.25588
0.18499 0.17752001 0.2841
0.21013001 0.17989001 0.24004
0.21062 0.18009 0.24075
0.26137 0.13326 0.24725001
0.2606 0.13395999 0.2471
0.19784001 0.17309999 0.29229
0.19745 0.17264999 0.29247001
0.23885 0.14814 0.25514001
0.23789001 0.14785001 0.25486001
0.21715 0.1732 0.24523
0.21799 0.17308 0.24479
0.21787 0.17407 0.24513
0.19401 0.1867 0.27954
0.19458 0.18684 0.28029001
0.19485 0.18619999 0.28004
0.27243999 0.16057 0.24631999
0.23603 0.19279 0.22609
0.23633 0.19335 0.22665
0.26745 0.14311001 0.24179
0.26424 0.17073999 0.25323999
0.26367 0.17196 0.25297001
0.26309001 0.17199001 0.25312001
0.22108001 0.18997 0.23095
0.23314001 0.14024 0.24785
0.26284999 0.052903 0.25986999
0.26244 0.053982999 0.26074001
0.26242 0.052719001 0.26052999
0.23131999 0.17744 0.24865
0.23075999 0.17637999 0.24913999
0.19734 0.18024001 0.17079
0.26743001 0.12396 0.237
0.26715001 0.1244 0.23768
0.27415001 0.16402 0.24033999
0.21061 0.17072999 0.29174
0.25189999 0.094062999 0.26592001
0.25073001 0.094063997 0.26705
0.25856 0.17733 0.25286001
0.25874001 0.17670999 0.25356999
0.24034999 0.15888999 0.27281001
0.24494 0.059447002 0.27329999
0.24589001 0.059702002 0.27418
0.21331 0.19140001 0.24842
0.21393999 0.1925 0.2483
0.23469 0.052802 0.20516001
0.23456 0.052822001 0.20511
0.24839 0.080394998 0.27103999
0.24942 0.079671003 0.27135
0.2492 0.080415003 0.27118999
0.25198001 0.086948 0.27041
0.2383 0.057776999 0.26493999
0.26517001 0.15034001 0.25075999
0.2649 0.14918 0.25036001
0.24383999 0.16333 0.26945999
0.24374001 0.15457 0.26848999
0.24379 0.15374 0.2683
0.23720001 0.055082999 0.27912
0.23614 0.055712 0.27897
0.23735 0.17931999 0.25174001
0.24226999 0.19315 0.23647
0.24247999 0.19315 0.23740999
0.25835001 0.12373 0.25196001
0.25898999 0.12307 0.25220999
0.24062 0.057503998 0.20772
0.25481001 0.12835 0.25139001
0.25408 0.12952 0.25121999
0.24026 0.11266 0.26401001
0.24145 0.11281 0.26506999
0.20794 0.1709 0.29039001
0.27528 0.10066 0.23334999
0.27579001 0.1001 0.23355
0.25784001 0.16639 0.25839001
0.2183 0.18566 0.24281
0.25176999 0.11813 0.26249999
0.25055 0.11818 0.26255
0.26719999 0.11608 0.23352
0.2393 0.12705 0.24577001
0.23882 0.12592 0.24557
0.23439001 0.12735 0.2383
0.23495001 0.12614 0.23868001
0.2352 0.12709001 0.2388
0.2456 0.12847 0.25012001
0.24561 0.12735 0.25115001
0.24607 0.12795 0.25053999
0.23668 0.17557999 0.25604001
0.23728 0.17564 0.25624999
0.19643 0.19178 0.18189999
0.19702999 0.19193999 0.18158001
0.19661 0.19216 0.18155999
0.19289 0.18016 0.28729001
0.19267 0.18028 0.28643
0.23336001 0.053824 0.20139
0.26297 0.14533 0.25108001
0.26196 0.14505 0.25086999
0.18641999 0.17314 0.28876999
0.21141 0.17459001 0.24207
0.25917 0.12813 0.24972001
0.26091999 0.10548 0.25705999
0.26914001 0.11345 0.22920001
0.21080001 0.18258999 0.23552001
0.23205 0.17419 0.25277999
0.23010001 0.15164 0.26837999
0.19282 0.17538001 0.28999999
0.19318999 0.17481001 0.28995001
0.25075001 0.055073 0.27741
0.24935 0.056125998 0.27829999
0.24953 0.054986 0.27862999
0.19495 0.17914 0.16937999
0.19554 0.17878 0.16904999
0.19516 0.17783 0.16963001
0.29201001 0.096153997 0.23046
0.22966 0.18452001 0.24221
0.22944 0.18346 0.24273001
0.2439 0.1617 0.26967999
0.24383999 0.16299 0.26953
0.20878001 0.17601 0.2394
0.23393001 0.099215001 0.20810001
0.23458 0.10067 0.20923001
0.26405001 0.077288002 0.2062
0.26420999 0.077917002 0.20536
0.26357999 0.078345001 0.20652001
0.24446 0.052726001 0.21069001
0.23191001 0.12042 0.23083
0.24086 0.19388001 0.22973
0.23987 0.19436 0.22948
0.18652 0.17095 0.28955001
0.18668 0.1715 0.2895
0.18615 0.17203 0.28922999
0.2321 0.051378999 0.27945
0.23171 0.052565001 0.28049001
0.24672 0.16373999 0.26477
0.25861001 0.17017999 0.25643
0.25854999 0.17076001 0.25584
0.25630999 0.18953 0.2423
0.25600001 0.18985 0.24150001
0.21867999 0.16517 0.29236999
0.25499001 0.16038001 0.25830001
0.25549001 0.16136 0.25830999
0.25468001 0.16054 0.25850001
0.26644 0.11936 0.23593999
0.26592001 0.11808 0.23589
0.24553999 0.12768 0.25034001
0.24468 0.12736 0.25027999
0.19780999 0.18226001 0.28843001
0.19904 0.18246999 0.28784999
0.19935 0.18255 0.28781
0.26578999 0.17248 0.25103
0.26646999 0.17301001 0.24979
0.26524001 0.17325 0.25080001
0.24116001 0.082099997 0.26989999
0.28557 0.099578001 0.23485
0.21217 0.20037 0.24710999
0.21160001 0.20027 0.24823999
0.20994 0.19126 0.23796
0.20912001 0.19121 0.23842999
0.21018 0.19259 0.23849
0.20852 0.17465 0.28902
0.24232 0.13191 0.2466
0.2245 0.15896 0.28477001
0.24027 0.17095 0.25755
0.26707 0.18675999 0.22919001
0.25169 0.12131 0.25819999
0.26585999 0.12493 0.24127001
0.25558999 0.15572999 0.25738001
0.25398001 0.15592 0.25791001
0.25433999 0.15561 0.25716001
0.24672 0.17889 0.25367001
0.24224 0.15402 0.26936999
0.24275 0.15355 0.2687
0.273 0.17054 0.24059001
0.24420001 0.067510001 0.26456001
0.25014001 0.17741001 0.25562
0.23679 0.084728003 0.26392999
0.23677 0.085946001 0.26389
0.24733999 0.16269 0.26407
0.24686 0.14348 0.25321999
0.23615 0.12027 0.24101
0.23636 0.12146 0.24226999
0.25961 0.14989001 0.25474
0.2198 0.17516001 0.28321999
0.22699 0.17196 0.25176001
0.22762001 0.17175999 0.25224999
0.24636 0.1807 0.25216001
0.244 0.058876 0.20403001
0.24319001 0.059362002 0.2043
0.24378 0.059342001 0.20457
0.23739 0.11579 0.23890001
0.21450999 0.15518001 0.28262001
0.21499 0.15501 0.28150001
0.215 0.15516999 0.28255001
0.25887001 0.11674 0.25984001
0.26043001 0.10827 0.25968
0.26025 0.10784 0.26027
0.26291001 0.18622001 0.24137001
0.27061999 0.11003 0.23348001
0.21018 0.2006 0.24597
0.211 0.20067 0.24611001
0.18828 0.17618001 0.28670999
0.24902 0.14247 0.25189999
0.22356001 0.19025999 0.23339
0.22479001 0.19013 0.2332
0.22476999 0.19021 0.23209
0.23152 0.15397 0.27720001
0.25637999 0.088613003 0.26096001
0.25648999 0.088707998 0.26154
0.20421 0.17171 0.16971
0.20535 0.17199001 0.16847999
0.24397001 0.14126 0.25183001
0.2516 0.051307999 0.27577001
0.25161999 0.050657999 0.27517
0.25375 0.14173 0.25047001
0.25257999 0.14097001 0.25020999
0.25373 0.1409 0.25012001
0.21062 0.17594001 0.24090999
0.24287 0.054883 0.21038
0.2078 0.17083 0.17606001
0.20829 0.17200001 0.1771
0.27039 0.13507999 0.23278999
0.26987001 0.13414 0.23258001
0.26052999 0.12013 0.25279999
0.26578 0.13733 0.24394999
0.25536001 0.051238 0.26571
0.25538 0.050872002 0.26719999
0.25512999 0.051126 0.26661
0.19908001 0.16523001 0.28378001
0.26699999 0.14906 0.24837001
0.25284001 0.15448999 0.25781
0.24935 0.12811001 0.25119001
0.24021 0.15838 0.27278
0.24088 0.15903001 0.27247
0.23216 0.053084999 0.28018001
0.26148 0.10452 0.25455001
0.2177 0.15703 0.28584999
0.2173 0.15759 0.28674001
0.18953 0.16346 0.28784001
0.20265999 0.18042 0.28896999
0.20351 0.17982 0.28832
0.20248 0.17373 0.17468999
0.25839001 0.065655001 0.26552001
0.25780001 0.065178998 0.26587999
0.24422 0.073793001 0.27006999
0.22844 0.16186 0.28081
0.23540001 0.15289 0.27193001
0.23450001 0.15244 0.27113
0.27377999 0.15327001 0.24058001
0.27412 0.15347999 0.23963
0.27373999 0.15414 0.2403
0.22955 0.17425001 0.25165999
0.23102 0.17388 0.25193
0.23086999 0.17474 0.25163999
0.27498001 0.16237 0.23871
0.20554 0.18565001 0.17877001
0.20561001 0.18693 0.17851999
0.23061 0.13184001 0.23662999
0.23068 0.13288 0.23749
0.23018 0.13263001 0.23672999
0.24244 0.15147001 0.26504999
0.27509999 0.17072999 0.23579
0.23906 0.088482998 0.26942
0.2383 0.088815004 0.26905999
0.20428 0.19018 0.17666
0.20511 0.18968 0.176
0.24629 0.053791001 0.2111
0.24583 0.11838 0.26146999
0.18519001 0.17396 0.28748
0.18446 0.17369001 0.28702
0.19894999 0.18103001 0.28858
0.19783001 0.18097 0.28854001
0.26995 0.16526 0.24862
0.24617 0.17308 0.25824001
0.26243001 0.16026001 0.25437
0.26328 0.1592 0.25433999
0.19501001 0.17982 0.28240001
0.26526001 0.073404998 0.20656
0.22666 0.16841 0.28575
0.22654 0.16864 0.28481999
0.23853 0.16925 0.26846001
0.24929 0.12084 0.25889
0.24901 0.12077 0.25819001
0.19588 0.1754 0.29089999
0.20795 0.18982001 0.23954999
0.27382001 0.1698 0.23954
0.20695999 0.16497 0.29067999
0.20937 0.18110999 0.23647
0.25042 0.15598001 0.25867999
0.20525999 0.17699 0.23545
0.20492999 0.17707001 0.23707999
0.20528001 0.17713 0.23619001
0.27303001 0.15370999 0.24372999
0.23733 0.087463997 0.20671999
0.19001 0.17184 0.29067001
0.18963 0.17094 0.29045999
0.235 0.10206 0.21104001
0.23557 0.10073 0.21139
0.23552001 0.10174 0.21163
0.25962001 0.17373 0.25457001
0.25597 0.086719997 0.26780999
0.21878 0.18233 0.2423
0.19389001 0.18019 0.17264999
0.1934 0.18103001 0.17263
0.2834 0.10306 0.22905
0.28476 0.10359 0.22983
0.22498 0.18911999 0.23542
0.22412001 0.18846001 0.23675001
0.23444 0.10669 0.20570999
0.23446 0.10673 0.20438001
0.25159001 0.17442 0.25735
0.24353001 0.1549 0.26910001
0.25613999 0.13315 0.24954
0.25525001 0.13428999 0.24961001
0.2066 0.19031 0.17759
0.20730001 0.19024 0.17721
0.2309 0.13326 0.23853
0.23017 0.13421001 0.23829
0.23408 0.18341 0.24659
0.23559 0.18303999 0.24782
0.2352 0.18336999 0.2472
0.24611001 0.073321998 0.26987001
0.23597001 0.15246999 0.27079001
0.25633001 0.098619998 0.26144999
0.26041999 0.076899998 0.26245999
0.25048 0.16854 0.25907999
0.24067 0.11114 0.26548001
0.24129 0.11132 0.26633
0.24248999 0.053038001 0.28404999
0.25503999 0.11885 0.26115
0.20096999 0.1891 0.17901
0.23018 0.16738001 0.27790999
0.23037 0.16768 0.27713001
0.20523 0.17883 0.1769
0.26558 0.14042 0.24349999
0.24821 0.15696 0.26269999
0.24883001 0.15659 0.26181999
0.25676 0.13725001 0.24933
0.23652001 0.089729004 0.20499
0.26879001 0.15243 0.24845999
0.26840001 0.15361001 0.24935
0.25639999 0.15538 0.25748
0.27373999 0.10796 0.23292001
0.21881001 0.17427 0.24517
0.21927001 0.17545 0.24522001
0.23591 0.18993001 0.24176
0.24059001 0.076890998 0.26719001
0.24033999 0.076917 0.26603001
0.23703 0.099478997 0.21356
0.23637 0.09945 0.21301
0.23665 0.098688997 0.21275
0.24295001 0.067791998 0.26021001
0.2296 0.19321001 0.23604999
0.22905999 0.19294 0.23557
0.24078 0.074169002 0.26244
0.19878 0.18435 0.28396001
0.23947001 0.12687001 0.24600001
0.24006 0.12626 0.24677999
0.20657 0.15887 0.28518999
0.20701 0.15893 0.28619
0.24411 0.19383 0.22608
0.24401 0.19361 0.22497
0.24324 0.19369 0.22644
0.24269 0.11655 0.26161999
0.2428 0.11676 0.26223001
0.23267999 0.13424 0.24033
0.23337001 0.13404 0.24090999
0.25870001 0.14893 0.25461
0.25924999 0.14832 0.25389001
0.25949001 0.14850999 0.25345999
0.25228 0.14698 0.25650999
0.28755 0.096914999 0.23185
0.28832 0.096488997 0.23212001
0.19924 0.17431 0.28174001
0.25149 0.15265 0.25738001
0.25047001 0.15245999 0.25755
0.22134 0.18113001 0.2436
0.22153001 0.18197 0.24251001
0.23599 0.092804998 0.27083001
0.23682 0.092625 0.27087
0.23637 0.093984999 0.27131999
0.24873 0.1631 0.26165
0.25404999 0.12161 0.25714999
0.24789 0.12216 0.25643
0.21786 0.17579 0.28527001
0.27348 0.16035999 0.24504
0.1961 0.17779 0.17257001
0.1971 0.17915 0.17253999
0.23633 0.15637 0.27553001
0.23662999 0.15728 0.2755
0.24338999 0.12388 0.25255001
0.26282999 0.12492 0.24517
0.26299 0.12375 0.24507999
0.23681 0.087165996 0.20424999
0.23643 0.088402003 0.20441
0.23676001 0.087338001 0.20343
0.23452 0.10435 0.21014
0.21661 0.19599999 0.21393999
0.21619999 0.19633999 0.21371999
0.28095001 0.098789997 0.22931001
0.2807 0.098994002 0.22854
0.28128999 0.099367 0.22857
0.25874999 0.083796002 0.25988999
0.25898999 0.083838999 0.26133999
0.25924 0.083218001 0.26146999
0.23507001 0.095431998 0.27013001
0.26049 0.10677 0.25889999
0.24841 0.082376003 0.27092999
0.27110001 0.17304 0.24397001
0.27072001 0.17422999 0.24399
0.23047 0.17918 0.24705
0.23069 0.17975 0.24692
0.21103001 0.19024999 0.24157999
0.21222 0.19038001 0.24207
0.23006999 0.16052 0.27954
0.2308 0.16089 0.27934
0.23063999 0.16152 0.27947
0.22531 0.15728 0.28095001
0.22590999 0.15796 0.2816
0.19766 0.17539001 0.28255001
0.21517 0.15436 0.27899
0.21515 0.15475 0.28037
0.20349 0.1638 0.28873
0.25898999 0.10427 0.26146999
0.26289999 0.11374 0.25435001
0.26277 0.11445 0.25440001
0.26254001 0.11438 0.25494
0.18735 0.177 0.28325
0.18833999 0.1762 0.28380999
0.24394 0.10478 0.27009001
0.24296001 0.10408 0.27026001
0.24384999 0.10394 0.2705
0.26273999 0.080247998 0.20768
0.25850999 0.050818998 0.26543
0.25861999 0.051047999 0.2649
0.20550001 0.17694999 0.23720001
0.20601 0.17738 0.23702
0.24391 0.068487003 0.26506001
0.23248 0.12253 0.23322
0.23252 0.12158 0.23405001
0.24155 0.16078 0.27202001
0.21562 0.18331 0.24244
0.21543001 0.18384001 0.24321
0.21471 0.18337999 0.24229001
0.23904 0.11797 0.25255999
0.2491 0.13435 0.24975
0.25073001 0.13527 0.25016001
0.20163999 0.17565 0.17488
0.25632 0.11233 0.26438001
0.25187999 0.076833002 0.27134001
0.25751001 0.071071997 0.26813999
0.25745001 0.072067998 0.26819
0.22418 0.15572 0.28022999
0.22355001 0.15555 0.28040001
0.21073 0.17397 0.2902
0.22345001 0.15859 0.28545001
0.22342999 0.15803 0.28477001
0.26503 0.1374 0.24496
0.26449001 0.13756999 0.24552999
0.26141 0.051436 0.26271001
0.24843 0.092638001 0.26942
0.24731 0.093855999 0.26943001
0.23907 0.13305999 0.24448
0.2374 0.13175 0.2438
0.25077999 0.087415002 0.27094001
0.2131 0.19957 0.24725001
0.23446999 0.051460002 0.28104001
0.24099 0.19298001 0.23671
0.24097 0.19338 0.23533
0.24059001 0.19311 0.23589
0.26611999 0.1215 0.23816
0.24832 0.090195 0.27048999
0.24834999 0.091039002 0.26973999
0.22310001 0.16078 0.28938001
0.25253001 0.18900999 0.24397001
0.24399 0.055856999 0.2814
0.24414 0.055782001 0.28165999
0.23472001 0.12965 0.23948
0.23334999 0.055232 0.26837
0.23225001 0.054442 0.26844001
0.23242 0.055016 0.26954001
0.20429 0.19165 0.17957
0.2245 0.17299999 0.27675
0.22503 0.1728 0.27678001
0.23506001 0.10651 0.25804999
0.23489 0.10656 0.25747001
0.21112999 0.19340999 0.24451999
0.24721999 0.18025 0.25336
0.24582 0.17887001 0.25358
0.26662999 0.17664 0.24572
0.26655 0.17738999 0.24519999
0.20021001 0.18323 0.28716001
0.22113 0.18476 0.24065
0.22059 0.18460999 0.24072
0.26567999 0.17422 0.24995001
0.26526999 0.17434999 0.25073001
0.25189 0.16743 0.25974
0.25161999 0.10206 0.26817
0.25084001 0.10184 0.26877999
0.26449999 0.18697999 0.23748
0.26398 0.18683 0.23849
0.24721 0.14669999 0.25589001
0.21837001 0.15712 0.28599
0.21841 0.15618999 0.28470999
0.20649 0.19735999 0.24790999
0.23615 0.10009 0.26659
0.19878 0.18197 0.2811
0.23218 0.1514 0.26978999
0.21928 0.17608 0.28099
0.18771 0.16508 0.29128999
0.26185 0.18074 0.24842
0.22506 0.17981 0.24449
0.22469001 0.17911001 0.24493
0.25540999 0.063127004 0.26815
0.25648999 0.063299 0.26751
0.19879 0.17444 0.16937999
0.19859999 0.17470001 0.17061
0.1982 0.17512999 0.16981
0.25018999 0.10993 0.26780999
0.21431001 0.17380001 0.29042
0.25701001 0.097799003 0.25983
0.25613001 0.097552001 0.26052999
0.25635999 0.097099997 0.25935999
0.24433 0.066040002 0.26284
0.22763 0.16753 0.28227001
0.19442999 0.16971 0.29254001
0.28027999 0.098187998 0.23231
0.23434 0.17021 0.26405999
0.23423 0.17047 0.26550001
0.23236001 0.16618 0.27695
0.23139 0.16601001 0.27759001
0.18735 0.17612 0.28542
0.18640999 0.17696001 0.28536999
0.25687999 0.18987 0.24062
0.24383999 0.094988003 0.27088001
0.26016 0.06095 0.26137
0.26019001 0.060970999 0.26005
0.22939999 0.18291 0.24258
0.24652 0.067645997 0.26853999
0.24611001 0.068759002 0.26811001
0.26497999 0.17906 0.24676
0.26436999 0.18004 0.24658
0.23552001 0.12494 0.24109
0.22863001 0.16278 0.28097001
0.25498 0.10298 0.26552001
0.22797 0.13401 0.23336001
0.18177 0.17284 0.28527999
0.22782999 0.14435001 0.24853
0.26014999 0.067574002 0.26381999
0.20874999 0.19099 0.24232
0.22236 0.17257001 0.28843001
0.2121 0.18244 0.24054
0.23 0.1762 0.24873
0.18976 0.1803 0.28557
0.25055999 0.15909 0.25909999
0.22363999 0.18234999 0.24281
0.2238 0.18213999 0.24331
0.22927999 0.16056 0.28055999
0.19112 0.17203 0.29115
0.243 0.077021003 0.27017
0.24278 0.078203 0.27057001
0.21211 0.18323 0.24034999
0.1974 0.1927 0.18099
0.19859999 0.19228999 0.17987999
0.19760001 0.19278 0.17996
0.2405 0.054081 0.27794999
0.25745001 0.064064004 0.26570001
0.23411 0.17002 0.25852999
0.23311 0.16949999 0.25801
0.18371999 0.16455001 0.28885999
0.18306001 0.16361 0.28898001
0.22622 0.18189999 0.24314
0.24308001 0.19444001 0.23406
0.24383 0.19446 0.23399
0.19773 0.16520999 0.29280001
0.22216 0.18974 0.23583999
0.22316 0.18855 0.23672999
0.23746 0.16804001 0.27045
0.18384001 0.17202 0.28780001
0.19075 0.17096999 0.29115
0.19117001 0.17084 0.29196
0.20528001 0.17654 0.23814
0.25850999 0.18515 0.24673
0.25823 0.18548 0.24604
0.22593001 0.19055 0.23217
0.22693001 0.16288 0.28404999
0.19846 0.18144999 0.17242
0.22188 0.15458 0.28025001
0.22454 0.1557 0.27827001
0.25656 0.15821999 0.25816
0.25540999 0.15704 0.25782001
0.22699 0.16726001 0.2834
0.27555999 0.16986001 0.23467
0.24202 0.1204 0.25295001
0.24202 0.12154 0.25279999
0.22155 0.15865999 0.28637999
0.28711 0.10201 0.22991
0.22596 0.17117 0.28475001
0.24821 0.095585003 0.26898
0.24829 0.096221998 0.26848
0.23788001 0.053888999 0.27914
0.19436 0.17900001 0.16989
0.22671001 0.17132001 0.27893999
0.22541 0.17225 0.27937001
0.23273 0.13787 0.24477001
0.23303001 0.13744 0.24326999
0.19678 0.18084 0.28867
0.19654 0.17998999 0.28854999
0.25753999 0.10288 0.26262999
0.26543999 0.1296 0.24282999
0.26067001 0.13863 0.24726
0.26199001 0.13753 0.24733999
0.26161999 0.13821 0.24709
0.23641001 0.056173999 0.27546
0.22998001 0.053608 0.27191001
0.23091 0.052854002 0.27245
0.23108999 0.053700998 0.27206001
0.23964 0.11621 0.25722
0.24019 0.117 0.25683001
0.23232 0.15223999 0.27081999
0.23351 0.1521 0.27087
0.23921999 0.18700001 0.24354
0.23861 0.18674999 0.24457
0.21008 0.19914 0.24318001
0.26944 0.16549 0.25013
0.20968001 0.19965 0.20829
0.25398001 0.080160998 0.27070999
0.24597 0.18746001 0.24634001
0.24575999 0.18805 0.24555001
0.23267999 0.11935 0.23094
0.23326001 0.11803 0.23063
0.26607001 0.13281 0.24245
0.25667 0.076829001 0.26934001
0.27794999 0.099183001 0.23393001
0.27871999 0.099166997 0.23398
0.29172999 0.093745999 0.23334
0.24151 0.056655999 0.27544999
0.23652001 0.14424001 0.25277001
0.23772 0.14335001 0.25211
0.23741999 0.14438 0.25308001
0.26201999 0.14318 0.24765
0.26218 0.14384 0.24801999
0.25217 0.15357 0.25769001
0.19374 0.18267 0.28299999
0.19335 0.18347 0.28292999
0.19408999 0.18221 0.28274
0.25356999 0.15496001 0.25749999
0.23344 0.054420002 0.26747999
0.23334 0.053966999 0.26771
0.26076001 0.13922 0.24699
0.2687 0.13322 0.23625
0.25975999 0.052811999 0.26486
0.27059999 0.11208 0.2304
0.27474001 0.17323001 0.23016
0.27451 0.17411999 0.23136
0.2394 0.052896 0.20169
0.23831999 0.053792 0.20197
0.23916 0.053920001 0.20193
0.23964 0.16495 0.27182999
0.24039 0.16502 0.27173999
0.24302 0.058017001 0.20361
0.24236999 0.057624001 0.20333999
0.24250001 0.057888001 0.20405
0.25536999 0.16866 0.25819999
0.22379 0.16649 0.28955001
0.26317 0.15231 0.25308999
0.20653 0.17071 0.17518
0.20666 0.17197999 0.17589
0.21128 0.17771 0.17964999
0.21224 0.1767 0.17990001
0.29198 0.094166003 0.23441
0.20297 0.17291 0.17428
0.20387 0.17271 0.17449
0.24281 0.16610999 0.26859999
0.24250001 0.16681001 0.26833001
0.233 0.13097 0.23855001
0.26958001 0.15689 0.24874
0.26976001 0.15725 0.24979
0.25863001 0.17189001 0.25529
0.24466 0.061003 0.26486
0.24162 0.054040998 0.27757999
0.22359 0.17219 0.28569999
0.21662 0.18364 0.24225999
0.21616 0.18426999 0.2429
0.21251 0.17887001 0.24132
0.2112 0.17929 0.24089
0.21072 0.17873 0.24056
0.2396 0.053863999 0.20784999
0.25922 0.10208 0.25856
0.23367999 0.19316 0.23683999
0.20491999 0.17656 0.17581999
0.22091 0.17411 0.24631999
0.22033 0.17546999 0.24571
0.24748001 0.083663002 0.27156001
0.24831 0.083747 0.27088001
0.25193 0.062302999 0.26973
0.25310001 0.063161001 0.26945001
0.25703999 0.081386998 0.26892999
0.20132001 0.18228 0.28503999
0.28805 0.099367999 0.2291
0.20784999 0.17934 0.23786999
0.2079 0.17975999 0.23777001
0.20844001 0.1728 0.28975001
0.20868 0.17252 0.29028001
0.21737 0.19442999 0.21634001
0.21768001 0.19388001 0.21627
0.21798 0.1938 0.21496999
0.26133001 0.12588 0.24761
0.26106 0.12661 0.24784
0.25400999 0.093865998 0.26163
0.21279 0.16043 0.28933001
0.21303 0.15925001 0.28894001
0.26988 0.13626 0.2349
0.27020001 0.13705 0.23427001
0.27379999 0.17523 0.23363
0.27337 0.17577 0.23446999
0.27362001 0.17428 0.23461001
0.26841 0.053934999 0.21292999
0.28116 0.098251 0.23017
0.23997 0.17795999 0.25292
0.26297 0.18476 0.24312
0.26264 0.18423 0.24376
0.23988 0.053202 0.20863999
0.23921999 0.050717998 0.27643001
0.27013999 0.10132 0.23096
0.26969999 0.10191 0.23131
0.23802 0.095985003 0.27171001
0.25746 0.1287 0.25044
0.25795001 0.12808 0.25058001
0.24222 0.055357002 0.27706
0.24278 0.055831 0.27629
0.20325001 0.17894 0.17617001
0.20219 0.17949 0.17587
0.27404001 0.16655999 0.2406
0.27418 0.16627 0.24036001
0.23491 0.12135 0.23732001
0.23390999 0.17565 0.25257999
0.20156001 0.16728 0.29245001
0.24731 0.10565 0.26954001
0.25525001 0.098453 0.26392001
0.25567999 0.098236002 0.26262999
0.23910999 0.11475 0.2604
0.24054 0.11587 0.26041999
0.26909 0.1778 0.24347
0.25413001 0.11733 0.26286
0.25409999 0.11712 0.26341
0.22039001 0.1856 0.24059001
0.24150001 0.098590001 0.27006
0.27432001 0.099660002 0.23272
0.26102999 0.14377999 0.24859001
0.27283001 0.17888001 0.23122001
0.27340999 0.16505 0.24419001
0.27089 0.17656 0.24169999
0.19678 0.18599001 0.28319001
0.21105 0.19936 0.25038001
0.24163 0.055723999 0.27632001
0.25463 0.19349 0.22961999
0.25369 0.19334 0.2306
0.25714001 0.11427 0.26359001
0.25668001 0.11471 0.26374
0.25635999 0.11374 0.26392999
0.21807 0.17636999 0.28365001
0.25634 0.16978 0.25762999
0.25738001 0.16854 0.2577
0.25676 0.16927999 0.25727999
0.20525999 0.17092 0.17286
0.24044 0.053764999 0.20935
0.24038 0.16946 0.26157999
0.26080999 0.12142 0.25092
0.20466 0.16632999 0.29056999
0.23494001 0.093928002 0.20427001
0.23503999 0.094067998 0.20562001
0.19870999 0.18357 0.17087001
0.19819 0.18212999 0.17209999
0.19824 0.18337999 0.17128
0.23161 0.12384 0.23299
0.22949 0.13204999 0.23425999
0.23021001 0.13147999 0.23411
0.22981 0.13198 0.23481999
0.21035001 0.17545 0.1789
0.21091001 0.17535 0.17911001
0.20908999 0.18695 0.23968001
0.23726 0.11665 0.23872
0.24152 0.080457002 0.27059001
0.25687 0.19166 0.23406
0.25828001 0.1917 0.23387
0.26100001 0.15212999 0.25432
0.26163 0.15261 0.25420001
0.27076 0.1515 0.24628
0.25204 0.084136002 0.27131999
0.25173 0.084903002 0.27110001
0.25531 0.17989001 0.25264999
0.26159999 0.1425 0.24687999
0.26069999 0.15813001 0.25648999
0.26054001 0.15708999 0.25637999
0.23262 0.052011002 0.28162
0.23353 0.051865999 0.28125
0.20922001 0.18934999 0.23847
0.26820001 0.11564 0.23074999
0.22723 0.13764 0.23198
0.22678 0.13737001 0.23101
0.23838 0.10973 0.26481
0.22624999 0.14230999 0.24545
0.22616 0.14195 0.24479
0.23345 0.16922 0.27559999
0.22600999 0.14261 0.24582
0.25928 0.060745001 0.2624
0.25870001 0.060743999 0.26366001
0.22854 0.19109 0.22731
0.22822 0.19106001 0.22866
0.22864 0.19234 0.22770999
0.22149 0.16892 0.29126
0.23473001 0.1663 0.27757001
0.23586001 0.16618 0.27656999
0.23469 0.16733 0.27656001
0.27721 0.098789997 0.23327
0.24764 0.10671 0.26912001
0.22436 0.15605 0.28154001
0.24504 0.050611999 0.20972
0.24657001 0.050570998 0.20998999
0.26080999 0.13269 0.24779999
0.27671999 0.10311 0.23498
0.27566999 0.10295 0.23498
0.25758001 0.17317 0.25560001
0.25803 0.17315 0.25522
0.24564999 0.13068999 0.25020999
0.21871001 0.19215 0.24022999
0.21843 0.19231001 0.24127001
0.25387999 0.051998999 0.27177
0.25387001 0.052987002 0.27151
0.26859 0.13169999 0.23609
0.26864001 0.13059001 0.23704
0.26870999 0.13059001 0.23589
0.24228001 0.18601 0.24548
0.24143 0.18559 0.24647
0.24507999 0.11538 0.26455
0.2368 0.18053 0.24992
0.20836 0.19958 0.21058001
0.2454 0.096206002 0.27000999
0.27669999 0.10177 0.23504999
0.27311999 0.10419 0.22588
0.248 0.18095 0.25244001
0.19057 0.17767 0.28336999
0.23614 0.088483997 0.20290001
0.23642001 0.087502003 0.20294
0.2366 0.088136002 0.20344999
0.23391999 0.10222 0.20823
0.2341 0.10182 0.20757
0.25498 0.12726 0.25139999
0.25617 0.17296 0.25657001
0.22285999 0.17422999 0.28026
0.23909999 0.16883001 0.26887
0.2393 0.1684 0.26980999
0.23691 0.052460998 0.20175999
0.23593999 0.051665999 0.20221999
0.20794 0.17735 0.23848
0.23431 0.16683 0.27724999
0.25867 0.075534999 0.26703
0.28117999 0.099760003 0.22792999
0.26844999 0.13313 0.23714
0.24721999 0.098651998 0.26964
0.27237001 0.17908999 0.23017
0.25725001 0.061684001 0.26655999
0.26874 0.18128 0.23959
0.26918 0.18132 0.23845001
0.25977999 0.16628 0.2577
0.21128 0.1675 0.29260999
0.24865 0.094068997 0.26877999
0.2572 0.053252 0.26776999
0.25742999 0.052799001 0.26732001
0.24224 0.12608001 0.25005001
0.26247999 0.1215 0.24752
0.23996 0.19106001 0.23993
0.26923999 0.14012 0.23891
0.25413001 0.098755002 0.26497
0.2545 0.097255997 0.26396999
0.24304999 0.12851 0.24845999
0.24359 0.12862 0.2483
0.24338 0.12969001 0.24774
0.26826999 0.12828 0.237
0.26844001 0.12732001 0.23720001
0.26833001 0.12701 0.23621
0.24260999 0.13691001 0.24857
0.26693001 0.1124 0.23422
0.20089 0.17305 0.28086999
0.20121001 0.17309999 0.28083
0.22052 0.17411 0.28455999
0.25266999 0.077838004 0.27114999
0.25193 0.07801 0.27113
0.25200999 0.077101 0.27133
0.27372 0.17670999 0.23277999
0.23819 0.11205 0.26233
0.21430001 0.19831 0.2438
0.21434 0.19809 0.2447
0.21538 0.19707 0.24372999
0.19799 0.16525 0.28424001
0.22991 0.17188001 0.25446999
0.23486 0.12630001 0.23992001
0.23511 0.12623 0.24115001
0.23506001 0.12729 0.24131
0.22 0.17629001 0.24488001
0.22143 0.17641 0.24574
0.26017001 0.072159 0.26361999
0.26387 0.12154 0.24492
0.21255 0.20039 0.20981
0.26966 0.10443 0.23456
0.27085999 0.10448 0.23484001
0.27081001 0.10547 0.23521
0.21317001 0.18243 0.24037001
0.21349999 0.18203001 0.24126001
0.24144 0.15908 0.27212
0.24218 0.15797 0.27149999
0.24178 0.19369 0.22728001
0.23131 0.12786999 0.23419
0.23169 0.12755001 0.23415001
0.23066001 0.13048001 0.23538999
0.23096 0.13077 0.23644
0.23004 0.16873001 0.27548999
0.24076 0.19416 0.23194
0.25272 0.10651 0.26718
0.25209001 0.10647 0.26787999
0.22882 0.18614 0.24054
0.24461 0.17061 0.25863999
0.24465001 0.16971 0.25852999
0.23551001 0.10269 0.26499
0.23509 0.1029 0.26449999
0.23286 0.18144999 0.24945
0.21679001 0.19490001 0.24488001
0.21628 0.19491 0.2454
0.21277 0.17697001 0.28740999
0.21385001 0.17727999 0.28668001
0.21268 0.17738999 0.28668001
0.26458001 0.15812001 0.25325
0.23208 0.15071 0.26638001
0.2335 0.15108 0.26769
0.21699999 0.18779001 0.24488001
0.21707 0.18923999 0.24479
0.19762 0.16302 0.29078999
0.19724999 0.16319001 0.29161999
0.22273 0.14556 0.24260999
0.22316 0.14470001 0.24242
0.26671001 0.16977 0.25105
0.26668 0.16907001 0.25139999
0.24501 0.060318001 0.27074
0.21338999 0.17434999 0.24347
0.21388 0.17515001 0.24344
0.22415 0.15839 0.28454
0.19306 0.1768 0.29010001
0.27340001 0.17411999 0.23611
0.27318999 0.17416 0.23682
0.21600001 0.18534 0.24510001
0.23459999 0.051980998 0.20141
0.23351 0.051245999 0.26842999
0.2323 0.051100001 0.26964
0.18605 0.17895 0.28176999
0.18625 0.18012001 0.28178
0.26389 0.076857999 0.20864999
0.26409 0.075305998 0.20868
0.23582 0.054772999 0.27956
0.24925999 0.10442 0.26877999
0.23695 0.13495 0.24492
0.23739 0.13397001 0.24469
0.24690001 0.19334 0.23817
0.24584 0.1935 0.23820999
0.2313 0.15707 0.27818
0.29153001 0.10065 0.2335
0.20378 0.16966 0.27961999
0.20331 0.16938999 0.28005001
0.2036 0.1706 0.27930999
0.25861001 0.19047 0.23857
0.28252 0.097571 0.23112001
0.28349999 0.097883999 0.22981
0.28369999 0.097648002 0.23111001
0.22663 0.17182 0.27809
0.22586 0.17217 0.27809
0.20976999 0.20018999 0.21148001
0.23458999 0.10465 0.21133
0.25907999 0.083631001 0.26607999
0.25595 0.19311 0.22924
0.25505 0.058116 0.27024001
0.24174 0.16632999 0.26969999
0.24213 0.16611999 0.26923001
0.20247 0.1733 0.28026
0.18854 0.16407 0.28735
0.26715001 0.1149 0.23387
0.20646 0.19345 0.18024001
0.23317 0.18481 0.24556001
0.25034001 0.18596999 0.24790999
0.2492 0.18708 0.24770001
0.24197 0.069418997 0.26148999
0.25841999 0.067809001 0.2669
0.28836 0.098580003 0.23513
0.28797999 0.098212004 0.2352
0.23129 0.15278 0.27610999
0.23348001 0.15601 0.27810001
0.24429999 0.19389001 0.23018
0.22971 0.17452 0.25097001
0.25178 0.075498998 0.27133
0.26688999 0.057296999 0.21307001
0.26664999 0.057427 0.21387
0.26730001 0.056026999 0.21416
0.21885 0.19117001 0.24143
0.25303 0.17455 0.25727001
0.24442001 0.17732 0.25415999
0.18960001 0.1736 0.28929999
0.21426 0.1608 0.29027
0.21294001 0.16178 0.29065001
0.24849001 0.052079 0.27919
0.24867 0.052960001 0.27932999
0.24741 0.052877001 0.27969
0.26546001 0.17071 0.25184
0.26495999 0.16989 0.25305
0.23816 0.10665 0.26703
0.23709001 0.086198002 0.26701
0.23705 0.086989 0.26682001
0.27555001 0.15917 0.23718999
0.27513999 0.15903001 0.23811001
0.24224 0.13391 0.24668001
0.24337 0.13405 0.24719
0.24228001 0.10293 0.27006
0.24223 0.1019 0.27000999
0.24271999 0.10297 0.27000999
0.25125 0.072668999 0.27019
0.20137 0.16292 0.28872001
0.20106 0.16287 0.28716001
0.23961 0.082249999 0.26927999
0.23961 0.083548002 0.26894999
0.25409999 0.057539999 0.27077001
0.25485 0.056403998 0.27008
0.2457 0.17658 0.25562999
0.24556001 0.17614999 0.25661001
0.24694 0.13183001 0.24970999
0.24592 0.13178 0.25007001
0.26903 0.17008001 0.24844
0.25874001 0.051068999 0.26229
0.259 0.050687999 0.26389
0.25819999 0.051176999 0.26348001
0.2432 0.075061001 0.26859
0.26293001 0.11583 0.24763
0.2631 0.116 0.24646001
0.2378 0.17521 0.25690001
0.2397 0.15826 0.27329001
0.26842999 0.13191 0.23826
0.26844001 0.13198 0.23720001
0.26093 0.15006 0.2536
0.26190999 0.15005 0.25297999
0.26222 0.15132999 0.25299001
0.266 0.1459 0.24939001
0.26701999 0.11623 0.23391999
0.25053999 0.12037 0.26014999
0.23812 0.12125 0.248
0.23617999 0.12038 0.24006
0.25080001 0.17906 0.25393999
0.23655 0.12262 0.24342
0.2349 0.10112 0.26341999
0.25740001 0.14885999 0.25498
0.25167999 0.050818998 0.27408999
0.24372999 0.17208999 0.25913
0.24336 0.17069 0.25837001
0.23736 0.19374 0.23521
0.23859 0.19357 0.23653001
0.2386 0.19374999 0.23508
0.26865 0.13078 0.23803
0.26813 0.13067 0.23905
0.24167 0.051708002 0.20974
0.23982 0.18255 0.24809
0.21242 0.17648999 0.24195001
0.26794001 0.10246 0.23036
0.26859 0.10175 0.23045
0.26718 0.050856002 0.21301
0.26651999 0.050981998 0.2132
0.23512 0.055643 0.27855
0.24958999 0.051070999 0.27283001
0.25097999 0.050866 0.27171999
0.2509 0.050845001 0.27276
0.24583 0.061771002 0.26175001
0.2306 0.16799 0.27587
0.23125 0.16870999 0.27548999
0.23677 0.11367 0.25389001
0.23710001 0.11406 0.25375
0.27042001 0.10176 0.23262
0.26977 0.1022 0.23219
0.20331 0.18358999 0.17688
0.27309 0.17297 0.23822001
0.26954001 0.10275 0.23263
0.26993999 0.10345 0.23356999
0.19543 0.16632 0.29302999
0.25387999 0.087141 0.26916999
0.25318 0.087365001 0.26984
0.27335 0.10569 0.23503999
0.24047001 0.097698003 0.27022001
0.23578 0.15549999 0.27559999
0.24324 0.14021 0.25104001
0.23433 0.17027999 0.26280999
0.23567 0.17054 0.26275
0.20812 0.19850001 0.25257999
0.23365 0.097245 0.20227
0.26361001 0.18875 0.22927999
0.26368999 0.18869001 0.23038
0.24458 0.13625 0.24942
0.23424999 0.053695999 0.20468
0.19215 0.16646001 0.29232001
0.25402001 0.078849003 0.27068999
0.25544 0.079046004 0.27035001
0.25486001 0.095118999 0.26041001
0.25474 0.095385 0.26155001
0.185 0.17238 0.28433999
0.25387001 0.12447 0.25450999
0.2516 0.070943996 0.26978999
0.2509 0.070009001 0.26956999
0.25949001 0.074254997 0.26561001
0.27592 0.16181 0.2348
0.27599999 0.16094001 0.23349001
0.27592999 0.16145 0.23362
0.24399 0.10093 0.27022001
0.24484999 0.10098 0.27000001
0.20427001 0.17843001 0.28944999
0.24105 0.17906 0.25128001
0.24058001 0.17907999 0.25163999
0.25635001 0.14580999 0.25332999
0.23371001 0.10206 0.20443
0.2247 0.14431 0.24574
0.2475 0.16057 0.26501
0.27663001 0.098403998 0.22904
0.23924001 0.15217 0.26980001
0.24595 0.063041002 0.26414001
0.24586999 0.061832 0.264
0.23190001 0.17037 0.27096
0.23322 0.055443998 0.26980999
0.26374999 0.12848 0.24517
0.26328 0.12846 0.24562
0.18731 0.18031 0.28424001
0.21659 0.18491 0.24321
0.23841999 0.17839999 0.25310999
0.23909999 0.17791 0.25365001
0.26154 0.11664 0.25345001
0.26117 0.11717 0.25351
0.19541 0.1743 0.29106
0.19661 0.17324001 0.29211
0.22773001 0.14602 0.25001001
0.22905 0.051520001 0.27342999
0.22957 0.051724002 0.27307001
0.19944 0.17535 0.17310999
0.19965 0.17462 0.17267001
0.20054001 0.17546 0.17378999
0.19968 0.18099 0.17149
0.23236001 0.051580999 0.27880999
0.23251 0.050411001 0.27994999
0.23615 0.051337 0.28005001
0.21223 0.20016 0.24498001
0.1981 0.18464001 0.28411999
0.19848999 0.18425 0.28301001
0.24485999 0.12622 0.25224999
0.24455 0.12549999 0.25275001
0.24437 0.12481 0.25323001
0.27379 0.17576 0.23371001
0.27291 0.17685001 0.23453
0.21259999 0.19478001 0.24966
0.21227001 0.19600999 0.24969999
0.24698 0.19361 0.22945
0.24773 0.19374 0.22962999
0.19577999 0.16869999 0.29269999
0.26078001 0.17156 0.25511
0.27526999 0.15421 0.23568
0.27502999 0.15476 0.23576
0.23699 0.087402001 0.26602
0.20048 0.17377999 0.17317
0.24597999 0.16528 0.26508
0.24583 0.16493 0.26574001
0.24590001 0.16725001 0.26047
0.24583 0.16712999 0.26154
0.23801 0.054942999 0.19877
0.2385 0.055996001 0.19856
0.25735 0.13071001 0.24947
0.21600001 0.19001999 0.24587999
0.21569 0.19148999 0.24680001
0.21314 0.19903 0.24789
0.22872999 0.13303 0.23294
0.22955 0.13196 0.23339
0.2243 0.1549 0.27566001
0.25740999 0.14489 0.25167
0.24149001 0.093676001 0.27136999
0.2667 0.18367 0.24043
0.2062 0.19603001 0.24600001
0.22203 0.18540999 0.23965
0.22253001 0.18610001 0.23909
0.24462999 0.17893 0.25329
0.24514 0.17754 0.25409999
0.27050999 0.17316 0.24461
0.27777001 0.10454 0.22737999
0.19097 0.17195 0.28488001
0.19113 0.17071 0.28474
0.23489 0.10603 0.25852999
0.20821001 0.19745 0.21411
0.20982 0.18336 0.22761001
0.23079 0.12757 0.23083
0.23036 0.12837 0.2307
0.25117001 0.17773999 0.25459
0.21367 0.17982 0.24214999
0.21482 0.18062 0.24195001
0.26971999 0.17567 0.24281999
0.24350999 0.071791001 0.26660001
0.27601001 0.16759001 0.23246001
0.27596 0.16594 0.23371001
0.27608001 0.16594 0.23241
0.2529 0.18526 0.24845999
0.22248 0.17529 0.24652
0.18769 0.1707 0.28615001
0.18724 0.17104 0.28560999
0.23630001 0.056666002 0.26736
0.23692 0.057259001 0.26743001
0.23634 0.056426 0.26596999
0.25057 0.071183003 0.26978999
0.24017 0.1175 0.25518
0.23965999 0.11701 0.25611001
0.26460999 0.14725 0.2502
0.26398 0.14804 0.25080001
0.26414999 0.14676 0.25106999
0.24301 0.068277001 0.26179001
0.26010001 0.18979999 0.23754001
0.22612999 0.16282 0.28512999
0.25422999 0.17020001 0.25854999
0.26598001 0.13950001 0.24377
0.19977 0.18457 0.17560001
0.25731999 0.14662001 0.25441
0.25707 0.14574 0.25325
0.20456 0.16068999 0.28608
0.20443 0.16146 0.28665999
0.26938999 0.10926 0.23439001
0.22923 0.13821 0.24275
0.2295 0.13866 0.2437
0.26800001 0.17575 0.24562
0.24492 0.16604 0.26497999
0.24450999 0.19311 0.23801
0.25718999 0.12125 0.25538
0.23727 0.054173 0.20649
0.23825 0.053755 0.20728
0.2242 0.14452 0.24557
0.21871001 0.15990999 0.28885999
0.29161999 0.097346 0.23017
0.24638 0.16187 0.26745999
0.24589001 0.16268 0.26738
0.24567001 0.16150001 0.26798001
0.23621 0.19405 0.2308
0.20219 0.18170001 0.28402999
0.20257001 0.18132 0.28371
0.2013 0.18233 0.28380001
0.22867 0.13324 0.23466
0.22836 0.13407999 0.23446
0.22658999 0.1671 0.28459999
0.23226 0.17883 0.25042999
0.19859 0.17091 0.28233999
0.19879 0.16977 0.28257
0.23105 0.12709001 0.23022
0.23101 0.12689 0.23085
0.21629 0.16869 0.29304999
0.20742001 0.193 0.21563999
0.24119 0.057441998 0.20847
0.25411001 0.050592002 0.27013001
0.23799001 0.11797 0.2481
0.23777001 0.118 0.24665999
0.27131999 0.16881 0.24656001
0.27182001 0.16971999 0.24471
0.20931999 0.17133 0.29142001
0.28941 0.096470997 0.2309
0.28827 0.096606001 0.23108999
0.21483999 0.1859 0.24471
0.215 0.18582 0.24372999
0.21498001 0.18469 0.24352001
0.19904999 0.16739 0.29304001
0.25244999 0.13415 0.24981
0.25400999 0.13414 0.24974
0.26565 0.12804 0.24246
0.26539001 0.12843999 0.24325
0.245 0.15927 0.26938999
0.27371001 0.16621 0.24116001
0.24028 0.14595 0.25452
0.24142 0.14551 0.25463
0.24555001 0.11812 0.26089001
0.24321 0.13185 0.24715
0.24311 0.13096 0.24744
0.20818 0.17777 0.28387001
0.2093 0.17849 0.28389001
0.20924 0.17799 0.28264999
0.25159001 0.099574 0.26763001
0.19296999 0.18634 0.17678
0.19368 0.18606 0.17736
0.24522001 0.16638 0.26409999
0.24552 0.16605 0.26394001
0.25909001 0.15917 0.25738001
0.23502 0.10435 0.21213999
0.23533 0.10563 0.21205001
0.23541 0.096184 0.26971999
0.23309 0.18603 0.24445
0.23248 0.18666001 0.24457
0.23673999 0.16737001 0.27268001
0.23737 0.16672 0.27276
0.19586 0.17991 0.28854999
0.24602 0.099528 0.27026999
0.23351 0.16719 0.27678001
0.25034001 0.13112999 0.25040999
0.20619 0.17757 0.23345
0.20654 0.17877001 0.23465
0.20668 0.17878 0.23345999
0.24502 0.058559 0.27546
0.24496 0.058786999 0.27423
0.24401 0.058347002 0.27412999
0.2895 0.098392002 0.22958
0.26142001 0.11021 0.25926
0.20649 0.19314 0.1786
0.25670999 0.058515001 0.26822001
0.26401001 0.16187 0.25422999
0.25582001 0.098739997 0.26225001
0.25382 0.13819 0.24932
0.23041999 0.13936 0.24559
0.27166 0.15138 0.24472
0.21171001 0.15659 0.2841
0.26330999 0.080360003 0.20637999
0.26267001 0.080724001 0.20507
0.26298001 0.080686003 0.20622
0.23583999 0.095121004 0.20896
0.23596001 0.096308999 0.20917
0.24502 0.051286999 0.28108001
0.24174 0.16528 0.27002001
0.24116001 0.16597 0.27044001
0.25373 0.14351 0.25187001
0.21412 0.17696001 0.24326999
0.21459 0.17730001 0.24339999
0.22492 0.17801 0.24604
0.22516 0.17704999 0.24639
0.25878 0.14781 0.25409001
0.23556 0.14332999 0.25152001
0.23656 0.14334001 0.25217
0.23556 0.14387 0.25227001
0.26565 0.13277 0.24289
0.22852001 0.13968 0.24463999
0.22784001 0.14002 0.24436
0.25988999 0.075387001 0.26357001
0.22971 0.16676 0.27873999
0.24972001 0.12108 0.25863001
0.26075 0.17181 0.2545
0.26183999 0.17173 0.25426
0.26214001 0.17224 0.25334999
0.24028 0.074639 0.25802001
0.24063 0.073668003 0.25913
0.21963 0.16184001 0.29111999
0.21972001 0.16121 0.29085001
0.24292 0.16899 0.26102
0.26409999 0.13335 0.24488001
0.26423001 0.13418999 0.24498001
0.26348999 0.13395 0.24572
0.25971001 0.12247 0.25117001
0.25944 0.12246 0.25209999
0.19619 0.18655001 0.28292
0.27794999 0.10647 0.23135
0.27840999 0.1061 0.23056
0.24533001 0.16531 0.26618999
0.24382 0.058270998 0.2084
0.20623 0.17798001 0.28856999
0.20637 0.17798001 0.28773001
0.23098999 0.16479 0.27858001
0.19186001 0.18685 0.28064001
0.23444 0.099779002 0.20908
0.26109001 0.18131 0.24893001
0.26025999 0.18057001 0.24965
0.25646001 0.084769003 0.26890001
0.25540999 0.084821999 0.26945999
0.18407001 0.16276 0.28891
0.25547999 0.118 0.26161999
0.25420001 0.11907 0.26146999
0.19468001 0.16518 0.29280999
0.19555999 0.16512001 0.29289001
0.25946 0.10081 0.25545999
0.26006001 0.10163 0.25543001
0.26003 0.10191 0.25659001
0.20846 0.16935 0.29128999
0.19915 0.18243 0.28148001
0.19777 0.18331 0.28185001
0.25275999 0.059198 0.27116001
0.24482 0.067616001 0.26598001
0.24432001 0.067873999 0.26497999
0.27215999 0.10989 0.22887
0.27153999 0.11093 0.22927
0.27193999 0.11066 0.23040999
0.22607 0.17806999 0.24628
0.22714999 0.17808001 0.24642999
0.271 0.17997999 0.23608001
0.27065 0.18102001 0.23582999
0.27042001 0.18012001 0.23703
0.20602 0.18589 0.17130999
0.24021 0.17488 0.25784001
0.25455999 0.18998 0.2427
0.18971001 0.17408 0.28854001
0.24123999 0.079681002 0.26876
0.22058 0.18914001 0.24037001
0.22112 0.18855 0.23973
0.22150999 0.18923 0.23882
0.25889 0.10294 0.26045999
0.25920999 0.10356 0.25979
0.25940999 0.10436 0.26027
0.24243 0.16542999 0.26921001
0.24288 0.16561 0.26885
0.23726 0.083448999 0.26387
0.2376 0.082751997 0.26424
0.21115001 0.18327001 0.24008
0.26335001 0.053201001 0.25656
0.26300001 0.051362 0.2568
0.24676999 0.19318999 0.23892
0.21065 0.17735 0.28716001
0.21180999 0.17747 0.28698
0.24592 0.12027 0.25832999
0.22745 0.13925999 0.24235
0.22666 0.13950001 0.2423
0.22911 0.18843 0.23881
0.19671001 0.17647 0.29106
0.23683999 0.11085 0.26146999
0.2406 0.053204 0.27807999
0.26019999 0.12748 0.24908
0.2705 0.18222 0.23565
0.20884 0.17310999 0.1776
0.26190999 0.11581 0.25345999
0.26567 0.14499 0.24902999
0.23464 0.10683 0.20685001
0.23452 0.10777 0.20794
0.23447999 0.10795 0.2067
0.2386 0.11614 0.25538999
0.25966999 0.078837998 0.26552001
0.24738 0.061519001 0.26923001
0.25102001 0.10781 0.26765001
0.20711 0.15958001 0.2872
0.26455 0.11975 0.24160001
0.26456001 0.11936 0.24293
0.24450999 0.061172001 0.26383999
0.24694 0.18666001 0.24687999
0.24676 0.18613 0.24735001
0.24699 0.18572 0.24781001
0.26471001 0.11765 0.24224
0.26434001 0.1169 0.24214999
0.26716 0.14560001 0.24799
0.25852999 0.083823003 0.26681
0.23902 0.1846 0.24541999
0.19317 0.18652999 0.27925
0.19289 0.18727 0.27895999
0.23118 0.17038999 0.26976001
0.25444001 0.1013 0.26530999
0.20031001 0.18080001 0.28944999
0.20107 0.18111999 0.28916001
