# .PCD v0.7 - Point Cloud Data file format
VERSION 0.7
FIELDS x y z
SIZE 4 4 4
TYPE F F F
COUNT 1 1 1
WIDTH 1425
HEIGHT 1
VIEWPOINT 0 0 0 1 0 0 0
POINTS 1425
DATA ascii
-0.020570001 0.0017742 0.099440001
-0.045809999 0.0056349002 0.088141002
-0.046597999 -0.034152001 0.056738
-0.045637999 -0.035982002 0.056880001
0.063928001 -0.01554 0.085440002
-0.081863001 -0.0020190999 0.12804
-0.040460002 0.040112 0.082888
-0.045774002 -0.032200001 0.058378
-0.048369002 -0.032419998 0.058499999
-0.048939001 -0.0043421998 0.087259002
-0.034591001 -0.011746 0.067201003
-0.033876002 -0.01171 0.066820003
0.01976 0.0029793 0.072935
0.085101001 0.0078672003 0.084899999
-0.032889001 0.02207 0.10871
-0.033481002 0.021336 0.1066
-0.040282998 0.023050001 0.098632999
-0.039161999 0.023560001 0.10009
-0.052230999 0.033899002 0.10522
-0.025245 -0.0083264001 0.073982999
0.010001 -0.038148001 0.11266
0.021217 0.016861999 0.088872001
0.023743 0.016473001 0.089248002
-0.02847 0.016329 0.10816
-0.041320998 -0.012886 0.082681
-0.041986 -0.014433 0.083711997
-0.042771999 -0.015094 0.083617002
-0.056860998 0.014825 0.098131999
-0.035801001 0.034860998 0.11351
-0.037735999 -0.029541999 0.055541001
-0.036150001 -0.038740002 0.062244002
-0.035215002 -0.038972002 0.061172001
-0.036033999 -0.038507 0.061507002
-0.0043298001 0.011027 0.083313003
-0.0049700001 0.011854 0.083392002
-0.0047086999 0.011486 0.083071999
-0.022616001 0.0027101 0.099803999
0.086675003 0.013853 0.083526999
0.082295999 0.0058223 0.089047998
-0.053893 -0.030626999 0.061597001
-0.055096 -0.030297 0.062024999
-0.0539 -0.029941 0.062737003
-0.030737 0.0094820997 0.090821996
-0.031372 0.010092 0.090634003
0.014438 -0.011794 0.077133
0.014454 -0.010393 0.076324999
0.010529 0.012238 0.077993996
-0.0022390999 -0.012103 0.068429001
0.037280001 -0.0065462999 0.088494003
0.080385998 0.0075193001 0.090207003
0.080689996 0.0077495002 0.091089003
-0.0031359999 -0.015045 0.068787999
-0.0037227001 -0.015652001 0.068953998
-0.034954999 -0.022143999 0.055941001
-0.034800999 -0.023975 0.054051999
0.097098 0.037121002 0.085297003
-0.018761 0.0044022002 0.10113
-0.020412 0.0033555001 0.10034
0.026156999 -0.0056248 0.080398001
-0.050501 0.01025 0.089809999
-0.049180001 0.0096180001 0.088606
-0.058541 0.0071919998 0.10042
-0.045976002 0.036719002 0.089405999
-0.0085116997 -0.025898 0.077707998
-0.029224999 0.018813999 0.1105
0.044080999 -0.0080097998 0.093064003
0.071165003 -0.016853999 0.085217997
0.029232999 0.01374 0.1
0.031576 0.015382 0.10075
-0.0097540002 0.00049743999 0.074003004
0.036440998 -0.031385999 0.077000998
0.069845997 -0.0088091996 0.090584002
-0.043279 0.012859 0.088363998
0.11006 0.028108999 0.075253002
0.1111 0.028844999 0.075216003
0.061322998 -0.0062087998 0.10412
-0.027819 -0.039666999 0.11902
0.036943998 -0.019091001 0.099987
0.035372 -0.018982001 0.10004
0.0073016998 -0.036958002 0.11395
-0.043364 -0.0017350001 0.087053999
0.075320996 -0.037826002 0.12796
0.075032003 -0.03968 0.12654001
-0.063516997 0.040718999 0.11742
-0.053952001 0.036194999 0.11575
0.095124997 0.035165001 0.082165003
0.095503002 0.035192002 0.080555998
0.052214999 -0.013695 0.089785002
0.052035999 -0.014513 0.090014003
-0.046440002 0.033442002 0.091771998
-0.047679 0.034418002 0.091499001
-0.0093202004 -0.038720999 0.11661
-0.0059894999 -0.039671 0.1182
-0.013495 -0.021371 0.073469996
0.070701003 -0.0099739004 0.086448997
0.072279997 -0.011659 0.085037
0.10055 0.022208 0.080808997
-0.056499999 0.040979002 0.10191
-0.013022 0.0056512002 0.087820001
-0.013734 0.0069835 0.086967997
-0.074966997 0.029852999 0.11875
-0.073659003 0.030711001 0.11934
0.080057003 -0.02258 0.094210997
0.080251001 -0.023004999 0.096066996
0.080174997 -0.022697 0.095971003
-0.064207003 0.035921998 0.10454
0.069337003 -0.030136 0.098566003
0.060481999 -0.040075 0.12696999
-0.035886001 -0.035521001 0.116
-0.070564002 0.021708 0.11282
-0.036222 0.00024692999 0.087315999
0.073742002 -0.035978999 0.11716
0.073302999 -0.0027280999 0.095739
0.072616003 -0.0017698 0.094117001
0.031831998 0.0047738999 0.082764
0.046432 0.0043588998 0.10165
0.04583 0.0045742998 0.10196
0.0027975 0.014234 0.086104997
0.078681 -0.040128 0.12630001
-0.0074788001 0.0084928004 0.081798002
-0.0054096999 0.010709 0.082255997
0.063764997 -0.018425999 0.076301001
-0.038415 -0.019909 0.064378999
-0.037324999 -0.021276999 0.062706001
-0.037604 -0.021214999 0.064369
0.072907999 -0.0046684998 0.089539997
0.074529998 -0.0029827999 0.087947004
-0.047901999 0.0143 0.093671001
0.030334 -0.013587 0.092882
0.038651001 -0.037420999 0.066287003
-0.031612001 -0.033392999 0.061962999
-0.032263 -0.033500001 0.062794
-0.085588999 0.020567 0.12695
0.081929997 -0.018559 0.091232002
-0.037055999 0.0072391001 0.091831997
0.038276002 -0.014538 0.092266001
0.037400998 -0.014205 0.093098
0.069755003 -0.014598 0.086107999
0.068370998 -0.015562 0.087298997
0.0032448 -0.037452001 0.11361
0.0039408999 -0.036525 0.11258
-0.036139 0.0039658002 0.091632001
-0.033612002 0.0064069 0.089688003
-0.050161999 -0.035739001 0.056260999
0.021973001 0.014384 0.084601998
-0.069035999 0.035569999 0.10802
0.032278001 -0.031319 0.066175997
0.031929001 -0.033374999 0.066234998
0.080333002 0.038738001 0.089766003
-0.0031627 -0.02176 0.074853003
-0.0024266001 -0.022671999 0.074317001
-0.0020904001 -0.022681 0.073988996
-0.048179999 -0.0021810001 0.085616
0.038662001 0.0052132001 0.090258002
0.020336 0.020186 0.091757998
-0.068889998 -0.0090971999 0.12195
0.067064002 -0.0040743002 0.098525003
0.066520996 -0.0047622998 0.099766999
-0.042727999 0.015279 0.090291001
-0.044842999 -0.0025883999 0.087247998
0.0066057001 -0.0027053 0.070277996
0.0053596999 -0.0031144 0.068979003
0.048462 -0.0043301 0.097593002
0.059388999 -0.015436 0.085409001
0.058947999 -0.014913 0.086099997
0.059783999 -0.015253 0.086993001
0.032377999 0.019966999 0.098978996
-0.0086425003 -0.0087372996 0.068993002
-0.0074875001 -0.010292 0.069521002
0.084625997 -0.013359 0.087176003
-0.072603002 0.040909 0.12055
0.013022 0.0061881999 0.073221996
0.001745 -0.030188 0.11264
-0.040401999 0.012729 0.092257001
0.051004998 -0.0066686999 0.096706003
0.079047002 0.0013646 0.086176001
0.0034218 -0.017103 0.072772004
0.094154999 0.012188 0.083938003
0.093682997 0.011797 0.083224997
0.011212 0.017937999 0.084790997
0.027673 0.00051659002 0.079002999
0.077974997 -0.024987999 0.11936
-0.010104 0.0039201998 0.076964997
-0.010365 0.0043557999 0.077207997
-0.061636001 0.001523 0.10285
-0.060543001 0.0010092 0.10266
-0.062376 0.035572 0.10388
-0.039455999 0.019879 0.095788002
-0.039069001 0.020174 0.095624998
0.090109996 0.018632 0.083953999
0.089744002 0.020062 0.082892001
0.089308001 0.020865001 0.084110998
0.050491001 -0.018162999 0.087635003
-0.070936002 -0.0045817001 0.11549
-0.070887998 -0.0043353001 0.11606
-0.0093812998 0.0045559001 0.077771001
-0.031383 0.021217 0.11284
-0.030577 0.022929 0.11167
0.046425 0.0046424 0.10929
0.04947 0.0034886 0.10909
0.01894 -0.010799 0.078312002
0.080812 0.017574999 0.087151997
0.081339002 0.018567 0.08743
-0.00026088001 -0.037553001 0.1187
-0.029890999 -0.01347 0.054014001
0.041108001 -0.021356 0.099995002
0.041549999 -0.020687001 0.098020002
0.031822 -0.039111 0.064387001
-0.02864 -0.021997999 0.056042999
-0.062844001 -0.014629 0.12134
0.067575 -0.029906999 0.094402
0.1028 0.042066999 0.081525996
0.10213 0.041781001 0.081445999
0.10091 0.041955002 0.082695
-0.012493 -0.024408 0.075947002
-0.012829 -0.025131 0.077114001
0.035076 0.011255 0.089551002
0.058699999 -0.011601 0.070087001
0.087049 -0.011048 0.087600999
0.086745001 -0.010156 0.087908
0.080623999 -0.0036273 0.095256001
0.081559002 -0.0048735002 0.094123997
0.082680002 -0.0020757001 0.094651997
-0.040599 0.017852001 0.091479003
0.055532999 -0.036458999 0.068204001
0.036869999 -0.017868999 0.097767003
0.039689999 -0.038504999 0.071250997
0.038523 -0.039758999 0.070717998
0.052370001 -0.036125001 0.076681003
-0.070588998 0.036860999 0.10985
0.077917002 0.014407 0.096205004
-0.036442 0.030014001 0.10747
-0.036300998 0.028488999 0.10871
-0.041785002 0.0015370999 0.088425003
0.034187 -0.0047773002 0.086393997
-0.013131 -0.0254 0.078973003
-0.018488999 -0.024884 0.077880003
0.013917 0.015627 0.083152004
-0.025752001 0.015305 0.11136
-0.02675 0.017828001 0.11191
0.063174002 -0.031693 0.101
0.086121999 0.0011295 0.083088003
-0.058970001 0.0036815 0.10064
0.0039308998 0.0055336002 0.070721999
-0.0060935002 -0.035805002 0.11222
0.019324999 -0.011334 0.082124002
0.077763997 -0.036293 0.11837
0.021559 -0.039003 0.068433002
0.022224 -0.038229 0.069090001
0.064848997 -0.024089999 0.072956003
-0.068853997 -0.0047724 0.11491
-0.069032997 -0.0053893002 0.11479
-0.042711999 0.030468 0.10675
-0.042397 0.028788 0.10829
-0.042777002 0.028395001 0.10651
0.037574999 -0.015292 0.094770998
0.10304 0.042489 0.081811003
0.074005 -0.031028001 0.11159
0.075581998 -0.029293001 0.11162
0.075332999 -0.030786 0.1121
-0.043136999 0.032591999 0.083198003
-0.047672998 0.019901 0.094232999
-0.048424002 0.019784 0.096193999
-0.048175 0.017106 0.095486
-0.0083593 -0.0063276002 0.069600001
-0.0092754997 -0.0064655999 0.069683
0.082672998 -0.017758001 0.088293001
-0.041297 0.037432998 0.080542997
-0.024433 -0.0068407999 0.076603003
-0.038582001 0.040405001 0.081092
0.03088 -0.0050589 0.084830001
0.0038119999 0.012341 0.080580004
0.0049156002 0.012155 0.079434
0.033105999 -0.012863 0.094443001
0.033872001 0.0067826998 0.087447003
0.02774 0.01328 0.083053999
-0.033891998 -0.010105 0.071958996
-0.057606999 0.035344999 0.12042
-0.058222 0.035131 0.12366
-0.032573 0.019207001 0.10629
0.010382 0.010216 0.075020999
-0.012814 -0.022626 0.07378
0.040484998 0.0083592003 0.092547998
0.056919001 -0.0095761996 0.095097996
0.055587001 -0.010009 0.095625997
-0.045485001 -0.029864 0.067070998
0.1016 0.045334 0.081615001
-0.078163996 0.026946001 0.11703
-0.077780001 0.028891001 0.11836
-0.037301 -0.013621 0.073743001
-0.037845999 -0.012759 0.073605001
0.074612997 -0.019425999 0.084835
0.0079685999 -0.037489001 0.11222
0.074377999 -0.040971 0.12683
-0.072159 -0.0060295002 0.1172
-0.061615001 0.024711 0.10612
0.092427 0.0072627999 0.088941
0.073453002 -0.010902 0.084305003
0.073472001 -0.010897 0.083457001
-0.043857999 -0.00081041001 0.087633997
0.040298998 -0.031397 0.071271002
-0.02918 -0.038001999 0.055801
-0.032972999 -0.019849 0.061395001
-0.013604 -0.0023572999 0.072981998
-0.013334 -0.00098252005 0.074092999
-0.048287999 -0.012051 0.088380001
-0.044277001 0.0069960002 0.091018997
0.055004999 -0.01206 0.089162
0.044310998 -0.00012475 0.095835
-0.074942999 0.0050589 0.12761
-0.075640999 0.0061284001 0.12668
-0.075415 0.0058117998 0.12694
0.093516 0.034081001 0.081684999
0.089621998 0.021001 0.090843998
0.089501999 0.020956 0.091352999
0.028072 -0.0047784001 0.081593998
0.0054513998 -0.014336 0.071846001
0.035496999 -0.017685 0.097547002
0.047098 -0.0088477004 0.093667001
-0.067381002 0.017632 0.11004
-0.015548 -0.039315 0.11721
-0.034731001 0.0081529999 0.089971997
-0.036111001 0.0091163004 0.090594999
0.033121001 -0.0096038999 0.087072998
0.10364 0.024661001 0.078501999
0.10303 0.024178 0.078909002
-0.035896 0.0094793001 0.090657003
0.058428001 -0.018159 0.071388997
0.077142 -0.031235 0.11223
-0.045586001 0.0027481001 0.089860998
-0.04504 0.0014217 0.089238003
-0.056531001 0.031773999 0.10123
0.00049137999 0.010207 0.078599997
-0.0017762 0.0099969003 0.079356
-0.00079404999 0.010233 0.080554999
-0.046562999 0.0066837999 0.091849998
-0.047228999 0.0076473001 0.091381997
-0.032010999 -0.0080925999 0.076334998
-0.048503 0.00018743001 0.090172
-0.051231001 -0.00055052998 0.088997997
-0.049499001 -0.00031393001 0.089838997
-0.068085 0.036077 0.11008
-0.066898003 0.035443999 0.11119
-0.071569003 0.022915 0.11403
-0.071759 0.023355 0.1122
-0.062045 -0.035073001 0.057399999
0.015652001 0.0067921998 0.073894002
0.029595001 -0.0058001 0.084403999
0.065026999 -0.0033547999 0.098828003
0.060833 -0.014059 0.090057999
0.064439997 -0.038720999 0.12384
-2.5868001e-06 0.0097463997 0.076540999
-0.0013675001 0.0081150001 0.079294004
-0.0094227996 -0.0064281998 0.070251003
0.013006 0.0042070001 0.070626996
0.012333 0.0023781999 0.070330001
-0.047557 0.016844001 0.091982
-0.04947 0.016555 0.092014
0.086460002 -0.0057267002 0.083589002
0.086127996 -0.0046496 0.083506003
-0.0045673 0.0057441001 0.076215997
0.065402001 -0.021554001 0.075952999
-0.043016002 0.032104999 0.1064
0.047850002 -0.039680999 0.070583999
-0.040119 0.045235999 0.080417998
-0.040910002 0.043915 0.080709003
-0.016837001 -0.025876001 0.078194998
-0.067272998 0.017278001 0.11037
-0.066583999 0.017310999 0.11275
-0.078437001 -0.0066626999 0.12532
-0.078635 -0.0060419999 0.12387
0.064087003 -0.013175 0.092773996
-0.056492001 0.036911 0.10193
0.081537999 -0.013742 0.083526999
-0.063697003 0.036545001 0.11702
-0.063483 0.037227001 0.11637
-0.070368998 -0.0091003003 0.12167
-0.034813002 0.01539 0.093258999
-0.0038060001 -0.019866999 0.069641002
-0.0031808999 -0.017504999 0.069767997
-0.025651 0.010228 0.1065
-0.025341 0.0073906998 0.10718
0.068503998 -0.010093 0.089861996
0.070178002 -0.0089036003 0.088785
-0.046496999 0.014104 0.088940002
0.06075 -0.037804998 0.070194997
0.060812 -0.036630001 0.071281001
-0.026118999 0.028221 0.11016
0.027099 -0.036145002 0.079175003
0.02658 -0.036265999 0.078275003
0.025281001 -0.035564002 0.076192997
-0.051127002 0.0019763 0.089124002
-0.036582001 0.023382001 0.10564
-0.037668999 0.02296 0.10687
-0.072871998 -0.00061440002 0.11772
-0.043083999 0.033002 0.083549
-0.048377 -0.0061694002 0.090011001
-0.047518998 -0.0057684998 0.089431003
-0.0035067999 -0.039597999 0.11283
-0.037423 0.018015999 0.096791998
-0.033199001 -0.040539 0.055027001
-0.033333998 -0.040068999 0.057773001
-0.033257 -0.041168999 0.056529
0.050611001 -0.0023995 0.10939
0.053025 -0.0021178001 0.10972
0.052583002 -0.00059378002 0.10903
0.064352997 -0.018943001 0.085207
-0.047984999 0.0093155 0.095219001
-0.048625998 0.010488 0.093755998
0.10617 0.027499 0.078846
0.080342002 -0.040474001 0.12967999
0.018466 0.016395001 0.088175997
0.019303 0.017002 0.086346999
-0.062143002 0.006364 0.10406
-0.043910999 0.011178 0.087357998
-0.018988 -0.023603 0.075312003
-0.025473 0.0028846001 0.10509
0.045221001 -0.0097706001 0.091712996
-0.042642999 0.025912 0.10073
-0.040325001 0.025789 0.099886999
0.069531001 -0.033454001 0.11177
0.075355999 0.00039609999 0.089387998
0.040162999 -0.021206001 0.1005
0.040527999 -0.021723 0.10134
0.049584001 -0.034669001 0.077287003
-0.031337999 0.010259 0.090458997
0.087750003 0.036890998 0.090343997
0.058933999 -0.0066006002 0.10598
0.059764002 -0.0060041999 0.10517
-0.052978002 0.014824 0.094251998
0.016324 0.016948 0.092765003
0.072393999 -0.010012 0.086662002
-0.016971 0.0029108999 0.088330999
0.061988 -0.038136002 0.071052998
0.063378997 -0.035225999 0.071524002
-0.0028931 0.0099654999 0.080670998
-0.0032329001 0.00825 0.080081999
0.084902003 0.029379001 0.090080999
0.085084997 0.030866999 0.090226002
-0.055482998 -0.03743 0.058068
-0.057201002 -0.038631 0.058646001
-0.033399001 -0.018282 0.062574998
-0.032777 -0.017554 0.062332999
-0.045715999 0.0036853 0.087056004
-0.038012002 -0.036072001 0.11673
0.088150002 -0.011915 0.090383999
0.087761 -0.012004 0.089409001
-0.056651998 0.033677001 0.10716
-0.083783001 -0.0026628 0.12828
-0.024290999 0.017089 0.1108
0.058284 -0.0085407002 0.097185999
0.069687001 -0.02716 0.093837999
-0.058876 0.034343999 0.10418
-0.060552999 0.037018999 0.12558
-0.061027002 0.035112001 0.12475
-0.060502999 0.034116 0.12543
0.10042 0.035401002 0.081426002
0.10079 0.035443 0.082671002
-0.059057001 0.038919002 0.12551001
-0.059617002 0.037307002 0.12567
0.072137997 -0.030068001 0.10218
-0.069546998 0.040130001 0.1212
0.044070002 0.0050063999 0.098853
0.044783 0.0053336001 0.099523999
-0.053583 0.015827 0.092193
-0.071013004 0.040247999 0.11423
-0.017572001 -0.016504001 0.069636002
-0.060295999 0.0071073002 0.10407
-0.073086001 0.0068337 0.12526999
-0.073850997 0.0075349002 0.1268
-0.039608002 -0.039726 0.059122
0.088627003 -0.0052172001 0.08726
0.013877 -0.0076036998 0.071854003
0.014331 -0.0088416999 0.07406
-0.018329 -0.00036012 0.082649
-0.0029428001 -0.0010965 0.068974003
-0.039969001 0.021173 0.10311
-0.038176998 0.022072 0.10201
-0.010893 -0.024010001 0.074188001
-0.065361999 0.038807001 0.11586
0.063431002 -0.025157001 0.071732998
0.064598002 -0.026097 0.072042003
0.063989997 -0.026066 0.071585998
-0.063079998 -0.034219999 0.071419999
0.030319 0.01705 0.095795996
-0.058529999 0.041276999 0.10222
-0.020594999 -0.0013074999 0.084104002
-0.020594001 -0.001579 0.082528003
0.095086001 0.025454 0.081713997
0.095852003 0.024613 0.080104001
-0.042151999 0.015884001 0.093668997
-0.042351 0.033674002 0.11121
0.038993999 0.014466 0.10621
0.039666001 0.011906 0.10551
0.038991001 0.013711 0.10517
-0.017554 -0.0085685002 0.072838001
-0.039926998 0.02489 0.099450998
-0.061528999 0.00096421002 0.10098
-0.060649998 0.00030094999 0.10149
-0.06154 0.0012289 0.10041
-0.068071999 0.010889 0.11505
-0.045198999 0.035966001 0.087683
-0.057833999 -0.037485 0.064415999
-0.057386 -0.037889 0.066757001
-0.059319999 -0.038346 0.067387998
0.045403998 0.0097037004 0.10712
0.047047999 0.0089266999 0.10636
0.046239998 0.0098353997 0.10712
-0.020405 0.0036617001 0.090818003
0.037643999 -0.0093411002 0.090452999
0.064557999 -0.025687 0.075960003
0.064530998 -0.026019 0.074102998
0.096488997 0.029921001 0.081866004
0.088863 -0.0066701001 0.087688997
0.088716999 -0.0055928999 0.088145003
0.020897999 -0.010651 0.082829997
0.020579999 -0.011145 0.084670998
0.02703 -0.034308001 0.082397997
0.02602 -0.036676999 0.083481997
0.027629999 -0.034892 0.083731003
-0.040978 0.042385001 0.079678997
-0.040128998 0.040482 0.077762999
0.078548998 0.0081741 0.094888002
-0.064921997 -0.012485 0.12549999
0.034662001 -0.0060433 0.087362997
0.011775 -0.0092861 0.072559997
0.0034392001 -0.024606001 0.10906
-0.032946002 -0.0072714998 0.077425003
-0.064842999 0.040883999 0.12763
-0.034357999 -7.7951998e-05 0.083746001
-0.0098898001 -0.0043408 0.070932999
0.081832998 0.0062074 0.085997999
0.082091004 0.0053236 0.087242
-0.033158999 -0.010318 0.059347
-0.031527001 -0.010419 0.061764002
0.095766999 0.016245 0.081491999
0.044624999 0.0097037004 0.10436
0.044378001 0.0087200999 0.10372
-0.032979999 0.015339 0.10068
-0.033172 0.014995 0.10051
-0.029185001 -0.037296999 0.056717001
-0.014936 -0.024603 0.074767001
-0.030611999 0.025425 0.10809
0.083430998 0.02046 0.086067997
0.0080561005 -0.016040999 0.075687997
0.075048998 -0.0069630002 0.083699003
-0.017743001 -0.034809999 0.11197
0.056272 -0.018545 0.075612001
0.056279998 -0.018609 0.075750001
0.05751 -0.017843001 0.076164998
0.013163 -0.014549 0.081706002
-0.037032001 -0.027000001 0.056600999
-0.015431 -0.037976999 0.11159
0.10024 0.04642 0.076734997
0.10124 0.046923999 0.078217998
-0.027822999 -0.0010278 0.086805999
0.087160997 0.014741 0.084711999
-0.034524001 0.0056738998 0.09042
-0.067524001 0.0025628 0.11158
-0.067626998 0.0014972 0.11248
-0.066136003 -0.031962998 0.072218001
-0.066021003 -0.032334998 0.069862001
0.063993998 -0.037960999 0.071396999
-0.042546 0.033775002 0.081496999
0.056862 -0.020365 0.072039999
0.024997 0.0081067001 0.079108998
0.024561999 0.0087168003 0.077352002
-0.02643 0.018184001 0.10916
-0.025336999 0.016791999 0.10935
-0.0092577999 -0.034442998 0.11007
-0.058056001 0.00016330001 0.10059
-0.070960999 0.041003998 0.1252
-0.043616999 0.01705 0.090993002
-0.026409 0.0012302001 0.086676002
0.040697001 0.010457 0.10785
0.041483 0.010704 0.10748
-0.017548 -0.027957 0.080689996
-0.043967001 0.032388002 0.1083
-0.019781999 -0.0072121001 0.074444003
-0.019064 -0.0060808002 0.074419998
-0.077863 0.022423999 0.12046
-0.079798996 0.024528001 0.12178
0.083039999 0.00042823001 0.094633996
0.083934002 0.001454 0.095048003
-0.054561999 0.043267 0.099087998
-0.038885001 0.031105001 0.082075998
-0.039462999 0.030176001 0.082558997
-0.042284999 -0.035811 0.05655
-0.042610999 -0.035739999 0.057
0.0034483001 0.015579 0.085474998
0.069195002 -0.028011 0.091594003
0.034122001 -0.031168001 0.076211996
-0.064090997 -0.015359 0.12222
-0.062311001 -0.013969 0.12438
-0.035891999 -0.026974 0.055016998
-0.029604999 0.029565999 0.11373
-0.042117 -0.00010571 0.089250997
-0.052898001 0.0090306997 0.091356002
-0.0057557998 0.0053778002 0.077118002
0.033780999 -0.038612999 0.064551003
0.065504 -0.018128 0.083885998
0.066219002 -0.020607 0.085357003
0.066466004 -0.018121 0.086015999
-0.062618002 0.012555 0.1057
0.062396999 -0.039558999 0.12785999
-0.063513003 -0.040665001 0.062885001
-0.062829003 -0.039260998 0.064245999
-0.064905003 -0.039838001 0.064152002
-0.046002999 0.012828 0.091751002
0.025063001 -0.0075498 0.082897998
0.057557002 -0.018276 0.075883999
-0.019974999 0.0046158 0.10109
-0.068733998 -0.0027713 0.11345
-0.037551001 -0.021861 0.065149002
-0.011851 0.014545 0.086608998
0.030370999 0.011113 0.086161003
0.084173001 0.00091597001 0.084408998
0.037647001 0.011988 0.096199997
0.039476 0.010665 0.097372003
-0.034258001 0.015690999 0.097652003
-0.034814999 0.014932 0.098989002
-0.057936002 0.034341 0.12422
-0.059184998 0.035247002 0.12495
-0.045649 0.033193 0.11383
0.094821997 0.036315002 0.085202999
0.095628999 0.036913998 0.084431
0.092487 0.0072829998 0.088710003
-0.032999001 -0.015089 0.058001999
-0.049571998 0.018328 0.092207
-0.025144 0.042165998 0.1077
-0.0403 0.041007999 0.079163
0.073420003 -0.013354 0.084411003
0.031819999 0.01794 0.096562997
0.03091 0.013556 0.092690997
0.032361999 0.01459 0.093588002
0.078386001 -0.02396 0.089795001
0.078474998 -0.024267999 0.091246001
-0.01904 -0.0023942001 0.076963
-0.018964 -0.0028663001 0.077137001
-0.043391 0.044516001 0.11809
-0.00025395001 -0.024124 0.080822997
-0.0071533001 -0.015288 0.068843
-0.0067244 -0.01544 0.069196001
-0.038011 0.031252 0.081102997
-0.039069999 0.03101 0.083697997
0.028114 -0.039733998 0.063569002
0.028772 -0.040371001 0.064949997
-0.024755999 0.012116 0.10692
-0.073756002 0.029596999 0.11706
0.027673 0.0031171001 0.079713002
0.036892001 -0.013781 0.092717998
-0.048716001 -0.032473002 0.059436999
-0.036501002 -0.035966001 0.056508999
-0.037781 0.0096584 0.093295
0.086386003 0.037470002 0.090579003
-0.010329 -0.033101998 0.10996
-0.01038 -0.033330999 0.10924
-0.04905 0.0054631 0.087393001
-0.00046395001 -0.039255001 0.11931
-0.0012031 -0.039471 0.11877
0.00059806998 -0.039326001 0.11721
0.078400999 -0.024589 0.11678
0.079567999 -0.024101 0.11581
-0.02008 -0.0040679998 0.076476999
0.082459003 0.024263 0.090735003
0.083952002 0.023324 0.091329001
0.061400998 -0.018877 0.071819
0.062625997 -0.016725 0.071374997
0.064101003 -0.017510001 0.072715998
-0.042597 0.010063 0.093301997
-0.062017001 0.037565999 0.10324
-0.060988002 0.038134001 0.10318
-0.061384998 0.037301999 0.10316
-0.011878 -0.027876999 0.080531001
-0.041515 0.012674 0.089818001
-0.060146 0.012346 0.10338
-0.061227001 0.012573 0.10493
-0.061407998 0.012912 0.1043
-0.026311001 0.0054537999 0.10179
-0.025681 0.0049423999 0.10032
0.0062305001 -0.037044998 0.11452
0.087187998 -0.011735 0.088016003
0.092078 0.03029 0.082314
-0.0025609001 -0.00082474999 0.069081999
-0.032035999 -0.0032845 0.083015002
-0.032166999 -0.0018192 0.084320001
-0.041278999 0.01244 0.088092998
-0.040329002 0.010817 0.087883003
0.076108001 -0.041680001 0.13012999
0.077385999 -0.041019 0.13155
0.086327001 0.020333 0.091516003
0.030394999 -0.036965001 0.060630001
0.029926 -0.035227999 0.063101999
0.063198 -0.020784 0.086966
-0.061331 0.0010482999 0.10236
-0.011408 0.013038 0.085253
-0.024866 -0.021604 0.064452
0.078722 -0.040506002 0.13254
-0.025912 -0.01089 0.073206
0.018531 -0.0068138 0.073472999
-0.0033581001 -0.018655 0.071043998
0.046592999 0.0082663 0.10836
0.047603 0.0068124002 0.10831
0.047359999 0.0081204996 0.10853
0.036687002 0.0045977999 0.086673997
0.036327999 0.0035989999 0.087627999
0.082534999 0.035725001 0.088583998
-0.054935001 0.023298999 0.097402997
0.027239 0.014959 0.087600999
-0.030648001 0.037994999 0.11287
0.068489999 -0.040038999 0.072526
-0.029804001 -0.031399999 0.053231999
-0.035439 0.022042001 0.11097
-0.033647999 0.022169 0.11127
-0.034945998 0.022038 0.11241
0.057516001 -0.014084 0.087545998
-0.03277 -0.036571998 0.11625
0.085638002 0.034839999 0.091730997
0.085758001 0.035730001 0.0902
-0.059797999 -0.032685 0.062990002
-0.073060997 0.022521 0.11439
-0.078386001 -0.0020037 0.12398
-0.077198997 -0.0024872001 0.12408
-0.061282001 -0.037289999 0.056051001
-0.059528999 -0.037457 0.057562001
-0.060291 -0.038865998 0.055723
0.078092001 -0.020165 0.087434001
0.076421998 -0.019996 0.085997
0.059627999 -0.012943 0.079792
0.059328999 -0.012425 0.079005003
0.1004 0.020848 0.086263999
0.099490002 0.021048 0.087213002
0.099082001 0.021098999 0.086788997
-0.030502001 -0.010634 0.063011996
0.050797999 -0.023399999 0.082268
0.049320001 -0.022471 0.082295001
-0.063890003 -0.013682 0.1209
-0.05449 0.020685 0.09623
-0.05443 0.022582 0.096816003
0.0095138 -0.0076911999 0.069185004
0.0030465 -0.035847999 0.11399
0.001463 -0.036850002 0.1115
-0.061477002 0.022023 0.10439
0.029595001 -0.033096001 0.070207998
-0.035615001 0.015927 0.096525997
-0.03703 0.016555 0.097282
-0.036155 0.015881 0.097263001
0.053863 -0.016311999 0.079676002
0.085924998 -0.014285 0.090250999
-0.065021001 0.012432 0.10777
0.040082999 -0.0092639001 0.090287998
0.041448999 -0.0078883003 0.090216003
-0.026922001 0.020500001 0.11225
-0.073017001 0.0073155998 0.12701
-0.015408 -0.02424 0.077385001
-0.015445 -0.025707999 0.076568
-0.021155 0.0045244 0.092662998
-0.021219 0.0050042998 0.092193998
0.084218003 0.0065362002 0.086581998
-0.021567 0.0031411001 0.088248
0.079756998 -0.02427 0.11894
0.081237003 -0.024778999 0.1174
-0.03255 -0.039824001 0.057765
-0.0050292001 -0.035280999 0.1125
0.040518001 0.0041860999 0.090671003
0.055638999 -0.017168 0.080562003
-0.056120001 -0.035918001 0.057170998
0.097689003 0.027877999 0.083991997
0.001189 -0.029325999 0.10852
0.054855999 -0.011658 0.093524002
0.070471004 -0.034643002 0.11389
0.053146001 0.0016256 0.10584
0.096331 0.035852 0.080193996
-0.026777999 -0.002139 0.086442001
0.10533 0.026628001 0.078290999
-0.054083001 0.016562 0.095371999
-0.054271001 0.017302001 0.093603998
-0.057415001 0.041001 0.10215
0.096147001 0.031575002 0.081964001
0.039126001 -0.031057 0.077188
0.037092 -0.030999999 0.076623999
0.044124998 0.0077899001 0.10907
0.044240002 0.0061877999 0.1094
0.043653 0.0083186002 0.10936
0.080444999 0.0068174 0.090095997
0.0023785001 0.013652 0.086060002
-0.038525999 -0.02737 0.056681
-0.033833001 -0.025168 0.054370001
-0.034170002 -0.02416 0.053401999
-0.0031109999 0.012503 0.082607999
0.027525 -0.037863001 0.059767
-0.048363999 0.0065581002 0.087118998
-0.057803001 0.028321 0.10132
-0.056910001 0.03136 0.10125
0.063014001 -0.016602 0.071557999
0.024743 0.00090783997 0.078101002
0.084664002 -0.010891 0.085340001
-0.025226999 0.016347 0.11267
-0.023823 0.015838999 0.113
0.015522 -0.012883 0.081436001
0.080470003 0.013922 0.091045
0.081138998 0.01647 0.090611003
0.085510001 0.039198 0.089202002
0.10211 0.024061 0.079130001
-0.050686002 -0.036049001 0.057356
-0.0031884999 0.0078707002 0.076587997
0.046645999 -0.039645001 0.070666999
-0.0033777 -0.032602001 0.10885
-0.083975002 0.022979001 0.12537999
-0.084487997 0.022290001 0.12524
-0.064349003 0.036164999 0.10587
0.0038723999 0.013624 0.081832998
0.084011003 0.021737 0.091738001
0.084973998 0.022391001 0.091035001
-0.067561001 0.019322 0.11379
-0.067580998 0.020006999 0.11489
-0.065608002 0.018998999 0.11425
0.029358 0.012508 0.088064998
-0.045669999 -0.0053653 0.086347997
0.058782 -0.013206 0.072927997
0.058699999 -0.01259 0.071070001
-0.014237 -0.00094870001 0.076720998
0.0074868002 0.017146001 0.087534003
0.084449001 0.033018 0.088592
0.084368996 0.033000998 0.088496998
0.054682001 -0.025746001 0.074340999
0.053635001 -0.025434 0.075432003
0.0073511 0.017343 0.084140003
-0.049153 -0.029778 0.061838001
0.085460998 0.023628 0.085833997
-0.051286999 0.025862999 0.092194997
0.10021 0.027876999 0.078837998
0.099023998 0.028200001 0.079029001
-0.066000998 -0.036734998 0.061691001
-0.067929998 -0.036421001 0.062912002
-0.066073999 -0.034302 0.062899001
0.073900998 -0.010535 0.082633004
-0.029105 -0.013227 0.055238999
-0.046831999 0.0053669 0.090430997
-0.046438001 0.0063422001 0.089575
-0.010295 -0.0024176999 0.070972003
-0.041887999 0.011069 0.087104
0.012533 -0.015982 0.083233997
0.012267 -0.016565001 0.082359001
0.060913 -0.014153 0.076250002
0.064901002 -0.014062 0.086909004
0.066026002 -0.015511 0.085545003
-0.022360001 -0.011232 0.072099
-0.022143001 -0.0098080002 0.074325003
-0.042504001 0.044581 0.11634
0.040038001 -0.014089 0.093535997
-0.04558 -0.039057001 0.057291999
-0.043667998 0.022764999 0.089025997
-0.043175999 0.022466 0.089769997
-0.036341999 -0.0060510999 0.080879003
-0.062623002 0.035016 0.10409
-0.062532999 0.036623001 0.1036
-0.065838002 -0.033840999 0.079869002
-0.0035566001 -0.040164001 0.11736
-0.061259001 -0.038897999 0.060904
-0.038141001 0.03255 0.082865
0.0017851 0.003338 0.071281001
0.0018883999 0.0031695 0.070827
0.0016108 0.0042654001 0.069946997
0.021147 0.0088732997 0.075879
0.02179 0.0084100002 0.076174997
0.055036001 -0.035303 0.078552
0.054391999 -0.034506999 0.078186996
0.017698999 -0.0085898004 0.076486997
-0.038531002 -0.030402999 0.057356
-0.036552999 -0.030005001 0.054366
-0.037723001 -0.029885 0.055852
-0.074906997 0.037955999 0.11542
-0.074068002 0.037675999 0.11537
0.026774 -0.0034858999 0.079985999
-0.044429 -0.0076234001 0.085721001
0.0043899999 6.2726001e-05 0.067847997
0.0047495002 0.0024091001 0.069225997
0.045162 -0.02004 0.093819
0.055700999 -0.033479001 0.078148998
0.049424 -0.006757 0.094997004
0.048604 -0.0076990002 0.094158001
0.080916002 -0.015159 0.083775997
0.079356 -0.01393 0.082873002
0.010574 0.014449 0.091545001
0.037221 0.011578 0.098613001
-0.064423002 0.040658999 0.12703
0.08343 0.015954001 0.087043002
0.081796996 0.016868999 0.087188996
0.082650997 0.017558999 0.086691
0.034366 0.014222 0.097075
-0.056182999 0.00080594001 0.097521
-0.040544 0.025281999 0.089079
-0.039817002 0.025114 0.088780001
-0.019772001 -0.0064786002 0.074337997
-0.049178001 0.030882001 0.092589997
-0.048383001 0.031895 0.091333002
0.063497998 -0.012786 0.073675998
-0.019328 -0.0041821999 0.075496003
0.060067002 -0.036719002 0.068428002
0.018111 0.019626001 0.090457
0.018936999 0.019839 0.090047002
0.074164003 -0.035409998 0.11556
0.073902003 -0.034802001 0.11432
-0.036729001 0.021261999 0.10559
0.0025726999 0.0065376 0.072701
0.022831 0.0018745 0.075121999
-0.032680001 0.0053333999 0.089073002
-0.055351 -0.030750001 0.064750999
-0.056812 -0.030731 0.064076997
0.033194002 0.012565 0.10369
0.035810001 0.0010588 0.086374
0.0064168 -0.0035385999 0.068736002
0.049033999 -0.011983 0.092345998
0.095640004 0.037482001 0.082006
0.096593998 0.038534001 0.083672002
-0.048082002 0.0071441 0.088122003
-0.01023 0.013223 0.084288001
-0.048840001 -0.0060498999 0.086668998
0.038993001 -0.037903 0.12703
-0.045593001 -0.038511999 0.057805002
-0.024783 0.014461 0.11139
-0.030239001 -0.012415 0.067856997
-0.033973001 -0.021946 0.055275001
0.10112 0.018689999 0.084461004
0.082434997 -0.019518999 0.093567997
0.035080999 -0.012991 0.09149
-0.022892 0.0038256 0.093341
-0.021872999 0.0043370998 0.092661999
-0.054260999 0.027113 0.096070997
0.061586 -0.020349 0.070202999
0.060276002 -0.020223999 0.071121998
0.061216 -0.020707 0.071318001
0.0088368999 -0.011138 0.072898999
0.0082072997 -0.013213 0.071842998
0.072410002 -0.028387001 0.097949997
0.0041144001 0.0028351999 0.070417002
0.0044045001 0.0035033 0.070935003
-0.04569 0.011405 0.094596997
-0.045784999 0.011367 0.095468
-0.046774 0.012164 0.094679996
-0.029588999 0.029673001 0.10693
-0.028951 0.029804001 0.10719
-0.028906001 0.028193999 0.10632
-0.049118999 0.024919 0.090086997
-0.026633 0.016216001 0.10927
-0.024436999 0.015124 0.11062
0.081742004 -0.0028929 0.083471999
0.083057001 -0.0019712001 0.081791997
0.038863 -0.035523999 0.066554002
0.039680999 -0.033679001 0.066867001
0.040545002 -0.03554 0.066665001
0.078841001 -0.040925998 0.13235
-0.040755 -0.010102 0.082128003
0.053822 -0.0030463 0.10861
0.015711 -0.011949 0.083802
-0.028044 -0.040128998 0.056263998
-0.027864 -0.038702998 0.058010001
0.024625 0.0039468999 0.075866997
0.024325 0.010777 0.078991003
0.082125999 0.00086451002 0.094512999
-0.060192998 -0.032662999 0.062972002
0.080801003 0.013389 0.088261001
-0.030381 0.0074322 0.092978001
-0.0039662998 0.0088616004 0.078846
0.012334 -0.013612 0.074913003
0.011418 -0.013313 0.076706998
0.011419 -0.012563 0.076325998
0.097134002 0.036669001 0.083973996
0.081740998 -0.018835999 0.088747002
-0.031916 -0.012363 0.062854998
-0.0032215 -0.039717998 0.11507
-0.021318 -0.011355 0.070997
0.039333999 0.0090220999 0.099056996
0.051185999 -0.033303998 0.068069004
0.095242999 0.013892 0.090325996
0.093553998 0.012778 0.090898
0.094368003 0.012297 0.090519004
-0.070152998 -0.0077753002 0.12037
0.097102001 0.012031 0.087761998
0.063267998 -0.01864 0.086983003
-0.058692001 0.035884 0.10148
-0.040596999 0.035121001 0.11253
0.031316001 0.014031 0.092281997
-0.040800001 0.019556999 0.093979999
0.043871999 -0.032184999 0.068805002
-0.055631001 0.010994 0.096612997
0.096230999 0.01708 0.081997998
0.093679003 0.017749 0.082745999
-0.0071279998 -0.033918001 0.10997
-0.0091255996 -0.03492 0.11056
-0.055544998 0.015436 0.097866997
-0.045306001 0.030464999 0.086709999
0.056513 -0.013382 0.089717001
0.024123 0.011785 0.079061002
0.023785001 0.012017 0.081110999
0.024583001 0.0094913999 0.078626998
0.025447 0.010328 0.078750998
-0.069852002 -0.038977999 0.055009998
-0.072633997 -0.038536001 0.055436
0.028461 -0.010408 0.088924997
0.029324999 -0.010585 0.089210004
-0.069972999 0.027566001 0.11768
0.027401 -0.0099261999 0.089638002
-0.00082446 0.01459 0.082318
-0.040380999 0.034513 0.084931001
-0.041529 0.035215002 0.083437003
-0.040011998 0.034841999 0.084988996
0.056049 -0.0045559001 0.1004
0.027674001 -0.034401 0.065030001
-0.047017999 0.0151 0.093804002
-0.048250999 0.015093 0.093194999
-0.033679001 -0.0086035002 0.078625999
0.059643999 -0.032788999 0.069834001
0.010721 0.015749 0.082961001
-0.059367999 0.016531 0.10244
0.079305001 -0.028831 0.11582
0.037009001 -0.0090514999 0.089635998
-0.039050002 0.044209 0.079297997
-0.034706 0.023678999 0.1079
0.035551999 -0.016801 0.095825002
0.087912001 0.033041 0.091390997
-0.049090002 -0.038954001 0.05737
-0.064053997 -0.011424 0.12133
0.091160998 0.00084777002 0.086921997
0.091727003 0.0021128 0.087324999
0.028724 0.01316 0.087194003
0.031137001 0.012805 0.090807997
-0.059948999 -0.035923999 0.057943001
-0.067911997 0.0085362997 0.11462
-0.069078997 0.0092072003 0.11603
-0.038950998 -0.0018032 0.084284
-0.034517001 0.016902 0.10012
-0.035806 0.017414 0.099699996
-0.064806998 -0.012277 0.12446
0.027720001 0.019055 0.094985001
0.025672 0.018912001 0.095205002
-0.024452999 0.029689001 0.10785
0.017971 -0.0060080001 0.072260998
0.014586 -0.0090639004 0.074089997
0.064811997 -0.020778 0.071645997
0.063575 -0.018503999 0.072039999
0.064917997 -0.019778 0.071901001
-0.0034047 0.0053647999 0.075313002
0.050546002 -0.025645001 0.083994001
0.050740998 -0.027174 0.084068999
-0.067216001 -0.013163 0.12313
0.097396001 0.034607999 0.081212997
0.039429002 -0.019386999 0.096523002
-0.028748 -0.011113 0.071369998
-0.028034 -0.010246 0.072990999
0.082276002 -0.020791 0.093656003
0.018691 0.012052 0.080548003
0.082869001 -0.019129001 0.11922
0.077955998 0.0031246999 0.091828004
-0.0071426998 0.010895 0.083460003
0.075629003 -0.0019115 0.090204
0.075041004 -0.00040799999 0.090457998
-0.062148001 0.031236 0.10503
0.089106001 0.024404 0.089642003
0.039733 0.013902 0.10505
-0.027104 -0.021120001 0.059053
-0.036373001 -0.018913999 0.064014003
-0.064511001 0.031780999 0.10647
-0.065089002 0.032207001 0.10928
0.011452 0.019169999 0.087852001
0.10286 0.043405 0.081600003
0.091008 0.021969 0.091812998
-0.037289999 0.015769999 0.091663003
-0.01249 -0.028644999 0.085481003
-0.050905 -0.038918 0.058035001
0.068632998 -0.0099991998 0.091672003
0.033408999 -0.038731001 0.074262999
0.035009 -0.038348 0.075056002
0.03348 -0.040086001 0.075653002
-0.074730001 0.0075033 0.12838
-0.074692003 0.0079528 0.12739
0.063588001 -0.040011998 0.073714003
0.061953001 -0.039485998 0.072801001
0.0070890998 -0.0069402 0.069847003
-0.040052 0.013737 0.091805004
-0.039299 0.01416 0.090538003
0.068029001 -0.011794 0.090680003
0.099578999 0.041451 0.082208999
0.036003999 -0.0095189 0.089335002
0.034497999 -0.010058 0.090127997
0.035315 -0.0084594004 0.090264
0.018239001 -0.0073462999 0.074568003
0.093934 0.034616001 0.086673997
0.036642 0.019265 0.1001
0.026276 -0.0035401999 0.080480002
0.025844 -0.0017298 0.078943998
-0.043958999 0.0099481 0.091404997
-0.038860001 0.034820002 0.10922
-0.034573998 0.00089800003 0.085686997
-0.034761 0.00040446001 0.086409003
-0.035429001 0.001332 0.085821003
0.068742998 -0.01949 0.085023001
0.030878 -0.014358 0.095656
-0.030884 -0.010874 0.053780001
-0.031753998 -0.011609 0.053909
-0.032421999 -0.011829 0.055032
-0.0075793001 -0.021252999 0.071465999
-0.0078985002 -0.02173 0.073311001
0.086521 -0.013302 0.090317003
0.08653 -0.012732 0.090047002
-0.048312001 0.015061 0.091536999
-0.048360001 0.016173 0.091233999
-0.040876001 0.019662 0.094333999
-0.031273998 -0.02799 0.053493001
0.022871999 -0.035259999 0.082944997
0.080145001 -0.039565999 0.13229001
-0.066803001 -0.033638 0.063465998
0.062291998 -0.023875 0.070468001
0.064038001 -0.023296 0.070771001
0.075153001 -0.036292002 0.12746
0.077271 -0.038727 0.12734
-0.0052298 -0.024791 0.077218004
-0.0059845001 -0.024611 0.076866999
0.022128999 -0.039138999 0.069996998
-0.015307 -0.019902 0.070192002
0.057950001 -0.017616 0.075497001
-0.048884999 -0.034885 0.056108002
-0.046840001 -0.037087999 0.056791
-0.0020262001 -0.022623001 0.076435998
0.011203 0.0092235003 0.075469002
-0.030541001 0.0062453002 0.087250002
0.076857999 -0.017572001 0.084651999
-0.029523 0.0094843004 0.090296
0.066046998 -0.024471 0.072811998
0.00038961001 -0.039156999 0.11104
0.0016479 -0.037834998 0.11111
-0.047566 0.011432 0.091752999
0.063810997 -0.024439 0.070299
0.065168001 -0.022968 0.072463997
0.065678999 -0.023739999 0.071217999
0.029224999 -0.033539999 0.082027003
0.030455999 -0.034327999 0.081891
-0.0081751002 -0.037721999 0.11145
-0.00033847999 -0.030239001 0.11137
0.077970996 -0.0022233999 0.086094998
0.078351997 -0.0014524 0.086009003
-0.012506 -0.0097041 0.068703003
0.0035331999 0.01436 0.082369998
0.032141 -0.034061 0.080696002
0.032271001 -0.032285001 0.080756001
0.058952 -0.016124999 0.074789003
0.058722999 -0.016953001 0.074973002
0.0028488999 -0.0019143 0.069260001
0.086975999 0.021435 0.084408998
-0.0071041002 -0.026423 0.081533998
0.034759998 -0.010933 0.089648999
-0.040608998 0.034467001 0.10893
-0.040468 0.034430001 0.11162
0.065572001 -0.037202001 0.071647003
0.064598002 -0.038605001 0.070327997
-0.067339003 -0.011372 0.12569
-0.068012998 -0.013606 0.12459
-0.067496002 -0.014057 0.12397
0.034855999 0.012752 0.096891001
-0.057436999 0.017595001 0.10186
-0.058019001 0.01949 0.10227
0.061992999 -0.014208 0.072595
-0.057255998 0.033091001 0.11127
-0.077913001 0.0069880998 0.12640999
-0.058052 -0.034116 0.056806002
-0.057941001 -0.033016 0.058031
-0.063556001 -0.0019312 0.10969
0.053798001 -0.0012236 0.10327
-0.022074999 0.036311001 0.10742
-0.022538999 0.036015 0.10803
-0.01667 -0.00048887002 0.075607002
-0.029239999 -0.040894002 0.054905999
0.0049338001 0.016044 0.085078999
0.0052688001 0.018203 0.085827999
0.0064964001 0.016243 0.085000999
0.090933003 -0.0026211001 0.085369997
0.081132002 0.040612999 0.090072997
-0.029843999 -0.012884 0.061197001
-0.030525999 0.011794 0.108
-0.031237001 0.011159 0.10869
-0.012827 -0.010489 0.069449998
-0.01325 -0.011194 0.068660997
-0.074533001 0.030096 0.11742
-0.029899999 -0.035227001 0.057636999
0.071105003 -0.026108 0.089749999
0.045458 -0.031897001 0.06876
0.044387002 -0.033622999 0.066969
-0.037654001 0.0052545001 0.090777002
0.043554001 0.0087425997 0.10175
0.080337003 -0.015304 0.085667998
0.055830002 -0.014973 0.081776001
-0.0028182999 -0.015507 0.069381997
0.056368001 -0.036145002 0.074653998
0.058844998 -0.036492001 0.074635997
0.058200002 -0.036109 0.074019998
-0.035291001 0.020917 0.10545
-0.026961001 0.0076199998 0.097336002
-0.025815001 0.0073020002 0.096055001
0.038141999 0.0021788001 0.089415997
-0.041464999 0.033220999 0.11076
0.020755 0.01753 0.088031001
0.018177001 0.018451 0.088123001
-0.024342 0.0054404 0.10546
-0.025218001 0.0062507 0.10666
0.021482 -0.011718 0.084569
-0.033323999 0.00010346 0.086571999
-0.068397999 0.0020846999 0.11337
0.083945997 -0.00050079002 0.083159
-0.019060001 0.0024778 0.087475002
-0.047616001 -0.029920001 0.064661004
-0.043046001 -0.033893999 0.056712002
0.059130002 -0.013686 0.068774
0.059331 -0.012031 0.069247
-0.059535 -0.032781001 0.061216999
0.027875001 0.017028 0.092596002
0.048858002 -0.021950999 0.090429999
0.047419 -0.019874999 0.091274001
0.0091487002 -0.014394 0.074758001
-0.035959002 -0.023884 0.054848999
-0.035905 -0.024223 0.054019999
0.0044787 -0.0044089002 0.069117002
-0.029813999 0.023747001 0.11169
-0.059130002 0.027636001 0.10132
0.057895001 -0.010329 0.095679998
0.081946 0.0254 0.090121999
0.082474001 0.024126999 0.090057999
0.054297 -0.012819 0.089492001
-0.02603 0.012157 0.10587
0.025324 -0.0015556 0.077354997
-0.025722001 -0.025072999 0.060637999
-0.025397999 -0.025202001 0.059075002
-0.012142 -0.028574999 0.081777997
-0.043379001 0.022396 0.091164999
-0.062396001 0.0089777 0.10685
0.032326002 -0.033558998 0.070269004
0.051633999 -0.010265 0.094811
-0.030130001 -0.036309998 0.058384001
0.055443998 -0.036187001 0.068930998
0.081692003 -0.023344999 0.11741
0.080930002 -0.023122 0.11654
0.016883999 0.016039999 0.085128002
0.018186999 0.015053 0.086188003
-0.027151 0.014023 0.10621
-0.065240003 0.023643 0.11147
-0.055718001 -0.037473001 0.066357002
-0.055597 -0.037663002 0.064926997
-0.055861 -0.037264999 0.067146003
-0.036782999 -0.020927999 0.061917
-0.069426 -0.037611 0.055526
0.061392002 -0.040015999 0.073150001
-0.0076118 -0.024832999 0.078355998
-0.067847997 -0.035700999 0.066192999
-0.068612002 -0.035613 0.066735998
-0.023855999 -0.017407 0.070430003
-0.0066792001 -0.014673 0.068577997
0.026148001 0.0090629002 0.079535
0.046987999 -0.0036658 0.094861001
0.046278 -0.0031993999 0.094972998
-0.049431 0.033603001 0.089661002
-0.016385 -0.017763 0.070956998
-0.014338 -0.017215 0.070119001
-0.015092 -0.018866001 0.071225002
0.093324997 0.0039106002 0.088174
0.029773001 -0.039565999 0.061625
0.084839001 0.028774001 0.089192003
0.083981998 0.030273 0.089091003
0.051171001 -0.010514 0.094099998
0.069582999 -0.029634999 0.099357001
-0.0032544001 -0.00047503001 0.071464002
-0.063290998 0.0067802002 0.10583
-0.023221999 0.0025239 0.10394
-0.0072014001 -0.0023223001 0.069256999
0.0098756999 0.0058213002 0.071520999
0.079599001 0.01432 0.094596997
-0.039684001 0.033801999 0.084564999
-0.040433999 0.0053576999 0.088968001
0.082612 0.026385 0.087541997
-0.072925001 -0.0070535 0.12197
-0.078896001 0.024693999 0.11868
-0.078760996 0.02434 0.12
0.10737 0.026209 0.077234
0.036663 -0.0034232 0.089253001
0.081464998 0.012293 0.091614999
0.082985997 0.01359 0.091101997
0.081785001 0.013028 0.091186002
0.0072959 0.017839 0.085497998
-0.067286998 0.037859999 0.11986
0.058038998 -0.021235 0.070827998
-0.041255001 0.0046166 0.089974999
-0.059531 0.025723999 0.10527
0.031408999 -0.0063419999 0.085148998
0.04896 -0.0054040002 0.094163999
0.020939 0.014193 0.083618
-0.023289001 -0.015916999 0.071520999
-0.023050001 -0.016782001 0.070983
-0.029455001 -0.02324 0.054818999
0.054088 -0.010649 0.095528997
0.042038001 -0.0030173 0.091867
0.043547999 -0.0035812 0.092872001
-0.054352999 0.014885 0.097363003
0.078681 -0.023190999 0.092969999
0.077953003 -0.023753 0.091766998
0.1017 0.043442 0.077955998
0.045885999 -0.030928999 0.073810004
-0.050994001 0.020292999 0.093422003
0.091943003 0.032120001 0.083420999
-0.031693999 -0.020282 0.05892
0.079782002 0.010414 0.090669997
0.057725001 -0.0025545999 0.10739
0.035889 0.01212 0.095559001
0.073018 -0.033803001 0.1128
-0.068976998 -0.0056420998 0.11766
0.052301999 -0.030951999 0.078405
-0.051261999 0.018518999 0.092840001
-0.043106001 0.016194999 0.091274001
0.081027001 -0.025085 0.11767
-0.065300003 0.0079845004 0.11098
0.061788 -0.020856 0.085167997
0.053056002 -0.014537 0.088555001
0.054488 -0.01488 0.088133998
0.055112001 -0.035362002 0.077725001
-0.028448001 0.004551 0.092168003
0.074828997 -0.0049943998 0.085813999
0.076676004 -0.0042686998 0.086459003
-0.033589002 0.0081612999 0.088344
-0.057517 -0.032120999 0.058394
0.092464 0.0073631001 0.085649997
-0.044583 0.01226 0.088804998
0.0029181 0.0083796997 0.075537004
-0.0045351 -0.035433002 0.11972
-0.040610999 -0.035797 0.056368999
-0.040183999 -0.034049999 0.056600001
-0.022413 0.034210999 0.10801
-0.083720997 0.026941 0.12289
-0.083425999 0.02747 0.12143
0.070423998 -0.034768999 0.11776
-0.045345999 0.035039999 0.086730003
-0.047488999 0.035305999 0.086245999
0.020883 0.016298 0.095564
0.020959999 0.016406 0.094310001
0.083228 -0.01143 0.083994001
0.083235003 -0.010839 0.083236001
-0.0045477999 0.00020798 0.070679002
0.059220001 -0.038748 0.12484
0.012135 -0.0071886 0.071047001
0.01197 -0.0075321998 0.071470998
-0.010027 0.0071542002 0.082089998
-0.010976 0.0072904001 0.083596997
0.040252 -0.034409001 0.066629
0.039616998 -0.032699 0.068181001
0.040672999 -0.033236001 0.067754
-0.014861 -0.038369 0.11249
0.054667 -0.020256 0.077092998
-0.023629 -0.0071391002 0.076181002
-0.020315001 -0.018820999 0.071826003
-0.046041999 -0.038695998 0.064914003
-0.0081630005 0.00048109001 0.070293002
-0.077939004 -0.0047817002 0.1223
-0.077489004 -0.0037634999 0.12204
-0.045155998 0.0023043 0.090006001
0.057023998 -0.030618001 0.069761001
0.071813002 -0.0054621999 0.094641998
-0.025903 -0.037824001 0.11398
-0.025489001 -0.036839999 0.11473
-0.025394 -0.037900001 0.11541
0.068521 -0.039810002 0.070836
-0.018199001 0.00035101001 0.080751002
-0.047375999 -0.011677 0.091645002
-0.046581 -0.012104 0.092138998
0.09629 0.032476 0.087134004
-0.038098998 -0.0132 0.074846998
-0.038164999 -0.012598 0.076909997
0.024529999 -0.0041748001 0.077972002
-0.046686001 0.015842 0.092969999
-0.045343999 0.015897 0.092191003
-0.011203 -0.026544999 0.079897001
-0.010365 -0.026114 0.080280997
0.082598001 0.0092364997 0.091178
-0.078525998 0.030088 0.11891
-0.053277001 0.00090390001 0.094485998
-0.059112001 -0.036683001 0.056081001
0.049575001 -0.013109 0.090383999
0.049191002 -0.011133 0.091172002
-0.010268 -0.0060000001 0.070086002
0.044266999 0.0035013 0.099416003
-0.0047386 -0.027638 0.10476
-0.055640999 -0.032954998 0.060896002
-0.056001998 -0.031569999 0.062408
-0.034510002 0.033838999 0.11527
-0.035202 0.033946998 0.1138
0.083095998 0.035741001 0.089538999
0.094979003 0.032053001 0.081638001
-0.059264999 0.036869001 0.10309
-0.064106002 -0.015908999 0.12211
-0.046937998 0.030137001 0.087089002
-0.046294 0.028831 0.087518997
-0.053994998 -0.038141001 0.058329999
-0.054478999 -0.037893999 0.058362
0.035445001 0.014854 0.099059001
-0.028341001 0.0034542 0.085810997
0.022531001 -0.037248001 0.069306999
0.038554002 0.0080206003 0.090676002
0.038116001 0.0071667 0.089870997
0.049222 0.00066080998 0.10371
0.049166001 0.0017022 0.10401
0.048698999 0.0029438999 0.1048
0.027174 0.016318999 0.096104003
0.039616998 -0.037819002 0.065967999
0.023545999 -0.0062219999 0.079337999
0.045673002 -0.0050495001 0.093911998
0.033505 -0.017155999 0.099744998
-0.022313001 0.0050428999 0.091661997
-0.048535999 -0.0043123998 0.089286
0.075185001 -0.011393 0.083241001
0.075774997 -0.0097781997 0.084482998
0.076426998 -0.0098692002 0.082153998
-0.074215002 0.0062167998 0.12598
-0.0262 -0.011419 0.0722
0.015502 0.017097 0.086589999
-0.048035 -0.038054001 0.057691999
-0.048695002 -0.039675999 0.057590999
0.056247 -0.018639 0.076010004
0.073200002 -0.0066109998 0.086204
0.038888 -0.0075031999 0.089746997
