# .PCD v0.7 - Point Cloud Data file format
VERSION 0.7
FIELDS x y z
SIZE 4 4 4
TYPE F F F
COUNT 1 1 1
WIDTH 1549
HEIGHT 1
VIEWPOINT 0 0 0 1 0 0 0
POINTS 1549
DATA ascii
0.14523 0.054736 0.26982
0.14589 0.055608999 0.27017
0.16723 0.055652998 0.25843999
0.16591001 0.057216998 0.259
0.16688 0.05627 0.25872999
0.14628001 0.056791998 0.26914999
0.16602001 0.057441998 0.25926
0.14647999 0.05737 0.26851001
0.14841001 0.061239 0.26730999
0.14802 0.062838003 0.2683
0.14871 0.062346999 0.2676
0.16568001 0.063909002 0.25856
0.14923 0.063474 0.26747999
0.14904 0.063643001 0.26732001
0.16643 0.064195998 0.25911
0.16700999 0.065307997 0.25830999
0.16647001 0.064024001 0.25852999
0.16552 0.064819999 0.25933
0.1648 0.064065002 0.25968
0.14934 0.064581998 0.26734
0.15358999 0.066820003 0.26526001
0.15226001 0.06656 0.26589
0.1556 0.067309998 0.26429
0.15642001 0.067863002 0.26374
0.1569 0.069302 0.26355001
0.1573 0.068616003 0.26291001
0.15736 0.070251003 0.26356
0.15756001 0.070545003 0.26429
0.15730999 0.07068 0.26309001
0.15733001 0.071716003 0.26440999
0.12936001 0.080076002 0.27794999
0.12962 0.079921 0.27816001
0.12996 0.079356998 0.27768999
0.12882 0.080196999 0.27851
0.12893 0.079581 0.27821001
0.13006 0.080162004 0.27735001
0.12962 0.080803998 0.27860999
0.12752999 0.080698997 0.2793
0.12817 0.080403 0.27871001
0.12655 0.080433004 0.27928999
0.12582 0.081001997 0.27903
0.12518001 0.080562003 0.27985001
0.12953 0.081609003 0.27792001
0.13098 0.080733001 0.27792001
0.12588 0.081720002 0.28009999
0.13022999 0.081588998 0.27770001
0.12351 0.08213 0.28001001
0.12952 0.082241997 0.27831
0.12932 0.082558997 0.27765
0.12434 0.082042001 0.28072
0.12314 0.081947997 0.28071001
0.12928 0.082757004 0.27796
0.12305 0.082974002 0.28130999
0.12828 0.084141001 0.27803001
0.1287 0.083177999 0.27886999
0.1224 0.083521999 0.28115001
0.12746 0.083848998 0.27834001
0.12245 0.083788998 0.28105
0.12775999 0.084914997 0.27869999
0.12695 0.08467 0.27880999
0.12189 0.084728003 0.28119999
0.12083 0.085042998 0.28163001
0.12602 0.085497998 0.27937001
0.12157 0.085037 0.28169
0.12545 0.085084997 0.28003001
0.1208 0.085745998 0.28220999
0.12543 0.085819997 0.27994001
0.12063 0.086875997 0.28219
0.12431 0.086795002 0.28151
0.1213 0.087343 0.28195
0.12281 0.087213002 0.28093001
0.12068 0.087513 0.28169999
0.14307 -0.050223999 0.27162001
0.14069 -0.047486 0.27168
0.183 -0.046597 0.24951001
0.18151 -0.045490999 0.25106999
0.1391 -0.044542 0.27285001
0.072660998 -0.045940999 0.30643001
0.072181001 -0.046107002 0.30638999
0.13882001 -0.04487 0.27131999
0.13918 -0.044858001 0.27144
0.13845 -0.044613 0.27307999
0.071013004 -0.044633999 0.30660999
0.071039997 -0.043873999 0.30726001
0.079363003 -0.044705998 0.30443001
0.071611002 -0.043179002 0.30666
0.071471997 -0.041855 0.30733001
0.071158998 -0.041951999 0.30678001
0.085041001 -0.041467 0.30113
0.13602 -0.040369999 0.27438
0.13484 -0.039650001 0.27296001
0.13564999 -0.038265999 0.27447999
0.073723003 -0.038674999 0.30647999
0.18411 -0.037831999 0.24945
0.18327001 -0.037443999 0.24974
0.17788 -0.036010999 0.25196001
0.13427 -0.035992999 0.27502999
0.15113001 -0.035432 0.26655999
0.14793 -0.034648001 0.26754999
0.076715 -0.034237999 0.30452999
0.13378 -0.032885 0.27522001
0.13316999 -0.033357002 0.27502999
0.076856002 -0.033096999 0.30445999
0.15692 -0.030469 0.26234999
0.13356 -0.030727999 0.27598
0.13248 -0.030773001 0.27562001
0.13233 -0.031213 0.27504
0.076476 -0.032106001 0.30465001
0.10319 -0.030813999 0.29166001
0.076002002 -0.028371001 0.30496001
0.15853 -0.02894 0.26354
0.15907 -0.029235 0.26238999
0.13213 -0.028772 0.27579999
0.13138001 -0.027393 0.27647999
0.075989999 -0.027596001 0.30464
0.13108 -0.028462 0.27666
0.12972 -0.027028 0.27695999
0.075930998 -0.027105 0.30449
0.12943 -0.026465001 0.27770001
0.16055 -0.024981 0.26118001
0.076337002 -0.022632999 0.30405
0.12736 -0.024023 0.27829999
0.12649 -0.023519 0.27831
0.12578 -0.02217 0.27882999
0.16405 -0.021238999 0.25953001
0.10246 -0.022917001 0.29104999
0.1664 -0.019609001 0.25828001
0.12391 -0.021024 0.27991
0.10211 -0.019938 0.29179001
0.18194 -0.017842 0.25077999
0.16681001 -0.019228 0.25797001
0.079380997 -0.018731 0.303
0.12366 -0.019467 0.28046
0.16937 -0.01809 0.25637001
0.12298 -0.018492 0.28040999
0.079516001 -0.017394001 0.30283999
0.17174 -0.016657 0.25584999
0.10042 -0.014948 0.29218
0.080532998 -0.016279001 0.30366001
0.14032 -0.015362 0.27197999
0.14066 -0.015875001 0.27195001
0.078968003 -0.015787 0.30270001
0.17342 -0.015015 0.25402999
0.17432 -0.014726 0.25384
0.17291 -0.013946 0.25374001
0.12089 -0.014782 0.28224
0.17907 -0.015054 0.25178999
0.17828 -0.014615 0.25189999
0.17822 -0.014025 0.25217
0.17536999 -0.014062 0.25345001
0.078495003 -0.014397 0.30311999
0.17396 -0.013657 0.25358
0.17589 -0.013592 0.25409999
0.17476 -0.013297 0.25288001
0.14046 -0.01417 0.27167001
0.10014 -0.014561 0.29244
0.078276999 -0.014197 0.30344999
0.12 -0.011694 0.28285
0.098293997 -0.011464 0.29335001
0.13845 -0.011942 0.27355999
0.077892996 -0.012442 0.30385
0.11948 -0.011154 0.28226
0.1177 -0.010607 0.28268
0.11746 -0.011259 0.28252
0.097337998 -0.010036 0.2947
0.097104996 -0.010437 0.29354
0.13726 -0.0080613 0.27384999
0.11759 -0.0097297998 0.28329
0.076177001 -0.0098713003 0.3044
0.13762 -0.0087897005 0.27281001
0.13778999 -0.0098366998 0.27337
0.075296998 -0.0076498999 0.30531999
0.096486002 -0.0083363 0.29344001
0.096469 -0.0080350004 0.29416001
0.095546998 -0.0076935999 0.29445001
0.11657 -0.0076072002 0.28356999
0.13648 -0.0054565999 0.27373001
0.074950002 -0.0053801001 0.30568001
0.11496 -0.0044152001 0.28501999
0.13497999 -0.0040210001 0.27451
0.092487 -0.0015568 0.29609999
0.072365001 -0.0010426 0.30708
0.13404 -0.00068335998 0.27529001
0.11404 -0.0011944 0.2852
0.091250002 0.00064321997 0.29732001
0.070679002 -0.00062561 0.30666
0.11232 0.0010977 0.28602001
0.071241997 0.0014477 0.30772001
0.070501 0.0031047999 0.30809
0.088689998 0.0031544999 0.29857999
0.11077 0.0058478001 0.28647
0.069995001 0.0051027001 0.30814001
0.069473997 0.0054644002 0.30820999
0.10994 0.0072422 0.28753
0.10978 0.00716 0.28766
0.086704999 0.0073520001 0.29953
0.087056004 0.0084103001 0.29874
0.13167 0.0084814997 0.27627999
0.10943 0.0079607004 0.28737
0.068619996 0.0078255003 0.30873001
0.069586001 0.0081486003 0.3091
0.13053 0.0086436998 0.27599999
0.13038 0.0099815 0.27588999
0.10821 0.0084581999 0.28793001
0.10818 0.0093027996 0.28729999
0.068226002 0.0097361002 0.30855
0.086152002 0.010883 0.30070001
0.086975001 0.011958 0.29931
0.067515001 0.012514 0.30913001
0.086598001 0.01282 0.2983
0.10621 0.014834 0.28933001
0.087204002 0.013688 0.29965001
0.12781 0.015529 0.27838001
0.10531 0.014912 0.28960001
0.10429 0.015555 0.29067001
0.12715 0.01754 0.27917999
0.1275 0.017274 0.27952
0.086677998 0.017131001 0.29999
0.086595997 0.017331 0.29839
0.068937004 0.017689001 0.30919999
0.12616 0.018209999 0.27858001
0.10259 0.017721999 0.29135001
0.067309998 0.018813999 0.30968001
0.067397997 0.018121 0.30902001
0.067438997 0.018316001 0.30941001
0.10104 0.018997001 0.29121
0.10174 0.018704001 0.29166001
0.088352002 0.019315001 0.29897001
0.087705001 0.018578 0.29890001
0.087998003 0.018761 0.29802999
0.068288997 0.019099999 0.30913001
0.10078 0.019301999 0.29205999
0.067194 0.019726001 0.30849999
0.098981999 0.019816 0.29201001
0.098981 0.019974001 0.29282001
0.067863002 0.020868 0.30921
0.067157 0.021049 0.30926001
0.067055002 0.020880001 0.30893001
0.12578 0.020586001 0.27914
0.067360997 0.022014 0.30871001
0.094178997 0.022094 0.29446
0.090853997 0.021694999 0.29618001
0.068305999 0.023451 0.30889001
0.067438997 0.024386 0.30842999
0.067493998 0.025420001 0.30856001
0.069431998 0.025674 0.30867001
0.068043001 0.026588 0.30776
0.12217 0.02706 0.28044
0.1219 0.028527999 0.28105
0.069389001 0.027765 0.30757999
0.12126 0.029374 0.28086001
0.070106 0.031312 0.30768001
0.11949 0.031610999 0.28314999
0.071395002 0.031936999 0.3073
0.071493 0.032977998 0.30737999
0.11883 0.033376001 0.28325
0.15117 0.033408001 0.26614001
0.15279 0.032965001 0.26514
0.15588 0.034290999 0.26392999
0.1512 0.034247 0.26617
0.11647 0.035801999 0.28395
0.15092 0.036573 0.26627001
0.15012001 0.035817001 0.26655999
0.074550003 0.035854001 0.30533001
0.14967 0.036805 0.26668999
0.074334003 0.036777001 0.30544999
0.14891 0.037395 0.26769
0.14757 0.037182 0.26745
0.14809 0.038345002 0.26820001
0.11346 0.037873 0.28601
0.11462 0.0381 0.28420001
0.07542 0.038564999 0.30497
0.076650001 0.039042 0.30528
0.14559001 0.041037999 0.26914001
0.14655 0.040805999 0.26887
0.14632 0.039641 0.26887
0.1104 0.041407999 0.28712001
0.11061 0.042349 0.28637001
0.1096 0.042670999 0.28738999
0.10893 0.042676002 0.28639999
0.14489999 0.042737 0.26978999
0.14549001 0.041777998 0.26930001
0.080398999 0.043037999 0.30204999
0.14459001 0.044266 0.26905
0.10593 0.044975001 0.29019001
0.084023997 0.045072999 0.30070001
0.086493999 0.045331001 0.2999
0.084639996 0.045017 0.30041999
0.10275 0.045749001 0.29074001
0.10034 0.045862999 0.29253
0.10029 0.046395 0.29249001
0.099499002 0.046145 0.29315999
0.099444002 0.046448 0.29256999
0.098667003 0.046702001 0.29361001
0.098927997 0.046804 0.29212999
0.088702999 0.046224002 0.29829001
0.089739002 0.047008999 0.29798001
0.097585 0.046441998 0.29304999
0.092662998 0.046746001 0.29719001
0.090195999 0.047056001 0.29723001
0.089817002 0.047015 0.29657999
0.087311998 0.046907 0.29861
0.14376999 0.047286 0.26921999
0.14353 0.047024 0.26978001
0.14364 0.050221 0.26925999
0.14426 0.052033 0.27085999
0.16706 0.055762 0.25762999
0.16682 0.056441002 0.25887001
0.16665 0.056543 0.25782999
0.1453 0.056639999 0.26853001
0.14511999 0.054903999 0.26835001
0.14748999 0.060711 0.26826999
0.14674 0.060036 0.26794001
0.14785001 0.060968999 0.26747
0.16627 0.062256001 0.25889999
0.16584 0.061648998 0.25861999
0.16749001 0.063816004 0.25814
0.14936 0.063543998 0.26659
0.15028 0.064736001 0.26706001
0.15142 0.065793999 0.26464999
0.15139 0.066244997 0.26672
0.15380999 0.066717997 0.26429999
0.15407 0.067681998 0.26515001
0.15738 0.069167003 0.26277
0.13134 0.079934999 0.27660999
0.13153 0.07959 0.27687001
0.13147999 0.078800999 0.27682999
0.13076 0.079131 0.27695999
0.13102999 0.081436001 0.27704999
0.13003001 0.079118997 0.27671999
0.12961 0.079005003 0.27706999
0.13204999 0.080890998 0.27598
0.12642001 0.080271997 0.27884999
0.13022 0.081932001 0.27666
0.12967999 0.082497001 0.27732
0.12653001 0.084664002 0.27860999
0.14319 -0.050569002 0.27074999
0.14204 -0.049754001 0.26967999
0.14134 -0.048749998 0.27004001
0.14038 -0.046762001 0.27175
0.073234998 -0.046126001 0.30614999
0.074257001 -0.046436001 0.30513
0.073054999 -0.045816999 0.30619001
0.14025 -0.046025001 0.27096999
0.18088 -0.045754999 0.25080001
0.13946 -0.045841999 0.27166
0.079124004 -0.044410001 0.30234
0.13815001 -0.043499999 0.27241001
0.070565999 -0.043407999 0.30748001
0.13643 -0.041689999 0.27210999
0.13764 -0.042907 0.27285999
0.19411001 -0.041335002 0.24297
0.19471 -0.040054999 0.24330001
0.13548 -0.040451001 0.27408999
0.071497999 -0.040056001 0.30636001
0.19148 -0.038842998 0.24484
0.18844999 -0.038906001 0.24621999
0.19305 -0.038626 0.2449
0.18919 -0.038881 0.24545
0.18819 -0.039060999 0.24777
0.072594002 -0.039792001 0.30541
0.18576001 -0.038075998 0.24833
0.18697 -0.037930999 0.24755
0.18577 -0.037562001 0.24846999
0.18478 -0.038015001 0.24896
0.073733002 -0.037785999 0.30487001
0.18468 -0.037360001 0.24788
0.18559 -0.037744001 0.2481
0.18249001 -0.037124 0.24863
0.18319 -0.03779 0.24907
0.1811 -0.037338998 0.24963
0.18212999 -0.037337001 0.25003999
0.18058001 -0.037439 0.25145999
0.074056 -0.037413001 0.30487999
0.17924 -0.036784001 0.25064999
0.17828 -0.0361 0.25163001
0.075727999 -0.035962999 0.30436
0.076424003 -0.035867002 0.30506
0.15174 -0.035879999 0.26591
0.15318 -0.033863001 0.26492
0.076444998 -0.032386001 0.30439001
0.15549999 -0.031603999 0.26357001
0.13246 -0.032047 0.27531999
0.1321 -0.031567 0.27623999
0.10231 -0.031134 0.29135001
0.1575 -0.030153999 0.26299
0.15706 -0.029441999 0.26196
0.13162 -0.029244 0.27616999
0.13248 -0.030029999 0.27599001
0.13041 -0.027756 0.27663001
0.13055 -0.028556 0.27625999
0.075549997 -0.027922001 0.30462
0.074643001 -0.028534999 0.30487001
0.12957001 -0.026792999 0.27731001
0.076443002 -0.026247 0.30427
0.075076997 -0.025524 0.30423
0.075825997 -0.026213 0.30485001
0.12829 -0.027674001 0.27713001
0.10339 -0.026721001 0.29174
0.15978999 -0.026420999 0.26181
0.12865999 -0.025038 0.27821001
0.16079 -0.024669999 0.26109001
0.16058999 -0.023797 0.26038
0.16046999 -0.025162 0.26069
0.12773 -0.025978999 0.27759001
0.12716 -0.024422999 0.27888
0.075824998 -0.024993001 0.30372
0.07643 -0.025083 0.30373999
0.077065997 -0.021981001 0.30348
0.076459996 -0.022748001 0.30315
0.12583999 -0.023122 0.27869001
0.12526999 -0.022561001 0.27948999
0.1233 -0.020680999 0.28002
0.12362 -0.022335 0.27974001
0.12465 -0.020393001 0.28001001
0.077276997 -0.02122 0.30315
0.12396 -0.021015 0.27976999
0.12266 -0.020716 0.27950001
0.18182001 -0.018548001 0.25049001
0.18204001 -0.018571001 0.24959999
0.078705996 -0.018619999 0.30246001
0.16814999 -0.018279999 0.25621
0.18170001 -0.017039999 0.25060001
0.12228 -0.018135 0.28082001
0.18110999 -0.016985999 0.24938001
0.18024001 -0.015873 0.25084001
0.12061 -0.016853999 0.28099999
0.079581 -0.016897 0.30245
0.17126 -0.015259 0.25523999
0.14093 -0.015206 0.27031001
0.14058 -0.015765 0.27138001
0.14163999 -0.016124001 0.27079001
0.12114 -0.016238 0.28116
0.17159 -0.015147 0.25485
0.17302001 -0.015215 0.25505
0.14095999 -0.014983 0.27178001
0.10016 -0.01518 0.29211
0.17997999 -0.015674001 0.25106999
0.12017 -0.014741 0.28154999
0.12005 -0.014552 0.28187001
0.099613003 -0.013393 0.29275
0.10056 -0.013922 0.29166001
0.14037 -0.014051 0.27144
0.11961 -0.014947 0.28233999
0.13866 -0.012969 0.27200001
0.098632 -0.012663 0.29245999
0.099063002 -0.012416 0.29262
0.077909999 -0.013291 0.3037
0.076205 -0.012998 0.30385
0.11882 -0.012645 0.28206
0.076967999 -0.010977 0.30421001
0.13778999 -0.010345 0.27307999
0.1179 -0.010239 0.28295001
0.11768 -0.0095517999 0.28353
0.075935997 -0.010212 0.30486
0.075671002 -0.0094339 0.30450001
0.074867003 -0.0084245 0.30513999
0.13691001 -0.0076957 0.27339
0.11745 -0.0086931 0.28386
0.074571997 -0.0081134997 0.30458
0.1366 -0.0075154002 0.27384001
0.11659 -0.0080573997 0.28279999
0.11562 -0.0073219999 0.2834
0.095463999 -0.0073766001 0.29448
0.095380999 -0.0056682001 0.29488999
0.096134 -0.0062071001 0.29477999
0.074784003 -0.0066494001 0.30511001
0.11538 -0.0055673998 0.28435001
0.073864996 -0.0056901001 0.30581
0.073339999 -0.0050440002 0.30599999
0.094391003 -0.0046341 0.2949
0.094600998 -0.0045409999 0.29455999
0.093920998 -0.0040567 0.29497001
0.072535001 -0.00355 0.30562001
0.072728999 -0.0046898001 0.30654001
0.11426 -0.0036032 0.28492001
0.093395002 -0.0027864 0.29464
0.13589001 -0.0024704 0.27461001
0.11432 -0.0025581 0.28492999
0.1142 -0.0031830999 0.2845
0.092872001 -0.0018196 0.29591
0.091884002 -0.0010378 0.2958
0.071486004 -0.0025343001 0.30612001
0.071621999 -0.0015291 0.30647999
0.11325 -0.0015946 0.28459001
0.11327 6.6052999e-05 0.28536001
0.091240004 0.00030786 0.29649001
0.090768002 0.0011566 0.29712999
0.069519997 0.00015012 0.30713001
0.11353 0.00035361 0.28514001
0.090333998 0.0023608999 0.29723001
0.1128 0.0018833 0.28647
0.13293999 0.0026750001 0.27458999
0.069959 0.0021191 0.30726999
0.070418 0.0031733999 0.30754
0.069957003 0.0038435 0.30737999
0.11172 0.0040631001 0.28622001
0.11109 0.0037597001 0.28589001
0.088536002 0.0046112998 0.29859999
0.088799998 0.0043449001 0.29809001
0.11009 0.0047538001 0.28593001
0.067968003 0.0056460998 0.30849999
0.068836004 0.0064933999 0.30871999
0.10917 0.0066228001 0.28663999
0.10845 0.0076680998 0.28740001
0.068080001 0.0067318999 0.30779999
0.086865999 0.0091196001 0.29866001
0.067938998 0.0079760998 0.30862999
0.068340003 0.0093643004 0.30853
0.067543998 0.0094688004 0.30798
0.10762 0.0091578001 0.28742999
0.12975 0.010482 0.27674001
0.087105997 0.010548 0.29876
0.086942002 0.011151 0.29908001
0.10696 0.011186 0.28819001
0.10721 0.011591 0.28850999
0.067433998 0.013378 0.30903
0.067501001 0.011814 0.30893999
0.066919997 0.01404 0.30873999
0.10527 0.013916 0.28871
0.067642003 0.014593 0.30928999
0.087521002 0.014702 0.29978001
0.066940002 0.015409 0.30827999
0.067367002 0.016057 0.30867001
0.1286 0.015696 0.27733001
0.10425 0.015179 0.28983
0.087420002 0.016609 0.29872999
0.086744003 0.016142 0.29890001
0.067256004 0.017367 0.30882001
0.088347003 0.017469 0.2985
0.088073 0.018168001 0.29800999
0.10128 0.01914 0.29128
0.10221 0.017797001 0.29102999
0.088776998 0.01867 0.29752001
0.088317998 0.019378001 0.29804
0.089080997 0.020848 0.29798001
0.088258997 0.019588999 0.29839
0.1001 0.019889999 0.29175001
0.088090003 0.019715 0.29752001
0.098899998 0.021025 0.2938
0.066768996 0.02135 0.30880001
0.066855997 0.022136999 0.30807
0.097441003 0.020776 0.29334
0.097212002 0.021400999 0.29328001
0.094264001 0.021808 0.29484999
0.092878997 0.022190001 0.29541001
0.091448002 0.021754 0.29596999
0.093464002 0.020664001 0.29378
0.1245 0.023189001 0.2791
0.068245001 0.023301 0.30934
0.12274 0.025966 0.28027999
0.068765 0.027038001 0.30772999
0.069836996 0.029709 0.30779001
0.069228001 0.029407 0.30746999
0.12056 0.030678 0.28084001
0.12065 0.031752001 0.28099
0.11968 0.031270001 0.28182
0.15219 0.031461 0.26547
0.15177 0.032453999 0.26546001
0.11897 0.032513998 0.28178999
0.15115 0.032056998 0.26550999
0.15158001 0.033052001 0.26673999
0.11966 0.033057999 0.28226
0.11779 0.033842999 0.28193
0.15046 0.033636998 0.26653999
0.14935 0.033082999 0.26626
0.11777 0.033877999 0.28307
0.071997002 0.034644 0.30680999
0.15009999 0.034733001 0.26662999
0.14904 0.035429999 0.26655
0.072229996 0.034991998 0.30638999
0.11656 0.035262 0.2836
0.072621003 0.036290001 0.30605
0.1485 0.036005002 0.26765999
0.14821 0.036855999 0.26736999
0.073147997 0.036972001 0.30509999
0.14722 0.037934002 0.26809001
0.14768 0.037239 0.26820999
0.074732997 0.038725 0.30554
0.11338 0.039019 0.28584999
0.11334 0.038468 0.28516001
0.076034002 0.039196 0.30414999
0.14685 0.038957998 0.26859999
0.14613999 0.038361002 0.26835999
0.11279 0.039811 0.28672999
0.1117 0.040183999 0.28560001
0.11152 0.041108001 0.28606999
0.14561 0.040748 0.26866001
0.14560001 0.040004998 0.26936999
0.077623002 0.041435 0.30324
0.078414001 0.041657999 0.30342999
0.14459001 0.042707998 0.26934001
0.10877 0.042157002 0.28793001
0.079956003 0.042443 0.30230001
0.10841 0.042245001 0.28828999
0.10721 0.042801 0.28881001
0.081122003 0.043838002 0.30160999
0.084004 0.045575 0.30017
0.085438997 0.045922 0.29861999
0.085437 0.045382001 0.30048001
0.14380001 0.046422001 0.26973
0.10102 0.045846999 0.29233
0.087141 0.046386998 0.29936999
0.085554004 0.046436999 0.29844999
0.095324002 0.046654001 0.29449999
0.094160996 0.047311001 0.29493999
0.093359999 0.047809001 0.29473001
0.091701001 0.047077 0.29613999
0.14413001 0.048547 0.26923999
0.14394 0.051548 0.26905
0.1446 0.053513002 0.26848
0.16892999 0.054517999 0.25747001
0.16842 0.055849999 0.25735
0.16733 0.054281 0.25709
0.16756999 0.055879001 0.25793001
0.16642 0.061788 0.25788999
0.16751 0.060936999 0.25845
0.16617 0.063291997 0.25863001
0.16769999 0.063685 0.25714999
0.16825999 0.063623004 0.25735
0.14977001 0.064208999 0.26651001
0.15301 0.066293001 0.26431999
0.15606 0.067537002 0.26354
0.15723 0.068859003 0.2631
0.13086 0.078753002 0.27601001
0.13251001 0.078734003 0.27579001
0.13065 0.078602999 0.27614
0.13198 0.079827003 0.27463999
0.12841 0.079401001 0.27785999
0.13246 0.080302998 0.27590999
0.12624 0.080913 0.27875
0.12556 0.080881998 0.27814001
0.13091999 0.081334002 0.27584001
0.13039 0.083278 0.27595001
0.12893 0.083292998 0.27722001
0.1209 0.086306997 0.28137001
0.14311001 -0.050152 0.26998001
0.14072999 -0.046358999 0.27061
0.14099 -0.047339 0.27125999
0.14031 -0.046836998 0.27180001
0.071001999 -0.046448 0.30651
0.07226 -0.047106002 0.30625999
0.071404003 -0.045715 0.30691999
0.18136001 -0.046691 0.24955
0.073781997 -0.047258001 0.30509999
0.074856997 -0.046411 0.30432999
0.075165004 -0.045708001 0.30472001
0.073145002 -0.046583001 0.30548999
0.072665997 -0.046783 0.30586001
0.18116 -0.046250001 0.25002
0.071272001 -0.044923998 0.30638999
0.069830999 -0.045356002 0.30794999
0.070078999 -0.045829002 0.30768999
0.069755003 -0.043225002 0.30726999
0.13831 -0.044043001 0.27144
0.079635002 -0.043667 0.30215999
0.070116997 -0.043356001 0.30695
0.13793001 -0.04329 0.27212
0.071176 -0.041471001 0.30656001
0.070802003 -0.041521002 0.30704999
0.13576999 -0.041253999 0.27265
0.19448 -0.040761001 0.2428
0.071422003 -0.040479999 0.30601999
0.13525 -0.040493999 0.27333999
0.13559 -0.039875999 0.27340001
0.19403 -0.039686002 0.2438
0.071615003 -0.039462 0.30599999
0.13418999 -0.038268998 0.27333999
0.19352999 -0.038532 0.24327999
0.19356 -0.038378999 0.2437
0.19256 -0.038396999 0.24447
0.19148 -0.039005 0.24481
0.19013 -0.038504999 0.24502
0.18863 -0.038435001 0.24665999
0.073196001 -0.038036 0.30546999
0.18975 -0.038709 0.24578001
0.18758 -0.038630001 0.24663
0.18756001 -0.038389001 0.24735001
0.13454001 -0.037129 0.27355999
0.18705 -0.038090002 0.24763
0.1858 -0.037443001 0.24698
0.13328999 -0.036138002 0.27465001
0.18004 -0.036984999 0.25077
0.074087001 -0.036660001 0.30430001
0.17919999 -0.036582999 0.25130999
0.17852999 -0.036187001 0.25101
0.075704999 -0.036178 0.30445999
0.1778 -0.034929998 0.25132999
0.13397001 -0.035386998 0.27434
0.15049 -0.034914002 0.26567999
0.14993 -0.034476999 0.26589999
0.075914003 -0.034517001 0.30450001
0.076178998 -0.035337001 0.30434
0.15198 -0.034800999 0.26491001
0.15241 -0.034538001 0.26528001
0.15332 -0.034168001 0.26447001
0.13285001 -0.035087999 0.27438
0.13325 -0.035424002 0.27478001
0.14862999 -0.034458 0.26646999
0.14912 -0.034044001 0.26616001
0.14873999 -0.034333002 0.26741999
0.075364001 -0.033775002 0.30454001
0.13276 -0.034125 0.27498001
0.15336999 -0.033413 0.26390001
0.15398 -0.034095 0.26418
0.14803 -0.033806 0.26721999
0.076709002 -0.032466002 0.30421001
0.15470999 -0.032774001 0.26357999
0.15436999 -0.033218998 0.26401001
0.13289 -0.033018999 0.27509001
0.13131 -0.032876 0.27491
0.075728998 -0.033271998 0.30416
0.15555 -0.03215 0.26383999
0.15606 -0.031541001 0.26295999
0.075939998 -0.032503001 0.30449
0.15667 -0.031060001 0.26256999
0.13138001 -0.030665999 0.27573001
0.13133 -0.031295002 0.27577999
0.074483 -0.031214001 0.30364001
0.15669 -0.030230001 0.26199999
0.074777998 -0.029944001 0.30458999
0.075424999 -0.029871 0.30456001
0.15807 -0.02901 0.26119
0.13053 -0.029539 0.27641001
0.13075 -0.028538 0.27592999
0.15807 -0.027223 0.26154
0.1301 -0.028999001 0.27686
0.12878001 -0.02792 0.27678999
0.12881 -0.028291 0.27724999
0.12820999 -0.026675001 0.27768001
0.15949 -0.026408 0.26172999
0.15904 -0.026963999 0.26155001
0.15932 -0.025846999 0.26120001
0.12727 -0.026617 0.27882999
0.12907 -0.026976001 0.27737999
0.16017 -0.025684001 0.26052001
0.12649 -0.024434 0.27843001
0.12643 -0.025126001 0.27842
0.12701 -0.025386 0.27746001
0.075025 -0.025281001 0.30399999
0.12563001 -0.02431 0.27884999
0.12597001 -0.024994999 0.27866
0.16198 -0.022816001 0.25929999
0.16329999 -0.022123 0.25953999
0.16265 -0.022702999 0.25937
0.16333 -0.022438001 0.25944999
0.12515999 -0.022290999 0.27976999
0.12416 -0.021946 0.27915001
0.16308001 -0.021483 0.25946999
0.078364 -0.019928001 0.30239999
0.16477001 -0.020455999 0.25858
0.16432001 -0.020423001 0.25850001
0.16618 -0.019695001 0.25757
0.16518 -0.019879 0.25766999
0.12224 -0.019802 0.28027999
0.078496002 -0.019845 0.30265999
0.077794999 -0.019857001 0.30239001
0.12219 -0.02004 0.28026
0.078134 -0.020398 0.30298001
0.1665 -0.018827001 0.25735
0.16646001 -0.019122999 0.25742
0.16752 -0.018584 0.25707
0.12234 -0.018018 0.28066
0.12136 -0.018387999 0.27983999
0.16744 -0.018340999 0.25690001
0.079008996 -0.017747 0.30239001
0.16883001 -0.017140999 0.25582999
0.10088 -0.017569 0.29153001
0.18174 -0.017556001 0.24938001
0.18181001 -0.01716 0.24981
0.16901 -0.017511999 0.25587001
0.12144 -0.018052001 0.28060001
0.16992 -0.016682001 0.25619
0.079024002 -0.016733 0.30272999
0.18057001 -0.016357001 0.24927001
0.1813 -0.015381 0.25003999
0.1709 -0.015938001 0.25551999
0.14171 -0.015781 0.27048999
0.18074 -0.015082 0.24967
0.18020999 -0.015251 0.25062999
0.14127 -0.014462 0.27077001
0.12078 -0.016101001 0.28128001
0.078837998 -0.014957 0.30259001
0.078491002 -0.015776001 0.30291
0.17922001 -0.015006 0.25143999
0.1787 -0.014028 0.25112
0.17468999 -0.014343 0.25371
0.10079 -0.015698001 0.29104999
0.17803 -0.013584 0.25152001
0.17676 -0.01326 0.25215
0.14040001 -0.013114 0.27158999
0.099200003 -0.013435 0.29186001
0.17636 -0.013068 0.25268
0.13955 -0.013184 0.27147001
0.11942 -0.012954 0.28222001
0.077022001 -0.014559 0.30309999
0.13909 -0.011886 0.27105999
0.11902 -0.012826 0.28148001
0.13876 -0.01248 0.27200001
0.098688997 -0.011374 0.29183999
0.078166999 -0.011608 0.30320001
0.13831 -0.010664 0.2719
0.13765 -0.010421 0.27192
0.13837001 -0.011223 0.27175999
0.076615997 -0.011034 0.30386999
0.076352999 -0.010656 0.30421999
0.097450003 -0.01094 0.29243001
0.09753 -0.010049 0.29365
0.075370997 -0.010452 0.30395001
0.097407997 -0.0099566001 0.29295
0.11676 -0.0093905004 0.28345001
0.074648 -0.0091923997 0.30416
0.11682 -0.0087014996 0.28312999
0.096620001 -0.0087315002 0.29293999
0.13748001 -0.0081882998 0.27237001
0.13775 -0.0086225001 0.27179
0.074818999 -0.0084410002 0.30526999
0.096354999 -0.0078715002 0.29376999
0.096029997 -0.0062869 0.29409
0.074170001 -0.0071874 0.30472001
0.13696 -0.0074908002 0.27305001
0.11549 -0.0067913998 0.28375
0.13644999 -0.0065384 0.27298999
0.11538 -0.0062393001 0.28369001
0.074305996 -0.0071748998 0.30524999
0.13676 -0.0057176999 0.27175
0.13654999 -0.0059109 0.27329001
0.072880998 -0.0061038998 0.30524001
0.11503 -0.0052534002 0.28378001
0.073219001 -0.0049329 0.30590001
0.073610999 -0.0048659998 0.30641001
0.072591998 -0.0050375001 0.30570999
0.11515 -0.0045856 0.28417999
0.094577998 -0.0046307002 0.29453999
0.11462 -0.0038904001 0.28431001
0.13513 -0.003337 0.27382001
0.1145 -0.0026459999 0.28467
0.093032002 -0.0021250001 0.29521999
0.072747998 -0.0025061001 0.30603001
0.072085999 -0.0032378 0.30607
0.13552999 -0.0023837001 0.27377
0.13551 -0.0028547 0.27296001
0.13423 -0.0011229001 0.27429
0.13507999 -0.0016556 0.27443999
0.13503 -0.00040039001 0.27445
0.070799001 -0.00077098003 0.30631
0.091557004 -0.00041400999 0.29583001
0.09161 -0.00054212002 0.29567
0.11339 -0.00046447001 0.28556001
0.11218 -4.1615e-05 0.28532001
0.070336998 -0.001119 0.30675
0.13407999 0.00019012 0.27353999
0.13392 0.00045076999 0.27405
0.070656002 0.0012073 0.30735999
0.11221 0.00082282 0.28554001
0.069665 0.0016682 0.3071
0.069325998 0.0016965 0.30739
0.11206 0.0026589001 0.28546
0.13298 0.0033670999 0.27454999
0.1332 0.0024301 0.27462
0.11273 0.0031472 0.28600001
0.069021001 0.0036817 0.30778
0.069406003 0.0022382999 0.30735999
0.089385003 0.0032794999 0.29716
0.089224003 0.0036422 0.29840001
0.068971001 0.0040214998 0.30779001
0.11028 0.0041737999 0.28571999
0.088744 0.004865 0.29804
0.068428002 0.0036788001 0.30774999
0.088287003 0.0060167001 0.29703
0.068667002 0.0052915998 0.30765
0.087550998 0.0069058002 0.29815999
0.068582997 0.0068923999 0.30862001
0.13143 0.0076211998 0.27581999
0.087375 0.0079333996 0.29844001
0.13134 0.0075046001 0.27513
0.087481998 0.0085453996 0.29839
0.087066002 0.0096445 0.29832
0.087182 0.010123 0.29826
0.12973 0.010587 0.27612001
0.10739 0.010405 0.28808999
0.086753003 0.011315 0.29896
0.067674004 0.010711 0.30844
0.067190997 0.010563 0.30759999
0.10719 0.01053 0.28737
0.087141998 0.012496 0.29764
0.10636 0.011848 0.28834999
0.086916 0.013209 0.29890999
0.066345997 0.012821 0.30904001
0.10577 0.013374 0.28823999
0.10614 0.012642 0.2886
0.066143997 0.013864 0.30917999
0.10435 0.01407 0.28839999
0.10404 0.01505 0.28973001
0.066312 0.015579 0.30864999
0.087651998 0.016508 0.29846001
0.067054003 0.016578 0.30904999
0.087701999 0.015986999 0.29796001
0.12764999 0.017481999 0.27745
0.10222 0.015944 0.29073
0.066832997 0.017561 0.30871001
0.1269 0.018719001 0.27737001
0.12802 0.017818 0.27724999
0.10134 0.016806001 0.29062
0.10069 0.018155999 0.29148
0.10031 0.019664001 0.29203999
0.088835999 0.020062 0.29736999
0.10015 0.019242 0.29121
0.097655997 0.020104 0.29227
0.089207999 0.020752 0.29756999
0.067028001 0.020021999 0.30925
0.089525998 0.020982999 0.29776001
0.096546002 0.022311 0.29311001
0.095454998 0.021716001 0.29366001
0.095221996 0.021228001 0.29390001
0.094443001 0.02104 0.29389
0.094669998 0.021823 0.29414001
0.089488 0.021675 0.29679
0.066481002 0.023216 0.30904999
0.067001998 0.024150001 0.30945
0.12492 0.024228999 0.27882999
0.12403 0.025301 0.27990001
0.12358 0.026392 0.27948999
0.1241 0.025450001 0.27967
0.068194002 0.026701 0.30788001
0.067065001 0.025768001 0.30858001
0.12265 0.027153 0.28027001
0.068893 0.027344 0.30794001
0.067929998 0.028479001 0.30803001
0.12191 0.02923 0.28095999
0.068411 0.029200001 0.30796
0.069408 0.029905999 0.30827999
0.068618 0.031330001 0.30759999
0.14982 0.031750999 0.26666
0.15063 0.030843999 0.26567
0.15206 0.031030999 0.26557001
0.12103 0.030301999 0.28106999
0.069447003 0.03105 0.30687001
0.15325999 0.031229001 0.26427001
0.15289 0.032012001 0.26492
0.15227 0.032400001 0.26495999
0.15236001 0.0308 0.26471999
0.12045 0.031498 0.28163001
0.15374 0.032478001 0.26469001
0.15256999 0.032212 0.26471001
0.14974 0.032846998 0.26723999
0.15002 0.032200001 0.26646
0.14885999 0.032528002 0.26708001
0.14895999 0.032129001 0.26684999
0.15505999 0.032032002 0.26381999
0.14827999 0.032637 0.26721999
0.14815 0.032196 0.26677001
0.069816999 0.032368001 0.30698001
0.070908003 0.033337999 0.30724999
0.11869 0.033844002 0.28126001
0.070625 0.034093 0.30636999
0.15588 0.034063 0.26317999
0.15628 0.033714 0.26271999
0.11738 0.034584999 0.28263
0.14903 0.035080001 0.26739001
0.15695 0.034974001 0.26214999
0.15729 0.035271 0.26174
0.072136 0.035657 0.30636999
0.070850998 0.034768999 0.30675
0.14760999 0.034846 0.26734999
0.14776 0.036143001 0.26778999
0.14779 0.034463 0.26741001
0.072953999 0.036587 0.30535001
0.072646998 0.03641 0.30504
0.14725 0.036699999 0.26749
0.14725 0.036341999 0.26807001
0.14693999 0.037469 0.26762
0.14709 0.036742002 0.26769999
0.14693999 0.037517 0.26734
0.072913997 0.037207998 0.30518001
0.073739 0.037974 0.30544001
0.14553 0.038470998 0.26859999
0.14613999 0.037512001 0.26859999
0.11534 0.037664998 0.28393999
0.073899999 0.038307998 0.30504
0.072860003 0.038311001 0.30465001
0.11506 0.038541 0.2843
0.16230001 0.038072001 0.25979999
0.16271 0.038732 0.25953999
0.16097 0.038548 0.26065999
0.1451 0.038903002 0.26877001
0.14560001 0.039234001 0.26853999
0.11486 0.038265001 0.28437999
0.1145 0.039019998 0.28461999
0.11336 0.039731 0.28501001
0.075150996 0.039445002 0.30410999
0.11298 0.039478 0.28562
0.075383998 0.039732002 0.30513
0.076513998 0.040536001 0.30414
0.14489 0.040545002 0.26862001
0.076980002 0.040295999 0.30397999
0.11218 0.040259 0.28602999
0.14466 0.040764 0.26919001
0.077129997 0.041030999 0.30298999
0.077363998 0.041630998 0.30314001
0.078184001 0.042550001 0.30366001
0.078766003 0.042229999 0.30335999
0.10952 0.043207999 0.28637001
0.079929002 0.043338001 0.30221999
0.078722998 0.042794999 0.30291
0.1443 0.043145999 0.26894999
0.10805 0.043568999 0.28806001
0.10723 0.043878999 0.28768
0.10781 0.044050999 0.28848001
0.10661 0.043722998 0.28812
0.10643 0.044357002 0.28815001
0.14349 0.043453999 0.26973
0.081115998 0.043873999 0.30112001
0.10655 0.044840001 0.28878
0.081960998 0.044939 0.30105001
0.081127003 0.044438001 0.30107999
0.1432 0.045968 0.26910999
0.14300001 0.044716999 0.26971
0.083741002 0.046075001 0.29955
0.1042 0.046015002 0.28952
0.10436 0.04504 0.28946999
0.10306 0.045747001 0.29036
0.10316 0.045738 0.28961
0.1428 0.046974 0.26980999
0.10288 0.046231002 0.28990999
0.10266 0.046117 0.28979999
0.10255 0.045898002 0.28883001
0.10088 0.046264 0.29062
0.099947996 0.047270998 0.29008999
0.095536999 0.047352999 0.29379001
0.089111 0.046732999 0.29703
0.088859998 0.047106002 0.29675001
0.096124999 0.047362 0.29308999
0.092565 0.047176 0.29517999
0.14416 0.049780998 0.26910001
0.14380001 0.051830001 0.26929
0.14437 0.052648999 0.26848
0.1445 0.054715998 0.26853001
0.14497 0.054354001 0.26947999
0.16834 0.054839 0.25683999
0.16809 0.056033 0.25678
0.16801 0.055973999 0.25622001
0.14541 0.056683999 0.26837
0.16773 0.056566 0.25687999
0.14529 0.057776 0.26750001
0.14603999 0.058405001 0.2687
0.14608 0.059110001 0.26721999
0.14607 0.059687998 0.26745
0.16712999 0.060586002 0.25823
0.16808 0.060858 0.25677001
0.16723999 0.060400002 0.25724
0.16714001 0.061244 0.25718999
0.14802 0.062035002 0.26708001
0.14896999 0.063026004 0.26705
0.16659001 0.063357003 0.25797001
0.16802999 0.063463002 0.25696
0.14939 0.063924998 0.26541001
0.15183 0.066629998 0.26467001
0.15453 0.066872001 0.26332
0.15474001 0.067293003 0.26341
0.15402 0.067093 0.26420999
0.15386 0.066559002 0.26390001
0.15617 0.067042999 0.26256999
0.1565 0.067971997 0.26271001
0.15642001 0.068668999 0.26264
0.1569 0.069274999 0.26163
0.15728 0.069976002 0.26241001
0.15806 0.070459999 0.26243001
0.15771 0.070308998 0.26227999
0.15768 0.071966 0.26293999
0.13116001 0.077660002 0.27584001
0.13253 0.078140996 0.27603999
0.13237 0.077611998 0.27568999
0.13022999 0.078381002 0.27570999
0.13335 0.079595998 0.27447
0.13301 0.077665001 0.27511999
0.13348 0.078919999 0.27401
0.12937 0.078699 0.27596
0.12865999 0.078642003 0.27677
0.12985 0.078991003 0.27680001
0.12839 0.078772001 0.27739
0.12741999 0.078924 0.27778
0.13302 0.080196001 0.27482
0.12627999 0.079405002 0.27799001
0.12685999 0.080003999 0.27788001
0.13406 0.079745002 0.27393001
0.13323 0.080344997 0.27408999
0.13208 0.081298001 0.27452999
0.13196 0.080859996 0.27524
0.12530001 0.080390997 0.27796
0.12499 0.080673002 0.27886999
0.13176 0.081790999 0.27537
0.1241 0.081712 0.27965999
0.13067 0.082543999 0.27555001
0.12376 0.082261004 0.27961001
0.12281 0.082764998 0.28011
0.12969001 0.083244003 0.27669999
0.12342 0.082915001 0.27965999
0.12927 0.083371997 0.27647001
0.1232 0.083668001 0.27998
0.12800001 0.084314004 0.27726001
0.12202 0.084040001 0.28112999
0.12165 0.084615 0.28040001
0.12213 0.085097 0.28093001
0.12072 0.085386999 0.28193
0.1214 0.086839996 0.28126001
0.12212 0.086831003 0.27991
0.12232 0.086623996 0.27994999
0.1437 -0.051245999 0.26905999
0.14210001 -0.048581999 0.26982999
0.18294001 -0.047270998 0.24784
0.18447 -0.046856999 0.24837001
0.14030001 -0.046937 0.26977
0.070858002 -0.048012 0.30610001
0.070357002 -0.047293998 0.30695999
0.18342 -0.046959002 0.24805
0.18061 -0.047249999 0.24864
0.070289999 -0.046459001 0.30675
0.13911 -0.044665001 0.27151999
0.069328003 -0.044466 0.30647999
0.13721 -0.042195 0.27316999
0.068752997 -0.041689001 0.30625001
0.069889002 -0.042718999 0.30625001
0.070237003 -0.041218001 0.30608001
0.07113 -0.041046001 0.30625001
0.19391 -0.039969999 0.24269
0.072517 -0.038671002 0.30480999
0.072186999 -0.038991001 0.30483001
0.18818 -0.037772 0.24607
0.1876 -0.037501 0.24684
0.13327 -0.037368 0.27447
0.15033001 -0.034998 0.26628
0.15218 -0.034061 0.26468
0.14938 -0.034499001 0.26572001
0.15251 -0.034019999 0.26455
0.14835 -0.032848001 0.26703
0.15057001 -0.033365 0.26532
0.13183001 -0.033388 0.27526999
0.14966001 -0.032074999 0.26528001
0.075103998 -0.032997001 0.30408999
0.15524 -0.031966999 0.26241001
0.14929999 -0.031684 0.26664999
0.075069003 -0.032742001 0.30425
0.13054 -0.031617999 0.27541
0.15029 -0.031030999 0.2658
0.14904 -0.030625001 0.26642999
0.1497 -0.030337 0.26526999
0.15028 -0.030627999 0.26558
0.1301 -0.030409999 0.27614999
0.13000999 -0.030714 0.27592999
0.15063 -0.029482 0.26571
0.1499 -0.029475 0.26528001
0.12991001 -0.030227 0.27608001
0.12941 -0.028879 0.27669001
0.1576 -0.02774 0.26111999
0.12741999 -0.028951 0.27687001
0.14929999 -0.02657 0.26600999
0.14888 -0.026868001 0.26639
0.14992 -0.027675999 0.26620999
0.074685998 -0.026603 0.30430999
0.12627 -0.026185 0.27810001
0.14972 -0.026008001 0.26538
0.1489 -0.025078001 0.26589999
0.14842001 -0.024842 0.26600999
0.16039 -0.024227999 0.25973001
0.076227002 -0.02479 0.30364999
0.16221 -0.02231 0.26019999
0.12503 -0.023303 0.27901
0.077480003 -0.021353999 0.30247
0.16215 -0.022652 0.25825
0.16338 -0.020892 0.25891
0.16235 -0.021880999 0.25788999
0.16224 -0.021608001 0.25832999
0.16325 -0.021532999 0.25837001
0.12053 -0.017938999 0.28071001
0.14218999 -0.016779 0.27046999
0.14219999 -0.016159 0.26883999
0.14223 -0.015348 0.26894
0.17151999 -0.015495 0.25496
0.11882 -0.016114 0.28108999
0.12002 -0.015178 0.28108001
0.17910001 -0.014706 0.25049999
0.11897 -0.013812 0.28145
0.17828 -0.013195 0.25097001
0.14059 -0.013376 0.27039
0.17397 -0.013127 0.25237
0.17589 -0.013228 0.2525
0.1752 -0.012666 0.25207999
0.13937999 -0.012593 0.27083999
0.13926999 -0.01104 0.27136999
0.098618001 -0.010634 0.29165
0.076260999 -0.011781 0.30307001
0.074979 -0.011045 0.30324
0.13939001 -0.010529 0.27127999
0.11759 -0.011585 0.28216001
0.075618997 -0.010792 0.30351999
0.11611 -0.011134 0.28195
0.1166 -0.010252 0.28242001
0.11514 -0.0096957004 0.28238001
0.073224999 -0.0072377999 0.30502
0.096657999 -0.0071105999 0.29236999
0.073188998 -0.0067885001 0.30487001
0.11472 -0.0061443001 0.28360999
0.13610999 -0.0050106002 0.27294999
0.072114997 -0.0056647998 0.30491999
0.093192004 -0.0027823001 0.29537001
0.13478 -0.0015644 0.27335
0.13553999 -0.0030741 0.27272999
0.11223 -0.00067004998 0.28487
0.069830999 -0.00054762 0.30673999
0.13417999 0.00080391997 0.27419999
0.090767004 0.0011522 0.29572999
0.11057 0.0029732999 0.28597
0.11074 0.0031455001 0.2852
0.11087 0.0021541 0.28505
0.089295 0.0037165 0.29730999
0.067959003 0.0026829999 0.30748999
0.11028 0.0058216001 0.28645
0.068646997 0.0051556998 0.30811
0.068067998 0.0047277999 0.30803001
0.067161001 0.0057338998 0.30802
0.10883 0.0064127999 0.28696999
0.1314 0.0086043999 0.27507001
0.10863 0.0089271003 0.28723001
0.13102999 0.0091517 0.27548999
0.10606 0.0095817996 0.28705001
0.13098 0.010021 0.27555001
0.1304 0.01059 0.27608001
0.065609999 0.010083 0.30803999
0.067142002 0.011014 0.30778
0.10646 0.010966 0.28803
0.066584997 0.014087 0.30829
0.065136001 0.015238 0.30836999
0.065742001 0.015065 0.30763
0.1035 0.014676 0.28974
0.065883003 0.014507 0.30827001
0.10316 0.016287999 0.29014
0.065958999 0.018579001 0.30917999
0.065598004 0.018118 0.30897
0.06639 0.019477 0.30875
0.066094004 0.018658999 0.30954
0.067126997 0.018692 0.30934
0.099477999 0.018712999 0.29065001
0.089317001 0.019429 0.29683
0.097038001 0.020372 0.29260999
0.066370003 0.020407001 0.30893999
0.095954999 0.021926999 0.29409999
0.094603002 0.021253999 0.29367
0.092235997 0.020547999 0.29422
0.093071997 0.021157 0.29477
0.125 0.023136999 0.27906001
0.065431997 0.024411 0.30878001
0.066698 0.023843 0.30860999
0.066886999 0.024646999 0.30765
0.066735998 0.025404001 0.30803001
0.12266 0.027625 0.27982
0.067846999 0.026803 0.30756
0.15078001 0.028493 0.26468
0.15253 0.028537 0.2642
0.15157001 0.028806999 0.26535001
0.15049 0.029594 0.26519001
0.15067001 0.030329 0.26655
0.14973 0.030342 0.26589999
0.15236001 0.029456999 0.26423001
0.14938 0.029901 0.26571
0.14899001 0.029371001 0.26618999
0.14926 0.030227 0.26633999
0.14901 0.03067 0.26640001
0.068571001 0.029871 0.30684999
0.14722 0.030475 0.26692
0.15364 0.030742001 0.26385
0.11992 0.031566001 0.28084999
0.14746 0.031955 0.26741999
0.14724 0.032797001 0.26694
0.15455 0.032375999 0.26322001
0.11995 0.032676999 0.28103
0.14572001 0.033245001 0.26774001
0.14696001 0.033902999 0.26769999
0.11924 0.03342 0.28128999
0.071442999 0.034318998 0.30673999
0.1461 0.034944002 0.2676
0.11823 0.034419 0.28257
0.14606 0.036352001 0.26741999
0.14623 0.035691999 0.26776001
0.14607 0.037190001 0.26820999
0.11691 0.036991 0.28253001
0.16142 0.037239 0.25982001
0.16271999 0.037694 0.25944
0.14470001 0.037133999 0.26865
0.16274001 0.039044 0.25975999
0.16337 0.039239999 0.25816
0.072954997 0.039549999 0.30454001
0.11481 0.038725998 0.28385001
0.16357 0.040449999 0.25916001
0.14489999 0.040320002 0.26887
0.14444999 0.03915 0.26897001
0.11227 0.039994001 0.28516999
0.11308 0.039312001 0.28481999
0.075672001 0.040353 0.30399001
0.074510999 0.040312 0.30434
0.074451998 0.040640999 0.30362001
0.14429 0.041046001 0.26883999
0.076233 0.040832002 0.3037
0.11058 0.041953001 0.28543001
0.14453 0.041273002 0.26932001
0.077974997 0.042660002 0.30239001
0.10866 0.043407999 0.28757
0.080521002 0.043742999 0.30131
0.14258 0.043265 0.26944
0.14395 0.043315001 0.26947001
0.083521001 0.046760999 0.29929
0.083057001 0.045598 0.30102
0.082249999 0.045414001 0.30006999
0.10252 0.047129001 0.28963
0.086597003 0.046997 0.29809001
0.099489003 0.047281999 0.29117
0.099147998 0.047550999 0.29058
0.098637998 0.047403999 0.29216
0.098109998 0.046411999 0.29196
0.096750997 0.047680002 0.29288
0.090107001 0.046973001 0.29705
0.089475997 0.047602002 0.29552001
0.094724998 0.048266999 0.29185
0.096564002 0.047421001 0.29323
0.092418998 0.047481 0.29510999
0.090691 0.047063001 0.2958
0.14303 0.049803998 0.26861
0.14325 0.051132999 0.26903999
0.14447001 0.053690001 0.2687
0.16938999 0.055059999 0.25630999
0.16839001 0.056113999 0.25646999
0.16991 0.054145001 0.25545999
0.14342999 0.056712002 0.26653999
0.14523999 0.056526002 0.26761001
0.14469001 0.057505 0.26791
0.16779999 0.061712999 0.25569999
0.16610999 0.062537998 0.25740999
0.1671 0.062843002 0.25612
0.14823 0.062771 0.26688001
0.1507 0.065099001 0.26592001
0.14914 0.064962998 0.26519999
0.15012001 0.064847998 0.26567999
0.15775 0.070481002 0.26111001
0.13109 0.076843999 0.27537
0.13146999 0.077238999 0.27487999
0.13362999 0.077076003 0.27462
0.13414 0.076582 0.27355999
0.13420001 0.078367002 0.27408999
0.13433 0.078082003 0.27432999
0.133 0.077532001 0.27485999
0.1284 0.078911997 0.27621999
0.13414 0.079855002 0.27348
0.13158999 0.081672996 0.27458999
0.13060001 0.082631998 0.27575001
0.12098 0.086608 0.28051999
0.072887003 -0.047139999 0.30452999
0.071732998 -0.047414001 0.30502
0.069049001 -0.047605999 0.30715999
0.069401003 -0.047359001 0.30645001
0.069633998 -0.047125999 0.30638999
0.072748996 -0.047672998 0.30493999
0.071791999 -0.047123998 0.30498001
0.069031999 -0.047203001 0.30687001
0.068446003 -0.046957999 0.30682999
0.074956998 -0.047106002 0.30335
0.069714002 -0.045843001 0.30767
0.068882003 -0.045951001 0.30706
0.069117002 -0.045361999 0.30723
0.13817 -0.043983001 0.27048001
0.13728 -0.043531999 0.27124
0.13778999 -0.042254001 0.2726
0.13607 -0.042888999 0.27133
0.070221998 -0.040941998 0.30581
0.071930997 -0.037893999 0.30465999
0.19244 -0.037746001 0.24296001
0.19146 -0.03819 0.24479
0.19067 -0.037884999 0.24422
0.18890999 -0.037420999 0.24515
0.18874 -0.038314998 0.24546
0.19027001 -0.037592001 0.2448
0.18771 -0.038192 0.24604
0.18803 -0.038082 0.24514
0.13293 -0.037905 0.27316001
0.073654003 -0.038605999 0.30498999
0.18573999 -0.037073001 0.24637
0.18385001 -0.037466999 0.24684
0.18379 -0.037225001 0.24783
0.182 -0.036936998 0.24860001
0.18201999 -0.037516002 0.24992
0.17964999 -0.036803 0.25024
0.075227998 -0.036130998 0.3039
0.13215999 -0.035852998 0.27423
0.074919999 -0.035487 0.30408001
0.15087 -0.033466 0.26447999
0.15001 -0.034113999 0.26585001
0.075372003 -0.034051999 0.30417001
0.074362002 -0.033094 0.30429
0.13211 -0.034564 0.27441001
0.15132999 -0.033558 0.26438999
0.15074 -0.033574 0.26510999
0.073890999 -0.033443 0.30393001
0.15233 -0.033985998 0.26374
0.13088 -0.033647001 0.27507001
0.13097 -0.032703999 0.27504
0.15407 -0.032744002 0.26328
0.15078001 -0.032148 0.26480001
0.15054999 -0.032171998 0.26550999
0.1538 -0.031725001 0.26258001
0.13031 -0.032161001 0.27535
0.15109999 -0.031254999 0.26499
0.15098999 -0.030982001 0.26506999
0.12965 -0.030866001 0.27619001
0.12938 -0.030897999 0.27656999
0.073918 -0.032246001 0.30397999
0.073868997 -0.031067001 0.30371001
0.15106 -0.030463999 0.26543
0.14968 -0.028787 0.26574001
0.12867001 -0.029532 0.27658001
0.12935001 -0.029693 0.27607
0.15125 -0.029757001 0.26497999
0.12941 -0.030809 0.27608001
0.15708999 -0.028717 0.26122001
0.15142 -0.029828999 0.26488
0.15121999 -0.02871 0.26436999
0.15000001 -0.028246 0.26543
0.12779 -0.029809 0.27669999
0.1266 -0.028689001 0.2766
0.12710001 -0.027597001 0.27768999
0.1508 -0.027791999 0.26502001
0.14974 -0.026868001 0.26524001
0.14909001 -0.026177 0.26664999
0.15068001 -0.026908999 0.26493999
0.12645 -0.027435999 0.27743
0.12619001 -0.027419001 0.27761999
0.15003 -0.026409 0.26521
0.15778001 -0.025846999 0.2604
0.15022001 -0.025952 0.26513001
0.1507 -0.027026 0.26536
0.12594 -0.027259 0.27733999
0.075240001 -0.026271001 0.30388001
0.15929 -0.024262 0.25999999
0.15031999 -0.025242001 0.26567999
0.12586001 -0.026151 0.27831
0.075011 -0.026357001 0.30326
0.074426003 -0.024564 0.30322999
0.14805999 -0.023766 0.26692
0.14905 -0.024181001 0.26707
0.12468 -0.024145 0.27785999
0.12406 -0.023980999 0.27860001
0.12426 -0.025207 0.27803001
0.12489 -0.023724001 0.27873001
0.14848 -0.024032 0.26609001
0.16108 -0.022628 0.26021999
0.14769 -0.022507001 0.26605999
0.14799 -0.022661 0.26625001
0.14734 -0.022150001 0.2669
0.12405 -0.022793001 0.27925
0.12354 -0.022243001 0.27959001
0.14706001 -0.022387 0.26655
0.14787 -0.022495 0.26620999
0.12331 -0.021903001 0.27873999
0.12184 -0.021288 0.27935001
0.12117 -0.022528 0.27914
0.12276 -0.022248 0.27983999
0.16289 -0.020750999 0.25786999
0.16374999 -0.019842001 0.25738001
0.078180999 -0.018835001 0.30149001
0.12152 -0.01935 0.28053001
0.16775 -0.017605999 0.25591001
0.11991 -0.017750001 0.28064999
0.12052 -0.016979 0.28108001
0.11979 -0.016702 0.28046
0.078038998 -0.016873 0.30228999
0.077230997 -0.016976999 0.30243
0.16963001 -0.016201001 0.25529999
0.16881 -0.016922999 0.25525999
0.16998 -0.015467 0.25470001
0.1696 -0.015648 0.25411999
0.1429 -0.016488999 0.26903
0.18061 -0.015303 0.24854
0.18209 -0.016646 0.24834
0.076963998 -0.015482 0.30263999
0.077094004 -0.015253 0.30223
0.14165001 -0.015162 0.26949999
0.14134 -0.013749 0.26964
0.17342 -0.012956 0.25260001
0.11834 -0.016044 0.28071001
0.077523999 -0.014482 0.30224001
0.17501 -0.012436 0.25173
0.17472 -0.012614 0.25127
0.11785 -0.013701 0.28176001
0.14002 -0.01227 0.2696
0.14032 -0.013095 0.27072999
0.11789 -0.012877 0.28200001
0.13999 -0.011945 0.27013999
0.13934 -0.011646 0.27057001
0.11855 -0.01176 0.28211001
0.11587 -0.010766 0.28196001
0.07536 -0.010862 0.30382001
0.075208999 -0.01065 0.30394
0.13934 -0.010204 0.27055001
0.13805 -0.0094442004 0.27162001
0.1382 -0.0088811005 0.27061999
0.13883001 -0.0089729996 0.27083001
0.073660001 -0.0095990999 0.30412
0.1144 -0.0075770998 0.28330001
0.072764002 -0.0078966999 0.30421999
0.11479 -0.0069816001 0.28294
0.071970999 -0.0060238 0.30507001
0.11459 -0.0054386002 0.28317001
0.11406 -0.0048036999 0.28402999
0.071106002 -0.0045671999 0.30561
0.071528003 -0.0029845 0.30566001
0.11364 -0.0034504 0.28413001
0.070721999 -0.0021408999 0.30577001
0.070528001 -0.0021500001 0.30590001
0.069916002 -0.0013324 0.30706999
0.13415 0.00040235001 0.27314001
0.1126 -0.00077118003 0.28455001
0.11127 -6.2829997e-05 0.285
0.069686003 0.00045006 0.30655
0.068850003 0.0003515 0.30633
0.11133 0.0011791 0.28492001
0.067933999 0.00073124998 0.30680001
0.090230003 0.0019683 0.29541999
0.11127 0.0015461 0.28525001
0.090837002 0.0014852 0.29519001
0.090053 0.0025923001 0.29613999
0.069238998 0.0021414999 0.30651999
0.068015002 0.0029755 0.30709001
0.089506 0.0051191002 0.29642999
0.088754997 0.0047129001 0.29736
0.067304 0.0036185 0.30798
0.067445002 0.0050161998 0.30726001
0.10972 0.0041218 0.28557
0.10902 0.0058868001 0.28628001
0.10783 0.0063053002 0.28624001
0.088134997 0.0064639999 0.29679
0.088178001 0.0060311998 0.29673001
0.13191 0.0082267998 0.27432999
0.10685 0.0089651002 0.28701001
0.066694997 0.0074919998 0.30796999
0.065672003 0.0080052 0.30846
0.067054003 0.0081438003 0.30813
0.13021 0.010591 0.27616
0.066813 0.010787 0.30796999
0.10557 0.010749 0.28845999
0.10569 0.011982 0.28823
0.066386998 0.013022 0.30867001
