# .PCD v0.7 - Point Cloud Data file format
VERSION 0.7
FIELDS x y z
SIZE 4 4 4
TYPE F F F
COUNT 1 1 1
WIDTH 1669
HEIGHT 1
VIEWPOINT 0 0 0 1 0 0 0
POINTS 1669
DATA ascii
0.19022 0.23884 0.26482999
0.19498999 0.087365001 0.28938001
0.19217999 0.090107001 0.28924999
0.19372 0.089822002 0.28972
0.18277 0.15892 0.27862
0.18154 0.15747 0.27860999
0.15691 0.21385001 0.26010999
0.15803 0.2132 0.26166001
0.16357 0.2066 0.26905
0.12992001 0.079365999 0.25330999
0.16125 0.15724 0.2735
0.15905 0.17058 0.26007
0.15871 0.17163999 0.25927001
0.15880001 0.19857 0.27081001
0.15673999 0.19858 0.26877999
0.16258 0.058474999 0.29214999
0.18899 0.10723 0.27654001
0.18772 0.10673 0.27770001
0.18369 0.2098 0.27235001
0.18539999 0.21036001 0.27195001
0.18595 0.20765001 0.27162001
0.18001001 0.20372 0.28130999
0.18042 0.20310999 0.28241
0.16519 0.18453 0.27166
0.16428 0.18248001 0.27061999
0.16582 0.18389 0.27327999
0.15733001 0.18776999 0.25740001
0.15700001 0.1859 0.25655001
0.15904 0.18584 0.25748
0.18946999 0.10432 0.27493
0.18839 0.10498 0.27456
0.17878 0.19354001 0.28297001
0.18009999 0.19268 0.28376999
0.16527 0.087228 0.28549001
0.16495 0.086255997 0.28252
0.16563 0.20206 0.27303001
0.16661 0.20226 0.27287999
0.13338999 0.060343001 0.24765
0.13257 0.059397999 0.24525
0.12932 0.060307 0.24440999
0.12928 0.061740998 0.24404
0.12871 0.059997 0.24449
0.16834 0.052297998 0.29047
0.15279 0.23503 0.25565001
0.15281001 0.23533 0.25595999
0.17082 0.18019 0.27790001
0.15956999 0.23365 0.25294
0.15793 0.23292001 0.25343001
0.15791 0.233 0.25183001
0.19036999 0.059767 0.30827001
0.19024 0.060015999 0.30745
0.17498 0.057139002 0.29207
0.17693999 0.058299001 0.29132
0.16945 0.1032 0.28046
0.15922999 0.10886 0.27113
0.15998 0.10727 0.27037001
0.19277 0.079758003 0.30757999
0.14613999 0.14885999 0.25224999
0.14801 0.1476 0.25435001
0.14760999 0.14801 0.25218999
0.1179 0.053263001 0.25103
0.11666 0.051986001 0.25042999
0.16467001 0.23205 0.26697999
0.16606 0.23213001 0.26719999
0.16584 0.23411 0.26789999
0.12829 0.059551001 0.25655001
0.12906 0.059827 0.25735
0.12834001 0.059312001 0.25613001
0.17179 0.086122997 0.28582001
0.16116001 0.095509 0.27022001
0.16131 0.094226003 0.27258
0.14687 0.077182002 0.2665
0.18724 0.2471 0.25292999
0.18741 0.24472 0.25207001
0.18854 0.24715 0.25266999
0.16832 0.21877 0.28011999
0.16869 0.21918 0.28062999
0.15905 0.18838 0.27180001
0.15929 0.18899 0.27215001
0.15967999 0.18997 0.27268001
0.15853 0.093303002 0.26819
0.17747 0.054063 0.30610999
0.17013 0.17802 0.27733001
0.17 0.17718001 0.27700999
0.17057 0.177 0.27667999
0.16418 0.23470999 0.26776001
0.18286 0.14650001 0.28687999
0.16722 0.086150996 0.28740001
0.16769999 0.18592 0.27469999
0.17846 0.05742 0.31057
0.17823 0.056837998 0.31307
0.13145 0.078466997 0.26198
0.13198 0.079290003 0.26256999
0.13236 0.080544002 0.26301
0.16858999 0.18337999 0.27261001
0.17132001 0.18455 0.27331999
0.19986001 0.070216 0.30554
0.18256 0.084647998 0.29841
0.18128 0.085456997 0.29808
0.18325999 0.1375 0.28753
0.18222 0.13738 0.28777
0.15719999 0.14899001 0.26668
0.15663999 0.14723 0.2669
0.14505 0.074925996 0.26414001
0.16946 0.13189 0.27452999
0.16789 0.13096 0.27316001
0.1513 0.19554 0.26140001
0.13194001 0.090713002 0.24872001
0.13218001 0.089648999 0.24912
0.16208 0.19796 0.27131999
0.16140001 0.19717 0.27214
0.15577 0.10935 0.26756999
0.15845001 0.14882 0.27559
0.15798 0.14656 0.27607
0.15934999 0.14624 0.27601999
0.16134 0.15884 0.25749001
0.16885 0.18441001 0.27423999
0.16971 0.1846 0.2744
0.15434 0.089124002 0.25042999
0.15012001 0.056683999 0.28635001
0.15537 0.18877999 0.25672001
0.15372001 0.18836001 0.25755
0.1841 0.22158 0.27349001
0.18189999 0.22249 0.27438
0.18976 0.058919001 0.31672001
0.18965 0.059757002 0.31687999
0.18752 0.057293002 0.31779
0.19506 0.062437002 0.30145001
0.19548 0.062730998 0.30197001
0.19602001 0.061673 0.30125999
0.13680001 0.051236 0.27630001
0.14889 0.054145001 0.28902
0.16590001 0.11738 0.26126
0.16535001 0.11859 0.26005
0.16639 0.11947 0.25799
0.19035 0.075778 0.30634001
0.18917 0.075521 0.30469999
0.19007 0.076278001 0.30416
0.15620001 0.23851 0.26532
0.12157 0.056063998 0.26086
0.14653 0.070653997 0.26693001
0.14668 0.072116002 0.26598999
0.14641 0.070602998 0.26532999
0.16821 0.19843 0.27877
0.15294001 0.2041 0.25433001
0.15414 0.20417 0.25576001
0.15256 0.20457 0.25602001
0.15887 0.14793 0.27390999
0.15883 0.14756 0.27631
0.15854 0.14959 0.27337
0.17689 0.1346 0.2872
0.17703 0.13330001 0.28568
0.16405 0.11282 0.27147001
0.17936 0.081455998 0.30072001
0.13338 0.072167002 0.25735
0.13258 0.071792997 0.25470001
0.13296001 0.072228 0.25635001
0.17931999 0.18919 0.27427
0.17768 0.19144 0.27347001
0.17885 0.19145 0.27359
0.12165 0.050980002 0.26124001
0.12402 0.050616 0.26282999
0.12356 0.050230999 0.26183999
0.16477001 0.085291997 0.28650001
0.16395 0.085339002 0.28628001
0.16361 0.086612999 0.28468999
0.16501001 0.21153 0.27068999
0.16381 0.21416 0.27124
0.18009999 0.072805002 0.30899999
0.18002 0.073280998 0.31084999
0.17861 0.074736997 0.3087
0.16522001 0.21802001 0.27429
0.1653 0.21828 0.27471
0.15806 0.22663 0.25678
0.16711999 0.085975997 0.28296
0.16665 0.085721999 0.28404999
0.16192999 0.15346 0.27789
0.17879 0.18079001 0.2825
0.15321 0.058646999 0.28033999
0.15143 0.060977001 0.28042999
0.14995 0.055808 0.28854999
0.178 0.057496998 0.30796
0.17869 0.059339002 0.30954
0.16771001 0.13225 0.27250999
0.16881999 0.13425 0.27177
0.17529 0.13515 0.28742999
0.15781 0.19625001 0.26620001
0.1723 0.17067 0.27767
0.1849 0.22150999 0.27566999
0.18308 0.22239 0.27599001
0.17985 0.21056999 0.27788001
0.18100999 0.21041 0.27864
0.14585 0.062036999 0.26666999
0.14318 0.062965997 0.26683
0.14442 0.062196001 0.26745999
0.17115 0.23642001 0.28128999
0.17196 0.23384 0.28200001
0.15044001 0.19181 0.25946999
0.17509 0.17447001 0.27513
0.13017 0.07096 0.24044
0.15566 0.12789001 0.26813999
0.15555 0.12834001 0.26736999
0.1628 0.12769 0.25503001
0.16205999 0.12964 0.25475001
0.16373 0.12797999 0.25439
0.16598 0.15990999 0.27522999
0.13045 0.069041997 0.25323999
0.17374 0.084175996 0.29925999
0.17202 0.084260002 0.29592001
0.17657 0.13089 0.27144
0.15454 0.19311 0.26535001
0.16182999 0.15725 0.25795999
0.15954 0.15767001 0.25891
0.12942 0.067195997 0.25799
0.15251 0.19490001 0.26317999
0.13077 0.056485999 0.26291999
0.14677 0.15110999 0.25773001
0.14702 0.14763001 0.25859001
0.15749 0.14766 0.27651
0.15821999 0.14721 0.27469
0.15514 0.15805 0.27241001
0.15696 0.15756001 0.27232
0.15729 0.15621001 0.27175999
0.15682 0.068657003 0.27897
0.16041 0.19427 0.27318001
0.16069999 0.19428 0.27272999
0.12339 0.054426 0.23645
0.12355 0.053706001 0.23848
0.1245 0.054788999 0.23699
0.19328 0.10047 0.27008
0.19128001 0.10019 0.27094001
0.19309001 0.099188 0.2678
0.1758 0.051516999 0.29517999
0.17529 0.051771 0.29769999
0.16391 0.12548999 0.26034999
0.16287 0.12465 0.25959
0.16311 0.12439 0.26146999
0.16827001 0.22077 0.27373001
0.15886 0.14097001 0.26418
0.15880001 0.14025 0.26484001
0.16069999 0.056620002 0.29679999
0.15916 0.086462997 0.26999
0.15817 0.18095 0.25729001
0.16031 0.18169001 0.25656
0.18968999 0.077797003 0.30673999
0.17067 0.18467 0.28145999
0.17163999 0.18574999 0.28209001
0.17278001 0.18666001 0.28130001
0.17185 0.18666001 0.28248999
0.14263 0.053121999 0.28312999
0.14312001 0.051651999 0.28219
0.14281 0.051408999 0.28474
0.14837 0.09324 0.25694001
0.17459001 0.16485 0.27500001
0.17377999 0.16566999 0.27559999
0.15312999 0.10355 0.26322001
0.16902 0.16195001 0.27246001
0.16889 0.16326 0.27239001
0.16767 0.1776 0.27208
0.16647001 0.17781 0.27224001
0.15775999 0.23177999 0.26517001
0.15813001 0.23084 0.26585001
0.15926 0.23125 0.26510999
0.1671 0.2015 0.27002001
0.1638 0.1402 0.27417001
0.14719 0.067647003 0.27410001
0.16503 0.21703 0.27658999
0.17917 0.1436 0.28836
0.17964999 0.14481001 0.28757
0.17651001 0.090093002 0.28650999
0.17589 0.090401001 0.28485
0.17543 0.087613001 0.28600001
0.15730999 0.097560003 0.25150999
0.15865 0.097167 0.25038999
0.17081 0.14146 0.28309
0.17211001 0.13919 0.28349
0.15452 0.15372001 0.26818001
0.17839 0.058476999 0.30537999
0.15173 0.12193 0.26605001
0.15368 0.12185 0.26587
0.16751 0.20313001 0.27291
0.16944 0.20302001 0.27489999
0.16816001 0.20422 0.2739
0.15631001 0.079692997 0.27785999
0.15756001 0.080259003 0.27779999
0.17206 0.11041 0.28080001
0.17199001 0.10938 0.28007001
0.13070001 0.078181997 0.26309001
0.13247 0.079057999 0.2626
0.15899999 0.17515001 0.25334001
0.15682 0.17488 0.25284001
0.18279999 0.083499998 0.30954
0.18266 0.084792003 0.30899
0.15129 0.15674999 0.26425001
0.15267999 0.15764 0.26376
0.15287 0.15742999 0.26262
0.18010999 0.18945999 0.28658
0.1804 0.1884 0.28573
0.14476 0.078625001 0.26436999
0.16500001 0.22045 0.27542999
0.16644 0.21984001 0.27458999
0.16619 0.21843 0.27469
0.17329 0.14065 0.28439999
0.15256 0.15851 0.26247001
0.15263 0.15825 0.26194999
0.1538 0.15723 0.26359999
0.16741 0.10904 0.27897999
0.16714001 0.10749 0.27950001
0.13282 0.065139003 0.24191
0.16537 0.17012 0.26986
0.16571 0.16926999 0.26938
0.16520999 0.16813999 0.27031001
0.18224999 0.088597 0.29348999
0.17873999 0.087511003 0.29236001
0.18973 0.089498997 0.30712
0.18893 0.089661002 0.30691999
0.16844 0.15447 0.28128001
0.15624 0.10845 0.26029
0.15457 0.1089 0.2606
0.17042001 0.17302001 0.27584001
0.1706 0.17338 0.27502999
0.17027 0.17128 0.27482
0.16627 0.22764 0.27023
0.16008 0.2137 0.26690999
0.16009 0.21469 0.26600999
0.16150001 0.21338999 0.26495001
0.16322 0.12571 0.26041001
0.16591001 0.12475 0.25824001
0.16469 0.1248 0.25909999
0.1856 0.22717001 0.26367
0.18640999 0.22705001 0.26385
0.18527 0.22597 0.26464
0.1292 0.061207999 0.25812
0.19101 0.060056001 0.30625999
0.19273999 0.062762 0.30702999
0.18723001 0.076527998 0.30722001
0.18773 0.074712999 0.30524999
0.18945 0.076073997 0.30649999
0.13065 0.067855999 0.2561
0.20457 0.059629999 0.31207001
0.20318 0.059333999 0.31251001
0.15448999 0.051056001 0.29293001
0.16037001 0.18831 0.26596001
0.15678 0.23641001 0.25867
0.1561 0.23591 0.25815001
0.19916999 0.050264001 0.31931999
0.17788 0.088007003 0.29183
0.18003 0.088629 0.29392999
0.17817999 0.090294003 0.29122001
0.19858 0.071998999 0.30085
0.18239 0.074528001 0.30680999
0.18472999 0.075764999 0.30816001
0.18342 0.074077003 0.30721
0.16057999 0.1621 0.25979999
0.1778 0.22553 0.27298999
0.17757 0.22277001 0.27028999
0.17734 0.22685 0.27079999
0.16960999 0.19784001 0.27616
0.16764 0.19977 0.27445
0.14760999 0.075467996 0.26607001
0.17818999 0.18813001 0.28676999
0.17635 0.18855999 0.28426999
0.18508001 0.11551 0.27419001
0.19679999 0.062849 0.31156999
0.19727001 0.062217999 0.30941999
0.15764 0.24346 0.26267999
0.15879001 0.20202 0.27166
0.15819 0.20216 0.26949999
0.15254 0.065505996 0.28007001
0.18119 0.17643 0.28115001
0.18148001 0.17615999 0.27803001
0.18021999 0.17566 0.27998
0.16029 0.13965 0.26638001
0.15998 0.13781001 0.26690999
0.18502 0.076688997 0.30822
0.16474999 0.095911004 0.27649999
0.16548 0.094749004 0.27728999
0.16485 0.096403003 0.27649999
0.16356 0.21776 0.27052999
0.16376001 0.21856 0.2685
0.17754 0.18695 0.28600001
0.18021999 0.18705 0.28582999
0.16694 0.24205001 0.27149999
0.13500001 0.087641001 0.2483
0.19294 0.084322996 0.30763
0.18435 0.12755001 0.28229001
0.18388 0.12763999 0.28316
0.16833 0.1237 0.2748
0.16904999 0.12442 0.27272999
0.16417 0.12241 0.24885
0.16156 0.21798 0.26802
0.16047999 0.21591 0.26886001
0.19254 0.071565002 0.30338001
0.1912 0.072962001 0.30278
0.19257 0.072993003 0.30311
0.19276001 0.056480002 0.31873
0.19295999 0.056841999 0.31801
0.18536 0.12704 0.28228
0.18508001 0.12677 0.28279001
0.19521999 0.062086001 0.31187999
0.171 0.058458 0.28783
0.17124 0.059124999 0.28821999
0.15456 0.11122 0.26179001
0.18893 0.24628 0.25402999
0.18805 0.24642 0.25426
0.18675999 0.24635001 0.25378999
0.13482 0.075195 0.25999999
0.13288 0.074522004 0.26082
0.13418999 0.075294003 0.26052001
0.17491999 0.19217999 0.28246999
0.17439 0.19118001 0.28167999
0.19118001 0.050563 0.32010999
0.15975 0.23806 0.26203999
0.15897 0.23837 0.26216
0.17025 0.13953 0.27447999
0.14379001 0.064079002 0.26115999
0.14379001 0.063295998 0.25996
0.17017999 0.078799002 0.29383999
0.17174999 0.079919003 0.29279
0.15087999 0.074063003 0.26958999
0.15144999 0.072451003 0.26951
0.14138 0.053683002 0.26161999
0.13973001 0.054954998 0.26078001
0.14027999 0.054444999 0.26154
0.16374999 0.070271 0.28532001
0.16332 0.071349002 0.28435999
0.14261 0.060302 0.26786
0.14443 0.061092 0.26872
0.13461 0.067607 0.26078001
0.13583 0.068102002 0.26222
0.18806 0.068769 0.30884001
0.18889999 0.068189003 0.30713999
0.18900999 0.070120998 0.30631
0.11733 0.05376 0.25499001
0.16957 0.086570002 0.29513001
0.17042001 0.084928997 0.29502001
0.17736 0.17439 0.27873999
0.16936 0.23604 0.27792001
0.16886 0.23442 0.27880001
0.16965 0.23466 0.27875
0.15435 0.14926 0.26628
0.1603 0.22699 0.25949001
0.17641 0.12004 0.27243
0.17547999 0.054908998 0.30807999
0.1777 0.056136999 0.30794001
0.15248001 0.054751001 0.29021001
0.15267 0.055821002 0.29074001
0.15941 0.13508999 0.26177999
0.15861 0.1118 0.25116
0.15975 0.11317 0.25266999
0.15959001 0.11346 0.25240001
0.14337 0.056216002 0.28007001
0.17111 0.11532 0.27807999
0.16982999 0.11611 0.27911001
0.16484 0.15219 0.27998
0.16896001 0.15695 0.28061
0.15594999 0.10057 0.26574001
0.15776999 0.10019 0.26501
0.18844999 0.072465003 0.30579001
0.18747 0.072720997 0.30537999
0.18872 0.072935998 0.30623001
0.17208999 0.21957999 0.28470999
0.17092 0.21780001 0.28288001
0.17073999 0.2183 0.28483999
0.1696 0.14326 0.27961001
0.16992 0.14319 0.27860999
0.17088 0.14251 0.27880001
0.16024999 0.22709 0.25532001
0.16041 0.22684 0.25446001
0.15906 0.22578 0.25564
0.15492 0.22129001 0.25589001
0.15599 0.21912999 0.25779
0.15800001 0.22714999 0.26545
0.16012 0.2271 0.26377001
0.16026001 0.22945 0.26447999
0.17337 0.10353 0.27836999
0.17148 0.10232 0.27882999
0.17290001 0.23977999 0.28224
0.17106999 0.23796 0.28290999
0.17456 0.23815 0.28309
0.14590999 0.060667001 0.26484999
0.14549001 0.062102001 0.26497999
0.14657 0.063225999 0.26451001
0.14158 0.083076 0.26468
0.15814 0.070033997 0.28147
0.15886 0.069949999 0.28246999
0.15921 0.071387999 0.28211999
0.17237 0.24512 0.27879
0.17034 0.24563 0.27958
0.18231 0.19554999 0.27789
0.18429001 0.19753 0.27812001
0.18231 0.19577 0.27959001
0.14599 0.065444998 0.27338001
0.14688 0.066509999 0.27452999
0.14526001 0.087191001 0.24759001
0.14647999 0.088611998 0.25062001
0.14647999 0.087821998 0.25031999
0.15700001 0.21074 0.26256999
0.16875 0.19825999 0.27803001
0.19336 0.087332003 0.29355001
0.19233 0.088205002 0.29271999
0.19374999 0.087839998 0.29335999
0.17362 0.060754001 0.28918001
0.17128 0.061494999 0.28984001
0.17771 0.16089 0.27322
0.17054 0.23145001 0.27614999
0.16874 0.22942001 0.27009001
0.1682 0.23271 0.26984
0.16801 0.23012 0.27098
0.16726001 0.23275 0.26923999
0.16389 0.23298 0.26905999
0.15826 0.22868 0.26427001
0.13278 0.063426003 0.25883001
0.13406999 0.063174002 0.25942001
0.13375001 0.064620003 0.25918999
0.18277 0.15792 0.28042999
0.18261001 0.15826 0.27998
0.18113001 0.15908 0.28026
0.17178001 0.24675 0.27774
0.17082 0.24634001 0.27748001
0.14715999 0.069463998 0.26842999
0.15841 0.14898001 0.27169001
0.20412 0.056724001 0.31781
0.20298 0.056221999 0.3175
0.17278001 0.14456999 0.28626999
0.17296 0.14171 0.28637001
0.17485 0.14194 0.28749999
0.14402001 0.06487 0.26780999
0.17411 0.22533999 0.27614
0.17216 0.22545999 0.27601999
0.17303 0.11457 0.27875999
0.17238 0.11528 0.27827999
0.17020001 0.11314 0.27875
0.17926 0.15707 0.28496999
0.17863999 0.18341 0.28718001
0.17912 0.18242 0.28459001
0.17682999 0.12786999 0.27377
0.17570999 0.12635 0.27153999
0.17764001 0.12905 0.27204999
0.16857 0.10269 0.27945
0.16354001 0.1701 0.27057001
0.16248 0.17271 0.27059001
0.15358 0.18436 0.26071
0.17094 0.099395998 0.27937999
0.17414001 0.18728 0.28396001
0.17171 0.20773 0.28134999
0.16225 0.24491 0.25871
0.16226999 0.24627 0.25911999
0.20246001 0.059129 0.31286001
0.20321999 0.059372999 0.31252
0.15880001 0.1569 0.26752999
0.17139 0.23208 0.271
0.17179 0.23253 0.27333999
0.16733 0.22158 0.27054
0.14844 0.091865003 0.25709999
0.14924 0.089562997 0.25613001
0.1508 0.091574997 0.26006001
0.16464999 0.18821999 0.27360001
0.12073 0.052808002 0.23797999
0.20606001 0.051993001 0.31545001
0.20608 0.052131001 0.31347001
0.15367 0.24372 0.25342
0.14964999 0.070564002 0.27419999
0.15061 0.069486998 0.27412
0.15132 0.071620002 0.27353001
0.16968 0.067631997 0.28926
0.16838001 0.066449001 0.28874999
0.1707 0.19171999 0.27320999
0.15569 0.10541 0.26023999
0.18554001 0.087563001 0.30263001
0.18449999 0.087921999 0.30355999
0.18461999 0.086520001 0.30197999
0.15073 0.13703001 0.25084999
0.14891 0.13698 0.25154999
0.15204 0.058745999 0.28330001
0.13316999 0.072958998 0.25003001
0.13913999 0.075856 0.26256001
0.13691001 0.076595999 0.26315999
0.17995 0.061453 0.29874
0.17944001 0.062572002 0.29793
0.17487 0.088558003 0.28215
0.13703001 0.084817998 0.2552
0.16827001 0.15597001 0.28184
0.20151 0.055328999 0.31830999
0.15937001 0.14134 0.27028
0.15361001 0.15594999 0.25742999
0.15090001 0.15821999 0.25878
0.15459 0.15671 0.25867
0.16343001 0.21922 0.27270001
0.15352 0.20118999 0.25920001
0.18898 0.079806 0.30792001
0.19349 0.15640999 0.26866001
0.19304 0.15566 0.26963001
0.15916 0.19012 0.27298999
0.16094001 0.18911999 0.27250001
0.17367999 0.22945 0.28016001
0.15583 0.096740998 0.26468
0.17929 0.21908 0.28241
0.14571001 0.089551002 0.26317999
0.14394 0.089947 0.26223999
0.14489 0.089181997 0.26583999
0.17129999 0.24643999 0.2744
0.14275999 0.073243998 0.26135001
0.15888 0.17239 0.25503001
0.15941 0.17275 0.25516
0.17445 0.16877 0.2746
0.1737 0.1692 0.27596
0.17316 0.16878 0.27678001
0.18099 0.17026 0.27379
0.17808001 0.16889 0.27425
0.17226 0.091374002 0.28176999
0.16955 0.24341001 0.27392
0.16968 0.24709 0.27519
0.14552 0.084051996 0.26598999
0.15123001 0.091916002 0.25281999
0.16119 0.18058001 0.26333001
0.15971 0.18127 0.26227999
0.15917 0.18114001 0.26188001
0.18870001 0.10332 0.27520001
0.18885 0.10558 0.27471
0.18883 0.10319 0.27588999
0.18757001 0.22589999 0.26346999
0.18882 0.22515 0.26339
0.18803 0.22712 0.26330999
0.1693 0.18853 0.28130999
0.17095 0.1902 0.28178
0.17924 0.082826003 0.30496001
0.17883 0.081704997 0.30568001
0.17605001 0.13394 0.28415999
0.17580999 0.13343 0.28505
0.17625 0.13386001 0.28325
0.15952 0.16741 0.25817001
0.16337 0.19868 0.27140999
0.16174001 0.19857 0.26938
0.16124 0.20051 0.27118999
0.17038 0.15459999 0.2841
0.17084 0.15354 0.28472
0.16646001 0.14238 0.27616999
0.16674 0.14094999 0.27594
0.16793001 0.14296 0.27607
0.18004 0.12748 0.27237999
0.13829 0.078410998 0.26424
0.14155 0.078529 0.26453999
0.1602 0.12811001 0.26205
0.16008 0.12822001 0.26216999
0.1796 0.24537 0.25435999
0.18193001 0.24384999 0.25349
0.18178999 0.24583 0.25420001
0.17595001 0.19587 0.28235999
0.12769 0.059163 0.25891
0.17335001 0.14428 0.28764999
0.17271 0.14522 0.28639001
0.17309999 0.1441 0.28584999
0.15295 0.24709 0.25384
0.1529 0.24643999 0.25297001
0.18566 0.11741 0.27243999
0.15724 0.086190999 0.26684001
0.15553001 0.085515 0.26705
0.16326 0.11872 0.26047999
0.16339999 0.11985 0.25944
0.17791 0.23439001 0.27926001
0.17854001 0.23522 0.27888
0.1771 0.23492999 0.27945
0.14068 0.067720003 0.26005
0.13954 0.067966998 0.26251999
0.17332999 0.085199997 0.29938
0.17329 0.087053999 0.29912001
0.13134 0.057824001 0.26006001
0.13158 0.057627 0.25946
0.1585 0.23698001 0.26587
0.15550999 0.10918 0.26546001
0.15756001 0.10766 0.26326001
0.18506999 0.12913001 0.26394999
0.18268 0.12976 0.26271001
0.1847 0.12827 0.26468
0.14308 0.084925003 0.26328
0.18669 0.14416 0.28553
0.1269 0.057592001 0.26129001
0.13059001 0.067313999 0.26205
0.13315 0.066898003 0.26039001
0.12955999 0.067178003 0.26054999
0.15825 0.23474 0.26100999
0.16243 0.11369 0.27588001
0.16529 0.11349 0.27677
0.17735 0.077959001 0.30831
0.1781 0.076755002 0.30678001
0.17121001 0.20745 0.28264999
0.12835 0.076412 0.25981
0.20224001 0.086294003 0.25606999
0.15963 0.061884999 0.29120001
0.15990999 0.063560002 0.29126999
0.16063 0.066492997 0.29021001
0.16176 0.16497999 0.2613
0.16215999 0.16349 0.26043999
0.16215999 0.16288 0.26120999
0.16672 0.13593 0.27267
0.19378 0.054958999 0.31944001
0.19316 0.055638999 0.31894001
0.17891 0.21703 0.27891001
0.16294999 0.11842 0.26846999
0.16314 0.12016 0.26717001
0.13045999 0.076485001 0.25792
0.13124 0.074894004 0.25834
0.14658999 0.15530001 0.25560001
0.14712 0.15308 0.25477001
0.14674 0.15409 0.25301999
0.12156 0.056634001 0.25424999
0.12083 0.056938998 0.25356999
0.18388 0.14088 0.27189001
0.18592 0.14248 0.27436
0.18426 0.14128999 0.27445
0.16177 0.20746 0.26440999
0.14150999 0.060945 0.26097
0.14302 0.060626 0.26126
0.14119001 0.061214 0.26017001
0.18139 0.2191 0.27765
0.18091001 0.2181 0.27756
0.13366 0.072166003 0.24063
0.13514 0.075704999 0.24149001
0.13415 0.073357999 0.24246
0.17802 0.20255999 0.28241
0.17903 0.20055 0.28298
0.14556 0.075047001 0.26602
0.14517 0.073927999 0.26549
0.14677 0.072444998 0.26499999
0.16769999 0.091418996 0.27906999
0.1649 0.090242997 0.27711001
0.16526 0.091284998 0.27777001
0.15716 0.094830997 0.26449999
0.15817 0.097865999 0.26416999
0.18124001 0.21603 0.27994001
0.1837 0.084301002 0.29875001
0.18404 0.074859999 0.30669999
0.18324 0.075680003 0.30770001
0.17579 0.088312 0.29328999
0.17577 0.088462003 0.29423001
0.17456 0.088096 0.29436001
0.19034 0.092623003 0.27497
0.18827 0.090516999 0.27359
0.15312 0.11894 0.26668
0.18346 0.13613001 0.28768
0.18505 0.13485 0.28690001
0.14796001 0.090502001 0.25176001
0.18241 0.085070997 0.30377001
0.19096 0.11052 0.27309999
0.17003 0.17798001 0.26954001
0.15736 0.054930001 0.29589
0.15759 0.056745999 0.29541001
0.14312001 0.083977997 0.26293001
0.14703999 0.058979999 0.28200001
0.1542 0.24349999 0.25729999
0.15398 0.24529999 0.25676
0.15941 0.23314001 0.25951001
0.15825 0.23289999 0.25768
0.16074 0.18747 0.27099001
0.16426 0.15370999 0.27743
0.16474999 0.15581 0.27787
0.18486001 0.1344 0.28509
0.18430001 0.13522001 0.28650999
0.18553001 0.13471 0.28546
0.17673001 0.13809 0.28781
0.17619 0.13984001 0.28628999
0.16983999 0.19385 0.27417001
0.16929001 0.19328 0.27511001
0.16753 0.19314 0.27671
0.15646 0.065031998 0.28630999
0.15693 0.064296 0.28663999
0.15672 0.064818002 0.28558999
0.15948001 0.15659 0.27092001
0.16076 0.15749 0.27162999
0.17341 0.14815 0.28735
0.17338 0.14988001 0.28733
0.20079 0.069357999 0.3057
0.19893999 0.070026003 0.30610999
0.15916 0.12627 0.26829001
0.1583 0.12611 0.26727
0.16245 0.14505 0.27608001
0.18265 0.16678999 0.26927999
0.18201999 0.16744 0.26916999
0.18321 0.16542999 0.2692
0.1751 0.12338 0.27428001
0.16145 0.093021996 0.27215999
0.15989 0.15948001 0.25286001
0.16142 0.15988 0.25174999
0.15809 0.083522998 0.27787
0.15966 0.084040001 0.27812001
0.18189 0.19273999 0.27996001
0.18199 0.19272 0.27911001
0.18313999 0.19322 0.27972001
0.17120001 0.16869 0.26980999
0.17099001 0.16818 0.26989001
0.15564001 0.14500999 0.26583001
0.19001999 0.058371 0.31439999
0.18988 0.058561001 0.31575999
0.18072 0.096873 0.27987
0.14613999 0.080173001 0.26596999
0.1618 0.15563001 0.27647999
0.14233001 0.051624998 0.28195
0.14191 0.052136 0.28061
0.14211001 0.052168999 0.28026
0.1657 0.13473 0.26736999
0.15932 0.13 0.26484001
0.15863 0.13142 0.26655999
0.15881 0.13268 0.26477
0.15547 0.17671999 0.25779
0.16021 0.14059 0.26622999
0.16102999 0.10113 0.27450001
0.19069 0.24285001 0.26519999
0.18908 0.24372 0.26383001
0.15589 0.10909 0.26122001
0.15488 0.10925 0.25939
0.17682999 0.1822 0.27531999
0.17786001 0.18098 0.27561
0.1779 0.18217 0.27394
0.17268001 0.2404 0.2834
0.17351 0.23853999 0.28292
0.17423999 0.23924001 0.28255001
0.18456 0.11997 0.27114001
0.15352 0.070165001 0.27733001
0.15446 0.07079 0.27689999
0.15448999 0.070380002 0.27570999
0.14771999 0.13437 0.25738001
0.14593001 0.1411 0.25826001
0.176 0.18019 0.28198001
0.17679 0.18038 0.28029999
0.17727 0.18094 0.27989
0.18036 0.14210001 0.28816
0.17842001 0.14113 0.28933001
0.18517999 0.087812997 0.30660999
0.15319 0.076522 0.27061
0.14655 0.14471 0.26291999
0.1673 0.054373998 0.29187
0.16538 0.055312999 0.29247001
0.16832 0.22471 0.27592
0.15251 0.18543001 0.26137
0.15102001 0.18614 0.26061001
0.17465 0.13752 0.28712001
0.17259 0.18063 0.27945
0.17321999 0.17947 0.28044999
0.17461 0.17793 0.27643999
0.17501 0.17561001 0.27634999
0.17447001 0.17671999 0.27627
0.19807 0.074635997 0.30292001
0.19860999 0.070610002 0.30531001
0.19901 0.072495997 0.30438
0.20581 0.055167001 0.31683001
0.20505001 0.055330999 0.31376001
0.11872 0.053966001 0.25689
0.14509 0.05531 0.28266999
0.14661001 0.056510001 0.28246999
0.14497 0.055769999 0.28384
0.15257999 0.087416001 0.26049
0.1513 0.087034002 0.25993001
0.15026 0.086677 0.26034999
0.19111 0.071222 0.30537
0.16861001 0.12779 0.27393001
0.16193999 0.10607 0.27228999
0.16348 0.10595 0.27315
0.1638 0.13338999 0.26851001
0.17004 0.090366997 0.28038999
0.19452 0.081997 0.30296001
0.1473 0.14673001 0.25239
0.14895 0.1497 0.25154999
0.17039999 0.21337999 0.27998
0.17233001 0.21021 0.27937999
0.15093 0.15873 0.26262999
0.15638 0.10865 0.25586
0.15615 0.10934 0.25429001
0.15576001 0.10869 0.25536999
0.15810999 0.23548999 0.25172001
0.15985 0.23727 0.25161001
0.1517 0.12112 0.26561001
0.15260001 0.12023 0.26524001
0.1638 0.16348 0.26890999
0.16413 0.16535001 0.26519999
0.1619 0.16399001 0.26633999
0.15417001 0.24277 0.25834
0.15328 0.24199 0.2579
0.16674 0.23627 0.27052
0.17489 0.16769999 0.27347001
0.14888 0.082745999 0.26657
0.19214 0.15605 0.26798999
0.12194 0.054710001 0.24022999
0.14991 0.1576 0.25314999
0.13201 0.08106 0.26258999
0.13247 0.081178002 0.26172
0.16108 0.20744 0.26798999
0.17 0.19232 0.27254
0.15858001 0.075415999 0.28018999
0.18567 0.12599 0.26605001
0.18617 0.12525 0.26701
0.18674 0.12395 0.26846999
0.15986 0.1011 0.27281001
0.15922999 0.13254 0.26376
0.15806 0.13149001 0.26370999
0.15925001 0.13499001 0.26495999
0.16637 0.24085 0.26967999
0.19584 0.072947003 0.30441999
0.15072 0.081565 0.26921999
0.15036 0.081872001 0.26797
0.15056001 0.080937997 0.26833999
0.16967 0.17831001 0.27902001
0.19289 0.083749004 0.30544999
0.19299001 0.083811 0.30671
0.19289 0.084071003 0.30524001
0.15933999 0.11554 0.26515001
0.16167 0.20833001 0.26416999
0.16661 0.17478999 0.25266999
0.16695 0.19237 0.27535
0.16418 0.19198 0.27605999
0.16405 0.19211 0.27358001
0.16517 0.22149999 0.26912001
0.1435 0.089135997 0.26423001
0.15332 0.056538001 0.28773999
0.1744 0.068948001 0.29758
0.164 0.070442997 0.28619
0.16485 0.071585998 0.28626001
0.15909 0.17643 0.26205999
0.15895 0.17799 0.26370999
0.19361 0.082157001 0.30759999
0.19412 0.082148999 0.30517
0.15464 0.20318 0.25468999
0.15477 0.20429 0.25363001
0.15588 0.20286 0.25281
0.15966 0.16197 0.26675001
0.1608 0.16308001 0.26798999
0.16095001 0.16134 0.26844001
0.16593 0.14312001 0.27652001
0.18661 0.23005 0.26605001
0.18695 0.23083 0.26543
0.18610001 0.22838999 0.26611
0.17934 0.081689999 0.30627999
0.17840999 0.15637 0.28516001
0.16655 0.21080001 0.27592
0.18176 0.06763 0.30851001
0.18253 0.068396002 0.30914
0.16235 0.21366 0.26846001
0.16423 0.21172 0.26901001
0.19591001 0.069021001 0.30623999
0.19697 0.068567999 0.30581
0.19643 0.059331 0.31542
0.17581999 0.20945001 0.28242001
0.19679999 0.073238999 0.30230999
0.1532 0.093557999 0.26203999
0.15377 0.092491999 0.26030999
0.15508001 0.091826998 0.26010999
0.16494 0.21794 0.27322
0.19052 0.11413 0.26932999
0.19019 0.11402 0.26710999
0.14792 0.081010997 0.26513001
0.17935 0.11057 0.27996001
0.1811 0.11288 0.27981001
0.156 0.12267 0.26126
0.15504 0.12134 0.26107001
0.15374 0.12174 0.26197001
0.1718 0.076963 0.29936999
0.17151999 0.077815004 0.30035001
0.14914 0.14331999 0.26302001
0.15015 0.14221001 0.26302999
0.15135001 0.14376 0.26323
0.16044 0.14448 0.27008
0.15983 0.14523999 0.26890001
0.14373 0.059773002 0.27711999
0.14464 0.059420999 0.27713999
0.18358 0.092745997 0.28729999
0.18226001 0.092102997 0.28628001
0.19543 0.078950003 0.30557999
0.16304 0.13145 0.26815
0.11776 0.052225001 0.25964001
0.14586 0.13325 0.25525001
0.15354 0.15704 0.25512001
0.17121001 0.10399 0.28040999
0.16838001 0.070413999 0.28839999
0.16383 0.13696 0.27316999
0.16576999 0.13642 0.27410001
0.16579001 0.13606 0.27524999
0.16576 0.17688 0.27140999
0.1672 0.17718001 0.27200001
0.16776 0.17631 0.27103001
0.15968999 0.11776 0.26396
0.16154 0.11995 0.26230001
0.18164 0.19174001 0.27958
0.17937 0.13198 0.28654
0.15476 0.12887 0.25560999
0.16173001 0.21686 0.26174
0.16269 0.19041 0.27636999
0.19411001 0.072550997 0.30388999
0.19532 0.071857996 0.30291
0.17622 0.17048 0.27401999
0.17733 0.17219 0.27485999
0.17490999 0.17244001 0.27471
0.18398 0.078532003 0.30996001
0.15112001 0.14696001 0.26475999
0.15167999 0.1473 0.26620001
0.16771001 0.24138001 0.27110001
0.17687 0.23492 0.27305999
0.16058999 0.20825 0.26473001
0.16887 0.060568001 0.29001001
0.16802 0.060637001 0.29051
0.17151999 0.16780999 0.27307001
0.17140999 0.16908 0.27357
0.17116 0.16940001 0.27195001
0.16311 0.20355 0.26989999
0.16320001 0.20305 0.27081999
0.16151001 0.21314 0.26765999
0.16230001 0.21378 0.26747999
0.15279999 0.19487 0.26326001
0.17336001 0.15889999 0.27619001
0.14896999 0.091695003 0.25694001
0.15350001 0.17949 0.26003
0.15362 0.18058001 0.26098001
0.16169 0.12156 0.26848
0.16185001 0.11943 0.26879001
0.18434 0.14277001 0.28573
0.13072 0.049192999 0.26157001
0.18005 0.060945 0.3055
0.17743 0.059273001 0.30498001
0.17986 0.059882 0.30504
0.19011 0.22917999 0.26163
0.1882 0.23184 0.26249999
0.15708999 0.18162 0.25367999
0.19828001 0.079983003 0.30357999
0.19994999 0.079839997 0.30388001
0.19930001 0.080571003 0.30234
0.12943 0.058281999 0.25319001
0.17862 0.060307998 0.29633
0.17703 0.059891999 0.29545
0.15964 0.21706 0.26082999
0.16218001 0.21698999 0.26249
0.15964 0.20385 0.26567999
0.16721 0.14979 0.27774999
0.16824999 0.14788 0.27959001
0.18261001 0.087609001 0.29699999
0.18392 0.089449003 0.29493999
0.18386 0.087644003 0.29521999
0.16867 0.19644 0.27555999
0.16943 0.19871999 0.27388999
0.17234001 0.23182 0.2719
0.11768 0.050390001 0.25896001
0.16944 0.068728998 0.2911
0.17072 0.071263999 0.29221001
0.15164 0.14172 0.26438999
0.15338001 0.057013001 0.28894001
0.18227001 0.12688001 0.28261
0.15721001 0.1744 0.25964001
0.17569 0.17156 0.27421999
0.17639001 0.17301001 0.27491
0.18004 0.061117001 0.29912999
0.18019 0.063574001 0.29973
0.17969 0.063414998 0.29986
0.16606 0.17218 0.26991999
0.16495 0.1725 0.27039
0.15479 0.13240001 0.26061001
0.15561 0.13233 0.25933999
0.178 0.060692001 0.30871001
0.15464 0.062403001 0.28033999
0.17326 0.054437999 0.28865999
0.16075 0.24553999 0.26315999
0.15776999 0.18313999 0.26282001
0.17172 0.24507 0.25492001
0.17127 0.24489 0.25573
0.16163 0.12507001 0.25516
0.16512001 0.17072999 0.2527
0.18388 0.12537999 0.28281
0.15328 0.20629001 0.25713
0.15216 0.20460001 0.25619
0.15233 0.20613 0.25983
0.14702 0.13016 0.25797001
0.14619 0.13267 0.26029
0.18968 0.088361003 0.29062
0.1577 0.15175 0.26769
0.17987999 0.21145999 0.27733001
0.17928 0.21294001 0.27816001
0.16648 0.085762002 0.28672001
0.1656 0.088094003 0.28542
0.18731 0.24665 0.25492001
0.19193999 0.15567 0.26802
0.16886 0.077817 0.29194999
0.18765 0.11079 0.27835
0.16836999 0.21592 0.27726999
0.17009 0.059861999 0.28828001
0.17361 0.060125001 0.29135001
0.15649 0.13061 0.26822001
0.16091999 0.14025 0.2753
0.16134 0.14068 0.27458999
0.16204999 0.13823999 0.27616999
0.18785 0.066077001 0.30381
0.1698 0.062693 0.28983
0.17033 0.063625 0.29008001
0.18122999 0.086131997 0.29727
0.16690999 0.19840001 0.27465001
0.16835 0.19841 0.27498999
0.17611 0.14217 0.28830999
0.17287999 0.077179998 0.29701999
0.16991 0.077655002 0.29679
0.19317999 0.11404 0.26883999
0.15567 0.18691 0.25722
0.15719 0.1876 0.25584999
0.15625 0.18442 0.2577
0.15339001 0.056014001 0.29093999
0.16345 0.084041998 0.28496999
0.16264001 0.21111999 0.26535001
0.16105001 0.21288 0.26701
0.19103999 0.24461 0.25358
0.1771 0.16055 0.27397001
0.15765999 0.23229 0.25387001
0.15948001 0.23311 0.25229001
0.16931 0.21511 0.27702001
0.17126 0.11938 0.27653
0.17027999 0.11801 0.27562001
0.16977 0.11945 0.27581
0.16967 0.18644001 0.28024
0.14958 0.088691004 0.24846999
0.14783999 0.089203998 0.24575999
0.14787 0.088817 0.24505
0.18985 0.10559 0.27318999
0.19108 0.10729 0.27265
0.1507 0.081568003 0.26625001
0.1523 0.14740001 0.26639
0.17189001 0.18421 0.27961999
0.17591999 0.13616 0.28646001
0.15105 0.15685999 0.25584999
0.17813 0.24656001 0.25424001
0.17825 0.24607 0.25319001
0.17799 0.24462 0.25419
0.18228 0.12757 0.28422001
0.18347 0.12772 0.28534999
0.16845 0.14486 0.27868
0.16936 0.14501999 0.27880999
0.17046 0.15279 0.28169
0.16969 0.15236001 0.28172001
0.16829 0.15290999 0.28272
0.12158 0.054992002 0.26163
0.17693 0.093273997 0.28106001
0.17703 0.093451999 0.27796999
0.15852 0.19638 0.27232
0.16064 0.19577999 0.27461001
0.15667 0.15767001 0.25332001
0.15667 0.15843999 0.25400999
0.15563001 0.15832999 0.25325
0.13495 0.075692996 0.25887999
0.13432001 0.074486002 0.25591001
0.13367 0.075243004 0.25702
0.18392 0.087801002 0.29773
0.18342 0.087934002 0.29699999
0.14902 0.053548001 0.28533
0.14748999 0.053490002 0.28733
0.14864001 0.054327998 0.28569001
0.17423999 0.19022 0.28409001
0.16283999 0.086029999 0.28327999
0.16417 0.084788002 0.28284001
0.17199001 0.075943001 0.29668
0.17143001 0.076038003 0.29721999
0.13528 0.058467001 0.26082999
0.17677 0.11246 0.28167999
0.17455 0.11086 0.27974999
0.1705 0.17382 0.27449
0.17038999 0.17465 0.27592999
0.15518001 0.054411002 0.29510999
0.15775 0.055018999 0.29705
0.16933 0.12328 0.27638
0.17002 0.12413 0.27658001
0.16884001 0.12355 0.27673
0.16018 0.21865 0.27366
0.16134 0.21898 0.27383
0.16184001 0.11224 0.27476999
0.19355001 0.064622 0.30243999
0.19449 0.062609002 0.30175999
0.13207 0.069068 0.24243
0.13285001 0.070501998 0.24184
0.13545001 0.052831002 0.26231
0.13688999 0.051279001 0.26258001
0.13698 0.054287001 0.26135001
0.15354 0.2392 0.25229001
0.15373001 0.23672 0.25216001
0.15463001 0.23936 0.25174001
0.1829 0.15090001 0.28602001
0.13891 0.081248 0.26396
0.1644 0.18447 0.26460001
0.16384999 0.18381 0.26585999
0.16055 0.22576 0.26488999
0.1803 0.16611999 0.26984999
0.18074 0.1665 0.27041
0.13 0.059443999 0.25492999
0.12885 0.06171 0.25483
0.12907 0.059680998 0.25314999
0.16413 0.12650999 0.25935999
0.16350999 0.1295 0.26008001
0.17416 0.053263001 0.2915
0.17399999 0.053652 0.29078999
0.16433001 0.16424 0.25406
0.19565 0.1129 0.26045001
0.19559 0.11287 0.26034999
0.19557001 0.11408 0.26201999
0.16742 0.076096997 0.28891
0.16787 0.076653004 0.28814
0.16756999 0.074940003 0.28678
0.1246 0.056568999 0.23935001
0.12313 0.056228001 0.23745
0.17016999 0.24386001 0.27711999
0.17008001 0.24408001 0.27544001
0.15876999 0.20127 0.26881999
0.16696 0.19103 0.27476999
0.17414001 0.089207999 0.28049999
0.18573999 0.083394997 0.30796999
0.17332999 0.19690999 0.28152999
0.17223001 0.19823 0.28103
0.17278001 0.19689 0.28277999
0.16745 0.1274 0.26918
0.16807 0.12799001 0.26912999
0.15253 0.18907 0.26029
0.15261 0.1892 0.26166001
0.16723 0.20266999 0.27546999
0.16898 0.20525999 0.27357
0.14719 0.078093 0.26539001
0.14722 0.080398001 0.26530999
0.15915 0.14711 0.26594999
0.15944999 0.14582001 0.26853001
0.17923 0.24518999 0.25718999
0.15467 0.15772 0.25217
0.19154 0.091241002 0.28918999
0.19095001 0.089309998 0.29104999
0.15801001 0.23441 0.26087001
0.15572 0.23364 0.26212999
0.17874999 0.21847001 0.28325999
0.17783 0.21803001 0.28231001
0.15633 0.20905 0.26359001
0.1569 0.2104 0.26481
0.18498001 0.071295001 0.30726999
0.18423 0.071377002 0.30802
0.16226999 0.14193 0.24936999
0.16253 0.14171 0.25080001
0.16150001 0.14261 0.24897
0.16473 0.12876999 0.25793001
0.12739 0.058332998 0.24526
0.12746 0.060146999 0.24608999
0.15905 0.22048 0.24981
0.15735 0.22129001 0.2493
0.15723 0.22169 0.25005999
0.19092 0.089241996 0.29001999
0.19086 0.087714002 0.29021999
0.18802001 0.089497998 0.28948
0.2131 0.056163002 0.28408
0.21276 0.056467 0.28321999
0.21483999 0.055174999 0.28325
0.17694999 0.09228 0.28503001
0.17803 0.090466999 0.28707001
0.1716 0.10097 0.27875999
0.17064001 0.10103 0.27792999
0.16237999 0.055904001 0.29451999
0.15138 0.12998 0.25426
0.16117001 0.10292 0.27348
0.16154 0.10449 0.27355999
0.16158 0.10488 0.27294001
0.14782 0.15059 0.26234001
0.14681 0.15175 0.2624
0.15951 0.19314 0.25099999
0.15876999 0.19054 0.25134999
0.15931 0.19264001 0.25095999
0.16921 0.24305999 0.28018999
0.16978 0.24397001 0.2793
0.16 0.22549 0.26429
0.16113999 0.11194 0.27689999
0.15534 0.12152 0.26440999
0.17411999 0.13708 0.27654001
0.17364 0.13795 0.27686
0.17292 0.14002 0.27636999
0.16931 0.23741999 0.27948999
0.12997 0.078396998 0.26098999
0.12998 0.078433998 0.26233
0.19092999 0.080225997 0.30698001
0.19203 0.082241997 0.30526999
0.19336 0.052604001 0.32128999
0.13194001 0.054067001 0.26269999
0.18911 0.16320001 0.26401001
0.18746001 0.16603 0.26374999
0.17794 0.16122 0.27304
0.15221 0.15745001 0.26578999
0.15147001 0.15496001 0.26639
0.1525 0.15451001 0.26708999
0.11974 0.055125002 0.24675
0.12047 0.055390999 0.24339999
0.12053 0.055736002 0.24413
0.18389 0.060433 0.31118
0.18278 0.060148001 0.31086001
0.18719 0.22777 0.26462001
0.14966001 0.15567 0.25007001
0.15223999 0.15422 0.24696
0.14628001 0.1461 0.25621
0.14760999 0.14821 0.25554001
0.14692999 0.14676 0.25599
0.15817 0.096633002 0.26425001
0.16516 0.16732 0.26541001
0.14862999 0.13594 0.26233
0.14836 0.13497999 0.26262
0.18456 0.10129 0.2762
0.18389 0.10313 0.27893001
0.18456 0.099997997 0.27814999
0.16621999 0.096785001 0.27641001
0.16562 0.099967003 0.2782
0.16885 0.23097 0.27019
0.20309 0.050751999 0.31685999
0.20327 0.053032 0.31740999
0.20348001 0.051033001 0.31867
0.16238999 0.16438 0.27298
0.18587001 0.2411 0.26515999
0.1869 0.24191 0.26546001
0.16934 0.17884 0.27746999
0.17056 0.17705999 0.27739999
0.16493 0.17570999 0.25345001
0.13409001 0.083265997 0.25707999
0.18780001 0.11167 0.2766
0.15618999 0.23012 0.26102
0.15738 0.22807001 0.2624
0.15421 0.22053 0.25911999
0.15428001 0.22138 0.25764
0.15311 0.22050001 0.25863001
0.16335 0.19888 0.26835999
0.16853 0.20182 0.27658999
0.15406001 0.24505 0.25207001
0.15428001 0.24528 0.25402999
0.16655 0.13716 0.27632001
0.16718 0.13998 0.27494001
0.16102 0.13892999 0.27241999
0.16791999 0.050542999 0.29126999
0.17388 0.24608999 0.25676
0.17454 0.24615 0.25863001
0.17498 0.24591 0.25841001
0.15751 0.22414 0.25297999
0.17392001 0.10909 0.28077
0.17524 0.11112 0.28185999
0.19207001 0.074920997 0.30164999
0.19523001 0.072893001 0.30081001
0.11762 0.052533999 0.25174999
0.11801 0.051449999 0.25231999
0.15847 0.084510997 0.27513
0.15986 0.08371 0.27654001
0.13862 0.077490002 0.26357999
0.14219999 0.069701001 0.26372001
0.14255001 0.053206999 0.28402999
0.16651 0.12458 0.26721001
0.16759001 0.12672 0.26797
0.16808 0.19978 0.27379999
0.19171999 0.1583 0.27002001
0.19183999 0.15779001 0.26997
0.17699 0.051424 0.30122
0.17669 0.051233999 0.30199999
0.17384 0.088712998 0.29385999
0.17555 0.089759998 0.29545999
0.15171 0.1266 0.25995001
0.16632 0.16276 0.27368
0.20566 0.052237999 0.31468999
0.20506001 0.052439999 0.31766999
0.2052 0.052003 0.31687999
0.17663001 0.16531 0.27348
0.14664 0.073946998 0.26482999
0.15534 0.11947 0.26589999
0.17923 0.18783 0.27844
0.17837 0.18694 0.27928001
0.15708999 0.10736 0.25826001
0.15809 0.1051 0.25756001
0.15723 0.10486 0.25812
0.17655 0.15868001 0.27704999
0.17128 0.17900001 0.27522001
0.16301 0.16491 0.26304999
0.16181 0.16404 0.26030001
0.13094001 0.059384 0.24408001
0.12988999 0.059569001 0.24461
0.16435 0.15155999 0.27833
0.16504 0.15350001 0.27902001
0.14723 0.14307 0.26233
0.14737 0.14415 0.26245001
0.16248 0.16076 0.25317001
0.16236 0.16077 0.25338
0.16198 0.15955999 0.2525
0.13484 0.089946002 0.2492
0.15492 0.15689 0.27114999
0.15665001 0.15728 0.27110001
0.15916 0.17607 0.26320001
0.17558999 0.22776 0.27282
0.17549001 0.22664 0.27248001
0.17831001 0.22626001 0.27401
0.16467001 0.23676001 0.26785001
0.20816 0.083858997 0.25141999
0.20823 0.084360003 0.25121
0.16836999 0.11771 0.27276999
0.16917001 0.1175 0.27112001
0.14762001 0.13616 0.25224
0.14708 0.13578001 0.25342
0.14828999 0.13726 0.25318
0.18339001 0.14557 0.28714001
0.18325 0.22521999 0.26657999
0.18227001 0.22487 0.26672
0.18166 0.22673 0.26719999
0.13214999 0.061257001 0.25698999
0.12957001 0.059018001 0.25646999
0.13565999 0.072338998 0.25764
0.13524 0.072798997 0.25819999
0.18289 0.13522001 0.28762999
0.18095 0.13576999 0.28942999
0.18761 0.24241 0.26611999
0.18724 0.24393 0.26543
0.15826 0.18523 0.25960001
0.15707999 0.18459 0.26056999
0.20426001 0.050482001 0.31676999
0.20329 0.051298 0.31788
0.12147 0.054659002 0.25973001
0.17046 0.14859 0.28492999
0.1708 0.1468 0.28516001
0.17114 0.14663 0.28512001
0.17498 0.15798 0.28022
0.17306 0.15738 0.27976999
0.18855999 0.10386 0.2762
0.16492 0.11942 0.26671001
0.18244 0.059172999 0.31646001
0.18396001 0.058665 0.31525999
0.1944 0.078469001 0.30594999
0.16964 0.13602 0.27303001
0.13765 0.051041 0.27768999
0.13921 0.051284999 0.27825001
0.13729 0.050786 0.27792001
0.15375 0.20399 0.26153001
0.15373001 0.20551001 0.26196
0.15121 0.20359001 0.26174
0.18062 0.058187 0.31217
0.12891001 0.081201002 0.25437999
0.12954 0.080536999 0.25536001
0.13087 0.081390001 0.25538999
0.15356 0.092187002 0.25468001
0.17002 0.15433 0.28516001
0.16725001 0.24555001 0.26677999
0.16768 0.24392 0.26512
0.16759001 0.24615 0.26440001
0.18502 0.21363001 0.27322
0.18482 0.21439999 0.27289
0.16509999 0.14861 0.27812999
0.17653 0.052988999 0.30384001
0.17739999 0.053160001 0.30543
0.1541 0.088898003 0.25996
0.15485001 0.088766001 0.25920001
0.17068 0.18398 0.27577001
0.18145999 0.19065 0.28365001
0.18099999 0.19028001 0.28422001
0.14300001 0.063115001 0.27257001
0.14388999 0.061932001 0.27271
0.14369 0.060210999 0.27118999
0.17031001 0.18826 0.28156999
0.18264 0.12648 0.27162001
0.17106999 0.091715001 0.27928999
0.15289 0.24483 0.2577
0.15669 0.12989999 0.26708001
0.13916001 0.055619001 0.27250999
0.13918 0.052413002 0.27134001
0.1605 0.14038999 0.27401
0.17117999 0.2133 0.27996999
0.1698 0.21299 0.28053999
0.17570999 0.10195 0.28121999
0.17664 0.098429002 0.28229001
0.17528 0.10036 0.28200001
0.17442 0.093505003 0.28132001
0.16635001 0.13823999 0.27577001
0.19836 0.061779998 0.30392
0.18035001 0.18242 0.28373
0.18127 0.18292999 0.28290001
0.18134999 0.18237001 0.28259
0.18849 0.1653 0.26574999
0.14799 0.086776003 0.26449001
0.1486 0.088382997 0.26635
0.14935 0.089174002 0.26425001
0.12346 0.053851999 0.26172
0.16342001 0.24105 0.26794001
0.14887001 0.049683999 0.28821999
0.18149 0.17086001 0.26818001
0.18162 0.17312001 0.26951
0.16572 0.089311004 0.27645001
0.16411 0.088090003 0.27698001
0.15644 0.088633001 0.26813
0.15669 0.090549 0.26866999
0.15624 0.091911003 0.26886001
0.16362999 0.17149 0.26354
0.15332 0.057732001 0.28073001
0.15334 0.059115 0.28128001
0.17598 0.15858001 0.27726001
0.19837999 0.066835999 0.30061999
0.16009 0.21285 0.26471999
0.16027001 0.2128 0.26515001
0.16585 0.051348001 0.29464
0.18769 0.073048003 0.30741
0.18806 0.071350001 0.30778
0.18929 0.073321 0.30704999
0.13546 0.066389002 0.2613
0.13773 0.065463997 0.25920999
0.13592 0.066871002 0.26039001
0.15166 0.053637002 0.29260001
0.15892 0.12289 0.26672
0.15922 0.12099 0.26752999
0.15958001 0.12213 0.26769999
0.18459 0.21306001 0.27331001
0.1594 0.054370001 0.29640999
0.15936001 0.056017999 0.29750001
0.15913001 0.054680001 0.29712
0.16809 0.095316999 0.27814999
0.16698 0.093987003 0.27847999
0.16669001 0.093759999 0.2789
0.16044 0.14357001 0.27553001
0.15934999 0.14199001 0.27575001
0.17015 0.16410001 0.27441001
0.16948999 0.16673 0.27428001
0.16322 0.17310999 0.26383999
0.16349 0.17202 0.26440999
0.18735 0.16503 0.26464
0.17309 0.22702 0.27533001
0.17343 0.22954001 0.27632001
0.13165 0.085914001 0.25576001
0.13313 0.085091002 0.25426999
0.13364001 0.085606001 0.25417
0.15805 0.15412 0.27256
0.15775 0.15274 0.27339
0.15965 0.14184 0.26594001
0.1708 0.18468 0.28240001
0.17225 0.18466 0.28134
0.14929999 0.09381 0.25406
0.15125 0.092542998 0.25374001
0.132 0.059284002 0.24700999
0.13156 0.059843998 0.24731
0.15841 0.11234 0.25204
0.16079 0.11233 0.25066
0.15886 0.11206 0.25080001
0.1681 0.11248 0.27757999
0.16993 0.11421 0.27691001
0.16700999 0.11287 0.27572
0.18020999 0.055435002 0.31738001
0.18139 0.162 0.27674001
0.18097 0.16257 0.27596
0.17899001 0.16157 0.27627999
0.17495 0.16573 0.27024001
0.17675 0.16844 0.27263999
0.17556 0.16857 0.27298999
0.16083001 0.1592 0.26561999
0.16147999 0.15884 0.26633
0.17625999 0.18494999 0.28687999
0.17754 0.18452001 0.28582999
0.17767 0.18598001 0.28483
0.19292 0.060346998 0.31185001
0.17952 0.075347997 0.30899999
0.17994 0.074754998 0.30926001
0.16331001 0.23456 0.26515001
0.16175 0.23329 0.26451001
0.17834 0.060995001 0.30447
0.17504001 0.19780999 0.28296
0.16487999 0.15855999 0.27340999
0.16349 0.15817 0.27300999
0.16340999 0.15640999 0.27480999
0.17149 0.11635 0.27836999
0.17634 0.068025 0.30013999
0.17628001 0.068412997 0.30019
0.17535 0.067955002 0.29965001
0.13874 0.086537004 0.25099
0.15695 0.083067998 0.27298999
0.16226 0.12481 0.26899999
0.16179 0.15932 0.26398
0.17332 0.20695999 0.28305
0.16346 0.18229 0.26389
0.16654 0.21202999 0.27584001
0.16596 0.21325 0.27731001
0.15464 0.061586 0.28185999
0.15312 0.062277 0.28391999
0.13345 0.072428003 0.25972
0.15478 0.22019 0.25777
0.15344 0.20987 0.25819999
0.15342 0.12257 0.25738001
0.15523 0.12288 0.2577
0.15407 0.12113 0.25938001
0.18091001 0.16086 0.27790999
0.17996 0.16055 0.27706
0.15515 0.15621001 0.26919001
0.14974999 0.087908998 0.24908
0.14868 0.088215999 0.24929
0.1539 0.20766 0.26328999
0.15536 0.20734 0.26374
0.15625 0.20886 0.26376
0.15454 0.24307001 0.25268
0.18284 0.12835 0.27327001
0.17931999 0.11282 0.27408999
0.18024001 0.11567 0.27337
0.19639 0.079365999 0.30496001
0.1786 0.059243001 0.29835001
0.17744 0.061271001 0.29877001
0.15705 0.11247 0.24919
0.15972 0.11191 0.24992999
0.17039999 0.083159 0.29488999
0.17013 0.084969997 0.29234001
0.16936 0.082658 0.29431
0.16904999 0.12612 0.27204999
0.17041001 0.17024 0.27078
0.1724 0.17032 0.27081999
0.1718 0.17156 0.27241999
0.12924001 0.067441002 0.25411999
0.16371 0.18688001 0.27153
0.13325 0.085210003 0.25578001
0.13451999 0.084679998 0.25494999
0.19112 0.086597003 0.29297
0.17130999 0.18404 0.27922001
0.14179 0.061395001 0.26120999
0.17468999 0.053036999 0.28953999
0.15807 0.21161 0.25253999
0.15618999 0.21168 0.25358999
0.16683 0.21269999 0.27122
0.16696 0.22968 0.27020001
0.16725001 0.23104 0.27131
0.16688 0.23103 0.2705
0.16407 0.18032999 0.26379001
0.16289 0.18217 0.26541001
0.17631 0.15228 0.28727001
0.1857 0.16041 0.27388
0.18402 0.15928 0.27339
0.16738001 0.18333 0.27271
0.16696 0.22073001 0.26986
0.18144 0.092952996 0.28863001
0.18285 0.092711002 0.28738999
0.13596 0.072228998 0.26100001
0.17663001 0.093528003 0.28270999
0.19625001 0.062229998 0.30445999
0.19724999 0.061995 0.30472001
0.13018 0.079857998 0.25518
0.19475999 0.056616001 0.31999001
0.19621 0.054205999 0.31911999
0.19576 0.056256998 0.31869999
0.1778 0.13214999 0.28369999
0.17805 0.1327 0.28327999
0.18325 0.15768 0.28196001
0.16045 0.17110001 0.25731999
0.13277 0.072857 0.25971001
0.13090999 0.071420997 0.26133001
0.19404 0.062491 0.30272001
0.19191 0.062120002 0.30373001
0.17444 0.14933001 0.28696999
0.17214 0.15024 0.28369999
0.12993 0.080935001 0.25626001
0.12994 0.081435002 0.25764
0.16128001 0.14793999 0.27699
0.16192 0.14683001 0.27676001
0.16116001 0.14751001 0.27676001
0.13282 0.071999997 0.25518
0.13225 0.072081 0.25448
0.14816 0.080769002 0.26721001
0.17884 0.17602 0.28116
0.17996 0.17522 0.2802
0.17812 0.076357 0.30564001
0.16344 0.22235 0.27138999
0.19047999 0.078309 0.30614999
0.16948999 0.11551 0.27408001
0.1698 0.11616 0.27535
0.1631 0.17124 0.2667
0.16331001 0.17089 0.26715001
0.12582 0.060114 0.25220999
0.12486 0.059824999 0.25404999
0.12702 0.051708002 0.26128
0.19296999 0.061657999 0.30592999
0.19317 0.063011996 0.30688
0.13147999 0.065966003 0.24342
0.13381 0.067553997 0.24358
0.1645 0.1996 0.27021
0.16436 0.19822 0.26945001
0.17411 0.17143001 0.27133
0.15961 0.11252 0.27202001
0.18719999 0.23586001 0.26311001
0.18610001 0.23755001 0.26157999
0.15934999 0.16079 0.25889
