# .PCD v0.7 - Point Cloud Data file format
VERSION 0.7
FIELDS x y z
SIZE 4 4 4
TYPE F F F
COUNT 1 1 1
WIDTH 1484
HEIGHT 1
VIEWPOINT 0 0 0 1 0 0 0
POINTS 1484
DATA ascii
0.31878 -0.027000001 0.048781998
0.31964001 -0.026766 0.048517998
0.30667999 -0.0095333997 0.046726
0.27158999 0.077334002 0.062872
0.30829 0.023011999 0.033004999
0.30728999 0.024346 0.032958999
0.30719 0.024245 0.033677999
0.28273001 0.0285 0.046371002
0.30495 0.032331001 0.034203
0.30774 0.020386999 0.038743
0.2674 0.01199 0.030125
0.27041 0.029873 0.034042001
0.2712 0.029890999 0.034869999
0.31985 -0.0091375001 0.054288
0.21619999 0.068944998 0.046190999
0.29721999 0.067515001 0.055544
0.29732999 0.066953003 0.056095999
0.29940999 0.082241997 0.036736999
0.22578 0.083314002 0.036791001
0.2265 0.082790002 0.036362
0.22486 0.083521001 0.036307
0.27871999 0.0029609001 0.02757
0.27928999 0.002996 0.027989
0.27891999 0.0036573 0.028991999
0.33054999 0.056581002 0.074006997
0.32516 -0.035650998 0.034984
0.32536 -0.034235001 0.034897
0.28097001 0.012078 0.041134
0.32106999 0.0094921002 0.034637999
0.32152 0.061251 0.1023
0.26012999 -0.021992 0.025505999
0.26831999 -0.022688 0.024156
0.22065 0.074112996 0.044312
0.30634001 -0.022939 0.045827001
0.22304 0.086410999 0.045727
0.29216999 0.039744999 0.054060001
0.29258001 0.040047999 0.054510001
0.26335999 -0.027727 0.022797
0.26868999 0.042929001 0.047180999
0.26964 0.042626001 0.047936
0.26317 0.072998002 0.060102001
0.31303999 0.069578998 0.10554
0.31371999 0.070083998 0.10466
0.31336999 0.069058001 0.10422
0.29821 0.080300003 0.041253
0.29786 0.081712998 0.03977
0.30616999 -0.032159001 0.039439
0.31874001 -0.043921001 0.046684001
0.3197 -0.043981999 0.047219999
0.27074999 0.083333001 0.054492
0.27157 0.06103 0.077662997
0.26431999 0.072688997 0.063271001
0.27742001 0.054662999 0.053959999
0.27821001 0.055636998 0.054081
0.27434 0.053187001 0.066313997
0.27331999 0.052469 0.065159999
0.27822 -0.050524 0.011788
0.27875999 -0.050140999 0.011548
0.22419 0.058603 0.040718999
0.22510999 0.058366999 0.041154001
0.27677 -0.035424002 0.014375
0.27715999 -0.034965001 0.014331
0.25319999 0.0024069001 0.020856
0.25321001 0.0032067001 0.020323001
0.31099999 0.072403997 0.10449
0.24005 0.054145001 0.034185
0.23988999 0.053888999 0.033257999
0.30379999 0.038105998 0.043416001
0.30274999 0.037547 0.043331001
0.31757 -0.049152002 0.058247998
0.31815001 -0.050216999 0.058508001
0.27388 -0.046698 0.015395
0.30647999 0.015392 0.043664999
0.30610999 0.014434 0.043850001
0.30583999 0.013999 0.044381
0.30091 0.038385998 0.046769001
0.31020001 -0.017024999 0.049371999
0.27518001 0.0063291001 0.032078002
0.27590999 0.0062799002 0.032414999
0.27368 0.056600001 0.069242001
0.28161001 0.068882003 0.066215999
0.28279999 0.068974003 0.065709002
0.28219 0.069187999 0.065975003
0.27520001 0.062073 0.072667003
0.27519 0.063176997 0.072444998
0.22499999 0.086894996 0.04518
0.21388 0.069329001 0.046884999
0.29598999 0.043682002 0.055135
0.29688001 0.043625001 0.055008002
0.31274 -0.051445 0.049927998
0.31266001 -0.051263001 0.048386
0.31303999 -0.052021999 0.049662001
0.27687001 0.043804999 0.048629001
0.30513 -0.030692 0.037881002
0.32358 -0.025193 0.044440001
0.29690999 0.071759 0.050935
0.27970001 -0.047773998 0.0091973003
0.31387001 0.053024001 0.080401003
0.31439 0.052099001 0.080420002
0.27224001 0.052200001 0.064000003
0.27131999 0.051773999 0.063515
0.27281001 0.052517001 0.064037003
0.26445001 -0.053518001 0.021768
0.27809 0.0037132001 0.028616
0.32060999 0.0069721998 0.042217001
0.24909 -0.050085999 0.013613
0.24823999 -0.050455 0.013964
0.24827 -0.050127 0.01471
0.26754999 0.0026599001 0.031865001
0.30507001 0.081990004 0.024023
0.25486001 0.0016901999 0.026574001
0.25852999 -0.022619 0.02458
0.27959001 -0.050278999 0.010548
0.31467 0.063069001 0.1047
0.24507 0.060329001 0.029534001
0.26839 0.023662001 0.019285999
0.26791 0.023600999 0.019400001
0.2394 0.051399 0.032618999
0.33162001 -0.049318999 0.055011999
0.30217999 0.0197 0.042328998
0.27801999 0.029766001 0.045393001
0.32122999 0.069955997 0.10056
0.3202 0.070166998 0.10117
0.28073001 0.063060999 0.066197999
0.27612999 0.019041 0.039106999
0.29861 -0.00070575997 0.042488001
0.29877999 -0.00091427 0.042842001
0.27533999 -0.045632001 0.013839
0.26668999 0.022132 0.019974999
0.26607999 0.020509001 0.021093
0.28953999 0.049550999 0.056929
0.28224 0.0080525996 0.038447998
0.28259 0.0075524999 0.038332
0.28183001 0.050043002 0.050708
0.30002001 0.071608998 0.049525999
0.27469999 0.057376001 0.068338998
0.26185 0.083981 0.059064001
0.27752 -0.0051084999 0.020106001
0.26550999 0.069127999 0.067054003
0.31793001 -0.036107 0.045194
0.29058 0.0062807999 0.035046
0.26172999 0.084546998 0.059009001
0.23333 0.073430002 0.036308002
0.27322 0.010695 0.033544
0.26012999 0.091058999 0.056368001
0.26510999 0.061338 0.078982003
0.26328999 0.080000997 0.052976999
0.28659001 0.091183998 0.068343997
0.28479001 0.020785 0.044218
0.28575999 0.021009 0.044264998
0.25909001 -0.049260002 0.028205
0.28431001 0.064507 0.062628999
0.28487 0.065164 0.062786996
0.31505999 -0.046569001 0.051231999
0.31488001 -0.046856001 0.052143
0.25964001 -0.034285001 0.015775001
0.27974001 -0.046806999 0.0043274998
0.27974001 -0.04648 0.0050999001
0.28421 0.027558999 0.045472
0.29333001 0.038442001 0.052583002
0.26361001 0.041843001 0.042056002
0.31408 0.070982002 0.1037
0.29598999 0.029744999 0.042334002
0.31983 0.012196 0.036437001
0.24095 0.059725001 0.035574
0.29723001 0.082347997 0.039473001
0.29978001 0.075894997 0.049407002
0.33162999 -0.047935002 0.047088001
0.33199 -0.049291998 0.046766002
0.33166999 -0.049013998 0.045550998
0.31251001 -0.050097 0.049548
0.31310001 -0.048884001 0.050177999
0.31281999 -0.049623001 0.049756002
0.25499001 -0.050616 0.027935
0.29778001 0.080611996 0.040959999
0.26526999 0.019799 0.022111
0.26468 0.018437 0.022880999
0.26539001 0.019814 0.023162
0.26804999 -0.037634 0.017419999
0.31758001 0.01492 0.036086999
0.31731001 0.014534 0.036639001
0.278 -0.029751999 0.01275
0.26313001 -0.045021001 0.023295
0.26323 -0.045065999 0.022862
0.22599 0.085086003 0.041508
0.28904 0.090028003 0.025805
0.28841999 0.090448 0.027061
0.23502 0.058731001 0.035608999
0.23523 0.059813 0.035647999
0.33206001 -0.051220998 0.056178998
0.33144999 -0.050140001 0.054845002
0.28814 0.014274 0.041480999
0.21461999 0.082447 0.048275001
0.25702 0.090682998 0.054005001
0.26216999 -0.025274999 0.024139
0.24897 -0.049564999 0.01508
0.24933 -0.049205001 0.01415
0.27397999 -0.0010588 0.027977001
0.29701 0.024372 0.041343998
0.29593 0.024342 0.041689999
0.30539 0.018057 0.041409001
0.30526 0.017240999 0.041390002
0.29881999 0.050639998 0.055374
0.29883999 0.051904 0.055654999
0.25606 0.091279998 0.057629
0.22393 0.089566 0.047759
0.22421999 0.089236997 0.047571
0.25979 0.060856 0.076599002
0.25929999 0.060685001 0.074510999
0.32045001 -0.037082002 0.044300001
0.27754 -0.03204 0.014646
0.30293 0.081266001 0.035838
0.29304001 0.0050086002 0.034804001
0.29987001 0.044753999 0.053109001
0.30019 0.044642001 0.052432001
0.32043001 -0.044199001 0.048362002
0.31987 0.0034075 0.048064999
0.32014 0.0032752 0.047826
0.26444 0.060777001 0.081854001
0.26583999 0.061443001 0.078909002
0.28222999 0.024319001 0.04408
0.26377001 0.016604999 0.023522999
0.32381001 0.071512997 0.093355
0.22389001 0.069123998 0.040748
0.26521 -0.029506 0.022708001
0.30502 0.014442 0.044144001
0.22062001 0.058251001 0.036688998
0.22042 0.058683999 0.037594002
0.29436001 0.020833001 0.043340001
0.29473999 0.022344001 0.042357001
0.28268 0.0066769002 0.037640002
0.26014999 0.092850998 0.054986
0.25953999 0.093422003 0.054846
0.27125001 -0.045901999 0.017077001
0.27034 -0.046351001 0.017907999
0.32468 -0.032770999 0.039756998
0.25079 0.056504 0.030967001
0.25034001 0.055836 0.031229001
0.27746001 -0.0011916 0.023628
0.31009999 0.041861001 0.034807
0.31121999 0.042339999 0.035599999
0.31646001 -0.011465 0.055133998
0.27590001 0.082194 0.059865002
0.27559999 0.082670003 0.059751
0.32251 -0.012714 0.043001998
0.32271999 -0.012069 0.042194001
0.25522 0.094632 0.056026001
0.25773999 0.0071466998 0.02626
0.25709 0.0067234999 0.025756
0.28819999 0.094617002 0.073021002
0.25562 -0.021710999 0.021481
0.25591999 -0.021824 0.022005999
0.28093001 0.080617003 0.062762998
0.31946999 -0.014869 0.051773999
0.26644 0.077513002 0.060306001
0.27166 0.086094998 0.040702
0.28634 0.022312 0.043676
0.30849001 0.017579 0.039406002
0.27116999 0.0049068001 0.031801999
0.27026001 0.0049490998 0.031792
0.27517 -0.0414 0.012938
0.25988001 -0.0057609999 0.030361
0.27428001 -0.045162 0.014811
0.27129999 0.077136002 0.063842997
0.32350999 -0.029874001 0.042218
0.26049 0.058414999 0.080149002
0.31474 0.054058999 0.084772997
0.31562001 0.054003 0.085367002
0.31442001 0.054499999 0.085430004
0.29499999 0.080087997 0.047660001
0.31233001 0.066964999 0.10975
0.31240001 0.068020999 0.10957
0.26831999 -0.035691001 0.019526999
0.27524 0.062884003 0.071484998
0.28744999 0.080867998 0.050620001
0.32255 0.067828998 0.099287003
0.29747999 0.0015533 0.042738002
0.26999 0.039190002 0.046909001
0.27048001 0.059978999 0.078596003
0.28049001 0.019518999 0.0427
0.27044001 0.0082730995 0.031228
0.27753001 -0.038603 0.01119
0.27719 -0.039774001 0.011992
0.27746001 -0.039974 0.010881
0.28887001 0.053238999 0.054878999
0.28884 0.053906001 0.054646
0.28929001 0.057758 0.054303002
0.25319001 0.056311999 0.031230001
0.29480001 0.030358 0.043393999
0.28485 0.022968 0.044156998
0.31196001 -0.049073 0.041427001
0.31174001 -0.049160998 0.039668001
0.25031999 -0.052552 0.020525999
0.26504999 -0.030812999 0.021131
0.26491001 -0.030121 0.021539001
0.26526999 0.087614 0.054862998
0.31808001 -0.0040465998 0.051426999
0.28703001 0.0118 0.041182999
0.28553 0.011904 0.041595999
0.28663999 0.011672 0.041625001
0.29761001 0.059535999 0.057415999
0.2942 0.089326002 0.028225999
0.32418001 0.052145999 0.077725999
0.32574999 -0.018313 0.039099999
0.28726 0.080278002 0.052712001
0.30572999 -0.02275 0.045469999
0.32530001 -0.018242 0.044091001
0.32477 -0.019226 0.043791
0.32505 -0.018153001 0.043219998
0.30554 0.027651001 0.034348998
0.30609 0.027934 0.033248998
0.30520999 0.029053999 0.034045
0.26734 0.039641 0.045060001
0.22605 0.055284001 0.038810998
0.31823 0.0023654001 0.049607001
0.31909999 0.0034556999 0.048974998
0.27109 0.051026002 0.066835001
0.25705001 -0.020095 0.024442
0.25143999 0.046840999 0.030375
0.30034 0.02558 0.039239001
0.29976001 0.025751 0.039393999
0.22664 0.054081999 0.03799
0.2111 0.076724 0.053536002
0.21082 0.075880997 0.053986002
0.21164 0.076534003 0.053830002
0.21704 0.081277996 0.056357
0.21623001 0.080655001 0.056120999
0.21709999 0.081707001 0.055746
0.26813 0.051681001 0.065581001
0.26686001 0.052907001 0.065612003
0.26739001 0.051934998 0.065275997
0.24843 0.048448998 0.030819001
0.28481001 0.066607997 0.064323999
0.30790001 0.078331999 0.028615
0.28841999 0.072573997 0.05968
0.28764999 0.073523 0.059537001
0.30715999 0.036059 0.026234001
0.30743 0.036162 0.025494
0.28937 0.0185 0.042114001
0.25591001 0.00023835 0.02778
0.25652999 0.00058097998 0.028671
0.26857999 0.047355998 0.047398001
0.30921999 0.067004003 0.11095
0.25369999 0.093378 0.056479
0.31479001 -0.045474999 0.047077
0.27142999 -0.047692999 0.017173
0.22057 0.063188002 0.040440999
0.29280999 0.077922001 0.049713001
0.30125001 -0.0011833 0.046528999
0.30114001 -1.5096e-05 0.046574999
0.31083 -0.011523 0.050448999
0.23153999 0.062279001 0.037301999
0.3075 0.027594 0.028697999
0.30803999 0.026691001 0.029081
0.32156 -0.035367001 0.043915
0.2388 0.068276003 0.027594
0.29313999 0.034022 0.048121002
0.29332 0.033808999 0.047993999
0.28432 0.032466002 0.047178999
0.21952 0.077101998 0.046629999
0.22014999 0.076903999 0.045855999
0.21992999 0.077803001 0.045758002
0.32527 0.053135 0.079397
0.27954 0.082009003 0.065773003
0.30463001 -0.024096999 0.043361999
0.30430999 -0.023889 0.04281
0.28332001 0.066990003 0.065830998
0.25786999 -0.046489999 0.020298
0.25848001 -0.047892001 0.02179
0.25156 -0.0067106001 0.022456
0.30930001 0.022973999 0.026397999
0.32519999 0.057957001 0.087807
0.31312001 -0.020222999 0.051006
0.27375001 -0.0079872999 0.021694001
0.32150999 -0.011181 0.050939001
0.32108 -0.010241 0.051323
0.28014001 0.020811999 0.043279
0.31681001 -0.038442999 0.045253001
0.31716999 -0.039129 0.044619001
0.3177 -0.038807001 0.044856999
0.32131001 -0.018115999 0.050478
0.31422001 0.0072296001 0.049596
0.28665999 0.014106 0.041625001
0.29289001 0.084045 0.045184001
0.29225999 0.084279999 0.045419
0.24319001 0.056425001 0.031709999
0.22437 0.062261 0.043033998
0.28628999 0.015495 0.042284001
0.27232999 -0.024072999 0.023155
0.32570001 -0.032708 0.036671001
0.31900999 0.0087142 0.044808
0.29446 0.069038004 0.055546999
0.31446999 -0.041048001 0.042300999
0.28332999 0.025250999 0.045081999
0.33252001 -0.049596 0.051238
0.31981999 -0.039912 0.043127999
0.32010001 -0.038956001 0.043296002
0.31964001 -0.038929999 0.044073999
0.25729999 -0.049975999 0.030117
0.25707999 -0.049534999 0.029397
0.27669001 0.057372998 0.064292997
0.27677 0.057275999 0.063169003
0.31395999 -0.03308 0.045616999
0.31614 0.058669001 0.10779
0.31468999 0.065785997 0.10732
0.29756001 0.068952002 0.054678001
0.24651 0.062056001 0.026435999
0.27790001 0.034712002 0.046128001
0.27879 0.035870999 0.046624001
0.26295999 -0.039252002 0.013782
0.28707001 0.048269 0.056141
0.27011001 -0.043910999 0.016284
0.26131001 0.091118 0.049848001
0.2633 0.047862001 0.043506999
0.26282001 0.047431 0.043120001
0.26407 0.0473 0.04383
0.26332 -0.0031272001 0.030931
0.26317 -0.0022694001 0.031244
0.31119999 -0.0056999 0.052586999
0.32266 -0.044356 0.049164001
0.29231 0.074611001 0.052563999
0.29802001 0.037865002 0.048625
0.26266 -0.021509999 0.025284
0.26710001 0.083752997 0.053224999
0.28731999 0.096851997 0.070523001
0.31248 0.019224999 0.032411002
0.31209999 0.019272 0.031293001
0.28957 0.065457001 0.056488
0.29038 0.065192997 0.056832999
0.24851 -0.052294001 0.022356
0.24963 -0.051132001 0.02156
0.29800999 0.029898001 0.040284
0.29701999 0.085905999 0.035682999
0.30838999 0.083737999 0.097992003
0.25222999 -0.013517 0.02585
0.32649001 -0.046608999 0.048918001
0.30590001 0.039434999 0.040732
0.25242999 0.058862999 0.03105
0.25231001 0.058486 0.030779
0.25057 0.051612999 0.031939998
0.25011 0.053160001 0.031796999
0.31051999 -0.017728001 0.049954001
0.28018001 0.029816 0.046307001
0.30928001 0.075815998 0.10392
0.23829 0.048144002 0.028109999
0.26328999 -0.0054816999 0.030796999
0.26323 -0.004404 0.030904001
0.30757999 0.041427001 0.040139001
0.30693001 0.041111998 0.041232001
0.30706999 0.040614001 0.040236998
0.30217999 0.025558 0.038454
0.31007001 0.076559 0.10486
0.30037999 0.041448999 0.050634999
0.29936001 0.041258998 0.050673001
0.28002 0.026722999 0.043740001
0.25703999 0.010922 0.018428
0.25663 0.010625 0.019613
0.25712001 -0.052411001 0.027310999
0.285 0.065499999 0.060532998
0.28516999 0.066071004 0.059845001
0.28575999 0.065683998 0.060794
0.32323 -0.034026999 0.041924998
0.32357001 -0.035413001 0.042072002
0.31231999 0.080577001 0.094997004
0.31182 0.080366001 0.095353998
0.32416001 -0.015744001 0.043680999
0.26260999 0.082831003 0.058324002
0.25387001 0.057583999 0.032294001
0.22709 0.074872002 0.039432999
0.22724999 0.076008998 0.039528999
0.31759 -0.033961002 0.045862999
0.26036 0.047168002 0.039872002
0.26109001 0.046873 0.040658999
0.28522 0.015436 0.042702999
0.31053999 0.075387001 0.028945001
0.31081 0.074603997 0.028984999
0.29971001 0.061728001 0.056596
0.29944 0.062316 0.057147
0.30888 0.046516001 0.055406
0.27268001 0.057718001 0.073000997
0.25306001 -0.0098540001 0.024611
0.28850001 0.047068998 0.056536999
0.29936001 0.016266 0.043563999
0.30228001 0.042968001 0.048923001
0.26675999 -0.042571001 0.016111
0.32416999 0.068071 0.093994997
0.31676 0.059587002 0.10838
0.26785001 0.075827003 0.063355997
0.26914999 0.076127 0.063598998
0.29883999 0.079135001 0.042112
0.31878999 0.07858 0.096732996
0.31812 0.078699999 0.097243004
0.26574001 0.065953001 0.071225002
0.26501 0.065984003 0.069858998
0.27153 0.025520001 0.031128
0.29192999 0.086424999 0.042404
0.30085999 0.085703 0.029944001
0.25240999 1.5481e-05 0.018797999
0.23829 0.069208004 0.034364998
0.31755999 0.059179999 0.10569
0.32573 0.072488002 0.079498999
0.32618999 0.072039001 0.080967002
0.29758 0.0094493004 0.043423999
0.28823999 0.020764999 0.042467002
0.24072 0.064257003 0.033813
0.26824 -0.053309001 0.020312
0.32574001 -0.032823 0.03523
0.28635001 0.050643999 0.055236001
0.28644001 0.034143001 0.047894001
0.28661999 0.034378 0.048843
0.26903999 0.058897998 0.079814002
0.29543 0.0078921001 0.041721001
0.25665 -0.017233999 0.026686
0.22699 0.053334001 0.036949001
0.24841 0.061939001 0.028225999
0.27403 0.088118002 0.040764999
0.29745999 0.015 0.043526001
0.31391999 0.0026597001 0.051996
0.31398001 0.0031590001 0.051493999
0.30629 0.010128 0.048059002
0.31845999 -0.053211998 0.058816001
0.30520999 -0.027392 0.041951001
0.30478001 -0.027106 0.041466001
0.27623999 0.05491 0.059404001
0.27621001 0.055309001 0.060702998
0.32539999 -0.033881001 0.037943002
0.26188999 0.011733 0.026663
0.31285 -0.0046255002 0.052774999
0.25779 -0.0056754998 0.029604999
0.30326 0.0072824 0.047777999
0.30743 0.034256998 0.024762001
0.30713001 0.034566998 0.024460999
0.32242 0.073992997 0.081863001
0.22858 0.076881997 0.036366999
0.26440999 0.088402003 0.055369001
0.26416999 0.088812999 0.055488002
0.26192001 0.0015941 0.030960999
0.30866 0.022050999 0.034515999
0.30783999 0.023108 0.034118
0.21741 0.078210004 0.048243999
0.21748 0.079458997 0.048188999
0.31325999 0.017193001 0.029239001
0.2386 0.053151999 0.035526
0.2545 0.0013352 0.025911
0.32321 -0.032871 0.042089
0.29170001 0.040856998 0.054947
0.27608001 -0.051213998 0.014224
0.27511001 -0.050083 0.014596
0.27878001 0.047115002 0.049963001
0.27979001 0.047766 0.050331999
0.26921001 -0.0049001002 0.029224001
0.24213 0.063293003 0.029518001
0.30831999 0.039836001 0.03393
0.23644 0.061207999 0.034719002
0.23573001 0.060484 0.035257999
0.27689001 -0.053227 0.010696
0.29774001 0.087324001 0.026007
0.29817 0.087174997 0.024800999
0.26227999 -0.040038999 0.01199
0.31283 0.071129002 0.030087
0.31443 0.01032 0.046190001
0.24796 -0.053568002 0.025854001
0.28546 0.067998998 0.063493997
0.27722999 0.073528998 0.067428999
0.23887999 0.068901002 0.034531999
0.29556 0.047134001 0.056246001
0.30932999 0.068279997 0.11093
0.31018001 0.021902001 0.031330001
0.27359 0.071988001 0.070481002
0.28827 0.016342999 0.042047001
0.27257001 -0.013275 0.016027
0.264 -0.0039236001 0.030960999
0.31974 -0.013541 0.053364001
0.25378001 -0.0077089998 0.02667
0.31889001 0.078501001 0.092720002
0.26258999 0.075225003 0.056543998
0.26194 0.075645998 0.055948
0.32712999 -0.044822 0.043797001
0.32793999 -0.045575 0.042543001
0.31579 0.075167999 0.10307
0.31553999 0.075621001 0.10285
0.31004 0.040762998 0.028839
0.32076001 0.011639 0.034938999
0.27098 0.0060470002 0.031771999
0.29784 0.057599001 0.057307001
0.24413 0.046493001 0.029064
0.24318001 0.046289001 0.028003
0.26796001 0.065034002 0.072981998
0.31138 0.010988 0.047203999
0.22779 0.069279999 0.038775999
0.30932999 0.075060003 0.10369
0.21540999 0.067460999 0.044852
0.3274 0.058874 0.086149998
0.28586999 0.096066996 0.071718998
0.31025001 0.084283002 0.098029003
0.28773001 0.096928999 0.071832001
0.29322001 0.028666999 0.042835001
0.29198 0.085841 0.043341
0.29980999 -0.0025522001 0.042948
0.29995 -0.0023453999 0.044465002
0.26131001 -0.053149 0.020324999
0.27437001 -0.0076651 0.020847
0.31143999 0.081525996 0.095774002
0.28301001 0.065771997 0.066142
0.29829001 0.036763001 0.047520999
0.29936999 0.038120002 0.048041001
0.29863 0.037613999 0.047837999
0.32701001 -0.053714 0.062304001
0.31077999 -0.023644 0.047947999
0.33147001 0.063957997 0.076036997
0.33131 0.064574003 0.075355001
0.29897001 0.063311003 0.057427999
0.28126001 0.072403997 0.065109
0.27715999 0.078682996 0.063846
0.26177999 0.041882001 0.037631001
0.31512001 0.066725999 0.1077
0.31942999 0.010671 0.040222
0.31761 -0.0044274 0.052303001
0.27248001 -0.015967 0.015028
0.32402 -0.043877002 0.045713998
0.32437 -0.04366 0.044771999
0.32297 -0.043545 0.045664001
0.27790999 0.059889 0.066422999
0.25635001 0.003672 0.026684999
0.32262 0.0015171 0.039313
0.25419 -0.010298 0.025758
0.26289001 -0.01715 0.026296001
0.26372999 -0.01688 0.026334001
0.24429999 0.062895 0.022737
0.21487001 0.066964999 0.041974999
0.21473999 0.066946998 0.042996999
0.27384001 0.018637 0.035439
0.24289 0.058626998 0.031362001
0.24377 0.058858 0.031071
0.32569 -0.018352 0.038001001
0.32545 -0.017898001 0.037494998
0.29199001 0.046119999 0.057025999
0.30961999 -0.040093001 0.037556998
0.32501 -0.043699998 0.045017999
0.32600001 -0.044059999 0.044390999
0.32545999 -0.043701001 0.044066001
0.32172999 0.0050571002 0.042617999
0.31668001 0.014581 0.038674001
0.25681999 -0.029297 0.015881
0.25661999 -0.028587 0.016127
0.25784999 0.0083502997 0.025179001
0.22138 0.062325001 0.041143
0.22577 0.056809001 0.040103
0.30669999 0.041287001 0.042059999
0.26262 -0.045972999 0.024091
0.26242 -0.045497 0.023473
0.26238 -0.046778999 0.024382999
0.32021999 -0.0069689001 0.053364001
0.28828999 0.085523002 0.065234996
0.28904 0.085157 0.065048002
0.30632001 -0.032797001 0.038807001
0.30649999 0.040520001 0.040943
0.30691001 0.039781999 0.039767001
0.28349 0.093785003 0.070951998
0.28037 0.011691 0.040153999
0.28073999 0.011986 0.040538002
0.30625001 0.018542999 0.040686999
0.3251 -0.018146001 0.036398001
0.3249 -0.017098 0.036529999
0.31951001 -0.045281999 0.04961
0.31237 0.017751999 0.035900999
0.32234001 -0.039763998 0.041588999
0.32332999 -0.039905 0.040851001
0.29064 0.023099 0.043228999
0.29155999 0.024079001 0.043333001
0.23686001 0.070782997 0.027767999
0.23605999 0.070979998 0.027231
0.27794001 0.062061999 0.067624003
0.26684001 0.063763998 0.075571999
0.26604 0.018286999 0.027008001
0.26605999 0.01887 0.026308
0.31580001 -0.0021663001 0.052542999
0.31544 -0.001718 0.052708998
0.30307999 0.017659999 0.042576998
0.31799001 0.0099670999 0.043667998
0.31830999 0.0093892002 0.044845998
0.26772001 -0.013339 0.025312999
0.32552999 -0.02654 0.040817
0.27526 0.075854003 0.066637002
0.27869001 -0.049364999 0.011412
0.27867001 -0.048280001 0.011142
0.28485 0.068000004 0.064466
0.30579999 -0.018019 0.040901002
0.28343001 0.037074 0.051084001
0.31215999 0.082962997 0.099179998
0.31229001 0.083333001 0.098688997
0.25889 -0.026648 0.022266001
0.32361999 0.072876997 0.084991001
0.30287001 0.046245001 0.050919998
0.30394 0.046549998 0.050581999
0.30408999 0.047118001 0.051433001
0.31389001 -0.046471 0.050321002
0.27292001 -0.0055185002 0.025291
0.29944 -0.0017500001 0.042844001
0.26677001 -0.052801002 0.016526001
0.32444 -0.015454 0.039949
0.32277 -0.0046393001 0.044135999
0.2543 0.046135001 0.028476
0.25571001 0.045830999 0.027866
0.25536001 0.046457 0.02892
0.27924001 -0.051406998 0.010383
0.29570001 0.079207003 0.047662999
0.30715999 -0.021345001 0.046914
0.28031999 0.040516999 0.050533999
0.28415999 0.010487 0.040327001
0.29462999 0.036099002 0.049649999
0.29223001 0.028173 0.043182999
0.28715 0.033987999 0.048558
0.28780001 0.033808999 0.049011
0.29244 0.022004999 0.043234002
0.30379999 -0.0068402002 0.046098001
0.24240001 0.063739002 0.022565
0.24138001 0.063913003 0.023197999
0.24274001 0.063349999 0.023544
0.27845001 0.012917 0.036463998
0.29374 0.031761002 0.044633001
0.29335001 0.032478001 0.045338999
0.22657 0.066430002 0.040029999
0.26473001 0.065692 0.070868999
0.27089 0.016155001 0.033378001
0.25193 -0.0049370001 0.023421001
0.28127 0.093135998 0.068172
0.29736999 0.070857003 0.051968001
0.32576999 -0.02046 0.040534999
0.31036001 -0.01021 0.050608002
0.27309 -0.029681999 0.021666
0.27426001 -0.029743999 0.020551
0.30478001 -0.020408999 0.042597
0.22132 0.086505003 0.048124999
0.22138999 0.086194001 0.048829
0.24236999 0.062700003 0.028743999
0.30267999 0.079433002 0.038067002
0.25185001 0.056412 0.031241
0.30153 0.049979001 0.054577999
0.30976 0.041645002 0.033486001
0.27292001 0.055135999 0.067985997
0.25768 -0.014919 0.026900999
0.28057 -0.052239001 0.0061916001
0.28055 -0.052551001 0.0047267
0.25134999 -0.016984001 0.022248
0.25192001 -0.017504999 0.023345999
0.27612999 -0.034430001 0.01681
0.28189999 0.088105001 0.069328003
0.31000999 0.01437 0.043306001
0.31235 -0.023866 0.048659999
0.31235999 -0.022828 0.049095999
0.21935999 0.065750003 0.042477001
0.30785 0.027550001 0.027337
0.33149001 0.063484997 0.076862
0.26934001 0.062022001 0.077578999
0.26966 0.061760999 0.077776
0.23361 0.059852999 0.036219001
0.23362 0.060966998 0.036290001
0.32111999 0.075271003 0.096064001
0.32088 0.075709 0.096121997
0.26276001 0.048218001 0.042847998
0.27939001 4.9581999e-05 0.021664999
0.22779 0.065707996 0.039094999
0.31762001 -0.018836999 0.051635999
0.26565 -0.0054696002 0.030463001
0.30384001 -0.0055423998 0.047148
0.30351999 -0.0043732999 0.047442
0.28327999 0.048273999 0.053925999
0.30570999 -0.022626 0.044902999
0.30105001 0.083338998 0.034894001
0.26234001 -0.022926999 0.025402
0.23236001 0.049906 0.033243999
0.28518 0.024819 0.045145001
0.26817 0.035739001 0.042351
0.32027999 0.076247998 0.096447997
0.26219001 -0.044861 0.021609001
0.21893001 0.088105001 0.051047999
0.21811 0.087545998 0.050767999
0.32415 0.061399002 0.094007
0.30386001 0.040405001 0.046055
0.30011001 0.046268001 0.053553
0.30052999 0.047116 0.053344999
0.32198 0.074711002 0.096658997
0.32176 0.074864998 0.095146
0.27033001 0.072043002 0.065986998
0.26944 0.071578003 0.065381996
0.27914 0.061446998 0.064258002
0.29051 0.044098999 0.056256998
0.27961001 0.00019845999 0.020878
0.27969 -0.00060601998 0.019645
0.27261001 -0.013461 0.017705999
0.22996999 0.059955001 0.038006999
0.228 0.079065003 0.037517998
0.26649001 -0.053275999 0.019950001
0.30351999 0.021562999 0.0403
0.32194 -0.013754 0.049111001
0.26828 -0.0010556 0.031348001
0.30493 0.027647 0.035085
0.26473999 -0.042688001 0.016380999
0.26582 -0.04273 0.016624
0.32246 0.0034515001 0.03695
0.21501 0.067336999 0.044459999
0.21398 0.067520998 0.043848999
0.32624 0.065976001 0.088264003
0.31876001 0.069936 0.10361
0.25591999 0.0012352 0.027649
0.26995 -0.050377999 0.019096
0.25545001 -0.046891 0.017744999
0.31865999 -0.048572998 0.052919
0.27254 -0.012502 0.015379
0.23034 0.075704999 0.031351
0.22964001 0.075900003 0.030634999
0.23039 0.075962998 0.032083001
0.27645999 -0.034774002 0.015311
0.31081 0.074734002 0.10213
0.32326999 0.060265001 0.098715998
0.32273999 0.060277 0.099246003
0.32262999 0.053121001 0.083945997
0.32056001 -0.027985999 0.047777999
0.26363 -0.017661 0.025637001
0.21231 0.074920997 0.053125001
0.31668001 0.0079921996 0.047575001
0.27704999 0.014347 0.036564
0.27818 0.013633 0.036708999
0.32005 -0.035514999 0.044679001
0.24056 0.065024003 0.023566
0.2406 0.065173 0.024092
0.29262 0.049302001 0.057353999
0.29181999 0.048122998 0.05714
0.26475 0.047272999 0.044806998
0.28211001 0.011935 0.041039001
0.28018001 0.065541998 0.067492001
0.33083999 0.057638999 0.079067998
0.33017999 0.056908 0.078732997
0.29894 0.070772 0.051468998
0.31332999 -0.012639 0.052544001
0.27638 0.055032 0.058173999
0.31468001 0.0099889999 0.046580002
0.25617 -0.027667999 0.017398
0.26051 0.015461 0.017982
0.26100999 0.016054001 0.018353
0.27351001 0.087890998 0.040436
0.27429 0.088082999 0.039655998
0.26280999 -0.013927 0.027604001
0.32207 -0.052480999 0.053594001
0.27504 0.040047001 0.048094999
0.32962 -0.047106002 0.049943998
0.28986001 0.073221996 0.057581
0.29045001 0.073639996 0.056848001
0.24928001 0.058598999 0.031230001
0.31962001 0.077321 0.091361001
0.3197 0.076808996 0.090686001
0.31856999 0.076706998 0.090380996
0.27669001 0.015977001 0.036766
0.27676001 0.017339 0.037007999
0.25891 -0.0065779998 0.02987
0.27153 0.063781999 0.072508998
0.25036001 0.062893003 0.026481999
0.24972001 0.062757 0.026172001
0.25889 -0.019508 0.025915001
0.26036999 -0.018234 0.026209
0.259 -0.018619999 0.025937
0.22234 0.061879002 0.04166
0.32903001 0.062137999 0.085758001
0.29791 0.078763001 0.046397001
0.21804 0.079999998 0.047788002
0.28635001 0.043616999 0.055544998
0.30192 0.083590999 0.033185001
0.27878001 0.058841001 0.060548998
0.27836999 0.058874998 0.061677001
0.27821001 0.058224 0.061397001
0.26697001 0.065811001 0.071713999
0.26688001 0.066122003 0.071041003
0.22301 0.062146999 0.042146001
0.28551 0.041336 0.054510001
0.32449999 0.066752002 0.090111002
0.25582001 -0.046342 0.018079
0.32159001 0.073477998 0.098050997
0.21148001 0.069003999 0.044082001
0.21214999 0.068767004 0.045228999
0.21138 0.068968996 0.044921
0.25926 0.0070730001 0.028216001
0.27755001 -0.0019731 0.022523999
0.32460999 -0.046039999 0.050239
0.24552999 0.062463 0.023498001
0.26664999 -0.037147 0.016968001
0.2814 0.062927 0.064076997
0.27616999 0.062467001 0.071322002
0.25806999 0.087484002 0.057939
0.25777 0.088528998 0.057642002
0.26695001 -0.05333 0.019131999
0.26831999 -0.053511001 0.0196
0.30807999 0.067148998 0.10867
0.30497 0.025452999 0.036559999
0.30474001 0.026614999 0.036231
0.30393001 0.025551001 0.037326999
0.30248001 0.082479998 0.033879001
0.30818 0.0048924 0.051049002
0.31643999 -0.028485 0.048067
0.32453999 -0.016031999 0.042516001
0.28799 0.027691999 0.04459
0.31489 0.078166999 0.098453
0.30704999 0.077059999 0.033057999
0.31277999 -0.010066 0.052588001
0.31334001 -0.010048 0.05339
0.27360001 -0.052598 0.01017
0.27346 -0.052843001 0.0093510998
0.31277001 -0.052444 0.048480999
0.31325999 -0.053121001 0.049446002
0.31334999 -0.052400999 0.050306998
0.33008999 0.056701999 0.077417001
0.27917999 0.065563001 0.067713
0.32315001 0.073160999 0.088317998
0.32600999 -0.019524001 0.037280999
0.32633001 -0.020411 0.036841001
0.32605001 -0.020406 0.036283001
0.31312999 0.070894003 0.032473002
0.28094 0.049456 0.050785001
0.30941999 -0.0045491001 0.051950999
0.26923999 -0.046789002 0.018976999
0.2242 0.054285999 0.035183001
0.22429 0.053952999 0.034444999
0.26646 0.076825 0.061140999
0.2176 0.072315998 0.046535999
0.32754001 -0.044899002 0.047704998
0.27698001 -0.025885999 0.017259
0.28461 0.048648 0.054791
0.28049001 0.052724998 0.051316001
0.28055 0.052124999 0.050746001
0.33094999 0.058832001 0.080881998
0.30081999 0.033576999 0.041177999
0.28749999 0.083802 0.061521001
0.28751001 0.085116997 0.061361
0.28766999 0.083938003 0.061974999
0.30743 0.075796999 0.037586
0.3062 0.076802 0.037266001
0.26109001 0.082851999 0.052149002
0.31246999 0.073353 0.10616
0.26341 -0.043030001 0.015341
0.32159001 0.062898003 0.1025
0.3206 0.063150004 0.10358
0.32164001 0.06233 0.10297
0.2735 0.082612999 0.059074
0.21561 0.082266003 0.052253999
0.29466999 0.079852998 0.049081001
0.33076999 -0.047054999 0.046410002
0.33133999 -0.048154 0.046027999
0.25088 -0.015101 0.021859
0.25103 -0.013386 0.022116
0.25132 -0.013439 0.021008
0.28584999 0.014895 0.042610001
0.21683 0.075942002 0.048478
0.21636 0.075308003 0.048411999
0.27234 0.084422 0.049497999
0.27614 0.020925 0.039919998
0.27698001 0.047196001 0.047986999
0.26355001 0.079474002 0.053626001
0.26352999 0.079111002 0.053002998
0.2633 0.07846 0.052986
0.27880001 -0.047715001 0.010398
0.27099001 0.022949999 0.030507
0.21817 0.074611999 0.046975002
0.21715 0.075057 0.047538001
0.29146999 0.078221001 0.049516
0.28443 0.050687999 0.053158998
0.27590999 0.064684004 0.068751
0.27596 0.065507002 0.068723001
0.31123 -0.044890001 0.038683999
0.32480001 0.066623002 0.089270003
0.32473999 0.067321002 0.089119002
0.28235 0.056201998 0.053328998
0.29007 0.074942 0.055305999
0.26254001 0.068043001 0.064501002
0.26185 0.068884 0.064848997
0.29888999 0.082015999 0.037331998
0.29877001 -0.0013419 0.040477999
0.29896 -0.00061997998 0.041629001
0.23799001 0.050147999 0.031748001
0.32078001 0.0080997003 0.040940002
0.32099 0.0082425 0.032286
0.32087001 0.0095726 0.033070002
0.32108 0.0082433997 0.033287
0.22034 0.086002998 0.052747998
0.27246001 0.017391 0.034485999
0.32088 0.0086334003 0.039124999
0.25318 0.063491002 0.025498001
0.25404 0.063626997 0.026435999
0.25362 0.064067997 0.025659001
0.31683001 0.062988997 0.10702
0.31652001 0.062953003 0.10659
0.25584 -0.0020689 0.028573999
0.25470001 -0.0010126 0.027262
0.29639 0.0017062 0.037877999
0.29714 0.0011375 0.038569
0.25134 -0.015601 0.023611
0.29190999 0.075323999 0.052021999
0.32236001 0.073703997 0.084181003
0.31461999 0.072353996 0.10472
0.27473 -0.022623001 0.019498
0.30436 0.054141998 0.059025999
0.27954 0.042741001 0.050593998
0.27917001 0.043033 0.050097
0.32409999 0.062526003 0.095602997
0.30451 0.081463002 0.030221
0.29965001 0.051676001 0.055367999
0.22663 0.079360999 0.040677
0.32207 -0.0041981 0.046641
0.22801 0.063114002 0.039193999
0.31184 -0.011144 0.051424999
0.25926 0.059921 0.076640002
0.29567999 0.045116 0.055978
0.31863999 -0.041179001 0.043354999
0.29516 0.080945 0.044787001
0.32166001 0.068833999 0.10008
0.26232001 0.063056 0.075884998
0.27430999 0.082307003 0.059254002
0.32703999 0.054602001 0.077551
0.32714999 0.054544002 0.076461002
0.2622 0.042815998 0.040453002
0.26207 0.043551002 0.041225001
0.29089999 0.033870999 0.04944
0.25376999 -0.0092407996 0.025180999
0.31639999 0.053629 0.084919997
0.29764 0.025377 0.040954001
0.28622001 0.027543999 0.045506999
0.25975001 0.059861999 0.077239998
0.26873001 0.083416998 0.052127
0.26800999 0.083949 0.052375998
0.28040999 -0.04809 0.0075293998
0.28220999 0.090722002 0.070665002
0.3222 -0.020254999 0.048863001
0.25196999 -0.052549001 0.018828001
0.25181001 -0.051208001 0.018692
0.25275999 -0.051430002 0.017764
0.30926001 0.076456003 0.10636
0.32532999 -0.028542999 0.040872999
0.33318001 -0.052393001 0.052370001
0.25038001 0.054005999 0.031902999
0.32348999 0.071374997 0.092355996
0.26194999 0.084014997 0.054311
0.26227 0.077056997 0.052650001
0.25154001 -0.0031244 0.019856
0.27127999 0.038155001 0.046865001
0.28865999 0.0066891001 0.035755001
0.30287001 0.046487998 0.051456001
0.21800999 0.086681999 0.050453998
0.21765 0.086277001 0.050149001
0.28446001 0.025250999 0.045171
0.28332999 0.024687 0.044667002
0.26642001 -0.019432999 0.024458
0.26249 0.089818001 0.055955
0.32236999 -0.034061 0.04394
0.32273999 -0.034141999 0.042971998
0.2694 -0.029039999 0.023259001
0.31547999 0.072549 0.10448
0.31593001 0.072636001 0.10414
0.30526999 0.034616001 0.032949999
0.30563 0.034697998 0.032097999
0.26133001 0.071114004 0.062728003
0.28917 0.088697001 0.065279
0.27693 -0.025371 0.012153
0.27419001 0.075793996 0.066027999
0.26286 0.0026686999 0.031302001
0.26209 0.0024607 0.03091
0.221 0.088101 0.05223
0.32302001 -0.02345 0.047945999
0.32297 -0.022807 0.048092999
0.23232 0.053863 0.039221998
0.23108999 0.054076001 0.039094999
0.25722 -0.050239999 0.023665
0.25712001 -0.050363999 0.024529999
0.25758001 -0.049382001 0.024795
0.27495 -0.030045999 0.019543
0.3012 0.028406 0.037797999
0.26609999 0.082946002 0.054854002
0.27366999 0.0038697999 0.031254001
0.22633 0.063348003 0.039788999
0.26600999 -0.053282 0.018759999
0.26549 -0.053537998 0.01959
0.26506001 -0.053257 0.018406
0.25729999 -0.019580999 0.024917999
0.30511001 0.081910998 0.027226999
0.27414 0.063904002 0.070794001
0.30720001 -0.01035 0.046879001
0.30777001 -0.010909 0.047564998
0.30726001 -0.0098254001 0.047515001
0.28525999 0.025665 0.045162
0.30254999 0.083786003 0.031902999
0.30326 0.082893997 0.031622
0.23446999 0.066947997 0.035507001
0.25556001 0.063203 0.029197
0.31917 -0.040240999 0.043283001
0.31933001 -0.039724 0.043419
0.31310999 0.075456999 0.10038
0.26423001 0.038136002 0.038557
0.25121999 -0.013561 0.023699
0.25099 -0.013924 0.023029
0.21653999 0.065736003 0.038876999
0.29018 0.086058997 0.046503
0.28920999 0.086515002 0.046107002
0.28865001 0.086575001 0.047013
0.29403001 0.071032003 0.054492
0.27834001 -0.032400999 0.0091375001
0.24009 0.063158996 0.034488998
0.31424999 -0.044330999 0.042978
0.31404001 -0.044016 0.042321999
0.31013 0.015682001 0.041584998
0.26723999 0.021166001 0.026854999
0.27445999 0.0057839002 0.031337
0.26649001 -0.033178002 0.020479999
0.30766001 0.032117002 0.023763999
0.26538 -0.033059999 0.019719001
0.29023999 0.092178002 0.068461001
0.31400999 -0.052280001 0.051594
0.31358001 -0.051885001 0.051263999
0.26708001 0.075562999 0.062733002
0.30956 0.068058997 0.10764
0.31481999 0.053422 0.084188998
0.30858999 0.0081724003 0.049199998
0.30287001 0.083939001 0.028085001
0.28402999 0.018588001 0.043051999
0.27202001 0.038486999 0.046863001
0.31801 -0.0020971999 0.051635001
0.24590001 0.060430001 0.029114
0.30447999 0.031815 0.035312999
0.22842 0.065696999 0.038720999
0.32508001 0.068079002 0.092998996
0.26820001 -0.026225001 0.024181999
0.32578999 -0.047621999 0.050820999
0.31290001 -0.050034001 0.048395999
0.27801001 -0.029353 0.010078
0.30177 0.034306999 0.040132001
0.30153999 0.034451999 0.041320998
0.28428 0.081583999 0.062582999
0.30772001 0.040376998 0.037716001
0.2441 0.060901999 0.029196
0.30302 0.033544999 0.03813
0.27225 0.083350003 0.054871999
0.28773001 0.094148003 0.072081
0.31762001 -0.015202 0.052616999
0.29987001 0.023112999 0.04002
0.28112 0.046287 0.052696999
0.29392999 0.027659999 0.042654
0.29269001 0.027526001 0.042869002
0.31040001 0.020946 0.033541001
0.27875 0.059535 0.061725002
0.27133 -0.044029001 0.016174
0.27788001 0.001673 0.026241999
0.31747001 -0.0031933 0.052003
0.31826001 -0.0029996999 0.051589001
0.26905999 -0.023676001 0.024192
0.32345 0.073026001 0.089497998
0.31648001 -0.018362001 0.051908001
0.27774999 0.057433002 0.061248999
0.22333001 0.080182999 0.043363001
0.26148 -0.012438 0.028890001
0.29429001 0.072764002 0.052544001
0.29982999 0.042629998 0.051922001
0.28152001 0.075659998 0.064815998
0.27732 0.069204003 0.067864999
0.27719 0.068828002 0.068543002
0.26508999 0.085986003 0.055799998
0.26442 0.084893003 0.056855999
0.29747999 0.072691999 0.050340999
0.25992 -0.0014684 0.030462001
0.25690001 0.010359 0.017082
0.32034001 0.0045733 0.045513999
0.21562999 0.074845001 0.048491001
0.21607 0.073438004 0.047511
0.27421001 -0.020863 0.018209999
0.27388 -0.03067 0.020702999
0.29877001 0.042459 0.052781999
0.29932001 0.042323999 0.052264001
0.28073001 0.034584001 0.047031
0.31114 -0.045476999 0.038148001
0.27895999 0.017444 0.040775001
0.27074 -0.046762001 0.017650999
0.32589 -0.019328 0.038019001
0.32574999 -0.019238999 0.039361
0.32347 -0.026024001 0.044505998
0.32216999 0.00018817 0.045352001
0.28422001 0.034892 0.046911001
0.26833999 -0.011674 0.025901999
0.31690001 0.054175001 0.085809998
0.24982999 0.045357998 0.02696
0.31222999 0.075649999 0.093872003
0.2278 0.073519997 0.038653001
0.28836 0.043609999 0.056212001
0.31334001 0.051523 0.076498002
0.31420001 0.051252998 0.077471003
0.32861 0.070224002 0.081932999
0.30254999 0.048535001 0.053789999
0.29611999 0.083829999 0.039110001
0.25701001 -0.045782 0.013374
0.25674999 -0.045118999 0.012263
0.2165 0.072350003 0.047277998
0.32135999 -0.0021549 0.047022998
0.26196 0.048083 0.042096
0.26117 0.048259001 0.041177999
0.23298 0.050124999 0.034662999
0.28748 0.063321002 0.055385999
0.28650001 0.063221 0.055686001
0.22084001 0.087406002 0.054476999
0.22081999 0.088556997 0.054214001
0.32730001 -0.050306998 0.058603
0.32753 -0.051391002 0.057578001
0.32350999 0.052076001 0.078659996
0.27239001 -0.011125 0.021252001
0.28338 0.041324001 0.053587999
0.27796999 -0.044197999 0.0047052
0.26010999 0.086015999 0.057317998
0.26956999 -0.050287999 0.020212
0.31489 -0.025043 0.049499001
0.31389001 -0.025350999 0.049206998
0.25402999 -0.050301 0.017366
0.25404999 -0.049196001 0.018301999
0.25470999 -0.049681999 0.017438
0.27404001 0.030998999 0.043005001
0.25319999 0.0025295999 0.021849999
0.25362 0.0026442001 0.022692
0.23578 0.052689999 0.037161
0.31641999 -0.012204 0.054513
0.28321999 0.092073999 0.071323
0.27465999 -0.019199001 0.01588
0.33102 -0.048317 0.052804999
0.29541001 0.018603999 0.04259
0.24117 0.048411999 0.030230001
0.23985 0.048599001 0.029859001
0.23650999 0.050321002 0.032306999
0.27217001 0.049361002 0.047263
0.25935999 0.056400001 0.074812002
0.25893 0.057507999 0.074704997
0.29776999 0.035101 0.045143001
0.30665001 0.039221 0.038598001
0.31716001 -0.039574001 0.044121001
0.31621 -0.039742 0.043667998
0.24845999 -0.051359002 0.022950999
0.24918 -0.050062001 0.022843
0.24883001 -0.051155999 0.022442
0.2985 0.085142002 0.035266001
0.24334 0.046596002 0.028713999
0.28013 0.047279999 0.051452
0.28011999 0.046319 0.05204
0.27146 0.062881 0.074905001
0.30136001 0.040614001 0.048215002
0.25228 0.061425 0.029379999
0.25281999 0.06182 0.029317999
0.25176001 0.062024999 0.028496999
0.33067 -0.048043001 0.044160999
0.25813001 -0.011218 0.028565001
0.25711 -0.011873 0.027984001
0.30840001 0.026089 0.0288
0.26072001 -0.019475 0.025783001
0.25780001 -0.048884999 0.028987
0.25856 -0.049539998 0.028728999
0.25358999 -0.0010037 0.025784001
0.30774999 -0.025002999 0.046526
0.29111999 0.087150998 0.040807001
0.29189 0.087367997 0.039615002
0.32005 0.075108998 0.099521004
0.25523999 -0.024722001 0.018738
0.25479999 -0.023801999 0.018377
0.30544999 0.047906999 0.053661998
0.30548 0.048114002 0.054377001
0.3177 0.0092858002 0.045779001
0.31652999 0.010095 0.045161001
0.31707001 0.0096258996 0.045774002
0.29659 0.083587997 0.038968001
0.21379 0.082069002 0.051821001
0.27531001 0.044833001 0.048544999
0.29201001 0.0079463003 0.039081
0.29276001 0.0080030998 0.039301001
0.3132 0.018247999 0.032381002
0.31338 0.018309001 0.031849999
0.31123 0.073999003 0.10661
0.30486 0.028685 0.034954
0.24358 0.062766999 0.02585
0.28501001 0.092471004 0.072085001
0.32415 -0.015035 0.044865001
0.31198001 -0.015895 0.05046
0.26967999 0.064603999 0.071704999
0.26896 0.064874001 0.072373003
0.28805 0.034885 0.050671998
0.28141001 0.0040747998 0.028736999
0.25314999 -0.011439 0.025804
0.28918999 0.075585999 0.055305999
0.28973001 0.075414002 0.054668002
0.28933001 0.0063284999 0.033449002
0.32192001 0.064101003 0.10147
0.32075 0.064414002 0.10248
0.28731999 0.074882999 0.059115
0.29203999 0.035147998 0.049779002
0.30649 -0.023689 0.045912001
0.27827999 0.00083606999 0.025254
0.22012 0.075974002 0.045609001
0.26425001 0.066463999 0.066535003
0.26425001 0.066312 0.067611001
0.26456001 0.066735998 0.067106999
0.26197001 -0.04885 0.025958
0.27699 0.016208 0.037671998
0.30886999 0.075815 0.10734
0.30140999 -3.6572001e-05 0.047299001
0.26963001 0.030637 0.032086998
0.32475999 0.068870001 0.092854001
0.23280001 0.075172998 0.032761998
0.31856999 -0.0053745001 0.053776
0.31683001 0.013261 0.040100001
0.2207 0.065275997 0.041087002
0.27070001 0.026965 0.029592
0.26987001 0.084774002 0.038752999
0.26991001 0.083479002 0.039694
0.32594001 -0.021506 0.035668999
0.23786999 0.054014001 0.036292002
0.31235 0.080302998 0.098909996
0.32707 -0.049502999 0.057649001
0.31445 0.075598001 0.10454
0.32284999 -0.042622 0.043772999
0.25850001 0.00030188001 0.030214
0.25935999 0.00030911001 0.030370999
0.32218 0.075179003 0.09471
0.29571 0.082075998 0.042546
0.29603001 0.081242003 0.043069001
0.27684 -0.049192 0.013362
0.26063001 -0.027872 0.022899
0.25839001 -0.031156 0.01781
0.33074999 -0.046723001 0.047768999
0.27564999 0.022275999 0.037723999
0.32561001 -0.024983 0.040391002
0.32607999 -0.023902999 0.039868001
0.29126999 0.013569 0.041379999
0.24492 0.054175999 0.031637002
0.26163 0.01282 0.025735
0.30283999 0.038472001 0.044504002
0.21408001 0.079448 0.053537
0.29192001 0.088152997 0.035505999
0.28246999 0.073586002 0.064205997
0.28149 0.074276 0.064865999
0.28147 0.073757 0.06464
0.22177 0.069257997 0.041873999
0.27147001 -0.044815999 0.016917
0.28613001 0.096957996 0.069992997
0.28670001 0.096633002 0.071718998
0.31380999 0.082762003 0.097985998
0.30326 0.04676 0.050955001
0.28007999 0.0063879001 0.032349002
0.2737 -0.019347001 0.018274
0.29157999 0.056173999 0.054713
0.23836 0.069411002 0.032889999
0.26762 0.052299999 0.066584997
0.29534999 0.077384003 0.049481001
0.29505 0.076797999 0.049495999
0.26998001 0.017282 0.032635
0.30441999 -0.027864 0.039638001
0.32436001 -0.02038 0.044950999
0.32458001 -0.019269999 0.045061
0.29067001 0.013974 0.041377999
0.24736001 -0.051746 0.024394
0.27796999 -0.040966 0.0071736998
0.25452 0.0070294002 0.018756
0.25138 -0.013463 0.024411
0.25106999 -0.014803 0.024412001
0.30958 -0.033518001 0.044243999
0.30173001 0.0015699 0.047905002
0.30088001 0.0017359999 0.047026001
0.33043 -0.050659999 0.054797001
0.24011999 0.062293999 0.034529001
0.27028999 -0.039925002 0.016573001
0.29629999 0.079993002 0.045564
0.29776999 0.079355001 0.044782002
0.29688999 0.080266997 0.044592001
0.26704001 0.01856 0.028866
0.25095001 0.046886001 0.030851001
0.28733 0.075680003 0.058097001
0.26664999 -0.039328001 0.0155
0.28731 0.034511998 0.050342999
0.28759 0.034077998 0.049768999
0.27509999 0.056201 0.067919999
0.2755 0.056488998 0.067702003
0.26409 -0.023449 0.024755999
0.27761 0.037512999 0.046726
0.27520999 0.054072 0.065791003
0.28292999 0.006141 0.037043002
0.31468001 0.062628999 0.10625
0.25099999 -0.014814 0.023700999
0.31568 -0.0013086 0.052290998
0.26389 -0.0030012 0.031076999
0.28983 0.052692998 0.055987999
0.32312 -0.030432999 0.043489002
0.30721 0.077811003 0.032636002
0.32304001 -0.021674 0.048057999
0.32236999 -0.021746 0.048597999
0.27087 -0.053215999 0.015694
0.26995999 -0.053148001 0.015734
0.30638 0.037687 0.035912
0.32122999 -0.012487 0.052407999
0.27472001 -0.052134 0.014852
0.28011999 0.043832 0.051929999
0.29126999 0.033156998 0.046734001
0.29051 0.033225998 0.048209999
0.32775 0.055916 0.078964002
0.26370001 0.084817998 0.057523001
0.26354 0.085744999 0.057535999
0.23 0.073518999 0.037411001
0.22859 0.062445 0.038954999
0.22859 0.061229002 0.038952999
0.2888 0.064365 0.055032998
0.30673 -0.024862001 0.045715999
0.30598 -0.024522001 0.045178998
0.26808 0.054543 0.073291004
0.26563999 0.088218004 0.050953001
0.30250999 0.072476998 0.049426001
0.30340999 0.073381998 0.049516
0.26963001 0.080150999 0.059067
0.26886001 0.080298997 0.058557
0.31077 0.066156998 0.10971
0.23721001 0.061105002 0.034334999
0.25573 0.0034384001 0.02648
0.26969999 0.074638002 0.065178998
0.29484001 0.058713999 0.055999
0.29455 0.059962999 0.056209002
0.29358 0.059792001 0.055845
0.25595 -0.045922998 0.01286
0.3075 0.040440001 0.039043002
0.28119999 0.0074466001 0.036003001
0.31562001 0.055604 0.088743001
0.31603 0.055321999 0.087857999
0.30598 0.036010999 0.032182999
0.26739001 0.079590999 0.058864001
0.31031001 0.073638998 0.03658
0.31086001 -0.047756001 0.036396001
0.29945999 0.0265 0.039165001
0.25685 0.0071362001 0.024877001
0.26214999 0.0036615001 0.030869
0.32587001 0.071826003 0.078626998
0.32076001 0.063588999 0.10323
0.25863001 -0.048009999 0.026574001
0.27125001 0.083858997 0.0407
0.30497 0.02159 0.039916001
0.25977001 0.046381999 0.038252998
0.29956999 0.036761999 0.046983998
0.30061999 0.036812 0.046004999
0.25389999 -0.019374 0.023647999
0.26876 0.061491001 0.078436002
0.26899999 0.01395 0.031355001
0.31253001 0.071106002 0.025123
0.31266001 0.071373001 0.025915001
0.31314999 0.070083998 0.025882
0.26014999 0.059925001 0.077666998
0.25481999 -0.051220998 0.027369
0.32696 -0.044342998 0.042114001
0.32637 -0.04394 0.041738
0.32574999 -0.043313999 0.041956998
0.25856 0.0093413005 0.025198
0.22567999 0.066591002 0.040236998
0.30638999 0.039225001 0.039967
0.32372001 0.051256001 0.076269999
0.32440999 0.052030999 0.076164
0.30430999 0.080884002 0.031332001
0.27167001 -0.015834 0.019559
0.26122999 0.083353996 0.057411999
0.22896001 0.054200001 0.038708001
0.22827999 0.054685 0.038864002
0.25446001 0.096115999 0.053908002
0.28512001 0.071442001 0.063064002
0.25167999 0.047417 0.030638
0.32583001 -0.043924998 0.042934
0.30039001 0.014135 0.043873001
0.31889999 0.012665 0.039294001
0.30329999 0.032173999 0.037310001
0.31718999 0.0060514002 0.048407
0.31727001 0.0055105002 0.048847001
0.26367 0.010277 0.0297
0.26383999 0.01086 0.029309001
0.29286999 0.053946 0.055564001
0.29326999 0.053183001 0.055774
0.32525 0.062364001 0.089313999
0.32521999 0.063334003 0.089487001
0.2472 0.048388001 0.030853
0.24194001 0.062413 0.029503999
0.28172001 0.0074323998 0.037551999
0.32960999 0.069026001 0.077164002
0.29756999 0.086257003 0.034414999
0.27632999 -0.050205 0.013707
0.28323999 0.047439002 0.054086
