# .PCD v0.7 - Point Cloud Data file format
VERSION 0.7
FIELDS x y z
SIZE 4 4 4
TYPE F F F
COUNT 1 1 1
WIDTH 1524
HEIGHT 1
VIEWPOINT 0 0 0 1 0 0 0
POINTS 1524
DATA ascii
0.053959999 -0.0013986001 0.12418
0.053529002 -0.0035124 0.12560999
0.055025999 -0.00064807001 0.12522
0.070528999 0.0015327 0.15094
0.073439002 0.0021712 0.15243
0.071254 0.0018757 0.15343
0.070582002 0.0030455999 0.15225001
0.053089999 0.0038659 0.12726
0.080643997 0.011139 0.16785
0.082498997 0.017312 0.17012
0.082539998 0.017724 0.17039999
0.083858997 0.023256 0.17186999
0.083148003 0.025723999 0.1732
0.084499002 0.028039001 0.17302001
0.083782002 0.029307 0.17395
0.083725996 0.028413 0.17375
0.084781997 0.030960999 0.1727
0.086746 0.037795 0.17569
0.086974002 0.040185999 0.17676
0.087738 0.040695999 0.17842001
0.087263003 0.040603001 0.17692
0.090967 0.042435002 0.18403
0.090793997 0.043953001 0.18209
0.092366003 0.049826998 0.18572
0.092022002 0.050466001 0.18595
0.093892001 0.055317 0.18612
0.091732003 0.057383999 0.18736
0.093248002 0.068603002 0.18738
0.089818999 0.071381003 0.18549
0.093317002 0.073159002 0.1874
0.092124999 0.081501998 0.18589
0.086383 0.081208996 0.17713
0.086147003 0.082140997 0.1779
0.088818997 0.083673999 0.17862999
0.092758998 0.084013999 0.18593
0.086388998 0.084219001 0.17632
0.087436996 0.083972 0.17708001
0.093038 0.087053999 0.18765
0.090957001 0.085634999 0.18316001
0.092182003 0.087105997 0.18467
0.087350003 0.087912999 0.17787001
0.087630004 0.090800002 0.1788
0.091038004 0.090118997 0.18318
0.090448998 0.091358997 0.18367
0.093328997 0.091591001 0.18666001
0.088257 0.092448004 0.1785
0.087465003 0.091751002 0.17806999
0.092456996 0.093607001 0.18783
0.087784 0.096171997 0.17756
0.087462999 0.095861003 0.17654
0.086957999 0.095126003 0.17749999
0.091257997 0.095856003 0.18277
0.091691002 0.097268 0.18599001
0.085662 0.099956997 0.17783
0.094475999 0.097456001 0.18742999
0.093391001 0.10012 0.18816
0.085358001 0.097907998 0.17692
0.091700003 0.10154 0.18442
0.093153 0.10042 0.18562999
0.093708999 0.10107 0.18742999
0.086549997 0.10274 0.17609
0.093620002 0.10532 0.18871
0.091751002 0.10693 0.18483999
0.093378998 0.10612 0.18861
0.085996002 0.10473 0.17644
0.085621998 0.10794 0.17402001
0.091677003 0.10783 0.18404
0.092638001 0.10851 0.18776
0.084175996 0.10944 0.17506
0.092266999 0.1102 0.18627
0.085239999 0.11004 0.17468999
0.085496999 0.1126 0.17386
0.082134999 0.12819 0.17463
0.084261 0.12841 0.17249
0.083948001 0.13067 0.17091
0.081546001 0.13243 0.17020001
0.081473999 0.13027 0.16997001
0.07869 0.13247 0.16379
0.093043998 -0.038105 0.1859
0.092106998 -0.038851 0.18633001
0.093370996 -0.037528001 0.18806
0.087986998 -0.038403999 0.17978001
0.089295 -0.037439 0.17945001
0.093976997 -0.036249001 0.18737
0.092551999 -0.035220999 0.18630999
0.091048002 -0.034952998 0.18621001
0.093248002 -0.031358 0.18844999
0.094456002 -0.029296 0.18756001
0.087200999 -0.031061999 0.17984
0.093888 -0.018079 0.18558
0.092141002 -0.012565 0.18539999
0.069502003 -0.011982 0.1534
0.070046 -0.011797 0.15041
0.075280003 -0.010635 0.1594
0.092007004 -0.012587 0.18649
0.059385002 -0.011695 0.13653
0.091536999 -0.0095739001 0.18312
0.090088002 -0.0082555003 0.18302
0.089257002 -0.0085782995 0.18234999
0.067790002 -0.0071772002 0.14764
0.061565999 -0.0061267 0.1371
0.060943 -0.0064456002 0.13695
0.089111 -0.0062992 0.17914
0.087222002 -0.0059818001 0.18015
0.087103002 -0.0052419002 0.178
0.086557999 -0.0045547001 0.17660999
0.085805997 -0.0042595998 0.17569
0.053459 -0.0024423001 0.12576
0.057473999 0.00019165 0.13254
0.057018001 -0.00055857998 0.13211
0.05782 2.7386001e-05 0.13175
0.057523001 0.0015043 0.13289
0.058263 0.0020013 0.13349
0.058924001 0.00049029 0.13244
0.053506002 0.0028132999 0.12661
0.054591998 0.0044028 0.12757
0.054370001 0.0041188998 0.12905
0.078759 0.0080150999 0.16518
0.077289999 0.0072479998 0.16445
0.080528997 0.0089726998 0.16707
0.080227003 0.011128 0.16763
0.081459001 0.012783 0.16876
0.081263997 0.012602 0.16811
0.081202999 0.013711 0.16963001
0.081804998 0.013702 0.16934
0.082299002 0.015656 0.17050999
0.081064999 0.018866999 0.17084999
0.083210997 0.019316999 0.17196999
0.081961997 0.020755 0.17116
0.082639001 0.023491001 0.1718
0.083126999 0.023861 0.17121001
0.083705001 0.026921 0.17273
0.084954999 0.032221001 0.17459001
0.085037999 0.034401 0.17499
0.085998997 0.03627 0.1749
0.086448997 0.037825 0.17591999
0.090062 0.040596999 0.18054
0.088579997 0.040957998 0.17903
0.089809 0.040495001 0.18203001
0.090107001 0.041363001 0.18221
0.089516997 0.040072002 0.18054
0.088243 0.040819 0.18158001
0.090577997 0.042642999 0.18329
0.090770997 0.044613 0.18323
0.091204002 0.045256 0.18503
0.091348998 0.047014002 0.18584999
0.091165997 0.048078001 0.18627
0.091820002 0.048687998 0.18571
0.092161 0.054221999 0.18569
0.093011998 0.053755 0.18695
0.092377 0.058736999 0.1867
0.09183 0.058284 0.18681
0.093006 0.059579998 0.18681
0.092716001 0.061524 0.18604
0.092014998 0.062942997 0.18630999
0.092308 0.063157 0.1868
0.093318999 0.066170998 0.18696
0.092692003 0.067385003 0.18798
0.093346998 0.068968996 0.18696
0.091908999 0.071877003 0.18457
0.092910998 0.072904997 0.18449999
0.091737002 0.07553 0.18465
0.093223996 0.074064001 0.18706
0.093099996 0.075606003 0.18677001
0.091755003 0.076403998 0.18503
0.088202998 0.075839996 0.18001001
0.087764002 0.075088002 0.18156999
0.088249996 0.077629998 0.17907
0.091573998 0.077109002 0.18594
0.087027997 0.078106001 0.17848
0.087768003 0.078212 0.17955001
0.086227998 0.079363003 0.17783
0.092519999 0.079865001 0.18621001
0.093223996 0.080260001 0.18640999
0.093199 0.081115 0.18678001
0.092510998 0.083353996 0.18573999
0.090470001 0.084650002 0.18355
0.093102999 0.086900003 0.18720999
0.091738999 0.084266998 0.18720999
0.090214998 0.089435004 0.18408
0.093120001 0.089853004 0.18798999
0.087536998 0.093364 0.17838
0.090479001 0.093088001 0.1842
0.086378001 0.093970001 0.17803
0.087431997 0.094659999 0.17732
0.090980001 0.094903 0.18502
0.093255997 0.094750002 0.189
0.092160001 0.096533 0.18561999
0.091357999 0.095697001 0.1848
0.093572997 0.094893001 0.18551999
0.093832999 0.095450997 0.18746001
0.086568996 0.096442997 0.17697001
0.091381997 0.096031003 0.18594
0.092354 0.098959997 0.18453
0.092102997 0.099706002 0.18564001
0.086236998 0.099770002 0.17671999
0.091692001 0.10197 0.1857
0.092229001 0.10043 0.18724
0.093070999 0.104 0.18640999
0.092773996 0.10318 0.18595999
0.091906004 0.10538 0.18577
0.091812 0.10602 0.18532
0.069729 0.10448 0.1497
0.070210002 0.10442 0.15073
0.069144003 0.10456 0.14837
0.085726 0.10384 0.17595001
0.091512002 0.10949 0.18472999
0.093679003 0.10962 0.18715
0.092758998 0.11253 0.18697
0.084611997 0.11213 0.17507
0.085695997 0.11324 0.17544
0.085975997 0.11556 0.17550001
0.084836997 0.12287 0.17611
0.082652003 0.13079999 0.17027
0.080588996 0.13221 0.16771001
0.080618002 0.13275 0.16694
0.093254998 -0.037438001 0.18708
0.091652997 -0.018418999 0.18501
0.075188003 -0.01161 0.15915
0.074681997 -0.012295 0.15831999
0.068915002 -0.011865 0.15096
0.067014001 -0.0030238 0.14767
0.067487001 -0.0034908 0.14802
0.084732004 0.032246999 0.17535
0.086939 0.042089999 0.17825
0.092652 0.078405999 0.18624
0.091508999 0.082731001 0.18681
0.091213003 0.092735998 0.18435
0.093509004 0.091779999 0.18612
0.091651998 0.093396001 0.18571
0.090751 0.091592997 0.18487
0.090750001 0.093625002 0.18385001
0.092753001 0.093346998 0.1868
0.093034998 0.094714999 0.1881
0.092196003 0.097631998 0.18618999
0.092984997 0.10397 0.18729
0.083508998 0.10989 0.17466
0.085436001 0.11692 0.17529
0.085272998 0.12255 0.17685001
0.080365002 0.13154 0.16842
0.091486998 -0.038624998 0.18505999
0.087128997 -0.030185999 0.17900001
0.092256002 -0.016231 0.18578
0.093373999 -0.015421 0.18595
0.073213004 -0.011784 0.15493
0.077831 -0.011734 0.16408999
0.078984998 -0.012248 0.16364001
0.077381998 -0.01166 0.1617
0.090879001 -0.011686 0.18402
0.082759 -0.0043353001 0.17140999
0.082625002 -0.0067552002 0.17038999
0.082874998 -0.0062588002 0.17072
0.085835002 -0.0034640001 0.17723
0.056766 -0.00085204002 0.13039
0.052336998 0.00049619999 0.1266
0.057422001 0.00061008002 0.13117
0.086011 0.042539001 0.17868
0.089473002 0.044948 0.18375
0.090308003 0.047104999 0.18415
0.092532001 0.055973001 0.18653999
0.092336997 0.058777999 0.18589
0.092233002 0.060515001 0.18696
0.090111002 0.086392 0.18415999
0.093272999 0.092055 0.18866999
0.092524998 0.089946002 0.18795
0.086383 0.091981001 0.17873
0.092578001 0.097479001 0.18652999
0.085533001 0.10087 0.17682999
0.085800998 0.1008 0.17669
0.084259003 0.10608 0.1759
0.091504999 0.10979 0.18606
0.084569 0.1122 0.17474
0.085734002 0.1169 0.17564
0.085295998 0.11721 0.17603
0.084930003 0.12032 0.17576
0.082073003 0.12917 0.17273
0.080504999 0.13118 0.17125
0.087793998 -0.039701 0.18212999
0.088708997 -0.038844999 0.18437999
0.086988002 -0.037229002 0.18043999
0.090657003 -0.034336999 0.18844999
0.092125997 -0.035765 0.18715
0.091792002 -0.029638 0.18885
0.092961997 -0.02063 0.18894
0.073968999 -0.010878 0.15669
0.076121002 -0.011174 0.16271999
0.058511 -0.011135 0.13214999
0.085478999 -0.0044021001 0.17817
0.055312999 0.00051073998 0.13014001
0.056527 0.0021533 0.13224
0.080909997 0.014278 0.16946
0.080912001 0.015872 0.17202
0.082131997 0.02204 0.17192
0.084514 0.042305999 0.17679
0.089217998 0.074735999 0.18184
0.089667998 0.074381001 0.1821
0.091147996 0.077202998 0.18632001
0.084720999 0.088606998 0.17840999
0.092524 0.090401001 0.18587001
0.069601998 0.1023 0.15092
0.069280997 0.10463 0.15029
0.084665 0.10439 0.1754
0.091531999 0.10677 0.18664999
0.090579003 0.10777 0.18595999
0.084100999 0.11811 0.17687
0.084141999 0.11881 0.17523
0.084353 0.12617999 0.17423999
0.092004001 -0.036561999 0.18802001
0.091220997 -0.032310002 0.1874
0.092623003 -0.029479999 0.19011
0.092807002 -0.02698 0.19088
0.092652999 -0.024246 0.18954
0.092858002 -0.022741999 0.19063
0.091394998 -0.013203 0.18795
0.089169003 -0.011838 0.18579
0.068843998 -0.011954 0.15004
0.088724002 -0.0091773001 0.18393999
0.066266 -0.0050148 0.14865001
0.066281997 -0.005653 0.14734
0.083858997 -0.0044161002 0.17594001
0.054811001 -0.00084595999 0.12808
0.052319001 -0.00042945999 0.1257
0.052878998 0.00044547999 0.12691
0.056743 0.0024681001 0.13154
0.080020003 0.011497 0.16779
0.078906 0.011876 0.17046
0.079475001 0.014309 0.16911
0.081607997 0.015263 0.17072
0.081694998 0.021206999 0.17235
0.083851002 0.022606 0.17163999
0.082938999 0.023898 0.17274
0.083766997 0.027681001 0.17355999
0.083887003 0.032161999 0.17478
0.084564 0.033443 0.17462
0.083949998 0.039241001 0.17624
0.084252 0.037712 0.17606001
0.088088997 0.04132 0.17972
0.087335996 0.041042 0.18015
0.085265003 0.043168001 0.17821001
0.087571003 0.042622 0.17885999
0.087774999 0.042775001 0.18073
0.092469998 0.048216 0.18524
0.090393998 0.058134999 0.18735
0.091416001 0.060679998 0.18776999
0.090902999 0.062949002 0.18798
0.090631001 0.063800998 0.18788999
0.091553003 0.065493003 0.18777999
0.092096001 0.067152999 0.1881
0.091431998 0.069201 0.18837
0.088023998 0.075112998 0.18137001
0.087908998 0.075838 0.18173
0.090395004 0.076191999 0.18664999
0.087361 0.076355003 0.18098
0.090402 0.083837003 0.18577
0.084752999 0.083627 0.17632
0.085110001 0.083068997 0.17794
0.089722 0.086658001 0.18535
0.092180997 0.085289001 0.18761
0.092876002 0.089737996 0.18883
0.091867 0.090774 0.18726
0.093062997 0.092556 0.18771
0.092758998 0.091775998 0.18887
0.092625 0.095303997 0.18917
0.092715003 0.096483998 0.18855
0.086338997 0.099234 0.17789
0.085179001 0.10257 0.17527001
0.082889996 0.10582 0.17380001
0.084106997 0.10651 0.17324001
0.084864996 0.10828 0.17302001
0.091601998 0.10798 0.18589
0.091508001 0.10907 0.18844
0.084430002 0.12227 0.17693
0.084746003 0.12192 0.17605001
0.084005997 0.12559 0.17646
0.081785999 0.12943 0.17318
0.082186997 0.12919 0.17397
0.081067003 0.13229001 0.17023
0.088941999 -0.038828999 0.18204001
0.089904003 -0.039833002 0.18599001
0.090825997 -0.038329002 0.18866999
0.091435999 -0.037997998 0.18818
0.086612001 -0.036922 0.18069001
0.089818999 -0.034208 0.186
0.092111997 -0.030874999 0.18855
0.086723 -0.032196999 0.17873
0.085821003 -0.031055 0.18023001
0.092912003 -0.021544 0.18937001
0.091039002 -0.017364999 0.18684
0.090161003 -0.014989 0.18697
0.091734 -0.013925 0.18697
0.08997 -0.013184 0.18651
0.075516 -0.012528 0.16082001
0.066923 -0.011405 0.14789
0.078210004 -0.011877 0.16408999
0.078736 -0.011721 0.16538
0.089373 -0.010756 0.18485001
0.056729998 -0.010363 0.13142
0.067456998 -0.0117 0.15093
0.074902996 -0.012116 0.16216999
0.089782998 -0.010685 0.18422
0.088872999 -0.0097959004 0.18321
0.088573001 -0.0079209004 0.18279
0.087549999 -0.0071609998 0.18167999
0.059841 -0.0060711 0.13643
0.058848999 -0.0065008001 0.13763
0.059983999 -0.0062237 0.13819
0.087966003 -0.0059043998 0.17933001
0.086460002 -0.0053989999 0.18020999
0.083740003 -0.0050817998 0.17212
0.082515001 -0.0052131 0.17290001
0.087112002 -0.0044920999 0.17925
0.060336001 -0.0046783998 0.13982999
0.062442001 -0.00508 0.13841
0.060587998 -0.0028063001 0.13992
0.065234996 -0.0035657 0.14648999
0.084425002 -0.0046720998 0.17488
0.052103002 -0.00343 0.12687001
0.052049998 -0.0016613 0.12572999
0.052296001 -0.0013919 0.12843999
0.052140001 -0.00032496999 0.12548
0.053893998 -2.171e-06 0.12842999
0.053665001 -0.0011690001 0.12925
0.053784002 0.00082075002 0.13064
0.055401001 0.0019345999 0.13031
0.054947998 0.0023709 0.12997
0.054869998 0.0023340001 0.13106
0.052795999 0.0023149 0.12746
0.056157999 0.0038361 0.13226999
0.055977002 0.0025728 0.13321
0.056547999 0.0024540001 0.13344
0.057349999 0.0044702999 0.13474
0.053256001 0.003399 0.1275
0.059395 0.0030614999 0.1339
0.059271 0.0022366 0.13469
0.052510001 0.0050074002 0.12676001
0.054740999 0.0050717001 0.12879001
0.052673001 0.0041169999 0.12903
0.05627 0.0046783998 0.13124999
0.055842999 0.0048713 0.13001999
0.055566002 0.0053262999 0.13197
0.07767 0.0059868 0.16548
0.076655 0.0049263001 0.16512001
0.077647001 0.0054251999 0.16435
0.076563001 0.0064511001 0.16681001
0.078644 0.0078071002 0.16692001
0.076788001 0.0087780003 0.16745999
0.079627 0.0088617997 0.16753
0.079226002 0.0099130003 0.16813999
0.080265999 0.01417 0.16886
0.054577 0.017907999 0.12820999
0.054967001 0.016509 0.12813
0.055084001 0.016733 0.12903
0.082269996 0.019061999 0.17218
0.081757002 0.024010999 0.17422999
0.082153998 0.025811 0.17422
0.081528999 0.027543999 0.17441
0.083186999 0.028031999 0.17542
0.082726002 0.030079 0.17488
0.083778001 0.031161999 0.17504001
0.083549 0.034152001 0.17468999
0.083379 0.035845 0.17585
0.085119002 0.038957998 0.17831001
0.087442003 0.039117001 0.18206
0.088339001 0.040789001 0.18153
0.088807002 0.042798001 0.1831
0.085740998 0.042591002 0.17731
0.088913999 0.045304 0.18381
0.090078004 0.045455001 0.18523
0.088412002 0.047277 0.18505999
0.090634003 0.047933001 0.18461999
0.088427 0.047541998 0.18540999
0.090998001 0.050664 0.18689001
0.091751002 0.050671998 0.18606
0.091811001 0.053328998 0.18657
0.090728998 0.053743999 0.18634
0.089525998 0.055413999 0.18771
0.090999 0.056256998 0.18712001
0.091605999 0.060874999 0.18784
0.092877999 0.070706002 0.18671
0.092453003 0.072130002 0.18724
0.089913003 0.071809001 0.18619999
0.088560998 0.072159 0.18512
0.090135999 0.072956003 0.18318
0.089713998 0.071676999 0.18336999
0.090919003 0.072517 0.18674999
0.091388002 0.072998002 0.18791001
0.088607997 0.073055997 0.18102001
0.088440001 0.072311997 0.18375
0.090892002 0.074340999 0.18649
0.091165997 0.073535003 0.18872
0.087137997 0.076794997 0.18049
0.090386003 0.077630997 0.18728
0.086079001 0.077197999 0.17962
0.086217999 0.078529 0.17828
0.090150997 0.078176998 0.18796
0.084197998 0.079017997 0.17902
0.084812999 0.079722002 0.1778
0.091068 0.081550002 0.18856999
0.092331998 0.079625003 0.18803
0.087132998 0.082249001 0.17784999
0.084562004 0.082167 0.17688
0.090448 0.082818002 0.18582
0.091025002 0.083198003 0.18826
0.086597003 0.083862998 0.17802
0.087033004 0.084308997 0.17803
0.086630002 0.086220004 0.17955001
0.085257001 0.084461004 0.17866001
0.085515 0.085430004 0.17732
0.085157 0.085329004 0.17745
0.090138003 0.084407002 0.18537
0.086254999 0.087646 0.17936
0.086548001 0.086557999 0.17963
0.08969 0.086476997 0.18459
0.089741997 0.087465003 0.18437
0.086661004 0.089116 0.17867
0.089874998 0.088711001 0.18460999
0.092060998 0.086667001 0.18905
0.092968002 0.089575998 0.1895
0.089979 0.090920001 0.18452001
0.092377 0.088909999 0.18903001
0.090654001 0.090251997 0.18635
0.090094998 0.088058002 0.18606
0.085207 0.091023996 0.17916
0.090993002 0.091064997 0.18488
0.090322003 0.090364002 0.18520001
0.091302 0.091774002 0.18419001
0.085986003 0.092433996 0.17923
0.092776 0.094357997 0.18896
0.085437 0.092398003 0.17863999
0.090274997 0.094012998 0.18516999
0.092021003 0.093529999 0.1885
0.085885003 0.095530003 0.17836
0.093428001 0.095574997 0.18911999
0.092615999 0.095141001 0.18870001
0.086170003 0.095555 0.17834
0.091700003 0.095251001 0.18753
0.086099997 0.097809002 0.17744
0.091767997 0.096942998 0.18708
0.092978999 0.099290997 0.18773
0.093015999 0.098324999 0.18811999
0.086208999 0.097732998 0.17730001
0.084710002 0.099665001 0.17674001
0.093649 0.10134 0.18831
0.084035002 0.10119 0.17656
0.084210001 0.10257 0.17533
0.083084002 0.10326 0.17516001
0.086041003 0.10453 0.1741
0.083195001 0.10315 0.17382
0.082509004 0.10488 0.17366
0.069828004 0.104 0.15142
0.092468999 0.10486 0.18839
0.092322998 0.10548 0.18829
0.084129997 0.10539 0.17366
0.091647997 0.10585 0.18762
0.082695 0.10651 0.17387
0.091204002 0.10607 0.18686999
0.092837997 0.10649 0.18837
0.081816003 0.10753 0.17363
0.092481002 0.10798 0.1884
0.082479998 0.10909 0.17522
0.083162002 0.10921 0.17499
0.091839001 0.10874 0.18858001
0.092696004 0.10849 0.18647
0.083362997 0.11003 0.17479999
0.082282998 0.11237 0.17560001
0.083819002 0.11307 0.17476
0.082762003 0.11473 0.17615999
0.083688997 0.11566 0.17668
0.084206998 0.11459 0.17635
0.084880002 0.11661 0.17649999
0.084597997 0.12598 0.17478
0.078354001 0.13248 0.16869
0.077762999 0.13248 0.16741
0.078336 0.13328999 0.16519
0.077310003 0.13345 0.16513
0.087885998 -0.038371999 0.1813
0.091895998 -0.024514001 0.18951
0.090369999 -0.019805999 0.18723001
0.090823002 -0.018123001 0.18707
0.069077998 -0.010996 0.1521
0.071599998 -0.011456 0.15384001
0.070905998 -0.012467 0.15612
0.074761003 -0.011148 0.16265
0.067203 -0.01083 0.15047
0.058919001 -0.011429 0.13556001
0.058582 -0.0095105004 0.13651
0.066270001 -0.0092190001 0.14737999
0.065535001 -0.0078464998 0.14675
0.056288999 0.0032077001 0.13252001
0.058340002 0.0059189 0.13499001
0.056359001 0.0058861999 0.13212
0.055544 0.0063562999 0.13121
0.080642998 0.018118 0.17122
0.087575004 0.044233002 0.18389
0.090065002 0.050480001 0.18566
0.090667002 0.05074 0.18557
0.089708999 0.052193001 0.18621001
0.091176003 0.060401998 0.18688001
0.090476997 0.075712003 0.18908
0.091848999 0.077790998 0.18805
0.092996001 0.084293 0.18846001
0.092349 0.088858001 0.18855999
0.085130997 0.097129002 0.17621
0.085041001 0.10223 0.17455
0.084386997 0.10031 0.17488
0.083976001 0.10193 0.17428
0.080427997 0.10392 0.17130999
0.081648 0.10534 0.17135
0.080681004 0.10601 0.17265999
0.091829002 0.10779 0.18833999
0.084213004 0.12075 0.17663001
0.084311001 0.12382 0.1763
0.083544001 0.12785999 0.17595001
0.082122996 0.12826 0.17429
0.078105003 0.13298 0.16606
0.090098999 -0.039657999 0.18761
0.087301001 -0.038233001 0.18325999
0.092473999 -0.039558999 0.18881001
0.091433004 -0.031399999 0.18869001
0.092479996 -0.030512 0.18876
0.085382 -0.029153001 0.17877001
0.080433004 -0.029971 0.17509
0.082093999 -0.030623 0.17256001
0.080565996 -0.030424999 0.17438
0.092983 -0.027162001 0.18904001
0.089809999 -0.015737001 0.18618999
0.090185001 -0.014416 0.18684
0.073150001 -0.011514 0.16043
0.065871 -0.011418 0.14905
0.081969999 -0.0047086999 0.17402001
0.084287003 -0.0037986999 0.1768
0.05424 0.0023959 0.12961
0.054800998 0.0036691001 0.13045999
0.053916998 0.0047928998 0.13059001
0.056591 0.0063303998 0.13289
0.057429999 0.0068080998 0.13258
0.081518002 0.01232 0.17181
0.080550998 0.012633 0.17075001
0.081708997 0.013302 0.17197999
0.081701003 0.014254 0.17296
0.082474001 0.012473 0.17217
0.081064001 0.016148999 0.17194
0.082080998 0.014603 0.17281
0.081169002 0.017733 0.17293
0.081785001 0.01743 0.17321999
0.081564002 0.017766001 0.17282
0.081662998 0.017988 0.1725
0.081560999 0.021072 0.17336001
0.082363002 0.028026 0.17478999
0.083981998 0.033098999 0.17554
0.085727997 0.040954001 0.18189999
0.085481003 0.041531999 0.18072
0.090535 0.053939 0.18489
0.091741003 0.066737004 0.18719
0.090259999 0.068975002 0.18765
0.091326997 0.070381999 0.18745001
0.090121001 0.070819996 0.18663
0.091417998 0.085331999 0.18963
0.085826002 0.087191999 0.17665
0.084142998 0.087651998 0.17681
0.089683004 0.088317998 0.18521
0.084925003 0.096579999 0.17739999
0.084257998 0.099069998 0.17565
0.083719 0.10058 0.175
0.083058998 0.10153 0.17376
0.082290001 0.10181 0.17256001
0.085685 -0.036421001 0.18175
0.086727001 -0.032458998 0.17989001
0.091145001 -0.021011 0.18985
0.090053998 -0.019793 0.18794
0.069559999 -0.011188 0.15332
0.072158001 -0.012122 0.15849
0.075326003 -0.0121 0.16339999
0.077192001 -0.012158 0.16462
0.076669998 -0.01175 0.16452
0.079821996 0.011495 0.17068
0.081423998 0.010638 0.17201
0.080884002 0.013807 0.17109001
0.082999997 0.016003 0.17495
0.082465 0.016044 0.17439
0.083715998 0.016772 0.17403001
0.082584001 0.018201999 0.17562
0.081729002 0.019567 0.17327
0.084177002 0.029402001 0.17645
0.083672002 0.027373999 0.1761
0.083044998 0.031975999 0.17653
0.089198001 0.058352001 0.18790001
0.090180002 0.066798002 0.18773
0.085505001 0.077444002 0.17872
0.090092003 0.079951003 0.18663
0.090622 0.081225 0.18646
0.090922996 0.088335 0.18763
0.084472999 0.097984001 0.17629001
0.081574999 0.097346999 0.17535999
0.082597002 0.09939 0.17406
0.081763998 0.097570002 0.17382
0.082888 0.099471003 0.1735
0.076079004 0.13260999 0.16653
0.090035997 -0.039177001 0.18855
0.089483999 -0.039884999 0.18775
0.093268 -0.022831 0.19025999
0.073256999 -0.010886 0.15981001
0.084600002 -0.0051656999 0.17719001
0.076761998 0.0082753003 0.16697
0.078584999 0.0090902001 0.16850001
0.081873998 0.0098371003 0.17302001
0.081591003 0.012745 0.17346001
0.082390003 0.022258 0.17358001
0.082796998 0.027767999 0.17560001
0.084115997 0.035953999 0.17752001
0.088091999 0.04668 0.18419001
0.088136002 0.071359001 0.18524
0.088884003 0.073092997 0.18717
0.089302003 0.075946003 0.18765
0.085986003 0.080660999 0.1787
0.083278 0.079331003 0.17788
0.090061001 0.080254003 0.18731
0.083926998 0.085519001 0.17772999
0.091261998 0.087609999 0.18739
0.083708003 0.088958003 0.17583001
0.083894998 0.089005999 0.17794
0.084619999 0.089703001 0.17579
0.083756 0.094981 0.17734
0.083324 0.093975998 0.17749
0.082617998 0.096205004 0.17648999
0.084491998 0.096726 0.17649999
0.081771001 0.10161 0.17294
0.080275998 0.10098 0.17116
0.080055997 0.10299 0.17114
0.082116999 0.11416 0.17563
0.084032997 0.11719 0.17576
0.082984 0.12177 0.17577
0.080880001 0.12711 0.17478999
0.085166 -0.038268 0.18233
0.091954999 -0.03771 0.1903
0.089498997 -0.034991998 0.18821
0.088312998 -0.034354001 0.18819
0.084413998 -0.030087 0.18041
0.091191001 -0.018904001 0.18761
0.089056998 -0.017779 0.18742
0.090158001 -0.016665 0.18693
0.089624003 -0.011761 0.18813001
0.069605999 -0.010922 0.15474001
0.069315001 -0.011856 0.15566
0.071396999 -0.011779 0.15889999
0.063658997 -0.010291 0.1477
0.064891003 -0.0099497996 0.14729001
0.065738 -0.0097546 0.14794999
0.087344997 -0.0075639999 0.18232
0.085372999 -0.0060139 0.18079001
0.081272997 -0.0054854001 0.17490999
0.064568996 -0.0050284001 0.14737999
0.080959 -0.005936 0.17696001
0.051070001 -0.00030595 0.12597001
0.052444998 -0.0014566 0.12783
0.050021999 -0.00021807 0.12721001
0.051352002 0.00011375 0.12871
0.053783 0.00030975 0.12921999
0.052154999 0.0024399001 0.12814
0.052678 0.0025954 0.12988
0.074568003 0.0021909999 0.16343001
0.075668998 0.0025781 0.16133
0.074724004 0.0026231001 0.16274001
0.051203001 0.0038671 0.12864
0.052731998 0.0027584 0.12948
0.076944001 0.0044992999 0.1674
0.078330003 0.0085554002 0.16817001
0.078397997 0.0090749003 0.16858
0.079700001 0.0087034004 0.17094
0.080530003 0.010509 0.17061
0.079878002 0.010674 0.16965
0.081519 0.014086 0.17325
0.081524 0.013644 0.17542
0.082598999 0.018776 0.17467999
0.081226997 0.020874999 0.17491999
0.082131997 0.021475 0.17443
0.081587002 0.023435 0.17475
0.083286002 0.026097 0.17566
0.081352003 0.025322 0.17511
0.084879003 0.028763 0.17868
0.083393 0.029966 0.17714
0.084287003 0.02954 0.17893
0.084243998 0.030691 0.1769
0.083724998 0.030649999 0.17877001
0.084020004 0.031964 0.17603999
0.084141001 0.032749999 0.17817999
0.083397001 0.032342002 0.17779
0.084316999 0.034986999 0.17677
0.084223002 0.034924999 0.17735
0.083612002 0.037424002 0.17827
0.085692003 0.038073 0.17888001
0.086907998 0.038486999 0.18098
0.086194001 0.038646001 0.18076
0.085299999 0.038031999 0.18108
0.085969001 0.040587001 0.18081
0.086346 0.041191999 0.18370999
0.085924 0.041963998 0.17862999
0.086919002 0.043148 0.18411
0.085955001 0.041611001 0.18296
0.086406 0.045793999 0.18364
0.087788999 0.047414001 0.18407001
0.088151 0.048215002 0.18556
0.089400001 0.048818 0.18536
0.088567004 0.049417 0.18546
0.087630004 0.050149001 0.18632001
0.089057997 0.052074 0.18555
0.089202002 0.055029999 0.18722001
0.088836998 0.056263 0.18817
0.090412997 0.057344999 0.18787
0.089955002 0.057829998 0.18774
0.090028003 0.063942 0.18814
0.089322999 0.063562997 0.18869001
0.089945003 0.067437001 0.18673
0.090265997 0.068552002 0.18672
0.090327002 0.069930002 0.18698999
0.087486997 0.070543997 0.18537
0.090023004 0.072916999 0.18827
0.086539 0.074389003 0.18336999
0.090456001 0.075259998 0.18993001
0.085087001 0.077768996 0.18018
0.085565999 0.075218998 0.18165
0.090042002 0.076947004 0.18846001
0.090898998 0.076518998 0.18979999
0.088928998 0.076930001 0.18966
0.090034999 0.080091 0.19013
0.089672998 0.080525003 0.18785
0.090797998 0.082772002 0.18875
0.091417998 0.085249998 0.18780001
0.084360003 0.088895001 0.17799
0.083786003 0.088742003 0.17656
0.081605002 0.088395998 0.17742001
0.089599997 0.087135002 0.18697
0.083310001 0.090283997 0.17747
0.083555996 0.089579999 0.17795999
0.084680997 0.090074003 0.18031999
0.083454996 0.09341 0.17777
0.082423002 0.094486997 0.17803
0.081626996 0.099224001 0.17367999
0.079302996 0.10156 0.17223001
0.080852002 0.10496 0.17234001
0.079968996 0.1077 0.17343999
0.081712998 0.10905 0.17422999
0.081555001 0.10995 0.17419
0.082010001 0.11359 0.17494
0.083067 0.11942 0.17668
0.075851999 0.13191 0.16799
0.085369997 -0.038554002 0.18173
0.091187999 -0.036377002 0.18942
0.089295998 -0.032623 0.18798999
0.090374999 -0.033041 0.18802001
0.090953 -0.031426001 0.18987
0.079672001 -0.029596001 0.17423999
0.079268999 -0.029039999 0.17539001
0.091173001 -0.028364999 0.19112
0.091969997 -0.023778999 0.19152001
0.090695001 -0.022624001 0.19035
0.087236002 -0.017302999 0.18702
0.088350996 -0.018652 0.18712001
0.090604998 -0.013283 0.18935999
0.089925997 -0.012054 0.18790001
0.074403003 -0.012243 0.16320001
0.063436002 -0.010589 0.14906
0.073903002 -0.011418 0.16179
0.087683998 -0.0093862005 0.18582
0.087500997 -0.010844 0.18595999
0.064053997 -0.0096127 0.14833
0.064962 -0.0061057 0.14933001
0.085805997 -0.0069380999 0.18133
0.084415004 -0.0051993998 0.17987999
0.058077 -0.0040440001 0.13940001
0.065135002 -0.00263 0.14794999
0.051058002 -0.0025694999 0.12691
0.073661998 0.0025496001 0.16214
0.072500996 0.0020126 0.16039
0.073150001 0.0014425 0.16105001
0.052372999 0.0039475998 0.12919
0.077333003 0.0065449001 0.1671
0.077191003 0.0059809 0.16932
0.080357999 0.0098302998 0.17274
0.077523001 0.010115 0.17137
0.081868999 0.016496999 0.17519
0.082558997 0.018637 0.1752
0.081986003 0.019841 0.17455
0.081069 0.023770001 0.17594001
0.081867002 0.025211999 0.17658
0.083991997 0.027375 0.17653
0.083950996 0.028269 0.17612
0.083186001 0.027573001 0.17834
0.083195999 0.03176 0.17884
0.084337004 0.034839001 0.17896
0.084863 0.035470001 0.17928
0.085814998 0.037757002 0.17834
0.086214997 0.037863001 0.17993
0.084798001 0.039809 0.17904
0.083471 0.040683001 0.1777
0.085819997 0.040394001 0.17732
0.085634999 0.040148001 0.18052
0.085225001 0.041377999 0.18113001
0.086528003 0.039418001 0.18077999
0.086381003 0.039701998 0.18175
0.087517999 0.044140998 0.18233
0.090213999 0.052207001 0.18726
0.090443 0.059891999 0.18819
0.090971 0.060458001 0.18776
0.091613002 0.062151998 0.18824001
0.089654997 0.065603003 0.18780001
0.088260002 0.071102001 0.1851
0.086682998 0.071897998 0.18358999
0.089382999 0.071364 0.18638
0.089235 0.073771998 0.18739
0.089432001 0.078492001 0.18775
0.089841999 0.078538999 0.18866999
0.089899004 0.082460001 0.18771
0.090544999 0.082355 0.18786
0.090337999 0.084509 0.18528999
0.089137003 0.085523002 0.18707
0.091601998 0.085538 0.18776999
0.082359001 0.086216003 0.17833
0.089111 0.087646998 0.18637
0.091577001 0.087741002 0.18978
0.082185 0.088196002 0.17704999
0.084968999 0.089752004 0.17891
0.083521001 0.091355003 0.17856
0.084112003 0.092307001 0.17784999
0.081698 0.095454998 0.17444
0.080819003 0.10034 0.17248
0.080219999 0.10045 0.17225
0.080853999 0.10159 0.17084999
0.080256 0.10436 0.17318
0.079723001 0.10491 0.17247
0.079814002 0.10637 0.1728
0.081263997 0.10833 0.17415
0.083042003 0.11013 0.17532
0.082695998 0.11075 0.17617001
0.083154 0.12508 0.17625999
0.081721999 0.12569 0.17676
0.081699997 0.12744001 0.17463
0.080302998 0.12812001 0.17411999
0.079332002 0.1294 0.17215
0.077780001 0.13259999 0.16962001
0.078952 0.13214 0.17183
0.076516002 0.13296001 0.16418
0.086965002 -0.039841 0.18402
0.085790999 -0.039168999 0.18482
0.081854001 -0.029943001 0.17917
0.081716001 -0.03049 0.17936
0.081505999 -0.030104 0.18062
0.089901999 -0.029881001 0.18923999
0.090033002 -0.025862001 0.19025999
0.078290999 -0.011598 0.16727
0.076389998 -0.012129 0.16760001
0.067997001 -0.011056 0.15356
0.06803 -0.012136 0.15274
0.075586997 -0.01098 0.16576999
0.075499997 -0.010895 0.16677
0.088385999 -0.011544 0.18707
0.088076003 -0.012057 0.18724
0.066453002 -0.011658 0.15121
0.066881999 -0.011592 0.15226001
0.088225 -0.0076985001 0.18508001
0.085913002 -0.0065747998 0.18308
0.064534999 -0.0060761999 0.14861
0.084132001 -0.005103 0.18055999
0.064796999 -0.0062549999 0.14846
0.064369999 -0.0036943001 0.14941999
0.058534 -0.0037531999 0.13954
0.058671001 -0.0036198001 0.14023
0.058239002 -0.0030356001 0.14002
0.059165001 -0.0027238999 0.1401
0.060380999 -0.0016755 0.14075001
0.052402999 -0.0024035999 0.12692
0.051291 -0.00073878001 0.12806
0.060286 -0.0011949 0.14158
0.051975001 0.00065668998 0.12909
0.052414 0.0020415999 0.12935001
0.074254997 0.0025335001 0.16069999
0.052600998 0.0050392998 0.12766001
0.052012 0.0046898001 0.12857001
0.075791001 0.0049566999 0.16597
0.056786001 0.0088056996 0.13744999
0.055737998 0.0053669 0.13563
0.057656001 0.0067542 0.13744
0.078152001 0.0072621 0.16993
0.078957997 0.0092912 0.17204
0.078750998 0.010069 0.17083
0.080188997 0.010643 0.17275
0.080702998 0.011166 0.17290001
0.082652003 0.016008001 0.17524999
0.082171001 0.019675 0.17436001
0.081463002 0.021622 0.17536999
0.081679001 0.023607999 0.17509
0.082721002 0.027635001 0.17716999
0.083378002 0.031743001 0.17899001
0.083503999 0.029983001 0.17839
0.085068002 0.035597999 0.17986
0.086534999 0.044413999 0.18351001
0.089934997 0.057004001 0.1875
0.089354001 0.059128001 0.18793
0.089019001 0.060022999 0.18728
0.089714997 0.061618999 0.18821
0.089382999 0.063750997 0.18713
0.090269998 0.071065001 0.18704
0.089408003 0.071013004 0.18957999
0.087164998 0.072572 0.18367
0.084714003 0.073619001 0.18224999
0.085692003 0.076095998 0.18279999
0.085134998 0.077183001 0.18137001
0.083277002 0.076485001 0.17915
0.085049003 0.078699999 0.17865001
0.083535001 0.081598997 0.17867
0.082093999 0.081692003 0.17872
0.084013999 0.082842 0.17836
0.089250997 0.084080003 0.18708
0.090301998 0.085845999 0.18682
0.082198001 0.087453 0.17761
0.082924001 0.090613 0.17891
0.080944002 0.097341999 0.17464
0.079801001 0.097547002 0.17323001
0.080035001 0.099088997 0.17182
0.080150001 0.1025 0.17182
0.081410997 0.11005 0.17546999
0.082318 0.11635 0.17677
0.081665002 0.11881 0.17776
0.083047003 0.11988 0.17725
0.082057998 0.12372 0.177
0.079181001 0.13154 0.1716
0.076820999 0.13247 0.16766
0.088262998 -0.039661001 0.18508001
0.089114003 -0.040468998 0.1866
0.090898 -0.024576999 0.19021
0.090024002 -0.014967 0.18731999
0.078438997 -0.011623 0.16875
0.077106997 -0.011229 0.16875
0.069101997 -0.011485 0.15761
0.068254001 -0.010749 0.1549
0.070395999 -0.011007 0.15774
0.071152002 -0.011191 0.15887
0.073175997 -0.011289 0.16411
0.065568998 -0.0090432996 0.14755
0.063564003 -0.0077362 0.14749999
0.084051996 -0.0057863998 0.18099999
0.063496001 -0.0024349999 0.14771999
0.071539998 0.0014615 0.1601
0.075065002 0.0027103 0.16514
0.075444996 0.0036466001 0.16445
0.076153003 0.0033334999 0.16603
0.080008 0.010885 0.17062999
0.080068 0.012313 0.17229
0.080202997 0.014084 0.17292
0.078785002 0.014434 0.17309999
0.079046004 0.015861999 0.1735
0.081344001 0.015465 0.17329
0.080449 0.016881 0.17343999
0.081364997 0.01546 0.17498
0.082382001 0.033365 0.1786
0.087458 0.048397999 0.18465
0.089253001 0.051266 0.18616
0.083114997 0.079348996 0.17906
0.088386998 0.083462998 0.18790001
0.080372997 0.12977999 0.17333999
0.076168001 0.1329 0.16788
0.088923 -0.036988001 0.18882
0.088574 -0.036159001 0.18872
0.085767001 -0.035744999 0.18185
0.085635997 -0.031362001 0.18080001
0.085832 -0.032931 0.18096
0.091159999 -0.027702 0.18909
0.090922996 -0.026167 0.19133
0.090833001 -0.020151 0.1891
0.090168998 -0.01833 0.19013999
0.088656999 -0.014498 0.18815
0.073490001 -0.010575 0.1609
0.072807997 -0.011679 0.16218001
0.065164 -0.010731 0.14978001
0.068870001 -0.012316 0.15638
0.071258999 -0.010883 0.15970001
0.050643999 -0.0010189 0.12789001
0.075214997 0.002077 0.16624001
0.080236003 0.0057402002 0.17047
0.078487001 0.0056934999 0.16938999
0.078771003 0.0064285998 0.17009
0.078460999 0.0048213 0.17005
0.079273 0.015343 0.17197999
0.079485998 0.016496999 0.17281
0.079756998 0.017701 0.17215
0.081035003 0.017322 0.17231999
0.081619002 0.018098 0.17354999
0.087090001 0.044668999 0.18356
0.088743001 0.065521002 0.18647
0.088519 0.064024001 0.18796
0.089020997 0.067363001 0.18638
0.080796003 0.090921 0.17576
0.081171997 0.091236003 0.17526001
0.081812002 0.092761002 0.17732
0.077013001 0.098751001 0.17110001
0.079101004 0.10065 0.17048
0.079020999 0.10222 0.17102
0.082193002 0.11849 0.17721
0.081795 0.11878 0.17805
0.081765004 0.12016 0.17767
0.081283003 0.12244 0.17847
0.084238999 0.12195 0.17712
0.080875002 0.1283 0.17427
0.085515 -0.038187999 0.18306001
0.088999003 -0.018703001 0.18792
0.087645002 -0.018733 0.18880001
0.071032003 -0.01157 0.16316999
0.062808 -0.0046068002 0.14714999
0.063704997 -0.0016521 0.14861999
0.071207002 0.0011254 0.16129
0.074910998 0.0038145001 0.16700999
0.076465003 0.0046660998 0.16812
0.078515001 0.0067602 0.17106
0.078152001 0.0080623003 0.17140999
0.079952002 0.018665999 0.17366999
0.081175998 0.025263 0.17685001
0.084964998 0.036731999 0.17959
0.085676998 0.047591999 0.18325999
0.087229997 0.049008001 0.18528999
0.088399 0.068820998 0.18657
0.087810002 0.071235999 0.18844
0.084913 0.076206997 0.18289
0.082353003 0.081207 0.17831001
0.080987997 0.090161003 0.17613
0.082075998 0.091356002 0.17648999
0.083196998 0.090585001 0.178
0.083192997 0.091118 0.17734
0.081378996 0.094815999 0.17490999
0.079677999 0.097863004 0.17453
0.079383001 0.099717997 0.17339
0.081358001 0.10972 0.17487
0.080440998 0.10988 0.17541
0.081348002 0.11533 0.17591999
0.082142003 0.11988 0.17645
0.078394003 0.12925 0.17418
0.079884999 0.12912001 0.17485
0.078961998 0.12982 0.17338
0.089137003 -0.040888999 0.18671
0.088087 -0.040518001 0.18822999
0.089212999 -0.039338998 0.18923
0.086173996 -0.040548999 0.18605
0.086291 -0.040068001 0.18492
0.084616996 -0.039117999 0.18299
0.088312998 -0.035271 0.18875
0.090295002 -0.028444 0.19114
0.089355998 -0.014189 0.18851
0.068347998 -0.010962 0.15729
0.087374002 -0.011385 0.18731
0.087869003 -0.011412 0.18756001
0.062748998 -0.0029762001 0.14816
0.05858 -0.00068956002 0.14255001
0.061491001 -2.0850999e-05 0.14327
0.059599999 -0.0011396999 0.14188001
0.072136998 0.0014178 0.16415
0.075089999 0.0014126 0.16437
0.050767999 0.0025885999 0.1278
0.076819003 0.0048258998 0.1679
0.078299999 0.0059543001 0.17183
0.077454001 0.010877 0.17118999
0.078212999 0.012616 0.17162
0.077688001 0.017135 0.17057
0.077506997 0.016936 0.17268001
0.078877002 0.019367 0.17361
0.079961002 0.021539001 0.17432
0.080326997 0.020655001 0.17535999
0.080333002 0.02293 0.1759
0.083195001 0.03118 0.17887001
0.082943 0.032219 0.1787
0.086534001 0.049008001 0.18516999
0.088601001 0.051461998 0.18718
0.087508999 0.053461 0.18629999
0.087938003 0.061386999 0.18633001
0.089132003 0.064143002 0.18551999
0.087986 0.065817997 0.18619999
0.087782003 0.070276998 0.18787
0.086667001 0.071267001 0.18526
0.089455001 0.072779 0.18874
0.087017 0.071893997 0.18471
0.086994 0.071349002 0.18402
0.083802998 0.076338999 0.18113001
0.082391001 0.083368003 0.17826
0.081370004 0.084320001 0.17809001
0.080594003 0.088170998 0.17566
0.063931003 0.092389002 0.14748999
0.063968003 0.092119999 0.14824
0.064285003 0.093082003 0.14930999
0.079386003 0.095902003 0.17409
0.078083999 0.10162 0.17225
0.078243002 0.10244 0.17196
0.077315003 0.10148 0.17186999
0.081292003 0.11502 0.17679
0.078121997 0.13155 0.17069
0.087352999 -0.040249001 0.18652999
0.090037003 -0.038403999 0.19009
0.083695002 -0.035439 0.18182001
0.089656003 -0.032859001 0.18835001
0.089121997 -0.031171 0.18877
0.089772001 -0.029487999 0.19078
0.082437001 -0.02984 0.17888001
0.085196003 -0.030044001 0.1795
0.090636 -0.025199 0.19175
0.090235002 -0.024261 0.19103999
0.090779997 -0.022304 0.19117001
0.090135999 -0.021407999 0.19017
0.087853 -0.014798 0.19016001
0.074440002 -0.011851 0.16709
0.075204 -0.012441 0.16625001
0.076311 -0.011354 0.16959
0.086135998 -0.012156 0.18564001
0.063536003 -0.011233 0.14872
0.067322999 -0.012916 0.15582
0.067429997 -0.011613 0.15651
0.071667001 -0.011728 0.16415
0.055690002 -0.0087444996 0.13609
0.055679001 -0.011118 0.13537
0.054136001 -0.011699 0.13583
0.086755998 -0.0092554996 0.18625
0.086159997 -0.0073612002 0.18456
0.063004002 -0.0067022 0.14803
0.062236998 -0.0079960003 0.14745
0.084214002 -0.0073493998 0.18277
0.085578002 -0.0066275001 0.18269999
0.083641998 -0.0059366999 0.18105
0.056526002 -0.0058101998 0.13986
0.056414999 -0.0063458001 0.13782001
0.055925999 -0.0071923998 0.13727
0.081077002 -0.0057371999 0.17595001
0.079954997 -0.0062567 0.17594001
0.084156998 -0.0049100001 0.18100999
0.080468997 -0.0063812998 0.17811
0.080727004 -0.0049840999 0.17659
0.058572002 -0.0060246 0.13781001
0.083371997 -0.0053631999 0.18036
0.082102999 -0.0048294002 0.17881
0.056961 -0.0042083999 0.1391
0.057558998 -0.0044307001 0.13992999
0.058371 -0.0030133999 0.14223
0.057725001 -0.0024114 0.1415
0.071690999 0.00027485 0.16215999
0.069826998 0.0016396 0.16124
0.070973001 0.0013014 0.16146
0.074527003 0.0027459001 0.16662
0.074040003 0.0025762001 0.1671
0.075533003 0.0025148001 0.16788
0.076664999 0.0036539999 0.16897
0.075685002 0.0048198001 0.16947
0.065393001 0.0044523999 0.15423
0.066519 0.0042042001 0.15446
0.067038 0.0037642999 0.15499
0.066570997 0.0034596999 0.1538
0.067285001 0.0036645001 0.15543
0.077252999 0.0051600002 0.16864
0.078014001 0.0064893998 0.17087001
0.078161001 0.0061871 0.17110001
0.077381 0.0069647999 0.17181
0.055971 0.0073760999 0.13767999
0.078598998 0.0082318997 0.17154001
0.056106001 0.0081588002 0.13801
0.077243999 0.0073989001 0.17135
0.078156002 0.0099218003 0.1718
0.077339001 0.01062 0.17155001
0.077949002 0.013864 0.17066
0.077748001 0.015331 0.17094
0.078400999 0.020985 0.17219
0.080563001 0.019576 0.17515001
0.080839999 0.020561 0.17553
0.079455003 0.021267001 0.17339
0.079401001 0.021184999 0.17527001
0.080348998 0.022283999 0.17415
0.079472996 0.022267999 0.1759
0.078674003 0.021542 0.17335001
0.081166998 0.024187 0.17718001
0.081248 0.027046001 0.17806999
0.079389997 0.024189999 0.1767
0.081425004 0.028664 0.17761999
0.081358001 0.030258 0.17797001
0.082506999 0.030436 0.17862
0.083063997 0.033716001 0.18014
0.083135001 0.031452 0.17900001
0.082932003 0.035643999 0.18008
0.083669998 0.036603998 0.18055999
0.083384 0.037836 0.18091001
0.084812999 0.038607001 0.18190999
0.085354 0.039205 0.18155999
0.084959 0.040073 0.18229
0.08371 0.042078 0.18096
0.084514998 0.044061001 0.18329
0.0854 0.045175999 0.18265
0.084593996 0.047164999 0.18295
0.085013002 0.048199002 0.1837
0.087393999 0.049150001 0.18498001
0.086768001 0.049183 0.18434
0.087494001 0.049667001 0.18694
0.088104002 0.049130999 0.18629
0.088597998 0.053165998 0.18852
0.088875003 0.054336 0.18742999
0.088868 0.054763999 0.18821999
0.088482998 0.057663999 0.18853
0.087993003 0.057714999 0.18867999
0.088936001 0.058855999 0.18662
0.088733003 0.059172999 0.18728
0.087693997 0.058674999 0.1856
0.086622 0.059870999 0.18535
0.088288002 0.060752999 0.18681
0.085924 0.060679 0.18592
0.087660998 0.062505998 0.18581
0.087644003 0.060901001 0.18613
0.088275 0.060807001 0.18746001
0.086499996 0.061772 0.18682
0.087334998 0.063115001 0.18656
0.088198997 0.068180002 0.18711001
0.086631998 0.067873001 0.18701001
0.087407 0.069472 0.18722001
0.087765999 0.069481999 0.18497001
0.087840997 0.069317997 0.18783
0.085827999 0.069936998 0.18492
0.088950999 0.070465997 0.18743999
0.085516997 0.072953999 0.18409
0.088431001 0.072463997 0.18802001
0.091032997 0.073596999 0.18948001
0.085630998 0.074267998 0.18382999
0.089327998 0.074798003 0.18944
0.084439002 0.075076997 0.18377
0.088767 0.075276002 0.1882
0.088753 0.076247998 0.18825001
0.090008996 0.075714998 0.18886
0.083856001 0.075446002 0.18092
0.084615 0.075332001 0.18249001
0.083109997 0.078139998 0.18002
0.089763999 0.076980002 0.18875
0.089818999 0.079291999 0.18901999
0.081873998 0.084238 0.17801
0.080283001 0.086686999 0.1759
0.081077002 0.090777002 0.17569
0.079921998 0.090311997 0.1751
0.080926999 0.090469003 0.17742001
0.081983 0.091580003 0.17686
0.081933998 0.089876004 0.17812
0.079669997 0.091810003 0.17470001
0.080906004 0.092343003 0.17546
0.080835998 0.092240997 0.17629001
0.079882003 0.093487002 0.17612
0.081589997 0.093138002 0.17707001
0.081101999 0.094690003 0.17636
0.078551002 0.09646 0.17447001
0.079520002 0.097413003 0.17245001
0.077969998 0.097534999 0.17125
0.077082999 0.098304003 0.17114
0.077276997 0.099473998 0.17099001
0.077791996 0.10006 0.17195
0.079591997 0.10366 0.17203
0.078171998 0.10762 0.17332999
0.078498997 0.10693 0.17274
0.080176003 0.10826 0.17423999
0.078626998 0.10902 0.17453
0.079305999 0.1093 0.17447001
0.079584002 0.10874 0.17409
0.081150003 0.1111 0.17576
0.081306003 0.1105 0.17581999
0.08123 0.11303 0.17711
0.080756001 0.11439 0.17667
0.081352003 0.11688 0.17769
0.082075998 0.12485 0.17614
0.081115998 0.12372 0.17759
0.079331003 0.12679 0.17772
0.079254001 0.12842 0.17625999
0.078767002 0.13118 0.17282
0.073179998 0.13275 0.16418
0.072893001 0.13172001 0.16292
0.073036 0.13234 0.16332
0.083820999 -0.037248999 0.18253
0.088321 -0.035831999 0.18775
0.089128003 -0.032237999 0.18889999
0.083784997 -0.029952999 0.18005
0.080545999 -0.029967999 0.17614999
0.089360997 -0.019376 0.18919
0.068847001 -0.011631 0.15598001
0.077079996 -0.012204 0.17144001
0.064037003 -0.011349 0.15003
0.062877998 -0.012012 0.14979
0.065941997 -0.012336 0.15282001
0.054290999 -0.0099954996 0.13608
0.084937997 -0.0065914001 0.18272001
0.085651003 -0.0077666999 0.18268999
0.055775002 -0.0056416001 0.13806
0.069215998 9.8028999e-05 0.15554
0.067936003 -0.00012369 0.15759
0.067975998 0.0020399 0.15589
0.072944 0.0016822 0.16423
0.066656999 0.0046362998 0.15363
0.055939 0.0064683999 0.13765
0.05641 0.0055407002 0.13743
0.077954002 0.0054464 0.17007001
0.062102001 0.01035 0.14776
0.062027 0.0084117996 0.14791
0.064153001 0.0075623002 0.14878
0.063468002 0.0097244 0.14937
0.077985004 0.016720001 0.17158
0.080264002 0.023630001 0.17468999
0.088081002 0.054265 0.18686
0.082139 0.078253001 0.17895
0.081042998 0.093758002 0.17567
0.079851002 0.094902001 0.17544
0.079412997 0.11235 0.17444
0.081501998 0.12116 0.17704999
0.068723999 0.12419 0.15783
0.069222003 0.12237 0.15643001
0.06904 0.12242 0.15832999
0.080201998 0.12688001 0.17576
0.072503999 0.13151 0.16156
0.072806999 0.13240001 0.16351999
0.075084999 0.13196 0.16579001
0.076399997 0.13279 0.16832
0.088128 -0.040502001 0.18738
0.085790999 -0.038743 0.18373001
0.088673003 -0.035427 0.18967
0.083751 -0.033712 0.18080001
0.084250003 -0.032944001 0.18151
0.082641996 -0.030344 0.18163
0.089334004 -0.024303 0.19153
0.067202002 -0.011523 0.15394001
0.071416996 -0.011987 0.15889999
0.071754999 -0.011281 0.1613
0.073856004 -0.011799 0.16512001
0.087008998 -0.011633 0.18495999
0.064953998 -0.011215 0.15102001
0.069398001 -0.011663 0.15922
0.062868997 -0.009575 0.14891
0.061051 -0.00069949997 0.14703
0.060787 -0.0014107 0.14806999
0.070363 0.00074026 0.15612
0.064163998 0.0084239999 0.1512
0.062259998 0.0099761002 0.14748999
0.062790997 0.011479 0.14755
0.063198 0.010881 0.15051
0.062671997 0.012415 0.14747
0.061648998 0.012105 0.1478
0.077145003 0.017994 0.17161
0.083851002 0.040589001 0.18155
0.086957 0.052085999 0.18627
0.061179001 0.086723998 0.14827999
0.063945003 0.086387999 0.14691
0.063897997 0.084183 0.14779
0.080535002 0.084719002 0.17828999
0.063024998 0.085938998 0.14623
0.062036 0.087228999 0.14778
0.071381003 0.13149001 0.1626
0.076134004 0.13304 0.17077
0.075503998 0.13334 0.16590001
0.074818999 0.13233 0.16626
0.074010998 0.13327 0.16756999
0.085625999 -0.039972998 0.18893
0.087131001 -0.039632998 0.18739
0.086598001 -0.041223001 0.18861
0.087379001 -0.033394001 0.18797
0.087338001 -0.034205999 0.18817
0.086026996 -0.016489999 0.18761
0.076108001 -0.011929 0.16896001
0.068511002 -0.010886 0.15627
0.068911001 -0.01089 0.16068
0.072718002 -0.011531 0.16632
0.072061002 -0.010606 0.16474999
0.085571997 -0.0073851999 0.18421
0.062070999 -0.002695 0.14827
0.060833 0.0011735 0.1464
0.061291002 -0.0014804 0.1463
0.072402999 0.0010004001 0.16575
0.056295 0.0080925003 0.13787
0.055723999 0.0096127996 0.13879
0.076393001 0.012391 0.17032
0.061797999 0.013137 0.14731
0.076865003 0.020327 0.17242999
0.078179002 0.021052999 0.17309999
0.080009997 0.025459001 0.176
0.077760004 0.025314 0.17522
0.079102002 0.025527 0.17635
0.081537001 0.031104 0.17822
0.081662998 0.031753998 0.17891
0.081298001 0.033273 0.17902
0.082652003 0.034708999 0.18128
0.085294001 0.044484001 0.18308
0.084390998 0.048893999 0.18445
0.087098002 0.052916002 0.18717
0.08653 0.058155 0.18509001
0.085919999 0.056942001 0.18537
0.085966997 0.056441002 0.18611
0.087352999 0.057062 0.18753
0.085677996 0.065302998 0.18705
0.086295001 0.069155 0.18718
0.084927 0.072021998 0.18415
0.082544997 0.077303998 0.17829999
0.061310001 0.084397003 0.14766
0.079893999 0.087719999 0.17701
0.080303997 0.091554001 0.17496
0.064320996 0.094803996 0.1525
0.064816996 0.09279 0.15276
0.077767 0.096423998 0.17354
0.079465002 0.11239 0.17636
0.080849998 0.12554 0.17778
0.074979998 0.13226999 0.16685
0.089065999 -0.040591002 0.18890999
0.083527997 -0.037498999 0.1837
0.087645002 -0.028698999 0.19237
0.066730998 -0.011354 0.15349001
0.059000999 0.00027923999 0.14452
0.059397001 -1.0474e-06 0.14526001
0.068807997 0.0012068 0.1591
0.069220997 0.00028929999 0.15893
0.076456003 0.0063077998 0.16933
0.074997 0.0067334999 0.16722
0.077285998 0.0071413 0.17076001
0.076815002 0.011573 0.17015
0.076006003 0.013708 0.17148
0.075669996 0.020492001 0.17238
0.078020997 0.022039 0.1725
0.079015002 0.024235001 0.17501999
0.079715997 0.026109001 0.17594001
0.079565004 0.026652999 0.17577
0.079751 0.027575999 0.17596
0.078759 0.028089 0.17611
0.079368003 0.028620001 0.17715
0.081423 0.034557998 0.17887001
0.083201997 0.040584002 0.18064
0.084980004 0.044578999 0.18279999
