# .PCD v0.7 - Point Cloud Data file format
VERSION 0.7
FIELDS x y z
SIZE 4 4 4
TYPE F F F
COUNT 1 1 1
WIDTH 1488
HEIGHT 1
VIEWPOINT 0 0 0 1 0 0 0
POINTS 1488
DATA ascii
0.088561997 0.049483001 -0.0022988
0.085978001 0.048204001 -0.0019044999
0.086530998 0.048478998 -0.00098301005
0.092353001 0.042247999 -0.016612001
0.11406 0.093673997 -0.042323001
0.11417 0.092808999 -0.04002
0.11501 0.094387002 -0.041638002
0.12616999 0.062729001 -0.051862001
0.12650999 0.061140999 -0.051368002
0.12479 0.063157998 -0.050595999
0.10955 0.10231 -0.021964001
0.10873 0.10004 -0.020095
0.10822 0.10132 -0.021601999
0.1045 0.039326999 -0.021484001
0.10604 0.03954 -0.022057001
0.1049 0.040332001 -0.019424999
0.091346003 0.056540001 0.00050895999
0.091325998 0.056855001 0.00084126001
0.091468997 0.054995 0.00048981002
0.12179 0.053091001 -0.01343
0.1196 0.052804999 -0.012886
0.12059 0.052772999 -0.013244
0.10493 0.075732 -0.014587
0.10629 0.075415999 -0.014409
0.10581 0.077471003 -0.014682
0.073964 0.064994998 0.02627
0.072919004 0.064880997 0.024677999
0.074492 0.066472001 0.026261
0.10602 0.10919 -0.012683
0.10365 0.10992 -0.012416
0.10546 0.11235 -0.012998
0.041257001 0.056060001 0.067369998
0.042675 0.054223999 0.068429001
0.043288 0.056021001 0.069095999
0.051564999 0.069948003 0.055791002
0.052158002 0.070531003 0.055757001
0.052042 0.069342002 0.055481002
0.040029 0.11304 0.097158
0.039933998 0.11325 0.097236998
0.040426999 0.11255 0.095397003
0.070192002 0.061894 0.030369001
0.045717999 0.039919 0.026177
0.046735998 0.037981998 0.025462
0.044744 0.037804 0.027481999
0.079420999 0.066021003 0.023127999
0.077878997 0.067201003 0.024940999
0.040957998 0.11735 0.1009
0.040603001 0.1169 0.10071
0.040603001 0.11686 0.099684
0.034318 0.037308998 0.019399
0.034773 0.033987001 0.020579999
0.10118 0.050259002 0.0018192
0.10122 0.049353 0.00065707997
0.11445 0.050997 -0.0087382998
0.11655 0.051453002 -0.0088817002
0.11611 0.049835 -0.0065011
0.040766001 0.10092 0.089616001
0.071198002 0.037983 0.083001003
0.069517002 0.038191002 0.081702001
0.1132 0.11404 -0.033560999
0.11337 0.11534 -0.033050001
0.11314 0.11409 -0.034019999
0.11162 0.076063 -0.026724
0.11025 0.074639998 -0.025522999
0.11087 0.075266004 -0.026524
0.051105 0.058235001 0.037551999
0.050246999 0.058334 0.036970001
0.10306 0.064932004 0.0033912
0.10259 0.064230002 0.0025167
0.1031 0.062417999 0.0019276
0.13432001 0.11423 -0.051291
0.13499001 0.11388 -0.051316999
0.13474999 0.1132 -0.052035
0.11113 0.093156002 -0.027045
0.11034 0.092528 -0.025876001
0.11098 0.094241999 -0.027605001
0.093258001 0.043136999 -0.015384
0.092803001 0.042413998 -0.017253
0.092761002 0.042739 -0.016421
0.11106 0.074189 -0.026458999
0.12634 0.072687 -0.05384
0.12517001 0.073618002 -0.055043001
0.12554 0.073995002 -0.053867001
0.11315 0.046466999 7.9309e-05
0.11428 0.045591999 0.0012152001
0.11346 0.046135999 0.00070318999
0.15321 0.036536001 0.0032412999
0.15167999 0.036010999 0.003609
0.047203001 0.065846004 0.069605999
0.048425999 0.066430002 0.067514002
0.046868 0.066517003 0.067993
0.034141 0.035858002 0.020465
0.031020001 0.035982002 0.019497
0.030443 0.036803 0.022089999
0.13353001 0.1173 -0.025734
0.13349999 0.11623 -0.026751
0.13448 0.11747 -0.026037
0.052971002 0.067093 0.035811
0.12576 0.046953 -0.0021208001
0.12624 0.048376001 -0.0019021
0.12554 0.048964001 -0.0028512999
0.038594998 0.038029 0.022272
0.036633 0.039372001 0.02018
0.10492 0.056394 -0.0056536002
0.1064 0.057725001 -0.0043313
0.10436 0.057184 -0.0052280999
0.083980002 0.073655002 0.020052001
0.086970001 0.073662996 0.020529
0.086989 0.075177997 0.020307999
0.049219999 0.087229997 0.086666003
0.050250001 0.087968998 0.086735003
0.049228001 0.088381 0.086245
0.073413 0.087948002 0.037485
0.073296003 0.088647 0.035222001
0.071788996 0.087860003 0.035530999
0.10412 0.084326997 0.024057001
0.10343 0.084918 0.024025001
0.10252 0.087086 0.023722
0.04535 0.080986999 0.081577003
0.046099 0.080693997 0.081355996
0.047513999 0.081157997 0.081666
0.081781 0.043931 0.066202998
0.080334 0.045051999 0.066694997
0.081432998 0.043519001 0.067321002
0.11866 0.071547002 -0.054412
0.11933 0.073647 -0.052386999
0.11805 0.074587002 -0.052953001
0.11053 0.11178 -0.019571999
0.10959 0.11069 -0.020400001
0.10771 0.11058 -0.018929999
0.11547 0.057782002 -0.018437
0.11472 0.057666998 -0.015936
0.11663 0.056906998 -0.01863
0.068248004 0.054490998 0.035689
0.067456998 0.054627001 0.036285002
0.065828003 0.054134998 0.035418
0.039928999 0.10445 0.10271
0.039182 0.10409 0.10228
0.040304001 0.10423 0.10356
0.085267998 0.041312002 0.055546001
0.086906001 0.042428002 0.0581
0.086981997 0.043411002 0.055282999
0.051348999 0.069023997 0.05435
0.051284 0.068801999 0.053178001
0.12129 0.10621 -0.055815
0.12112 0.10578 -0.053684998
0.12205 0.10418 -0.054081
0.083939999 0.047940999 0.00099183002
0.084206 0.045967001 0.0020947999
0.084298998 0.048098002 0.0015636
0.068511002 0.073257998 0.024577999
0.069020003 0.073404998 0.02593
0.069996998 0.072903998 0.024417
0.060702998 0.083876997 0.044631001
0.064822003 0.084968999 0.043666001
0.061066002 0.084636003 0.043887001
0.11094 0.069738999 -0.020008
0.1112 0.069006003 -0.021302
0.11004 0.068916999 -0.02094
0.10809 0.092527002 -0.020269001
0.11049 0.092928998 -0.020683
0.10923 0.095417999 -0.020353001
0.038454998 0.090198003 0.096764997
0.036596999 0.088601001 0.095207997
0.038454998 0.090158001 0.095631003
0.086341999 0.091080002 0.033668
0.086309999 0.091672003 0.034159001
0.087131999 0.092233002 0.034288999
0.043536 0.087151997 0.083117999
0.043862 0.089615002 0.080766
0.045485999 0.089152999 0.081850998
0.074082002 0.080421999 0.025836
0.072760001 0.078900002 0.02386
0.16738001 0.041979 -0.00039920001
0.16761 0.039833002 -0.00098609005
0.16522001 0.041088998 -0.00025223999
0.10646 0.085784003 -0.023978001
0.11122 0.059822001 -0.016663
0.1099 0.060800001 -0.016698999
0.1107 0.060706999 -0.016148999
0.12728 0.081862003 -0.060118001
0.084890001 0.042707 0.063707002
0.084994003 0.043781001 0.06312
0.085399002 0.044257998 0.063552
0.089864999 0.040341001 -0.015449
0.089882001 0.039544001 -0.015022
0.090846002 0.040022999 -0.014239
0.11051 0.087096997 0.024837
0.11092 0.086465001 0.023165001
0.10899 0.086554997 0.023216
0.11025 0.11294 -0.0164
0.11149 0.11421 -0.016158
0.1096 0.11326 -0.016145
0.10046 0.051109001 0.0014425
0.098705001 0.051096 -0.00037711
0.048103001 0.062057 0.042086001
0.048590001 0.061691999 0.043249
0.048269 0.063432999 0.044004001
0.091096997 0.055395 -0.00035367001
0.092572004 0.056230001 -0.0010474999
0.092795998 0.055895999 -0.0016224
0.10395 0.11712 -0.010661
0.10331 0.11445 -0.010999
0.10312 0.11503 -0.011277
0.11388 0.099697001 -0.031904999
0.11445 0.09956 -0.030133
0.11503 0.098784998 -0.031906001
0.10708 0.078018002 -0.0031220999
0.15752999 0.042452 -0.0080046002
0.15548 0.044332001 -0.0075142998
0.15666001 0.043984 -0.0069360002
0.12738 0.064278997 -0.051497001
0.12749 0.064264998 -0.051631998
0.12861 0.065260999 -0.053583
0.11779 0.088615 -0.042482998
0.11809 0.089649998 -0.040986001
0.1179 0.091279998 -0.040709
0.13346 0.11641 -0.026729001
0.13426 0.1178 -0.026203001
0.12407 0.061124999 -0.049058001
0.12325 0.059884999 -0.048937
0.12274 0.058758002 -0.048666999
0.051851001 0.045862 0.047448002
0.050985001 0.045502 0.046211999
0.096164003 0.037859 0.052551001
0.094644003 0.039212 0.054361001
0.097133003 0.039053001 0.052411001
0.11507 0.079993002 -0.038773999
0.11605 0.078474998 -0.038410999
0.11372 0.079558998 -0.037404999
0.13332 0.087334998 -0.042663001
0.13289 0.088653997 -0.042915002
0.082571 0.090846002 0.035179
0.082103997 0.088549003 0.032673001
0.11371 0.079409003 -0.036580998
0.11285 0.080724001 -0.035471998
0.11272 0.082916997 -0.036104001
0.10744 0.088133998 -0.020052001
0.10692 0.088149004 -0.019324999
0.10893 0.088149004 -0.020473
0.032674 0.04315 0.032173
0.034642 0.043551002 0.031546
0.032430001 0.043956 0.031332001
0.10697 0.075925 -0.020001
0.10776 0.073747002 -0.020295
0.10685 0.075113997 -0.019509999
0.055341002 0.068705998 0.036802001
0.092726998 0.043076001 -0.0058502001
0.090792 0.043205 -0.0066161999
0.091876 0.042941 -0.0066113002
0.12903 0.061457001 -0.020718001
0.12919 0.059181999 -0.019784
0.12883 0.060038 -0.021351
0.071367003 0.089659996 0.041051
0.072446004 0.089766003 0.039372001
0.070973001 0.088081002 0.040539
0.12411 0.10992 -0.061253
0.12517001 0.10834 -0.062637001
0.12414 0.10943 -0.06182
0.085449003 0.039386999 0.051855002
0.086685002 0.040504999 0.054398
0.085791998 0.041818 0.053521998
0.039473999 0.10321 0.10019
0.039485998 0.10196 0.099405997
0.038550001 0.099455997 0.10038
0.119 0.050616 -0.0099403998
0.11938 0.050809 -0.0098122004
0.10537 0.10261 -0.010756
0.10502 0.10432 -0.0090840999
0.10423 0.1059 -0.0090153003
0.15369999 0.040426001 -0.016999001
0.15515999 0.040773999 -0.018222
0.15552001 0.038378999 -0.019311
0.1058 0.10871 -0.012933
0.10741 0.10797 -0.01405
0.078686997 0.065430999 0.029906999
0.078791 0.064108998 0.030321
0.077522002 0.065581001 0.030901
0.11856 0.048710998 -0.0083831996
0.11871 0.049488999 -0.0080447001
0.13627 0.10458 -0.059912
0.13584 0.10534 -0.059753999
0.088997997 0.04025 0.049127001
0.087544002 0.039105002 0.046934001
0.086562 0.039992001 0.047283001
0.10414 0.065195002 -0.0019227
0.10659 0.065672003 -0.0038737999
0.10599 0.065261997 -0.0039355
0.089304999 0.042583 0.057269
0.091588996 0.042757001 0.057705
0.089519002 0.04394 0.056747999
0.077780999 0.041965999 0.067557
0.077598996 0.044404 0.070022002
0.078877002 0.043464001 0.069666997
0.093654998 0.092390999 0.035969
0.092023 0.091504 0.035634998
0.090444997 0.093939997 0.037227001
0.093309999 0.062436 0.0039403001
0.095278002 0.063303001 0.0062454999
0.094564997 0.062484998 0.0038975
0.1516 0.038201999 -0.0060533001
0.15199 0.041067999 -0.0072709001
0.15253 0.039664 -0.0094138999
0.11668 0.082575999 -0.040394001
0.1154 0.082814001 -0.040562999
0.11544 0.084422998 -0.041173998
0.14567 0.03506 0.0188
0.14422999 0.036045 0.019176001
0.14517 0.034681 0.018576
0.026348 0.050253 0.058905002
0.027357001 0.051293001 0.060534
0.025940999 0.051759001 0.058157999
0.10841 0.080018997 -0.022555999
0.10914 0.081214003 -0.024352999
0.10916 0.080861002 -0.024836
0.12969001 0.079363003 -0.058548
0.12685999 0.077776 -0.055847
0.12822001 0.080473997 -0.058424
0.032051999 0.039967999 0.024801999
0.031920999 0.040084001 0.02495
0.031543002 0.039951 0.024754999
0.044062998 0.074573003 0.079370998
0.044904999 0.072995 0.076559998
0.043302 0.073388003 0.077279001
0.111 0.079714 0.015373
0.11194 0.081201002 0.015607
0.10255 0.066587001 0.014185
0.10285 0.068195 0.014426
0.050197002 0.069343001 0.062368002
0.049954001 0.068282001 0.062957004
0.049656998 0.068750001 0.064157002
0.039469 0.087165996 0.088985004
0.03819 0.087573998 0.087495998
0.039322998 0.085957997 0.087504998
0.12217 0.047428001 -0.004985
0.12329 0.047759999 -0.0049136998
0.12122 0.048574001 -0.0060266
0.13288 0.098392002 -0.064534001
0.13071001 0.099354997 -0.065301001
0.13398001 0.10035 -0.064525001
0.12878001 0.078057997 -0.055771999
0.12845001 0.078922004 -0.054049999
0.12858 0.079539999 -0.054747
0.15246999 0.039889999 -0.0025446999
0.15128 0.039804999 -0.0010019999
0.15135001 0.040766001 -0.0020401999
0.10824 0.089429997 -0.016679
0.10845 0.089303002 -0.016900999
0.10916 0.08918 -0.014219
0.051426001 0.069311999 0.059083998
0.053034 0.072057001 0.055321999
0.11633 0.10813 -0.018603001
0.11511 0.1068 -0.018871
0.11601 0.10677 -0.019168001
0.12498 0.078023002 -0.052850999
0.12723 0.077760004 -0.052769002
0.12532 0.077806003 -0.052096002
0.048730001 0.063267998 0.052981999
0.047750998 0.062536001 0.052400999
0.046654001 0.062275 0.05212
0.089993 0.041361 -0.012209
0.050813999 0.043037001 0.053723998
0.049683999 0.042576998 0.053766001
0.049626 0.042780999 0.053162001
0.047561001 0.080549002 0.081671
0.047134999 0.080796003 0.083177
0.11212 0.095651001 -0.02691
0.11064 0.095449001 -0.025797
0.093099996 0.043451 -0.011742
0.089960001 0.043118998 -0.012358
0.091583997 0.043124001 -0.0090317
0.038690999 0.10033 0.10277
0.038322002 0.10179 0.10272
0.037753001 0.10221 0.1033
0.11109 0.048696 -7.3308998e-05
0.10985 0.048739001 -0.00017426
0.1112 0.049141999 -0.0011614
0.11342 0.057969 -0.016612001
0.11472 0.055939998 -0.0167
0.11689 0.056014001 -0.015676999
0.15683 0.037466999 -0.012761
0.15646 0.038245998 -0.011204
0.15597001 0.038715001 -0.011959
0.10627 0.049350999 0.0068196999
0.10564 0.049215 0.0049705999
0.10545 0.050668001 0.0034592999
0.049938999 0.068580002 0.046727002
0.050352 0.067768998 0.046399999
0.049408998 0.066007003 0.047254
0.099774003 0.062697999 0.0022285001
0.099939004 0.061997 0.0019727
0.098021999 0.062793002 0.0034095999
0.091068 0.033535998 -0.027231
0.089240998 0.034471001 -0.026542
0.089759998 0.033573002 -0.028376
0.13301 0.069080003 -0.062711
0.13277 0.067474 -0.062634997
0.13232 0.070129998 -0.063147001
0.043400999 0.083967999 0.076789998
0.045223001 0.083425999 0.077310003
0.094815999 0.032965001 -0.026817
0.095051996 0.033783 -0.027278
0.094402 0.034108002 -0.026550001
0.032894999 0.043878999 0.042420998
0.032193001 0.044943999 0.041492999
0.032460999 0.044852 0.043588001
0.10595 0.065016001 -0.0079159001
0.1077 0.065888003 -0.010657
0.10712 0.065072 -0.0088147996
0.043173 0.041795999 0.032342002
0.042810999 0.041161999 0.032382
0.092024997 0.041026 -0.023347
0.09279 0.042190999 -0.022260999
0.076742001 0.034660999 0.077646002
0.074901 0.03483 0.076990999
0.078107998 0.033534002 0.077512003
0.12651999 0.10536 -0.039568
0.12540001 0.1077 -0.038400002
0.12714 0.10735 -0.037902001
0.028363001 0.044057 0.047006
0.025562 0.046241 0.047246002
0.026415 0.045967001 0.046603002
0.051695 0.054278001 0.037900999
0.051968001 0.053658001 0.037429001
0.051274002 0.055181999 0.037983
0.099946 0.043999001 -0.018712001
0.10013 0.042778 -0.01997
0.098077998 0.042564999 -0.019454001
0.11058 0.076756001 -0.020228
0.10959 0.076926 -0.020623
0.10998 0.076302998 -0.022081001
0.13745999 0.11663 0.00030155
0.13736001 0.11721 0.0008106
0.12403 0.088913001 -0.045554999
0.12371 0.089019001 -0.046006002
0.12419 0.090967 -0.045733001
0.066436999 0.094168998 0.041501001
0.065012001 0.094238997 0.041673999
0.065875001 0.094144002 0.042659
0.13211 0.058630001 -0.017802
0.13062 0.058378998 -0.017484
0.13112 0.059094999 -0.018015999
0.095429003 0.060210999 0.0098404996
0.094645999 0.060940001 0.0074005001
0.094575003 0.062034 0.0086016003
0.063083999 0.048602998 0.041990001
0.062885001 0.047532 0.043698002
0.061903 0.048246 0.043979999
0.039058 0.090513997 0.099463999
0.038770001 0.091716997 0.099334002
0.037742 0.092726 0.097534999
0.10823 0.060389001 -0.0062295999
0.10707 0.062367 -0.0066434001
0.10701 0.062029999 -0.0068003
0.044744998 0.086074002 0.083977997
0.044165 0.086703002 0.081669003
0.044691999 0.087693997 0.08134
0.093836002 0.066436 0.02338
0.094875999 0.068167999 0.023458
0.036871001 0.033121001 0.020260001
0.037002001 0.035098001 0.021242
0.035649002 0.032435998 0.021266
0.11805 0.093722001 -0.045965001
0.097296998 0.061558001 0.023910001
0.095856003 0.061802998 0.022984
0.097015999 0.062311999 0.022797
0.090186998 0.094515003 0.033654999
0.092215002 0.093277 0.035631999
0.091751002 0.093112998 0.034651998
0.039147001 0.064245999 0.078763001
0.040171999 0.064662002 0.079539001
0.040493 0.064861998 0.080250002
0.1238 0.065544002 -0.054382
0.12503999 0.062247999 -0.053247001
0.12483 0.064661004 -0.053691
0.10883 0.075425997 -0.020981001
0.10808 0.076011002 -0.020541999
0.1095 0.075880997 -0.021055
0.12837 0.099192001 -0.065211996
0.1275 0.098952003 -0.066115998
0.12751 0.10108 -0.066914
0.059048999 0.079115003 0.039779998
0.058297999 0.078988001 0.040284999
0.058683999 0.078806996 0.039748002
0.11911 0.054409001 -0.013197
0.11875 0.055009 -0.013446
0.11707 0.054076999 -0.014211
0.12948 0.1139 -0.042401999
0.12916 0.11475 -0.042913001
0.12856001 0.11403 -0.043258
0.11908 0.05314 -0.012137
0.10721 0.038787998 -0.023757
0.10829 0.039556999 -0.022399999
0.043586001 0.10611 0.085533001
0.043423999 0.10495 0.085469
0.043494001 0.10531 0.087260999
0.096960999 0.039873999 -0.024994999
0.12194 0.082138002 -0.049093001
0.12201 0.082047001 -0.051532999
0.1214 0.081036001 -0.050391998
0.027137 0.046638001 0.050260998
0.027643001 0.046139002 0.048733
0.027651999 0.046595 0.049934998
0.097833 0.062357999 0.021570999
0.096547998 0.063904002 0.019507
0.098312996 0.062368002 0.020026
0.12091 0.099526003 -0.063689001
0.1202 0.10201 -0.063423999
0.12107 0.1011 -0.065277003
0.070247002 0.093032002 0.038194001
0.068894997 0.093056001 0.037512999
0.069715001 0.094065003 0.038376998
0.046971999 0.086522996 0.075125001
0.046964999 0.087002002 0.073872998
0.047610998 0.085918002 0.075226001
0.065370999 0.078042999 0.029121
0.065158002 0.077812001 0.028697001
0.064557001 0.078465998 0.029366
0.10648 0.07316 0.016119
0.10829 0.073174 0.01532
0.10731 0.075060003 0.01568
0.15832999 0.043501001 -0.0061547998
0.15739 0.043263 -0.0056042001
0.12808999 0.11133 -0.059647001
0.12709001 0.11181 -0.060697
0.031606998 0.035479002 0.018227
0.030843999 0.035675999 0.0153
0.031018 0.035877001 0.017501
0.095899999 0.071751997 0.020803999
0.1186 0.060203999 -0.021153999
0.1168 0.060224999 -0.019476
0.10903 0.063023999 -0.018383
0.10957 0.064052999 -0.018472999
0.11123 0.063465998 -0.01794
0.072800003 0.036405001 0.078909002
0.071411997 0.036766 0.077904001
0.071276002 0.036010001 0.079017997
0.039104 0.11316 0.10076
0.039643999 0.1114 0.10036
0.039664 0.11128 0.10085
0.13502 0.088117003 -0.036419999
0.13403 0.088623002 -0.036922
0.1355 0.089619003 -0.037448
0.031291999 0.041444998 0.027587
0.030111 0.041234002 0.026299
0.030510001 0.041524 0.027162001
0.1284 0.056423999 -0.015959
0.12754001 0.055213999 -0.014553
0.12786999 0.054522999 -0.013026
0.13552 0.11017 -0.003674
0.13398001 0.10981 -0.0039804
0.13434 0.10962 -0.0027004001
0.073333003 0.091957003 0.041014999
0.075144999 0.091815002 0.041187
0.075552002 0.092712 0.040617999
0.051004 0.063029997 0.035769001
0.051233999 0.063658997 0.036493
0.052310999 0.063598 0.034905002
0.12222 0.061195999 -0.048710998
0.12277 0.062918 -0.048455998
0.12336 0.062084001 -0.048790999
0.11263 0.10292 -0.026912
0.11177 0.10111 -0.02743
0.11115 0.10184 -0.026320999
0.073480003 0.087890998 0.035094
0.074329004 0.085646003 0.033408999
0.073444001 0.086556002 0.033888001
0.10149 0.036805999 -0.029865
0.10245 0.037324999 -0.031311002
0.101 0.036460999 -0.031829
0.11426 0.081063002 -0.035402998
0.039777 0.086756997 0.087304004
0.039512999 0.087595001 0.086576
0.066489004 0.070005998 0.02644
0.066132002 0.069724999 0.025792001
0.066276997 0.070531003 0.026729999
0.085458003 0.041676998 0.0010654
0.083506003 0.043942999 0.0014037
0.085156001 0.043450002 -0.00059204001
0.12650999 0.066643998 -0.060272999
0.12616 0.066739 -0.059928998
0.12571999 0.066956997 -0.061330002
0.060752001 0.080385998 0.039030999
0.061356001 0.078740001 0.037631001
0.092768997 0.087311 0.026435001
0.092037 0.085322 0.023282001
0.092483997 0.084638 0.025387
0.12443 0.048944999 -0.0051075001
0.12503999 0.048415001 -0.0054513998
0.12359 0.047862001 -0.0062202001
0.083295003 0.039781999 0.060451999
0.083175004 0.039372001 0.060908999
0.084544003 0.038199998 0.058199
0.13748001 0.099720001 -0.054171
0.13587999 0.098883003 -0.055973999
0.13745999 0.10041 -0.056237999
0.045885 0.085860997 0.074134998
0.045775 0.086483002 0.075479999
0.043878999 0.086346999 0.074013002
0.046622999 0.069881 0.072299004
0.046682999 0.068576999 0.072601996
0.046877 0.071235999 0.072320998
0.13728 0.1151 -0.0022400001
0.13695 0.11596 -0.0020941
0.13614 0.11498 8.9722002e-05
0.029025 0.035625 0.033716999
0.028011 0.035753999 0.035388999
0.029157 0.035918001 0.034389
0.10904 0.070912004 0.0010023999
0.10907 0.069976002 5.1474999e-05
0.10835 0.070164002 0.00019336
0.10892 0.072659999 0.011846
0.10841 0.072659999 0.01241
0.10696 0.072301 0.012577
0.046824999 0.062830999 0.044305999
0.046762001 0.061882999 0.044124998
0.096523002 0.041737001 0.056867
0.092998996 0.040847 0.057271
0.094630003 0.043906 0.057895999
0.047203999 0.067287996 0.070519999
0.046695001 0.068462998 0.070708998
0.046585999 0.068089999 0.072526999
0.038371999 0.084523998 0.094994999
0.036104001 0.084948003 0.093505003
0.037533998 0.085676 0.090966001
0.062903002 0.058132999 0.031422
0.063060999 0.057052001 0.030234
0.056620002 0.047141999 0.043616001
0.057537001 0.047098 0.042996
0.055172998 0.046151999 0.043040998
0.1103 0.047699001 0.0042456002
0.10999 0.045830999 0.0056857001
0.11 0.047736999 0.0049664001
0.12076 0.11522 -0.052416999
0.12163 0.1129 -0.053679001
0.12072 0.11407 -0.053339999
0.10721 0.067415997 -0.0010948
0.10758 0.06899 -0.00030270001
0.10807 0.068639003 -0.00087828003
0.12796 0.063267 -0.025044
0.12540001 0.063799001 -0.025707001
0.024414999 0.04532 0.051041
0.025014 0.044555999 0.050053999
0.026234001 0.044426002 0.050841
0.095582999 0.070353001 0.020905999
0.094113 0.072310999 0.019556001
0.097313002 0.071769997 0.019165
0.066664003 0.090979002 0.04143
0.066992998 0.091113999 0.041598
0.066055 0.092156999 0.040929999
0.081592999 0.064553 0.032053001
0.082240999 0.062470999 0.033392999
0.081284001 0.064255998 0.032219
0.1051 0.086879998 0.024505001
0.10291 0.054756001 -0.0021120999
0.10315 0.056584001 -0.00032034001
0.10462 0.055936001 -0.0029392999
0.10785 0.064805001 -0.014287
0.10722 0.065961003 -0.013939
0.10659 0.066009998 -0.014909
0.11984 0.11089 -0.044194002
0.12021 0.11178 -0.044411998
0.11984 0.11171 -0.043543
0.049061 0.063221 0.042282999
0.049171999 0.061383002 0.040571
0.045616999 0.080811001 0.07598
0.044821002 0.083403997 0.075662002
0.047972001 0.082153998 0.075772002
0.029286999 0.043019 0.038419999
0.029215001 0.043138999 0.041191999
0.12502 0.074611001 -0.051394001
0.12622 0.074368998 -0.053493001
0.12478 0.075387999 -0.053603001
0.095224001 0.071636997 0.019739
0.093626 0.070231996 0.020369999
0.046215001 0.056848999 0.044597
0.045914002 0.057691 0.042461
0.045419 0.056467 0.043076001
0.039173 0.099652998 0.089998998
0.039824001 0.099600002 0.090507001
0.039999999 0.099413998 0.090010002
0.025486 0.034798998 0.042986002
0.026289999 0.034747001 0.042002
0.024272 0.035082001 0.04397
0.10592 0.10156 -0.013406
0.10348 0.10047 -0.013724
0.10535 0.10097 -0.014843
0.11918 0.082791001 -0.045430001
0.11803 0.082721002 -0.045063
0.11813 0.083227001 -0.044890001
0.040057 0.042424001 0.031491999
0.041703001 0.044326 0.030952999
0.14501999 0.036734 0.02025
0.14624 0.037574999 0.017769
0.14638001 0.035521001 0.017191
0.13149001 0.081629999 -0.047502998
0.13076 0.082309999 -0.046211999
0.13169 0.081863001 -0.046101999
0.11407 0.097514004 -0.030428
0.073431998 0.063335001 0.028129
0.073574997 0.06329 0.028276
0.073201001 0.062240999 0.029017
0.045253001 0.088407002 0.080339998
0.044516999 0.089615002 0.080504
0.045912001 0.090264 0.080834001
0.1084 0.050216001 8.4715997e-05
0.10657 0.052189 -0.00097564002
0.10857 0.049897 -0.0014196
0.11617 0.084550999 -0.037602998
0.11612 0.084692001 -0.036990002
0.11523 0.083678998 -0.038538001
0.11555 0.080045 -0.040658999
0.11585 0.081413001 -0.040844999
0.069334 0.054019999 0.035450999
0.067106001 0.055675998 0.034139998
0.067397997 0.055160999 0.034345999
0.086115003 0.040279001 -0.0032222001
0.086452 0.039237998 -0.0049699
0.086765997 0.037948001 -0.0042929999
0.049690999 0.065678999 0.063311003
0.048443001 0.066591002 0.064712003
0.049238998 0.067309998 0.062950999
0.030322 0.038899999 0.019822
0.031794 0.037861001 0.021242
0.029438 0.037407 0.01908
0.046767998 0.055886999 0.040623002
0.048852999 0.056272 0.039432999
0.12145 0.075098999 -0.057314001
0.12206 0.076413997 -0.057346001
0.12284 0.075220004 -0.056139
0.11141 0.075731002 0.015285
0.10984 0.075792998 0.015639
0.11209 0.078218997 0.017111
0.042038001 0.058479 0.078713
0.041131999 0.059446 0.078850001
0.041042 0.059983 0.078064002
0.096120998 0.062056001 0.02609
0.095858999 0.062019002 0.024738999
0.044238999 0.088591002 0.080530003
0.044943999 0.089766003 0.079875
0.10642 0.10747 -0.015049
0.033707999 0.040964998 0.026356
0.032839999 0.040837001 0.024908001
0.033239 0.040777002 0.025834
0.065765999 0.057503 0.031079
0.049786001 0.087702997 0.082792997
0.048358999 0.089083999 0.082285002
0.050066002 0.089543998 0.082107
0.14839 0.038274001 0.0043886998
0.14896999 0.038566999 0.0058447002
0.14865001 0.039604999 0.0029005001
0.10537 0.074178003 -0.014837
0.10588 0.072866999 -0.015068
0.1047 0.073761001 -0.015123
0.080682002 0.082764998 0.02416
0.079643004 0.084091 0.026188999
0.079677999 0.083958998 0.026659001
0.10652 0.095238 -0.015258
0.10824 0.094185002 -0.014692
0.10779 0.096661001 -0.015687
0.051440001 0.069729999 0.048868001
0.050452001 0.069650002 0.04597
0.099624999 0.037377 -0.030673999
0.10024 0.036612 -0.029991999
0.099559002 0.036453001 -0.028677
0.11297 0.045846 0.0043183002
0.11309 0.045591999 0.0069827
0.11325 0.045988001 0.0080354996
0.047639001 0.046951 0.048075002
0.046585999 0.04473 0.048661001
0.046411 0.044705998 0.047807001
0.098245002 0.048728 0.0027826999
0.099817 0.049102001 0.0011653
0.1182 0.11352 -0.042319
0.11772 0.11185 -0.043862
0.11913 0.057937 -0.018672001
0.12057 0.059347 -0.020967999
0.12182 0.058182999 -0.02055
0.043074999 0.080375999 0.091509998
0.041834999 0.080817997 0.091301002
0.042174999 0.079875998 0.091265999
0.037246998 0.10075 0.10992
0.037149999 0.10176 0.10963
0.037478 0.10109 0.10844
0.056412 0.046268001 0.045120999
0.095339 0.064058997 0.025022
0.094025001 0.064772002 0.024865
0.093942001 0.063138999 0.024181999
0.15128 0.047013 0.012342
0.1522 0.048053 0.012862
0.15148 0.048525002 0.014086
0.067959003 0.068084002 0.027179999
0.037062 0.051270999 0.051499002
0.038348999 0.053242002 0.051846001
0.088556997 0.042383999 0.0060375999
0.088737004 0.041650001 0.0039096
0.087223001 0.041834999 0.0047553
0.11465 0.087839 -0.041076001
0.11472 0.087640002 -0.040158
0.1153 0.088154003 -0.041769002
0.11301 0.091315001 -0.031968001
0.11441 0.092311002 -0.034267999
0.1139 0.092577003 -0.033557002
0.16943 0.039448999 -2.8893999e-05
0.169 0.03946 -0.00086018001
0.16855 0.037875999 0.0014571
0.10676 0.090365 0.030574
0.10545 0.090933003 0.029546
0.1065 0.078642003 -0.0027594001
0.10795 0.078666002 -0.0040452001
0.10817 0.078250997 -0.0052499999
0.077027999 0.091137998 0.037886001
0.078061 0.088909 0.035119001
0.077900998 0.090811998 0.035873
0.1053 0.058825999 -0.0032043001
0.051626001 0.073757 0.079470001
0.051561002 0.075806998 0.078624003
0.021165 0.034938 0.046378002
0.018137001 0.035771001 0.048629999
0.021094 0.034187999 0.046521001
0.1256 0.071767002 -0.058286
0.027613999 0.039705999 0.035478
0.027473001 0.039145 0.034841001
0.028045001 0.039115999 0.036525998
0.080712996 0.043744002 0.068111002
0.080121003 0.044344999 0.068131
0.081087999 0.045237999 0.069151998
0.10021 0.064354002 0.0064681
0.10124 0.065426998 0.0074240002
0.12711 0.11028 -0.059301
0.12453 0.10938 -0.059114002
0.12443 0.10988 -0.058467999
0.046124998 0.041765001 0.052531
0.048080001 0.044204 0.052257001
0.066143997 0.074179001 0.026997
0.067965999 0.072860003 0.026253
0.066932999 0.073021002 0.027176
0.11623 0.049662001 -0.0067313998
0.026721001 0.050377999 0.056894999
0.10904 0.093934 -0.013343
0.10804 0.094439 -0.014008
0.10594 0.12105 -0.0097971
0.10639 0.12168 -0.01062
0.10432 0.11902 -0.0092265997
0.10407 0.051793002 0.00023835
0.10328 0.05198 0.0025349001
0.1024 0.051142 0.00052341999
0.042158999 0.077039003 0.082943
0.042420998 0.075443998 0.081462003
0.041246001 0.074947 0.083543003
0.10192 0.034552999 -0.025105
0.10106 0.034816999 -0.023824999
0.10082 0.034623001 -0.026985001
0.10237 0.10728 -0.0084370999
0.10455 0.10699 -0.0088005997
0.10404 0.10779 -0.0092869997
0.025498001 0.0537 0.058818001
0.027472001 0.054085001 0.058809999
0.027396999 0.051906999 0.058180001
0.042240001 0.10235 0.097232997
0.041710999 0.10468 0.096373998
0.040144999 0.10382 0.094889
0.091531999 0.076337002 0.020576
0.041917998 0.083756998 0.083012998
0.041602001 0.085569002 0.083944
0.043372001 0.084216997 0.083746001
0.082441002 0.033888999 0.0071331002
0.081321001 0.035964999 0.0081125004
0.080752999 0.03534 0.0071220002
0.042536002 0.047472 0.047607999
0.044192001 0.046611998 0.048085
0.043028001 0.045612 0.048498001
0.038070999 0.034378 0.023409
0.035808001 0.034393001 0.023824001
0.035468001 0.032968 0.022782
0.079007 0.037636001 0.065017998
0.078851998 0.038848002 0.064885996
0.029571 0.04843 0.053337
0.10594 0.077381 -0.00055965001
0.10656 0.076755002 -0.00051330001
0.085405 0.036924999 0.057668
0.086491004 0.036570001 0.059363
0.085846998 0.035266001 0.057039998
0.11317 0.070473999 -0.042172998
0.11573 0.072896004 -0.040274002
0.092382997 0.061538 0.0070171002
0.090745002 0.060757 0.0077654002
0.091003001 0.061064001 0.0076390002
0.090471998 0.037551001 -0.028905001
0.088297002 0.036493 -0.028849
0.088691004 0.036674999 -0.028928
0.043744002 0.094168998 0.081722997
0.044845 0.095903002 0.082177997
0.044289 0.094736002 0.08083
0.11713 0.049112 -0.0048186001
0.1157 0.048184 -0.0026701
0.081832998 0.086455002 0.027659001
0.081937 0.085345998 0.027005
0.080233 0.084945999 0.027137
0.080541 0.085897997 0.028573001
0.078414999 0.086520001 0.028657001
0.077542 0.086866997 0.029508
0.092775002 0.069063 0.020500001
0.093102999 0.067432001 0.02235
0.092450999 0.069202997 0.021294
0.048099998 0.063211001 0.044264
0.049029998 0.064319 0.045157999
0.10802 0.11245 -0.011213
0.10513 0.11268 -0.011022
0.10425 0.11434 -0.010695
0.10889 0.070280999 -0.020524001
0.11023 0.069298998 -0.018314
0.10828 0.071248002 -0.018976999
0.10868 0.039007001 -0.027065
0.10915 0.039053999 -0.02585
0.10748 0.03923 -0.026583999
0.10691 0.1154 -0.0091738999
0.10647 0.1157 -0.010152
0.10713 0.11603 -0.0093465
0.11994 0.1043 -0.057875998
0.12103 0.10452 -0.058222
0.11912 0.10388 -0.056302998
0.045611002 0.066386998 0.071378998
0.045400001 0.067682996 0.071700998
0.025873 0.044741999 0.051828001
0.025092 0.04307 0.053141002
0.025136 0.043439999 0.052356999
0.11766 0.097920999 -0.048576999
0.11786 0.097866997 -0.048725002
0.11928 0.097926997 -0.049105
0.041866999 0.060302 0.080077
0.041328002 0.062020998 0.078051001
0.041508999 0.060433 0.078603998
0.04896 0.076494999 0.076379001
0.048730001 0.076214999 0.075014003
0.047784001 0.076972 0.077233002
0.067962997 0.077261999 0.028000001
0.068669997 0.077838004 0.027431
0.067983001 0.077577002 0.026722001
0.040775999 0.054497 0.055339999
0.038812999 0.055204 0.054195002
0.039693002 0.053378999 0.054798
0.040676001 0.10362 0.091280997
0.13497999 0.11482 -0.026864
0.13481 0.11495 -0.028899999
0.13440999 0.1148 -0.028108001
0.083607003 0.071447998 0.023655999
0.084976003 0.071043998 0.023571
0.092781998 0.044165 -0.021012999
0.092130996 0.041558001 -0.01811
0.080330998 0.046307001 0.073106997
0.082292996 0.045786001 0.073755004
0.082162 0.044829 0.072458997
0.020693 0.035964001 0.051125001
0.016856 0.03616 0.052368
0.066694997 0.088123001 0.040088002
0.069058999 0.088372998 0.039549001
0.067212999 0.089915998 0.039037
0.077537 0.037643 0.066287003
0.075920999 0.039189 0.067469001
0.076701 0.039214 0.067571998
0.12178 0.088143997 -0.045214999
0.12161 0.088320002 -0.044098001
0.12103 0.085730001 -0.043965999
0.1125 0.11074 -0.019752
0.11007 0.11136 -0.019547001
0.11037 0.11164 -0.020088
0.10982 0.11224 -0.015645999
0.041499998 0.051270001 0.048673999
0.043194 0.052083001 0.048613001
0.042236999 0.052468002 0.046353001
0.11646 0.07147 -0.043303002
0.10679 0.099108003 -0.016061001
0.097512998 0.053667001 -0.0014377
0.097347997 0.052696001 -0.0016992
0.098197997 0.052460998 -0.00054447999
0.040084999 0.093730003 0.090737998
0.040111002 0.093952999 0.088393003
0.039374001 0.09369 0.088138998
0.040642999 0.077335998 0.090342999
0.041689999 0.078486003 0.089840002
0.040300999 0.078414999 0.088483997
0.042358 0.041637 0.032775
0.10977 0.075260997 0.016496001
0.10667 0.075768001 0.016581001
0.089635 0.050353002 -0.00074798998
0.089472003 0.050482001 -0.0016714
0.088763997 0.050430998 -0.00015031001
0.046491001 0.1021 0.083443999
0.046505999 0.10362 0.085304998
0.049217999 0.10472 0.084798999
0.10338 0.11468 -0.010426
0.1028 0.1148 -0.0095159002
0.074748002 0.039806999 0.074833997
0.073821001 0.039508 0.073127002
0.073656999 0.040056001 0.075700998
0.1074 0.080443002 -0.016941
0.10757 0.083382003 -0.016889
0.10481 0.081582002 -0.017728001
0.054652002 0.072906002 0.040041
0.054492 0.072420999 0.040022999
0.053766999 0.072578996 0.040417001
0.044831999 0.056869999 0.047782999
0.043756001 0.056823999 0.045867
0.043306999 0.057291999 0.047079999
0.082298003 0.033482999 0.0093098003
0.081981003 0.033530999 0.010196
0.080825999 0.034814999 0.0093320999
0.085515 0.043880999 0.067016996
0.08568 0.043832 0.064953998
0.083944 0.043357 0.066574998
0.092835002 0.088255003 0.027871
0.090016998 0.088101998 0.026931001
0.091085002 0.087732002 0.028547
0.057082999 0.077800997 0.040653002
0.055845 0.078680001 0.040732
0.12849 0.11561 -0.058832001
0.12970001 0.11532 -0.059039
0.1296 0.11194 -0.059248
0.1033 0.084794998 0.024301
0.10544 0.087288998 0.024459001
0.10574 0.085888997 0.024251999
0.107 0.092265002 -0.015836
0.10572 0.094099998 -0.016144
0.11073 0.091723002 -0.026845001
0.1119 0.091233 -0.026371
0.15397 0.041416999 -0.013866
0.15530001 0.041777 -0.015409
0.15429001 0.041311 -0.017041
0.10402 0.057730999 -0.0019779999
0.10347 0.058837999 -0.0029636
0.084481001 0.034984998 0.0034972001
0.084740996 0.032391999 0.0031556999
0.083897002 0.034124002 0.0031719001
0.10682 0.1089 -0.014933
0.10554 0.10869 -0.015572
0.11818 0.082925998 -0.042925
0.11704 0.082649 -0.041559
0.12606999 0.10981 -0.051550999
0.12564 0.11019 -0.052908
0.12432 0.1096 -0.052237999
0.15367 0.041198999 -0.016716
0.15435 0.041478999 -0.015694
0.022941001 0.035505001 0.045205999
0.024199 0.033713002 0.043591999
0.023235001 0.034233 0.043329999
0.11496 0.099168003 -0.033071999
0.11564 0.099161997 -0.033167001
0.11529 0.097980998 -0.033473998
0.081719004 0.068287998 0.025194
0.081579 0.067263 0.026432
0.081568003 0.067979999 0.024236999
0.16007 0.037099998 -0.015508
0.15910999 0.038392 -0.013188
0.16043 0.039301999 -0.013858
0.037172001 0.10308 0.1086
0.036664002 0.1021 0.1077
0.038649 0.10064 0.10794
0.084276997 0.046925999 0.0042301998
0.084067002 0.047527 0.0037735
0.084418997 0.045938 0.0028554001
0.088776998 0.053520001 0.0019322
0.067339003 0.054581001 0.032871
0.067860998 0.056327999 0.032740999
0.067296997 0.054830998 0.033020001
0.15267999 0.037397999 -0.0045502
0.15279999 0.038364999 -0.0041391002
0.15261 0.038925 -0.0032496999
0.12558 0.073252998 -0.058568999
0.12558 0.069236003 -0.059326999
0.12549999 0.071149997 -0.059923001
0.074845001 0.082649998 0.026968
0.074849002 0.081427 0.027193001
0.15180001 0.042771 -0.0029177
0.15202001 0.042243 -0.0024238001
0.15212999 0.041785002 -0.0018287
0.085119002 0.086822003 0.027116001
0.084073998 0.085500002 0.027055001
0.10213 0.070329003 0.015541
0.10308 0.071974002 0.01657
0.11812 0.051233001 -0.0090174004
0.11719 0.051695999 -0.010431
0.026595 0.048486002 0.053254999
0.026021 0.046534002 0.052712999
0.026450001 0.048277002 0.053330999
0.10998 0.053567 -0.0074880999
0.11101 0.052699 -0.0063062999
0.10898 0.052467 -0.0068488
0.041343 0.1138 0.10297
0.042415999 0.11545 0.10459
0.041044001 0.11345 0.10308
0.079834998 0.076104999 0.021950001
0.10448 0.040601999 -0.021058001
0.10311 0.040302999 -0.021066001
0.10516 0.040546 -0.020083999
0.12413 0.072853997 -0.05607
0.097892001 0.091458999 0.028687
0.096597999 0.090167001 0.028836001
0.097037002 0.092312999 0.030293001
0.034338001 0.051592 0.051013999
0.033558998 0.051323999 0.052119002
0.034407001 0.052313998 0.052000999
0.11712 0.052276999 -0.011122
0.11527 0.0517 -0.010659
0.11686 0.053482998 -0.010403
0.11374 0.10977 -0.020919999
0.11378 0.10973 -0.018299
0.11429 0.10895 -0.021818999
0.11939 0.11055 -0.046720002
0.12154 0.11062 -0.046829998
0.12057 0.10935 -0.046376999
0.041595001 0.058448002 0.071465999
0.041811001 0.059689 0.072068997
0.041285001 0.058958001 0.071466997
0.1058 0.092208996 -0.012514
0.10494 0.091975003 -0.010455
0.10522 0.091260999 -0.01094
0.11128 0.11224 -0.018986
0.10565 0.076329999 0.018378001
0.10486 0.077905998 0.019738
0.10678 0.077710003 0.018006001
0.10471 0.072926998 0.014872
0.10551 0.071815997 0.016209001
0.1067 0.071558997 0.014677
0.096887 0.089911997 0.028774999
0.056621 0.078886002 0.043042
0.057046998 0.077652 0.042084001
0.055842001 0.076985002 0.041374002
0.11239 0.044977002 0.0040072999
0.11317 0.046319999 0.0026885001
0.11135 0.095751002 -0.025929
0.11102 0.096222997 -0.024514001
0.11154 0.095579997 -0.024247
0.12332 0.10616 -0.064057998
0.12431 0.1044 -0.064369999
0.1181 0.096409 -0.037441
0.11888 0.095259003 -0.039103001
0.10733 0.03757 -0.026574999
0.084101997 0.038825002 0.055025
0.086241998 0.04081 0.056175999
0.11082 0.072912998 -0.024455
0.10927 0.076200999 -0.023081999
0.11036 0.075979002 -0.023603
0.15352 0.041398 -0.013969
0.15353 0.042700998 -0.012937
0.11121 0.090655997 -0.029485
0.11229 0.090986997 -0.031470001
0.11329 0.08969 -0.029774999
0.13617 0.098595999 -0.062826999
0.13612001 0.098765999 -0.064048998
0.13641 0.098615997 -0.064833999
0.13815001 0.1104 -0.0045980001
0.13539 0.11075 -0.0038971
0.13766 0.11122 -0.0057315999
0.060421001 0.076380998 0.035923999
0.058639001 0.077734999 0.034740001
0.059188999 0.077692002 0.037436001
0.12808 0.11441 -0.043749999
0.12769 0.11249 -0.044860002
0.12863 0.11529 -0.044567
0.12936001 0.073570997 -0.055078998
0.12926 0.071827002 -0.057429999
0.11917 0.04958 -0.0065567
0.11773 0.049197 -0.0069642998
0.11828 0.050190002 -0.0068546999
0.067220002 0.084801003 0.038199
0.066287003 0.084040001 0.035177
0.065572001 0.084256999 0.035806999
0.11242 0.075975999 0.015852001
0.11254 0.075600997 0.014363
0.11218 0.075705998 0.014464
0.14871 0.047014002 0.014077
0.149 0.047111001 0.012698
0.14982 0.047901999 0.013804
0.12426 0.11121 -0.059572
0.11408 0.048756 -0.0021502001
0.11373 0.047745999 -0.0020007
0.11343 0.046847001 -0.0017071
0.046571001 0.065729 0.065732002
0.045876 0.061871 0.049081001
0.047242999 0.062134001 0.048459001
0.046489999 0.060851 0.048273001
0.066417001 0.086245 0.041777
0.066004001 0.086672999 0.042467002
0.083567001 0.043937001 0.065632999
0.083811998 0.043310001 0.065527
0.084087998 0.044417001 0.064195
0.038648002 0.042520002 0.027171001
0.15355 0.043584 -0.013051
0.1547 0.043324001 -0.01323
0.15221 0.037921999 -0.00065818999
0.15288 0.039491002 -0.0017848
0.13181999 0.068856999 -0.053277999
0.13133 0.068158999 -0.051906999
0.13090999 0.068186998 -0.052657001
0.090695001 0.068571001 0.022905
0.092109002 0.070533998 0.023638001
0.091842003 0.068315998 0.02393
0.075496003 0.076554999 0.022679999
0.075740002 0.077509001 0.022658
0.076016001 0.076629996 0.023157001
0.10536 0.12103 -0.0091540003
0.10382 0.12273 -0.01062
0.060059998 0.053484 0.032984
0.058419 0.054223001 0.033975001
0.057843 0.056295 0.033534002
0.048436001 0.10142 0.087370001
0.049435001 0.10138 0.087475002
0.048354 0.1011 0.087935001
0.042381 0.066422001 0.076526999
0.10943 0.072558001 0.015003
0.10896 0.071238004 0.012592
0.10897 0.074009001 0.01598
0.098936997 0.060818002 0.0093973996
0.097653002 0.061400998 0.010973
0.098819003 0.060369 0.010839
0.092710003 0.041671999 0.059477001
0.094132997 0.043131001 0.058892999
0.094129004 0.043614998 0.05962
0.036708999 0.088578001 0.095118999
0.038408 0.089038998 0.093534999
0.12002 0.096005 -0.050306998
0.12169 0.096072003 -0.050531998
0.12293 0.095656 -0.050539002
0.097909003 0.036653999 -0.027689001
0.096919999 0.035817001 -0.028124001
0.098116003 0.036892999 -0.028519001
0.085649997 0.037324999 0.051816002
0.085587002 0.03779 0.050659001
0.084945001 0.035526 0.049377002
0.17166001 0.037399001 -0.00046558
0.17279001 0.038029999 -0.00018141999
0.17214 0.039303001 -0.0021218001
0.12431 0.10463 -0.065376997
0.12178 0.054292001 -0.014351
0.12161 0.054251999 -0.014584
0.10475 0.058871001 -0.0040274998
0.10597 0.060704 -0.0059142001
0.1056 0.059105001 -0.0048394999
0.12427 0.081889004 -0.046489999
0.11817 0.073413 -0.051862001
0.11726 0.072731003 -0.053100001
0.11481 0.069330998 -0.02768
0.11576 0.071130998 -0.029313
0.11687 0.070368998 -0.028261
0.10875 0.064234003 -0.015791999
0.10764 0.062228002 -0.015135
0.10757 0.063900001 -0.014376
0.069412 0.05384 0.038346998
0.067396998 0.053872 0.037542999
0.067468002 0.051474001 0.036205001
0.13267 0.086122997 -0.043843001
0.13251001 0.084334999 -0.044312999
0.13263001 0.085487999 -0.043694999
0.10747 0.077336997 -0.013696
0.10729 0.078020997 -0.014688
0.083757997 0.072109997 0.023483001
0.082989 0.072481997 0.022313001
0.083962001 0.071805999 0.023464
0.065792002 0.059204001 0.031360999
0.066481002 0.058699999 0.029758001
0.065966003 0.058437001 0.030270001
0.075873002 0.043473002 0.068940997
0.13359 0.11328 -0.053709
0.1338 0.11463 -0.051853999
0.11632 0.10824 -0.019549999
0.11659 0.10895 -0.019274
0.11562 0.11014 -0.019055
0.070294 0.092918001 0.037962999
0.069568001 0.090590999 0.037521001
0.069162004 0.091241002 0.039032999
0.07 0.055156998 0.034244999
0.11591 0.11163 -0.033381
0.11446 0.1109 -0.035124999
0.11438 0.10903 -0.034329001
0.085182004 0.066620998 0.028178999
0.091732003 0.041430999 0.056705002
0.092448004 0.041485999 0.05514
0.090999 0.041813999 0.056515001
0.14676 0.037578002 0.012067
0.14806999 0.036504 0.010206
0.084735997 0.066835001 0.029069001
0.028789001 0.041288 0.035064999
0.027093999 0.039841 0.036837999
0.10998 0.037712 -0.026706001
0.11023 0.038803 -0.02588
0.045926001 0.084210999 0.075916998
0.098160997 0.065021999 0.016911
0.097456999 0.064119004 0.020631
0.098424003 0.066035002 0.019282
0.11089 0.037546001 -0.025568999
0.11089 0.038534999 -0.024982
0.044776 0.062738001 0.069300003
0.043678999 0.063216999 0.066422999
0.045857999 0.062467001 0.067670003
0.12164 0.066072002 -0.02781
0.12321 0.067943998 -0.028705001
0.12221 0.066068999 -0.027852001
0.079152003 0.069094002 0.023415999
0.080467999 0.071961999 0.023986001
0.080502003 0.070628002 0.024386
0.065474004 0.053824998 0.033762001
0.063817002 0.053532001 0.033576999
0.064944997 0.054568 0.034812
0.085115999 0.060139 0.0049610999
0.084036 0.062132001 0.004189
0.025224 0.045924 0.054687001
0.025387 0.048069 0.05367
0.16424 0.039926998 -0.013235
0.16362999 0.040901002 -0.014303
0.16304 0.040615998 -0.012667
0.11531 0.082988001 -0.034111999
0.11278 0.084104002 -0.034807
0.089844003 0.083985999 0.023378
0.088753998 0.085235998 0.024331
0.11469 0.046673998 -0.0027854999
0.095549002 0.046151999 -0.00074500003
0.095949002 0.045735002 -0.0026589001
0.094728 0.045070998 -0.00097151002
0.10974 0.10796 -0.019885
0.11195 0.10784 -0.020509999
0.046386 0.10143 0.082604997
0.045983002 0.10087 0.082180999
0.044663999 0.10232 0.082607999
0.041317001 0.073016003 0.086025998
0.042123999 0.072806001 0.087012
0.10993 0.092364997 -0.02245
0.11008 0.093641996 -0.020791
0.10873 0.091270998 -0.023602
0.040468998 0.065915003 0.082454003
0.040497001 0.067720003 0.082347997
0.040229 0.064698003 0.082855001
0.070831001 0.054999001 0.036766998
0.071249001 0.056398001 0.038507
0.070853002 0.053977001 0.039478
0.044227999 0.073191002 0.077133
0.042153999 0.071079001 0.077761002
0.044429999 0.073063999 0.077861004
0.15868001 0.042351998 -0.0074689998
0.15719 0.04281 -0.0066137998
0.1301 0.082188003 -0.060616001
0.12869 0.081598997 -0.060502999
0.051993001 0.047072999 0.044383999
0.054060999 0.04569 0.044284999
0.11373 0.11486 -0.031520002
0.11271 0.11655 -0.029172
0.1152 0.11593 -0.030923
0.071934998 0.035128001 0.084398001
0.070866004 0.036086001 0.085426003
0.071483999 0.036393002 0.084767997
0.089735001 0.068797998 0.024040001
0.090048999 0.067987002 0.024336999
0.089175999 0.068424001 0.023714
0.088331997 0.039115001 -0.023117
0.088260002 0.038194999 -0.021631001
0.088211 0.039258 -0.02046
0.068966001 0.066348001 0.026392
0.069168001 0.067262001 0.026015
0.069876 0.066003002 0.025459999
0.076676004 0.085121997 0.027976001
0.077835001 0.083930001 0.02768
0.075753003 0.084069997 0.028758001
0.12421 0.088550001 -0.045373999
0.12472 0.089564003 -0.043182999
0.12578 0.089758001 -0.044608001
0.048544999 0.058662999 0.039190002
0.04521 0.050763998 0.045297001
0.043992002 0.054067999 0.045193002
0.045609999 0.052235998 0.046404
0.044821002 0.10577 0.083167002
0.044193 0.10703 0.082226001
0.044962 0.10577 0.082390003
0.088243999 0.039452001 -0.019747
0.088650003 0.038764 -0.020682
0.11925 0.079226002 -0.037278
0.11976 0.079673 -0.037085
0.11821 0.078038 -0.038745999
0.040013999 0.067722999 0.081083
0.042341001 0.067028001 0.079382002
0.040844999 0.066638 0.078988999
0.10944 0.070839003 0.0021571999
0.1067 0.070156999 0.0017085
0.028686 0.048441 0.050473999
0.027559999 0.048227001 0.052115001
0.028333999 0.049300998 0.052069001
0.058844 0.079366997 0.045857999
0.060768999 0.081344999 0.044939
0.059445001 0.082336999 0.045216002
0.094429001 0.0876 0.026504001
0.094354004 0.086671002 0.026967
0.099900998 0.092524 0.030579001
0.098690003 0.092892997 0.029865
0.099325001 0.091018997 0.029131001
0.1059 0.082923003 -0.017387999
0.1219 0.099924996 -0.068792
0.12301 0.099751003 -0.066496
0.12497 0.099010997 -0.067252003
0.1142 0.074077003 -0.042043
0.11696 0.073518999 -0.041021001
0.11527 0.073835999 -0.041140001
0.062512003 0.075424999 0.031920001
0.063366003 0.077997997 0.030751999
0.093823001 0.050794002 2.6235e-06
0.093452998 0.048098002 -0.0016214
0.094057001 0.048533998 0.00033258001
0.11809 0.072476 -0.030955
0.11672 0.072328001 -0.030456999
0.1157 0.072811 -0.03035
0.038024999 0.10478 0.11034
0.039235 0.10435 0.10875
0.038176 0.10389 0.11003
0.12294 0.11161 -0.054572999
0.12251 0.11064 -0.054435
0.12331 0.11162 -0.053011
0.061746001 0.078479998 0.033431999
0.061623 0.078354001 0.032233998
0.062369 0.079717003 0.034398001
0.12142 0.069029003 -0.058757
0.12073 0.067111999 -0.058389999
0.12193 0.067472003 -0.05816
0.066142999 0.075415999 0.026072999
0.064966999 0.073455997 0.02705
0.065957002 0.072512001 0.026044
0.11685 0.069688998 -0.028325001
0.072013997 0.056003999 0.036977999
0.069261 0.053998999 0.037574999
0.086776003 0.065756999 0.028108999
0.11675 0.098316997 -0.043639999
0.11811 0.098365001 -0.045908
0.11679 0.096155003 -0.043737002
0.13341001 0.089426003 -0.041903
0.13314 0.091606997 -0.041336
0.090251997 0.039985001 0.046971999
0.089743003 0.040693 0.046013001
0.089695998 0.039818998 0.046585001
0.043621998 0.10978 0.084303997
0.043403 0.10893 0.083145998
0.044158999 0.10743 0.083742999
0.099193998 0.034689002 -0.027639
0.098583996 0.035149001 -0.027207
0.098563001 0.034802001 -0.028759999
0.12397 0.068299003 -0.060447998
0.12387 0.068285003 -0.060825001
0.12494 0.067919999 -0.060814999
0.17200001 0.037030999 -0.0016801
0.076429002 0.038968999 0.070405997
0.073550999 0.041080002 0.070459999
0.074340001 0.040304001 0.070401996
0.035642002 0.050484002 0.050632
0.037965 0.051148999 0.050574001
0.1231 0.094186999 -0.069254003
0.12259 0.095117003 -0.068708003
0.12229 0.095268004 -0.070618004
0.044861 0.061081 0.053819001
0.046386 0.060563002 0.054905999
0.026402 0.035587002 0.018617
0.028241999 0.033445999 0.015572
0.028806999 0.034589998 0.018431
0.12012 0.077426001 -0.040245999
0.11816 0.077760004 -0.039701998
0.12011 0.077315003 -0.04036
0.12127 0.069513999 -0.062433001
0.11963 0.070720002 -0.062189002
0.12016 0.069291003 -0.063639
0.042505998 0.10717 0.091277003
0.071011998 0.060552999 0.032375999
0.070867002 0.058782998 0.032735001
0.072796002 0.060391001 0.032873999
0.039760999 0.10467 0.097808003
0.039785001 0.10574 0.096657
0.10735 0.088790998 0.029503001
0.10826 0.087741002 0.028021
0.12369 0.10149 -0.066092998
0.13669001 0.11195 -0.00069556001
0.13765 0.11428 -0.00070024002
0.13659 0.113 -6.8706999e-05
0.096006997 0.037694 -0.026185
0.095446996 0.038134001 -0.025872
0.097809002 0.036883 -0.028356001
0.061659999 0.065471999 0.029069999
0.084067002 0.076851003 0.022653
0.082795002 0.079596996 0.020486001
0.086121999 0.077945001 0.021796999
0.073021002 0.087985002 0.038608
0.071981996 0.087011002 0.037865002
0.070152998 0.088558003 0.036819
0.11839 0.11196 -0.037553001
0.11718 0.11312 -0.038470998
