# .PCD v0.7 - Point Cloud Data file format
VERSION 0.7
FIELDS x y z
SIZE 4 4 4
TYPE F F F
COUNT 1 1 1
WIDTH 1496
HEIGHT 1
VIEWPOINT 0 0 0 1 0 0 0
POINTS 1496
DATA ascii
0.11171 0.085299 -0.030289
0.053075999 0.051095001 0.039609998
0.037935998 0.095863998 0.099319004
0.038203001 0.097323 0.099316999
0.037903 0.097234003 0.098465003
0.053107001 0.058231998 0.035337001
0.053626001 0.059889 0.034694001
0.053837001 0.058180001 0.034858
0.04899 0.067025997 0.064537004
0.049105 0.067580998 0.065121002
0.049501002 0.067285001 0.063965
0.11182 0.091334999 -0.024649
0.11166 0.091920003 -0.025846999
0.10446 0.07299 -0.016945001
0.047033999 0.099733002 0.091394998
0.047302 0.099766999 0.090143003
0.037097 0.10171 0.11043
0.10716 0.10797 -0.0075424002
0.10625 0.10916 -0.0069603999
0.10609 0.10853 -0.0071222
0.094162002 0.062075999 0.032784
0.09358 0.062521003 0.034170002
0.045740001 0.10656 0.092408001
0.045694001 0.10687 0.093404002
0.045867998 0.10669 0.093943998
0.11272 0.086167999 0.017882001
0.082098 0.067902997 0.024737
0.11185 0.074562997 -0.0015908
0.11226 0.074772 -0.0024149001
0.11262 0.075602002 -0.0028967001
0.1135 0.073835999 0.0074908002
0.11187 0.078336 -0.0085276999
0.11055 0.078698002 -0.0087090004
0.11173 0.079230003 -0.0092150001
0.12467 0.086056001 -0.046287
0.12435 0.087521002 -0.045657001
0.12468 0.087537996 -0.046287
0.12874 0.090729997 -0.048376001
0.12865999 0.090859003 -0.047141999
0.12578 0.11436 -0.054976001
0.12503999 0.11358 -0.055261001
0.12462 0.11424 -0.053805999
0.052956 0.071686 0.047068998
0.053688999 0.072265998 0.045405
0.052439 0.071124002 0.046696
0.038022999 0.038274001 0.017192001
0.037051 0.037884999 0.016976999
0.10064 0.058157001 -0.0015269
0.10087 0.059053 -0.0012085
0.04888 0.047556002 0.044126
0.048190001 0.047578 0.045147002
0.085313998 0.036527999 0.057006001
0.085823998 0.036433 0.055906001
0.042622 0.095703997 0.085458003
0.045134999 0.10084 0.095680997
0.12365 0.096345998 -0.068407997
0.12409 0.097121999 -0.068085
0.10487 0.086994998 0.024826
0.10268 0.052887999 0.021869
0.1018 0.053998001 0.021787999
0.10275 0.052756999 0.020726999
0.11932 0.11114 -0.048346002
0.11011 0.04888 -0.001054
0.10994 0.049247999 -0.00038054999
0.10871 0.049477998 -0.0014377
0.084564 0.092813998 0.035521999
0.10113 0.060817 -1.3536e-05
0.10049 0.061064001 0.00071420002
0.071180001 0.085098997 0.032168001
0.070715003 0.084210999 0.032844
0.071015999 0.085262999 0.032986999
0.11122 0.086903997 -0.018503999
0.11056 0.086286999 -0.018084999
0.11177 0.085932001 -0.017689001
0.10289 0.055171002 0.031633001
0.10267 0.055704001 0.032848999
0.10135 0.056813002 0.032712001
0.042281002 0.066270001 0.084509
0.041304 0.066036999 0.084077999
0.045214001 0.092983 0.09347
0.046037 0.092967004 0.092749
0.045832999 0.053982001 0.044117998
0.045669001 0.055032 0.044098999
0.054823 0.067694999 0.033229001
0.054265 0.066252001 0.03286
0.054614998 0.067367002 0.033231001
0.10791 0.088820003 -0.021492001
0.10754 0.087904997 -0.021705
0.10895 0.089033999 -0.02114
0.11256 0.081008002 -0.0044793002
0.11189 0.080594003 -0.0038191001
0.1121 0.079334997 -0.0031387
0.10752 0.081361003 -0.022756999
0.089824997 0.038105 -0.013818
0.089745 0.039066002 -0.013907
0.11893 0.10103 -0.040181998
0.11901 0.1026 -0.039999999
0.11956 0.10113 -0.040569998
0.026138 0.045325998 0.048783001
0.11619 0.081371002 -0.0054187002
0.11552 0.081882998 -0.0066470001
0.11524 0.081017002 -0.0063914
0.043157 0.063735999 0.074222997
0.043823998 0.064746 0.074969001
0.043728001 0.064792 0.073403001
0.10321 0.037544001 -0.02471
0.10273 0.038493 -0.025604
0.03844 0.099381998 0.10312
0.088336997 0.040105 -0.021779001
0.093111001 0.039135002 -0.023894999
0.093381003 0.037962001 -0.025263
0.092900001 0.037847999 -0.024226001
0.027623 0.034157 0.040624999
0.047518998 0.11353 0.083189003
0.048636999 0.11303 0.082463004
0.048337001 0.11307 0.081862003
0.14439 0.034355 0.021028999
0.028409 0.034159999 0.023158999
0.029208001 0.03359 0.022802999
0.029027 0.034157999 0.023848001
0.098330997 0.066261001 0.020188
0.097859003 0.067160003 0.020231999
0.098305002 0.066179998 0.019746
0.04761 0.094577 0.090282999
0.047986999 0.094457999 0.088909999
0.047674 0.095876999 0.090213999
0.031307999 0.052281 0.056752998
0.032331001 0.052818999 0.057638001
0.032800999 0.052292999 0.056823
0.093377002 0.052508 -0.0012091
0.093764 0.052848998 -0.0021239
0.095012002 0.052692998 -0.001734
0.048358001 0.069968998 0.069284998
0.047862999 0.069027998 0.068974003
0.12586001 0.077353001 -0.054740001
0.12627 0.077716999 -0.055397999
0.13228001 0.119 -0.023238
0.13235 0.11928 -0.023728
0.13287 0.11896 -0.023909001
0.042110998 0.099485002 0.087842003
0.042096 0.098436996 0.087350003
0.11269 0.091601998 -0.031265002
0.15275 0.041813999 -0.012763
0.15324 0.042443998 -0.011077
0.13134 0.11067 -0.059496
0.13015001 0.11052 -0.060253002
0.12978999 0.11134 -0.059831999
0.031842001 0.05387 0.059029002
0.031489 0.053764001 0.060454
0.054933 0.069248997 0.060242999
0.025676001 0.052788001 0.061147001
0.0254 0.054097999 0.061168
0.025742 0.052441999 0.059916001
0.10923 0.072604001 -0.012667
0.11002 0.074446 -0.011974
0.10916 0.074235 -0.01284
0.1102 0.095572002 -0.023522999
0.11048 0.097255997 -0.023463
0.11419 0.066311002 -0.025088999
0.11365 0.067846999 -0.025072001
0.11401 0.066887997 -0.025149999
0.1108 0.04848 -0.0021647001
0.11036 0.04913 -0.0027719
0.11084 0.049546 -0.0034006999
0.10712 0.066035002 -0.0091009997
0.069043003 0.062114999 0.027435999
0.069058001 0.0614 0.027550999
0.068548001 0.061025001 0.028339
0.056111 0.080123998 0.045462001
0.056102 0.080458999 0.044516001
0.055503 0.079581 0.044814002
0.15185 0.040397 -0.011996
0.152 0.040692002 -0.011295
0.10929 0.096918002 -0.017465999
0.11051 0.097124003 -0.017835001
0.038986001 0.087467998 0.088990003
0.038743 0.088133998 0.089143999
0.039186001 0.087696999 0.088532001
0.13530999 0.11052 -0.011697
0.11858 0.063343003 -0.024746001
0.035969999 0.045031998 0.048124999
0.10654 0.072388001 0.015022
0.026232 0.034000002 0.042936999
0.02462 0.034304999 0.043933999
0.1192 0.10855 -0.030182
0.1181 0.10833 -0.030696999
0.11882 0.10794 -0.02888
0.049474001 0.093280002 0.085311003
0.049084999 0.094488002 0.086351998
0.11485 0.069603004 -0.026837001
0.10789 0.061953999 -0.010124
0.10739 0.06219 -0.0091223996
0.10737 0.063239001 -0.010106
0.11063 0.090400003 -0.020688999
0.1097 0.091159001 -0.020587999
0.03002 0.044291999 0.044259999
0.031447001 0.044493999 0.044739
0.11562 0.086195998 -0.037110001
0.11582 0.087949999 -0.038346
0.11631 0.086217001 -0.038445
0.11594 0.10962 -0.019157
0.11598 0.1099 -0.019428
0.11539 0.11044 -0.019603999
0.11031 0.075609997 -0.025025001
0.11037 0.076932997 -0.025028
0.071051002 0.060991999 0.028841
0.094343998 0.048255999 0.000193
0.11308 0.11485 -0.031355999
0.12557 0.080897003 -0.052108001
0.12515 0.082153998 -0.050787002
0.088959999 0.041480999 -0.0068851998
0.16221 0.041678999 -0.010452
0.16232 0.041469 -0.011929
0.16131 0.041577 -0.012516
0.12212 0.094045997 -0.046574999
0.12278 0.095463999 -0.046383999
0.11702 0.11187 -0.03968
0.10841 0.098581001 -0.019951001
0.097994998 0.043056 -0.017914001
0.098081 0.042118002 -0.019336
0.076554999 0.087552004 0.033833999
0.074709997 0.087591998 0.034735002
0.097707003 0.072645999 0.019608
0.11125 0.085579 -0.014412
0.11141 0.086574003 -0.014421
0.1123 0.084954999 -0.014477
0.042266 0.075570002 0.081242003
0.12927 0.066299997 -0.026386
0.12927 0.065775998 -0.025932999
0.088270001 0.035914999 0.052615002
0.087266997 0.03627 0.051915001
0.088863 0.036038999 0.051011
0.12227 0.070061997 -0.030851999
0.12186 0.070866004 -0.031264
0.1226 0.071731001 -0.031868
0.11788 0.097269997 -0.039105002
0.11859 0.098274 -0.038895
0.11885 0.098214 -0.040668
0.041237 0.11273 0.095898002
0.040406998 0.10126 0.090313002
0.043538 0.10785 0.086845003
0.044009998 0.10852 0.086975001
0.047575999 0.097202003 0.087393001
0.11326 0.10705 -0.020205
0.11291 0.10795 -0.019832
0.10835 0.087814003 0.023995999
0.095987998 0.049773 -0.00054129999
0.097222999 0.049849 -2.4262999e-07
0.097039998 0.049157001 0.00058699999
0.048610002 0.071501002 0.089881003
0.047713 0.071594998 0.089996003
0.098215997 0.092858002 0.032912999
0.098651998 0.093034998 0.031705
0.096805997 0.093392998 0.032864999
0.10942 0.048565 0.0015279
0.13188 0.071281001 -0.061269999
0.13342001 0.070993997 -0.062206998
0.11444 0.11974 -0.029197
0.11403 0.12096 -0.028619001
0.11363 0.12139 -0.027706999
0.12017 0.068985 -0.05697
0.12137 0.068452999 -0.056547001
0.12022 0.069213003 -0.05565
0.043816 0.11052 0.099179998
0.12406 0.054435 -0.015618
0.12304 0.054372001 -0.015657
0.11374 0.086153999 -0.041057002
0.11385 0.085336998 -0.040828001
0.11408 0.085344002 -0.040713001
0.055498 0.076670997 0.048751999
0.055628002 0.077325001 0.048159
0.12588 0.062187001 -0.024652001
0.030889999 0.050048001 0.061046001
0.12942 0.081610002 -0.056883998
0.12966999 0.081781998 -0.057511002
0.026517 0.043370001 0.057675
0.026017001 0.043203 0.056589998
0.028427999 0.048579998 0.060594998
0.030038999 0.047579002 0.060959999
0.029650001 0.048638999 0.061161999
0.11989 0.078473002 -0.035925001
0.11979 0.077146001 -0.035176001
0.096124001 0.044278 -0.012922
0.096814997 0.044064 -0.011242
0.097563997 0.044429999 -0.012571
0.10816 0.079585999 -0.0029587001
0.10789 0.078166999 -0.001818
0.14844 0.041641001 0.0058937999
0.14855 0.040587001 0.0045198002
0.14786001 0.040621001 0.0055088
0.093723997 0.090763003 0.029732
0.092633002 0.091022998 0.030603001
0.13134 0.069922 -0.064561002
0.13056999 0.069559999 -0.063685998
0.13044 0.070343003 -0.062927
0.035519 0.052893002 0.057512
0.036143001 0.053188 0.059197001
0.036316 0.052825999 0.057909001
0.072005004 0.063606001 0.026853001
0.070698999 0.064887002 0.026484
0.097840004 0.064136997 0.0069867
0.090603001 0.079545997 0.022102
0.089763999 0.079553999 0.022143999
0.055835001 0.049828 0.039081998
0.056979999 0.049350999 0.039581999
0.057512999 0.048776001 0.040086001
0.061377998 0.083507001 0.039932001
0.060688999 0.083247997 0.040153001
0.059737999 0.083485 0.04109
0.098036997 0.054030001 -0.0022291001
0.098093003 0.055397 -0.001775
0.099168003 0.055149999 -0.0020973999
0.049690001 0.092894003 0.083977997
0.049681999 0.094646998 0.085267
0.085123003 0.059062999 0.0047324002
0.11834 0.047497001 -0.0034514
0.11767 0.047770001 -0.0038234999
0.11786 0.047724001 -0.0046524
0.063201003 0.058972999 0.030153001
0.063239001 0.059919 0.029924
0.063814998 0.059418 0.029913001
0.093162 0.092855997 0.03562
0.092077002 0.093769997 0.033852998
0.11704 0.078818001 0.013823
0.11713 0.078115001 0.014483
0.056641001 0.060394 0.032223001
0.056129001 0.060247999 0.033248
0.055415001 0.060644999 0.03342
0.043430001 0.095826998 0.083076
0.043083999 0.097131997 0.084376998
0.043641001 0.097240001 0.083380997
0.033360999 0.051890001 0.05539
0.12773 0.10571 -0.064871997
0.1275 0.10623 -0.064282
0.10047 0.038245998 -0.027278
0.081762999 0.034053002 0.0045683002
0.082119003 0.034062002 0.0032472999
0.083091997 0.033771001 0.0037022
0.049247 0.082331002 0.086534001
0.048790999 0.083807997 0.087719999
0.13245 0.069394 -0.063532002
0.11036 0.037289999 -0.028499
0.11089 0.037645999 -0.02843
0.11092 0.037466001 -0.02761
0.10694 0.079526 -0.015232
0.10786 0.079544 -0.014953
0.062366001 0.080605999 0.035124999
0.062268 0.080297999 0.035877001
0.045375999 0.098621003 0.095306002
0.045683 0.099739 0.094953001
0.045120999 0.099564999 0.095386997
0.12047 0.069735996 -0.030538
0.042828001 0.098485 0.084354997
0.04276 0.099900998 0.085821003
0.098879002 0.063807003 0.00605
0.098293997 0.063360997 0.0048770998
0.097906001 0.063922003 0.0061454
0.15633 0.040298998 -0.020470999
0.15666001 0.040548 -0.020029999
0.15658 0.040369999 -0.020383
0.040752999 0.10492 0.10631
0.041226 0.1047 0.10485
0.040089 0.1047 0.10456
0.087457001 0.034322999 -0.001549
0.041420002 0.047143999 0.048266999
0.043001 0.047614001 0.047897998
0.050480001 0.055358 0.038343001
0.085997 0.035250001 -0.029595001
0.087985002 0.034793001 -0.029747
0.087035999 0.034754001 -0.029913001
0.11242 0.076586001 -0.028568
0.11115 0.076826997 -0.027533
0.11227 0.077183001 -0.028448001
0.038626999 0.034091 0.020493001
0.039172001 0.034680001 0.019004
0.039393 0.034603 0.020113001
0.10561 0.081074998 -0.019299001
0.037280999 0.035243001 0.015619
0.036855999 0.034694999 0.016876001
0.035930999 0.035551 0.016892999
0.10014 0.090207003 0.028277
0.11611 0.10789 -0.028427999
0.1149 0.1071 -0.027427999
0.11571 0.10743 -0.027417
0.088238999 0.045915 -0.0032354
0.089047 0.045389999 -0.0036015001
0.088629 0.044264998 -0.0039255
0.087783001 0.050101999 0.010472
0.088325001 0.050840002 0.010704
0.088936999 0.034566998 -0.0098248003
0.089422002 0.034345001 -0.0094892001
0.088955998 0.034083001 -0.0084306998
0.019469 0.036173001 0.050209001
0.11091 0.071516 -0.023437001
0.11043 0.071643002 -0.025110001
0.10345 0.10779 -0.013113
0.10293 0.10836 -0.012084
0.10314 0.10918 -0.011838
0.041435 0.062178999 0.077834003
0.041545 0.061166 0.077464998
0.15432 0.038672 -0.016423
0.15401 0.038226999 -0.014825
0.15392999 0.038904 -0.015476
0.070289999 0.062015001 0.027198
0.070398003 0.063211001 0.026972
0.071043998 0.062798999 0.026919
0.11047 0.078061998 -0.00067717
0.11088 0.079657003 -0.0018618
0.10991 0.079437003 -0.0013496
0.025418 0.041889999 0.045485001
0.046069998 0.060846999 0.051316001
0.045742001 0.060563002 0.049819
0.045389 0.060097001 0.050615001
0.12885 0.079379998 -0.051424999
0.12898999 0.079517998 -0.052131999
0.12896 0.081193998 -0.051284
0.098821998 0.036022 -0.0092535997
0.056782998 0.068681002 0.031141
0.056588002 0.068152003 0.031822
0.039510999 0.082129002 0.089165002
0.040029999 0.083857 0.087624997
0.052756999 0.072777003 0.052191
0.052455999 0.071287997 0.053691
0.052816 0.072365001 0.053440999
0.14902 0.042350002 0.0044447999
0.14902 0.041457999 0.0044360999
0.10802 0.090409003 -0.011565
0.10732 0.090637997 -0.011071
0.10687 0.089346997 -0.011932
0.083132997 0.077189997 0.022151001
0.083347 0.075646996 0.021678001
0.10011 0.075294003 0.019986
0.12513 0.079705998 -0.038196001
0.12473 0.080162004 -0.038911
0.12531 0.080219999 -0.039618
0.099379003 0.041565999 -0.021629
0.093984 0.045093 -0.0029196001
0.094325997 0.044188999 -0.0037541001
0.092883997 0.045320999 -0.0034612999
0.058371998 0.082223997 0.041850001
0.058881 0.081830002 0.040890001
0.082893997 0.063309997 0.0044402
0.083717003 0.06329 0.0051008002
0.084514998 0.063495003 0.0041136001
0.12799001 0.10914 -0.062290002
0.12653001 0.10913 -0.061613999
0.098613001 0.071368001 0.019100999
0.11755 0.074239001 -0.049238998
0.11806 0.075451002 -0.049341001
0.088183001 0.043009002 0.053651001
0.089264996 0.042114001 0.053861
0.13709 0.11213 -0.00010429
0.038238 0.1013 0.10094
0.11492 0.071521997 -0.042739
0.11501 0.072904997 -0.042849001
0.038383 0.095637999 0.095227003
0.11583 0.10703 -0.030082
0.11544 0.10692 -0.028904
0.093335003 0.055626001 -0.0010028
0.092372999 0.054311 -0.0014026
0.10516 0.092825003 -0.011673
0.041570999 0.039090998 0.023026001
0.042636 0.038603 0.023638999
0.043618999 0.037563 0.023672
0.1365 0.11039 -0.011114
0.10707 0.066210002 -0.010459
0.10766 0.067566998 -0.010333
0.10754 0.067140996 -0.010872
0.035383999 0.039956 0.0252
0.035636 0.039806001 0.024723999
0.034189999 0.039473999 0.02448
0.030850001 0.034515999 0.042187002
0.030479999 0.034609001 0.043223001
0.029240999 0.034581002 0.042962
0.11355 0.071741 -0.027084
0.055718999 0.078097001 0.043618999
0.055257998 0.077085003 0.043373998
0.054852001 0.076970004 0.044549
0.15576001 0.035422001 0.0027095999
0.15548 0.035137001 0.003733
0.1548 0.035512 0.0026167999
0.028653 0.046388 0.047901001
0.10172 0.068584003 0.016186999
0.11725 0.091890998 -0.039526001
0.11649 0.093096003 -0.038495999
0.11743 0.093199998 -0.039487999
0.039372999 0.090625003 0.088568002
0.044147 0.10403 0.088638999
0.043779001 0.10295 0.088326998
0.042837001 0.10381 0.089056
0.11034 0.11041 -0.013807
0.11098 0.1109 -0.014325
0.049288001 0.098655 0.085074
0.048804998 0.10004 0.086425997
0.059 0.075457998 0.034642
0.059937 0.076112002 0.034428
0.11847 0.10845 -0.040339001
0.10425 0.051277999 0.019695001
0.10372 0.051975999 0.020230999
0.10324 0.052452002 0.019239999
0.13526 0.1124 -0.030804001
0.14613999 0.035918001 0.024261
0.14568 0.035167001 0.023317
0.14557 0.035126001 0.024569999
0.068745002 0.087237999 0.037292998
0.10693 0.066674002 -0.010003
0.04984 0.059418999 0.037528001
0.086754002 0.035107002 -0.0065556001
0.087325998 0.034308001 -0.0058191
0.086324997 0.035200998 -0.0051631001
0.088624999 0.077922001 0.021879001
0.11628 0.10914 -0.037124999
0.1165 0.10964 -0.035829
0.1185 0.095624998 -0.016131001
0.11937 0.095949002 -0.016891999
0.11849 0.097053997 -0.016454
0.12721001 0.062514998 -0.024504
0.12696999 0.061813999 -0.023667
0.092184 0.077028997 0.021073001
0.091714002 0.077140003 0.021832
0.041306999 0.043434002 0.048824001
0.13428 0.11432 -0.047605999
0.13304 0.11428 -0.048176002
0.13278 0.11366 -0.047995999
0.11131 0.061338998 -0.018893
0.11033 0.062201001 -0.017964
0.11134 0.062043998 -0.018825
0.090617001 0.037813999 0.001813
0.090017997 0.038222998 0.0021613999
0.089263 0.037737999 0.0030503001
0.10045 0.060276002 0.00030933999
0.11836 0.075557001 -0.050461002
0.11851 0.076885998 -0.050353002
0.11856 0.075542003 -0.051674999
0.068051003 0.088639997 0.041102
0.069646999 0.088743001 0.040022999
0.10387 0.065876 0.0096671004
0.10429 0.066854 0.010146
0.099394001 0.068774 0.017964
0.11421 0.080468997 0.013771
0.11413 0.079542004 0.013647
0.1131 0.080969997 0.014562
0.040658001 0.10401 0.10912
0.041134998 0.1026 0.10912
0.061099999 0.080279998 0.038247
0.060534999 0.080985002 0.039882001
0.11013 0.083594002 -0.027846999
0.11005 0.082663998 -0.027471
0.042791001 0.10367 0.10302
0.043122001 0.1035 0.10189
0.042691998 0.10365 0.10114
0.11819 0.058251999 -0.017744999
0.084833004 0.045905001 9.3561001e-05
0.085437 0.046742 -0.00081465999
0.044419002 0.098284997 0.095945999
0.073641002 0.093974002 0.03867
0.071975999 0.093708001 0.038617998
0.091766 0.042704001 -0.021338999
0.091958001 0.042078 -0.021891
0.13764 0.11745 -0.00083922001
0.11539 0.078552999 0.012078
0.11471 0.078938 0.012826
0.096973002 0.062472999 0.0039694002
0.098118998 0.062716 0.0040193
0.097496003 0.061912999 0.0028184
0.058221001 0.075957 0.035693999
0.057700999 0.074968003 0.035944
0.056793001 0.075612001 0.036982
0.046032 0.048291001 0.044821002
0.092928998 0.091835 0.031114999
0.093471996 0.091366999 0.030311
0.10903 0.082395002 -0.02544
0.11922 0.10877 -0.040329002
0.11928 0.10968 -0.038784001
0.11857 0.1091 -0.038982999
0.044052999 0.10527 0.097663999
0.11628 0.079530999 0.014061
0.11617 0.079005003 0.013079
0.11552 0.079415999 0.012904
0.1163 0.091870002 -0.038423002
0.051116999 0.047285002 0.044780999
0.050154001 0.047490001 0.044860002
0.050060999 0.048386 0.044279002
0.053385001 0.056779001 0.035627998
0.052448001 0.057932999 0.036393002
0.055548999 0.067547999 0.060481999
0.056141 0.067433998 0.059312001
0.055633999 0.068719 0.059151001
0.12693 0.10803 -0.062775001
0.12685999 0.1066 -0.063139997
0.11131 0.070238002 -0.023249
0.11134 0.068774998 -0.022832001
0.10521 0.082195997 0.022012999
0.10463 0.082328998 0.022531999
0.12503999 0.064568996 -0.047185998
0.12415 0.064920001 -0.047083002
0.13743 0.11617 -0.0027185001
0.13748001 0.11541 -0.0031743001
0.052638002 0.072925001 0.077688001
0.051750001 0.073632002 0.076888002
0.051966 0.074072003 0.077693999
0.10648 0.063170001 -0.0078534
0.11341 0.12114 -0.028868999
0.047935002 0.095792003 0.081702001
0.047058001 0.095043004 0.081153996
0.046833999 0.095841996 0.081076004
0.11134 0.079723001 0.016625
0.11133 0.078424998 0.01639
0.029711001 0.049493998 0.050448999
0.11315 0.11692 -0.031989001
0.10744 0.063919999 -0.013126
0.10844 0.063216001 -0.012677
0.12492 0.097902998 -0.048914
0.11448 0.086667001 -0.034855001
0.11486 0.087641999 -0.036061
0.11486 0.086891003 -0.036153
0.10952 0.051095001 -0.0039400999
0.10909 0.050561 -0.003235
0.045851 0.087876998 0.080343999
0.025807001 0.040718999 0.049784999
0.025582001 0.040860001 0.050609
0.042419001 0.10525 0.090067998
0.041974001 0.10414 0.089567997
0.1142 0.11658 -0.032519002
0.10438 0.066013999 0.0026988001
0.10519 0.065961003 0.0018081
0.12005 0.080522999 -0.051112
0.11918 0.079538003 -0.050340999
0.11963 0.080908999 -0.049890999
0.090897001 0.054859001 0.010138
0.092032999 0.055436 0.010671
0.091417 0.055442002 0.010099
0.12266 0.11136 -0.048903
0.12327 0.11228 -0.048822999
0.11827 0.093301997 -0.043435
0.083104998 0.067441002 0.026641
0.084555 0.067239001 0.026884999
0.050735999 0.060968 0.035123002
0.047031999 0.062041 0.060598999
0.15381999 0.037689 -0.010952
0.15241 0.03816 -0.010075
0.15263 0.038047999 -0.011258
0.051855002 0.047832999 0.044007
0.11301 0.078203999 0.014326
0.082442999 0.087255999 0.029331001
0.087691002 0.034766998 -0.001654
0.087674998 0.03461 -0.00042117
0.096450999 0.060422 0.0016536
0.096538 0.059581999 0.0012457001
0.10611 0.10934 -0.018053999
0.10804 0.074111 -0.014848
0.10657 0.074428 -0.014354
0.10648 0.072953001 -0.014663
0.048659001 0.10145 0.084766999
0.1233 0.048533 -0.0059794001
0.12207 0.048285 -0.0063606999
0.12276 0.048891 -0.0076905
0.12292 0.066189997 -0.048953
0.12416 0.065490998 -0.047657002
0.12453 0.066335 -0.047713999
0.12828 0.081036001 -0.059464999
0.12462 0.098653004 -0.060959999
0.12475 0.099247999 -0.06112
0.11382 0.045635 0.0048015001
0.1148 0.045391001 0.0045265998
0.12545 0.10578 -0.042959999
0.1268 0.10595 -0.042068001
0.12685999 0.10531 -0.043182001
0.12292 0.070024997 -0.063794002
0.083968997 0.080651 0.022066999
0.083954997 0.079755001 0.021292999
0.099908002 0.056775 0.027895
0.099345997 0.057429001 0.028262001
0.025943 0.055376999 0.059861001
0.026891001 0.054687001 0.059480999
0.14532 0.036398001 0.020090999
0.14493001 0.035805002 0.019706
0.13440999 0.10123 -0.064737
0.13448 0.10011 -0.065064996
0.050793 0.056910001 0.037647001
0.044978 0.046436999 0.047552999
0.082248002 0.036725 0.010822
0.083263002 0.036118001 0.010764
0.08185 0.0374 0.010339
0.10451 0.10273 -0.012733
0.1044 0.10307 -0.014521
0.1047 0.10243 -0.014319
0.043411002 0.084053002 0.094006002
0.044362001 0.084705003 0.093754001
0.043428 0.085089996 0.094279997
0.1508 0.043666001 0.0037527999
0.14963 0.043042 0.0047656
0.15042 0.043968 0.0045186002
0.12099 0.080921002 -0.050996002
0.050507002 0.066330999 0.055774
0.049704 0.065462001 0.055714
0.049178999 0.078210004 0.078048997
0.049027 0.079700999 0.078222997
0.10127 0.054600999 0.022691
0.10059 0.055539999 0.022688
0.091219001 0.085983001 0.025443001
0.090437002 0.086560003 0.026209
0.039724998 0.039965 0.025402
0.039719 0.039462999 0.024414999
0.065090001 0.059044998 0.029825
0.11844 0.099583 -0.051764
0.11841 0.10082 -0.053252
0.11403 0.074677996 0.0104
0.039161999 0.10939 0.098439999
0.038970001 0.1106 0.099537998
0.026543001 0.044381 0.057581
0.027319999 0.043504 0.058033999
0.063000001 0.075855002 0.030432999
0.11096 0.078403004 -0.033663001
0.11165 0.078064002 -0.032972001
0.11102 0.077404998 -0.03339
0.043839 0.056067001 0.059976999
0.043099001 0.055319998 0.060146999
0.080655999 0.037266999 0.0072575002
0.080729 0.036839001 0.0071879001
0.080734998 0.037152 0.0085244998
0.11341 0.088669002 0.017000999
0.11259 0.088919997 0.016758
0.11253 0.087732002 0.017165
0.12227 0.10776 -0.061673
0.12298 0.10768 -0.062775001
0.1219 0.10693 -0.062314
0.11251 0.075645 -0.028518001
0.1186 0.072039999 -0.054017998
0.11447 0.047304999 -0.00063877
0.044348001 0.060033999 0.084489003
0.043113001 0.060354002 0.083224997
0.045882002 0.10989 0.081889004
0.046774998 0.11078 0.081591003
0.042964 0.091724001 0.084268004
0.043143 0.093172997 0.082989
0.043299001 0.091820002 0.083212003
0.066275999 0.075645 0.027416
0.066046998 0.076874003 0.02805
0.044984002 0.058724999 0.060382999
0.089037001 0.035879999 -0.029307
0.090023004 0.036113001 -0.028856
0.10507 0.08862 0.025916999
0.051410999 0.070079997 0.060490999
0.050315998 0.068813004 0.060153
0.050887 0.069403999 0.060571998
0.12022 0.1048 -0.053408001
0.12034 0.10439 -0.052379001
0.12178 0.10233 -0.064906001
0.1224 0.10208 -0.065536998
0.13699 0.11327 -0.0037181999
0.090604998 0.065775998 0.026115
0.057780001 0.074060999 0.034565002
0.057399001 0.074091002 0.035569001
0.10305 0.11609 -0.0079798
0.12598 0.10672 -0.052025001
0.12634 0.10721 -0.051238
0.11046 0.099936001 -0.023513
0.11028 0.10112 -0.023347
0.11065 0.10066 -0.024377
0.029629 0.039218001 0.028501
0.10238 0.11086 -0.010779
0.10325 0.11185 -0.011389
0.10324 0.1106 -0.011796
0.050815001 0.070174001 0.065846004
0.066073 0.085152 0.04298
0.064894997 0.085144997 0.043465
0.12337 0.048046 -0.0054508001
0.12297 0.047614001 -0.0048552998
0.12406 0.11436 -0.052730002
0.12313 0.11478 -0.052933
0.12272 0.1151 -0.051849999
0.091241002 0.062797002 0.0042845998
0.090533003 0.062642001 0.0041065002
0.082603 0.035275999 0.064525001
0.081749 0.035721 0.064147003
0.082229003 0.035580002 0.063115999
0.089432001 0.040362 -0.022487
0.088583 0.039848998 -0.022400999
0.11064 0.073985003 0.013674
0.11024 0.07361 0.014065
0.084576003 0.045309 0.0017034
0.084413998 0.045931 0.0011942
0.084663004 0.044535998 0.0014514
0.1137 0.098700002 -0.029348999
0.047093 0.048753001 0.044298001
0.046075001 0.049539998 0.044893999
0.097209997 0.061012 0.035471
0.096501 0.061542999 0.035893999
0.046675 0.062783003 0.063086003
0.047072999 0.062698998 0.061662
0.046792999 0.061985001 0.061425
0.14907999 0.035737 0.013371
0.14842001 0.036405001 0.012788
0.15366 0.037631001 9.5566997e-05
0.15285 0.038026001 0.00032031999
0.15319 0.038033001 -0.0010356
0.12542 0.066177003 -0.027612999
0.12521 0.064577997 -0.026773
0.098669 0.050763998 -4.6366e-05
0.098719999 0.051550001 -0.00064628001
0.11651 0.099949002 -0.035385001
0.11629 0.10124 -0.035528
0.11726 0.099647999 -0.036773
0.15245 0.040803999 -0.0081741
0.10612 0.1047 -0.016184
0.10274 0.035569001 -0.029933
0.10237 0.035564002 -0.030608
0.1029 0.036371 -0.030719999
0.071698003 0.094031997 0.039298002
0.070603997 0.094051003 0.038881999
0.095766 0.043536 -0.0045622
0.094963998 0.044130001 -0.0030693
0.042316999 0.051392 0.046845
0.047970001 0.075130999 0.073841996
0.047837999 0.075847998 0.074088
0.048919 0.075501002 0.07429
0.12468 0.066147 -0.056625001
0.12359 0.066804998 -0.056579001
0.039480999 0.10015 0.097167
0.038309 0.099483997 0.098218001
0.091317996 0.035312001 -0.014709
0.045798 0.091554999 0.092589997
0.047049001 0.091817997 0.091316
0.042886 0.1136 0.10147
0.077857003 0.08501 0.028757
0.078023002 0.084438004 0.028213
0.15324 0.039196 -0.016771
0.15316001 0.04033 -0.016674999
0.067102998 0.078419 0.027649
0.066800997 0.076852001 0.027403999
0.072373003 0.076839998 0.025253
0.073861003 0.077091999 0.024334
0.073067002 0.076485001 0.024886001
0.10866 0.068566002 6.4726999e-05
0.11353 0.072789997 -0.027052
0.061133999 0.055470999 0.032857001
0.060984999 0.056597002 0.032308999
0.061725002 0.056855001 0.031916
0.15288 0.041866999 -0.0052459999
0.15253 0.040596001 -0.0052324999
0.15246999 0.040449001 -0.0043958998
0.047463 0.11434 0.081055
0.047355 0.11355 0.080853
0.046351001 0.11374 0.081289999
0.10967 0.072687998 -0.0067095002
0.10928 0.071658999 -0.0080621997
0.050921001 0.076863997 0.081942998
0.049998999 0.076700002 0.080310002
0.049685001 0.077486001 0.080807999
0.12183 0.1093 -0.055734001
0.049805999 0.089106999 0.085253999
0.049812 0.089082003 0.083975002
0.049830999 0.090651996 0.085217997
0.025288999 0.054205 0.061941002
0.060594998 0.082204998 0.040031999
0.10507 0.07982 0.021005001
0.10389 0.07863 0.020674
0.10407 0.079504997 0.021163
0.058945 0.049770001 0.038802002
0.060013 0.049203001 0.038872
0.094797999 0.070156001 0.019812999
0.11016 0.055224001 -0.0092898002
0.12974 0.088091999 -0.049941
0.1296 0.086282998 -0.04964
0.12898999 0.086478002 -0.050494
0.10508 0.11437 -0.0061438
0.10531 0.11343 -0.0064047999
0.071248002 0.073192999 0.024668001
0.071217999 0.074470997 0.024834
0.072407 0.072471 0.02489
0.12502 0.10671 -0.053816002
0.12542 0.10597 -0.052722
0.092618003 0.093024999 0.032381002
0.093335003 0.092698 0.032085001
0.091085002 0.055209 0.00090016
0.098379001 0.078245997 0.02083
0.097172 0.07824 0.020826999
0.11432 0.078777999 -0.033709999
0.11543 0.078916997 -0.034092002
0.048500001 0.096918002 0.082566999
0.048999999 0.097287998 0.083653003
0.12422 0.071457997 -0.031784002
0.12401 0.072251 -0.032101002
0.088993996 0.092399999 0.033397
0.088583998 0.091642 0.032947998
0.087816998 0.092173003 0.033489998
0.12571 0.061516002 -0.0244
0.1248 0.062435001 -0.025102001
0.10887 0.10514 -0.021424999
0.10993 0.10613 -0.021628
0.044861998 0.087916002 0.075244002
0.044744 0.087416999 0.076089002
0.10977 0.071301997 0.0090153003
0.1105 0.072254002 0.0090319002
0.025220999 0.045479 0.051079001
0.044718001 0.10915 0.094878003
0.044828001 0.10899 0.093840003
0.043825001 0.10923 0.093206003
0.1036 0.11336 -0.0067286999
0.10373 0.11319 -0.0069295
0.10383 0.1125 -0.0066924002
0.059339002 0.078321002 0.037919998
0.058711 0.077567004 0.037943002
0.058398001 0.077519998 0.03858
0.11108 0.073999003 -0.0052287001
0.11137 0.075268999 -0.0048056999
0.11143 0.074248001 -0.0048469999
0.040081002 0.11047 0.10048
0.088922001 0.035927001 0.046794001
0.087627999 0.036538001 0.046259999
0.088397004 0.036536999 0.045139998
0.10699 0.074295998 -0.0022469
0.1067 0.074974 -0.00135
0.1071 0.069403999 0.0078123002
0.050074 0.049180999 0.041845001
0.050298002 0.049348999 0.042165
0.050094999 0.048670001 0.043237001
0.060125001 0.079302996 0.037554
0.086622 0.034095 -0.026346
0.086107001 0.034841001 -0.026310001
0.086102001 0.035186 -0.026869001
0.094975002 0.038594 -0.025660001
0.11329 0.076899998 -0.029315
0.11256 0.077799998 -0.029030001
0.11295 0.078151003 -0.029812001
0.055193 0.068738997 0.060603999
0.054055002 0.069325 0.061516002
0.059820998 0.070996001 0.051752999
0.15686999 0.038784999 -0.015526
0.15576001 0.038660999 -0.016074
0.1561 0.038810998 -0.017171999
0.10528 0.11612 -0.010873
0.10543 0.11729 -0.010774
0.10623 0.1175 -0.010315
0.056942001 0.059358999 0.032756999
0.057666 0.060913 0.031796999
0.046943001 0.066163003 0.070005
0.046087999 0.064827003 0.069634996
0.045820002 0.065126002 0.070992
0.13312 0.11865 -0.025191
0.13237 0.1183 -0.024212001
0.13225999 0.11828 -0.024929
0.048376001 0.063831002 0.050983999
0.048730999 0.064237997 0.049876001
0.048184998 0.063266002 0.049254
0.02204 0.033397 0.051289
0.021300999 0.033325002 0.052763
0.099223003 0.043007001 -0.017588999
0.10077 0.042587999 -0.017976001
0.11147 0.074629001 -0.0056154998
0.039441001 0.095900998 0.092853002
0.13898 0.11067 -0.00049233
0.13821 0.11068 -9.1248003e-05
0.13802999 0.10967 -0.0001606
0.11365 0.090419002 -0.033709001
0.11404 0.090396002 -0.034929998
0.040924001 0.070387997 0.085853003
0.042587001 0.070130996 0.086515002
0.065989003 0.083774999 0.035982002
0.065373003 0.083727002 0.037012
0.093401998 0.055585001 0.010907
0.094975002 0.055468 0.01135
0.093819998 0.055311002 0.011034
0.13187 0.11743 -0.024447
0.042103998 0.10667 0.098472998
0.040617 0.10648 0.098333001
0.057300001 0.062132999 0.031468
0.059378002 0.061999001 0.031063
0.058412001 0.062109001 0.031086
0.068386003 0.063285999 0.027853999
0.068250999 0.064115003 0.02726
0.053693 0.072507001 0.042516999
0.11745 0.10745 -0.022115
0.11827 0.10687 -0.022177
0.1061 0.083948001 -0.018843999
0.088211998 0.0933 0.036621999
0.088753998 0.093749002 0.035684999
0.086496003 0.036554001 -0.026412999
0.05263 0.049968001 0.041168999
0.051750999 0.049504001 0.041903
0.050902002 0.050009001 0.041825
0.045875002 0.060433999 0.060959
0.045626 0.061021999 0.062540002
0.10846 0.10527 -0.0089165
0.10785 0.1068 -0.0084145004
0.10735 0.10534 -0.0085161999
0.10479 0.070532002 0.014249
0.12217 0.079021998 -0.053034998
0.12148 0.079660997 -0.051879998
0.12254 0.079503998 -0.051628001
0.12716 0.10663 -0.048859999
0.12775999 0.10728 -0.049555998
0.11108 0.072728001 0.00083244999
0.11024 0.072921 0.0005118
0.12411 0.072429001 -0.05926
0.12107 0.1077 -0.058146998
0.12076 0.10692 -0.059429999
0.1205 0.10657 -0.058265001
0.085800998 0.059193999 0.0031550999
0.1188 0.080912001 -0.048749998
0.11814 0.079741001 -0.047437001
0.11855 0.081046999 -0.04778
0.12883 0.1062 -0.041042998
0.12772 0.10587 -0.041926
0.10613 0.12233 -0.0085228002
0.093460001 0.036130998 0.066802002
0.092867002 0.035565998 0.066508003
0.093686998 0.035151999 0.065462999
0.051546998 0.059528001 0.036339998
0.051961999 0.059927002 0.035411
0.052937001 0.059211001 0.035379998
0.12549999 0.090075999 -0.043706998
0.12675001 0.090245001 -0.043072999
0.12728 0.090749003 -0.044509001
0.073432997 0.077526003 0.025126999
0.045258999 0.064506002 0.066987999
0.052081998 0.068801999 0.037762001
0.052154001 0.067606002 0.036370002
0.051794998 0.067896999 0.037448
0.054706 0.065738998 0.065908
0.054772999 0.066295996 0.064214997
0.054191001 0.066342004 0.065536
0.12446 0.089294001 -0.048342999
0.12519 0.089985996 -0.049238998
0.095654003 0.043721002 -0.014609
0.094839998 0.043549001 -0.0148
0.094374001 0.043813001 -0.013553
0.1267 0.062497001 -0.048555002
0.028077001 0.044380002 0.045063999
0.027268 0.044011001 0.044808999
0.026776999 0.044300001 0.046126999
0.040383998 0.11067 0.094811998
0.040105 0.10943 0.094235003
0.039774001 0.11006 0.095174998
0.10572 0.067327999 0.0030932
0.038128 0.040385999 0.025660001
0.10711 0.079768002 0.019195
0.10612 0.079539999 0.019312
0.10545 0.079562001 0.020217
0.028026 0.053943001 0.062011998
0.1004 0.056914002 0.030875999
0.099882998 0.057066999 0.029563
0.10061 0.056421001 0.029681001
0.088062003 0.054614 0.0040012002
0.098076001 0.059546001 0.033268001
0.050693002 0.066652998 0.056196999
0.050659999 0.067470998 0.056127999
0.13542999 0.096065998 -0.065485999
0.13451999 0.096087001 -0.064920001
0.13491 0.095711 -0.065805003
0.051224999 0.071465001 0.073025003
0.051043 0.071200997 0.07158
0.050462 0.071852997 0.071232997
0.10777 0.10658 -0.019915
0.10746 0.10618 -0.018934
0.11149 0.073868997 -0.00071543001
0.11051 0.075746998 -0.00030385001
0.11079 0.074373998 -0.00016518
0.12761 0.081207 -0.054359
0.11416 0.071635 -0.027743001
0.11372 0.072642997 -0.027939999
0.10585 0.063285001 -0.0052510998
0.10645 0.063491002 -0.0063878
0.091767997 0.043237999 -0.020416999
0.090736002 0.042647999 -0.019675
0.091332003 0.042734999 -0.019347001
0.030977 0.042050999 0.029052
0.10695 0.075963996 -0.0014276
0.032552 0.047363002 0.049621999
0.032370999 0.046270002 0.048801001
0.031188 0.047196001 0.049222998
0.11027 0.093455002 -0.014903
0.11075 0.091796003 -0.014736
0.030231999 0.043256 0.040022999
0.11564 0.077510998 0.010851
0.11667 0.077586003 0.010488
0.069072999 0.082705997 0.029766001
0.071001001 0.082647003 0.028879
0.1058 0.082659997 -0.017581999
0.037076 0.048632 0.048278999
0.10501 0.07677 0.018867999
0.10508 0.078578003 0.019215001
0.042270999 0.1039 0.10666
0.14969 0.036451001 0.0052407999
0.15007 0.036782999 0.0037084001
0.071889997 0.084620997 0.031119
0.043095998 0.10562 0.097984001
0.043145001 0.10667 0.098223999
0.11001 0.10253 -0.022345999
0.10927 0.083777003 -0.0057815998
0.11218 0.082133003 0.014858
0.084514998 0.037990998 0.05525
0.085055001 0.036819 0.055243999
0.084374003 0.040736001 0.057907999
0.042454001 0.053911 0.070247002
0.043039002 0.052751999 0.070583001
0.042842001 0.053410999 0.070646003
0.07542 0.067405999 0.025257001
0.075126998 0.066747002 0.025606001
0.10725 0.11189 -0.010018
0.10704 0.11282 -0.010064
0.10712 0.11331 -0.0091867
0.10241 0.055486999 -0.0015989
0.04064 0.055248 0.05381
0.040858999 0.054529998 0.052499
0.040564999 0.054428 0.053219002
0.027814001 0.049098998 0.060088001
0.027518 0.049687002 0.059037
0.13941 0.11329 -0.0031026001
0.069608003 0.084706999 0.033186998
0.068984002 0.085009001 0.033808999
0.10573 0.10117 -0.012359
0.10512 0.10222 -0.011902
0.083011001 0.035305001 0.063262999
0.081625998 0.036366999 0.062702
0.042477999 0.10272 0.086309999
0.04304 0.10394 0.087218001
0.1094 0.096135996 -0.021204
0.067743003 0.066129997 0.026660999
0.15078001 0.036888 0.0025686
0.15064999 0.037765 0.0022638999
0.039216001 0.10681 0.095680997
0.039682001 0.1079 0.094447002
0.039443001 0.10668 0.094512001
0.12176 0.073239997 -0.058075
0.096661001 0.048434 0.0011913
0.095299996 0.048641998 0.00082031998
0.080623999 0.078417003 0.022859
0.092233002 0.034545999 -0.011988
0.12268 0.047426 -0.0035359
0.12131 0.047162998 -0.0041871001
0.11277 0.086189002 -0.015247
0.11172 0.086905003 -0.015332
0.11244 0.087223001 -0.01599
0.094144002 0.072911002 0.020547001
0.095118001 0.071915999 0.020338999
0.11331 0.070109002 -0.027402001
0.067167997 0.061914001 0.027983001
0.067368999 0.063330002 0.027768999
0.13366 0.11215 -0.03066
0.042330999 0.098256998 0.10248
0.11426 0.10516 -0.027642
0.11462 0.10648 -0.027574999
0.11509 0.10633 -0.029029001
0.028779 0.034178998 0.036630999
0.15369999 0.043682002 -0.0080586001
0.15425 0.043846 -0.0067775999
0.086384997 0.034182001 -0.028011
0.085874997 0.035204999 -0.027783999
0.087412998 0.038819 -0.0074252998
0.086554997 0.037994999 -0.0063399002
0.090902999 0.054322001 0.00036502999
0.090102002 0.055043001 0.00099236995
0.11589 0.095628999 -0.041430999
0.1162 0.097496003 -0.042637002
0.11083 0.084068999 -0.012768
0.11182 0.083451003 -0.013217
0.11785 0.076916002 -0.046356998
0.11795 0.076178998 -0.045919999
0.10185 0.060856 -0.00082572002
0.10145 0.062077999 0.00014895
0.095224001 0.044078998 -0.013463
0.053601 0.070735998 0.080236003
0.054083001 0.070097998 0.081404001
0.11519 0.080160998 0.013216
0.11467 0.071580999 -0.029178999
0.11514 0.071776003 -0.03015
0.12639999 0.10894 -0.02368
0.12599 0.10937 -0.022481
0.1261 0.10828 -0.022705
0.049865998 0.067628004 0.061331999
0.043623999 0.036618002 0.016845999
0.043180998 0.036943998 0.016578
0.043092001 0.037453 0.016849
0.035835002 0.043689001 0.036699999
0.034116 0.04391 0.037255
0.031493999 0.046411 0.048641998
0.031833 0.045938 0.047742002
0.047764 0.082174003 0.082167998
0.048227001 0.081750996 0.082534999
0.12779 0.090770997 -0.0451
0.12751999 0.091463998 -0.045809001
0.065659001 0.084716998 0.037315998
0.1236 0.11439 -0.054290999
0.13349999 0.070049003 -0.061926
0.13255 0.070791997 -0.060865
0.032517999 0.044470001 0.045085002
0.033279002 0.043683998 0.044723999
0.13349 0.070386998 -0.060759
0.13331001 0.07051 -0.059528999
0.13349 0.070138 -0.059149001
0.081334002 0.091629997 0.039788999
0.081766002 0.092949003 0.038307
0.081100002 0.092482999 0.039214
0.10583 0.065907001 0.00068408001
0.10669 0.066405997 -0.00060899003
0.065536 0.082626 0.035286002
0.1124 0.077463999 0.015021
0.11772 0.10802 -0.034889001
0.11751 0.10744 -0.034841999
0.11743 0.10673 -0.035192002
0.04752 0.083452001 0.075815998
0.047775 0.084813997 0.075678997
0.042445999 0.056561999 0.078405999
0.042307999 0.056855999 0.076959997
0.042659 0.055826999 0.078151003
0.11065 0.064489998 -0.019370001
0.11152 0.064732 -0.020246999
0.11298 0.10133 -0.013929
0.11245 0.10103 -0.013673
0.11306 0.10047 -0.014355
0.11509 0.072414003 -0.040961999
0.11786 0.10199 -0.019905001
0.11689 0.10247 -0.019696999
0.11753 0.10165 -0.019187
0.096211001 0.087774999 0.026977999
0.097770996 0.086545996 0.025661999
0.096582003 0.086227 0.025558
0.13598 0.11075 -0.00038931001
0.13551 0.10938 -0.00085486
0.13590001 0.10942 -0.00061600999
0.11795 0.076856002 0.013319
0.1175 0.077872999 0.013598
0.12506001 0.10945 -0.053640001
0.12484 0.11043 -0.053335998
0.029751999 0.041662998 0.032710999
0.029091001 0.040615998 0.032740999
0.028952001 0.040274002 0.033787999
0.10413 0.10812 -0.013326
0.081652001 0.037593 0.061322998
0.081644997 0.037845999 0.061016001
0.088380001 0.069886997 0.023646999
0.087045997 0.070202999 0.023367001
0.088868 0.070410997 0.023086
0.13292 0.071693003 -0.063854001
0.098932996 0.057781 0.029229
0.083931997 0.062018 0.0055443998
0.069398999 0.087578997 0.037289001
0.071015 0.088582002 0.038129002
0.063801996 0.051743001 0.037041001
0.062383998 0.050618 0.037248999
0.062886 0.051215 0.036210999
0.11039 0.087751001 -0.029157
0.043381002 0.059810001 0.069248997
0.043315001 0.058573 0.069476999
0.043085001 0.058469001 0.069941998
0.1156 0.078451 -0.035884999
0.10986 0.094593003 -0.023716001
0.043674 0.058049999 0.081735
0.043051999 0.057985 0.080128998
0.043425001 0.057617001 0.080746002
0.047511 0.056409001 0.040644001
0.070964001 0.089844003 0.040707
0.081244998 0.035533 0.065201998
0.11245 0.1038 -0.025451999
0.038607001 0.10068 0.1061
0.10936 0.073909998 0.014715
0.029248999 0.048503 0.049787
0.030842001 0.048569001 0.050062001
0.068317004 0.075213 0.025730001
0.10851 0.048369002 0.0041967998
0.10913 0.047846999 0.0046815998
0.065842003 0.072002001 0.026879
0.12465 0.11005 -0.023556
0.12442 0.11023 -0.022909001
0.10317 0.053665999 0.026528999
0.046971001 0.053902999 0.042659
0.046952002 0.054496001 0.042229999
0.04786 0.054030001 0.041859999
0.095564999 0.059078999 0.0011929
0.1215 0.067018002 -0.028735001
0.12188 0.067611001 -0.02885
0.10726 0.10119 -0.018662
0.10723 0.10221 -0.01866
0.10776 0.10296 -0.018985
0.10449 0.089148 0.031438001
0.10444 0.090028003 0.030886
0.12049 0.066641003 -0.028041
0.12018 0.067574002 -0.028480999
0.094769999 0.066180997 0.023272
0.095178001 0.065539002 0.023117
0.095411003 0.064841002 0.023324
0.11142 0.083674997 0.016443999
0.11835 0.076916002 0.016333001
0.11718 0.078515999 0.015922001
0.11778 0.077555001 0.016457001
0.1083 0.083943002 -0.025473
0.17117 0.037503999 -0.01355
0.13118 0.1121 -0.058995999
0.13077 0.11321 -0.058476001
0.11896 0.070580997 -0.048746999
0.12046 0.070551001 -0.049743999
0.12853999 0.11532 -0.057234999
0.12801 0.11461 -0.058137
0.12735 0.11493 -0.057247002
0.090614997 0.041770998 -0.021887001
0.090741001 0.040927999 -0.022554999
0.10966 0.075719997 -0.022437001
0.095008999 0.086737998 0.026353
0.096280001 0.08698 0.02616
0.11635 0.091499001 -0.040894002
0.116 0.093021996 -0.041696001
0.11572 0.091583997 -0.040272001
0.10695 0.059379 -0.0063959998
0.10684 0.060667999 -0.0061542001
0.11936 0.092868 -0.014691
0.12131 0.092912003 -0.015595
0.12022 0.093493998 -0.0154
0.044631999 0.083616003 0.082041003
0.044208001 0.083981998 0.082622997
0.035379 0.053217001 0.060183998
0.035546999 0.053109001 0.059562001
0.034671001 0.053429998 0.059129
0.1138 0.079772003 -0.0068246
0.11345 0.078239001 -0.0054192999
0.11331 0.079475001 -0.0052381
0.092509001 0.058109 0.001345
0.13065 0.07113 -0.063166998
0.13045999 0.070910998 -0.063941002
0.11187 0.084631003 0.0254
0.11238 0.084624998 0.024014
0.11139 0.085554004 0.025177
0.099602997 0.078496002 0.020446001
0.10035 0.077705003 0.020377999
0.040380999 0.095817998 0.087820001
0.041301999 0.095389001 0.087095998
0.041288 0.094488002 0.086580999
0.15651999 0.044546001 0.0016288999
0.15530001 0.044929001 -0.00026932001
0.15515999 0.044792 0.0011876
0.050946999 0.050423998 0.040933002
0.051456001 0.050592002 0.041397002
0.15042 0.041653 0.0022441
0.14996 0.041825 0.0032615
0.042174999 0.079814002 0.082759999
0.041903 0.078221999 0.084036998
0.041662998 0.079628997 0.083954997
0.054864001 0.050367001 0.039301001
0.054834001 0.051213 0.038800001
0.15270001 0.044264998 0.0017648001
0.10286 0.079155996 0.021224
0.12356 0.063538998 -0.026087999
0.12325 0.062606998 -0.025464
0.089915998 0.062939003 0.0046911002
0.08963 0.062573001 0.0043680002
0.089978002 0.062533997 0.0055916002
0.12935001 0.10536 -0.042311002
0.12828 0.10535 -0.042675
0.051040001 0.068956003 0.057479002
0.032423001 0.044868 0.046567
0.031134 0.045338999 0.046470001
0.11033 0.071571998 -0.022084
0.10134 0.063483998 0.011617
0.10206 0.064686 0.011989
0.043343 0.061997999 0.071689002
0.043336999 0.060860001 0.070377
0.042833 0.060904 0.071607001
0.058272999 0.075590998 0.048574999
0.057617001 0.075762004 0.04868
0.057441 0.074988 0.049171999
0.10907 0.089919001 -0.024204001
0.10869 0.089876004 -0.023041001
0.10939 0.090167999 -0.022828
0.042394999 0.037753999 0.017632
0.043607999 0.037563998 0.018095
0.088684998 0.035360001 0.059335001
0.11725 0.054056 -0.012543
0.1165 0.053516999 -0.011677
0.11633 0.054370001 -0.01276
0.061275002 0.066527002 0.028617
0.060116999 0.067323998 0.028387999
0.060869999 0.067461997 0.027855
0.087514997 0.036447 -0.02894
0.086140998 0.036106002 -0.02813
0.086879 0.036897 -0.027675999
0.069536 0.093976997 0.041359
0.067762002 0.094085 0.041894
0.068797998 0.093932003 0.041712001
0.11919 0.078201003 -0.053038999
0.12027 0.078855999 -0.052965
0.025928 0.041717 0.055606999
0.026288001 0.040562999 0.055493999
0.080348998 0.036699999 0.0083953002
0.080224998 0.036451999 0.0094053997
0.093833998 0.089317001 0.028858
0.043040998 0.093258999 0.084066004
0.099316001 0.064584002 0.015197
0.099335998 0.065431997 0.015737999
0.10017 0.066059999 0.015236
0.1171 0.077559002 -0.039602999
0.11742 0.077627003 -0.040029
0.11846 0.077676997 -0.038825002
0.045929 0.10405 0.088413998
0.046650998 0.10525 0.087897003
0.045954 0.10523 0.088537998
0.10548 0.057503998 -0.0036734999
0.092693001 0.084835999 0.024596
0.091801003 0.084541999 0.024048001
0.039785001 0.10196 0.098422997
0.12102 0.048645001 -0.0070489999
0.12154 0.048691001 -0.0079394998
0.039981 0.053218 0.058279
0.1257 0.10863 -0.026652001
0.12489 0.10841 -0.026779
0.12472 0.10832 -0.02592
0.044401001 0.065461002 0.073973998
0.044064999 0.065682001 0.074584998
0.044401001 0.06622 0.074706003
0.077542998 0.087913997 0.034001999
0.078071997 0.087600999 0.032944001
0.077102996 0.087459996 0.032961
0.068314999 0.094183996 0.040874001
0.067299999 0.094342001 0.040305
0.084449001 0.083554 0.024149001
0.084187001 0.082291 0.023592001
0.085141003 0.038376998 -0.0012858
0.085152 0.038644001 -0.00017375
0.088407002 0.083725996 0.023965999
0.047793001 0.067561001 0.069081999
0.045231 0.091825999 0.080826998
0.12027 0.094705999 -0.016744001
0.12111 0.093323998 -0.016424
0.12069 0.093980998 -0.016302999
0.12394 0.056756001 -0.018603999
0.12242 0.057447001 -0.0187
0.091195002 0.063189 0.0050193998
0.073063001 0.083278999 0.028619001
0.07384 0.082818002 0.028247001
0.13354 0.091959998 -0.041951999
0.12577 0.10537 -0.045024
0.084554002 0.086943001 0.028743999
0.084214002 0.086455002 0.028005
0.087755002 0.036329001 -0.020592
0.087568 0.03765 -0.020593001
0.13860001 0.10906 -0.013197
0.027873 0.042858999 0.042089
0.028541001 0.042846002 0.041078001
0.027584 0.042580999 0.042084001
0.038376 0.087885998 0.096580997
0.037957001 0.088192001 0.096032999
0.1006 0.055748999 0.023898
0.040897999 0.10464 0.10738
0.041570999 0.10485 0.10674
0.040194999 0.10488 0.10751
0.047230002 0.066859998 0.07057
0.043933 0.054065 0.046177
0.10536 0.12009 -0.010459
0.089704998 0.036869001 -0.017339
0.031539001 0.039023001 0.023700999
0.030308999 0.039246999 0.023068
0.12914 0.079453997 -0.056538999
0.15316001 0.044029001 0.00042485999
0.044055 0.056612 0.080366999
0.045334999 0.056924999 0.081803001
0.044124 0.057146002 0.081194997
0.081642002 0.072926 0.022784
0.083012998 0.072931997 0.022841001
0.081982002 0.071782 0.023209
0.074853003 0.086786002 0.033284001
0.13375001 0.099174999 -0.065513
0.13494 0.099454999 -0.065507002
0.039887 0.093562998 0.091426
0.039792001 0.093154997 0.091054
0.039117001 0.093107 0.091632999
0.094191 0.092302002 0.031404
0.15651999 0.042126998 -0.011292
0.15723 0.040700998 -0.011379
0.15661 0.041538998 -0.012659
0.10804 0.068939 -0.012621
0.10806 0.068632998 -0.014079
0.10796 0.068516001 -0.013103
0.025804 0.040684 0.053785
0.054926999 0.072166003 0.054593999
0.054813001 0.072457001 0.054159999
0.053667001 0.072359003 0.053934
0.13314 0.11555 -0.027665
0.13296001 0.11478 -0.02801
0.13212 0.1146 -0.026652999
0.056313999 0.071454003 0.053583998
0.056324001 0.07237 0.052999001
0.055183999 0.072581001 0.053078
0.046445001 0.061673 0.051545002
0.047603 0.062360998 0.050753001
0.12058 0.072893001 -0.058525998
0.10594 0.066234 -0.018386999
0.10539 0.066275999 -0.0175
0.1054 0.067571998 -0.017983999
0.042369999 0.067707002 0.079797998
0.041852001 0.067971997 0.081056997
0.041928001 0.068867996 0.081228003
0.15557 0.044829 -0.0044919001
0.15434 0.043990999 -0.0038858
0.15543 0.044837002 -0.0032661001
0.045832001 0.071402997 0.075682998
0.044932 0.069904998 0.075471997
