# .PCD v0.7 - Point Cloud Data file format
VERSION 0.7
FIELDS x y z
SIZE 4 4 4
TYPE F F F
COUNT 1 1 1
WIDTH 1710
HEIGHT 1
VIEWPOINT 0 0 0 1 0 0 0
POINTS 1710
DATA ascii
0.26704001 0.14451 0.21448
0.26594001 0.14361 0.21417999
0.26626 0.14443 0.21386001
0.24494 0.14552 0.20651001
0.22600999 0.15936001 0.17151999
0.22729 0.15971 0.17174
0.22723 0.15896 0.17244001
0.26148 0.11034 0.24331
0.26102 0.11008 0.24135999
0.26135999 0.11035 0.24214
0.26137 0.18649 0.24243
0.26625001 0.066568002 0.20509
0.27443001 0.15454 0.22341
0.27393001 0.15469 0.22232001
0.24541999 0.19373 0.22942001
0.24518 0.19441 0.23079
0.24676 0.19464 0.23059
0.25464001 0.18571 0.21337999
0.25470001 0.18528 0.21259999
0.25709999 0.064025 0.25435999
0.25676 0.064029999 0.25411001
0.26486 0.11823 0.24258
0.26491001 0.11872 0.24202
0.26456001 0.11887 0.24260999
0.24462 0.086861998 0.25279999
0.24577001 0.086686999 0.25271001
0.24495 0.085925996 0.25229001
0.25714001 0.095780998 0.20896
0.25683001 0.11793 0.20774999
0.25597 0.11868 0.2079
0.21307001 0.19464999 0.23849
0.21997 0.18129 0.21775
0.22107001 0.18099 0.21816
0.24749 0.17629001 0.20555
0.24829 0.17646 0.20555
0.26306 0.055059999 0.25654
0.26313999 0.053833999 0.25795999
0.26069 0.10389 0.21003
0.25806001 0.097294003 0.20996
0.25828001 0.098646 0.21092001
0.22418 0.17399 0.27882001
0.2242 0.17397 0.27798
0.26392999 0.052510001 0.20614
0.28246 0.10461 0.23101
0.28121999 0.1048 0.23204
0.2509 0.058683999 0.27408001
0.25292999 0.16506 0.20215
0.24948999 0.15162 0.20319
0.24938001 0.1515 0.20242999
0.2499 0.15212999 0.20273
0.24747001 0.16850001 0.19971
0.24717 0.16782001 0.19921
0.24603 0.16846 0.19870999
0.26528001 0.065131001 0.21258
0.26567 0.06521 0.21156
0.26561999 0.066182002 0.21144
0.24296001 0.14049 0.21037
0.23848 0.1884 0.21899
0.25751999 0.050733 0.25343001
0.25689 0.050965 0.25273001
0.25740001 0.051518999 0.25193
0.26242 0.10981 0.22570001
0.26117 0.058587998 0.26126999
0.25791001 0.15702 0.20562001
0.25784001 0.15577 0.20545
0.25666001 0.15594 0.20544
0.26021001 0.10778 0.24316999
0.26109001 0.10754 0.24411
0.26012 0.1068 0.24358
0.27607 0.16498999 0.22685
0.27592 0.16503 0.22592001
0.27643999 0.10629 0.2282
0.23092 0.15468 0.18228
0.23100001 0.15396 0.18295
0.22981 0.15402 0.18295
0.23673999 0.1758 0.20642
0.23728999 0.17498 0.20619
0.23734 0.17403001 0.20637
0.25081 0.1697 0.20241
0.24952 0.16870999 0.20175
0.24935 0.16933 0.20252
0.26064 0.17219999 0.20724
0.20115 0.186 0.17303
0.20200001 0.18546 0.17309
0.20173 0.18528999 0.17207
0.27081999 0.1602 0.21415
0.27037999 0.16058999 0.21325999
0.27083999 0.16174001 0.21312
0.26151001 0.18535 0.24382
0.26842999 0.18418001 0.23694
0.22313 0.17921001 0.17959
0.22304 0.17947 0.17873
0.25125 0.1673 0.20187999
0.25069001 0.16858999 0.20213
0.25173 0.168 0.20265999
0.24260999 0.14918 0.2023
0.23826 0.16845 0.19769
0.23786999 0.16893999 0.19904999
0.21881001 0.16723999 0.16790999
0.21912999 0.16751 0.16717
0.24769001 0.057797 0.27790001
0.24866 0.057585999 0.27768001
0.25018999 0.19133 0.24222
0.25007001 0.19095001 0.24289
0.27191001 0.14856 0.24147999
0.27223 0.14911 0.24056
0.27232999 0.15007 0.24186
0.25308001 0.098660998 0.26582
0.25299999 0.097383998 0.26558
0.21751 0.19007 0.22186001
0.21884 0.18951 0.22225
0.24031 0.056219999 0.19627
0.24027 0.056529999 0.19668999
0.25902 0.087090001 0.20551001
0.25968999 0.085946999 0.20553
0.26499 0.13495 0.24376
0.26521999 0.1353 0.24285001
0.26572999 0.13628 0.24308001
0.24326 0.11907 0.20374
0.24282999 0.11853 0.20299
0.24015 0.16046 0.18363
0.24101 0.16043 0.18431
0.24022 0.15911999 0.18403
0.28443 0.10212 0.22868
0.23957001 0.17918 0.21008
0.25323001 0.17746 0.20636
0.25351 0.17811 0.20709001
0.24512 0.14193 0.20927
0.24624 0.14182 0.20896
0.21690001 0.18018 0.18094
0.21825001 0.18018 0.17985
0.20883 0.16987 0.17076001
0.20889001 0.17026 0.17026
0.26497 0.17772999 0.21223
0.26447001 0.17676 0.21077999
0.26444 0.17782 0.21096
0.27039 0.17871 0.21996
0.27019 0.17861 0.21949001
0.26942 0.17921001 0.21994001
0.21805 0.1927 0.21472999
0.21808 0.19355001 0.21636
0.25086001 0.12381 0.20785999
0.25092 0.12415 0.20830999
0.25378001 0.19231001 0.23765001
0.26390001 0.18635 0.22084001
0.26376 0.18611 0.22003999
0.26793 0.15553001 0.21114001
0.26855001 0.15571 0.21166
0.26877001 0.15453 0.21156
0.26510999 0.14771 0.21229
0.26449001 0.14820001 0.21112999
0.22363999 0.15996 0.28746
0.22283 0.15976 0.28784001
0.2288 0.17409 0.18370999
0.22836 0.17377 0.18495999
0.22913 0.17332 0.18551999
0.21149001 0.19299001 0.24496
0.2122 0.19235 0.24484
0.25951001 0.11254 0.26135999
0.22233 0.1795 0.17513999
0.22130001 0.17963 0.17558999
0.19841 0.17766 0.16806
0.23171 0.17182 0.18356
0.27070999 0.15697999 0.24816
0.27083001 0.15627 0.24816
0.26148 0.11099 0.20651001
0.26086 0.11112 0.20556
0.25872999 0.17542 0.20652001
0.25806001 0.17523 0.20621
0.26212999 0.12392 0.24755999
0.26115 0.12396 0.2481
0.20676 0.19946 0.25209001
0.20695999 0.19972999 0.25246999
0.20658 0.20038 0.25170001
0.26254001 0.18005 0.21112999
0.26172 0.17984 0.21097
0.25060001 0.087889001 0.19802
0.27056 0.14332999 0.23025
0.24563999 0.076971002 0.25047001
0.24552999 0.075355999 0.25082999
0.24516 0.076681003 0.25049001
0.26255 0.15571 0.20663001
0.26244 0.15519001 0.20678
0.26140001 0.15443 0.20624
0.25797999 0.083851002 0.26743999
0.25845 0.084536001 0.26682001
0.25751001 0.084852003 0.26739001
0.27099001 0.16932 0.24629
0.25612 0.096082002 0.25343999
0.22814 0.16106001 0.17061
0.21919 0.17589 0.27838001
0.2516 0.058217 0.19735
0.25312001 0.057523001 0.19732
0.25204 0.057928 0.19665
0.26185 0.058104999 0.25777999
0.26216999 0.057348002 0.25781
0.26223999 0.057505 0.25659999
0.26938 0.1842 0.2281
0.27009001 0.18356 0.22825
0.26965001 0.18329 0.22673
0.27302 0.16607 0.21624
0.27331001 0.16739 0.21777999
0.27344999 0.16624001 0.21743
0.27338001 0.15143999 0.24055
0.27294001 0.15132 0.24109
0.27271 0.15108 0.24168999
0.259 0.1158 0.20728999
0.25819999 0.1161 0.20655
0.23384 0.16394 0.17589
0.23423 0.16506 0.17601
0.26030001 0.1196 0.21258
0.26012999 0.1204 0.21235999
0.26056001 0.12031 0.21302
0.26517001 0.17793 0.21289
0.22484 0.16264001 0.28731999
0.21365 0.18319 0.18108
0.21228001 0.18329 0.1813
0.24597999 0.17656 0.20595001
0.2692 0.18341 0.22465999
0.27019 0.18222 0.22464
0.27008 0.18222 0.2243
0.2482 0.094048001 0.19745
0.26552999 0.14556 0.24979
0.25973001 0.056756001 0.26451001
0.25161001 0.19404 0.23301999
0.2696 0.16621 0.25012001
0.26659 0.051240001 0.20769
0.26561999 0.051662002 0.20734
0.26473001 0.11652 0.24044
0.26469001 0.11614 0.2395
0.25411999 0.12083 0.25791001
0.25415 0.12085 0.25913
0.25505 0.12049 0.25795001
0.23704 0.16418999 0.27555999
0.26664999 0.052857 0.20765001
0.27304 0.16502 0.21646
0.27271 0.16507 0.21566001
0.27279001 0.16632999 0.21547
0.25641999 0.065185003 0.26727
0.25490999 0.064115003 0.26813999
0.25650001 0.063837998 0.26730001
0.25813001 0.054731999 0.2667
0.25773001 0.054069001 0.26712999
0.25547001 0.062902004 0.20020001
0.25650001 0.061926 0.20065001
0.25551999 0.061795 0.20062999
0.25887001 0.064115003 0.26376
0.25920001 0.063190997 0.26350999
0.25935 0.063202001 0.26249
0.27056 0.17715999 0.2414
0.27015001 0.17666 0.24223
0.27384001 0.15113001 0.23808999
0.27401999 0.15131 0.23817
0.20745 0.19295 0.24368
0.2088 0.19307999 0.24324
0.21473999 0.18935999 0.21488
0.21447 0.19035 0.21505
0.21458 0.18989 0.21456
0.23233999 0.17983 0.21233
0.26966 0.11007 0.22638001
0.26982 0.10952 0.22653
0.26581001 0.13688 0.21695
0.26607001 0.13636 0.21753
0.26514 0.13608 0.21642999
0.20448001 0.18554001 0.1718
0.20522 0.18591 0.17194
0.20527001 0.18467 0.17151
0.25955001 0.10654 0.24301
0.26025999 0.10642 0.24434
0.27418 0.17203 0.23616999
0.27476001 0.17092 0.23616
0.27423 0.17192 0.23458999
0.26438999 0.077059999 0.20403001
0.26427001 0.075709 0.20396
0.26407 0.076655 0.20299
0.24579 0.082197003 0.25069001
0.24041 0.12042 0.2098
0.24111 0.12036 0.20912001
0.24052 0.11944 0.20885
0.26157999 0.10992 0.23379
0.26054999 0.10993 0.23394001
0.25990999 0.10982 0.233
0.21249001 0.18791001 0.18097
0.26227 0.057259001 0.20285
0.26236999 0.058318 0.20296
0.26249 0.066474997 0.21435
0.26752999 0.13883001 0.2428
0.26782 0.13876 0.24202
0.27485001 0.16417 0.23799001
0.27485001 0.1637 0.23823
0.27055001 0.14892 0.21764
0.2606 0.052999999 0.20265999
0.23795 0.089286 0.19551
0.23944999 0.089318998 0.19564
0.24939001 0.093131997 0.26833001
0.25003999 0.092463002 0.26767001
0.25816 0.13174 0.21253
0.25661999 0.13166 0.21232
0.25782001 0.13282999 0.21246
0.25075001 0.050547 0.19722
0.24968 0.050717998 0.19859
0.24948999 0.050528001 0.19736999
0.1964 0.18584999 0.28402001
0.26236001 0.11252 0.21878999
0.26743001 0.1558 0.25060999
0.26804 0.15528999 0.25012001
0.26877001 0.15576001 0.24993999
0.29317001 0.094067 0.23504999
0.29317001 0.093080997 0.23502
0.29370001 0.094148003 0.23522
0.27261999 0.15338001 0.24427
0.27245 0.15449999 0.24537
0.21584 0.17478 0.16989
0.22266001 0.15823001 0.1736
0.20273 0.17883 0.28966999
0.20382001 0.1788 0.28986999
0.20243999 0.17997 0.28948
0.26673001 0.10645 0.22651
0.26429 0.12256 0.24221
0.26255 0.11675 0.24807
0.26254001 0.11684 0.24901
0.26396 0.11818 0.24315999
0.26378 0.11921 0.24413
0.23907 0.10748 0.19802999
0.24044 0.10895 0.19791999
0.24044 0.10754 0.19735
0.24529 0.18418001 0.21227001
0.24478 0.1833 0.2122
0.23839 0.087325998 0.19571
0.23802 0.087021999 0.19609
0.26730001 0.14991 0.21278
0.26675999 0.14915 0.21244
0.19621 0.18581 0.17308
0.25481999 0.18912999 0.21769001
0.25408 0.18979 0.21836001
0.26119 0.18359999 0.24521001
0.26157001 0.18308 0.24614
0.27772999 0.10445 0.22748999
0.27717999 0.10494 0.22728001
0.26714 0.14353 0.2166
0.25457001 0.16379 0.20306
0.25353 0.16407 0.20246001
0.25 0.10433 0.19554999
0.25079 0.10435 0.19621
0.24869999 0.091842003 0.19791999
0.24978 0.091614 0.19826999
0.24948999 0.090910003 0.19809
0.23524 0.19278 0.22632
0.23495001 0.19325 0.22763
0.25588 0.095778003 0.21126001
0.25560999 0.094994001 0.21206
0.25591999 0.094959997 0.21122
0.25731 0.10186 0.26241001
0.25683999 0.1013 0.26203001
0.23466 0.15482999 0.18361001
0.23388 0.1551 0.18339001
0.25644001 0.11672 0.26233
0.25703001 0.11585 0.26278999
0.25735 0.11569 0.26236001
0.26049 0.059553001 0.25755
0.26087999 0.059604 0.25898999
0.26772001 0.15132999 0.21242
0.28233001 0.099583998 0.23457
0.28235999 0.10091 0.23532
0.28112 0.10008 0.23428001
0.25249001 0.075521998 0.25141001
0.25630999 0.19172999 0.23677
0.19519 0.18441001 0.17348
0.19514 0.1858 0.17324001
0.22197001 0.18020999 0.21732
0.22168 0.18156999 0.21826001
0.25266999 0.11886 0.20300999
0.25183001 0.11941 0.20279001
0.25283 0.11914 0.2041
0.2617 0.081561998 0.20968001
0.24246 0.086834997 0.25402999
0.24270999 0.085910998 0.25356999
0.24158999 0.085743003 0.25406
0.26918 0.17044 0.2123
0.25187001 0.099529997 0.19727001
0.25205001 0.10073 0.19694
0.25296 0.10075 0.19757
0.23366 0.18224999 0.21379
0.25176999 0.18673 0.21357
0.25218001 0.18584 0.2131
0.2254 0.17162 0.28575999
0.22576 0.17076001 0.28707999
0.22600999 0.17106 0.28606999
0.26776001 0.17912 0.24332
0.22575 0.15899999 0.17248
0.22708 0.15825 0.17291
0.25727001 0.11754 0.20771
0.25702 0.11819 0.20837
0.25712001 0.066716 0.26808
0.25738999 0.067841999 0.26791999
0.25580001 0.083025999 0.2149
0.25461 0.082553998 0.21543001
0.25556999 0.082055002 0.21515
0.25411001 0.098344997 0.19978
0.25385001 0.099528998 0.19870999
0.27456999 0.15241 0.23588
0.27417001 0.15136001 0.23573001
0.27469999 0.15215001 0.23467
0.24805 0.1944 0.23291001
0.22766 0.1652 0.28248999
0.26840001 0.12727 0.23355
0.21166 0.19836 0.21517
0.21265 0.19912 0.21479
0.2462 0.080114 0.19649
0.24605 0.078969002 0.19622999
0.24072 0.055950999 0.19566999
0.24145 0.054935001 0.19611
0.24033 0.054675002 0.19549
0.24268 0.10542 0.19506
0.24267 0.10444 0.19491
0.24133 0.10434 0.19536
0.19949999 0.18384001 0.28387001
0.2331 0.15166 0.18719999
0.27103999 0.17422999 0.24293
0.27094001 0.17445999 0.24173
0.27065 0.17507 0.24277
0.20920999 0.189 0.18079001
0.20882 0.19051 0.18058001
0.26943001 0.13314 0.22600999
0.24975 0.076839 0.19724
0.24975 0.075686 0.19735
0.25769001 0.074386999 0.26793
0.25773001 0.075566001 0.26859999
0.28691 0.097521998 0.22996999
0.28566 0.098136999 0.23010001
0.26043001 0.15628999 0.20582999
0.25185001 0.18358999 0.21088
0.25211 0.18406001 0.21134999
0.24287 0.14922 0.19653
0.24144 0.14916 0.1964
0.24142 0.14946 0.19559
0.21475001 0.18574999 0.17995
0.21536 0.18617 0.17921001
0.26958001 0.1054 0.22583
0.27076 0.10663 0.22582
0.27068001 0.10554 0.22612
0.26071 0.1135 0.20756
0.26043999 0.11379 0.20716999
0.2599 0.1147 0.2078
0.25961 0.077595003 0.26550999
0.25904 0.076897003 0.26629999
0.2427 0.16056 0.27113
0.26144999 0.083587997 0.20389
0.26196 0.082285002 0.20297
0.26133001 0.083636999 0.20288999
0.24733 0.097623996 0.19495
0.24714001 0.082437001 0.25073999
0.24699999 0.083756998 0.25095999
0.25650001 0.094056003 0.20649999
0.25707 0.095128 0.20761999
0.25655001 0.093797997 0.20732
0.25026 0.084536999 0.25152999
0.25031 0.085472003 0.25170001
0.25872001 0.10451 0.20288999
0.25904 0.10543 0.20308
0.27601999 0.16537 0.23034
0.27584001 0.16517 0.23119
0.24286 0.054051999 0.19058999
0.24296001 0.053559002 0.18961
0.25878 0.10558 0.26210999
0.259 0.10672 0.26269001
0.25808001 0.10696 0.26317999
0.27110001 0.14532 0.2403
0.27204999 0.14668 0.23944999
0.27138999 0.14645 0.24056999
0.25369 0.092777997 0.26126999
0.2538 0.091615997 0.26133001
0.25387999 0.091651 0.26028001
0.26499999 0.18573999 0.2212
0.26570001 0.18601 0.22186001
0.25997001 0.18340001 0.21229
0.26712 0.16334 0.25246
0.28951001 0.09956 0.22943
0.29030001 0.098544002 0.22968
0.2291 0.15515 0.18043999
0.22959 0.1557 0.17969
0.22966 0.15568 0.18047
0.26857999 0.12951 0.22336
0.26839 0.12982 0.22447
0.25777999 0.1398 0.21194001
0.25661999 0.13971999 0.21141
0.26266 0.14016999 0.21527
0.26203001 0.13961001 0.21495
0.24305999 0.16777 0.19494
0.25508001 0.095229998 0.26012999
0.25446001 0.094806001 0.26054001
0.25378999 0.070288002 0.25152001
0.25249001 0.070349 0.25143999
0.25343999 0.071153998 0.25169
0.23382001 0.16746999 0.18613
0.23325001 0.16836999 0.18742999
0.25646001 0.15489 0.20564
0.25971001 0.073546998 0.26589999
0.26262 0.16295999 0.20603999
0.26696 0.12287 0.23602
0.26734999 0.12364 0.23711
0.26675999 0.12314 0.237
0.24157 0.14363 0.20822001
0.24270999 0.14374 0.20841999
0.26223001 0.075526997 0.2006
0.26284999 0.074409999 0.20088001
0.26241001 0.074700996 0.20054001
0.27208 0.16156 0.21533
0.27162999 0.16046 0.21536
0.26019999 0.054958999 0.20169
0.26019999 0.056256998 0.20153999
0.24236999 0.16304 0.27065
0.22519 0.15995 0.17093
0.2261 0.16005 0.17094
0.26385999 0.12049 0.22039001
0.26462001 0.12142 0.22135
0.22285999 0.15357 0.17948
0.22376999 0.15399 0.17952999
0.25654 0.087136 0.20083
0.22078 0.17013 0.29121
0.21971001 0.17077 0.29166001
0.25729999 0.1125 0.20112
0.25648001 0.11364 0.2009
0.25791001 0.11352 0.20185
0.2687 0.17663001 0.21488
0.26938999 0.17639001 0.21573
0.26952001 0.17523 0.21567
0.27557001 0.16982 0.22776
0.25576001 0.19157 0.22243001
0.25582001 0.19103 0.22129001
0.25661999 0.10315 0.264
0.19648001 0.18203001 0.28137001
0.19769999 0.18274 0.28145
0.19778 0.18190999 0.2811
0.27489001 0.16632999 0.22126
0.27502999 0.16622999 0.22249
0.21936999 0.17499 0.28705001
0.25598001 0.063312002 0.25415999
0.26609001 0.10424 0.23021001
0.26620999 0.1042 0.23146001
0.26499 0.10563 0.23055001
0.23097999 0.18065 0.21568
0.23147 0.17998999 0.2149
0.23103 0.17996 0.21612
0.26910001 0.14117 0.22717001
0.26947999 0.14089 0.22798
0.25663999 0.068683997 0.19798
0.25656 0.069095999 0.19780999
0.25736001 0.068942003 0.19778
0.26151001 0.07339 0.1992
0.26120001 0.072213002 0.19938999
0.26078999 0.072017998 0.19901
0.27044001 0.16856 0.24729
0.26991999 0.16878 0.24782
0.26980999 0.16854 0.2481
0.26886001 0.14805999 0.21575999
0.24647 0.12402 0.20776001
0.24664 0.12475 0.20822001
0.21287 0.17315 0.21811999
0.21253 0.17212 0.2183
0.24589001 0.078933001 0.25015
0.24467 0.080357 0.25036001
0.2458 0.080136999 0.24987
0.24157999 0.16170999 0.18599001
0.24151 0.16051 0.18499
0.24113999 0.16144 0.18505999
0.26163 0.10786 0.24515
0.26107001 0.10825 0.24439
0.22087 0.17645 0.17091
0.24958999 0.17067 0.20273
0.25002 0.1699 0.20285
0.24505 0.14947 0.20102
0.23261 0.18578 0.21638
0.23157001 0.18537 0.21638
0.27427 0.16969 0.23905
0.27426001 0.17061 0.23907
0.27344 0.17091 0.2396
0.24789999 0.19397999 0.22603001
0.2485 0.1936 0.22464
0.26267001 0.11122 0.25584
0.26276001 0.11265 0.255
0.26258001 0.11265 0.25580001
0.25819001 0.19179 0.23052
0.23591 0.19251999 0.22500999
0.23607001 0.19284 0.2262
0.23737 0.19272999 0.22581001
0.26034001 0.061723001 0.20132001
0.26135999 0.061980002 0.20181
0.26826999 0.14364 0.21886
0.26773 0.14241999 0.2189
0.26728001 0.14301001 0.21776
0.19683 0.16617 0.22449
0.19583 0.16590001 0.22454
0.19583 0.16603 0.22542
0.20750999 0.18561 0.17152999
0.26328 0.11347 0.23698001
0.26267001 0.11286 0.23714
0.23544 0.16674 0.27533001
0.25130999 0.15797 0.19879
0.25150999 0.1573 0.19901
0.25119999 0.15696 0.19870999
0.2674 0.12489 0.23602
0.26807001 0.12493 0.23492
0.26798999 0.12592 0.23597001
0.27491 0.15333 0.236
0.27505001 0.15459999 0.23619001
0.27491 0.15466 0.2369
0.22723 0.16678999 0.28299001
0.22767 0.16651 0.28297001
0.22779 0.16628 0.28241
0.24213 0.15798999 0.1864
0.26027 0.12959 0.21348999
0.25988001 0.12839 0.21359999
0.25931001 0.12836 0.2132
0.2174 0.19419 0.21617
0.21704 0.19473 0.21744999
0.21171001 0.17843001 0.28015
0.21238001 0.17838 0.28016999
0.21281999 0.17805 0.27919999
0.24383 0.053800002 0.28277001
0.24442001 0.053957 0.28251001
0.25782999 0.15978 0.20437001
0.25777999 0.15996 0.20460001
0.25856 0.16015001 0.2043
0.25876999 0.11238 0.2626
0.25920001 0.11125 0.26181999
0.20259 0.1794 0.28121999
0.20247 0.17896999 0.28075999
0.25766999 0.13428 0.21258999
0.25903001 0.1353 0.21249001
0.27219 0.17195 0.24287
0.27239999 0.17079 0.24268
0.24869999 0.18956999 0.21674
0.24833 0.18977 0.21702
0.26065001 0.12483 0.21446
0.22087 0.18572 0.21857999
0.22194 0.18460999 0.21947999
0.22081999 0.18460999 0.21838
0.26921999 0.16989 0.24785
0.26980999 0.16942 0.24745999
0.26929 0.17095999 0.24764
0.25560999 0.15894 0.20426001
0.25670001 0.15931 0.20421
0.25540999 0.15810999 0.20438001
0.25466999 0.13059001 0.21162
0.25562 0.13059001 0.21190999
0.23778 0.15016 0.18956999
0.2386 0.1507 0.19
0.26927 0.1823 0.22223
0.26870999 0.18299 0.22189
0.23153999 0.19414 0.22843
0.23018 0.19386999 0.22834
0.24405999 0.055098999 0.28235
0.26446 0.075544998 0.2053
0.25248 0.059615999 0.25431001
0.25296 0.059241999 0.25398001
0.25279 0.058416001 0.25364
0.24868999 0.19356 0.22609
0.22510999 0.17287999 0.16937999
0.25573 0.094056003 0.21081001
0.25628999 0.094823003 0.21075
0.22661 0.17228 0.18777999
0.22786 0.1718 0.18753999
0.26583001 0.18732999 0.23111001
0.26567999 0.17594001 0.24869999
0.26673001 0.17549001 0.24843
0.26620001 0.17603 0.2481
0.28027001 0.099494003 0.23357999
0.28013 0.098563999 0.23314001
0.28112 0.098631002 0.23266
0.25773001 0.057170998 0.26725999
0.24515 0.15550999 0.26756001
0.24491 0.15468 0.26741001
0.24553999 0.15583999 0.26710001
0.25492001 0.11101 0.2656
0.27109 0.14538001 0.23283
0.27122 0.14677 0.23375
0.26262999 0.054963 0.25556999
0.27462 0.15121999 0.23469999
0.24199 0.080008999 0.25207001
0.21009 0.18440001 0.18097
0.20997 0.18583 0.18131
0.20913 0.18584 0.18091001
0.27516001 0.16501001 0.22206999
0.24468 0.17814 0.20754001
0.24255 0.051835999 0.28419
0.24154 0.052503999 0.28464001
0.24163 0.051784001 0.28428999
0.25461999 0.16867 0.20356999
0.25308001 0.1672 0.20306
0.25307 0.16853 0.20327
0.26446 0.17884 0.24795
0.26747 0.1848 0.23729999
0.2678 0.18499 0.23645
0.26741001 0.18572 0.23616999
0.25308999 0.14098001 0.20994
0.25334001 0.13997 0.21091001
0.25722 0.065222003 0.25376001
0.25652999 0.054037999 0.26831999
0.22487999 0.1708 0.16825999
0.21099 0.18246999 0.17017999
0.21108 0.18308 0.17015
0.21233 0.18218 0.17048
0.25319001 0.13387001 0.21072
0.24137001 0.10814 0.19655
0.25002 0.15639 0.19614001
0.2457 0.16383 0.26703
0.24462 0.16373 0.26833001
0.26201001 0.12843999 0.24662
0.26148 0.12966999 0.24721
0.24856 0.14997 0.20401999
0.25797999 0.087219998 0.20636
0.25742 0.087699004 0.20658
0.23833001 0.14221001 0.21021999
0.23835 0.1408 0.21026
0.23803 0.14097001 0.21082
0.28565001 0.10188 0.23466
0.28580001 0.10265 0.23434
0.23429 0.16752 0.18416999
0.23074999 0.17021 0.27296001
0.23106 0.1706 0.27232999
0.22983 0.17030001 0.27300999
0.21631999 0.17708001 0.28237
0.26813999 0.12953 0.23954
0.26784 0.13080999 0.23962
0.26596001 0.058472 0.20852999
0.26541999 0.058458 0.20777
0.2651 0.058903001 0.20685001
0.25746 0.18344 0.24911
0.25769001 0.078068003 0.26811999
0.25573999 0.14872 0.20606001
0.25683001 0.14985 0.2059
0.21325999 0.19887 0.21071
0.21308 0.19964001 0.21049
0.21949001 0.17408 0.28935999
0.21848001 0.17377 0.29014
0.21964 0.17293 0.29023999
0.22998001 0.16965 0.27441999
0.22956 0.17035 0.27364001
0.24403 0.12004 0.20445
0.24382 0.11951 0.20388
0.26126999 0.11363 0.21321
0.26778001 0.12843999 0.23944999
0.25764 0.097612999 0.21100999
0.25707 0.096965 0.21144
0.27458999 0.17127 0.22573
0.27426001 0.17203 0.22445001
0.27423 0.17216 0.22571
0.25839999 0.10314 0.26115
0.25775 0.10273 0.26176
0.26216999 0.12241 0.21664999
0.26267001 0.12158 0.21653
0.26223999 0.12147 0.21591
0.25962001 0.11802 0.25797001
0.25612 0.068696 0.26892999
0.25628999 0.070055999 0.26883
0.25545001 0.069867 0.26938999
0.25707 0.073469996 0.26909
0.25795001 0.073138997 0.26820001
0.25369999 0.092432998 0.26253
0.21822 0.19281 0.24144
0.2429 0.14458001 0.20807
0.24171001 0.14455 0.208
0.25378001 0.10089 0.26618001
0.25389999 0.099714004 0.26604
0.26719001 0.11345 0.22666
0.26644 0.11452 0.22589999
0.26291001 0.071865998 0.21296
0.24973001 0.058637001 0.27447999
0.24827 0.058779001 0.27531001
0.24958 0.058338001 0.27529001
0.25608 0.18366 0.2492
0.25832999 0.060837999 0.21404
0.25916001 0.060598001 0.21427999
0.25904 0.062059999 0.21430001
0.24669001 0.18805 0.21551
0.26183999 0.11023 0.20998999
0.22835 0.15924001 0.17254999
0.22913 0.15986 0.17242
0.2719 0.17889 0.23469999
0.27151999 0.17975 0.23425999
0.2714 0.17921001 0.23507001
0.24838001 0.15249 0.19754
0.24921 0.15388 0.19751
0.24877 0.152 0.19866
0.28476 0.097597003 0.23
0.28487 0.098191999 0.22982
0.26120999 0.11343 0.20874
0.26135999 0.11261 0.20861
0.26091999 0.11242 0.20734
0.21435 0.1938 0.20973
0.24641 0.071773 0.2518
0.24964 0.1181 0.20077001
0.24958 0.11928 0.20200001
0.25036001 0.19407 0.23377
0.24585 0.15488 0.26574001
0.24548 0.15439001 0.26635
0.26321 0.064528003 0.20202
0.24513 0.1874 0.21517999
0.24533001 0.18810999 0.21524
0.2422 0.19351999 0.23063999
0.24122 0.19419 0.23083
0.24089999 0.19439 0.2316
0.26265001 0.12842999 0.21509001
0.23488 0.16700999 0.18463001
0.23422 0.16746999 0.18514
0.25944 0.10197 0.24770001
0.25966001 0.10305 0.24656001
0.25975001 0.10251 0.24733
0.25792 0.065829001 0.19891
0.25797001 0.065205 0.19901
0.2669 0.16292 0.20874999
0.266 0.16148999 0.20815
0.26602 0.16271 0.20818999
0.27088001 0.17918 0.22308999
0.25939 0.061880998 0.26249
0.25938001 0.062890001 0.26313999
0.25918999 0.062266 0.26335001
0.24979 0.057270002 0.27608001
0.24978 0.056449 0.27768999
0.22412001 0.16156 0.28802001
0.25883999 0.056049 0.25268999
0.2124 0.1919 0.23739
0.24142 0.15918 0.18489
0.24173 0.15932 0.18604
0.26251 0.10885 0.25564
0.2622 0.10911 0.25670001
0.26243001 0.10748 0.25540999
0.27426001 0.17419 0.22584
0.26583001 0.11938 0.23705
0.26581001 0.12026 0.23702
0.27386999 0.16711999 0.24016
0.27485999 0.16638 0.23938
0.21473999 0.19824 0.24603
0.21482 0.19747999 0.24661
0.21524 0.19697 0.24595
0.20893 0.2006 0.24578001
0.20917 0.2 0.24516
0.24494 0.11491 0.1987
0.27113 0.1503 0.24519999
0.27042001 0.14932001 0.24484
0.27083001 0.14901 0.24426
0.26269001 0.11501 0.25325
0.26356 0.14216 0.21573
0.26381001 0.14181 0.2164
0.26343 0.14102 0.21608999
0.26343 0.13974001 0.21573
0.26181 0.10621 0.24843
0.26234001 0.10645 0.24991
0.26214001 0.10557 0.24981
0.26695001 0.15243 0.21162
0.26684001 0.15385 0.21094
0.26787001 0.15375 0.21131
0.2552 0.072042003 0.25229001
0.24258 0.15234999 0.26727
0.24349999 0.15251 0.26738
0.24212 0.15254 0.26835999
0.25999999 0.10397 0.24616
0.26021999 0.10449 0.24666999
0.27645999 0.10663 0.22887
0.25887999 0.18253 0.21155
0.25891 0.18221 0.21081001
0.25816 0.18258999 0.21089
0.26243001 0.11467 0.25556001
0.22144 0.17839 0.18392999
0.22043 0.17888001 0.18413
0.22113 0.17836 0.18476
0.29216999 0.094471999 0.2352
0.29288 0.095105998 0.23529001
0.29146001 0.095104001 0.23525999
0.2174 0.1761 0.28712001
0.28896999 0.098495997 0.22919001
0.28850001 0.097392 0.22988001
0.26888001 0.13624001 0.22672001
0.26868999 0.13533001 0.22684
0.25727001 0.098298997 0.20428
0.25724 0.097548999 0.20458999
0.24070001 0.18592 0.21669
0.26629999 0.14480001 0.24818
0.26659 0.14498 0.24809
0.26673999 0.14548001 0.24885
0.26003 0.065153003 0.19926
0.25560001 0.090379 0.2098
0.25522 0.091117002 0.21048
0.25845999 0.062959 0.26481
0.24269 0.091720998 0.19643
0.25277001 0.12015 0.20581999
0.25650001 0.087594002 0.20229
0.25525001 0.088198997 0.20193
0.25558001 0.088519998 0.20288
0.25152999 0.091660999 0.26692
0.25048 0.092697002 0.26729
0.26503 0.10904 0.22582
0.26506999 0.10804 0.22609
0.26418999 0.1084 0.22635999
0.23913001 0.056010999 0.1956
0.26047 0.053706001 0.25237
0.26466 0.18849 0.23370001
0.27366999 0.16304 0.21941
0.27335 0.16302 0.21892001
0.24817 0.15700001 0.19408999
0.24792001 0.15707999 0.19309001
0.22693001 0.17109001 0.27616999
0.22691999 0.17133 0.27520001
0.26238999 0.081454001 0.20732
0.26194 0.082235999 0.20839
0.26216999 0.081387997 0.20872
0.26530999 0.072783001 0.20624
0.26532999 0.071722999 0.20541
0.2076 0.19369 0.24411
0.25795999 0.16978 0.20544
0.25889 0.1697 0.20561001
0.25516 0.18804 0.24432001
0.25463 0.18779001 0.24498001
0.25961 0.18700001 0.24321
0.23816 0.16052 0.27473
0.23825 0.15921 0.27451
0.23907 0.16039 0.27392
0.20118 0.18249001 0.16998
0.25555 0.11954 0.20740999
0.25483 0.1186 0.20666
0.25466999 0.11905 0.20649
0.24710999 0.10818 0.19552
0.24838001 0.10882 0.19592001
0.25527999 0.064204998 0.19968
0.25538 0.063395001 0.20006
0.25486001 0.063807003 0.19987001
0.27265999 0.16250999 0.24551
0.27259001 0.16142 0.24518999
0.26883 0.18459 0.23396
0.26909 0.18398 0.23424
0.24353001 0.15544 0.18948001
0.24293 0.15539999 0.18907
0.2427 0.15571 0.18855
0.21455 0.19552 0.20982
0.26451999 0.060601 0.20562001
0.26971999 0.14436001 0.2406
0.27022001 0.14521 0.24168999
0.21096 0.17059 0.16938999
0.21016 0.17087001 0.1692
0.21121 0.17230999 0.16831
0.26387 0.12256 0.21897
0.26469001 0.12327 0.21938001
0.26478001 0.12286 0.22025999
0.23587 0.14291 0.21007
0.23596001 0.1432 0.21010999
0.2465 0.14123 0.20975
0.24505 0.14089 0.20973
0.25457999 0.10321 0.21882001
0.25549999 0.103 0.21856
0.25571001 0.10432 0.21911
0.27021 0.14335001 0.23367
0.27078 0.14444 0.23363
0.21201999 0.20047 0.24590001
0.21357 0.19958 0.24597999
0.21349999 0.19935 0.24492
0.25755 0.10572 0.20107
0.25731 0.10666 0.20036
0.25764 0.10681 0.20082
0.24015 0.091433004 0.19568001
0.23941 0.091550998 0.19548
0.27473 0.1604 0.22046
0.27456999 0.16186 0.22105999
0.27500001 0.1603 0.22141001
0.23072 0.16269 0.17174999
0.23139 0.16252001 0.17215
0.26225001 0.11611 0.21486001
0.2624 0.11593 0.21545
0.24872001 0.19369 0.23623
0.24784 0.19365001 0.23772
0.249 0.19363999 0.23741999
0.21634001 0.18899 0.21193001
0.21627 0.18838 0.21201
0.21646 0.18912999 0.21241
0.2536 0.058297999 0.25380999
0.25525001 0.058398001 0.25350001
0.2617 0.079230003 0.21201
0.25558001 0.10513 0.26521
0.25601 0.19024999 0.24090999
0.25892001 0.10779 0.22126
0.25944999 0.1089 0.22224
0.26975 0.18345 0.23135
0.27026999 0.18317001 0.23133001
0.27061999 0.18319 0.23049
0.26506001 0.074510001 0.20645
0.26018 0.073523998 0.19788
0.26075 0.073403001 0.19905999
0.26021999 0.072152004 0.19844
0.25801 0.18124001 0.20967001
0.25771001 0.18206 0.21016
0.25914001 0.1807 0.20973
0.2696 0.16189 0.21143
0.27037999 0.16189 0.21216001
0.26017001 0.13053 0.21322
0.26104 0.13073 0.21371999
0.24366 0.16278 0.18949001
0.24256 0.16398001 0.18946999
0.24332 0.16357 0.18979999
0.26530001 0.18509001 0.22056
0.26596001 0.18421 0.22034
0.27770999 0.098145001 0.22854
0.27663001 0.098509997 0.22915
0.27781999 0.098649003 0.22823
0.27518001 0.16043 0.23919
0.27364001 0.16601001 0.21800999
0.27347001 0.16517 0.21784
0.21693 0.19309001 0.22014999
0.26346999 0.15014 0.2089
0.26280001 0.14991 0.20832001
0.26247999 0.1504 0.20799001
0.26692 0.12137 0.23374
0.26699001 0.12232 0.23383
0.26677001 0.12181 0.23374
0.24948999 0.070169002 0.25148001
0.25261 0.18178999 0.20941
0.27276999 0.15171 0.24183001
0.27235001 0.15121999 0.24281999
0.26826999 0.14664 0.24770001
0.26752999 0.14685 0.24828
0.21472 0.19499999 0.20979001
0.21495999 0.19605 0.21080001
0.25895 0.16362 0.20421
0.25549001 0.054012001 0.25235999
0.25624001 0.055098999 0.25248
0.26561001 0.064253002 0.20651001
0.26582 0.064015001 0.20731001
0.26536 0.062942997 0.20767
0.28219 0.10334 0.22876
0.28134 0.10424 0.22902
0.28222999 0.10411 0.22947
0.26146001 0.10874 0.25843
0.26238 0.11114 0.25342
0.26304999 0.11122 0.25217
0.27234 0.10771 0.23398
0.27225 0.10912 0.23286
0.27239001 0.10954 0.23175
0.27210999 0.11016 0.23141
0.24051 0.084789999 0.19645
0.24041 0.083792001 0.19767
0.23947001 0.084429003 0.19732
0.2638 0.18007 0.21211
0.26328999 0.18076999 0.21236999
0.2563 0.070197999 0.25332001
0.25547001 0.068547003 0.25290999
0.24033999 0.14326 0.20858
0.24014001 0.1437 0.20821001
0.24071001 0.14387999 0.20802
0.26343 0.15124001 0.20843001
0.26245001 0.10771 0.25093001
0.27292001 0.1548 0.24466
0.22699 0.17134 0.28018999
0.22734 0.17086001 0.27902001
0.22705001 0.17113 0.27902001
0.26607001 0.064462997 0.2085
0.26251999 0.069908001 0.21437
0.25356999 0.16847999 0.20351
0.26620999 0.051084001 0.21456
0.26649001 0.050838999 0.21376
0.26716 0.051775001 0.21416
0.26695001 0.050840002 0.21083
0.26569 0.050457001 0.20981
0.26688001 0.050687 0.20967001
0.21536 0.19355001 0.23803
0.2154 0.19402 0.23845001
0.23006 0.17349 0.18205
0.21607 0.1944 0.21939
0.22570001 0.16165 0.28485
0.22632 0.16184001 0.28393
0.22645999 0.1628 0.28424999
0.26442999 0.16283999 0.20702
0.26499999 0.16373999 0.20721
0.26481 0.16282 0.20732
0.22214 0.17897999 0.21625
0.22124 0.17829999 0.21664999
0.22101 0.17913 0.21653999
0.24562 0.14579 0.20592
0.24501 0.14691 0.20536
0.2466 0.14582001 0.20561001
0.26298001 0.1136 0.24978
0.26291999 0.11223 0.24846999
0.25580001 0.081280999 0.21551
0.25762999 0.085865997 0.26723999
0.25696999 0.086007997 0.26747999
0.24545 0.13672 0.21162
0.24431001 0.13741 0.21122999
0.25689 0.15820999 0.2049
0.25759 0.15823001 0.20517001
0.27149001 0.15361001 0.2166
0.27122 0.15329 0.21620999
0.22998001 0.18967 0.22095001
0.26517001 0.11686 0.23630001
0.26561999 0.11783 0.23728999
0.25279999 0.090582997 0.26684001
0.25251001 0.090218 0.26813999
0.24656001 0.15098999 0.19724
0.24718 0.15116 0.19722
0.21957 0.17613 0.27903
0.26111999 0.14505 0.20936
0.26152 0.14647999 0.2093
0.24687999 0.076835997 0.25001001
0.24713001 0.078174002 0.24982999
0.24816 0.077877 0.25003001
0.21127 0.18012001 0.16903999
0.21078999 0.17976999 0.16876
0.24176 0.14689 0.20573001
0.25845999 0.11325 0.2026
0.25876001 0.11353 0.20298
0.24022999 0.10311 0.19529
0.24070001 0.10405 0.19565
0.24288 0.15814 0.18833999
0.24267 0.15809 0.18731
0.24199 0.15928 0.18685
0.25837001 0.18904001 0.24071001
0.25810999 0.18884 0.24149001
0.21382999 0.19728 0.24123999
0.21412 0.19791999 0.24256
0.21438999 0.19689 0.24134
0.26234999 0.14776 0.20872
0.26326001 0.14879 0.20925
0.25424001 0.080468997 0.19600999
0.25303 0.078966998 0.19623999
0.25284001 0.080426 0.19588999
0.27348 0.15232 0.22108001
0.27315 0.15125 0.22238
0.20973 0.19707 0.24127001
0.21095 0.19763 0.24128
0.21077999 0.19693001 0.24092001
0.24957 0.11107 0.19672
0.24998 0.11152 0.19675
0.25075001 0.11119 0.19702999
0.27114001 0.17208 0.24481
0.27063999 0.17159 0.24605
0.26877001 0.13987 0.23951
0.26855001 0.13946 0.24038
0.26914999 0.13853 0.23969001
0.25542 0.16276 0.20331
0.26120999 0.11102 0.24073
0.26003999 0.11015 0.24082001
0.26043001 0.11095 0.2397
0.25749999 0.058221001 0.19988
0.27167001 0.16046 0.24753
0.27191001 0.16202 0.24628
0.27129 0.16155 0.24744
0.27476999 0.15191001 0.22652
0.22142 0.17945001 0.182
0.22278 0.17929 0.18196
0.22237 0.17968 0.1815
0.27199 0.14882 0.23383
0.27193999 0.14995 0.23244999
0.27217999 0.14968 0.23348001
0.23273 0.18780001 0.21831
0.23377 0.1882 0.21926001
0.25093001 0.16319001 0.1997
0.26100001 0.060968 0.20224001
0.26012 0.060755 0.20166001
0.27271 0.17877001 0.22495
0.27243999 0.17849 0.22558001
0.22394 0.15301999 0.18204001
0.22425 0.1534 0.18254
0.22201 0.18561 0.21958999
0.24742 0.095081002 0.19636001
0.26973999 0.17892 0.2189
0.26866999 0.17925 0.21854
0.24305999 0.11675 0.20134
0.24288 0.11575 0.20089
0.24287 0.11717 0.20191
0.24762 0.17567 0.20479
0.24845 0.1761 0.20491999
0.26003 0.17083 0.20647
0.24741 0.15088999 0.20085999
0.25059 0.075819999 0.25082001
0.2588 0.061941002 0.26383999
0.26478001 0.11825 0.24156
0.24231 0.15568 0.18731
0.19887 0.18133999 0.28042999
0.19908001 0.17974 0.28044999
0.19775 0.18115 0.28084999
0.25268999 0.051674999 0.27366
0.25238001 0.052453998 0.27458
0.25220999 0.051543999 0.27429
0.24371 0.10562 0.19492
0.24473 0.1057 0.19495
0.24392 0.10467 0.19506
0.21064 0.17822 0.28154999
0.21190999 0.17833 0.28143001
0.22048 0.16486 0.16819
0.22111 0.16524 0.168
0.25342 0.065159 0.19983
0.25314 0.066784002 0.19961999
0.25443 0.066514999 0.19922
0.26405999 0.18662 0.23963
0.26271001 0.18683 0.24092001
0.26346001 0.18666001 0.24053
0.24326 0.14156 0.2094
0.24288 0.142 0.20905
0.27092999 0.15457 0.24710999
0.26969999 0.14579 0.24395999
0.26583999 0.11772 0.23483001
0.26677999 0.11695 0.23391999
0.26655999 0.11805 0.23370001
0.22946 0.17434999 0.1803
0.23015 0.17352 0.18008
0.26330999 0.1195 0.21895
0.25437 0.11004 0.26607999
0.25374001 0.10909 0.26686001
0.25413001 0.10912 0.26642001
0.25992 0.12391 0.24999
0.26058999 0.1228 0.24977
0.26032999 0.12385 0.24951001
0.26949999 0.13664 0.23120999
0.27017999 0.13586 0.23266999
0.26864001 0.18468 0.228
0.26800001 0.18545 0.22708
0.26820001 0.18553001 0.22822
0.22976001 0.15464 0.18208
0.22999001 0.15527999 0.1815
0.23108 0.15565 0.18141
0.24216001 0.16395999 0.27057001
0.24154 0.16508999 0.27046999
0.25386 0.10519 0.19781999
0.25308001 0.10582 0.19726001
0.25433001 0.10573 0.19792999
0.26525 0.16656999 0.25409001
0.26412001 0.16733 0.25470999
0.26414001 0.16624001 0.25466001
0.20893 0.19604 0.24085
0.20962 0.19649 0.24083
0.20991001 0.19611 0.24066
0.26892999 0.14568 0.24636
0.26861 0.14695001 0.24764
0.23364 0.16233 0.17748
0.25639999 0.094466999 0.21001001
0.25979 0.17312001 0.20646
0.25959 0.17399 0.20641001
0.24009 0.15712 0.1842
0.23966999 0.15632001 0.18421
0.26124001 0.10667 0.21214999
0.23721001 0.19313 0.22675
0.23876999 0.19293 0.22593001
0.25536999 0.16181 0.20338
0.26027 0.10435 0.21216001
0.26001999 0.10443 0.21314999
0.2199 0.19024 0.21926001
0.22037999 0.18951 0.21955
0.22003999 0.1892 0.21842
0.22639 0.1767 0.1832
0.20294 0.18901999 0.17408
0.26108 0.10902 0.25935999
0.26069 0.10931 0.26025999
0.22256 0.15615 0.17614
0.2225 0.15671 0.17467
0.22347 0.1565 0.17565
0.26521 0.13075 0.24394
0.26530999 0.13176 0.24417
0.26477 0.13156 0.24479
0.25523999 0.072033003 0.19664
0.25553 0.070963003 0.19728
0.25443 0.071246997 0.19756
0.21438 0.19369 0.23806
0.21199 0.17866001 0.16918001
0.21091001 0.17919999 0.16855
0.23231 0.16858 0.17196999
0.23219 0.16985001 0.17215
0.21275 0.19765 0.24137001
0.21225999 0.19802 0.24156
0.24419001 0.18100999 0.21033999
0.24489 0.18132 0.21078999
0.2449 0.18111999 0.21032999
0.21281999 0.19163001 0.24873
0.26326999 0.13905001 0.2463
0.26300001 0.13984001 0.24551
0.26188999 0.13978 0.2464
0.26166999 0.10978 0.22564
0.26188999 0.10871 0.22719
0.26074001 0.10945 0.22718
0.22084001 0.1574 0.17436001
0.22035 0.15826 0.17366999
0.22156 0.15841 0.17382
0.22739001 0.17385 0.17066
0.2277 0.17473 0.17089
0.25538 0.082425997 0.19637001
0.25549999 0.083486997 0.19666
0.25652 0.083849996 0.197
0.27135 0.14669 0.23018
0.26549 0.13060001 0.24358
0.26177001 0.18885 0.23474
0.26186001 0.18865 0.23617999
0.26624 0.13394 0.21798
0.2669 0.13484 0.21894
0.27269 0.15251 0.24168
0.26835999 0.10647 0.226
0.26969001 0.1067 0.22582
0.21828 0.18912999 0.21414
0.21795 0.18919 0.21355
0.25191 0.178 0.20597
0.21728 0.19261999 0.21286
0.2177 0.19267 0.21394999
0.26447001 0.16525 0.255
0.26391 0.1652 0.25492999
0.26986 0.16271999 0.21129
0.25444999 0.098754004 0.2168
0.25501001 0.098242998 0.21597999
0.23152 0.18911999 0.21944
0.23164 0.18937001 0.22028001
0.24517 0.13855 0.21119
0.24489 0.14001 0.21054
0.29276001 0.092933998 0.23251
0.29363 0.093037002 0.23237
0.29280001 0.092816003 0.23341
0.25646001 0.14429 0.2066
0.25554001 0.14411999 0.20647
0.25891 0.084027998 0.2617
0.21847001 0.18572 0.21504
0.21841 0.18444 0.21540999
0.27203 0.15343 0.21758001
0.27129999 0.15476 0.2165
0.27186999 0.15456 0.21724001
0.21424 0.18781 0.2175
0.2149 0.18723001 0.21768001
0.22150999 0.17931999 0.17460001
0.26144001 0.078882001 0.19960999
0.25795999 0.067629002 0.26730001
0.25751001 0.066592999 0.26743999
0.2395 0.17415 0.20462
0.21146999 0.20058 0.20952
0.21172 0.20062999 0.21042
0.22581001 0.16505 0.16774
0.22634999 0.16609 0.16763
0.22732 0.16624001 0.16806
0.22789 0.16971999 0.28009999
0.22752 0.17059 0.28029999
0.24843 0.058711998 0.25608
0.24931 0.059436001 0.25613999
0.26258999 0.078201003 0.20048
0.26203999 0.076921001 0.20006
0.2518 0.10417 0.19642
0.25191 0.10561 0.19670001
0.25865999 0.086833 0.20734
0.25192001 0.059246 0.19909
0.22271 0.17437001 0.27781999
0.22198001 0.17456999 0.27689001
0.22214 0.17459001 0.27761
0.26938 0.14454 0.21894
0.26973 0.14569999 0.21885
0.2694 0.14426 0.22013
0.24011999 0.15171 0.18971001
0.24056 0.15178999 0.18948001
0.27329999 0.16395 0.24511001
0.21696 0.19542 0.21639
0.21675999 0.19525 0.21486001
0.24357 0.16504 0.26868999
0.24408001 0.16419999 0.26859999
0.24434 0.16486999 0.26778001
0.21449 0.18415999 0.18061
0.26995999 0.15109 0.21577001
0.25898999 0.17184 0.20545
0.26692 0.18325999 0.21893001
0.26671001 0.18323 0.21798
0.23672999 0.091568001 0.19661
0.23726 0.092556 0.19665
0.2379 0.092781998 0.19626001
0.26583999 0.14563 0.2132
0.26571 0.1442 0.21325999
0.26535001 0.14453 0.21241
0.21557 0.17393 0.16992
0.27111 0.18001001 0.23476
0.27090999 0.18100999 0.23479
0.26306 0.12048 0.21904001
0.26313999 0.12043 0.21788999
0.22934 0.17209999 0.17014
0.23036 0.17188001 0.17089
0.22758999 0.17584001 0.17715999
0.22836 0.17508 0.17735
0.24972001 0.14121 0.20964999
0.24976 0.14218999 0.20886
0.25092 0.14149 0.20974
0.2703 0.14438 0.23650999
0.21905001 0.18675999 0.21562999
0.21963 0.18673 0.2167
0.25108999 0.13876 0.21094
0.24713001 0.075368002 0.25025001
0.24603 0.075609997 0.25053999
0.25876999 0.1455 0.20758
0.25985 0.1443 0.20806
0.21543001 0.18553001 0.17392001
0.26267001 0.14881 0.20845
0.25793999 0.18908 0.219
0.28336999 0.10082 0.22815999
0.28371 0.099735998 0.22813
0.28229001 0.099629 0.22806001
0.25297999 0.18848 0.21693
0.25321001 0.18873 0.21706
0.26280999 0.1815 0.21292
0.2624 0.18186 0.2138
0.24754 0.074459001 0.19757
0.24649 0.074432001 0.19769999
0.24635001 0.075801998 0.19757
0.21644001 0.19600999 0.21509001
0.26716 0.13305999 0.24059001
0.26719001 0.13379 0.24123999
0.26646999 0.13304999 0.24198
0.20593999 0.17387 0.22159
0.20711 0.17419 0.22139999
0.20609 0.17301001 0.22132
0.26668 0.065312997 0.20614
0.26651001 0.065554999 0.20546
0.26675999 0.066463001 0.20627999
0.26436001 0.18848 0.23472001
0.23120999 0.18351001 0.21469
0.2509 0.15233999 0.2031
0.25055 0.15157001 0.20349
0.25937 0.10987 0.22369
0.25924999 0.10941 0.22308999
0.26315999 0.18031999 0.24783
0.26269999 0.10709 0.25259
0.26282999 0.10768 0.25334001
0.25275999 0.19289 0.2339
0.25369999 0.19271 0.23374
0.25382999 0.19304 0.23321
0.25641 0.11963 0.25944999
0.24984001 0.099500999 0.19584
0.24970999 0.098759003 0.19575
0.24925999 0.099848002 0.19544999
0.26649001 0.1193 0.23452
0.26725999 0.12307 0.23045
0.26772001 0.12375 0.22935
0.23210999 0.15992001 0.17822
0.23287 0.1594 0.17937
0.26800999 0.12816 0.2246
0.24687999 0.051428001 0.19088
0.26938 0.14461 0.2211
0.26596001 0.056256 0.21527
0.26578999 0.057190999 0.21496999
0.25972 0.17656 0.25299999
0.26087999 0.10684 0.20886999
0.26095 0.10658 0.20751999
0.26144001 0.10767 0.20881
0.26859999 0.11014 0.23444
0.26828 0.11069 0.23446999
0.25872001 0.17398 0.2054
0.27638 0.16597 0.22668999
0.26267999 0.051314998 0.21236999
0.2613 0.10896 0.21347
0.26589 0.11709 0.23492
0.2723 0.1652 0.21506
0.25339001 0.085533001 0.21405999
0.25461999 0.084973 0.2141
0.25417 0.085343003 0.21379
0.2762 0.16616 0.23246001
0.27596 0.16503 0.23247001
0.21555001 0.16308001 0.17101
0.21595 0.16392 0.17025
0.23326001 0.16842 0.17358001
0.23237 0.16732 0.1725
0.26339999 0.15223999 0.20792
0.24247 0.16272999 0.18872
0.26548001 0.1211 0.22442999
0.26510999 0.12087 0.2237
0.21918 0.17308 0.16884001
0.21806 0.1727 0.16865
0.22046 0.17949 0.17507
0.22042 0.17945001 0.17465
0.26589999 0.069781996 0.20849
0.26611 0.068847001 0.20853999
0.26609001 0.069996998 0.20749
0.24123 0.09048 0.19573
0.24138001 0.089158997 0.19551
0.25262001 0.12099 0.25889999
0.25240999 0.12126 0.25806999
0.25176999 0.12104 0.25922999
0.26662999 0.11924 0.22694001
0.26692 0.12018 0.22795001
0.26631999 0.11944 0.22808
0.25986999 0.059735999 0.26243001
0.25966999 0.059379999 0.26385
0.26061001 0.058557998 0.26341
0.26524001 0.11336 0.23525999
0.26631001 0.11455 0.23459999
0.26556 0.11455 0.23535
0.25711 0.13743 0.21145
0.26842999 0.14452 0.21739
0.26791999 0.14368001 0.21776
0.23555 0.16752 0.18711001
0.23475 0.16778 0.18720999
0.26135999 0.17516001 0.25184
0.26225999 0.17407 0.25206
0.25191 0.15193 0.204
0.25128001 0.15226001 0.20337
0.25182 0.15339001 0.2032
0.25644001 0.095062003 0.2053
0.25663999 0.093939997 0.20555
0.25624001 0.094259001 0.20444
0.23796999 0.15568 0.18483999
0.23706 0.15558 0.1846
0.23624 0.15593 0.18414
0.24606 0.15048 0.19887
0.25334999 0.092840999 0.25766999
0.24276 0.057555001 0.19852
0.24161001 0.056986999 0.19963001
0.24267 0.057399999 0.19995999
0.22079 0.15986 0.28926
0.22214 0.15983 0.28911
0.22218999 0.16007 0.28948
0.24392 0.088506997 0.19626001
0.245 0.089355998 0.19645999
0.24482 0.088177003 0.19659001
0.21669 0.19521999 0.21743999
0.26378 0.059723999 0.2051
0.25503999 0.10657 0.26565
0.26383001 0.13070001 0.24527
0.26337001 0.13043 0.24557
0.26312 0.12955999 0.24548
0.25786999 0.059815001 0.20087001
0.20519 0.19135 0.17858
0.20573001 0.19141001 0.17786001
0.20557 0.19018 0.17743
0.25995001 0.16013999 0.25692999
0.27552 0.16969 0.22668
0.27182999 0.17398 0.21899
0.26488 0.12032 0.22240999
0.24707 0.10442 0.19487
0.24706 0.10551 0.19512001
0.23266 0.18886 0.21939
0.23399 0.18869001 0.21963
0.21439999 0.19265001 0.21276
0.21405999 0.19379 0.21156
0.21450999 0.19271 0.21189
0.25189 0.14494 0.20587
0.25184 0.14445999 0.20640001
0.25192001 0.14567 0.20584001
0.21042 0.17806999 0.28035
0.27274001 0.16267 0.21531001
0.27171001 0.16377001 0.21421
0.27254 0.16417 0.21528
0.2579 0.10664 0.26374
0.2192 0.17061999 0.16825999
0.25551 0.086663999 0.19898
0.25623 0.087003 0.19971
0.25646999 0.085791998 0.19863001
0.25760001 0.12025 0.25580001
0.25830001 0.12022 0.25523999
0.28928 0.097424999 0.22995999
0.29087001 0.096826002 0.23014
0.28924999 0.096332997 0.23131999
0.2157 0.16613001 0.16903999
0.21687999 0.16519 0.1693
0.26616001 0.13477001 0.24251001
0.26655 0.13395999 0.2421
0.26644999 0.13538 0.24181999
0.26609999 0.13755 0.21669
0.2669 0.13684 0.2182
0.22753 0.15823001 0.17375
0.22836 0.15854 0.17386
0.24966 0.13420001 0.21021999
0.24981 0.13312 0.21035001
0.24899 0.13313 0.21031
0.22051001 0.17353 0.28784999
0.22115999 0.1736 0.28696999
0.22055 0.1736 0.287
0.25092 0.050914001 0.20416
0.25095999 0.051304001 0.20542
0.24965 0.051203001 0.20542
0.24251001 0.10794 0.19599
0.26104999 0.051412001 0.20305
0.26097 0.052891001 0.20305
0.25323001 0.15026 0.20531
0.25196001 0.1487 0.20552
0.25196999 0.15003 0.20513
0.24395999 0.057849001 0.19887
0.25534999 0.071111999 0.25251001
0.25433001 0.071120001 0.25185001
0.27360001 0.15798999 0.24408001
0.27361 0.15702 0.24365
0.27362999 0.15684 0.24343
0.22198001 0.16654 0.29043001
0.22215 0.16513 0.29010999
0.22293 0.16610999 0.29023999
0.23007999 0.17062999 0.20784999
0.23021001 0.16978 0.20705
0.22975001 0.16967 0.20766
0.24846999 0.17882 0.20733
0.24942 0.1777 0.20711
0.21741 0.17659999 0.2782
0.21657 0.17686 0.27818
0.28828001 0.10234 0.23098999
0.28799999 0.10276 0.23113
0.26029 0.10252 0.25549999
0.26611999 0.14219999 0.24273001
0.25685 0.072235003 0.25371999
0.25707 0.071208 0.25374001
0.2563 0.072398998 0.25295001
0.25907001 0.11857 0.25725999
0.26526001 0.17037 0.20917
0.26502001 0.17058 0.20861
0.26043999 0.076582998 0.26155001
0.26036999 0.077159002 0.26124999
0.26043999 0.077053003 0.26247001
0.2234 0.17673001 0.21506
0.22214 0.17545 0.21559
0.22842 0.16483 0.16912
0.22765 0.16507 0.16878
0.22288001 0.17339 0.27410001
0.2216 0.17405 0.27452999
0.22251 0.17361 0.2746
0.24856 0.18354 0.21119
0.24849001 0.1825 0.21100999
0.27024001 0.15715 0.21353
0.27085 0.15708999 0.21421
0.26696 0.067708999 0.20615
0.26506001 0.056226 0.21596
0.2647 0.11788 0.23917
0.26469001 0.11896 0.23983
0.26464999 0.1185 0.2402
0.25813001 0.13355 0.21292
0.25832 0.13282999 0.21269999
0.20774999 0.19148 0.18085
0.20784 0.19024 0.18081
0.26151001 0.125 0.24823
0.26030001 0.12495 0.24898
0.27487999 0.17058 0.22465999
0.27474999 0.17082 0.22436
0.25981 0.10307 0.21213999
0.25261 0.054124001 0.27454001
0.23116 0.18621001 0.21648
0.23029999 0.18581 0.21721999
0.19684 0.18001001 0.28117001
0.19665 0.18110999 0.28125
0.20537999 0.19362999 0.17887001
0.26451999 0.18611 0.23997
0.26517999 0.18602 0.23971
0.27344999 0.16723 0.21887
0.27335 0.16828001 0.21871001
0.22885001 0.17488 0.17945001
0.2404 0.14162 0.20998
0.23928 0.14199001 0.20956001
0.24133 0.093831003 0.1962
0.24284001 0.095064998 0.19564
0.26756001 0.05407 0.21442001
0.26758 0.055055 0.21437
0.26714 0.055007 0.21518999
0.20491999 0.19279 0.17839
0.20779 0.18528999 0.17098001
0.20856 0.18539999 0.17107999
0.24709 0.082295999 0.19589999
0.2472 0.082594998 0.19595
0.25685999 0.087407999 0.25981
0.26870999 0.17432 0.21398
0.26909 0.17369001 0.21473999
0.26945999 0.17312001 0.21416
0.27197999 0.17654 0.23938
0.27171999 0.16850001 0.24584
0.23794 0.16772 0.27085
0.23751999 0.16786 0.27134001
0.23789001 0.16733 0.27189001
0.26741999 0.13157 0.22
0.26817 0.1321 0.22017001
0.23739 0.19349 0.22713999
0.26809999 0.15363 0.21205001
0.26919001 0.15456 0.21229
0.26894 0.15396 0.21249001
0.25421 0.16203 0.20322999
0.2545 0.16283999 0.20309
0.25907001 0.19005001 0.22338
0.2265 0.17189001 0.18866
0.25639999 0.050972 0.25694999
0.25753 0.050694998 0.25679001
0.25646999 0.050854001 0.25781
0.24405999 0.15726 0.18946999
0.24352001 0.15753999 0.18844999
0.24348 0.15808 0.18858001
0.22132 0.16968 0.29058999
0.22087 0.16978 0.2913
0.26078999 0.1824 0.24789999
0.26036999 0.18193001 0.24815001
0.26054999 0.1121 0.20616999
0.26045999 0.11249 0.20632
0.26377001 0.18782 0.22341999
0.23458999 0.16607 0.17721
0.23474 0.16745999 0.17839999
0.23457 0.16621999 0.17799
0.25966999 0.074578002 0.25777
0.25931999 0.075689003 0.25692999
0.25942999 0.075351998 0.25775999
0.21635 0.18258999 0.17997999
0.25839999 0.12836 0.21287
0.25073001 0.18702 0.21323
0.25571999 0.098370999 0.21486001
0.25637001 0.098523997 0.21452001
0.26300001 0.15113001 0.25294
0.26243001 0.1591 0.20649999
0.25758001 0.080145001 0.26828
0.27333999 0.10583 0.22634
0.27289999 0.10536 0.2261
0.27199 0.10561 0.22593001
0.24097 0.16044 0.27208
0.27331001 0.1496 0.23411
0.26857999 0.14004 0.22085001
0.26977 0.13998 0.22246
0.26932999 0.13947 0.22144
0.20282 0.17858 0.16819
0.23305 0.16967 0.17855
0.2492 0.19416 0.23424
0.20435999 0.18211 0.16885
0.2054 0.18276 0.16898
0.29190001 0.095232002 0.23074999
0.22859 0.15769 0.17496
0.22849 0.15730999 0.17585
0.25007999 0.15306 0.20171
0.24932 0.15252 0.20073
0.23681 0.16478001 0.27559
