# .PCD v0.7 - Point Cloud Data file format
VERSION 0.7
FIELDS x y z
SIZE 4 4 4
TYPE F F F
COUNT 1 1 1
WIDTH 1613
HEIGHT 1
VIEWPOINT 0 0 0 1 0 0 0
POINTS 1613
DATA ascii
0.13260999 0.049617 0.079639003
0.17577 0.048905 0.1451
0.13330001 0.049281999 0.079079002
0.13403 0.050577 0.081032999
0.17708001 0.049950998 0.14381
0.17603 0.05116 0.14371
0.13262001 0.050216001 0.080581002
0.13260999 0.052145999 0.082038
0.17588 0.052439999 0.14315
0.17489 0.053254001 0.14387999
0.17422999 0.051637001 0.14306
0.17624 0.053472999 0.14229999
0.13499001 0.053132001 0.081169002
0.13502 0.053907 0.082944997
0.13515 0.052852999 0.080609001
0.13456 0.05443 0.082405001
0.13469 0.055163998 0.082383998
0.17546 0.055493001 0.14291
0.1345 0.054675002 0.084416002
0.17456 0.056226 0.14311001
0.13505 0.055810999 0.083270997
0.17624 0.056997001 0.14372
0.1367 0.056286 0.085152999
0.17536999 0.057697002 0.14281
0.17619 0.058279999 0.14369
0.13894001 0.059268001 0.086915001
0.13838001 0.059091002 0.087284997
0.17615999 0.059535 0.142
0.16162001 0.060314 0.12101
0.13766 0.059788998 0.088600002
0.15905 0.059937 0.11974
0.14064001 0.060857002 0.089723997
0.15843999 0.061285 0.11829
0.15862 0.061650001 0.11945
0.15881 0.061673 0.11806
0.14005999 0.061498001 0.089996003
0.17664 0.061625998 0.14257
0.15831 0.061558999 0.11836
0.15642001 0.061473999 0.11698
0.1577 0.060968 0.11805
0.14024 0.062659003 0.091476001
0.15806 0.061762001 0.11616
0.17417 0.062724002 0.14411999
0.14015999 0.062077999 0.092038997
0.15791 0.062194999 0.11745
0.14259 0.063854001 0.094333
0.1568 0.063242003 0.11527
0.14279 0.062789999 0.094610997
0.14104 0.062719002 0.093284003
0.14113 0.064228997 0.092623003
0.15576001 0.063247003 0.11535
0.15726 0.063332997 0.11393
0.15569 0.064087003 0.11338
0.15577 0.062959 0.11287
0.15532 0.062712997 0.11229
0.17588 0.063083999 0.14415
0.15587001 0.064032003 0.11365
0.14289001 0.063643001 0.095682003
0.1761 0.063984998 0.14407
0.15361001 0.063768998 0.11127
0.15093 0.062451001 0.10752
0.14363 0.063597001 0.096676998
0.15451001 0.063808002 0.11074
0.15097 0.063896999 0.10791
0.15105 0.063304 0.10655
0.14715999 0.064281002 0.10112
0.14627001 0.064492002 0.098150998
0.14578 0.064016998 0.10031
0.14591999 0.065081999 0.099082001
0.14374 0.063366003 0.097217001
0.17621 0.064856 0.14448
0.15357 0.065572001 0.11069
0.15144999 0.063931003 0.10868
0.15038 0.064199001 0.1058
0.15115 0.065389 0.10562
0.14696001 0.065049 0.10133
0.14437 0.065128997 0.098311
0.14506 0.065582998 0.097634003
0.1443 0.065470003 0.097390004
0.17572001 0.065176003 0.14335001
0.14825 0.064571001 0.10323
0.14673001 0.064241998 0.1017
0.14442 0.064930998 0.097516999
0.1432 0.065554 0.096064001
0.15291999 0.064649001 0.11137
0.15197 0.065188996 0.11139
0.15271001 0.066365004 0.11102
0.14876001 0.065651 0.10278
0.1758 0.066436999 0.14377999
0.15209 0.065195002 0.10958
0.15363 0.065278001 0.10943
0.15180001 0.06532 0.10913
0.15148 0.064920001 0.10848
0.14905 0.065489002 0.10385
0.14841001 0.066198997 0.10485
0.14677 0.066439003 0.10228
0.14707001 0.065889001 0.1025
0.15233999 0.066030003 0.10971
0.17682 0.067047998 0.14342999
0.15215001 0.066771001 0.10816
0.15216 0.065862998 0.1081
0.14737999 0.066014998 0.1016
0.14762001 0.067446001 0.10276
0.17608 0.066973001 0.14381
0.17614999 0.067305997 0.1446
0.17659 0.068035997 0.14514001
0.17679 0.069228001 0.14518
0.17779 0.069876999 0.14489
0.17633 0.069714002 0.14535999
0.17726 0.069720998 0.14452
0.17715 0.073774002 0.14508
0.17667 0.072806999 0.14617001
0.17705999 0.074372999 0.14645
0.17761999 0.073347002 0.14655
0.17726 0.074864 0.14713
0.17839999 0.074179001 0.14635
0.17874999 0.075423002 0.14778
0.17937 0.075400002 0.14929
0.17896 0.075356998 0.14929999
0.17990001 0.075755998 0.15118
0.17952 0.075080998 0.14904
0.18037 0.074766003 0.14930999
0.17968 0.075617999 0.14841001
0.18028 0.075383 0.15158001
0.18119 0.076857999 0.15276
0.18279 0.076637998 0.15248001
0.18221 0.077597998 0.15346999
0.18274 0.079147004 0.15362
0.183 0.078170002 0.15353
0.18206 0.07863 0.15528999
0.18369 0.080495998 0.15486
0.18415 0.079956003 0.15521
0.18303999 0.080204003 0.15452
0.18292999 0.080458999 0.15569
0.18433 0.082608998 0.15625
0.18336 0.082396001 0.15628
0.18402 0.082110003 0.15611
0.18303999 0.083641998 0.15502
0.18437999 0.081730999 0.15428001
0.18376 0.082295001 0.15373001
0.18122999 0.082411997 0.15183
0.19144 0.082955003 0.16618
0.19231001 0.084372997 0.16827001
0.18719 0.08399 0.16083001
0.18234 0.082763001 0.15298
0.18054 0.082901001 0.15143
0.19109 0.083521999 0.16556001
0.18833999 0.083356999 0.16197
0.18828 0.084145002 0.1613
0.1866 0.083921 0.16046
0.18065999 0.084301002 0.14981
0.17907 0.083313003 0.14830001
0.1789 0.083490998 0.14846
0.18719999 0.085859999 0.1602
0.17989001 0.085037999 0.14954001
0.17871 0.085842997 0.14816
0.18675999 0.085355997 0.16181
0.17806 0.084876999 0.14658999
0.17787001 0.085873999 0.14593001
0.177 0.087445997 0.14541
0.18742 0.086203001 0.15944
0.17663001 0.086883001 0.1443
0.17560001 0.086447001 0.14308999
0.17497 0.087513 0.14442
0.18703 0.087812997 0.16076
0.17496 0.086811997 0.14394
0.18578 0.087899998 0.15893
0.1869 0.087337002 0.16068999
0.17523 0.088812999 0.14122
0.17441 0.087878004 0.14286
0.18668 0.088189997 0.16057999
0.17414001 0.088179 0.14125
0.17471001 0.090034999 0.14049
0.18555 0.090072997 0.1595
0.18472999 0.089263998 0.15831999
0.18568 0.090248004 0.15904
0.17348 0.090836003 0.14136
0.18619999 0.090034001 0.15881
0.18705 0.091210999 0.15809
0.1847 0.090363003 0.15730999
0.18465 0.090767004 0.15586001
0.18466 0.090121001 0.15575001
0.1841 0.092294 0.15512
0.17375 0.091197997 0.14044
0.18314999 0.090429001 0.15599
0.17323001 0.092180997 0.13997
0.17319 0.090741001 0.14047
0.14850999 -0.039016001 0.10068
0.13062 -0.039763 0.075824998
0.14428 -0.039422002 0.098653004
0.14463 -0.037420001 0.097323
0.12986 -0.037241999 0.075107001
0.12982 -0.038199998 0.07508
0.12936001 -0.037067998 0.075305998
0.12947001 -0.035241999 0.075331002
0.12927 -0.033790998 0.075482003
0.13133 -0.036022998 0.075418003
0.13075 -0.032940999 0.076247998
0.13049001 -0.030582 0.075088002
0.13174 -0.031325001 0.076706
0.13349999 -0.025997 0.080150999
0.13357 -0.02483 0.081096001
0.13496999 -0.022919999 0.082327999
0.13485 -0.021050001 0.082624003
0.13676 -0.014427 0.085118003
0.13695 -0.014503 0.086006999
0.13987 -0.01131 0.086870998
0.13925 -0.011606 0.087718002
0.19008 -0.0050418 0.16435
0.19224 -0.0055495002 0.16845
0.19383 -0.0052935998 0.16689
0.19351 -0.0051524001 0.16764
0.13892999 -0.0046779001 0.087397002
0.19298001 -0.0048918002 0.16756999
0.19328 -0.0046871002 0.16878
0.19435 -0.0035701001 0.17020001
0.19394 -0.0039618001 0.17144001
0.19654 -0.0027059 0.17287999
0.19565 -0.0033972999 0.17168
0.19559 -0.0026020999 0.17279001
0.19648001 -0.0015425 0.17455
0.19764 0.00061415002 0.17456999
0.19694 0.00060626998 0.17632
0.13756999 0.00075379998 0.084712997
0.1988 0.0020279 0.17619
0.20463 0.0028796999 0.18532
0.19908001 0.0027588001 0.17814
0.19976 0.0027498 0.17741001
0.20144001 0.0036162999 0.1839
0.20217 0.0032492999 0.18088999
0.20012 0.0033080999 0.17912
0.20103 0.0040997998 0.18014
0.13203999 0.010703 0.079357997
0.19622 0.013612 0.17163999
0.19373 0.014825 0.17207
0.19625001 0.014865 0.17231999
0.19614001 0.014071 0.1725
0.19724999 0.016505999 0.17426001
0.19704001 0.01612 0.17570999
0.19712 0.016833 0.17463
0.13163 0.015506 0.077188
0.19760001 0.016821001 0.17526001
0.19724999 0.017084001 0.17585
0.19382 0.014767 0.16898
0.19220001 0.015122 0.16725001
0.19189 0.017436 0.1671
0.19284999 0.016592 0.16543999
0.19739 0.016971 0.17572001
0.13089 0.016469 0.077642001
0.19684 0.017857 0.17553
0.19686 0.018170999 0.17598
0.19892 0.019045001 0.17501
0.19656 0.018874001 0.17588
0.13112999 0.017641 0.076554
0.13202 0.019955 0.076779
0.19809 0.020399 0.17621
0.19876 0.019361001 0.17655
0.18971001 0.018952999 0.16274001
0.1978 0.021034 0.17461
0.19808 0.021271 0.17685001
0.13181999 0.018757001 0.075947002
0.13064 0.020117 0.076201998
0.13181999 0.019843999 0.077257
0.18852 0.019974001 0.16259
0.18814 0.02227 0.16225
0.19754 0.022039 0.17596
0.18734001 0.023033001 0.16075
0.12969001 0.02287 0.075152002
0.1983 0.024273001 0.17496
0.19811 0.022624999 0.17634
0.19891 0.024325 0.17747
0.19809 0.025204999 0.17693999
0.19783001 0.025718 0.17665
0.19763 0.026017001 0.17644
0.19802999 0.027788 0.17552
0.18532 0.027336 0.1565
0.13023999 0.027264001 0.075615004
0.1982 0.027907999 0.17653
0.19707 0.029633 0.17569
0.18579 0.027043 0.15607999
0.12909999 0.028349999 0.074527003
0.13039 0.030501001 0.075429
0.19753 0.029687 0.17550001
0.12989999 0.033098001 0.074789003
0.12888999 0.032781001 0.075147003
0.12919 0.032976002 0.074492998
0.18284 0.033147998 0.15254
0.12952 0.034035001 0.075212002
0.18151 0.034148 0.15188999
0.13031 0.035372 0.075590998
0.18089999 0.035546999 0.15008
0.12951 0.037078001 0.075585999
0.17959 0.036543 0.14954001
0.12958001 0.038515002 0.074801996
0.17929 0.038954999 0.14788
0.17811 0.036872 0.1463
0.17682 0.038865998 0.14647999
0.17917 0.039195001 0.14578
0.13061 0.039933 0.074541003
0.17862999 0.040681999 0.14521
0.17678 0.041250002 0.14602
0.17715 0.042679999 0.14523
0.17743 0.040270999 0.14480001
0.17598 0.042396002 0.14470001
0.17608 0.045290001 0.14235
0.17622 0.047430001 0.14358
0.13222 0.047534999 0.078850999
0.13203 0.049833 0.079240002
0.17614 0.049947999 0.14396
0.17533 0.05511 0.14306
0.13616 0.057092 0.084062003
0.13695 0.057785999 0.084817998
0.1376 0.057994001 0.083631001
0.16080999 0.058497 0.12222
0.13744 0.059252001 0.087514997
0.13878 0.060201 0.088844001
0.15959001 0.059402999 0.12062
0.15993001 0.060492001 0.12091
0.1769 0.061014 0.14295
0.16023 0.06208 0.12046
0.15978999 0.061062999 0.11977
0.15931 0.060997002 0.1209
0.15875 0.060237002 0.11919
0.14075001 0.061838001 0.090223998
0.15967 0.062806003 0.11982
0.15971 0.061632998 0.11867
0.14076 0.062784001 0.090163998
0.15708999 0.062931001 0.11622
0.15786 0.062081002 0.11613
0.14166 0.061051998 0.094747998
0.14027999 0.061521001 0.091459997
0.1418 0.064044997 0.091849998
0.14258 0.063355997 0.093782999
0.15738 0.064934999 0.11598
0.15489 0.063575 0.11451
0.155 0.063401997 0.11368
0.15509 0.064032003 0.11301
0.15593 0.066229999 0.1159
0.1557 0.065908998 0.11339
0.15143 0.065586001 0.10589
0.14463 0.064970002 0.094423003
0.14323001 0.064998001 0.094912998
0.15659 0.065366998 0.11331
0.15503 0.065003 0.11166
0.15136001 0.064782001 0.10736
0.14753 0.064710997 0.099813998
0.17572001 0.065765999 0.14485
0.17748 0.065457001 0.14503001
0.15606 0.064777002 0.11423
0.15261 0.065587997 0.10736
0.1515 0.067638002 0.10462
0.14703999 0.066128999 0.10238
0.14428 0.066419996 0.097058997
0.14422999 0.066241004 0.096855
0.14353 0.064865001 0.095108002
0.15012001 0.066414997 0.10346
0.14930999 0.066229999 0.103
0.14898001 0.067201003 0.10305
0.15308 0.066443004 0.1095
0.15125 0.066655003 0.10793
0.14724 0.066298999 0.10096
0.1489 0.066931002 0.10252
0.17636 0.066953003 0.14421999
0.15214001 0.068599001 0.10769
0.17986 0.075465001 0.14806999
0.18178999 0.078226998 0.15161
0.18324 0.079628997 0.15414999
0.18399 0.078318 0.15370999
0.18395001 0.080383003 0.15538
0.18402 0.080523998 0.15528999
0.18279999 0.082892001 0.15334
0.19346 0.082944997 0.17121001
0.19305 0.083292 0.17182
0.19328 0.083336003 0.17226
0.19475999 0.083678998 0.17193
0.18962 0.084123001 0.16348
0.19225 0.083516002 0.16654
0.19124 0.084426001 0.16619
0.18034001 0.083591998 0.15079001
0.1876 0.084700003 0.16177
0.17757 0.084858999 0.14635
0.18742 0.087357 0.16147999
0.17512 0.089785002 0.14102
0.18808 0.090533003 0.16026001
0.18656 0.090710998 0.15944
0.17479999 0.090801001 0.13979
0.18557 0.090352997 0.15810999
0.18581 0.090723999 0.15638
0.18520001 0.091286004 0.15832999
0.17363 0.091565996 0.14042
0.18671 0.091746002 0.15968999
0.18689001 0.092082001 0.15911999
0.18637 0.092012003 0.15795
0.18350001 0.091320999 0.15381999
0.18373001 0.10098 0.15502
0.18425 0.098962002 0.15603
0.18373001 0.10079 0.15535
0.18499 0.10059 0.15655001
0.18426 0.10124 0.15546
0.18336 0.10121 0.15512
0.18260001 0.10093 0.15514
0.18377 0.10143 0.15547
0.18332 0.10234 0.15486
0.18252 0.10221 0.15384001
0.18348999 0.10034 0.15372001
0.18351001 0.10266 0.1542
0.14801 -0.039143 0.099706002
0.14832 -0.03898 0.10113
0.1494 -0.039161 0.10223
0.14727999 -0.038903002 0.099018998
0.13088 -0.038982999 0.075677
0.13028 -0.037335001 0.075652003
0.14559001 -0.038453002 0.097001001
0.14429 -0.038609002 0.096176997
0.13214 -0.029957 0.077041
0.13099 -0.029329 0.076980002
0.13346 -0.028395999 0.078354001
0.13316999 -0.025889 0.080992997
0.13420001 -0.024909999 0.080471002
0.13402 -0.023901001 0.079681002
0.13465001 -0.023630001 0.080369003
0.13410001 -0.021847 0.080596998
0.13441999 -0.021400999 0.081169002
0.13518 -0.02121 0.081955999
0.1362 -0.020563001 0.082405999
0.13747001 -0.015075 0.085359
0.13808 -0.011909 0.088064998
0.14074001 -0.01056 0.088405997
0.13936999 -0.0063775 0.088201001
0.19277 -0.0058117998 0.16652
0.19262999 -0.0050379001 0.16703001
0.19417 -0.0056890999 0.16773
0.19438 -0.0039092 0.17007001
0.19523001 -0.0032009999 0.17022
0.19557001 -0.0032046 0.17096999
0.19537 -0.0017364 0.17197999
0.19631 -0.0033366 0.17158
0.19713999 -0.00032806999 0.17524
0.19706 0.00010411 0.17403001
0.19825 0.00038573999 0.17456
0.19876 0.0018352 0.17618001
0.20483001 0.0021187 0.18619999
0.19796 0.0016009 0.17614
0.1978 0.001649 0.17625999
0.20446999 0.0035261 0.18643001
0.20326 0.0020492999 0.18415999
0.19973999 0.0040837 0.17879
0.20028 0.0036883999 0.17757
0.20487 0.0035758 0.18398
0.2007 0.0038254 0.17928
0.20254999 0.0045046001 0.18199
0.20197 0.0042272001 0.18275
0.20187999 0.0038914999 0.18154
0.20085 0.0030695 0.17971
0.20107999 0.0043649999 0.17939
0.20016 0.0041144001 0.17906
0.19847 0.0045341002 0.17724
0.13635001 0.0041959002 0.081771001
0.20141 0.0051744999 0.18199
0.2017 0.0049819001 0.18153
0.20077001 0.0051910002 0.18024001
0.20122001 0.0060699 0.18046001
0.19987001 0.0054074 0.1798
0.20111001 0.0063207 0.18193001
0.20132001 0.0061090002 0.18098
0.20141 0.006265 0.17795999
0.19959 0.0047265999 0.17937
0.19960999 0.0061933999 0.17892
0.19979 0.0060764002 0.1779
0.13369 0.0061895 0.081531003
0.13461 0.0066049001 0.080977
0.20074999 0.0077356999 0.17912
0.20024 0.0073560001 0.17893
0.19964001 0.0064602001 0.17946
0.20186999 0.0062787002 0.18177
0.20092 0.0079151997 0.18154
0.13406999 0.0084156003 0.079029001
0.13369 0.010961 0.078461997
0.19533999 0.012709 0.17258
0.19593 0.012221 0.17284
0.19768 0.011269 0.17378999
0.19611999 0.011933 0.17374
0.19921 0.01262 0.17628001
0.19806001 0.012261 0.17622
0.19735 0.013589 0.17550001
0.19817001 0.01396 0.17560001
0.19724 0.013514 0.17535
0.19547001 0.012659 0.17342
0.19645 0.013633 0.17175999
0.1946 0.01409 0.1698
0.19406 0.012972 0.17110001
0.19456001 0.013184 0.17217
0.13209 0.013847 0.079167999
0.19963001 0.013961 0.1772
0.19731 0.01398 0.1754
0.19763 0.01367 0.17628001
0.1982 0.014875 0.17603
0.19701 0.014004 0.17475
0.198 0.013351 0.17467999
0.19729 0.013396 0.1744
0.19587 0.014892 0.17448001
0.19645999 0.013257 0.17465
0.19677 0.014494 0.1732
0.13291 0.014811 0.077636003
0.19429 0.014006 0.17087001
0.19396 0.0138 0.16972999
0.19915999 0.013976 0.17776
0.19977 0.013818 0.17908999
0.19805001 0.01557 0.17714
0.19739 0.016322 0.17612
0.19733 0.014083 0.17587
0.19329 0.014832 0.17007001
0.19497 0.015645999 0.17046
0.19420999 0.014651 0.16989
0.19269 0.015572 0.16966
0.19340999 0.015714001 0.16700999
0.19222 0.014989 0.16675
0.20013 0.014359 0.17825
0.20094 0.015171 0.17745
0.19921 0.016689001 0.17625999
0.19272 0.015109 0.16625001
0.19923 0.016240999 0.17678
0.19829001 0.017068001 0.17715999
0.19802999 0.016387001 0.1763
0.19070999 0.015721999 0.1656
0.19869 0.016113 0.17685001
0.19193 0.016364999 0.16391
0.19128001 0.018495999 0.16543999
0.19829001 0.017990001 0.17598
0.19825 0.018615 0.17555
0.13106 0.017872 0.076186001
0.19123 0.017826 0.16523001
0.19164 0.017867001 0.16298001
0.19882999 0.019145001 0.17646
0.19062001 0.019166 0.16418999
0.18787999 0.020269001 0.16283999
0.18991999 0.020083001 0.16219001
0.1991 0.020442 0.17716999
0.19877 0.019757999 0.17728999
0.19903 0.020901 0.17763001
0.13152 0.019664999 0.076052003
0.1983 0.021299001 0.17636
0.19859 0.021473 0.17614
0.19873001 0.023445001 0.17716999
0.18772 0.021163 0.16153
0.18753 0.022360999 0.16207001
0.13082001 0.019948 0.076555997
0.19778 0.021821 0.17644
0.19949999 0.021655999 0.17926
0.19898 0.02251 0.17782
0.18791001 0.022283999 0.16060001
0.18896 0.020548999 0.15952
0.13099 0.022933001 0.074497998
0.13135999 0.022818999 0.074070998
0.13119 0.023120999 0.074280001
0.18793 0.02228 0.15992001
0.19819 0.022554999 0.17781
0.19907001 0.024183 0.17702
0.18727 0.022738 0.15915
0.18661 0.024061 0.15869001
0.20016 0.025534 0.17753001
0.1992 0.025533 0.1769
0.19850001 0.025916999 0.17544
0.19856 0.026386 0.17535999
0.19860999 0.026748 0.17689
0.19978 0.027333001 0.17682999
0.18536 0.027458999 0.15672
0.18547 0.028093001 0.15522
0.13012999 0.026755 0.073615
0.19822 0.028065 0.17713
0.19768 0.028228 0.17592999
0.18365 0.029572001 0.15644
0.18440001 0.027441001 0.15527
0.18495999 0.02843 0.15424
0.19815999 0.029726001 0.17570999
0.19904 0.028465001 0.17586
0.18316001 0.029519999 0.15356
0.18467 0.030483 0.15477
0.13067999 0.028355001 0.073578
0.19709 0.029905001 0.17545
0.18370999 0.029534999 0.15361001
0.18424 0.029756 0.15394001
0.18415999 0.032005001 0.15227
0.18313999 0.031328999 0.15335
0.18223 0.033693001 0.15117
0.18261001 0.033486001 0.15297
0.18147001 0.035339002 0.15005
0.18093 0.034979001 0.14985
0.13003001 0.03565 0.075277001
0.12964 0.033599 0.073973
0.17985 0.035758 0.14799
0.18057001 0.034260999 0.14888
0.18114001 0.035907999 0.14906
0.18126 0.036223002 0.14804
0.17921001 0.036293 0.14834
0.17737 0.037817001 0.14668
0.18034001 0.036986001 0.1471
0.17963 0.037250999 0.14755
0.17735 0.038174 0.14774001
0.17907999 0.037926 0.14606
0.17736 0.038800001 0.14453
0.17757 0.038058002 0.14527
0.17749 0.041503999 0.1446
0.17806 0.038904998 0.14320999
0.1767 0.040973999 0.14490999
0.17698 0.041331999 0.14339
0.17697001 0.041807 0.14426
0.17648 0.043290999 0.14376999
0.17640001 0.043715999 0.14267001
0.12994 0.043398999 0.076774001
0.13097 0.043159999 0.074712999
0.13060001 0.044427 0.076697998
0.17639001 0.044227 0.14281
0.13119 0.044434998 0.075749002
0.17721 0.045035999 0.14320999
0.13056 0.046192002 0.077064
0.17664 0.047816999 0.14217
0.17653 0.049152002 0.14324
0.17705999 0.049502999 0.14296
0.13347 0.049300998 0.078773998
0.13251001 0.050466001 0.078823
0.13342001 0.051217001 0.079506002
0.17541 0.052351002 0.14293
0.13420001 0.051819 0.080159999
0.13392 0.052797001 0.081106
0.13349999 0.053854998 0.080774002
0.17625 0.055086002 0.1434
0.17629001 0.054623999 0.14225
0.13507999 0.053784002 0.081141002
0.13531999 0.055007 0.081776999
0.13618 0.056998 0.082842998
0.13602 0.057649001 0.084036998
0.17651001 0.058169 0.14382
0.17640001 0.055983 0.14386
0.13688 0.059292998 0.086698003
0.17583001 0.058830999 0.14308
0.16348 0.057753 0.12524
0.16306999 0.056793001 0.12567
0.16428 0.059018001 0.12571
0.16405 0.056412999 0.12564
0.16342001 0.058171 0.12404
0.16315 0.058217999 0.12497
0.13905001 0.060575999 0.087801002
0.14015 0.060717002 0.087981999
0.13966 0.061059002 0.088947996
0.16258 0.061694 0.1214
0.16033 0.061643999 0.1204
0.16178 0.059822001 0.12098
0.13886 0.060371999 0.089391999
0.13989 0.061712001 0.089042999
0.15893 0.061826002 0.11932
0.16037001 0.062449999 0.12009
0.1593 0.061746001 0.11794
0.16039 0.061841 0.11766
0.15837 0.061994001 0.11853
0.16051 0.062068 0.12033
0.17637999 0.063377999 0.14275999
0.16075 0.062833004 0.12007
0.16113 0.062762 0.11953
0.15977 0.063661002 0.11962
0.1401 0.062902004 0.088748999
0.17754 0.063787997 0.1433
0.15746 0.063776001 0.11601
0.14140999 0.063091002 0.092998996
0.14365999 0.063813001 0.093983002
0.14172 0.063171998 0.091733001
0.14135 0.063226998 0.08969
0.13891 0.063816004 0.090559997
0.14135 0.063553996 0.089993
0.14390001 0.066004001 0.094223998
0.14117999 0.064121 0.093335003
0.15772 0.065664999 0.1151
0.15499 0.064208999 0.11165
0.17787001 0.065408997 0.14427
0.15715 0.065613002 0.11552
0.15531 0.064094998 0.11108
0.15531 0.066211998 0.11089
0.15543 0.065293998 0.111
0.15192001 0.065985002 0.10691
0.15154999 0.066233002 0.10569
0.14381 0.064898998 0.095077001
0.1429 0.064167 0.095408998
0.15659 0.065716997 0.11514
0.15598001 0.064925 0.11419
0.14668 0.065467 0.1014
0.14794999 0.067341 0.099854998
0.14743 0.066044003 0.099758998
0.14644 0.065564997 0.098719001
0.14552 0.065599002 0.099203996
0.15568 0.065632001 0.11186
0.15534 0.066894002 0.10971
0.14499 0.066304997 0.097774997
0.15672 0.065904997 0.11347
0.15525 0.067791 0.11338
0.15433 0.067239001 0.10947
0.14444999 0.067102998 0.095605001
0.15212999 0.068194002 0.10853
0.15094 0.066937998 0.10649
0.1516 0.067731 0.10514
0.14766 0.067088 0.10132
0.14959 0.067892 0.10288
0.14751001 0.067254998 0.10009
0.14719 0.067640997 0.10045
0.17688 0.067946002 0.14494
0.17827 0.068843 0.14561
0.17852999 0.071099997 0.14667
0.17878 0.073701002 0.14602999
0.18039 0.076370999 0.14995
0.18004 0.075704999 0.14924
0.18088999 0.077033997 0.14862999
0.18075 0.076874003 0.15139
0.18184 0.077069998 0.15091
0.18195 0.078561001 0.15245999
0.18371999 0.077800997 0.15189999
0.18325999 0.080044001 0.15482
0.18363 0.082068004 0.15463001
0.18128 0.083982997 0.15236001
0.18291999 0.083930999 0.15092
0.19395 0.084434003 0.17020001
0.18074 0.083668999 0.14851999
0.19629 0.084013999 0.17333999
0.19611 0.083016001 0.17310999
0.19685 0.083999999 0.17445
0.1935 0.084178999 0.16913
0.18858001 0.085074 0.16286001
0.19129001 0.083866999 0.16259
0.18908 0.085695997 0.16339
0.1804 0.084331997 0.14842001
0.18105 0.084821999 0.14889
0.18877 0.084536999 0.16166
0.18821999 0.085490003 0.1612
0.18893 0.084251001 0.16063
0.18005 0.085352004 0.14796001
0.17823 0.085850999 0.14658
0.1785 0.085744999 0.14580999
0.17896 0.085871004 0.14494
0.17822 0.085988998 0.14410999
0.17569999 0.087119997 0.14319
0.1885 0.087788001 0.16154
0.17625999 0.088936001 0.14241
0.18882 0.088307999 0.16170999
0.17541 0.088845 0.1428
0.18793 0.089267999 0.161
0.17652 0.090282001 0.14204
0.18842 0.089397997 0.15967
0.18797 0.089750998 0.16075
0.18784 0.092187002 0.15977
0.18528 0.091596998 0.15682
0.18785 0.091563001 0.1596
0.18717 0.092491001 0.15922
0.18663 0.093152002 0.15916
0.18579 0.092207 0.15800001
0.18705 0.093018003 0.15849
0.18629999 0.093811996 0.15821999
0.18602 0.094099998 0.15781
0.18628 0.094662003 0.15825
0.18599001 0.095280997 0.15873
0.1866 0.095114999 0.15735
0.18525 0.095838003 0.15835001
0.18674 0.096089996 0.15821999
0.18555 0.096713997 0.15640999
0.18643001 0.096748002 0.15903001
0.18598001 0.097450003 0.15806
0.18758 0.097391002 0.15932
0.18561 0.095821999 0.15978
0.1858 0.097777002 0.15871
0.18573999 0.098714001 0.15774
0.18517999 0.097034 0.15564001
0.18526 0.097653002 0.15831999
0.18545 0.098089002 0.15713
0.18641999 0.098136 0.15835001
0.18540999 0.097880997 0.15679
0.1841 0.098293997 0.15583
0.18492 0.097104996 0.15587001
0.18577 0.097470999 0.15611
0.18628 0.099118002 0.15668
0.18672 0.098342001 0.15783
0.1846 0.099958003 0.15776999
0.18502 0.099336997 0.15460999
0.18409 0.099592999 0.15565
0.1851 0.10073 0.15697999
0.18427999 0.10073 0.15705
0.18379 0.099357001 0.15273
0.18305001 0.10063 0.15418001
0.18572 0.10076 0.15645
0.18604 0.10143 0.15769
0.18404 0.10214 0.15647
0.18353 0.10195 0.1552
0.18291999 0.10352 0.15377
0.14869 -0.039912999 0.10208
0.14846 -0.039565001 0.10187
0.14757 -0.039586 0.0995
0.13287 -0.039434001 0.078449003
0.13219 -0.039737999 0.076056004
0.13075 -0.039457001 0.075162999
0.13187 -0.039351001 0.077275001
0.13158 -0.039230999 0.075933002
0.1311 -0.039395001 0.075531997
0.1468 -0.03844 0.097254001
0.14481001 -0.038364001 0.096202001
0.13072 -0.037207998 0.074382998
0.14543 -0.038304001 0.094388999
0.14304 -0.037462 0.096024998
0.14471 -0.038624998 0.095374003
0.12910999 -0.036036 0.074524
0.13071001 -0.036332998 0.073830001
0.13115001 -0.030909 0.075956002
0.13181999 -0.031229001 0.075854003
0.13184001 -0.03083 0.077198997
0.13222 -0.0287 0.076976001
0.13168 -0.028402001 0.079273999
0.13440999 -0.026926 0.079244003
0.13333 -0.026665 0.079570003
0.13345 -0.025628 0.079480998
0.13397001 -0.024289001 0.080257997
0.13455001 -0.022894001 0.079699002
0.13485999 -0.02114 0.081454001
0.13511001 -0.018445 0.083414003
0.13519999 -0.018029001 0.083521001
0.13624001 -0.018820999 0.083691001
0.13694 -0.018933 0.083201997
0.13713001 -0.016528999 0.084069997
0.13696 -0.016605999 0.083612002
0.13669001 -0.017289 0.084151998
0.13665999 -0.015904 0.085011996
0.13826001 -0.015802 0.084229998
0.13709 -0.015825 0.085230999
0.13898 -0.014268 0.084985003
0.13731 -0.014163 0.085646003
0.13778999 -0.01328 0.086816996
0.14012 -0.011828 0.086673997
0.13923 -0.0094614001 0.089840002
0.13857999 -0.0099465996 0.088744998
0.13917001 -0.0085472995 0.088767
0.13931 -0.0081623001 0.089422002
0.19126999 -0.0062135002 0.16377001
0.19261999 -0.0055303001 0.16652
0.19193 -0.0058792001 0.16587
0.14036 -0.0065807998 0.088004
0.13888 -0.0040818001 0.088082999
0.1937 -0.0047835 0.16847
0.13865 -0.0031838999 0.087191999
0.19452 -0.0028041 0.17095
0.19524001 -0.0026545001 0.17117
0.13692001 -0.0027723 0.086888999
0.19569001 -0.0015373999 0.17337
0.13771001 -0.0019336001 0.086897001
0.13742 -0.00087549002 0.085743003
0.13741 -0.00010293 0.084149003
0.13809 -1.1278e-05 0.084415004
0.19765 -0.00088819 0.17185999
0.19641 -0.0011165 0.17228
0.1972 0.00091518002 0.1742
0.1973 0.0025208001 0.17615999
0.13722 0.00078067998 0.083708003
0.20643 0.0023978001 0.18626
0.19792999 0.0021353001 0.17358001
0.20445 0.0041787 0.18457
0.19774 0.0030908999 0.17601
0.19825999 0.0043461998 0.17689
0.19986001 0.0037831001 0.17589
0.19751 0.0038929 0.17481001
0.20442 0.0057182 0.18483999
0.204 0.0033662999 0.18458
0.20354 0.0035991 0.18471
0.2032 0.0039512999 0.18244
0.19822 0.0059775002 0.17626999
0.19894999 0.0040417998 0.17598
0.19769 0.0050923 0.17461
0.20311999 0.0040858001 0.18392999
0.20322999 0.0053567002 0.18207
0.13484 0.0046228999 0.081083998
0.20315 0.0049123 0.18361001
0.20325001 0.0053343 0.18388
0.13617 0.0039888001 0.081414998
0.20169 0.0048274999 0.1813
0.19850001 0.0046208999 0.17509
0.13546 0.0054843002 0.081685998
0.20525999 0.0066371001 0.18398
0.20445 0.0052489 0.1849
0.20394 0.0062044999 0.18366
0.20254999 0.0059076999 0.18333
0.20197999 0.0064729 0.18273
0.19949 0.0056552999 0.17911001
0.20067 0.0056139999 0.17833
0.19915999 0.0055765999 0.1771
0.20352 0.007036 0.18207
0.20248 0.0067961002 0.18176
0.19913 0.0077578998 0.178
0.19965 0.0051667001 0.17715
0.19870999 0.0072625 0.1771
0.19931 0.0080938004 0.17566
0.19912 0.0065311999 0.17664
0.19775 0.0051850001 0.17539001
0.20396 0.0077546001 0.18370999
0.20178001 0.0079065999 0.18175
0.20159 0.0082428996 0.17958
0.19994999 0.0075341999 0.17913
0.19904999 0.0078507001 0.17621
0.1969 0.0079626003 0.17502999
0.20276999 0.0086371005 0.18353
0.20214 0.0095487004 0.18076999
0.19983 0.0096255001 0.17803
0.20017 0.0082486998 0.17665
0.1981 0.0087721003 0.17637999
0.19877 0.0087933997 0.17562
0.2026 0.0078820996 0.1831
0.20172 0.0083608003 0.18175
0.20133001 0.0084546003 0.18178
0.20057 0.010617 0.17885
0.20097999 0.0087599 0.17854001
0.19851001 0.0097741 0.1777
0.20067 0.0082363002 0.17895
0.19776 0.0081791002 0.17623
0.20014 0.0089284005 0.17736
0.19913 0.0093452996 0.17775001
0.20039999 0.010295 0.17815
0.20102 0.010243 0.1793
0.20011 0.0092225997 0.17986
0.20079 0.011226 0.17694999
0.19915999 0.01119 0.17788
0.1989 0.010552 0.17561001
0.13401 0.0086959004 0.079365
0.13438 0.0091994004 0.078532003
0.13446 0.010203 0.078109004
0.19836999 0.010136 0.17451
0.19777 0.0085319001 0.17549001
0.19995999 0.010907 0.17659999
0.19926 0.012202 0.17741001
0.19941001 0.010458 0.17934
0.19977 0.010362 0.17835
0.19735999 0.011987 0.17473
0.19631 0.010947 0.17247
0.19628 0.010896 0.17214
0.19716001 0.011617 0.17363
0.19605 0.010528 0.17173
0.19585 0.010114 0.17177001
0.13321 0.011521 0.078377999
0.19597 0.01278 0.17252
0.19936 0.012798 0.17722
0.19778 0.012158 0.17587
0.19855 0.012208 0.17462
0.19575 0.011996 0.17118999
0.19711 0.012947 0.17422999
0.13277 0.013297 0.076853
0.13285001 0.012378 0.078332998
0.20039999 0.013459 0.17776
0.20224001 0.013266 0.17922001
0.20129 0.013071 0.18015
0.19757999 0.013333 0.1744
0.19457 0.013224 0.16966
0.19428 0.015111 0.16818
0.20026 0.013389 0.17913
0.20096999 0.015289 0.1798
0.19148 0.014764 0.16754
0.132 0.014813 0.077642001
0.19377001 0.014502 0.16785
0.19315 0.014533 0.16680001
0.19151001 0.014804 0.1662
0.19193 0.014659 0.16695
0.20002 0.015732 0.17829999
0.1998 0.01829 0.17789
0.20235001 0.017138001 0.17854001
0.20137 0.015495 0.17951
0.20099001 0.016195999 0.17927
0.19230001 0.016027 0.16565999
0.13068999 0.016783001 0.076895997
0.19896001 0.018962 0.17626999
0.19879 0.018727001 0.1769
0.20073999 0.01811 0.17827
0.19977 0.017988 0.17701
0.19871999 0.019928999 0.1777
0.19936 0.019750999 0.1777
0.20018999 0.020652 0.17794
0.19068 0.018990001 0.16448
0.19114999 0.017952999 0.16245
0.19007 0.018983999 0.16272999
0.13218001 0.019091001 0.076251
0.20091 0.019628 0.17821001
0.19845 0.019695001 0.17747
0.18966 0.01897 0.16301
0.19997001 0.019706 0.17806999
0.2 0.019895 0.1781
0.20118 0.021497 0.17992
0.20084 0.022725999 0.17936
0.20038 0.0222 0.17799
0.20004 0.023766 0.17782
0.18911 0.023503 0.15880001
0.19961999 0.024122 0.17592999
0.18554001 0.024459001 0.15715
0.18615 0.024723999 0.15727
0.18691 0.024369 0.15575001
0.18663999 0.025028 0.15618999
0.18697999 0.022840001 0.15581
0.12972 0.025028 0.075429
0.186 0.025605001 0.15765999
0.19899 0.026276 0.17731
0.18634 0.026226001 0.15748
0.13051 0.026942 0.074854001
0.13123 0.023793999 0.074602999
0.20076001 0.026908001 0.17662001
0.18561 0.026239 0.1569
0.18657 0.026439 0.15516999
0.19905999 0.028506 0.17645
0.20043001 0.029048 0.17688
0.13073 0.029361 0.074129
0.19706 0.031528 0.17545
0.19828001 0.031018 0.17653
0.12994 0.031156 0.074900001
0.18308 0.031573001 0.15351
0.18325999 0.032809 0.15155999
0.13066 0.031711001 0.073833004
0.18275 0.034012001 0.15068001
0.18155 0.033750001 0.1486
0.18088 0.033863001 0.15036
0.13032 0.033778001 0.074093997
0.18179999 0.035151999 0.14952999
0.18110999 0.035650998 0.14892
0.12973 0.036963999 0.076586001
0.17991 0.036130998 0.14844
0.17696001 0.037078999 0.14624999
0.17829999 0.036594 0.14469001
0.1779 0.036975998 0.14629
0.17905 0.037369002 0.14486
0.13007 0.037765998 0.073905997
0.17873 0.039321002 0.14354999
0.17818999 0.038136002 0.14461
0.13078 0.039349001 0.075671002
0.13089 0.040447999 0.074842997
0.12958001 0.040819 0.076096997
0.17649999 0.040552001 0.14357001
0.13036001 0.041448001 0.073954001
0.13093001 0.043662 0.074803002
0.13102999 0.044962 0.076007001
0.13098 0.044760998 0.075705998
0.17714 0.045882002 0.14285
0.13188 0.045848001 0.075699002
0.13164 0.046314999 0.076715
0.17668 0.046877 0.14262
0.13164 0.046634998 0.077321999
0.17771 0.049662001 0.1429
0.13282 0.048303999 0.077151
0.13174 0.048610002 0.077554002
0.13244 0.048703 0.077997997
0.17640001 0.051231999 0.14383
0.17730001 0.050889999 0.14278001
0.17676 0.049736999 0.14404
0.17653 0.051679999 0.14414001
0.17545 0.051022999 0.14325
0.13301 0.051837001 0.078767002
0.13337 0.051828999 0.079373002
0.13423 0.053054001 0.079154998
0.17605001 0.052457999 0.14246
0.13507999 0.054216001 0.080623001
0.17659 0.054428 0.1426
0.16709 0.053585 0.12966
0.16823 0.054945 0.13046999
0.16806 0.054715 0.12858
0.13491 0.055266999 0.082139999
0.17619 0.055973999 0.14302
0.13485999 0.056467 0.081579998
0.13634001 0.056106001 0.081803001
0.17677 0.056712002 0.14365999
0.13772 0.057548001 0.084887996
0.16306999 0.056297999 0.12559
0.16491 0.058001 0.12523
0.13710999 0.059824001 0.086135998
0.1779 0.059346002 0.14366999
0.164 0.057542 0.12443
0.16403 0.058130998 0.12367
0.16323 0.057551 0.12371
0.16407 0.059069 0.12308
0.17542 0.059551999 0.14238
0.17776 0.059934001 0.14349
0.16618 0.058874998 0.12531
0.16362999 0.059609 0.12583999
0.1635 0.05996 0.12435
0.13804001 0.059645999 0.085343003
0.16407999 0.060888998 0.12366
0.13838001 0.060150001 0.086947002
0.17654 0.059581999 0.14357001
0.13812999 0.060201999 0.086142004
0.13847999 0.060495999 0.086250998
0.16508999 0.060869001 0.12507001
0.16337 0.060922999 0.12541001
0.13936 0.060417 0.087681003
0.13771001 0.062413 0.085712999
0.13961001 0.060674999 0.087626003
0.13943 0.060298 0.087222002
0.16243 0.061101001 0.12085
0.17766 0.062479999 0.14343999
0.15934999 0.061459001 0.11766
0.16001999 0.061926998 0.11942
0.14019001 0.061976999 0.089405999
0.15894 0.063472003 0.11731
0.16098 0.063456997 0.11884
0.15884 0.064626001 0.11723
0.17673001 0.064026996 0.14361
0.17691 0.063410997 0.14417
0.16095001 0.062716998 0.11974
0.15956999 0.065102004 0.11772
0.14026 0.064122997 0.088868
0.15751 0.065351002 0.11643
0.14427 0.064366996 0.094091997
0.14206 0.064480998 0.091219001
0.14497 0.065223999 0.093879998
0.15538999 0.065394998 0.11162
0.14272 0.066678002 0.095073
0.15774 0.066028997 0.11509
0.1556 0.066102996 0.11275
0.14633 0.067212999 0.099223003
0.14300001 0.066404998 0.094044998
0.15727 0.066248 0.114
0.15568 0.067515999 0.1105
0.15109999 0.065324999 0.10754
0.14507 0.066325001 0.097042002
0.15383001 0.066647001 0.10945
0.15107 0.067222998 0.10616
0.14483 0.067805 0.096196003
0.17673001 0.066678002 0.14456999
0.15694 0.066394001 0.11333
0.15727 0.067371003 0.11337
0.15477 0.065881997 0.11357
0.1567 0.067074999 0.11286
0.15214001 0.066831 0.10562
0.15035 0.067074999 0.1033
0.14830001 0.066367999 0.10037
0.14799 0.067195997 0.10091
0.14605001 0.065775998 0.098006003
0.14695001 0.066211998 0.096461996
0.14472 0.065242 0.094203003
0.15301999 0.067659996 0.10959
0.14955001 0.067304 0.10353
0.14756 0.067097001 0.10045
0.17524 0.066797003 0.14396
0.15492 0.067911997 0.11221
0.15357 0.066946 0.10878
0.15026 0.06718 0.10337
0.14988001 0.067221001 0.1033
0.15305001 0.067625001 0.10776
0.14929 0.068216003 0.10264
0.15354 0.068135001 0.10776
0.15158001 0.067501001 0.10768
0.14817999 0.067948997 0.10231
0.17873 0.068856001 0.14421
0.17854001 0.069077 0.14537001
0.17837 0.071585 0.14569999
0.17859 0.071713001 0.14532
0.17821001 0.073165998 0.1463
0.17827 0.072852999 0.14606
0.17745 0.073150001 0.14569999
0.17871 0.073737003 0.14579
0.17936 0.074800998 0.14664
0.17952 0.075556003 0.14729001
0.17957 0.075837001 0.14816
0.18012001 0.077177003 0.1498
0.18038 0.075259998 0.14816999
0.18174 0.077574 0.1508
0.18026 0.077942997 0.1497
0.18216 0.07728 0.15146001
0.18238001 0.079295002 0.15146001
0.18358999 0.080638997 0.15360001
0.18396001 0.081180997 0.15355
0.18341 0.081159003 0.15624
0.18512 0.081173003 0.15425
0.18345 0.082208 0.15351
0.18368 0.081710003 0.15206
0.19904999 0.082924001 0.17550001
0.19801 0.082878001 0.17573
0.19960999 0.084448002 0.17641
0.18201999 0.082626998 0.15012001
0.19938 0.082969002 0.17369001
0.1972 0.082199 0.17414001
0.19775 0.084011003 0.17448001
0.19841 0.084559001 0.17357001
0.19558001 0.083733998 0.17327
0.19693001 0.083984002 0.17162
0.19655 0.083656996 0.17112
0.19571 0.083636999 0.1693
0.19216999 0.083641 0.16599
0.19266 0.083595 0.16557001
0.19186001 0.084101997 0.16536
0.18964 0.084353 0.16362
0.19147 0.084610999 0.16388001
0.18996 0.084486 0.16322
0.17975 0.084726997 0.14962
0.17971 0.085065998 0.1476
0.18858001 0.085446 0.16247
0.18918 0.085042998 0.16237999
0.1908 0.087214999 0.163
0.19021 0.088359997 0.16174001
0.17797001 0.086864002 0.14492001
0.18865 0.088202 0.16231
0.18994001 0.087958999 0.16113999
0.17634 0.087062001 0.14416
0.17748 0.087934002 0.14353
0.1753 0.088260002 0.14256001
0.18895 0.087949999 0.16342001
0.18732999 0.089286 0.16185001
0.18970001 0.088722996 0.16086
0.18882 0.090644002 0.1613
0.18881001 0.091053002 0.16005
0.18918 0.090207003 0.16001
0.18708 0.093335003 0.16028
0.18818 0.091410004 0.16044
0.18535 0.092275999 0.15652999
0.18460999 0.093195997 0.1552
0.18487 0.091793999 0.15504
0.18449 0.091948003 0.15454
0.18556 0.092036001 0.15651
0.18843 0.093215004 0.16071001
0.18655001 0.093236998 0.15824001
0.18591 0.093520001 0.15727
0.18747 0.093796998 0.16012999
0.18842 0.093534 0.16027001
0.18746001 0.094127998 0.15873
0.18562999 0.093875997 0.15646
0.18618 0.093128003 0.15726
0.18598001 0.094672002 0.15713
0.18856999 0.094989002 0.16197
0.18701001 0.096074 0.15902001
0.18776 0.095752999 0.15952
0.1881 0.095834002 0.15998
0.18584 0.096306004 0.15571
0.18548 0.095789 0.15713
0.18708999 0.096336998 0.15938
0.18548 0.096615002 0.1573
0.18571 0.095734999 0.15549
0.18663 0.097175002 0.15853
0.18844 0.096678004 0.15997
0.18686 0.098458 0.15902001
0.18579 0.099036999 0.15843999
0.18391 0.097961001 0.15527999
0.18409 0.099656999 0.15466
0.18331 0.099821001 0.15358
0.18611 0.10135 0.15805
0.18753 0.10077 0.15779001
0.18567 0.10068 0.15739
0.18411 0.10132 0.15376
0.18348999 0.10218 0.15362
0.18579 0.10191 0.15734001
0.18308 0.10217 0.15233
0.18568 0.10335 0.15568
0.18359999 0.10266 0.15476
0.18359999 0.10261 0.15338001
0.18386 0.10371 0.15505999
0.18386 0.10438 0.15479
0.14668 -0.039840002 0.099780001
0.14696001 -0.040656999 0.097723
0.13032 -0.039590001 0.076127
0.14575 -0.039094001 0.096580997
0.14552 -0.039790001 0.095583998
0.14552 -0.038729001 0.09578
0.12998 -0.03915 0.073755004
0.13004 -0.039241999 0.073082998
0.13056999 -0.037670001 0.074918002
0.12948 -0.034912001 0.073775001
0.13214 -0.029951001 0.076132998
0.13251001 -0.030321 0.076425999
0.13321 -0.027868001 0.078599997
0.13373999 -0.028455 0.077487998
0.13322 -0.028689001 0.078404002
0.13299 -0.027643999 0.079020001
0.13513 -0.025177 0.080289997
0.13474 -0.023297001 0.079544
0.13575999 -0.020685 0.081646003
0.13521001 -0.021774 0.080036998
0.1348 -0.022971001 0.080038004
0.13708 -0.018704001 0.081518002
0.13665999 -0.017292 0.082245998
0.13794 -0.015124 0.085818999
0.13805 -0.015728001 0.083641
0.13968 -0.012855 0.086209998
0.13852 -0.013478 0.085236996
0.13867 -0.010965 0.088449001
0.13943 -0.0073918998 0.087789997
0.18963 -0.0065782 0.16359
0.13925999 -0.0060989 0.087205
0.19175 -0.0058112 0.16463
0.19425 -0.0041725002 0.16844
0.13998 -0.0049633998 0.086469002
0.13986 -0.0046795998 0.087458
0.19456001 -0.0044769002 0.16912
0.19492 -0.0044356999 0.16889
0.13919 -0.0036996 0.085660003
0.13826001 -0.0032589 0.085758001
0.1961 -0.0022074999 0.17114
0.19674 -0.0017211 0.17106999
0.13811 -0.0017615 0.085804999
0.19761001 0.0012920999 0.1723
0.13835999 0.00087565999 0.084388003
0.13821 -0.0011922 0.083236001
0.19851001 0.0011351 0.17382
0.19768 0.0015517999 0.17323001
0.13663 0.002267 0.084376
0.2045 0.0015635 0.18651
0.20592999 0.0019294 0.18622001
0.19781999 0.0014596001 0.17307
0.19803999 0.0026610999 0.17485
0.13699 0.0022616 0.084120996
0.13459 0.0034375 0.082143001
0.20491 0.0029806001 0.18601
0.19817001 0.0045806998 0.17489
0.20555 0.0040706 0.18614
0.20488 0.0042035002 0.18569
0.20008001 0.0047197002 0.17702
0.19921 0.0060291002 0.17572001
0.19765 0.0057925 0.17573
0.20565 0.0048675002 0.18497001
0.19866 0.0054529998 0.17422
0.19786 0.0059818998 0.17395
0.19878 0.0056472998 0.17388
0.13448 0.0061034998 0.080985002
0.20563 0.0061841998 0.18450999
0.20630001 0.0065143998 0.18446
0.20554 0.0056661 0.18513
0.20616999 0.0069133998 0.18562999
0.20403001 0.0075098998 0.18396001
0.19744 0.0063342 0.17472
0.19794001 0.0084191002 0.17425001
0.20486 0.0080342004 0.18375
0.20341 0.0084739001 0.18260001
0.13605 0.0074176998 0.079222001
0.20511 0.0085771997 0.18407001
0.19690999 0.0077971001 0.17354999
0.197 0.0089189997 0.17438
0.19645999 0.0083004003 0.17246
0.20303001 0.0096318005 0.18144
0.20348001 0.0094752004 0.18313
0.20147 0.0091805998 0.18077999
0.19627 0.0098414999 0.17273
0.20401999 0.0094806999 0.18308
0.20253 0.01042 0.1825
0.19661 0.0087764002 0.17298
0.13333 0.01033 0.079472996
0.20286 0.011264 0.18072
0.20329 0.011053 0.18093
0.20093 0.010306 0.17993
0.19701999 0.010192 0.17302001
0.20183 0.010544 0.1816
0.19656999 0.0088489 0.17172
0.19637001 0.010007 0.17173
0.20175999 0.011949 0.17923
0.19755 0.011291 0.17409
0.20213 0.012008 0.18107
0.19676 0.011413 0.17125
0.19468001 0.010952 0.16908
0.19497 0.011707 0.16996001
0.19426 0.011823 0.16833
0.19447 0.011475 0.1683
0.20142999 0.012782 0.17963
0.20145001 0.013009 0.17887001
0.20243999 0.013554 0.1802
0.2024 0.01385 0.18173
0.19482 0.014042 0.16805001
0.20286 0.014524 0.18092
0.20266999 0.014362 0.18093
0.19391 0.014283 0.16879
0.19386999 0.013598 0.16845
0.19324 0.014669 0.16670001
0.13155 0.016199 0.075846002
0.20172 0.015034 0.18041
0.19314 0.01529 0.16561
0.20282 0.016384 0.17983
0.20134 0.017368 0.18007
0.19238999 0.016138 0.16491
0.20163 0.017563 0.18017
0.20184 0.018022999 0.17905
0.20122001 0.019497 0.17918
0.20073 0.019437 0.17845
0.18995 0.019629 0.16069999
0.20113 0.020640999 0.17907
0.18928 0.02094 0.15998
0.18833999 0.020559 0.16
0.20135 0.021537 0.17949
0.18808 0.021470999 0.15864
0.13016 0.024397001 0.075225003
0.20005 0.023161 0.17854001
0.18678001 0.022413 0.15865
0.13006 0.024374001 0.075745001
0.13085 0.022352999 0.073958002
0.18675999 0.023243999 0.15776999
0.18736 0.023762999 0.15685999
0.13077 0.026649 0.073219001
0.13169 0.025283 0.073996
0.19986001 0.029408 0.17704
0.19912 0.029025 0.17726
0.18347 0.029757001 0.15425999
0.18403 0.030005001 0.15331
0.13111 0.030339001 0.074027002
0.19914 0.030401999 0.17602
0.18432 0.031019 0.15174
0.18357 0.030282 0.15197
0.13051 0.031179 0.072783001
0.13067999 0.030363999 0.073909
0.13031 0.030958001 0.073564
0.13042 0.034019001 0.071748003
0.13045 0.032372002 0.074084997
0.12961 0.034091 0.073881
0.18195 0.033691 0.15096
0.18057001 0.033463001 0.14729001
0.18158001 0.033217002 0.14847
0.17996 0.033884 0.14836
0.18007 0.034662001 0.14932001
0.18200999 0.032832 0.15054999
0.17928 0.034777999 0.14816
0.12985 0.033519 0.074782997
0.12969001 0.034926001 0.073693
0.17992 0.037289001 0.14712
0.17915 0.036912002 0.14504001
0.13065 0.038543001 0.074236996
0.12994 0.045373 0.075367004
0.13136999 0.048569001 0.076884001
0.17797001 0.047394998 0.14444999
0.13236 0.048999999 0.077045001
0.13301 0.049761999 0.078567997
0.13276 0.051196001 0.078763001
0.13421001 0.051295001 0.076618001
0.13319001 0.050368 0.078496002
0.17756 0.051396001 0.14226
0.17827 0.052083999 0.14337
0.17773999 0.052696001 0.14386
0.13357 0.053374998 0.079132996
0.16757999 0.054262999 0.12886
0.17051999 0.055215001 0.13015001
0.16729 0.054644 0.12989999
0.16767 0.056329001 0.12974
0.17781 0.057395 0.14332999
0.16676 0.056782 0.12815
0.16644 0.055321001 0.12888999
0.16798 0.056896999 0.12837
0.16705 0.056798998 0.12977999
0.13538 0.055748001 0.081173003
0.16632 0.056928001 0.12740999
0.16591001 0.057353999 0.12623
0.13636 0.058391999 0.083645001
0.13694 0.057665002 0.083667003
0.13643 0.057061002 0.082869001
0.17665 0.058076002 0.14339
0.16497999 0.059068002 0.12621
0.16671 0.057045002 0.127
0.16348 0.05993 0.12381
0.16471 0.060299002 0.12418
0.17712 0.061037 0.14249
0.16481 0.060088001 0.12536
0.13868999 0.061085001 0.085513003
0.13655999 0.060206998 0.084980004
0.16421001 0.061071999 0.12481
0.17702 0.060833 0.14311001
0.17726 0.061818 0.14218999
0.13875 0.061055999 0.086375996
0.16336 0.060802002 0.12427
0.14060999 0.062488999 0.088648997
0.14059 0.061503001 0.087141998
0.13772 0.060733002 0.085662998
0.16097 0.062346999 0.12028
0.162 0.062488999 0.12015
0.14088 0.064338997 0.089749001
0.16152 0.064236 0.12029
0.15895 0.064731002 0.11752
0.1399 0.064958997 0.088519998
0.14312001 0.064227 0.093892001
0.14397 0.064484 0.093820997
0.14334001 0.064438 0.092508003
0.14296 0.064983003 0.091127001
0.14202 0.064254001 0.090507001
0.14143001 0.064021997 0.090580001
0.14078 0.065012999 0.089798003
0.17806999 0.065278001 0.14499
0.17786001 0.065552004 0.14443
0.1477 0.066482 0.098985001
0.14647 0.067557 0.098635003
0.17759 0.066827998 0.14426
0.15559 0.066720001 0.11097
0.14533 0.066077001 0.099495001
0.14296 0.066942997 0.095546
0.14452 0.065500997 0.093918003
0.1461 0.066049002 0.096412003
0.14647 0.067997999 0.097386003
0.14559001 0.066812001 0.096712001
0.15674999 0.068944998 0.11371
0.15629999 0.066907004 0.11244
0.15173 0.067146003 0.10566
0.15267 0.067304 0.10735
0.15238 0.068581 0.10802
0.15159 0.068627 0.10631
0.14866 0.068028003 0.10155
0.14865001 0.067399003 0.10058
0.17844 0.069779001 0.14650001
0.17917 0.072715998 0.14519
0.17964 0.073417999 0.14662001
0.17997999 0.075231999 0.14663
0.18207 0.079281002 0.14904
0.18306001 0.078726001 0.14991
0.18302 0.078561999 0.14985
0.18291 0.078558996 0.15245999
0.18307 0.080260001 0.1514
0.18391 0.081362002 0.15421
0.18424 0.081623003 0.15312999
0.19923 0.085281 0.17539001
0.1954 0.083792001 0.16965
0.19474 0.085956 0.16949999
0.19566 0.083861001 0.16819
0.19340999 0.085097 0.16876
0.19314 0.084567003 0.16862001
0.19253001 0.084743999 0.16723
0.19149999 0.084987998 0.16467001
0.19371 0.084847003 0.16689999
0.19385999 0.084527001 0.16674
0.19136 0.084160998 0.1655
0.18984 0.085465997 0.16234
0.17971 0.085224003 0.14737
0.17619 0.089659996 0.14173
0.18844 0.090700001 0.16098
0.17636 0.089460999 0.14129999
0.18441001 0.092926003 0.15528999
0.18411 0.092280999 0.15294001
0.18594 0.093511 0.15527
0.18916 0.093102999 0.16091
0.18452001 0.094958 0.15666001
0.18765999 0.096584998 0.15996
0.18592 0.097227 0.15557
0.14920001 -0.040217999 0.1
0.14879 -0.040757 0.099637002
0.14712 -0.039200999 0.097469002
0.14724 -0.039815001 0.097251996
0.13097 -0.04067 0.075165004
0.13102999 -0.041060001 0.074023999
0.13066 -0.038596999 0.073505998
0.13149001 -0.038795002 0.072973996
0.14673001 -0.039195001 0.096868999
0.14410999 -0.038518999 0.095325999
0.12962 -0.038368002 0.073435001
0.12941 -0.037245002 0.073360004
0.12961 -0.035826001 0.073532
0.13065 -0.035578001 0.072858997
0.13096 -0.033519 0.075553
0.13017 -0.033732001 0.073728003
0.13079 -0.03531 0.073294997
0.13068999 -0.033402 0.073849998
0.13248999 -0.030486001 0.075356998
0.13277 -0.031411 0.074587002
0.13222 -0.029292 0.076797001
0.13268 -0.029792 0.075268999
0.13454001 -0.028862 0.077665001
0.13418999 -0.024315 0.079282999
0.13426 -0.024958 0.079163998
0.13364001 -0.024215 0.080256
0.13305999 -0.02242 0.079360999
0.13420001 -0.023016 0.078729004
0.13457 -0.022469001 0.079457998
0.13636 -0.018882001 0.082359001
0.13704 -0.018358 0.083374999
0.13903999 -0.012108 0.087617002
0.14053001 -0.011963 0.086618997
0.13838001 -0.010993 0.087751999
0.13884 -0.011223 0.087098002
0.13992 -0.0088673001 0.088008001
0.13968 -0.010389 0.087635003
0.14075001 -0.0086327 0.087876
0.14094 -0.0092647001 0.087334998
0.13974001 -0.0059833 0.088345997
0.1913 -0.004586 0.16494
0.19164 -0.0045174002 0.16407999
0.19371 -0.0053796 0.16596
0.19383 -0.0057231998 0.16592
0.14047 -0.0064555001 0.087329999
0.19478001 -0.0039422 0.16866
0.19344001 -0.0040199999 0.16757999
0.19496 -0.0040696999 0.16903999
0.19546001 -0.0040746001 0.16911
0.19569001 -0.0028567 0.17072
0.19572 -0.0023242 0.17082
0.19603001 -0.0019116 0.17075001
0.19666 -0.00088692998 0.17165001
0.19755 -0.00057027 0.17239
0.19674 -0.00074408 0.17231999
0.19701 0.0021017001 0.17275999
0.19751 0.0018808 0.17269
0.13749 0.00075410999 0.081868
0.13707 0.0016849 0.084423997
0.20784999 0.0018778 0.18738
0.20722 0.0027325 0.18728
0.20570999 0.0021011999 0.1867
0.19742 0.0031429001 0.17242999
0.20778 0.0036879999 0.18675999
0.20536999 0.0033925001 0.18655001
0.20731001 0.0035031 0.1865
0.19752 0.0031788 0.1734
0.19871999 0.0038007 0.17343999
0.19788 0.0040123002 0.17234001
0.2066 0.0050587999 0.18509001
0.19731 0.0048162001 0.17382
0.20660999 0.0063307001 0.18594
0.206 0.0049187001 0.18553001
0.2062 0.0077229999 0.18573
0.20874 0.0090488 0.18546
0.20661999 0.0084245 0.18514
0.19859999 0.0054437998 0.17225
0.19761001 0.0069824001 0.17419
0.13521001 0.0053594001 0.081354998
0.19809 0.0077042999 0.17316
0.19735 0.0068128998 0.17147
0.19717 0.0088929003 0.17377
0.19747999 0.0083001005 0.17256001
0.20476 0.0089426003 0.18499
0.19712 0.0082996003 0.17275999
0.19807 0.0071546002 0.17208
0.19599 0.0095352996 0.17209999
0.13507 0.0085167 0.079595998
0.20445 0.010174 0.18289
0.19697 0.0083889002 0.17238
0.19632 0.0104 0.17134
