# .PCD v0.7 - Point Cloud Data file format
VERSION 0.7
FIELDS x y z
SIZE 4 4 4
TYPE F F F
COUNT 1 1 1
WIDTH 1633
HEIGHT 1
VIEWPOINT 0 0 0 1 0 0 0
POINTS 1633
DATA ascii
0.11296 0.059106998 0.083416
0.11231 0.059912998 0.083260998
0.19256 0.091998003 0.079582997
0.19362999 0.092091002 0.080504999
0.19286001 0.091430999 0.080603004
0.15342 0.0059393998 0.13665
0.15369999 0.0051193 0.13685
0.15389 0.0051078 0.13714001
0.14916 -0.030667 0.13795
0.14896999 -0.031959001 0.13706
0.14921001 -0.031746998 0.13775
0.14993 -0.049219999 0.13819
0.15061 -0.048981 0.13850001
0.15002 -0.047781002 0.13801999
0.17041001 0.031173 0.13454001
0.14753 0.0024782999 0.12127
0.14767 0.0027880999 0.12269
0.20101 -0.028464001 0.12530001
0.20072 -0.029571 0.12404
0.20110001 -0.029461 0.12499
0.192 -0.0079370001 0.16469
0.19247 -0.0080287997 0.16564
0.16331001 0.021405 0.12504999
0.16404 0.022257 0.12399
0.1802 0.087286003 0.13087
0.18124001 0.087362997 0.13166
0.13001999 0.066697001 0.11309
0.18565001 0.080425002 0.14230999
0.18567 0.079668 0.14289001
0.18697999 0.080417 0.14211001
0.1719 0.010603 0.13998
0.17332 0.010418 0.14007001
0.17249 0.084550001 0.12788001
0.17316 0.084990002 0.12775999
0.17276999 0.085633002 0.12679
0.15984 -0.026223 0.14041001
0.16015001 -0.025167 0.14046
0.15933999 -0.025186 0.14069
0.14782 -0.021761 0.13585
0.14819001 -0.022665 0.13707
0.15996 0.070542999 0.11317
0.15968999 0.070280001 0.11266
0.15884 0.069989003 0.11382
0.11689 0.065522 0.10282
0.13218001 0.068553999 0.11113
0.13053 0.069247998 0.11081
0.19764 0.044016998 0.14274999
0.19874001 0.043512002 0.14272
0.19882999 0.043963 0.14318
0.15530001 0.096371002 0.087168001
0.15433 0.095991001 0.087398998
0.15432 0.095516004 0.087526001
0.17113 0.046105999 0.14343999
0.17141999 0.044746999 0.14271
0.17199001 0.046057001 0.14397
0.16478001 0.021695999 0.1312
0.16538 0.022679999 0.13101
0.16472 0.021989999 0.13023999
0.11578 0.075005002 0.078695998
0.1155 0.073469996 0.077891998
0.11545 0.073941998 0.078493997
0.12954 0.059595 0.11461
0.12951 0.060814999 0.11409
0.12917 0.061198 0.11401
0.18798999 0.0058097998 0.14303
0.18787 0.0054918998 0.14334001
0.18827 0.0050156 0.14392
0.13648 -0.051263001 0.11841
0.13652 -0.050104 0.11878
0.13756999 -0.051197 0.11874
0.20056 -0.027264001 0.1148
0.20042001 -0.027603 0.11523
0.19988 -0.027013 0.11597
0.22431 0.090149999 0.067321002
0.22384 0.090221003 0.066083997
0.22341999 0.090240002 0.066211998
0.17588 0.023080001 0.13973001
0.17511 0.023294 0.13959999
0.17535999 0.022167001 0.13908
0.16649 0.043820001 0.13821
0.18780001 0.068497002 0.14696001
0.18821 0.069072001 0.14688
0.18737 0.068272002 0.14732
0.17834 0.019861 0.14026999
0.17926 0.019513 0.14048
0.17842001 0.020847 0.14042
0.18287 0.084275998 0.13603
0.16926999 0.023158999 0.116
0.16958 0.022985 0.11532
0.16965 0.022305001 0.11532
0.16728 0.010355 0.14098001
0.16852 0.0096362997 0.14068
0.16872001 0.010418 0.14076
0.152 0.0060966001 0.13471
0.15103 0.0049220002 0.13395999
0.15144999 0.0049176002 0.13488001
0.16958 0.031145001 0.11318
0.16891 0.031353999 0.11399
0.16868 0.032472 0.11381
0.1912 -0.0044363001 0.16230001
0.19174001 -0.0045730001 0.16313
0.1917 -0.0036027001 0.16243
0.18619999 0.062155001 0.14934
0.16122 -0.017026 0.13603
0.16237999 -0.018141 0.13591
0.16226 -0.017166 0.13563
0.18147001 0.064346999 0.14872999
0.18132 0.065687001 0.14824
0.18012001 0.065683998 0.14831001
0.16755 0.033587001 0.12594999
0.16752 0.032639001 0.12569
0.16778 0.033420999 0.12689
0.16508 0.091752 0.093898997
0.16377001 0.092067003 0.093713999
0.16416 0.091582 0.093975998
0.20271 -0.052356999 0.1309
0.20318 -0.053119 0.1302
0.20365 -0.053270999 0.13043
0.17437001 0.088689998 0.10603
0.17494 0.089002997 0.10518
0.17512 0.088739999 0.10449
0.18318 0.069121003 0.14677
0.18398 0.069054998 0.14681999
0.18425 0.069999002 0.14674
0.186 0.086193003 0.088591002
0.18613 0.087233998 0.087063998
0.17656 0.063386001 0.14825
0.17588 0.062770002 0.14801
0.17657 0.062305 0.14839
0.14876001 0.063689001 0.1251
0.14907999 0.064066 0.12458
0.14851999 0.064433001 0.12382
0.17 0.065275997 0.14399
0.16908 0.065426998 0.14356001
0.16972999 0.064589001 0.14432
0.14499 0.062236 0.12397
0.14437 0.062171001 0.12299
0.14459001 0.06109 0.124
0.21411 -0.017804001 0.12512
0.21523 -0.017937001 0.12509
0.21515 -0.017367 0.12464
0.20214 -0.033815999 0.1178
0.20218 -0.034460001 0.11765
0.20152 -0.034152001 0.1189
0.18103001 0.089371003 0.10778
0.18198 0.089473002 0.10765
0.18095 0.08901 0.1073
0.17711 0.088881001 0.12069
0.17693999 0.088440001 0.11951
0.17584001 0.088172004 0.11996
0.11398 0.065931 0.090903997
0.11371 0.065711997 0.090291001
0.114 0.065646999 0.091430001
0.16202 -0.051376 0.14255001
0.1631 -0.051220998 0.1425
0.16559 -0.0041348999 0.13794
0.16632 -0.0048571001 0.13728
0.16644 -0.0042610001 0.13782001
0.18931 0.001825 0.14872999
0.18923 0.002811 0.14718001
0.18897 0.0019097 0.14747
0.11625 0.061145 0.076520003
0.1156 0.060966 0.075222999
0.11572 0.062470999 0.076567002
0.16565 0.078089997 0.12625
0.16532999 0.077692002 0.12666
0.16527 0.077610001 0.12718
0.14847 -0.052416999 0.13722
0.14904 -0.052829999 0.13726
0.14979 -0.052368999 0.13792001
0.19212 0.087209001 0.13085
0.19202 0.086987004 0.13186
0.19295999 0.086989999 0.13083
0.16174001 0.074855998 0.11517
0.16235 0.075539999 0.11553
0.16258 0.075782999 0.11531
0.14148 -0.046188999 0.12485
0.14050999 -0.046960998 0.12479
0.14101 -0.046852 0.12589
0.18108 0.039489001 0.14336
0.18002 0.040233999 0.14404
0.17984 0.039280001 0.14263
0.15544 0.049038999 0.12789001
0.15662 0.04916 0.12818
0.15705 0.049740002 0.12843999
0.18024001 0.073689997 0.14529
0.18148001 0.074665003 0.14497
0.18058001 0.074313998 0.14476
0.11491 0.065952003 0.073925003
0.11614 0.065849997 0.07406
0.11495 0.065930001 0.074331
0.1196 0.073435001 0.095896997
0.11918 0.072217003 0.096137002
0.12 0.072403997 0.096629001
0.14108001 0.050588001 0.12005
0.16699 0.032584 0.12126
0.16627 0.033585001 0.12146
0.16637 0.033406001 0.12
0.16787 0.080407999 0.12564
0.16787 0.079651996 0.12692
0.16847 0.080600001 0.12656
0.21262001 -0.032993998 0.13253
0.21349999 -0.032667998 0.13224
0.21274 -0.031943999 0.13223
0.11665 0.073910996 0.092318997
0.11705 0.074823998 0.091825001
0.11651 0.073322996 0.091857001
0.16012 0.01063 0.13995001
0.16103999 0.010787 0.13997
0.16113 0.011885 0.14001
0.1874 0.0010829 0.14040001
0.18757001 0.0020136 0.14013
0.18827 0.0015459 0.13958
0.21073 -0.025150999 0.13023999
0.21029 -0.024653999 0.13017
0.20951 -0.024917001 0.13041
0.13145 0.056148998 0.11429
0.13166 0.057728 0.11452
0.13054 0.057796001 0.1143
0.15301999 -0.032961 0.14021
0.15402 -0.032908 0.1407
0.153 -0.031969 0.14047
0.21374001 -0.016798001 0.12366
0.21252 -0.015807001 0.1232
0.21264 -0.016612999 0.12471
0.14983 -0.053371999 0.13668001
0.15090001 -0.053382002 0.13649
0.15112001 -0.053185999 0.13756
0.16154 0.071156003 0.13091999
0.16165 0.071777001 0.13036001
0.16801 0.068926997 0.14123
0.19092999 0.056522999 0.14878
0.18973 0.056917999 0.14918999
0.19066 0.055930998 0.1488
0.20213 -0.032219 0.11597
0.20129 -0.031950999 0.11673
0.20205 -0.031709999 0.11578
0.17757 0.020691 0.14008
0.17635 0.022081999 0.13992999
0.17675 0.021001 0.13956
0.22599 0.088578999 0.069277003
0.2262 0.087976001 0.070505001
0.21294001 -0.035767999 0.13324
0.21189 -0.036476001 0.13343
0.21277 -0.036529999 0.13359
0.18883 0.087305002 0.090504996
0.19025999 0.087258004 0.089993998
0.19004001 0.088334002 0.089621
0.16513 0.090637997 0.094446003
0.16430999 0.089458004 0.094763003
0.16497999 0.089685 0.094607003
0.14656 -0.0090762004 0.12825
0.14701 -0.0090599004 0.1288
0.15354 0.055109002 0.12933999
0.1525 0.055197001 0.12924001
0.15341 0.054014001 0.1294
0.14449 -0.013454 0.12017
0.14484 -0.013859 0.1196
0.14511 -0.014198 0.11996
0.17803 0.061108001 0.14906
0.17775001 0.062295001 0.14856
0.17750999 0.061411001 0.14871
0.14576 -0.013407 0.12820999
0.14657 -0.012442 0.12907
0.14562 -0.012382 0.12845001
0.18237001 0.011777 0.13935
0.18334 0.01122 0.13862
0.14628001 -0.022645 0.13074
0.14605001 -0.023766 0.13055
0.14618 -0.023947001 0.13080999
0.16424 0.082851 0.094425
0.16267 0.083856001 0.094008997
0.16276 0.082859002 0.093638003
0.19402 0.042741001 0.14277001
0.19516 0.042571999 0.14253999
0.19523001 0.043621 0.14284
0.1235 0.080615997 0.080495
0.12321 0.081817001 0.07942
0.12396 0.081413001 0.080072001
0.17318 0.086346999 0.123
0.1726 0.085911997 0.12377
0.17313001 0.086516 0.12437
0.1557 -0.027015001 0.14105
0.1548 -0.027294001 0.14117
0.15583999 -0.028618 0.14097001
0.15001 -0.028577 0.1388
0.15020999 -0.029518999 0.13902999
0.15078001 -0.029523 0.13973001
0.16392 0.070150003 0.097960003
0.16428 0.071084 0.097475998
0.16424 0.069990002 0.097153001
0.15576001 -0.0018593 0.13727
0.15532 -0.0030427 0.13679001
0.156 -0.0031145001 0.13694
0.14529 -0.0090142004 0.1257
0.14473 -0.0091987997 0.12487
0.14461 -0.0099159004 0.12515
0.13607 0.058820002 0.11874
0.13598 0.058595002 0.1193
0.13572 0.058731999 0.11995
0.18241 0.089737996 0.10372
0.1807 0.089437 0.10317
0.16094001 -0.0010706 0.13933
0.16052 -0.0013206 0.13899
0.16075 -0.0022036999 0.13869999
0.14911 -0.033195999 0.12640999
0.14955001 -0.033957999 0.12642001
0.14888 -0.034398001 0.12710001
0.19081999 0.087843999 0.1302
0.19104999 0.087245002 0.13147999
0.19163001 0.087468997 0.13001999
0.15963 0.014785 0.12109
0.22583 0.087240003 0.071563996
0.22515 0.087247998 0.07085
0.22494 0.086815 0.071284004
0.18984 0.020733001 0.14071999
0.18970001 0.01976 0.14049
0.19092 0.019752 0.14030001
0.15974 -0.0099598998 0.13414
0.1585 -0.010266 0.13395
0.1594 -0.011234 0.13372999
0.18945 -0.0010621001 0.15194
0.14086001 0.058681 0.12231
0.14076 0.057693001 0.12229
0.14162 0.057836998 0.12306
0.17660999 0.082630001 0.13643999
0.17641 0.081984997 0.13708
0.17692 0.081611998 0.13779999
0.17552 0.023375001 0.10832
0.17522 0.024395 0.10829
0.16936 0.063178003 0.092977002
0.16879 0.064501002 0.093088001
0.16892999 0.064235002 0.092519999
0.18856999 0.087761998 0.13056999
0.18877999 0.088142 0.12953
0.18798 0.088412002 0.12983
0.12104 0.082385004 0.08348
0.12152 0.082277998 0.084083997
0.12199 0.083077997 0.083250001
0.19727001 0.017511999 0.13662
0.19819 0.017247001 0.13591
0.19765 0.017792 0.13629
0.11441 0.059649002 0.072232999
0.11433 0.058765002 0.072428003
0.11336 0.058807999 0.072486997
0.14487 0.057656001 0.12554
0.1443 0.057480998 0.12507001
0.14477 0.056164999 0.12569
0.19527 0.057374999 0.14726999
0.19419 0.056448001 0.14781
0.19481 0.056244999 0.14734
0.2062 -0.045919999 0.13445
0.20681 -0.045581002 0.13431001
0.16584 0.063120998 0.14132001
0.16486999 0.063460998 0.14103
0.16592 0.063331999 0.14201
0.14139 -0.053576 0.13281
0.14257 -0.053134002 0.13256
0.14179 -0.053675 0.13395999
0.18688001 0.08941 0.085975997
0.18595 0.088293999 0.085931003
0.18652999 0.088863 0.086230002
0.16401 0.015369 0.13767
0.16293 0.014804 0.13781001
0.16456001 0.014848 0.13846999
0.1471 0.064438999 0.12305
0.14723 0.063148998 0.12438
0.1987 0.026667999 0.13885
0.19776 0.027650001 0.13894001
0.19776 0.026614999 0.13911
0.14816999 -0.014957 0.13326
0.14787 -0.015903 0.13361999
0.15047 0.004888 0.13333
0.15068001 0.0061687999 0.13291
0.15001 0.004832 0.13303
0.19496 -0.0042320001 0.16404
0.19383 -0.0039650998 0.16449
0.19501001 -0.0046572001 0.16481
0.15775999 0.01599 0.12609001
0.15707999 0.015353 0.12608001
0.15647 0.015054 0.12656
0.16778 0.081041001 0.086787999
0.16722 0.080953002 0.087066002
0.12019 0.061165001 0.10967
0.12076 0.059893001 0.10994
0.12065 0.060989998 0.1102
0.16028 0.042695001 0.11584
0.16005 0.043088 0.11691
0.15981001 0.043703999 0.11594
0.18389 0.014173 0.14008
0.1849 0.013626 0.13963
0.1848 0.01436 0.14004
0.18059 0.020902 0.14092
0.18084 0.019648001 0.14095999
0.18167999 0.019618001 0.14127
0.17009 0.063055001 0.1451
0.16926999 0.063282996 0.14443
0.18389 0.089759 0.1104
0.18534 0.089891002 0.11116
0.18513 0.089561 0.11015
0.12411 0.058784001 0.11271
0.12558 0.058788002 0.11312
0.12425 0.059935998 0.11342
0.14398 -0.0083753997 0.12281
0.14431 -0.0066763 0.12278
0.14392 -0.0070989998 0.12222
0.19211 0.021082001 0.14
0.19124 0.021236001 0.14032
0.20232999 -0.037516002 0.1223
0.20212001 -0.036428999 0.12089
0.20254999 -0.037517998 0.12106
0.12025 0.070903003 0.10477
0.11998 0.071023002 0.10419
0.11978 0.070468999 0.1054
0.18722001 0.035840001 0.14381
0.18843 0.035558 0.14356001
0.18803 0.036212001 0.14357001
0.19181 -0.0054234001 0.15722001
0.19279 -0.0060891998 0.15738
0.19311 -0.0060061999 0.1578
0.2087 -0.01129 0.1233
0.20785999 -0.012302 0.12319
0.20875999 -0.012621 0.12359
0.1682 0.033333 0.11252
0.16883001 0.032602999 0.11291
0.16791999 0.033296999 0.11343
0.15176 -0.021683 0.13978
0.15030999 -0.02134 0.13891
0.15079001 -0.021604 0.13937999
0.13654999 0.061030999 0.11769
0.13685 0.062245999 0.11879
0.13700999 0.061817002 0.11784
0.17124 0.050604999 0.14463
0.17082 0.050324 0.14415
0.17076001 0.049646001 0.14396
0.17145 0.023415999 0.11249
0.17192 0.024040001 0.11188
0.17161 0.023052 0.11187
0.15184 -0.014701 0.13615
0.15072 -0.015745999 0.13644999
0.15163 -0.015426 0.13643
0.17215 0.072218999 0.14139999
0.17305 0.073518001 0.14158
0.17246 0.073683001 0.14120001
0.15192001 -0.047961 0.13912
0.15146001 -0.047952 0.13884
0.15129 -0.048985999 0.13875
0.14895 -0.030608 0.12493
0.1494 -0.031406999 0.12548999
0.14899001 -0.031892002 0.12582
0.20601 -0.014535 0.12292
0.20547999 -0.014882 0.12222
0.20603 -0.015699999 0.1226
0.15020999 -0.036490001 0.13786
0.14943001 -0.035321001 0.13663
0.14974 -0.036231998 0.13654999
0.19435 0.095706999 0.082877003
0.19435 0.094920002 0.083508998
0.19543999 0.095501997 0.082456
0.17826 0.033225998 0.14237
0.17734 0.034577999 0.14234
0.17753001 0.033537 0.14218
0.18328001 0.029929999 0.14281
0.18244 0.029461 0.14252
0.18336999 0.029112 0.14267001
0.16416 0.044229999 0.13535
0.16385999 0.043602999 0.13510001
0.16426 0.043896999 0.13542999
0.15908 0.016989 0.13189
0.15861 0.016945999 0.13076
0.15813001 0.016860001 0.13169999
0.18389 0.063155003 0.14912
0.18404 0.064600997 0.14895
0.18253 0.064338997 0.14826
0.18328001 0.084526002 0.13621999
0.16665 0.036991999 0.12838
0.16716 0.037087001 0.12921999
0.16662 0.037942 0.12964
0.15470999 -0.0088745998 0.13435
0.15387 -0.0079423999 0.13451
0.15375 -0.0090939002 0.13420001
0.1566 -0.027264999 0.14115
0.15661 -0.026092 0.14112
0.15566 -0.026055001 0.14124
0.16057999 0.062899001 0.1355
0.16034999 0.062070001 0.1353
0.16052 0.062972002 0.13595
0.13263001 0.053185999 0.11254
0.13353001 0.052664999 0.11369
0.13302 0.053203002 0.11336
0.1919 0.067897998 0.14689
0.19178 0.069035999 0.14719
0.19031 0.068948001 0.14735
0.16685 0.077091001 0.095937997
0.16674 0.077004001 0.094669998
0.16632 0.076413997 0.095172003
0.12392 0.052825999 0.103
0.12313 0.053211998 0.10313
0.12315 0.053196002 0.10246
0.16527 0.077281997 0.11548
0.16561 0.077202 0.1169
0.16629 0.077287003 0.11664
0.16412 0.065442003 0.098995999
0.16327 0.066405997 0.098866001
0.16393 0.066766001 0.098146997
0.21077 -0.053316001 0.10803
0.20946001 -0.053328 0.10834
0.20914 -0.053142998 0.10736
0.15616 -0.053229999 0.13991
0.15532 -0.053245999 0.14011
0.15496001 -0.053376 0.13908
0.15473001 -0.011259 0.13455001
0.15569 -0.010984 0.13437
0.15604 -0.010233 0.13422
0.13682 0.064300001 0.11506
0.13654 0.064750999 0.11419
0.13575999 0.06425 0.11488
0.16031 -0.045271002 0.14143001
0.15963 -0.046009 0.14185999
0.14738999 -0.02716 0.13135
0.14676 -0.028522 0.13019
0.14751001 -0.028059 0.13147999
0.18165 0.055080999 0.14921001
0.18263 0.055176001 0.14938
0.18273 0.056519002 0.14935
0.17023 0.081522003 0.12847
0.17096999 0.082883 0.1283
0.16981 0.082640998 0.12734
0.19236 0.038098998 0.14184999
0.19258 0.038853999 0.14218999
0.1917 0.038965002 0.14238
0.15853 0.013605 0.13732
0.13439 0.068818003 0.11088
0.13414 0.069271997 0.11041
0.13309 0.069053002 0.11042
0.18741 0.054074999 0.14923
0.18626 0.053969 0.14895999
0.18749 0.052779 0.14889
0.20926 -0.031932998 0.13248
0.20748 -0.030595001 0.13166
0.20737 -0.032166999 0.13168
0.17441 0.087598003 0.12019
0.1753 0.087943003 0.12092
0.17505001 0.087925002 0.12057
0.17857 0.068014003 0.14715999
0.17851999 0.066604003 0.14738999
0.17894 0.067939997 0.14737
0.16707 0.031927999 0.12489
0.16734999 0.032547001 0.12482
0.19475999 -0.0028435001 0.16278
0.19352999 -0.0025168001 0.16265
0.1938 -0.0028456999 0.16329999
0.15259001 0.011608 0.12876999
0.15187 0.010487 0.12777001
0.15199 0.010519 0.12909999
0.16618 0.020417999 0.11808
0.1672 0.020575 0.11798
0.16614 0.019709 0.11758
0.14471 -0.019203 0.12848
0.14426 -0.020296 0.1277
0.14470001 -0.020515 0.12837
0.1494 0.0011489 0.11784
0.14989001 0.0001584 0.11727
0.14928 0.00037302999 0.11757
0.1391 -0.052703999 0.12864
0.13987 -0.053128 0.12851
0.14049999 -0.053332999 0.12859
0.11689 0.061230998 0.1041
0.11679 0.061133001 0.10242
0.1173 0.060063001 0.10393
0.17885999 0.086616002 0.13118
0.17918999 0.086488999 0.13206001
0.17907999 0.087053999 0.13087
0.16385999 0.022004001 0.12763999
0.16292 0.020741999 0.12811001
0.21749 -0.026194001 0.12897
0.21758001 -0.027308 0.12883
0.21854 -0.027194001 0.12781
0.14669 -0.043244999 0.13038
0.14726999 -0.042840999 0.12988
0.14764 -0.043060999 0.12879001
0.19009 0.0046164002 0.14574
0.18874 0.0047015999 0.14483
0.18897 0.0036466001 0.14621
0.1763 0.036733001 0.14041001
0.17716999 0.036982 0.14097001
0.17694999 0.037981 0.14129999
0.17058 0.084100999 0.11398
0.16976 0.082712002 0.11421
0.17025 0.083544001 0.11453
0.15229 -0.042991001 0.13839
0.15212999 -0.042229999 0.13839
0.19978 0.023097999 0.13717
0.19852 0.023197001 0.13812999
0.19858 0.022002 0.13779999
0.15401 0.062158 0.12701
0.15282001 0.061230998 0.12751
0.15399 0.061393999 0.12741999
0.15622 0.00026892 0.13813999
0.15609001 0.0015247 0.13856
0.19476999 0.073668003 0.14481001
0.19573 0.073372997 0.14448
0.17161 0.074146003 0.14068
0.17195 0.074925996 0.14035
0.17110001 0.073582999 0.14046
0.2023 -0.018990001 0.1147
0.15783 -0.051325999 0.14214
0.15845001 -0.050207999 0.14210001
0.15802 -0.050315998 0.14196
0.14663 -0.0021982 0.12111
0.14634 -0.00096129999 0.12179
0.14683001 -0.0011398999 0.12107
0.11822 0.068019003 0.096169002
0.11832 0.069022 0.096276999
0.11778 0.068933003 0.095482998
0.19268 0.0015733 0.15123001
0.19386999 0.001927 0.15093
0.19345 0.0019648999 0.15065999
0.15054999 -0.039193999 0.13674
0.15004 -0.040153999 0.13627
0.15035 -0.039609998 0.13680001
0.16388001 0.020235 0.13271999
0.16289 0.019779 0.13164
0.16316 0.019452 0.13301
0.20235001 0.064451002 0.14368001
0.20279001 0.064553998 0.14312001
0.20236 0.065465003 0.14348
0.16426 0.065568 0.14013
0.16407999 0.065627001 0.13975
0.16459 0.064948 0.1402
0.19373 0.086935997 0.1295
0.19273999 0.087683 0.12967999
0.16362999 0.073420003 0.13149001
0.16353001 0.073427998 0.13061
0.16243 0.072254002 0.13087
0.117 0.064737 0.1014
0.11664 0.064381003 0.10166
0.11655 0.064460002 0.10247
0.16746999 0.078953996 0.11887
0.16717 0.078918003 0.11767
0.16696 0.078584999 0.11877
0.17327 0.079620004 0.13739
0.17215 0.079378001 0.13655999
0.1728 0.079102002 0.13732
0.14736 -0.017857 0.13367
0.14712 -0.018492 0.13371
0.14751001 -0.018005 0.13477001
0.20878001 -0.052466001 0.13618
0.20764001 -0.052308999 0.13643
0.20817 -0.052891999 0.13545001
0.16605 0.075979002 0.092859
0.16576 0.07553 0.093993001
0.16621 0.076195002 0.093878001
0.20434 -0.053187001 0.13225999
0.20454 -0.052683 0.13387001
0.20415001 -0.053055 0.13303
0.13269 -0.053491998 0.11761
0.13372 -0.052398998 0.11764
0.13350999 -0.053583 0.11784
0.16227999 0.071468003 0.1103
0.16152 0.071414001 0.11066
0.16216999 0.071709998 0.11136
0.16508999 0.094925001 0.089436002
0.16518 0.095106997 0.090122998
0.16542 0.094637997 0.089190997
0.15967999 -0.017935 0.13802999
0.16073 -0.018134 0.1374
0.15926 -0.017136 0.13729
0.12864999 0.073063999 0.10396
0.12958001 0.073178001 0.10341
0.12847 0.073425002 0.103
0.15987 0.046202 0.12778001
0.16032 0.047217999 0.12903
0.15987 0.047068998 0.12797999
0.16852 0.085860997 0.096152999
0.16794001 0.085376002 0.096382
0.1683 0.084987 0.096711002
0.19842 0.058865 0.14611
0.19958 0.058803 0.14553
0.12459 0.076142997 0.092027001
0.12548999 0.074823 0.091737002
0.12513 0.075792998 0.091512002
0.11539 0.073682003 0.089982003
0.11606 0.073605001 0.090856001
0.11614 0.074700996 0.090845004
0.12628999 0.072724998 0.10361
0.12525 0.072780997 0.10371
0.12662999 0.072529003 0.10499
0.16113999 0.044651002 0.13102999
0.16187 0.044775002 0.13197
0.17441 0.088246003 0.10937
0.17399 0.087577 0.10942
0.17354999 0.087412998 0.10986
0.15019999 0.00016143 0.13402
0.14956 -0.00079765002 0.13311
0.15049 -0.0010417 0.13405
0.17686 0.013948 0.13954
0.11818 0.078993998 0.086427003
0.11874 0.079443999 0.087665997
0.11905 0.079733998 0.086369999
0.14997 0.047798 0.12481
0.15118 0.047958001 0.12575001
0.15047 0.048372 0.12582999
0.18693 0.028801 0.14230999
0.16401 0.068880998 0.093415
0.16401 0.070178002 0.094632
0.16396999 0.070001997 0.093207002
0.19224 0.022085 0.14036
0.16787 0.051498 0.1425
0.16873001 0.050572999 0.14278001
0.16917001 0.051509999 0.1434
0.14223 0.058897998 0.12341
0.14150999 0.058568001 0.12305
0.16846 0.0016658 0.14
0.16823 0.00025320001 0.13977
0.16925 0.00023527 0.13942
0.11315 0.058890998 0.084340997
0.17619 0.029317001 0.10347
0.17504001 0.029358 0.10443
0.17490999 0.029778 0.10424
0.13428 -0.050365999 0.11846
0.13463999 -0.049396999 0.11913
0.13522001 -0.050016999 0.11864
0.18672 0.0035073 0.14218
0.1865 0.0034332001 0.14106999
0.17933001 0.041404001 0.14562
0.1797 0.042555001 0.14631
0.17899001 0.042160999 0.14594001
0.18725 0.085950002 0.13482
0.18681 0.086669996 0.13384999
0.18557 0.086217999 0.13409001
0.1163 0.069440998 0.071535997
0.11554 0.069103003 0.072108001
0.11666 0.069633 0.072823003
0.16176 0.067887999 0.10348
0.16252001 0.069061004 0.10301
0.21548 -0.031819999 0.13085
0.21578 -0.032965999 0.13083
0.21662 -0.033080999 0.13031
0.18329 0.090264 0.12487
0.18222 0.089502998 0.12544
0.18358 0.089596003 0.12582999
0.16731 0.0025090999 0.14106999
0.16729 0.0028862001 0.14094
0.16625001 0.0024961 0.14114
0.12174 0.074598998 0.094995998
0.12273 0.074501 0.094736002
0.12239 0.075002 0.094022997
0.15745001 0.010602 0.11753
0.12634 0.068348996 0.11207
0.12747 0.068549998 0.112
0.12728 0.068296 0.11144
0.1517 0.066235997 0.11915
0.15082 0.066344999 0.11959
0.15099999 0.066132002 0.12051
0.13042 0.056147002 0.11379
0.13056 0.056577999 0.11382
0.17648 0.030964 0.14050999
0.17622 0.030293999 0.14043
0.17699 0.030014001 0.14097001
0.16705 0.069858998 0.084666997
0.16729 0.071461 0.083940998
0.16737001 0.069821 0.084105998
0.15692 0.015369 0.13354
0.15711001 0.015907001 0.13232
0.15654001 0.01519 0.13237999
0.13359 -0.051245999 0.12088
0.15436999 0.049732 0.12822001
0.15385 0.049348 0.12752999
0.15440001 0.048696999 0.12689
0.15439001 0.0035985 0.13786
0.15509 0.0028818999 0.13846
0.1552 0.0035893 0.13838001
0.17994 0.085808001 0.095921002
0.18018 0.085418001 0.094626002
0.17941 0.085777998 0.095265999
0.18287 0.079464003 0.14194
0.18382999 0.079262003 0.14286999
0.18659 0.0041703 0.13992999
0.16763 0.070267998 0.1391
0.16834 0.071520001 0.13918
0.16712999 0.071225002 0.13879
0.12323 0.070711002 0.10752
0.12257 0.071167 0.10714
0.12284 0.070060998 0.10791
0.12485 0.053998001 0.10748
0.12423 0.054244 0.10728
0.12378 0.054278001 0.1065
0.1742 0.059776001 0.14782999
0.17546 0.059702002 0.14835
0.17516001 0.06041 0.14820001
0.16062 0.089308999 0.090526998
0.16179 0.089882001 0.089365996
0.16187 0.089312002 0.089933001
0.15629999 0.092918001 0.089166999
0.15798 0.092752002 0.088661999
0.15685 0.091954 0.089390002
0.17374 0.067759 0.1452
0.17477 0.067993 0.14515001
0.1745 0.069022998 0.14511
0.14674 -0.020400001 0.13240001
0.14692 -0.020803001 0.13403
0.14704999 -0.020031 0.1338
0.1918 0.017374 0.13935
0.19293 0.017603001 0.1389
0.19156 0.018533001 0.13941
0.16018 -0.017211 0.13696
0.16054 -0.016953001 0.13642
0.18826 0.036862999 0.14315
0.1884 0.036118001 0.1433
0.18073 0.037907001 0.14223
0.18170001 0.037966002 0.14247
0.18109 0.039046001 0.14272
0.14707001 -0.043811999 0.12685999
0.14734 -0.043529999 0.12784
0.14794999 -0.043503001 0.12664001
0.16215999 0.042722002 0.10437
0.16155 0.042573001 0.10608
0.16155 0.043081999 0.1051
0.18841 0.015136 0.13962001
0.18844 0.016391 0.14019001
0.18731 0.015427 0.13976
0.16062 -0.010927 0.13324
0.11842 0.069959998 0.096207
0.11783 0.069952004 0.095319003
0.11961 0.071328998 0.097103
0.11897 0.070211001 0.096988998
0.11976 0.071611002 0.098185003
0.16746999 0.078409001 0.094723001
0.16778 0.078583002 0.095613003
0.16813999 0.079359002 0.095684998
0.11509 0.065600999 0.092740998
0.11449 0.065495998 0.092243001
0.15198 -0.040957998 0.12766001
0.15183 -0.042211998 0.12735
0.1507 -0.042405002 0.12775999
0.18178 0.071115002 0.14629
0.18089999 0.071231999 0.14579999
0.18194 0.070441 0.14602
0.15832999 0.066661999 0.12958001
0.15764 0.066978998 0.12851
0.15798999 0.065676004 0.12831999
0.20347001 -0.036614999 0.11817
0.20279001 -0.036465 0.1186
0.20396 -0.036442999 0.11737
0.1582 0.0044133998 0.13982999
0.15886 0.0036464001 0.13981999
0.15887 0.0048743002 0.13979
0.18381999 0.024256 0.14232001
0.18339001 0.025583999 0.14253999
0.18292999 0.025113 0.14235
0.14882 0.065949 0.12017
0.14972 0.066073999 0.1197
0.14927 0.066188 0.11952
0.16248 0.04617 0.13292
0.16242 0.04648 0.13361
0.16226 0.047219999 0.13319001
0.14335001 0.04823 0.11809
0.14478 0.048083998 0.11892
0.18644001 0.042675 0.14593001
0.18550999 0.042300999 0.14634
0.18584999 0.042084999 0.14531
0.18151 0.084211998 0.13559
0.18248001 0.085134 0.13535
0.16543999 0.073762 0.091560997
0.1653 0.074336 0.092175998
0.16576 0.073631003 0.09042
0.17557999 0.032611001 0.14041001
0.17441 0.032448001 0.13937999
0.1751 0.032117002 0.13974001
0.20437001 -0.029410999 0.12944999
0.20364 -0.030562 0.12882
0.20418 -0.0307 0.12939
0.17236 0.057916 0.14693999
0.17371 0.057551999 0.14703999
0.17361 0.058750998 0.14714
0.12417 0.070295997 0.10788
0.12513 0.070394002 0.10783
0.12472 0.070648998 0.10702
0.14936 -0.037537001 0.13545001
0.14966001 -0.038717002 0.1355
0.17 0.062086001 0.14531
0.17 0.061113998 0.14565
0.14013 0.050009999 0.11877
0.13973001 0.050280001 0.11914
0.21101999 -0.031707 0.1323
0.21175 -0.032272998 0.13233
0.20566 -0.013459 0.12216
0.20475 -0.013503 0.12161
0.16005 0.059898 0.13624001
0.1601 0.058708001 0.13492
0.1603 0.058871999 0.13646001
0.14489999 -0.019204 0.12342
0.14495 -0.020547999 0.1238
0.14454 -0.019316001 0.12424
0.17106 0.074505001 0.14007001
0.18985 0.081196003 0.14083
0.18898 0.080484003 0.14188001
0.19025999 0.080472 0.14158
0.17399 0.077137001 0.13959999
0.17355999 0.078368999 0.13871001
0.17264999 0.077113003 0.13891
0.14392 -0.045545001 0.12384
0.1452 -0.044527002 0.12473
0.14472 -0.045704 0.12382
0.12217 0.082906 0.079902999
0.12169 0.082964003 0.080242001
0.1225 0.083471 0.080009997
0.20127 -0.020527 0.11575
0.11801 0.066546001 0.10736
0.11756 0.065899998 0.10601
0.21241 -0.030750999 0.13174
0.21249001 -0.02933 0.13172001
0.21118 -0.030827001 0.13213
0.15686999 0.061317001 0.12907
0.15617 0.062206 0.12784
0.15557 0.062054001 0.12785
0.18195 0.028905001 0.1426
0.18189 0.029962 0.14267001
0.19289 -0.0042837001 0.16443001
0.19221 -0.0043016998 0.16345
0.20656 -0.036433 0.13248
0.20557 -0.036582001 0.13191
0.20534 -0.03737 0.13185
0.20897999 -0.0089841997 0.12444
0.2079 -0.0082373004 0.1244
0.20818 -0.0087965997 0.12437
0.19547001 -0.0079893004 0.16572
0.1955 -0.0067316 0.16572
0.1944 -0.0079678996 0.16639
0.15719 0.051798001 0.1295
0.15872 0.050512001 0.1296
0.15810999 0.051729001 0.12967999
0.19656 -0.0023459999 0.14675
0.19626001 -0.0029602 0.14689
0.19629 -0.0019677 0.14565
0.19066 0.083416998 0.13847999
0.19053 0.083103999 0.13886
0.19596 0.031160001 0.14101
0.19495 0.030975999 0.14082
0.19468001 0.030134 0.14117
0.18888 0.074272998 0.14569999
0.18763 0.07378 0.14585
0.18885 0.073279999 0.14613999
0.16593 0.078257002 0.11451
0.16507 0.078236997 0.11349
0.16539 0.0779 0.11427
0.15772 -0.01462 0.1357
0.20118999 -0.027347 0.11383
0.20137 -0.028586 0.11375
0.16256 -0.0066745998 0.13635001
0.16373999 -0.0073944 0.13597
0.164 -0.0065779998 0.13638
0.16244 0.073739998 0.12466
0.16193999 0.073380999 0.12497
0.1628 0.073977999 0.12546
0.15098999 0.053167 0.12919
0.1507 0.052722 0.1284
0.15133999 0.051888 0.12867001
0.14346001 0.057983 0.12436
0.14279 0.056293 0.12411
0.16393 0.071507998 0.10651
0.16304 0.071492001 0.10709
0.16305999 0.071555004 0.10804
0.17900001 0.074561 0.14399
0.17768 0.074597001 0.14320999
0.17802 0.073379003 0.14464
0.14194 0.048664 0.11709
0.14093 0.048969999 0.11683
0.14181 0.048524 0.11621
0.15275 -0.014453 0.13606
0.15446 -0.014697 0.13677999
0.16569 0.076820001 0.13001999
0.16642 0.077520996 0.12932999
0.16535001 0.076857001 0.12863
0.21562 -0.01919 0.12669
0.21662 -0.019129001 0.12579
0.21544001 -0.018890999 0.12640999
0.17201 0.083944999 0.12808
0.15013 -0.0352 0.13793001
0.14989001 -0.033992 0.13801999
0.14584 -0.045731999 0.13519999
0.14487 -0.047122002 0.13548
0.14566 -0.046677999 0.13552999
0.12218 0.053872 0.10111
0.12239 0.053337999 0.099905998
0.12276 0.053679001 0.10099
0.14263999 0.066113003 0.11603
0.14397 0.065779999 0.11656
0.14394 0.065964997 0.11581
0.19840001 0.024600999 0.13835999
0.19762 0.024463 0.13873
0.19889 0.024067 0.13815001
0.152 0.005721 0.11827
0.15246999 0.0054780999 0.11735
0.15169001 0.0049649002 0.1179
0.12372 0.074786998 0.093800001
0.12355 0.074414998 0.094324
0.12381 0.073949002 0.094663002
0.12022 0.080317996 0.086053997
0.12011 0.081382997 0.084954999
0.1199 0.080966003 0.085074998
0.1851 0.057348002 0.14949
0.18404999 0.057211999 0.14948
0.18521 0.056295998 0.14963
0.16204 0.067930996 0.1358
0.16181 0.066431001 0.13575
0.162 0.066812001 0.13613001
0.13513 0.062162999 0.11597
0.13708 0.063461997 0.11626
0.13615 0.062804997 0.11598
0.19052 0.085282996 0.13524
0.1917 0.086144 0.13365
0.19043 0.086162999 0.13399
0.16430999 -0.0046545998 0.13771001
0.16272999 -0.0044773999 0.13778
0.16312 -0.0053007002 0.13728
0.18882 0.0070910002 0.14274999
0.18945 0.0079715997 0.14247
0.18849 0.0069354 0.14255001
0.1157 0.058998 0.088517003
0.11557 0.059555002 0.089945003
0.11502 0.059248999 0.088864997
0.20399 -0.037319001 0.11814
0.18515 0.089111999 0.12682
0.18441001 0.089298002 0.12582999
0.16477001 0.071713999 0.13618
0.16542999 0.071271002 0.1372
0.16518 0.072417997 0.13598999
0.15507001 -0.017065 0.13879
0.15369999 -0.016423 0.13858999
0.15418001 -0.017200001 0.13891999
0.14573 0.053056002 0.12597001
0.14599 0.054028999 0.12669
0.14528 0.053791001 0.12604
0.18289 0.090556003 0.11927
0.18494999 0.089611001 0.10462
0.18550999 0.089250997 0.1053
0.18562999 0.089249998 0.10408
0.23033001 0.084871002 0.066716
0.22927 0.085345998 0.068003997
0.23040999 0.084857002 0.067915
0.15795 0.069294997 0.11193
0.15952 0.069774002 0.11158
0.15899999 0.069297999 0.11113
0.16063 0.091735996 0.085809
0.16083001 0.091100998 0.08467
0.16105001 0.091038004 0.085552
0.16686 0.076471001 0.10321
0.16722 0.076633997 0.10447
0.13185 0.059815001 0.11467
0.13212 0.060972001 0.11506
0.14918 0.0053885998 0.12228
0.14894 0.0049327998 0.12124
0.14753 -0.016705001 0.12019
0.15713 0.090805002 0.090627998
0.15755001 0.089736998 0.090870999
0.1574 0.090631001 0.091011003
0.20161 -0.035955999 0.12053
0.16812 0.032063 0.11454
0.16809 0.032444999 0.11532
0.16759001 0.033558 0.1151
0.18821 0.086239003 0.13467
0.16667999 0.032499999 0.12261
0.16695 0.032924 0.12387
0.16721 0.033450998 0.12349
0.20114 -0.0070104999 0.12265
0.18672 0.087157004 0.088266999
0.18661 0.088696003 0.087214001
0.17501999 0.046355002 0.14614999
0.17569 0.046080999 0.1464
0.17553 0.047118001 0.14668
0.17263 0.031026 0.13744999
0.17353 0.029887 0.13839
0.17364 0.030851999 0.13849001
0.15377 0.058685999 0.12928
0.15474001 0.058892 0.12936001
0.15493 0.059315 0.12891001
0.17913 0.062114 0.14887001
0.17808001 0.061836001 0.14877
0.19682001 0.082796 0.13559
0.19726001 0.081859 0.13706
0.19753 0.082382999 0.13546
0.12649 0.051653001 0.10357
0.12706 0.051143002 0.10373
0.168 0.031052001 0.11744
0.16759001 0.032311998 0.1171
0.16801 0.032161999 0.11629
0.19713999 0.076872997 0.14131001
0.19652 0.076194003 0.14207
0.19723 0.075981997 0.14188001
0.17057 0.016373999 0.13917001
0.17008001 0.017705999 0.13855
0.16924 0.016305 0.13911
0.18957999 0.0024212 0.14849
0.18999 0.0019493001 0.14921001
0.19103999 0.0023975 0.14940999
0.16192999 0.017623 0.13474
0.16249999 0.017058 0.13533001
0.16357 0.017614 0.13541
0.15910999 0.073515996 0.11508
0.15990999 0.073794998 0.11473
0.16039 0.074291997 0.11477
0.15711001 -0.015954001 0.13732
0.15577 -0.015253 0.1374
0.16654 0.078936003 0.12358
0.1661 0.078181997 0.12254
0.16627 0.078342997 0.12376
0.18875 -0.0033034999 0.14991
0.18813001 -0.0021985001 0.14905
0.18874 -0.0030441999 0.14883
0.17075001 0.034581002 0.13439
0.16988 0.035558999 0.13347
0.17015 0.034676999 0.1337
0.14127 -0.046613999 0.12347
0.14060999 -0.046918001 0.12245
0.14021 -0.046526998 0.12268
0.20363 -0.044521 0.12453
0.20370001 -0.044686999 0.12378
0.20327 -0.045758002 0.12359
0.16177 0.089676999 0.084298998
0.16238999 0.089667 0.084036
0.16266 0.088577002 0.084132001
0.19627 0.066518001 0.14644
0.19487 0.067965999 0.14593001
0.19526 0.066473 0.14681999
0.17174 0.016184 0.13936
0.17279001 0.015631 0.13939001
0.17263 0.016201001 0.1393
0.16185001 -0.048110001 0.14202
0.16294999 -0.047853999 0.14172
0.20629001 -0.052937999 0.12259
0.20457999 -0.053289 0.1217
0.20555 -0.053249002 0.12127
0.18226001 0.088232003 0.12938
0.18206 0.088109002 0.1303
0.13651 -0.051284999 0.13181999
0.13752 -0.052785002 0.13135
0.13732 -0.051658999 0.13218001
0.19144 0.0091672996 0.14166
0.19152001 0.0086933002 0.14229
0.19284999 0.0084156999 0.14196
0.18743999 0.0094782999 0.14087
0.18668 0.0089841001 0.14026
0.16128001 0.058297001 0.13790999
0.11785 0.067915998 0.095504001
0.16557001 0.0069809002 0.14148
0.16624001 0.0059775999 0.14137
0.16649 0.0070394999 0.14119001
0.15586001 0.013774 0.12464
0.15586001 0.013971 0.12526999
0.15643001 0.014904 0.12523
0.17274 0.061090998 0.14676
0.17271 0.061974 0.14683001
0.15813001 0.014592 0.12195
0.15863 0.014931 0.12206
0.15254 -0.0099799996 0.11733
0.17167 0.048220001 0.14417
0.17137 0.049353 0.14437
0.13519999 -0.050512001 0.11817
0.15564001 0.0048336 0.13895001
0.15672 0.0036966 0.13908
0.1564 0.0050174999 0.13902999
0.19273999 0.07903 0.14268
0.19273999 0.078303002 0.14283
0.19403 0.078155003 0.14247
0.11226 0.059767999 0.078633003
0.11189 0.0612 0.078636996
0.11209 0.059769001 0.077600002
0.19311 -0.0065743998 0.16577999
0.15202001 -0.053265002 0.13756
0.19077 0.057238001 0.14903
0.19222 0.056536 0.14856
0.19224 0.057293002 0.14869
0.15124001 0.057592001 0.12887999
0.15246999 0.057560001 0.12926
0.1515 0.058571 0.12872
0.14342 -0.051242001 0.13643999
0.14353999 -0.050080001 0.13631
0.17036 0.040637001 0.13841
0.17087001 0.039958999 0.13826001
0.17177001 0.040252998 0.13905001
0.20288999 -0.038201999 0.12065
0.20328 -0.038823999 0.12069
0.11875 0.079318002 0.085450001
0.163 0.01881 0.12085
0.16418 0.019633001 0.11956
0.16395 0.018724 0.11927
0.20127 -0.022848999 0.1225
0.20168 -0.023556 0.12384
0.17121001 0.078194 0.13674
0.17003 0.076879002 0.13711999
0.17064001 0.077375002 0.13733
0.18618999 0.085238002 0.13525
0.18630999 0.085782997 0.13494
0.18455 0.085386001 0.13485999
0.19217999 0.088500999 0.088627003
0.19317999 0.087316997 0.088386998
0.19335 0.088382997 0.088389002
0.15877999 0.072039001 0.11757
0.15776999 0.071290001 0.11885
0.12403 0.052765999 0.099581003
0.1249 0.052317999 0.099877
0.12421 0.052854002 0.10048
0.11502 0.071819998 0.089328997
0.1153 0.072397999 0.089961
0.11498 0.072525002 0.089054003
0.15479 -0.00070113002 0.13737001
0.15429001 -0.0011509 0.13709
0.16756 0.0050725001 0.14111
0.16737001 0.0060096001 0.14108001
0.17014 0.053045001 0.14399999
0.1707 0.054267999 0.14521
0.17020001 0.053672999 0.1445
0.1629 0.064551003 0.13899
0.16246 0.064526998 0.13805
0.16267 0.063969001 0.13902999
0.17212 0.063336 0.14634
0.17332999 0.064563997 0.14602999
0.17236 0.064593002 0.14597
0.20773 -0.051357999 0.13624001
0.20683999 -0.050875999 0.1363
0.20626999 -0.051313002 0.13614
0.14037 0.050816 0.1198
0.13826001 0.065756001 0.11216
0.13862 0.065598004 0.11334
0.13961001 0.065696999 0.11307
0.15338001 0.0028241 0.13696
0.15350001 0.0012206 0.13694
0.14911 -0.023831001 0.13823999
0.14911 -0.022797 0.13785
0.15726 0.066724002 0.11787
0.15635 0.06611 0.11799
0.15672 0.066297002 0.11941
0.19670001 0.035935 0.13984001
0.19809 0.035921 0.14013
0.19767 0.035969999 0.13955
0.12482 0.074382998 0.098288
0.12541001 0.074193999 0.099292003
0.1259 0.074066997 0.098020002
0.15477 0.047315001 0.12471
0.15344 0.046819001 0.12384
0.15440001 0.046934001 0.12363
0.17561001 0.01888 0.13975
0.17412999 0.019784 0.13944
0.17395 0.018556001 0.13957
0.17241 0.082548 0.13267
0.17206 0.082007997 0.1329
0.17288999 0.082497999 0.13333
0.14885999 -0.033231001 0.12711
0.14841001 -0.032001998 0.12729
0.14689 -0.013645 0.13034999
0.14760999 -0.012419 0.1304
0.1468 -0.012485 0.12978999
0.16260999 0.083117001 0.092936002
0.16191 0.083893001 0.093487002
0.16159999 0.084233999 0.093047
0.20088001 0.068892002 0.14263
0.20118 0.07006 0.14255001
0.17811 0.079230003 0.14071999
0.17939 0.080188997 0.14045
0.17775001 0.079833001 0.13962001
0.11596 0.066441 0.093640998
0.11602 0.065484002 0.094227001
0.11666 0.066731997 0.094562002
0.16501001 0.073500998 0.093151003
0.16542 0.074807003 0.092881002
0.19863001 0.042929001 0.14203
0.19983999 0.04352 0.14262
0.16304 0.075770997 0.11617
0.16359 0.076350003 0.11479
0.19084001 0.054997001 0.14879
0.19081999 0.054092001 0.14849
0.14534999 -0.053415 0.13434
0.14571001 -0.053396001 0.13513
0.14431 -0.053578001 0.13489
0.20705999 -0.011753 0.1231
0.20689 -0.012258 0.12304
0.20778 -0.011197 0.12318
0.14966001 -0.043001 0.12795
0.14957 -0.042428002 0.12842
0.14884999 -0.038718 0.12988999
0.14961 -0.039878 0.12984
0.14929999 -0.039797999 0.13094001
0.1402 0.048071001 0.11077
0.14035 0.048237 0.11179
0.13933 0.048445001 0.11195
0.21461 -0.035069998 0.13228001
0.21378 -0.034104001 0.13288
0.21397001 -0.035241999 0.13286
0.20283 -0.0078554004 0.12331
0.13703001 0.057447001 0.12144
0.13759001 0.058387998 0.12162
0.17151999 0.085065 0.1212
0.17126 0.083807997 0.12006
0.1706 0.083688997 0.12133
0.1881 -0.0021668 0.1468
0.18795 -0.0018274999 0.14771999
0.18764 -0.0010264 0.14685
0.14352 0.050629999 0.12267
0.14251 0.051791999 0.12281
0.14225 0.050898001 0.12172
0.20186999 -0.021567 0.12252
0.15968999 0.017301001 0.1305
0.15965 0.017154999 0.12919
0.14846 -0.006602 0.12997
0.14789 -0.0076855002 0.13018
0.14892 -0.0068016001 0.13101
0.20874 -0.053001001 0.11403
0.20889001 -0.053162999 0.11468
0.20849 -0.053040002 0.11358
0.15966 0.065370999 0.13203999
0.15988 0.065711997 0.13151
0.15894 0.064469002 0.13162
0.17673001 0.088384002 0.11872
0.17789 0.08935 0.11859
0.17756 0.089015 0.11815
0.15177999 -0.011615 0.11784
0.15033001 -0.012357 0.11778
0.15008999 -0.011234 0.11743
0.18994001 0.022108 0.14114
0.20427001 -0.037443001 0.13009
0.20427001 -0.038486 0.12980001
0.20434 -0.037494998 0.13048001
0.18430001 0.090548001 0.12004
0.18447 0.090443 0.12109
0.18571 0.090461001 0.12108
0.17065001 0.058626 0.14605001
0.19013999 0.023052 0.14124
0.18901999 0.024312999 0.14151999
0.18866999 0.023269 0.14133
0.11507 0.074464001 0.081479996
0.11473 0.074722998 0.082543999
0.11527 0.074863002 0.081412002
0.18672 0.069049001 0.14697
0.14668 -0.022855001 0.13135
0.14714999 -0.022696 0.13248
0.14667 -0.0219 0.13225
0.19662 -0.0068100998 0.16384999
0.19627 -0.0065048998 0.16481
0.19637001 -0.0076345 0.16477001
0.1233 0.073650002 0.096079998
0.12285 0.073881999 0.095170997
0.12197 0.073466003 0.096134998
0.14735 -0.0092201 0.12899999
0.17287 0.056387 0.14686
0.17363 0.056511 0.14698
0.14516 0.051539 0.1248
0.14388999 0.051793002 0.12405
0.14470001 0.051677 0.12444
0.19498 0.041473001 0.14246
0.18882 0.028803 0.14205
0.18899 0.027767001 0.1416
0.18933 0.029069001 0.14251
0.17794999 0.071629003 0.14485
0.17925 0.072282001 0.14512999
0.17794999 0.072624996 0.14451
0.16385999 -0.041019 0.13766
0.16351999 -0.041832 0.13824999
0.16418999 -0.042229 0.13742
0.14411999 -0.0063536 0.12145
0.14448 -0.0058478001 0.12146
0.14408 -0.0067290999 0.12017
0.18108 0.011132 0.13932
0.12932 0.051828999 0.11002
0.12807 0.052083001 0.10902
0.12864999 0.051350001 0.10871
0.11375 0.065569997 0.078938998
0.1137 0.064377002 0.079242997
0.11313 0.065779999 0.079662003
0.20203 -0.020331001 0.11357
0.11296 0.067355998 0.082174003
0.13337 0.054106001 0.11476
0.13394 0.053800002 0.1153
0.13432001 0.054154001 0.11565
0.1681 0.030842001 0.11865
0.16759001 0.031183001 0.11873
0.11411 0.067938 0.090157002
0.11392 0.066790998 0.090236001
0.1145 0.067861997 0.091089003
0.14572001 0.051915001 0.12532
0.14658999 0.051718999 0.12568
0.14663 -0.019394999 0.12158
0.14752001 -0.020463999 0.12127
0.14674 -0.020491 0.12186
0.13608 0.050627001 0.11643
0.13654 0.049826 0.11756
0.13606 0.050554 0.11757
0.11417 0.072333999 0.084348001
0.11434 0.072497003 0.083269
0.1143 0.071402997 0.083492003
0.14681999 0.001436 0.1218
0.14707001 0.00040346 0.12088
0.14673001 0.00011511 0.12192
0.11611 0.059275001 0.089636996
0.11574 0.059617002 0.090783
0.14944001 -0.036354002 0.13552
0.16707 0.087266997 0.095757999
0.16664 0.087439999 0.095501997
0.16271 0.072466999 0.11042
0.17315 0.086048998 0.11846
0.17312001 0.086130001 0.11735
0.17247 0.085662 0.11793
0.16368 0.089662001 0.083893999
0.16493 0.089718997 0.083814003
0.16493 0.088405997 0.083700001
0.16925 0.063801996 0.093648002
0.16933 0.063288003 0.093975998
0.16125 -0.028504999 0.13988
0.15981001 -0.028632 0.14040001
0.16109 -0.029684 0.13966
0.16846 0.080192 0.11828
0.16828001 0.080619998 0.11959
0.16886 0.081312001 0.11972
0.17962 0.046112001 0.14753
0.17878 0.047065999 0.14760999
0.17868 0.046402998 0.14762001
0.18728 0.088505 0.088281997
0.18844 0.089690998 0.087982997
0.18735 0.089426003 0.086856999
0.16218001 0.019695001 0.12515999
0.16209 0.018999999 0.12362
0.15888999 -0.030505 0.14071
0.21371 -0.035781998 0.13304
0.14223 -0.045924999 0.13389
0.14057 -0.045986999 0.13323
0.14067 -0.047157001 0.13393
0.20927 -0.023775 0.12972
0.2106 -0.023646001 0.12971
0.20962 -0.022965999 0.12942
0.15961 0.014078 0.13778999
0.14719 -0.0022942 0.11995
0.14691 -0.0032384 0.12017
0.1691 0.081620999 0.12082
0.16869999 0.080733001 0.1205
0.14714999 0.066174999 0.11466
0.14792 0.066559002 0.11466
0.1485 0.066132002 0.1142
0.12328 0.076629996 0.091233999
0.12204 0.076324001 0.09217
0.12358 0.076664001 0.091813996
0.20317 -0.011444 0.12072
0.20384 -0.011039 0.12207
0.20239 -0.011174 0.12087
0.15082 -0.015056 0.13584
0.14432999 -0.047752 0.13569
0.14337 -0.047460001 0.13518
0.14334001 -0.048223 0.13533001
0.11332 0.058947999 0.080991998
0.11429 0.058908001 0.080484003
0.11455 0.058502 0.081886999
0.16458 0.022961 0.12574001
0.16561 0.023446999 0.12650999
0.16512001 0.023383999 0.12512
0.19079 0.090438999 0.077970996
0.19050001 0.089584999 0.078093998
0.18951 0.089226998 0.078330003
0.15982001 0.065674998 0.13090999
0.15911999 0.065608002 0.13082001
0.16032 0.066664003 0.1337
0.16077 0.065646999 0.13516
0.16125999 0.066816002 0.13485
0.16169 0.090473004 0.085501999
0.13982999 0.059096001 0.1218
0.14001 0.057622001 0.12235
0.19135 0.086497001 0.1328
0.1911 0.087057002 0.13225
0.13371 0.050457001 0.10881
0.13242 0.050113 0.10772
0.13338 0.049950998 0.10775
0.19137999 0.025552001 0.14071999
0.17264 0.086221002 0.095890999
0.17427 0.085685 0.096507996
0.17381001 0.085864 0.095095001
0.19904999 0.028759001 0.13885
0.20012 0.029012 0.13828
0.19875 0.030071 0.13868999
0.15702 -0.053162001 0.14115
0.15828 -0.053282 0.14135
0.16885 0.076714002 0.084918
0.16892999 0.078086004 0.085899003
0.17022 0.078244999 0.085690998
0.16475999 0.075746 0.13124
0.16463999 0.075739004 0.13017
0.16408999 0.074839003 0.13041
0.11256 0.060857002 0.074323997
0.11257 0.061101001 0.074814998
0.11296 0.061670002 0.075094998
0.16167 0.015277 0.13703001
0.16049001 0.014984 0.13729
0.16186 0.014665 0.13781001
0.17613 0.048193 0.14727999
0.17534 0.048572 0.14708
0.17505001 0.048165001 0.14659999
0.13681 0.049547002 0.11488
0.13663 0.049476001 0.11599
0.13652 0.050554998 0.1151
0.17016 0.033488002 0.13471
0.16965 0.032570001 0.13443001
0.17020001 0.032171 0.13451999
0.16887 0.043715 0.14031
0.20453 -0.017029 0.10854
0.20383 -0.017077999 0.10983
0.20412 -0.016720001 0.10868
0.16121 0.069127999 0.10579
0.1128 0.064469002 0.081332996
0.1184 0.068893999 0.10106
0.11849 0.068158001 0.10192
0.11889 0.068899997 0.10175
0.12171 0.054048002 0.099201001
0.12123 0.054761998 0.098810002
0.12093 0.054742001 0.097836003
0.20261 -0.01356 0.11876
0.20248 -0.012322 0.11873
0.20238 -0.013639 0.11743
0.14964999 0.064704999 0.12376
0.15082 0.064906001 0.12354
0.15009999 0.065003999 0.12326
0.18185 0.02341 0.14203
0.18085 0.024223 0.14207999
0.18080001 0.023124 0.14193
0.1805 0.089510001 0.11486
0.18144 0.089560002 0.11369
0.18036 0.089438997 0.11417
0.20358001 -0.045720998 0.12183
0.20401999 -0.044277001 0.12316
0.20400999 -0.044826999 0.12198
0.15979999 0.071912996 0.12333
0.16051 0.072226003 0.12298
0.16012 0.072164997 0.12182
0.17343 0.040476002 0.14092
0.17366999 0.040525999 0.14215
0.17207 0.040787 0.14115
0.17162 0.0071804998 0.13975
0.17068 0.0083849998 0.14029001
0.17073999 0.0072766002 0.14023
0.15897 0.071277 0.11468
0.15807 0.072253004 0.11532
0.15883 0.072408997 0.11453
0.16289 0.074901998 0.12818
0.16414 0.075791001 0.12925
0.16402 0.076006003 0.12786999
0.18143 0.089612 0.10899
0.18227001 0.089639999 0.10888
0.21201 -0.043193001 0.13217001
0.21138 -0.043405998 0.13279
0.21166 -0.044408001 0.13239001
0.1864 0.088912003 0.1284
0.18505999 0.088964 0.12842
0.11554 0.059145998 0.077684999
0.11463 0.058584001 0.078041002
0.11513 0.059126999 0.077012002
0.16682 0.080234997 0.10788
0.16624001 0.080216996 0.10988
0.16673 0.080994003 0.10957
0.11937 0.064413004 0.10907
0.1192 0.065499999 0.10849
0.11839 0.065458 0.10798
0.17746 0.022191999 0.14025
0.17827 0.021962 0.14049999
0.19115999 0.075070001 0.14503001
0.19108 0.075675003 0.14448
0.16909 0.073707998 0.13864
0.16821 0.073289998 0.13861001
0.20295 -0.037475001 0.12795
0.20331 -0.036610998 0.12904
0.20305 -0.036398999 0.12811001
0.12126 0.057507999 0.1108
0.1215 0.056554001 0.11072
0.12195 0.057804 0.11153
0.16805001 0.076679997 0.085634999
0.16729 0.075846002 0.085920997
0.16787 0.077196002 0.086116999
0.14561 -0.023832999 0.12938
0.14559001 -0.022828 0.12927
0.14490999 -0.022676 0.12835
0.1691 0.029829999 0.11701
0.16889 0.030091999 0.11605
0.16952001 0.029096 0.1171
0.16992 0.027418001 0.11551
0.16960999 0.027752999 0.11724
0.16965 0.028228 0.11662
0.14956 -0.022441 0.13846
0.17269 0.041049998 0.14224
0.16393 0.071909003 0.13429999
0.16452 0.072674997 0.13505
0.16405 0.072549 0.13398001
0.18672 0.044723 0.14717001
0.18557 0.043772999 0.14713
0.1865 0.043759 0.14695001
0.16601001 0.024347 0.1261
0.16627 0.025545999 0.12626
0.16594 0.024106 0.12526999
0.18952 -0.0044316999 0.15098
0.1893 -0.0038395 0.15046
0.15444 0.012294 0.12313
0.15425 0.011541 0.12237
0.15325999 0.01144 0.12376
0.16526 0.076885998 0.12194
0.16553999 0.077085003 0.12016
0.16538 0.075953998 0.1204
0.18783 -0.0012048 0.14534999
0.18843 -0.00098043005 0.14416
0.18821999 -0.0017515999 0.14464
0.1679 0.082661003 0.086024001
0.16677 0.082762003 0.085404001
0.18375 0.067996003 0.14758
0.18489 0.066601001 0.14864001
0.18491 0.067976996 0.14806999
0.12159 0.055574 0.094466999
0.16156 0.040481001 0.1204
0.16249999 0.039577998 0.12118
0.16169 0.040135 0.12134
0.17901 0.048154 0.14796001
0.19654 -0.0014802 0.15376
0.19705001 -0.0020287 0.15479
0.19677 -0.0019954999 0.15351
0.16089 -0.020494999 0.1384
0.16159999 -0.020467 0.138
0.14113 0.066606 0.11409
0.14244001 0.066377997 0.11467
0.14210001 0.066468999 0.11351
0.20097999 -0.025017001 0.12403
0.20136 -0.025296001 0.12472
0.12933999 0.071905002 0.10655
0.1284 0.071723998 0.10576
0.12846 0.071456 0.10669
0.16355 0.044663001 0.13416
0.16293 0.045919999 0.13445
0.13977 0.048703 0.10982
0.14065 0.048806001 0.10858
0.14089 0.048282001 0.10901
0.11455 0.071124002 0.088785
