# .PCD v0.7 - Point Cloud Data file format
VERSION 0.7
FIELDS x y z
SIZE 4 4 4
TYPE F F F
COUNT 1 1 1
WIDTH 1505
HEIGHT 1
VIEWPOINT 0 0 0 1 0 0 0
POINTS 1505
DATA ascii
0.084770001 0.084444001 0.048076998
0.088225998 0.036398001 0.046477001
0.088338003 0.037459999 0.044923998
0.088532001 0.037404999 0.043986998
0.071777999 0.058499001 0.048911002
0.071843997 0.059215002 0.049649
0.15482 0.035388999 0.0090846997
0.14616001 0.060353 0.015528
0.14599 0.06024 0.013146
0.14487 0.060587998 0.014023
0.13350999 0.064929001 -0.021306001
0.1339 0.063767001 -0.020470999
0.10032 0.033677999 0.052813001
0.10243 0.035206001 0.054535002
0.13333 0.10592 -0.022833001
0.10646 0.074897997 0.045589
0.10747 0.076132998 0.046452999
0.10737 0.076523997 0.044941001
0.099607997 0.037629999 -0.0067701
0.099675998 0.039264001 -0.0058133998
0.065264001 0.050804 0.039675001
0.065217003 0.050158001 0.040123001
0.064614996 0.050133999 0.039967
0.10805 0.087769002 0.022685001
0.13485999 0.05528 -0.0087206997
0.13246 0.055351 -0.0088112
0.13302 0.055358998 -0.010097
0.13861001 0.063703999 0.00068588002
0.1374 0.063311003 -0.0022237999
0.068212003 0.064273 0.053732
0.10139 0.088795997 0.032834001
0.13818 0.063551001 0.0018104
0.13812 0.063771002 0.0020492999
0.079343997 0.04823 0.074383996
0.078013003 0.049208999 0.073922999
0.10082 0.041064002 -0.011218
0.097728997 0.078298002 0.049336001
0.11586 0.080092996 0.032372002
0.11634 0.08044 0.031239999
0.040741 0.037037 0.040004
0.11566 0.11421 -0.035776999
0.16302 0.041859001 -0.014287
0.16231 0.041326001 -0.015164
0.16244 0.040954001 -0.013653
0.11268 0.081183001 0.016878
0.13279 0.11402 -0.028247001
0.13237999 0.11232 -0.027425
0.11009 0.11135 -0.01402
0.13174 0.10718 -0.012903
0.13314 0.10821 -0.014034
0.072071999 0.063398004 0.052106999
0.071636997 0.062057 0.051197
0.071672998 0.062918998 0.052288
0.056754999 0.063750997 0.066262998
0.12986 0.063036002 0.020818001
0.089125998 0.081432998 0.049235001
0.11825 0.071539998 0.036214001
0.14715999 0.037882 0.023071
0.14659999 0.038288001 0.021499
0.13806 0.053916998 0.0042062001
0.13741 0.054501001 0.0038703
0.13045999 0.063165002 0.018994
0.13156 0.062839001 0.020796999
0.16721 0.036486998 0.0027977
0.16868 0.035277002 -0.012325
0.16802999 0.034651998 -0.011376
0.050652001 0.075590998 0.075363003
0.049550001 0.074262001 0.073918998
0.070872001 0.036669001 0.080356002
0.13294999 0.072122 -0.00028825001
0.13135999 0.072553001 -0.0015279
0.13788 0.082037002 -0.020300001
0.13945 0.083177 -0.020258
0.12649 0.081257001 -0.00013202
0.1376 0.1027 -0.010112
0.13034 0.097061001 -0.045581002
0.11555 0.065823004 0.039475001
0.11568 0.063239999 0.037980001
0.075892001 0.054076001 0.075430997
0.1209 0.075926997 0.017998001
0.14827 0.039267998 0.019355001
0.074127004 0.085318998 0.045653999
0.10637 0.10973 -0.014269
0.16135 0.041388001 -0.0049624001
0.13659 0.070747003 -0.021365
0.1372 0.071918003 -0.021625999
0.074157998 0.057213001 0.067025997
0.074327998 0.057131998 0.066884004
0.13548 0.066188 0.0076866001
0.13316 0.065849997 0.0077859
0.13421001 0.066183001 0.0090552
0.089596003 0.035186 0.068359002
0.13014001 0.086813003 -0.043497998
0.13045999 0.085882001 -0.043460999
0.13658001 0.086708002 -0.027504999
0.13801 0.087535001 -0.025622001
0.079268999 0.053854998 0.075663
0.078176998 0.053734001 0.076690003
0.13473 0.070560001 -0.020442
0.10196 0.088721 0.034766998
0.10345 0.088161997 0.036263999
0.076722004 0.086615004 0.042913001
0.073781997 0.086639002 0.043722
0.13905001 0.11656 -0.00061925
0.13860001 0.11808 -0.00069868
0.13191 0.10869 -0.017109999
0.13090999 0.10667 -0.016193001
0.13455001 0.10772 -0.017612999
0.12431 0.067192003 0.028975001
0.12344 0.069297001 0.030763
0.13770001 0.10109 -0.014158
0.064327002 0.064144 0.056681
0.063505001 0.065922998 0.057209998
0.1323 0.068834998 0.0064587002
0.037569001 0.042050999 0.037772
0.12496 0.055245001 -0.048680998
0.073149003 0.058575999 0.06865
0.11366 0.063123003 0.039365001
0.11231 0.063780002 0.039712001
0.10567 0.10702 -0.013931
0.1083 0.10754 -0.014835
0.068244003 0.059904002 0.068355002
0.069045998 0.059811998 0.068434998
0.11304 0.11378 -0.034178998
0.077748001 0.047423001 0.078649998
0.076421 0.048129 0.080137998
0.13162 0.11058 -0.059911001
0.1323 0.1103 -0.057836
0.15425 0.049052998 0.017263999
0.15406001 0.049745001 0.015769999
0.12980001 0.067584999 0.012501
0.12951 0.068534002 0.011052
0.14613999 0.055022001 0.0096715996
0.1469 0.056334 0.0095135001
0.1311 0.078795001 -0.048974998
0.13262001 0.078088999 -0.049304999
0.13506 0.11147 -0.055945002
0.13609999 0.11003 -0.057498999
0.13123 0.10795 -0.062974997
0.12981001 0.10936 -0.062558003
0.13605 0.065874003 0.0069880001
0.13594 0.066563003 0.0063486001
0.13665999 0.068687998 -0.0029157
0.14755 0.057806998 0.013812
0.13155 0.092266001 -0.02024
0.16255 0.041205 -0.013124
0.15982001 0.040405001 -0.013064
0.10692 0.11161 -0.015365
0.1068 0.10792 -0.018054999
0.12568 0.089248002 -0.0043827002
0.12706999 0.087370001 -0.0041743
0.13609999 0.080330998 -0.023294
0.13595 0.053415 -0.0024433001
0.16548 0.039866 0.0029887001
0.16688 0.041437 0.002012
0.077630997 0.061423998 0.077959999
0.077425003 0.059787001 0.077147998
0.077143997 0.061154999 0.077892996
0.13617 0.093041003 -0.024611
0.13516 0.092542 -0.026859
0.13519 0.082726002 -0.014762
0.1372 0.065527998 -0.0056761
0.13762 0.066602997 -0.0058181998
0.058536999 0.068402998 0.053495001
0.10921 0.061179001 0.04036
0.11442 0.082236998 0.030332999
0.11434 0.081297003 0.030394999
0.10964 0.083343998 0.035817999
0.10976 0.085101001 0.035496
0.16089 0.036782999 -0.0088726003
0.16003001 0.035691999 -0.0074625998
0.14696001 0.055741001 0.017984999
0.14605001 0.056171998 0.016547
0.043747 0.036129002 0.032737002
0.043187998 0.036913998 0.032262001
0.042704001 0.036837999 0.033248
0.12402 0.072869003 0.0053853001
0.037347 0.040293001 0.042957
0.038215 0.039236002 0.042743001
0.13488001 0.095807001 -0.041386001
0.12812001 0.081427 -0.053861
0.12904 0.080089003 -0.053746998
0.10395 0.11933 -0.0077002002
0.13293999 0.11387 -0.049408998
0.12901001 0.080858998 -0.049986999
0.1217 0.072737999 0.010847
0.10977 0.060329001 0.038486999
0.11082 0.060189001 0.038518999
0.090249002 0.034173001 -0.00031137001
0.089616001 0.033743002 -0.00061569002
0.13397001 0.072428003 -0.042488001
0.061937001 0.046015002 0.050413001
0.060750999 0.046147 0.052368999
0.060777999 0.046250001 0.049144
0.13500001 0.1032 -0.033100002
0.11865 0.073930003 0.011963
0.13668001 0.080380999 -0.027794
0.13635001 0.081436001 -0.026889
0.12617999 0.11004 -0.023770999
0.12352 0.10877 -0.024431
0.15531 0.043581001 0.011708
0.057909999 0.061330002 0.069775
0.058173001 0.061696999 0.066936001
0.048753001 0.066229999 0.059230998
0.050457001 0.065678999 0.057686001
0.16842 0.037328001 -0.0068369
0.16838001 0.036775 -0.0053806002
0.12809999 0.11446 -0.043439001
0.12876999 0.11331 -0.042817
0.076191999 0.094970003 0.039923001
0.077647001 0.092721999 0.038079001
0.076482996 0.094051003 0.039175998
0.057638001 0.063135996 0.074331
0.057959002 0.064347997 0.075153999
0.11308 0.11086 -0.017860999
0.11337 0.11018 -0.01719
0.10037 0.041143999 -0.014921
0.099437997 0.042707998 -0.014559
0.10105 0.041836999 -0.016449001
0.14568 0.060066 0.012928
0.14509 0.061397001 0.013418
0.14372 0.062541999 0.014176
0.067208 0.058644 0.070933998
0.10961 0.076604001 0.043054
0.10907 0.035838999 0.060927998
0.13467 0.063178003 -0.013498
0.10094 0.042498 -0.020439999
0.12621 0.062717997 -0.050106999
0.13616 0.11368 -0.028543999
0.10341 0.064254999 0.042169001
0.10469 0.064018004 0.043343
0.072067998 0.093353003 0.040777002
0.070813 0.094186999 0.039995
0.12088 0.073087998 0.0067798002
0.12941 0.10436 -0.041565999
0.13043 0.1051 -0.042176001
0.077644996 0.050501 0.072035998
0.076513998 0.051095001 0.070799999
0.075777002 0.052492999 0.071428999
0.069989003 0.052457999 0.056451
0.069365002 0.053270999 0.056318
0.069381997 0.053670999 0.055718999
0.1287 0.049706001 0.00044407
0.098973997 0.040525999 0.061675999
0.096954003 0.041650999 0.061452001
0.097813003 0.042773001 0.061949998
0.074019 0.049477998 0.064281002
0.075230002 0.050569002 0.065586001
0.1276 0.072715998 0.0046816999
0.12761 0.072852999 0.0051298998
0.13517 0.090164997 -0.033767998
0.13728 0.090673 -0.032708999
0.13084 0.096454002 -0.055571999
0.099749997 0.036683999 -0.010164
0.10059 0.036970999 -0.0085156998
0.099637002 0.034674998 -0.0085399998
0.077979997 0.070596002 0.049879
0.079003997 0.068985 0.050742
0.078842998 0.070956998 0.050871
0.13524 0.064286999 -0.01754
0.1365 0.066097997 -0.016535001
0.13274001 0.071469001 0.0010139
0.13492 0.092568003 -0.042904001
0.13447 0.092841998 -0.043327
0.13456 0.094678 -0.044580001
0.12733001 0.088405997 -0.0063705998
0.1133 0.1171 -0.031745002
0.13578001 0.068654999 -0.0012466999
0.14531 0.048152 0.012905
0.14415 0.047361001 0.011978
0.15684 0.044461999 0.0042828
0.15764 0.043924998 0.0028404
0.15632001 0.045667998 0.0033833999
0.13125999 0.10621 -0.040899999
0.13158 0.10545 -0.040688001
0.13022999 0.10748 -0.064663
0.13073 0.10651 -0.064469002
0.1426 0.064219996 0.013203
0.14387 0.062500998 0.015145
0.14247 0.063786 0.015444
0.076912999 0.061251 0.046833999
0.076601997 0.060104001 0.046392001
0.049991 0.071667999 0.072065003
0.13462999 0.095232002 -0.046365
0.052974001 0.070263997 0.074460998
0.052676 0.071754999 0.074353002
0.13454001 0.079847999 -0.045387
0.13297001 0.077482998 -0.045805998
0.11924 0.073941 0.014236
0.098111004 0.035578001 0.052910998
0.097273 0.035604 0.051199999
0.098645002 0.035402 0.049272999
0.12835 0.084100001 -0.050992999
0.13000999 0.083862998 -0.050225999
0.12888999 0.082336001 -0.049780998
0.077944003 0.039882001 0.077817
0.10636 0.12274 -0.0096843997
0.13270999 0.1104 -0.057013001
0.13448 0.10937 -0.056442998
0.132 0.10951 -0.058876999
0.12313 0.081487 0.0023012001
0.12279 0.080897003 0.0019304
0.12377 0.079631999 0.0034654001
0.13132 0.11173 -0.058187
0.13343 0.1114 -0.056154002
0.13282999 0.11154 -0.055959001
0.13407999 0.064571001 -0.017655
0.13378 0.063152 -0.019253001
0.13507999 0.064751998 -0.018608
0.055002 0.065684997 0.068048
0.053961001 0.066937 0.067428999
0.13582 0.11149 -0.04831
0.11813 0.11084 -0.040240001
0.11725 0.1119 -0.03844
0.15836 0.038954001 0.0094884997
0.15718 0.039669 0.010216
0.15826 0.041384999 0.012197
0.15589 0.045813002 -0.0057818
0.15444 0.043584999 -0.0055614002
0.10781 0.034263998 -0.026714999
0.10481 0.086167999 0.039237
0.10417 0.086778 0.040973
0.13744 0.081161998 -0.023335001
0.13636 0.066950001 -0.016363
0.13609 0.067249 -0.0010312001
0.063588999 0.046898 0.049224
0.10844 0.10765 -0.012249
0.10848 0.10692 -0.013113
0.10744 0.1079 -0.013312
0.12459 0.072901003 0.027689001
0.11739 0.071071997 0.037953999
0.11734 0.072896004 0.039411999
0.13768999 0.059261002 -0.0018288
0.14729001 0.056963999 0.015373
0.14686 0.057780001 0.015930999
0.13033 0.10323 -0.050338
0.13518 0.075069003 -0.0091297003
0.13568 0.075434998 -0.010592
0.15419 0.033856001 0.012476
0.051258001 0.072998002 0.074717
0.051380999 0.072314002 0.075855002
0.048029002 0.064516999 0.062374
0.071778998 0.057909999 0.065482996
0.13663 0.066514 -0.0058188001
0.13749 0.067220002 -0.0062317001
0.1283 0.089346997 -0.0072328998
0.11552 0.059751999 0.036770999
0.12791 0.070570998 0.023213999
0.075646996 0.061386 0.076599002
0.077050999 0.059737001 0.077381
0.10385 0.10967 -0.01324
0.10409 0.11073 -0.011682
0.10338 0.085555002 0.042318001
0.1031 0.085872002 0.041365001
0.13314 0.081088997 -0.039393
0.13429999 0.081927001 -0.041822001
0.13378 0.081817999 -0.040642999
0.16823 0.039716002 -0.010744
0.16834 0.038013998 -0.011441
0.15568 0.045196 -0.0019202
0.039958 0.042056002 0.035078999
0.11587 0.079769999 0.035434
0.1131 0.11638 -0.030296
0.078777999 0.046089001 0.073513001
0.12820999 0.081299998 -0.057298001
0.12725 0.082356997 -0.057158999
0.12804 0.083086997 -0.056972999
0.13011 0.060290001 0.021717999
0.12999 0.060097001 0.023024
0.12980001 0.059377 0.023522999
0.10881 0.086037003 0.031808
0.10921 0.086744003 0.030603999
0.12636 0.069458999 0.022492001
0.13426 0.094260998 -0.014637
0.13274001 0.093207002 -0.01584
0.14368001 0.049185 0.0090918001
0.094282001 0.034361001 -0.0078764996
0.093153998 0.033512998 -0.0070469002
0.092586003 0.033953998 -0.0078189
0.14643 0.054226998 0.01801
0.12284 0.099527001 -0.067671001
0.12359 0.10032 -0.0669
0.12575001 0.098439999 -0.067690998
0.11599 0.1099 -0.039625
0.13054 0.095054001 -0.044470999
0.12936001 0.096288003 -0.044613
0.13018 0.09471 -0.045961
0.040364001 0.035106 0.036017999
0.088955 0.090369001 0.038993001
0.091255002 0.036017001 0.069477998
0.089810997 0.035296999 0.067795999
0.091594003 0.035817999 0.067736998
0.13001999 0.084380999 -0.044932999
0.13124999 0.084677003 -0.044190001
0.13255 0.082901001 -0.045586001
0.13823999 0.104 -0.0022868
0.082704999 0.070171997 0.0493
0.077496998 0.083270997 0.047924001
0.077683002 0.083580002 0.048594002
0.109 0.076035 0.043039002
0.10438 0.091250002 0.029401001
0.10404 0.091796003 0.028026
0.10334 0.090451002 0.028527999
0.068076998 0.071057998 0.051863998
0.068365999 0.072622001 0.051707
0.068921 0.072967 0.050763
0.13358 0.082460001 -0.011959
0.13167 0.083301999 -0.011002
0.10963 0.056899998 0.035941001
0.1113 0.057156999 0.036545999
0.13409001 0.082957998 -0.033202998
0.13758001 0.076411001 -0.029375
0.14758 0.036235999 0.024163
0.14796001 0.035461999 0.025034999
0.13170999 0.055876002 -0.011519
0.13061 0.054132 -0.012322
0.13279 0.075691998 -0.051771998
0.098506004 0.035608999 -0.0099809002
0.098566003 0.035202999 -0.010476
0.1329 0.096988 -0.037735
0.10228 0.035580002 0.053158998
0.10142 0.035236001 0.054540999
0.064776003 0.061776999 0.059808001
0.063252002 0.063065998 0.058618002
0.062624 0.063864 0.058586001
0.11156 0.11259 -0.015952
0.13784 0.072192997 -0.023801001
0.15018 0.061390001 0.020041
0.13247 0.085937001 -0.015949
0.13080999 0.086213998 -0.016502
0.13404 0.084384002 -0.016058
0.13368 0.11019 -0.034015998
0.13342001 0.11062 -0.031534001
0.063534997 0.068731003 0.053787999
0.13857999 0.074593 -0.011698
0.13381 0.074630998 -0.047478002
0.13361999 0.074776001 -0.048864
0.13388 0.11192 -0.046569001
0.13255 0.11256 -0.046270002
0.077310003 0.084808998 0.046216998
0.078795999 0.084220998 0.047153
0.079728998 0.045193002 0.075632997
0.080516003 0.045253001 0.078000002
0.13571 0.090820998 -0.026706999
0.13589001 0.090126999 -0.026866
0.13557 0.090898 -0.025564
0.12649 0.10538 -0.051284
0.12593 0.10595 -0.051323999
0.13474 0.11431 -0.051899999
0.12252 0.074612997 0.01708
0.11969 0.075026996 0.015791999
0.12175 0.11525 -0.049371
0.12114 0.11586 -0.050765999
0.10734 0.07711 0.044507999
0.056341 0.067878999 0.061941002
0.11192 0.081854999 0.030099001
0.11284 0.084271997 0.031176999
0.041632999 0.041990001 0.03413
0.040932 0.040725999 0.033399001
0.091921002 0.037852999 0.043906
0.089328997 0.036963999 0.043726999
0.091330998 0.038423002 0.043458
0.13459 0.1028 -0.031022999
0.076691002 0.084620997 0.046521999
0.13472 0.079033002 -0.029841
0.086079001 0.092389002 0.036185
0.064643003 0.049819998 0.045743
0.065049998 0.049493 0.047653001
0.064845003 0.047488 0.046204001
0.10352 0.039572001 -0.014825
0.13141 0.051228002 -0.0050980998
0.1301 0.078101002 -0.053925999
0.14683001 0.034566 0.021980001
0.14834 0.034864999 0.021523001
0.10761 0.074446 0.045665
0.10829 0.076917998 0.043774001
0.10416 0.11183 -0.0077443998
0.10174 0.11228 -0.0077336002
0.10177 0.10976 -0.0075265002
0.070138 0.058665998 0.055844001
0.070202999 0.058697999 0.056097001
0.13188 0.086756997 -0.0077598002
0.131 0.087881997 -0.0087638004
0.13367 0.085605003 -0.0090047996
0.089377999 0.038660999 0.05012
0.087275997 0.039395001 0.048229001
0.087577 0.039347 0.048110999
0.096005 0.093111999 0.030413
0.094963998 0.092485003 0.032168999
0.13521001 0.098957002 -0.028447
0.13415 0.10107 -0.028385
0.1354 0.10374 -0.051100001
0.13608 0.10758 -0.014678
0.15332 0.040897999 -0.015433
0.051702999 0.070883997 0.070652999
0.051422998 0.06921 0.072600998
0.13328999 0.098931 -0.035909999
0.13331001 0.10005 -0.037122
0.10696 0.037007 0.061450999
0.14975999 0.057817001 0.021194
0.13372 0.10573 -0.0048143999
0.13276 0.10431 -0.0052689998
0.14681 0.057696 0.014002
0.14642 0.058357999 0.013357
0.094585001 0.039223999 0.04786
0.093676999 0.036865 0.047784001
0.12592 0.071800001 0.019995
0.12671 0.071308002 0.020416999
0.13642 0.070793003 -0.014311
0.13872001 0.071630001 -0.012843
0.14002 0.066487998 -0.014542
0.13584 0.062949002 -0.011249
0.13039 0.086767003 -0.046160001
0.12162 0.071355999 -0.064707004
0.12109 0.072494999 -0.066018999
0.14674 0.034937002 0.019367
0.14651 0.034662999 0.019185999
0.13316999 0.092707999 -0.044877
0.13413 0.094103999 -0.044468999
0.13044 0.10063 -0.064430997
0.14036 0.10928 -0.00077744998
0.14148 0.050211001 0.0063994001
0.14083 0.053071 0.0060029998
0.14296 0.052925002 0.0068859002
0.10957 0.084591001 0.030215999
0.13309 0.085864998 -0.042300001
0.13322 0.084647998 -0.041033
0.063075997 0.071616001 0.052418001
0.063261002 0.071364 0.051605001
0.10672 0.079531997 0.045407999
0.10688 0.080467999 0.044015002
0.10565 0.079736002 0.045976002
0.11203 0.11231 -0.017873
0.13772 0.086988002 -0.015879
0.13616 0.085202001 -0.015175
0.1067 0.11271 -0.011196
0.1069 0.1126 -0.0096613998
0.13435 0.062155999 0.01534
0.046858002 0.033518001 0.026875
0.11907 0.078836001 0.021701001
0.11694 0.078795999 0.020508001
0.11703 0.078230999 0.020283001
0.12396 0.071415998 0.010302
0.16288 0.042332001 0.0022266
0.16864 0.037893999 -0.01343
0.13758001 0.11506 -0.0037646
0.13542999 0.091236003 -0.031714998
0.13549 0.090746 -0.031904001
0.13507 0.091049001 -0.032173999
0.082491003 0.076521002 0.050592002
0.12715 0.063542001 -0.024191
0.15986 0.042709999 0.0055232001
0.15926 0.042800002 0.0067783999
0.15834001 0.043218002 0.0085723
0.1327 0.054900002 -0.013143
0.14806999 0.037152 0.022194
0.14855 0.037765998 0.021399001
0.13635001 0.091678001 -0.038807001
0.13699999 0.089775003 -0.040727999
0.16257 0.042167999 -0.0091803996
0.12468 0.066725001 -0.048202001
0.070468999 0.052758999 0.056101002
0.069274001 0.055 0.054634999
0.069507003 0.054480001 0.056046002
0.070476003 0.055381998 0.060865
0.12094 0.063474 0.033581998
0.12202 0.064471997 0.03145
0.13433 0.071075998 -0.064566001
0.13482 0.11431 -0.028594
0.049625002 0.069917999 0.068484999
0.049144998 0.070210002 0.067818999
0.04882 0.071184002 0.067281999
0.15616 0.036150001 0.013501
0.045834001 0.073853001 0.076058999
0.0451 0.075475 0.076739997
0.046799999 0.076434001 0.075107001
0.082565002 0.071171001 0.050477002
0.13237 0.10001 -0.0049235998
0.13335 0.098793998 -0.0071159001
0.076743998 0.04913 0.070841998
0.11835 0.077570997 0.0054529002
0.12021 0.076609999 0.0057533998
0.11962 0.077458002 0.0050569
0.12977 0.10129 -0.015394
0.12957001 0.1014 -0.013807
0.13496999 0.090328999 -0.037190001
0.13426 0.090144001 -0.036830999
0.14958 0.036981001 0.012526
0.14913 0.036724001 0.012737
0.14809 0.036573 0.014238
0.070735998 0.057434998 0.050053
0.071052 0.059064999 0.050721001
0.14025 0.073565997 -0.012025
0.082148999 0.092256002 0.039944001
0.082603 0.093328997 0.03951
0.083337002 0.091788001 0.038376998
0.13573 0.1096 -0.032327
0.1231 0.057397 -0.048900999
0.034906 0.035523001 0.043384001
0.035693999 0.03475 0.044725999
0.12175 0.067957997 0.032614
0.079108998 0.060704 0.046255998
0.078429997 0.061482001 0.044769999
0.072691001 0.057766002 0.041260999
0.072709002 0.054396 0.041414
0.12427 0.066652998 -0.027889
0.13648 0.058869001 -0.0013381999
0.13731 0.061873 -0.0014552
0.13219 0.082494996 -0.04425
0.13315 0.081377 -0.042470001
0.090598002 0.093249999 0.032731999
0.1336 0.10079 -0.0471
0.13321 0.10071 -0.047596999
0.1319 0.10331 -0.045325998
0.13162 0.066722997 0.011828
0.13016 0.066610001 0.011549
0.1393 0.083503 -0.018059
0.14643 0.057827 0.012398
0.12989999 0.088163003 -0.047288999
0.13652 0.061360002 -0.0062823002
0.13687 0.064299002 -0.0057291002
0.090405002 0.076135002 0.049010001
0.13934 0.080351003 -0.013005
0.13993999 0.081152998 -0.01385
0.069669001 0.059363 0.064149998
0.12611 0.053025 0.022119001
0.12897 0.054260001 0.021996999
0.12751999 0.054382998 0.021499
0.12959 0.074100003 0.0013005
0.12978999 0.072795004 0.0010435
0.13779999 0.068313003 -0.012991
0.12407 0.083701 -0.0031941
0.12399 0.084279999 -0.0037622
0.10781 0.086093999 0.033027999
0.10686 0.087125003 0.03376
0.15521 0.043141998 -0.011728
0.15577 0.041382998 -0.013111
0.13215999 0.093803003 -0.042631
0.12977999 0.094734997 -0.043999001
0.13011 0.093047 -0.043117002
0.13561 0.067780003 0.00091912999
0.13361 0.068153001 0.00084585999
0.13349 0.068136998 0.00090231001
0.020188 0.034653001 0.053659
0.020253999 0.034097001 0.054572001
0.021095 0.033312999 0.053617001
0.079557002 0.052110001 0.07643
0.10005 0.039972 -0.0062471
0.10037 0.038527001 -0.0058756
0.10034 0.039313 -0.0061049
0.069790997 0.057135001 0.060667999
0.1372 0.056944001 -0.0016167
0.13759001 0.058026999 -0.00052826997
0.12909999 0.082889996 -0.047747999
0.12812001 0.081206001 -0.049114
0.11459 0.081528001 0.026853001
0.11469 0.080895998 0.026196999
0.15312999 0.044496 0.018973
0.15422 0.043806002 0.018559
0.05435 0.068310998 0.072084002
0.056217998 0.067578003 0.073615
0.065952003 0.045497 0.056428999
0.1665 0.03492 -0.012202
0.13515 0.096600004 -0.0085353004
0.090616003 0.039583001 0.050260998
0.13794 0.10445 -0.013182
0.051355999 0.074150003 0.077330001
0.050627999 0.074997 0.075603999
0.049754001 0.074628003 0.075979002
0.092937998 0.039857 0.052051999
0.092419997 0.039485 0.052485
0.17535 0.037427001 -0.0078782998
0.17157 0.037877001 -0.0016939
0.11961 0.11264 -0.048140001
0.15114 0.049325 0.021661
0.10165 0.037312001 -0.028005
0.10398 0.037328001 -0.029193999
0.095758997 0.039032999 0.051587
0.096120998 0.038837999 0.051040001
0.095426001 0.039216999 0.050964002
0.14449 0.052995998 0.0080145001
0.14572001 0.054055002 0.010673
0.12 0.072821997 -0.058199
0.11813 0.074242003 -0.057025999
0.12095 0.075585 -0.055234
0.022255 0.033826999 0.053778
0.021376001 0.033668999 0.053495001
0.11724 0.051353998 0.026482999
0.11652 0.050409 0.026681
0.13858999 0.11591 -0.0020717001
0.13837001 0.11756 -0.0030201001
0.12740999 0.068682998 -0.047802001
0.12804 0.069273002 -0.051066
0.088547997 0.043430999 0.064006999
0.087707996 0.043083001 0.063677996
0.11585 0.081836998 0.029235
0.11689 0.081501998 0.027758
0.11671 0.081814997 0.028517
0.13519 0.089824997 -0.038472001
0.12952 0.081138998 -0.057759002
0.1354 0.090829998 -0.024982
0.12218 0.061484002 -0.049637001
0.1241 0.062887996 -0.047727998
0.12227 0.063203998 -0.048055999
0.091077998 0.041800998 0.066279002
0.089998998 0.041356001 0.064176001
0.09065 0.041653998 0.066404
0.060047999 0.084220998 0.044202
0.061384 0.083154999 0.045015998
0.059625 0.083112001 0.043462001
0.13423 0.094617002 -0.046087999
0.12751 0.057130001 -0.020679001
0.11792 0.073734999 0.036173001
0.11686 0.072359003 0.038681999
0.1174 0.072347 0.039292
0.13111 0.098203003 -0.0087016998
0.13152 0.097744003 -0.0098700998
0.12107 0.073368996 0.032331001
0.068645 0.05957 0.061106
0.15831999 0.040403999 -0.013144
0.1566 0.039689999 -0.012724
0.15681 0.041053001 -0.01331
0.1037 0.03559 0.053238001
0.077763997 0.034072999 0.076159
0.078036003 0.034315001 0.075101003
0.061266001 0.047586001 0.044149999
0.061062001 0.046142001 0.047421999
0.059416998 0.046769999 0.044799998
0.10016 0.091931999 0.030036001
0.10123 0.093043998 0.030114001
0.13514 0.093041003 -0.031051001
0.13471 0.094797999 -0.030889001
0.1355 0.095365003 -0.027806001
0.10364 0.089170001 0.025086001
0.10262 0.088192999 0.026625
0.055535998 0.064538002 0.073994003
0.056894999 0.066729002 0.072931997
0.056086998 0.065301001 0.074703
0.12815 0.067064002 -0.027125999
0.12666 0.068332002 -0.028086999
0.12754001 0.067524001 -0.027858
0.1559 0.039576001 -0.01956
0.15746 0.039124999 -0.020888999
0.09544 0.092193998 0.036593001
0.073008999 0.045088999 0.066711999
0.072447002 0.046960998 0.064948
0.071769997 0.046424001 0.066619001
0.12669 0.092183001 -0.0082879001
0.16648 0.035186999 -0.00017804001
0.16793001 0.034306999 -0.00048379001
0.13318001 0.10389 -0.034526002
0.13440999 0.10438 -0.033801001
0.080344997 0.092629001 0.03912
0.079864003 0.091066003 0.040389001
0.16248 0.04039 -0.012071
0.14983 0.050627001 0.01303
0.14978001 0.051463999 0.012239
0.14914 0.052138001 0.012129
0.1339 0.070087001 -0.050820999
0.13301 0.070534997 -0.051387999
0.035264 0.036614999 0.046684001
0.10961 0.10745 -0.010018
0.10942 0.108 -0.010361
0.11353 0.11427 -0.032446001
0.1148 0.11395 -0.030362001
0.11471 0.11372 -0.030818
0.17041001 0.039701 -0.0029865999
0.12661999 0.053752001 -0.013915
0.12666 0.052848998 -0.014403
0.133 0.087351002 -0.042103998
0.13535 0.10186 -0.0035919
0.14763001 0.05356 0.014566
0.10073 0.043244001 -0.014425
0.12980001 0.080666997 -0.057209
0.13868 0.051972002 0.0071327002
0.12712 0.076082997 -0.0016292999
0.074222997 0.089878999 0.040295999
0.073899001 0.089622997 0.041080002
0.11371 0.081854999 0.0229
0.13368 0.079866 -0.0091957003
0.13242 0.077983998 -0.01049
0.14104 0.063684002 0.01056
0.13155 0.068432003 -0.063711002
0.12943999 0.068576999 -0.061756998
0.040454999 0.039041001 0.036169
0.13786 0.066082001 -0.0092470003
0.095413998 0.039921001 -0.022926001
0.095068 0.039868001 -0.024599999
0.093526997 0.039216001 -0.024289999
0.071186997 0.053523 0.041267
0.069289997 0.053971 0.042936999
0.13443001 0.11206 -0.051491
0.13436 0.10982 -0.052143998
0.16669001 0.038003001 -0.012877
0.058589999 0.061379999 0.066450998
0.059500001 0.061138 0.066148996
0.059687 0.060934 0.064705998
0.071852997 0.045678001 0.068383999
0.069431998 0.046489999 0.067883
0.069779001 0.046735998 0.066845
0.14032 0.062815003 0.0055191
0.13444 0.088022001 -0.034170002
0.13429999 0.086135 -0.034779001
0.14071 0.063422002 0.0089651002
0.073757 0.036662001 0.081079997
0.073780999 0.035829 0.082314
0.097249001 0.038394999 0.064944997
0.099104002 0.035928 0.057939
0.12673 0.079378001 0.0012074
0.12404 0.080118999 0.0026695
0.12461 0.080362998 0.0033789999
0.15291999 0.045731001 0.022895999
0.1531 0.046863001 0.021957001
0.15188 0.046618 0.023373
0.13223 0.069202997 0.0058790999
0.13034999 0.069613002 0.006821
0.13285001 0.091424003 -0.042458002
0.13304999 0.088830002 -0.041900001
0.097149998 0.033865999 0.052745
0.096229002 0.035875998 0.052113999
0.095914997 0.032963 0.054361001
0.13402 0.10879 -0.044746
0.13625 0.10996 -0.011354
0.13583 0.10978 -0.012577
0.15116 0.034609001 0.016874
0.15131 0.034017 0.016432
0.13316999 0.073706999 -0.027691999
0.071938001 0.091463998 0.040180001
0.071897998 0.091261998 0.041728001
0.069114998 0.069174998 0.050684001
0.10314 0.11557 -0.0085212998
0.13483 0.10884 -0.046452999
0.066908002 0.060141001 0.058182001
0.090323001 0.086742997 0.046805002
0.13556001 0.057815999 -0.00089358998
0.13615 0.058595002 -0.00097542
0.11817 0.080746002 0.0043692002
0.11822 0.079682 0.0030121
0.10434 0.1145 -0.012311
0.079628997 0.089005001 0.041749999
0.13283999 0.052928999 -0.0091484999
0.13913 0.063654996 0.0015916
0.13281 0.067665003 0.003795
0.1323 0.088059999 -0.017816
0.13293 0.087690003 -0.017139999
0.10555 0.12124 -0.0079696001
0.13331001 0.10973 -0.044388998
0.13445 0.11024 -0.044674002
0.13431001 0.11091 -0.043363001
0.081418 0.045169 0.070825003
0.10441 0.088232003 0.032940999
0.10337 0.08805 0.034972001
0.080495998 0.047019999 0.077082999
0.080406003 0.045791 0.078454003
0.1143 0.11797 -0.0296
0.11339 0.11755 -0.027922999
0.11379 0.11717 -0.029679
0.11805 0.11106 -0.038268
0.13339999 0.083384998 -0.041497
0.13339999 0.083453998 -0.041570999
0.099745996 0.092665002 0.032579999
0.1005 0.092721999 0.032260001
0.10174 0.092675 0.032129999
0.068944 0.055558 0.050655998
0.13428 0.075510003 -0.0087257
0.13530999 0.073553003 -0.0092978999
0.12648 0.10997 -0.023999
0.086730003 0.081129998 0.048392002
0.086145997 0.080164999 0.048199002
0.086777002 0.081156 0.048349001
0.11925 0.078833997 0.030887
0.067547999 0.051362999 0.039342001
0.067013003 0.053261001 0.037537001
0.086534999 0.091523997 0.038352001
0.085698001 0.091077998 0.039085001
0.077858001 0.047736 0.079099998
0.12977 0.10269 -0.044649001
0.11333 0.080311 0.032427002
0.11342 0.081018999 0.031803001
0.12052 0.076644003 0.020261999
0.066643998 0.04879 0.051201999
0.11667 0.075764 0.036747001
0.1161 0.074686997 0.038699999
0.11689 0.074492 0.037808001
0.12468 0.099523999 -0.068703003
0.12502 0.098607004 -0.067813002
0.10029 0.040619999 -0.0077934
0.093663 0.042316999 0.061799001
0.093443997 0.042955998 0.060508002
0.092169002 0.043708 0.061241001
0.13161001 0.093685001 -0.048840001
0.13221 0.1006 -0.045878999
0.13349999 0.10033 -0.046898998
0.047270998 0.074173003 0.073810004
0.045929998 0.073423997 0.074015997
0.16435 0.040103 -0.0069998
0.13472 0.088016003 -0.011759
0.13687 0.095651999 -0.046254002
0.083076 0.093519002 0.036444999
0.057264 0.061407998 0.069430999
0.057776999 0.062293999 0.069729999
0.13764 0.080073997 -0.019585
0.1064 0.11552 -0.010566
0.10621 0.11616 -0.0098703997
0.16170999 0.039081998 -0.016078001
0.17427 0.036864001 -0.0013878
0.17455 0.038001001 -0.0023841001
0.12583999 0.058959 -0.049648002
0.10496 0.11891 -0.010672
0.10593 0.1181 -0.010633
0.13981999 0.10784 -0.0026888
0.075065002 0.056053001 0.067225002
0.12769 0.11545 -0.058192998
0.13451 0.073156998 -0.028263999
0.13600001 0.073229 -0.026891001
0.1329 0.068626001 0.00068121002
0.078217 0.051256001 0.075303003
0.13334 0.076413997 -0.054145001
0.16186 0.037996002 -0.01455
0.16106001 0.038339999 -0.01441
0.16670001 0.040206999 -0.0051638
0.16591001 0.039951999 -0.0066213999
0.16529 0.040011 -0.0050201998
0.075621001 0.048484001 0.06758
0.097145997 0.068599999 0.046083
0.09804 0.069839001 0.046385001
0.097943 0.070660003 0.047720999
0.12035 0.11203 -0.042695999
0.11863 0.11259 -0.044254001
0.084198996 0.091779001 0.039455
0.084223002 0.091839999 0.039319001
0.092292003 0.089426003 0.039597001
0.094772004 0.089547001 0.039297
0.091944002 0.091670997 0.039103001
0.13233 0.096692003 -0.062176
0.13252001 0.097712003 -0.060851
0.066226996 0.059640002 0.067201003
0.069385998 0.058014002 0.069532998
0.068294004 0.059937 0.068976
0.1332 0.071698003 -0.065076999
0.13235 0.072053 -0.067146003
0.13301 0.070983 -0.065720998
0.13711999 0.080122001 -0.022686999
0.13249999 0.089514002 -0.019053999
0.13221 0.093326002 -0.017547
0.14625999 0.054063 0.010955
0.12481 0.095798001 -0.043120001
0.12437 0.095710002 -0.043905001
0.12405 0.096826002 -0.045283001
0.071687996 0.043529999 0.074340001
0.072407 0.041297998 0.074536003
0.071842998 0.042397998 0.075635001
0.053013999 0.071222 0.054411002
0.047359001 0.077045001 0.075421996
0.12614 0.078791998 -0.051442001
0.12468 0.078024998 -0.052901
0.12488 0.079346001 -0.051794
0.12377 0.10916 -0.037707999
0.12156 0.1108 -0.037572999
0.12302 0.10919 -0.037643999
0.057429001 0.064544998 0.061684001
0.056067001 0.072287001 0.053172
0.13075 0.11436 -0.024766
0.13291 0.10523 -0.0094451001
0.11015 0.10629 -0.012225
0.10802 0.10609 -0.012312
0.16895001 0.036449 -0.0025243
0.07638 0.035041001 0.078468002
0.077234 0.03444 0.079259001
0.13301 0.069879003 -0.056561999
0.13322 0.070715003 -0.059478
0.13311 0.071253002 -0.057186
0.076139003 0.088324003 0.041333001
0.077230997 0.091077998 0.040128998
0.076733001 0.089610003 0.041639999
0.057893999 0.063464999 0.061450999
0.10541 0.038410999 -0.018186999
0.1055 0.036400001 -0.017632
0.15533 0.040670998 0.01549
0.092145003 0.041512001 0.053482
0.088889003 0.089461997 0.043019999
0.14791 0.057216998 0.017193001
0.14893 0.057999 0.015888
0.11938 0.073564 0.010968
0.11445 0.068242997 0.039655998
0.098077998 0.080401003 0.047249999
0.096369997 0.03602 -0.0030958001
0.13151 0.061104 -0.020453
0.12154 0.057257 0.031714998
0.11999 0.057519998 0.033739999
0.10915 0.035528999 -0.024839999
0.10784 0.036759 -0.026559001
0.056042001 0.073700003 0.052726999
0.053833999 0.073569 0.05271
0.13339999 0.10851 -0.054804001
0.13332 0.10735 -0.053406
0.13789 0.083760999 -0.017553
0.068576001 0.053463999 0.051603001
0.069066003 0.053610999 0.050184
0.13459 0.10102 -0.063477002
0.13679001 0.10182 -0.062912002
0.06126 0.046376001 0.043437
0.13245 0.11267 -0.051562
0.12974 0.11282 -0.051112
0.13098 0.11337 -0.050850999
0.088073 0.033766001 0.0020393999
0.087288 0.033882 0.00093948998
0.088477999 0.034304 0.0011917
0.092166997 0.036800999 0.050085001
0.093110003 0.034852002 0.050152
0.12488 0.10692 -0.022281
0.1629 0.036522001 0.0036750999
0.16392 0.036164001 0.0036454001
0.13301 0.054377001 -0.0054023
0.14752001 0.038063001 0.021788999
0.062008001 0.048099 0.041857
0.060961999 0.046705 0.042256001
0.059932001 0.047217999 0.041503001
0.13446 0.1062 -0.024281999
0.12215 0.088698 -0.010961
0.1391 0.063111 0.0069749001
0.13957 0.061218999 0.0072061
0.096763 0.039788 0.058083002
0.098613001 0.038949002 0.058412999
0.13104001 0.080447003 -0.0074836002
0.13318001 0.079498 -0.0091781998
0.1275 0.049706001 -0.0052179
0.12717 0.048478998 -0.0062124999
0.088205002 0.091582 0.032280002
0.086061001 0.038109999 0.073291004
0.12238 0.10293 -0.043492001
0.12169 0.10317 -0.041606002
0.12259 0.10327 -0.040793002
0.10092 0.083159998 0.046062998
0.10112 0.082579002 0.046943001
0.15891001 0.042505998 0.0025667001
0.13391 0.085956998 -0.01134
0.13444 0.085887 -0.0094673997
0.13375001 0.085230999 -0.0077263
0.030776 0.035822 0.045502
0.029856 0.034205001 0.043287002
0.02943 0.035029002 0.042553999
0.11222 0.084299996 0.01389
0.13167 0.072559997 -0.041896001
0.13192999 0.067617998 -0.049791999
0.093731001 0.090163998 0.03692
0.15463001 0.044411998 0.0072019999
0.15446 0.044519 0.0086773001
0.15894 0.036935002 0.01056
0.15869001 0.035891999 0.0079768999
0.1283 0.11418 -0.042714
0.12884 0.1163 -0.043643001
0.13012999 0.1145 -0.043205999
0.086663999 0.086926997 0.042149
0.086328998 0.087871 0.042213999
0.086799003 0.087595001 0.041956998
0.11315 0.11938 -0.028798999
0.11379 0.11839 -0.028742
0.13606 0.11117 -0.050372999
0.10023 0.040158998 -0.0046236999
0.099683002 0.038996998 -0.0040747998
0.099330999 0.039648999 -0.0051592998
0.13832 0.088682003 -0.014001
0.13536 0.089267001 -0.012741
0.12741999 0.052556999 -0.01245
0.127 0.052615002 -0.010843
0.09606 0.081556 0.047203001
0.096355997 0.084305003 0.046094
0.11823 0.11218 -0.040855002
0.11841 0.11172 -0.038729999
0.13504 0.097204 -0.066243999
0.14622 0.045873001 0.024075
0.14526001 0.046224002 0.024414999
0.095036 0.082315996 0.047518
0.15075999 0.051924001 0.024958
0.11287 0.086663999 0.026962999
0.11025 0.084988996 0.026101001
0.17072 0.039232001 -0.01229
0.17107999 0.039278001 -0.013349
0.11415 0.1103 -0.039296001
0.11661 0.11009 -0.040105999
0.11661 0.11032 -0.039218001
0.13101 0.10577 -0.017871
0.13027 0.10575 -0.018456999
0.1309 0.10626 -0.017687
0.13846 0.081184 -0.013453
0.13819 0.080927998 -0.012124
0.13718 0.10831 -0.032901999
0.16441999 0.040298998 -0.0085482001
0.16320001 0.038925 -0.0068604001
0.1227 0.075800002 0.02125
0.12851 0.069507003 0.017208001
0.12763 0.068940997 0.015065
0.11653 0.078658 0.011805
0.12486 0.079512998 0.0041510998
0.12473 0.079291001 0.0034805001
0.10154 0.039298002 0.059466001
0.15613 0.041090999 -0.016744999
0.14726 0.032543 0.024668001
0.14838 0.033838 0.025898
0.15863 0.034777999 0.0096375002
0.15561999 0.034807999 0.0097730998
0.17099001 0.036277998 -0.00066050998
0.12705 0.080615997 -0.059158001
0.12764999 0.10566 -0.051727001
0.058495 0.069577001 0.054194
0.097764 0.086007997 0.042952999
0.13602 0.097483002 -0.043106999
0.13327999 0.10215 -0.033293001
0.13499001 0.088797003 -0.022988999
0.1506 0.044950001 0.0092273997
0.066841997 0.061701 0.057838
0.070029996 0.058896001 0.053011
0.069219001 0.058490001 0.054896999
0.070289999 0.056795001 0.053323001
0.12706999 0.091512002 -0.043520998
0.13011 0.099216998 -0.051924001
0.12937 0.097750999 -0.052088998
0.13687 0.10965 -0.031941
0.13661 0.10901 -0.032697
0.13734999 0.10808 -0.032993
0.065877996 0.046076 0.055677
0.064738996 0.04642 0.053527001
0.13264 0.050838001 -0.0010422
0.13288 0.073436998 -0.002726
0.13346 0.10201 -0.030762
0.13345 0.10129 -0.02925
0.10331 0.10653 -0.0087310998
0.10243 0.10746 -0.0093524
0.10267 0.10571 -0.0097781997
0.1313 0.076612003 -0.0035406
0.13154 0.075551003 -0.0030106001
0.12194 0.072393999 -0.060272999
0.088992 0.040649001 0.051718
0.090575002 0.039499 0.050714999
0.11957 0.074143 -0.056673001
0.11887 0.074013002 -0.056350999
0.12112 0.073739998 -0.058653999
0.13594 0.097989999 -0.047586001
0.13655999 0.097466998 -0.049116999
0.071308002 0.062272001 0.054542001
0.072411999 0.061797999 0.054547001
0.12332 0.11518 -0.049695998
0.13478 0.069375001 -0.020151
0.12752999 0.051948 -0.0088938996
0.12694 0.052260999 -0.0091118999
0.1384 0.10726 -0.0016714
0.13886 0.10645 -0.0019054
0.071456 0.059392001 0.069845997
0.14363 0.047068998 0.012799
0.091902003 0.036040001 0.067313999
0.13362999 0.10715 -0.030486999
0.091130003 0.041776001 0.062236998
0.1118 0.10669 -0.016071999
0.10546 0.078175999 0.045426998
0.10493 0.080266997 0.045426998
0.10486 0.077783003 0.04521
0.13309 0.10262 -0.037792001
0.15738 0.036451001 -0.010635
0.15526 0.037030999 -0.010688
0.15577 0.036858998 -0.011233
0.12631001 0.089630999 -0.048507001
0.12637 0.092265002 -0.046457
0.12193 0.075088002 0.025604
0.12245 0.075078003 0.024473
0.088815004 0.040731002 0.050765999
0.087333001 0.040329002 0.049501002
0.088729002 0.042497002 0.051366001
0.15106 0.038442001 0.020393999
0.12871 0.10941 -0.030374
0.10655 0.11914 -0.0082216999
0.10814 0.12089 -0.01061
0.11646 0.079346001 0.01596
0.10542 0.069447003 0.044594999
0.11226 0.12031 -0.027341001
0.077362999 0.052703001 0.076785997
0.13767 0.11529 3.2528002e-05
0.13721 0.10955 -0.035425
0.096648999 0.038116999 0.050671998
0.14726 0.038495999 0.017122
0.13299 0.10387 -0.010652
0.13211 0.10305 -0.011605
0.1203 0.077485003 0.016199
0.063666001 0.070554003 0.0504
0.063344002 0.071154997 0.051185001
0.063842997 0.070404999 0.050602
0.14534999 0.058235999 0.010487
0.089317001 0.040844001 0.050315998
0.094997004 0.034150001 -0.0080827996
0.093658 0.033709999 -0.010757
0.095013 0.033767 -0.0096030999
0.1329 0.051335 0.0041419002
0.13161001 0.048572998 0.0060760002
0.13141 0.048865002 0.0033716001
0.11027 0.07999 0.041336998
0.13286 0.10252 -0.0047570998
0.093491003 0.084353 0.046174001
0.092646003 0.083810002 0.04764
0.036001001 0.037393 0.048537001
0.12710001 0.056405999 0.026528001
0.13462999 0.11077 -0.049313001
0.12253 0.073904999 0.012376
0.13761 0.078107998 -0.01912
0.11534 0.061728999 0.038623001
0.11791 0.047685001 0.022841001
0.11569 0.049031001 0.02286
0.11617 0.048046 0.022934999
0.11999 0.070896998 -0.065195002
0.13553999 0.10017 -0.020045999
0.13546 0.099426001 -0.021709001
0.15659 0.044328 0.012518
0.15624 0.042750999 0.01368
0.15888999 0.042571999 0.0051072999
0.15820999 0.043221001 0.0048972
0.13654999 0.066757999 -0.013669
0.13689999 0.066333003 -0.01267
0.15299 0.034995001 0.014808
0.066206001 0.059227001 0.070831999
0.13789 0.10976 -0.0099839
0.11899 0.077597998 0.027100001
0.11925 0.079065003 0.028635001
0.10088 0.040963002 -0.021596
0.13526 0.10735 -0.053288002
0.13327999 0.10905 -0.052593
0.079690002 0.067054003 0.050935
0.080743998 0.067947999 0.049570002
0.080297001 0.068232998 0.050285
0.13192999 0.099444002 -0.063882999
0.13482 0.064880997 -0.023173001
0.11106 0.080043003 0.037331
0.13923 0.11153 -0.0010497
0.10723 0.037393998 -0.018579001
0.10606 0.038798001 -0.020692
0.13568 0.075033002 -0.023598
0.13636 0.097971998 -0.056203
0.13618 0.096479997 -0.054838002
0.1329 0.092083998 -0.042094
0.071144998 0.059702002 0.053098999
0.070637003 0.060261998 0.050978001
0.070568003 0.060687002 0.053132001
0.1376 0.075213999 -0.031348001
0.13592 0.074644998 -0.027109999
0.13501 0.074957997 -0.028458999
0.13485 0.076127 -0.028833
0.12373 0.074772999 0.026054
0.12346 0.073578998 0.026388999
0.092611 0.088315003 0.043481998
0.067137003 0.052615002 0.047425002
0.13165 0.10277 -0.051491
0.13393 0.075824998 -0.041889001
0.13341001 0.073629998 -0.024944
0.13474 0.071750998 -0.024458
0.13526 0.074211001 -0.026481999
0.12712 0.069521002 0.021237999
0.086039998 0.041249 0.071025997
0.086367004 0.040702999 0.070161
0.12269 0.077388003 0.0055566998
0.12522 0.078359999 0.0055382
0.11324 0.081660002 0.020772999
0.11339 0.082975999 0.021981001
0.064671002 0.050808001 0.038871001
0.064514004 0.051011 0.037907999
0.061926 0.050870001 0.036734
0.096712001 0.039159 0.051371999
0.073443003 0.038070001 0.080357
0.071602002 0.038642 0.079000004
0.072273999 0.059687998 0.071856998
0.069581002 0.060736999 0.071961001
0.071698003 0.061806999 0.072209001
0.1312 0.076932997 -0.036472
0.13071001 0.076885998 -0.037824001
0.13786 0.082148001 -0.023442
0.13525 0.067919001 0.0012361
0.13476001 0.068619996 -0.00092234003
0.13406999 0.068187997 0.00037048
0.13393 0.10058 -0.036494002
0.12793 0.079801001 -0.0039738999
0.067813002 0.065577999 0.052127998
0.097033001 0.036477 -0.013162
0.12461 0.071188003 0.026594
0.082439996 0.091334999 0.041262999
0.11435 0.061537001 0.038644999
0.11754 0.061214998 0.035801001
0.11824 0.060226999 0.034835
0.12585001 0.055627 0.025762999
0.070666 0.095146 0.039795998
0.11028 0.082722001 0.020638
0.1099 0.082102999 0.019535
0.13908 0.073945001 -0.013628
0.13822 0.073840998 -0.013682
0.14043 0.075549997 -0.015336
0.093624003 0.041769002 0.059638999
0.12980001 0.1054 -0.023996999
0.13001999 0.10682 -0.023099
0.1005 0.039145 0.054384999
0.063282996 0.072034001 0.051196001
0.062706001 0.071874999 0.050280001
0.10837 0.10797 -0.0085618999
0.10901 0.10927 -0.0095896004
0.11928 0.076462001 0.0067833001
0.11827 0.076205999 0.0083071999
0.13895001 0.10478 -0.0013742
0.13149001 0.10963 -0.052699
0.13314 0.079976998 -0.041625001
0.13347 0.080826998 -0.042300001
0.13223 0.058208998 -0.015872
0.13117 0.056821 -0.017927
0.12239 0.075493999 0.017728001
0.13786 0.099169999 -0.0080557996
0.14013 0.1024 -0.011523
0.134 0.10822 -0.038276002
0.096561 0.043974001 -0.016837001
0.097220004 0.043675002 -0.015678
0.094315 0.043081999 -0.015698001
0.097232997 0.043010999 0.060552999
0.091364004 0.038011 0.067985997
0.053867001 0.066864997 0.068131
0.10537 0.11781 -0.0078245001
0.12056 0.054333001 0.029803
0.15317 0.047113001 0.022111
0.15514 0.046466999 0.020422
0.15384001 0.0484 0.019789999
0.13194001 0.11485 -0.055553
0.13319001 0.11012 -0.051430002
0.13046999 0.077198997 -0.037551001
0.15538999 0.041593999 0.012893
0.15568 0.044932999 0.014109
0.15552001 0.044502001 0.01477
0.084087998 0.037563 0.073744997
0.098655 0.034102999 -0.013307
0.13032 0.082254 -0.059016999
0.12899999 0.081035003 -0.058991998
0.13022999 0.082437001 -0.060299002
0.058807999 0.063709997 0.075626999
0.078640997 0.089388996 0.041196
0.16118 0.037097 0.0071546999
0.16022 0.036442999 0.0082443003
0.13873 0.059780002 0.00084585999
0.13731 0.060649998 0.00092786999
0.13738 0.060451001 0.00029224
0.11723 0.080674 0.0031224999
0.11701 0.078601003 0.0030944999
0.14647 0.045552 0.024194
0.14572001 0.045455001 0.022879999
0.16143 0.040793002 -0.011762
0.15985 0.038484 -0.01222
0.14511 0.061128002 0.012203
0.061229002 0.059946999 0.066708997
0.060044002 0.059617002 0.067878999
0.13500001 0.1035 -0.019149
0.13586999 0.10194 -0.017589999
0.13143 0.071598999 -0.058494002
0.13143 0.072112001 -0.059145998
0.093000002 0.089970998 0.040098999
0.080357 0.073000997 0.051206
0.080923997 0.072884001 0.050122
0.073565997 0.053482998 0.060621001
0.073205002 0.050719999 0.061221998
0.072787002 0.050303999 0.060628001
0.13978 0.064342998 0.0099785998
0.13959999 0.064297996 0.0089480998
0.14113 0.064309999 0.012081
0.12188 0.076498002 -0.057581
0.13016 0.057206001 -0.015647
0.13034 0.057645001 -0.015239
0.12902001 0.057096001 -0.015428
0.13937999 0.10521 -0.0019456
0.11468 0.077102996 0.039783999
0.13316999 0.078543998 -0.042854
0.13417 0.078185998 -0.042954002
0.13332 0.079054996 -0.043166999
0.13572 0.091087997 -0.038525
0.13676 0.063709997 -0.0079431999
0.1286 0.084301002 -0.0072301002
0.12898999 0.068916999 0.010851
0.12873 0.069242001 0.010506
0.12074 0.069609001 0.031089
0.13372999 0.065240003 -0.023453999
0.10115 0.069585003 0.046744
0.099777997 0.069076002 0.046985
0.099936001 0.069434002 0.047536999
0.058269002 0.062215999 0.066734001
0.058876999 0.061995 0.068732999
0.13446 0.075053997 -0.040126
0.13248 0.074161999 -0.039733998
0.12333 0.11383 -0.050980002
0.12532 0.11221 -0.052469
0.11556 0.085049003 0.017307
0.1065 0.10652 -0.0081829997
0.13246 0.097158998 -0.053066999
0.13183001 0.096536003 -0.053309001
0.13104001 0.1009 -0.0087318998
0.090797 0.042403001 0.058182001
0.061051 0.065794997 0.056219999
0.061083 0.065422997 0.056559999
0.1138 0.063519001 0.039549999
0.066032 0.050542001 0.046946
0.1508 0.035177 0.020445
0.15078001 0.034451 0.019661
0.1275 0.070821002 -0.059581999
0.10469 0.082126997 0.044450998
0.1058 0.080700003 0.043265998
0.096983999 0.038047001 -0.0020703999
0.096869998 0.037365999 -0.0024075001
0.13906001 0.064998001 0.0053567002
0.13764 0.063860998 0.0059906002
0.12966 0.069114 -0.027465001
0.10843 0.086567998 0.028422
0.12809999 0.081084996 -0.0057653999
0.026001999 0.035693999 0.047628
0.026892999 0.036286999 0.046000998
0.027542001 0.036006998 0.048285
0.082932003 0.042567 0.063782997
0.13607 0.093020998 -0.022337999
0.12343 0.10643 -0.024509
0.12301 0.10664 -0.025776999
0.12249 0.10636 -0.025266999
0.090265997 0.041335002 -0.019332999
0.090507001 0.041923001 -0.018166
0.15815 0.043710001 0.0049488
0.10279 0.11092 -0.0089397002
0.14451 0.059018999 0.0089721996
0.13665999 0.056446999 -0.0042888001
0.1337 0.05486 -0.0040445998
0.13379 0.055243999 -0.0058221999
0.10498 0.036841001 -0.017798999
0.10589 0.038924001 -0.017585
0.12273 0.068672001 0.032804001
0.11678 0.11512 -0.031913999
0.10595 0.079741001 0.045294002
0.054809 0.065867998 0.063630998
0.056379002 0.065773003 0.062456999
0.078459002 0.049996 0.074167997
0.077473998 0.052177001 0.072970003
0.13048001 0.107 -0.051001001
0.13523 0.077303 -0.033636
0.13722999 0.1103 -0.043313999
0.13556001 0.084049001 -0.030771
0.081431001 0.047152001 0.075029999
0.14949 0.053463001 0.021622
0.13123 0.11623 -0.055477999
0.087800004 0.034522999 -0.00027265001
0.099060997 0.038741998 -0.003733
0.093102999 0.036465 0.042776
0.092242002 0.036926001 0.042445
0.16249999 0.038839001 0.0063402001
0.16139001 0.040146001 0.0056658001
0.065926999 0.059531 0.066001996
0.074966997 0.055291001 0.070096999
0.17264999 0.034570999 -0.00422
0.17302001 0.034247 -0.0036541999
0.12987 0.10924 -0.06095
0.12871 0.10891 -0.062588997
0.1374 0.087630004 -0.022173
0.12757 0.11441 -0.053089999
0.12682 0.11398 -0.051419999
0.12710001 0.11508 -0.053128999
0.16326 0.037105002 -0.0085770003
0.1638 0.037312999 -0.0079731001
0.069738001 0.047766 0.061193001
0.067777999 0.048099998 0.060265999
0.068650998 0.046767 0.060926002
0.13461 0.10723 -0.040378001
0.12854999 0.063506998 -0.049010001
0.08382 0.083731003 0.048556998
0.083425 0.084099002 0.047878001
0.14543 0.056047998 0.0087783998
0.10788 0.068535998 0.044176001
0.074917004 0.033617999 0.075750001
0.075943001 0.034334999 0.076695003
0.10361 0.11659 -0.01119
0.12608001 0.055383001 0.026916999
0.12401 0.055755001 0.027667999
0.1287 0.077316999 -0.049745999
0.10086 0.070845 0.047718
0.14285 0.062298 0.012486
0.15536 0.046172999 0.013818
0.13096 0.063290998 -0.022464
0.13208 0.081846997 -0.013553
0.13139001 0.073354997 -0.065701
0.13187 0.072171003 -0.064342998
0.075842001 0.045049001 0.069546998
0.075134002 0.042908002 0.070869997
0.075066 0.045642 0.070643
0.071606003 0.048838999 0.060284
0.13170999 0.10017 -0.066234998
0.071952999 0.056127999 0.065537997
0.12929 0.047892999 0.0028547
0.15388 0.043497998 0.019043
0.10512 0.089475997 0.029061999
0.13654 0.10718 -0.014971
0.13707 0.1082 -0.015193
0.063920997 0.049904 0.038757
0.050271001 0.075928003 0.078043997
0.050694998 0.075511001 0.077033997
0.13294999 0.093153998 -0.04408
0.13253 0.092624001 -0.043347001
0.13093001 0.061205 -0.019145001
0.11387 0.085532002 0.013682
0.11379 0.085175 0.014507
0.13353001 0.10454 -0.039129
0.13155 0.10398 -0.037769001
0.12799001 0.091150001 -0.0083360001
0.12972 0.089920998 -0.006538
0.054455001 0.068286002 0.063083999
