# .PCD v0.7 - Point Cloud Data file format
VERSION 0.7
FIELDS x y z
SIZE 4 4 4
TYPE F F F
COUNT 1 1 1
WIDTH 1624
HEIGHT 1
VIEWPOINT 0 0 0 1 0 0 0
POINTS 1624
DATA ascii
0.21799 0.15545 0.12942
0.17377 0.12515999 0.11584
0.19939999 0.073022999 0.093782999
0.20088001 0.075204 0.091169998
0.20021001 0.072527997 0.094083004
0.19864 0.076016001 0.091811001
0.19825 0.077991001 0.090634003
0.19893 0.078718998 0.090204999
0.19949999 0.080412999 0.089511998
0.19891 0.080775 0.090177
0.19902 0.083774 0.091287002
0.19867 0.084049001 0.089711003
0.19864 0.086347997 0.092101999
0.19888 0.088528 0.089837
0.19862001 0.088036001 0.089619003
0.20031001 0.091077 0.088605002
0.19774 0.091003999 0.088399999
0.19841 0.094048001 0.089157
0.19915 0.093534 0.088745996
0.19922 0.094911002 0.090060003
0.19938999 0.096101001 0.090507999
0.19853 0.099482 0.091631003
0.19873001 0.10069 0.092527002
0.19823 0.10186 0.090572
0.19840001 0.102 0.091505997
0.19924 0.10475 0.09251
0.19986001 0.10475 0.092579998
0.19945 0.10724 0.094019003
0.20009001 0.10857 0.094880998
0.1996 0.10976 0.097653002
0.19881999 0.1108 0.096653
0.20017 0.11281 0.098142996
0.19941001 0.1137 0.098576002
0.15358 0.041453999 0.087915003
0.15329 0.043533001 0.088200003
0.15475 0.041405 0.087696001
0.14390001 0.042993002 0.092762999
0.14498 0.043675002 0.092638001
0.14531 0.041041002 0.091661997
0.13605 0.071199998 0.085776001
0.13917001 0.10522 0.097900003
0.13816001 0.10482 0.097678997
0.13911 0.10747 0.097770996
0.146 0.076541997 0.080797002
0.13839 0.10707 0.098084003
0.13992999 0.10735 0.096842997
0.13336 0.083685003 0.084045999
0.13341001 0.081805997 0.085490003
0.13233 0.081791997 0.085980996
0.13754 0.11854 0.10251
0.1417 0.065765999 0.083302997
0.14246 0.064404003 0.084159002
0.14199001 0.071084999 0.082576998
0.14104 0.072185002 0.084124997
0.12876999 0.10691 0.097907998
0.12851 0.10659 0.099533997
0.12833001 0.10595 0.099918999
0.14168 0.082731001 0.083567999
0.14382 0.086231001 0.082639001
0.14198001 0.051415998 0.085192002
0.14311001 0.052829999 0.084950998
0.23301999 0.10149 0.11996
0.23300999 0.098215997 0.11915
0.17206 0.15728 0.14193
0.17332999 0.15508001 0.14320999
0.17269 0.15526 0.14212
0.13799 0.072687 0.082644999
0.1374 0.094619997 0.085514002
0.14257 0.11651 0.10071
0.14128 0.11753 0.099643998
0.14572001 0.064971998 0.083889
0.14497 0.069774002 0.083926998
0.12854999 0.10631 0.098701
0.13056 0.1078 0.099127002
0.13462 0.11862 0.10376
0.13361 0.11604 0.10208
0.13489 0.11628 0.1028
0.15952 0.12882 0.12202
0.19939999 0.045001999 0.090196997
0.19859 0.044787999 0.089166999
0.19780999 0.041749001 0.088771001
0.19744 0.045224 0.091588996
0.18468 0.17490999 0.14104
0.19767 0.048804 0.095564
0.19829001 0.046654999 0.092237003
0.17478 0.12364 0.11441
0.17512 0.12376 0.11404
0.17279001 0.11666 0.1044
0.16404 0.16935 0.16033
0.16283 0.16671 0.15975
0.17707001 0.12209 0.11234
0.1778 0.12097 0.10929
0.17835 0.12145 0.10894
0.16468 0.16032 0.15013
0.167 0.15863 0.1478
0.16651 0.15843 0.14839999
0.19791999 0.076044001 0.090921
0.1982 0.072818004 0.093209997
0.19888 0.076186001 0.091770999
0.19766 0.078484997 0.091256
0.19778 0.079074003 0.090329997
0.19715001 0.079612002 0.089530997
0.19691999 0.081628002 0.089097999
0.19787 0.082966 0.090673
0.19781999 0.083724998 0.089529999
0.1978 0.087154001 0.089226998
0.19741 0.086915001 0.090028003
0.19786 0.089240998 0.088348001
0.19836 0.090414003 0.088969998
0.19771001 0.093488 0.089566
0.19709 0.092083 0.089887001
0.1992 0.093820997 0.090154
0.19785 0.09629 0.090892002
0.19741 0.097337 0.092097998
0.19780999 0.098903999 0.091132
0.19786 0.10032 0.090600997
0.19850001 0.10181 0.092137001
0.19678999 0.10417 0.093457997
0.19879 0.10395 0.092354
0.19851001 0.10625 0.093291
0.19864 0.10664 0.094361998
0.19791999 0.10967 0.095581003
0.19774 0.10924 0.096298002
0.19864 0.11064 0.098339997
0.19848999 0.11218 0.098435
0.19927999 0.11329 0.098238997
0.13841 0.074546002 0.084721997
0.1383 0.074391 0.083149999
0.19751 0.11305 0.098131001
0.19772001 0.11333 0.099804997
0.13946 0.11293 0.099625997
0.14124 0.077174 0.082345001
0.14064001 0.075005002 0.082437001
0.1418 0.093193002 0.084361002
0.14181 0.093525 0.085353002
0.14022 0.060401 0.083913997
0.14363 0.078938 0.083310999
0.14928 0.12252 0.10343
0.14893 0.12334 0.10295
0.14945 0.12093 0.10359
0.14154001 0.068668 0.083517998
0.14365999 0.093999997 0.085725002
0.14252 0.094850004 0.085097
0.14241999 0.053946 0.085631996
0.13423 0.11773 0.10351
0.13361 0.11984 0.10583
0.13421001 0.11978 0.10389
0.13511001 0.12065 0.10431
0.13395 0.12122 0.10584
0.13179 0.12026 0.10592
0.14325 0.089550003 0.082966998
0.14537001 0.095192 0.084494002
0.13115001 0.079530001 0.086278997
0.13087 0.081042998 0.086299002
0.13008 0.10509 0.097774997
0.14587 0.074960001 0.081127003
0.1601 0.12757 0.12148
0.19660001 0.041862998 0.088301003
0.19642 0.039191999 0.086965002
0.19592001 0.039960001 0.087442003
0.19757 0.042252999 0.087601997
0.19645 0.044627 0.087930001
0.19850001 0.045256998 0.091108002
0.19729 0.045536999 0.091090001
0.19823 0.041947 0.087444998
0.17964 0.1204 0.10831
0.17105 0.11846 0.10511
0.22364999 0.17467 0.17404
0.19836 0.072832003 0.093416996
0.19856 0.071841002 0.095057003
0.18344 0.035553001 0.094118997
0.18415 0.035259999 0.094380997
0.19757 0.074011996 0.093101002
0.19786 0.072420999 0.092986003
0.19746 0.076995 0.091707997
0.19708 0.077188 0.091256998
0.19729 0.079305001 0.090567999
0.19686 0.080953002 0.089786001
0.19724999 0.080646999 0.089475997
0.19705001 0.083498999 0.088613003
0.19691999 0.085033998 0.08783
0.19655 0.086657003 0.089828998
0.19645999 0.088123001 0.089846
0.19684 0.088446997 0.089645997
0.19679999 0.090686999 0.089429997
0.19668999 0.092398003 0.08901
0.19644 0.093557999 0.090020001
0.19548 0.094979003 0.090020001
0.19654 0.096280001 0.091311
0.19678999 0.098553002 0.091162004
0.19698 0.099501997 0.090539001
0.19752 0.10116 0.092643999
0.19698 0.10225 0.091316998
0.19769999 0.10312 0.093050003
0.19878 0.1049 0.092827998
0.19606 0.10572 0.094301
0.197 0.10732 0.094328001
0.19652 0.10862 0.095523998
0.19733 0.1102 0.097102001
0.19745 0.10984 0.097932003
0.19864 0.11578 0.097772002
0.13801999 0.058687001 0.085451998
0.14413001 0.059096999 0.084879003
0.13826001 0.057544999 0.085750997
0.14551 0.062451001 0.083604001
0.12756 0.10789 0.10158
0.12592 0.11484 0.10432
0.13939001 0.097553998 0.089305997
0.14571001 0.092738003 0.083439998
0.14656 0.094896004 0.083463997
0.13192999 0.071383998 0.086525001
0.13946 0.058908999 0.087453
0.13879 0.055293001 0.087070003
0.13267 0.099518001 0.093772002
0.14217 0.055128001 0.085353002
0.14099 0.056874 0.085780002
0.21083 0.045345001 0.12716
0.20731001 0.048114002 0.12778001
0.1708 0.15853 0.15005
0.23114 0.084909998 0.1137
0.23186 0.083502002 0.11561
0.23447999 0.14296 0.10881
0.23508 0.14327 0.10987
0.19385 0.13823999 0.12067
0.19367 0.13913999 0.12012
0.19333 0.13665999 0.12041
0.19623999 0.040778 0.088592
0.19521999 0.04267 0.089455999
0.19705001 0.045008998 0.090847999
0.21942 0.17231999 0.16737001
0.22129001 0.17353 0.16813
0.22028001 0.17263 0.16535001
0.22174001 0.17087001 0.16709
0.22157 0.17252 0.16444001
0.22084001 0.17265999 0.16579001
0.16873001 0.12096 0.10871
0.16817001 0.12236 0.11068
0.18901999 0.13102999 0.11663
0.18996 0.13263001 0.118
0.17408 0.16486 0.15305001
0.17344999 0.16487999 0.1538
0.19539 0.073261 0.093346
0.19544999 0.074946001 0.092644997
0.19606 0.076448999 0.092390999
0.19576 0.077352002 0.091417
0.19645 0.078458004 0.090847999
0.19497 0.080847003 0.089388996
0.19631 0.082516998 0.090232
0.19602001 0.084386997 0.089954004
0.19456001 0.083778001 0.089201003
0.19585 0.086392999 0.089382999
0.19537 0.087100998 0.088747002
0.19632 0.089432999 0.090777002
0.19569001 0.090543002 0.089382999
0.19459 0.092846997 0.089385003
0.19532999 0.093781002 0.090580001
0.19551 0.094888002 0.091045
0.19611 0.095340997 0.090636998
0.19464999 0.098531999 0.091528997
0.19653 0.099916004 0.091476999
0.19641 0.10003 0.092710003
0.19449 0.10072 0.092442997
0.19615 0.10347 0.093349002
0.19569001 0.10362 0.093199998
0.19543 0.10539 0.093346
0.19661 0.1064 0.095023997
0.19667999 0.10796 0.095129997
0.19678 0.11014 0.096920997
0.19715001 0.11138 0.098700002
0.19655 0.11283 0.098803997
0.19688 0.11387 0.099900998
0.19693001 0.11202 0.097705998
0.19591001 0.11373 0.10119
0.14455999 0.075669996 0.081956998
0.14449 0.082015999 0.080812
0.14515001 0.080303997 0.083642997
0.14185999 0.11049 0.097268999
0.13039 0.057702001 0.089596003
0.13208 0.056393001 0.088621996
0.1488 0.11323 0.097629003
0.12715 0.11485 0.10417
0.14238 0.052643001 0.085573003
0.13714001 0.073229 0.084025003
0.13044 0.072465003 0.086301997
0.12425 0.10626 0.099560998
0.1238 0.10622 0.10006
0.12466 0.10948 0.10221
0.14613999 0.11063 0.097098999
0.14859 0.11217 0.096927002
0.14872999 0.11016 0.095524997
0.19410001 0.13988 0.12093
0.22039001 0.14723 0.092442997
0.10728 0.10856 0.12002
0.10578 0.10786 0.12073
0.10732 0.10896 0.12079
0.1235 0.10234 0.096164003
0.12135 0.10225 0.097446002
0.12324 0.10322 0.098329
0.19557001 0.042569 0.087585002
0.19743 0.040468998 0.088023998
0.19411001 0.040809002 0.088632002
0.19438 0.042326 0.088954002
0.19494 0.044890001 0.089979
0.14575 0.098514996 0.088367999
0.14658999 0.097815 0.086075
0.19493 0.045724001 0.094392002
0.19706 0.048593 0.094663002
0.19346 0.1346 0.10668
0.19225 0.13372 0.10703
0.21682 0.15457 0.12479
0.21679001 0.15584999 0.12407
0.21565001 0.15508001 0.12475
0.22028001 0.18194 0.18798
0.21829 0.18006 0.18671
0.21836001 0.15584999 0.11887
0.22206999 0.17795999 0.18043999
0.1496 0.058254 0.084867001
0.15105 0.06013 0.084082
0.15126 0.058509 0.084748998
0.20358001 0.15603 0.11566
0.17030001 0.038307998 0.086042002
0.1719 0.039211001 0.086124003
0.16978 0.036866002 0.084216997
0.16901 0.038254999 0.083677001
0.17659 0.1671 0.1533
0.19603001 0.072999999 0.094099998
0.19481 0.072425999 0.093537003
0.19459 0.075411998 0.092878997
0.19538 0.076430999 0.092073001
0.1935 0.077440999 0.091812
0.19606 0.078318 0.08952
0.19514 0.080687001 0.090400003
0.19401 0.08275 0.089750998
0.19526 0.083769001 0.090939
0.19301 0.084913999 0.088959999
0.19515 0.086337 0.088872001
0.19412 0.087572001 0.091222003
0.19644 0.088547997 0.088923998
0.19618 0.090605997 0.090416998
0.19417 0.092532001 0.090737998
0.19415 0.092653997 0.089555003
0.19374 0.095505998 0.090031996
0.19609 0.09663 0.090496004
0.19569001 0.096825004 0.091712996
0.19609 0.099664003 0.092658997
0.19603001 0.1008 0.092574
0.19546001 0.10144 0.093814999
0.19490001 0.10278 0.093016997
0.19583 0.10376 0.093783997
0.19518 0.10657 0.094176002
0.19542 0.10806 0.094336003
0.19442999 0.10814 0.095333003
0.19608 0.11031 0.096509002
0.19533999 0.11016 0.097795002
0.19574 0.11538 0.099936999
0.19745 0.1153 0.099454999
0.14601 0.088242002 0.082635999
0.14196 0.075797997 0.081234001
0.14383 0.077060997 0.081918001
0.14353 0.067849003 0.083714999
0.13984001 0.078381002 0.082612999
0.14895 0.10396 0.095284
0.14879 0.11709 0.10068
0.14812 0.11662 0.099091001
0.14261 0.071866997 0.082225002
0.19528 0.14402001 0.12257
0.19568001 0.14419 0.12134
0.19516 0.14131001 0.11986
0.14941999 0.11849 0.10116
0.12577 0.11328 0.1032
0.14568 0.062498 0.084354997
0.13262001 0.085401997 0.084836997
0.14298999 0.067817003 0.084739998
0.13179 0.074688002 0.085225999
0.12402 0.10401 0.096794002
0.12524 0.10438 0.096242003
0.12364 0.10853 0.10196
0.12417 0.10866 0.10243
0.12511 0.10896 0.10277
0.14144 0.1205 0.10379
0.13926999 0.063538 0.083013996
0.18853 0.14812 0.13226999
0.1864 0.14993 0.13253
0.13548 0.10645 0.098875001
0.19336 0.042040002 0.088840999
0.19334 0.043042999 0.089671001
0.19416 0.042959001 0.088781998
0.193 0.046461999 0.092564002
0.19465999 0.048530001 0.097079001
0.20456 0.15654001 0.10908
0.20272 0.15662 0.10878
0.10733 0.1102 0.1217
0.16211 0.12869 0.12247
0.16084 0.12745 0.12108
0.19429 0.064015001 0.10092
0.1945 0.064547002 0.1004
0.20924 0.078052998 0.091718003
0.17621 0.16306999 0.153
0.17517 0.1629 0.15226001
0.19414 0.075993001 0.092023
0.19453999 0.075963996 0.091444001
0.19352999 0.078446999 0.091551997
0.19441 0.078420997 0.091715001
0.19332001 0.080839999 0.090084001
0.19425 0.082795002 0.090051003
0.19339 0.082725003 0.091224
0.19311 0.085382 0.090983003
0.19417 0.087803997 0.090097003
0.19419999 0.087573998 0.089626998
0.19362 0.088551998 0.089335002
0.19391 0.090202004 0.090044998
0.1944 0.091224998 0.090072997
0.19417 0.092789002 0.090641998
0.19422001 0.094792999 0.090715997
0.19436 0.095100001 0.091793999
0.19405 0.098255999 0.092285998
0.1927 0.098655999 0.091531999
0.19427 0.10028 0.093074001
0.19471 0.10126 0.092431001
0.19461 0.10422 0.093032002
0.1935 0.10484 0.094655998
0.19483 0.10499 0.093758002
0.1939 0.10734 0.094704002
0.19441999 0.10895 0.095080003
0.19524001 0.10911 0.096793003
0.19447 0.11048 0.097237997
0.1945 0.11241 0.098100998
0.19563 0.11394 0.099252999
0.13763 0.062258001 0.083453
0.13684 0.071969002 0.084356003
0.1418 0.12376 0.10629
0.13778999 0.063267998 0.083311997
0.1258 0.1113 0.10361
0.18612 0.15000001 0.13508999
0.18774 0.14759 0.13488001
0.12706 0.10901 0.10176
0.12620001 0.1058 0.098352998
0.12638 0.10619 0.10048
0.12651999 0.10439 0.097857997
0.12178 0.10949 0.10314
0.12147 0.11006 0.10416
0.12154 0.11133 0.10466
0.13923 0.056655001 0.086778
0.14015999 0.054499999 0.085736997
0.12537 0.10672 0.099714004
0.12477 0.10393 0.09753
0.17539001 0.16809 0.15497001
0.13754 0.081601001 0.083870001
0.1392 0.082777001 0.084090002
0.13652 0.079934999 0.083315998
0.13689999 0.082792997 0.083871998
0.13895001 0.064861 0.083463997
0.13984001 0.066201001 0.083973996
0.12633 0.104 0.096732996
0.21308 0.17257001 0.18903001
0.21371 0.17312001 0.18886
0.21346 0.17204 0.18707
0.19239999 0.13593 0.12064
0.19068 0.13638 0.12145
0.21360999 0.17203 0.18756001
0.20618001 0.044695999 0.10377
0.20577 0.045736998 0.10355
0.19454999 0.13912 0.12604
0.18566 0.14875001 0.13384999
0.13422 0.11836 0.10419
0.13158 0.10759 0.10083
0.13077 0.10856 0.10011
0.13801 0.086898997 0.084357001
0.13827001 0.087811001 0.083801001
0.13605 0.089045003 0.084633
0.1365 0.090857998 0.085102998
0.19416 0.045929998 0.089955002
0.19400001 0.045860998 0.090423003
0.11973 0.10764 0.10343
0.11959 0.10744 0.10255
0.12183 0.10678 0.10265
0.19329 0.044835001 0.092340998
0.19288 0.046503 0.093120001
0.13023999 0.11953 0.10529
0.19287001 0.048707999 0.095219001
0.19237 0.048721001 0.096184999
0.21626 0.17130999 0.17669
0.2168 0.17276999 0.17550001
0.21709 0.17111 0.1743
0.21834999 0.17242 0.17228
0.235 0.14607 0.10823
0.23492999 0.14439 0.10988
0.16161001 0.12717 0.11963
0.12076 0.12001 0.11026
0.12221 0.11961 0.10887
0.121 0.11888 0.11038
0.23537 0.14557999 0.10841
0.23495001 0.14648999 0.10918
0.19278 0.063633002 0.1002
0.16286001 0.16079 0.14793999
0.16356 0.15913001 0.14885999
0.19315 0.075767003 0.092257999
0.19420999 0.075834997 0.091723002
0.19365001 0.077698 0.091146
0.19284 0.079607002 0.090952002
0.19343001 0.081216998 0.090176001
0.19472 0.082855999 0.089823999
0.19234 0.083149001 0.089762002
0.19381 0.085022002 0.090190999
0.19391 0.085749999 0.089259997
0.19307999 0.087788001 0.090117
0.19446 0.088293999 0.089901
0.1926 0.089821003 0.090796001
0.19422001 0.093020998 0.091067001
0.19341999 0.093786001 0.09121
0.19292 0.093855999 0.091454998
0.19295 0.094682001 0.090425998
0.19371 0.096859001 0.089965999
0.19284 0.098829001 0.091255002
0.19348 0.10103 0.092119999
0.1934 0.10082 0.093929
0.19356 0.10281 0.092804
0.192 0.10392 0.094108999
0.19414 0.10516 0.095505998
0.19437 0.10624 0.095716
0.19406 0.10797 0.096023001
0.19503 0.10983 0.095816001
0.19449 0.11099 0.098968998
0.19403 0.11338 0.098089002
0.19382 0.11323 0.10038
0.19369 0.049412001 0.099514
0.16313 0.16677999 0.15769
0.14639001 0.073201999 0.082225002
0.13710999 0.061957002 0.084306002
0.18488 0.15057001 0.13343
0.13224 0.11781 0.10337
0.13124 0.11673 0.10399
0.12709001 0.10739 0.10083
0.14076 0.11638 0.10026
0.14155 0.11666 0.10213
0.12132 0.10787 0.10209
0.1205 0.10905 0.10369
0.13872001 0.055888001 0.085810997
0.13772 0.089846998 0.085577004
0.13541 0.073255002 0.084243998
0.13987 0.10048 0.094568998
0.13945 0.10015 0.095450997
0.14124 0.10227 0.095963001
0.13784 0.11256 0.099862002
0.13627 0.1112 0.098682001
0.1327 0.077426001 0.086494997
0.14089 0.11106 0.099339001
0.14061999 0.11219 0.098705001
0.13131 0.11164 0.10126
0.13183001 0.11194 0.10201
0.12474 0.10134 0.095654003
0.19831 0.15787999 0.1252
0.19704001 0.1587 0.12513
0.19593 0.15625 0.12467
0.19757999 0.15962 0.12579
0.18970001 0.14561 0.13398001
0.20965999 0.15563001 0.15008
0.2102 0.15471999 0.15113001
0.21085 0.15350001 0.15051
0.13038 0.078130998 0.086066999
0.19115999 0.044204999 0.091086
0.19264001 0.044466 0.092298001
0.19298001 0.043296002 0.089587003
0.19131 0.046436999 0.093579002
0.21436 0.097372003 0.091271996
0.19242001 0.050328001 0.098553002
0.19242001 0.051293001 0.097338997
0.2067 0.14954001 0.094912
0.20832001 0.14820001 0.093648002
0.20591 0.14792 0.094709001
0.16139001 0.12761 0.12339
0.16368 0.12449 0.11587
0.16471 0.12747 0.11789
0.16358 0.12687001 0.11898
0.18265 0.15214001 0.1399
0.18131 0.15197 0.14154001
0.18117 0.15176 0.14037
0.16084 0.17228 0.16458
0.19174001 0.072925001 0.094163999
0.19231001 0.074339002 0.092547998
0.19141001 0.076742001 0.091912001
0.19279 0.077861004 0.090278
0.19201 0.079791002 0.090488002
0.1926 0.080018997 0.091035001
0.19216999 0.082310997 0.090432003
0.19192 0.082427002 0.089984
0.19273999 0.084316 0.090824999
0.19144 0.087517999 0.088483997
0.19215 0.087406002 0.089267999
0.19135 0.087967001 0.089979999
0.19172999 0.091091 0.090857998
0.19194999 0.091241002 0.091311999
0.19235 0.092464 0.090577997
0.19101 0.094903 0.091179997
0.19159999 0.095858 0.090628996
0.19234 0.096671999 0.090650998
0.19021 0.098412998 0.091691002
0.19097 0.10023 0.092904001
0.19135 0.10159 0.093281999
0.19209 0.10159 0.093212001
0.1927 0.10528 0.094567999
0.19323 0.10524 0.094673999
0.19196001 0.10655 0.096363001
0.19337 0.10749 0.09663
0.19236 0.10974 0.096243002
0.19329 0.11085 0.099574998
0.19296999 0.11256 0.098911002
0.19219001 0.11375 0.10007
0.19042 0.11589 0.10217
0.19324 0.11498 0.10259
0.19277 0.11445 0.10189
0.13662 0.11496 0.1008
0.14198001 0.10504 0.095586002
0.14407 0.10226 0.096704997
0.13908 0.099573001 0.092551999
0.13934 0.088711999 0.084590003
0.13877 0.087035999 0.083570004
0.13853 0.086615004 0.083878003
0.13922 0.090019003 0.084536001
0.14424001 0.10986 0.096529
0.14529 0.1172 0.10056
0.14723 0.1229 0.10602
0.13657001 0.085211001 0.084114999
0.13704 0.086313002 0.084120996
0.14534 0.093826003 0.084399
0.14929 0.10776 0.095175996
0.14826 0.11381 0.098311998
0.13248 0.11596 0.10359
0.13212 0.11565 0.10361
0.13161001 0.11485 0.10286
0.13524 0.080908999 0.083942004
0.13204999 0.11336 0.10299
0.12876999 0.11484 0.10398
0.19586 0.15395001 0.12378
0.19564 0.155 0.12471
0.19495 0.15727 0.12508
0.19126999 0.11813 0.10504
0.18935999 0.11792 0.10478
0.19028001 0.11987 0.10663
0.13762 0.11049 0.098402999
0.21132 0.080045 0.092363998
0.21280999 0.079288997 0.093304001
0.21073 0.079258002 0.091964997
0.19204 0.044255 0.090802997
0.1919 0.045743 0.091480002
0.19202 0.041774999 0.091054
0.19119 0.042881999 0.091908999
0.19039001 0.045692999 0.095091
0.19137999 0.047722999 0.095927
0.19055 0.049031001 0.098022997
0.19307999 0.048953999 0.099221997
0.16055 0.12808 0.12428
0.19163001 0.051729001 0.099391997
0.19140001 0.053952999 0.098434001
0.19109 0.054228999 0.10006
0.17549001 0.1248 0.12969001
0.17448001 0.12435 0.12648
0.17332999 0.12522 0.12895
0.21515 0.15647 0.10596
0.21718 0.15448999 0.10603
0.21965 0.15198 0.096883997
0.21686 0.15699001 0.11095
0.21552999 0.15575001 0.10961
0.23555 0.12322 0.097172
0.23643 0.12367 0.098819003
0.21637 0.16987 0.17466
0.19163001 0.063647002 0.10051
0.19205 0.064851001 0.099547997
0.19137 0.075413004 0.093537003
0.21851 0.035197999 0.12622
0.21765 0.036617 0.12699001
0.21841 0.035007998 0.12811001
0.18990999 0.077321999 0.090746
0.19069999 0.077767998 0.091224998
0.19038001 0.080064997 0.091817997
0.19137 0.080564 0.091352999
0.19059999 0.081073001 0.091292001
0.19133 0.082613997 0.089587003
0.19221 0.085422002 0.089870997
0.19005001 0.086168997 0.089060001
0.19115999 0.089203998 0.089653999
0.1901 0.088697001 0.089437
0.19056 0.090777002 0.090443999
0.19192 0.092736997 0.090980001
0.19103 0.092891999 0.091819003
0.19148999 0.094963998 0.090576999
0.19204 0.095806003 0.090079002
0.19081999 0.096914999 0.091407999
0.19197001 0.099238999 0.091215
0.19182999 0.10062 0.092455
0.18985 0.10108 0.093183003
0.19202 0.10304 0.093303002
0.19023 0.10436 0.093990996
0.1934 0.10674 0.094841003
0.19132 0.10735 0.096184999
0.19185001 0.10822 0.096000999
0.19092999 0.11131 0.096956998
0.19114999 0.11093 0.098315999
0.19198 0.11265 0.099154003
0.19214 0.11395 0.099578001
0.16263001 0.12261 0.10871
0.16188 0.12077 0.10674
0.12335 0.1121 0.10494
0.12399 0.1108 0.10331
0.14019001 0.11447 0.099614002
0.14052001 0.10903 0.097622998
0.14393 0.11591 0.099597
0.14595 0.11379 0.099872001
0.22363999 0.073620997 0.11432
0.22506 0.071981996 0.11522
0.1212 0.11335 0.1046
0.12104 0.11223 0.1051
0.19402 0.15346 0.12419
0.19344001 0.15475 0.12548999
0.19410001 0.15369 0.12355
0.19547001 0.15648 0.12523
0.1953 0.15775 0.12538999
0.19332001 0.15937001 0.12662999
0.19357 0.16114999 0.12737
0.14892 0.044371001 0.092050001
0.14821 0.041437998 0.091320001
0.13214 0.090466 0.087503999
0.14144 0.12326 0.10605
0.19059999 0.044142 0.091571003
0.18968 0.045198001 0.093042001
0.19058 0.047189001 0.093578003
0.19022 0.047634002 0.097162001
0.19025999 0.048287001 0.097029999
0.18971001 0.049812 0.097035997
0.19148 0.051061999 0.098866999
0.16901 0.051245 0.095625997
0.16639 0.051274002 0.096831001
0.16828001 0.053149 0.099064998
0.23453 0.14830001 0.10909
0.23419 0.14697 0.10944
0.23498 0.12718999 0.099134997
0.23411 0.1267 0.098144002
0.2341 0.1277 0.099078
0.21844 0.16850001 0.15666001
0.21744999 0.16844 0.15733001
0.19098 0.072632998 0.093615003
0.18972 0.074546002 0.092179999
0.19007 0.072559997 0.093639001
0.18931 0.076958001 0.093130998
0.18979999 0.077229001 0.091721997
0.19073001 0.079893 0.090088002
0.18867999 0.080081001 0.090561002
0.18983001 0.081459999 0.090620004
0.19041 0.082942002 0.089762002
0.19095001 0.085115999 0.090274997
0.18968 0.086066 0.089841999
0.18963 0.088335998 0.088597
0.1893 0.088845998 0.090365998
0.19016001 0.089401998 0.090016
0.1902 0.090700999 0.091810003
0.19036999 0.092605002 0.092010997
0.18957999 0.094626002 0.090531997
0.19035 0.096542001 0.090852998
0.18893 0.097341999 0.092063002
0.18978 0.098883003 0.091959998
0.19004001 0.10008 0.092113003
0.19052 0.10074 0.093061998
0.19072001 0.10277 0.094667003
0.18995 0.10395 0.094912
0.18927 0.10691 0.095343001
0.19009 0.10603 0.095885001
0.19185001 0.11003 0.096509002
0.19068 0.11108 0.096721001
0.18994001 0.11185 0.099680997
0.19079 0.11138 0.10019
0.19083001 0.1137 0.099799998
0.19119 0.11541 0.10334
0.19174001 0.11663 0.10231
0.19243 0.11627 0.10286
0.20084 0.11602 0.095886998
0.20235001 0.11531 0.096445002
0.2353 0.14825 0.10747
0.23517001 0.14901 0.11007
0.12276 0.11276 0.10544
0.14038999 0.11973 0.10229
0.21313 0.16902 0.18956
0.21353 0.16940001 0.18903001
0.13106 0.080270998 0.085951
0.13713001 0.079008996 0.085722998
0.14598 0.083600998 0.082783997
0.19436 0.15598001 0.12509
0.19317 0.15774 0.12637
0.19324 0.15848 0.12679
0.19351 0.16208 0.12796
0.23316 0.15133999 0.10908
0.23284 0.14977001 0.11057
0.21538 0.17403001 0.18698999
0.21426 0.17219 0.18625
0.19034 0.042411 0.090511002
0.18835001 0.042970002 0.092109002
0.18856999 0.044149999 0.091412
0.19005001 0.042475 0.091053002
0.18975 0.044544999 0.092142001
0.18948001 0.046452001 0.093089998
0.18987 0.048069999 0.096446998
0.18941 0.048886999 0.097214997
0.18946999 0.050730001 0.097805001
0.18942 0.052267 0.097731002
0.18989 0.053564999 0.099053003
0.19051 0.055094998 0.097498
0.19068 0.053943999 0.098578997
0.21866 0.16746999 0.15588
0.13945 0.13143 0.12249
0.1376 0.13175 0.12381
0.18844999 0.072175004 0.095399998
0.18994001 0.073647998 0.093842998
0.19 0.075287998 0.091683999
0.19021 0.076537997 0.092506997
0.18881001 0.077579997 0.091718003
0.18794 0.079195999 0.092941001
0.18856999 0.081949003 0.091600999
0.18765999 0.082039997 0.092058003
0.18919 0.08292 0.091784
0.18939 0.084783003 0.089681
0.18896 0.086585 0.090090998
0.18858001 0.088123001 0.089731
0.18954 0.090166003 0.092090003
0.18935999 0.089353003 0.090336002
0.18852 0.091734998 0.091472
0.1892 0.092822999 0.091311999
0.18926001 0.093589999 0.09042
0.18912999 0.095709004 0.090885997
0.18983001 0.097588003 0.092229001
0.18911999 0.099633999 0.093019001
0.18976 0.099307001 0.092676997
0.18903001 0.10098 0.093280002
0.18839 0.10367 0.094607003
0.18894 0.10329 0.094476998
0.18953 0.10564 0.095091999
0.19023 0.1075 0.095904998
0.18952 0.10803 0.097053997
0.18986 0.11001 0.096680999
0.18965 0.10951 0.097554997
0.18917 0.11258 0.099376
0.18976 0.11454 0.10104
0.19047999 0.11536 0.1023
0.19043 0.11763 0.10407
0.23517001 0.14658 0.11047
0.23567 0.14651 0.11202
0.13919 0.10268 0.096317999
0.13807 0.084843002 0.082966998
0.13314 0.096501999 0.091838002
0.13256 0.094433002 0.089810997
0.14374 0.093027003 0.083515003
0.11763 0.10959 0.10639
0.11884 0.11176 0.10604
0.1194 0.10998 0.10473
0.12474 0.11152 0.10371
0.13638 0.091714002 0.085772999
0.13907 0.081518002 0.084362
0.23325001 0.13884 0.098765001
0.19310001 0.15511 0.12571
0.19325 0.15733001 0.12689
0.19289 0.16082001 0.12826
0.19242001 0.16065 0.12845001
0.19365001 0.16483 0.13093001
0.19337 0.16417 0.1301
0.16823 0.16496 0.15535
0.16863 0.16712999 0.15701
0.18877 0.040789001 0.090162002
0.19019 0.041960999 0.090677001
0.18779001 0.041919999 0.091839999
0.18752 0.04473 0.092661999
0.18880001 0.045311999 0.094315
0.18832 0.047529999 0.094365999
0.18941 0.048133001 0.095032997
0.18774 0.049890999 0.096805997
0.18802001 0.050673001 0.097299002
0.18901999 0.051904999 0.098282002
0.18694 0.052366 0.098278999
0.18753 0.05367 0.096633002
0.13978 0.13041 0.12095
0.21866 0.16685 0.15341
0.13583 0.13188 0.13517
0.21889 0.12294 0.079466
0.13718 0.13000999 0.13336
0.1886 0.071551003 0.094190001
0.18788999 0.072752997 0.093851
0.18967 0.075305 0.092958003
0.1882 0.074547 0.092349999
0.18862 0.078096002 0.092630997
0.18678001 0.079248004 0.092278004
0.18817 0.079727001 0.091926999
0.18815 0.082278997 0.091741003
0.18764 0.084035002 0.092122003
0.18686999 0.085975997 0.089208998
0.18806 0.086533003 0.089616001
0.18796 0.087214999 0.089695998
0.18723001 0.088858999 0.089979999
0.18871 0.090245001 0.091160998
0.18720999 0.091996998 0.093500003
0.18729 0.093681999 0.091959
0.18835001 0.094667003 0.092152998
0.18647 0.095307998 0.092389002
0.1877 0.096754998 0.092497997
0.18776999 0.098609 0.092674002
0.1885 0.10074 0.093084998
0.1892 0.1012 0.093759
0.18743999 0.1034 0.09409
0.18802001 0.1039 0.095069997
0.18829 0.10616 0.094699003
0.18937001 0.10717 0.095776998
0.18921 0.10741 0.095971003
0.18889 0.11062 0.096675001
0.18906 0.11079 0.098279998
0.18904001 0.11188 0.099133
0.18885 0.1132 0.10037
0.18869001 0.11587 0.10331
0.18888 0.11627 0.10291
0.19821 0.1473 0.10677
0.19763 0.14896999 0.10848
0.19682001 0.14869 0.10729
0.15964 0.18106 0.16664
0.16001999 0.18054999 0.16793001
0.1601 0.18087 0.16833
0.17779 0.15475 0.14004
0.17914 0.15374 0.14182
0.17771 0.15451001 0.14262
0.12314 0.1038 0.098099001
0.125 0.10633 0.098860003
0.19735999 0.14786001 0.10627
0.19735999 0.14669 0.10641
0.14376999 0.10843 0.097337998
0.15037 0.10479 0.095421001
0.1497 0.1032 0.096285
0.14481001 0.11268 0.098985001
0.13721 0.066021003 0.083961003
0.12437 0.11479 0.10481
0.12481 0.11704 0.10652
0.19177 0.15952 0.12746
0.19119 0.16056 0.12909
0.19158 0.16254 0.12797999
0.19108 0.16448 0.12946001
0.23152 0.084519997 0.11692
0.23127 0.086104997 0.11705
0.13001999 0.098172002 0.093125001
0.18795 0.041675001 0.09093
0.18769 0.041905999 0.093126997
0.18727 0.044264998 0.091879003
0.18801001 0.045759998 0.093523003
0.18791001 0.046785001 0.094575003
0.18739 0.046975002 0.095486999
0.18550999 0.049943 0.094433002
0.18838 0.050175 0.09747
0.18787 0.051690001 0.097978003
0.2199 0.16801 0.15369
0.18652 0.068154 0.095445998
0.18686 0.069041997 0.094079003
0.18873 0.070169002 0.093849003
0.19259 0.036527 0.089388996
0.19329 0.035845 0.088909
0.19220001 0.036738999 0.088728003
0.18775 0.070142999 0.094759002
0.18719 0.071883999 0.094249003
0.18718 0.072883002 0.093817003
0.18671 0.076220997 0.093725003
0.18798999 0.076507002 0.093494996
0.18752 0.078635 0.092867002
0.18771 0.079466999 0.092347004
0.18646 0.079654001 0.092513002
0.18624 0.082823001 0.092357002
0.18604 0.083866999 0.091601998
0.18742 0.084504001 0.090712003
0.18692 0.086621001 0.091406003
0.1856 0.087769002 0.091659002
0.18719 0.089344002 0.092711002
0.18784 0.089977004 0.091542996
0.18745001 0.091753997 0.092745997
0.18516999 0.092637002 0.091741003
0.1875 0.094116002 0.092246003
0.18677001 0.095640004 0.091604002
0.18708999 0.097115003 0.092053004
0.18853 0.098275997 0.093321003
0.18769 0.10049 0.093171
0.18647 0.10224 0.092234999
0.18664999 0.10321 0.093613997
0.18736 0.10481 0.093953997
0.18746001 0.10543 0.093841001
0.18682 0.10689 0.094994999
0.18835001 0.10857 0.096037
0.18805 0.11034 0.096946999
0.18762 0.11057 0.099109001
0.18783 0.11294 0.099040002
0.18863 0.11346 0.10049
0.18784 0.11591 0.10062
0.18816 0.11728 0.10254
0.1884 0.11854 0.10511
0.18999 0.12085 0.1083
0.12512 0.1076 0.10074
0.13844 0.061331999 0.085061997
0.13876 0.061152 0.084406003
0.13293 0.10695 0.10101
0.13781001 0.059801999 0.084665
0.14351 0.11941 0.10162
0.13254 0.099146001 0.091733001
0.16453999 0.16475999 0.15806
0.16309001 0.16486999 0.15705
0.16479 0.16346 0.15626
0.13458 0.084568001 0.084692001
0.13744 0.12012 0.10481
0.16140001 0.16883001 0.16394
0.16072001 0.16938999 0.16299
0.16208 0.16934 0.16382
0.12325 0.10857 0.10275
0.19185001 0.15815 0.12744001
0.19214 0.15921 0.1276
0.19174001 0.15903001 0.12672
0.19147 0.16144 0.12885
0.19113 0.16152 0.12905
0.19007 0.16277 0.12963
0.23385 0.15023001 0.11805
0.23407 0.14882 0.11994
0.23424 0.14755 0.11834
0.1618 0.16146 0.15096
0.16358 0.16181 0.15117
0.16225 0.16191 0.15205
0.12588 0.1088 0.10223
0.13141 0.074988 0.085343003
0.13235 0.075597003 0.086126998
0.13946 0.12118 0.10423
0.18542001 0.041365001 0.091216996
0.18754999 0.041869 0.094131
0.18598001 0.043327998 0.093759
0.18564001 0.044487 0.094789997
0.18704 0.045722999 0.094973996
0.18672 0.047245 0.095710002
0.1874 0.049353998 0.097310998
0.18625 0.050206002 0.096914001
0.18658 0.051800001 0.096395001
0.18584999 0.053771999 0.097024001
0.18625 0.05412 0.096911997
0.18749 0.053440999 0.097186998
0.12247 0.10541 0.10047
0.12202 0.1062 0.10187
0.12247 0.10768 0.10194
0.18835001 0.067005001 0.096790001
0.16052 0.075608 0.083158001
0.16075 0.075199001 0.084044002
0.16141 0.07305 0.084256001
0.18547 0.068902999 0.093817003
0.18715 0.068875998 0.093636997
0.18636 0.073059 0.093413003
0.18622001 0.073211998 0.093105003
0.18553001 0.074116997 0.092499003
0.18625 0.076516002 0.093990996
0.18653999 0.078331001 0.093354002
0.18564001 0.079145998 0.093603
0.18529999 0.080544002 0.093309
0.18645 0.082383998 0.092556998
0.18593 0.083659001 0.092491001
0.18674999 0.084303997 0.092102997
0.18579 0.085869998 0.091968
0.18648 0.087038003 0.092219003
0.18618 0.088699996 0.092556998
0.18546 0.090756997 0.092678003
0.18644001 0.092433996 0.092266001
0.18498001 0.093606003 0.092188999
0.1855 0.094818003 0.092409998
0.18581 0.096229002 0.093696997
0.18711001 0.097291999 0.093324997
0.18605 0.097970001 0.092151999
0.18646 0.10057 0.094176002
0.18664999 0.10252 0.093093999
0.18609001 0.10298 0.093694001
0.1868 0.10519 0.093463004
0.18464001 0.10627 0.094428003
0.18634 0.10621 0.094747998
0.18731 0.10708 0.095345996
0.18707 0.10965 0.096151002
0.1873 0.11112 0.098258004
0.18657 0.1119 0.099354997
0.18757001 0.11426 0.1011
0.1866 0.11488 0.102
0.18768001 0.11728 0.10333
0.18809 0.11709 0.10405
0.19422001 0.14534 0.12755001
0.153 0.12503 0.10926
0.13189 0.11668 0.10253
0.12515 0.10953 0.10147
0.14357001 0.097526997 0.086654
0.18951 0.15988 0.12976
0.18991999 0.16144 0.12959
0.19028001 0.16377001 0.13095
0.16477001 0.18403 0.15924001
0.16395 0.18398 0.16085
0.18973 0.16653 0.13158
0.23681 0.14703999 0.11303
0.23469 0.14717001 0.11335
0.23321 0.088273004 0.11287
0.23257001 0.090724997 0.11317
0.23229 0.089052998 0.11396
0.22866 0.079705998 0.11603
0.14416 0.1028 0.095591001
0.14417 0.10429 0.096437
0.19215 0.11987 0.10608
0.19034 0.11964 0.10661
0.18567 0.043733999 0.09223
0.18604 0.045001999 0.095564999
0.18538 0.042362999 0.093075998
0.18519001 0.045318998 0.095264003
0.18729 0.047956999 0.095044002
0.18491 0.049091 0.095894001
0.18558 0.050547 0.096634999
0.18537 0.052113999 0.096299998
0.18515 0.054910999 0.096628003
0.18742 0.054584999 0.097035997
0.18739 0.054710001 0.097030997
0.18652999 0.055640001 0.096911997
0.18486001 0.056141 0.09488
0.18497001 0.057456002 0.095707998
0.18513 0.069174998 0.093889996
0.18602 0.069358997 0.094306
0.15922999 0.074444003 0.084528998
0.15892 0.073780999 0.082649
0.18481 0.070294 0.094035998
0.18471999 0.073009998 0.093639001
0.1846 0.074368998 0.093145996
0.18701001 0.075701997 0.093258999
0.18512 0.076508 0.092660002
0.18419001 0.076926999 0.093281999
0.18481 0.078488 0.094261996
0.18633001 0.080287002 0.094692998
0.18437999 0.080889001 0.092747003
0.18440001 0.082257003 0.093378998
0.18609001 0.084871002 0.092000999
0.18627 0.086153001 0.093672998
0.18458 0.086470999 0.091775
0.1848 0.087808996 0.093267001
0.18477 0.089837 0.093621001
0.18513 0.093161002 0.092733003
0.18522 0.093433 0.092827998
0.18664999 0.094953001 0.093419999
0.18464001 0.096244 0.093177997
0.18520001 0.096610002 0.093716003
0.18582 0.097888999 0.092523001
0.18418001 0.10005 0.093787
0.18540999 0.10204 0.094200999
0.18528999 0.10309 0.092882
0.18436 0.10387 0.094957002
0.18618 0.10538 0.095288001
0.18469 0.10683 0.095574997
0.18461999 0.10808 0.097197004
0.18486001 0.11001 0.097111002
0.18558 0.1122 0.099220999
0.18666001 0.11193 0.101
0.18609001 0.11454 0.10086
0.18629 0.11643 0.10329
0.18553001 0.11638 0.10384
0.18667001 0.1193 0.10517
0.18677001 0.12079 0.10511
0.18528999 0.11954 0.10781
0.18702 0.1211 0.10692
0.1252 0.11354 0.10533
0.12548 0.11587 0.10604
0.17939 0.17615999 0.13902999
0.18009 0.17747 0.14129999
0.18931 0.15861 0.12858
0.18926001 0.1617 0.12988999
0.18856999 0.16252001 0.13039
0.18926001 0.16343001 0.13160001
0.18887 0.16531999 0.13021
0.18972 0.16924 0.13262001
0.1881 0.16637 0.13169999
0.1885 0.16665 0.13241
0.16808 0.037255 0.084408998
0.16869999 0.036070999 0.083140001
0.16901 0.036226999 0.085026003
0.19469 0.1451 0.12169
0.19462 0.14783999 0.12213
0.19577 0.14726 0.12084
0.12602 0.11754 0.1071
0.12578 0.1144 0.10398
0.18483999 0.038343001 0.091301002
0.18413 0.037540998 0.091890998
0.18456 0.037629999 0.092284001
0.18369 0.041916002 0.093078002
0.18437 0.044371001 0.093180001
0.1849 0.045263 0.093878999
0.18434 0.047267001 0.095960997
0.18426999 0.047966 0.095324002
0.18449999 0.049956001 0.096233003
0.18487 0.051307 0.096568003
0.18557 0.052809 0.097179003
0.18499 0.052678999 0.097223997
0.18419001 0.055142999 0.096841
0.18539 0.058176 0.096628003
0.20512 0.14839999 0.095934004
0.20577 0.1506 0.095820002
0.18508001 0.059808001 0.096101001
0.18514 0.058749001 0.096046999
0.18582 0.060106002 0.095390998
0.18392 0.060350999 0.095066004
0.18369 0.062933996 0.095191002
0.18343 0.063183002 0.096637003
0.18601 0.064274997 0.095367
0.18514 0.063940004 0.093157001
0.18515 0.065357 0.094942003
0.18640999 0.065833002 0.096298002
0.18442 0.065833002 0.094217002
0.18538 0.067626998 0.094549999
0.18347999 0.067359999 0.094338
0.18376 0.069530003 0.095114999
0.18396001 0.071078002 0.093566999
0.18377 0.071515001 0.092854999
0.18452001 0.073068999 0.092952996
0.18438999 0.074915998 0.093801998
0.18435 0.076102003 0.092600003
0.18432 0.078070998 0.093292996
0.18471999 0.077969 0.093124002
0.18423 0.081003003 0.093498997
0.1839 0.082381003 0.093456998
0.18447 0.083048999 0.093339004
0.18397 0.084023997 0.092465997
0.18355 0.087523997 0.092179
0.18345 0.087517001 0.094177999
0.18302999 0.088587001 0.093034998
0.18365 0.090769 0.092427
0.18381 0.091177002 0.092739999
0.18437 0.093998998 0.094506003
0.18307 0.094626002 0.093601003
0.18370999 0.095748 0.093433
0.18603 0.097606003 0.094076
0.18354 0.098008998 0.093652003
0.18459 0.10068 0.093266003
0.18373001 0.10097 0.094192997
0.18399 0.10287 0.094979003
0.18456 0.1046 0.095082
0.18545 0.10596 0.095434003
0.18466 0.10684 0.096740998
0.18605 0.10736 0.096938998
0.18362001 0.10926 0.097787
0.18528999 0.11038 0.099319004
0.18603 0.11173 0.10046
0.18492 0.11441 0.10147
0.18537 0.11483 0.1025
0.18574999 0.11867 0.10411
0.18584 0.11716 0.10425
0.18532 0.11963 0.10663
0.18578 0.12262 0.11013
0.18761 0.12226 0.1092
0.23515999 0.12448 0.1011
0.23576 0.12439 0.099340998
0.23427001 0.12509 0.10039
0.12568 0.11149 0.10278
0.12577 0.11241 0.10359
0.18847001 0.15962 0.13105001
0.18855 0.16023 0.13125999
0.18717 0.16477001 0.13045
0.18807 0.16571 0.13144
0.18759 0.16786 0.13225999
0.18077999 0.15094 0.13614
0.18478 0.039533999 0.092693999
0.18182001 0.038981002 0.093004003
0.18335 0.039983999 0.092244998
0.18513 0.036279 0.092863001
0.18403 0.036531001 0.092225
0.18237001 0.039841998 0.094024003
0.18333 0.039868001 0.093056999
0.1839 0.042629998 0.094492003
0.18267 0.043590002 0.093452998
0.18194 0.044562999 0.095174
0.18268999 0.046943001 0.096392997
0.18438999 0.047442999 0.094671004
0.1837 0.048757002 0.096262001
0.18280999 0.052345999 0.096023001
0.18404999 0.052901998 0.097176999
0.18325999 0.053867999 0.096387997
0.18285 0.05539 0.094893999
0.18263 0.055640999 0.096281998
0.1837 0.058192998 0.095922999
0.18388 0.058811001 0.095425002
0.18343 0.061078001 0.095294997
0.184 0.061749 0.094306
0.18426999 0.064276002 0.094924003
0.18328001 0.063579001 0.093524002
0.18199 0.06605 0.095426001
0.18317001 0.068207003 0.094535001
0.18375 0.069738001 0.094269998
0.18327001 0.070547998 0.093494996
0.18409 0.072860003 0.093497999
0.18376 0.072754003 0.093010001
0.18212 0.073618002 0.093052
0.18347999 0.075923003 0.092648998
0.18371999 0.077000998 0.092216
0.18351001 0.078295 0.091990001
0.18384001 0.080683 0.093337998
0.18256 0.081790999 0.094322003
0.18489 0.082278997 0.092563003
0.18207 0.084876001 0.093240999
0.18369 0.086344004 0.093170002
0.18339001 0.088478997 0.093626
0.18283001 0.088931002 0.094108999
0.18429001 0.088852003 0.094503
0.18437999 0.091067001 0.093653001
0.1841 0.093676001 0.093289003
0.18277 0.093374997 0.092729002
0.18377 0.095700003 0.093438998
0.18302999 0.095668003 0.093516
0.18442 0.098061003 0.094153002
0.18351001 0.098879002 0.095057003
0.18440001 0.10203 0.095385998
0.18237001 0.10388 0.095982
0.18450999 0.10434 0.095657997
0.18409 0.10614 0.096325003
0.18375 0.10716 0.097218998
0.18406001 0.10886 0.097088002
0.18411 0.10944 0.098362997
0.18344 0.11192 0.099491999
0.18402 0.112 0.10011
0.18339001 0.11491 0.10083
0.18438999 0.11542 0.10286
0.18423 0.11683 0.1038
0.18447 0.11745 0.10399
0.1842 0.11891 0.10632
0.18314999 0.12236 0.1094
0.18381 0.12103 0.10791
0.18384001 0.1224 0.10811
0.18445 0.12189 0.10732
0.20424999 0.044822 0.096254997
0.20251 0.046294998 0.097723998
0.18872 0.14655 0.13529
0.14741001 0.10745 0.095605999
0.13169999 0.070745997 0.084946997
0.14399999 0.063014001 0.084679
0.14282 0.10461 0.096445002
0.13353001 0.11679 0.1056
0.13246 0.1166 0.1041
0.18629 0.1648 0.13135999
0.18785 0.16621 0.13213
0.18711001 0.16281 0.13124999
0.18825001 0.16357 0.13124
0.18726 0.16677 0.13251001
0.19505 0.050324 0.10228
0.19461 0.05029 0.10163
0.19283 0.051769 0.10211
0.2306 0.087686002 0.10752
0.22903 0.085837997 0.10772
0.22947 0.086621001 0.10779
0.23028 0.084953003 0.11278
0.18242 0.042817999 0.094028004
0.18392 0.044002 0.093445003
0.18332 0.044679001 0.094315998
0.18148001 0.046978999 0.095045
0.18187 0.047931001 0.095344
0.18167 0.049826 0.096502997
0.18234999 0.050145999 0.096024998
0.18254 0.052469999 0.096818998
0.18238001 0.053433999 0.097516999
0.18313999 0.055107001 0.098500997
0.18199 0.056761 0.096881002
0.18221 0.057544999 0.095913
0.18190999 0.059266999 0.095890999
0.18159001 0.060180001 0.094230004
0.18224999 0.061592001 0.093965001
0.18213999 0.063148998 0.095388003
0.18216 0.063963003 0.093401
0.18246 0.066652 0.094187997
0.18243 0.067773998 0.094483003
0.18273 0.068464004 0.094922997
0.18215001 0.070763998 0.094132997
0.18301 0.070969999 0.093644001
0.18273 0.074592002 0.093529999
0.18184 0.074391998 0.093405001
0.18292999 0.075791001 0.093406998
0.18286 0.077472001 0.09144
0.18094 0.078948997 0.094276004
0.18162 0.080716997 0.092529997
0.18279999 0.082194999 0.092629001
0.18178 0.083287999 0.093955003
0.18237001 0.083596997 0.092799
0.18175 0.085043997 0.092840001
0.18258999 0.087087996 0.093547001
0.18181001 0.087938003 0.092727996
0.18263 0.089989997 0.093994997
0.1829 0.091879003 0.094255
0.18194 0.093015 0.093947001
0.18301 0.094420999 0.093204997
0.18299 0.095896997 0.092744
0.18172 0.097254001 0.094416
0.18252 0.098592997 0.094007
0.18256 0.10102 0.094927996
0.18279999 0.10237 0.095567003
0.18181001 0.10277 0.095545001
0.18283001 0.10367 0.096380003
0.18203001 0.10503 0.096593
0.18311 0.10728 0.097236998
0.18285 0.10927 0.099055
0.18196 0.11108 0.099298999
0.18355 0.1105 0.099243999
0.18347 0.11244 0.10045
0.18333 0.11454 0.10148
0.18356 0.11489 0.10275
0.18425 0.11629 0.10341
0.18292999 0.11749 0.10511
0.18381999 0.11876 0.10501
0.18332 0.12086 0.10692
0.13325 0.11112 0.10097
0.13369 0.11135 0.10117
0.14255001 0.069806002 0.083094001
0.13739 0.11121 0.099546
0.13023999 0.11163 0.10215
0.13049001 0.11099 0.10275
0.18119 0.034910999 0.095390998
0.13004 0.10623 0.097920001
0.18528 0.16517 0.13155
0.18704 0.16520999 0.13241
0.18587001 0.16813999 0.13177
0.15719999 0.16883001 0.16246
0.15831999 0.16689999 0.16134
0.15925001 0.16782001 0.1619
0.18027 0.15403 0.1393
0.17713 0.15439001 0.13942
0.13847999 0.12535 0.10625
0.14001 0.12443 0.10671
0.23326001 0.091223001 0.10787
0.23248 0.092133999 0.10875
0.23284 0.091542996 0.10861
0.15544 0.1279 0.11286
0.18119 0.042773999 0.094516002
0.18211 0.044124 0.094704002
0.18196 0.045984 0.095370002
0.18268999 0.047127001 0.094504997
0.18119 0.049371 0.097639002
0.18227001 0.048200998 0.096049003
0.18082 0.051027 0.097585
0.18164 0.051952001 0.098737001
0.18208 0.052227002 0.096693002
0.18128 0.054761998 0.096386001
0.18099 0.056331001 0.096791998
0.18104 0.05641 0.095298998
0.18176 0.058977 0.095146999
0.18267 0.060532998 0.096133001
0.18177 0.062422 0.095776998
0.18103001 0.063698001 0.094718002
0.18133999 0.064287998 0.094789997
0.18154 0.065594003 0.093843997
0.18122999 0.067955002 0.093388997
0.18156999 0.068972997 0.094439998
0.18152 0.070162997 0.094959997
0.18124001 0.071713001 0.095415004
0.18132 0.073455997 0.092775002
0.18119 0.073778003 0.092191003
0.18172 0.075989 0.092623003
0.18143 0.077003002 0.092945002
0.18117 0.079273 0.093456998
0.1821 0.081941001 0.09381
0.18074 0.082459003 0.091811001
0.18061 0.084444001 0.092390999
0.18024001 0.084670998 0.092963003
0.18197 0.086250998 0.092124
0.18115 0.086594 0.092171997
0.18159001 0.089403003 0.093139
0.18164 0.090361997 0.093093999
0.18156999 0.092005998 0.093441002
0.18043999 0.092698999 0.092750996
0.18156999 0.093851 0.092988998
0.18099999 0.096442997 0.094301
0.18107 0.098843001 0.094554998
0.18131 0.099583 0.094012998
0.18043999 0.10096 0.093842998
0.18198 0.10057 0.095821999
0.18096 0.10197 0.096193999
0.18276 0.10424 0.095627002
0.18138 0.10538 0.097209997
0.18029 0.10701 0.097851999
0.18184 0.10812 0.099748999
0.18138 0.11073 0.099025004
0.18200999 0.1111 0.099665999
0.18252 0.1126 0.10111
0.18192001 0.11344 0.10103
0.18179999 0.11487 0.10336
0.18167999 0.11698 0.10479
0.18288 0.11836 0.10426
0.184 0.11964 0.10606
0.18205 0.12265 0.10761
0.10157 0.1002 0.12948
0.1038 0.10076 0.12785999
0.10135 0.10048 0.12872
0.23081 0.15336999 0.11285
0.23291001 0.15119 0.11315
0.23306 0.15252 0.11201
0.12615 0.11977 0.10666
0.13121 0.10702 0.10041
0.13223 0.10518 0.098527998
0.15944 0.037893001 0.084138997
0.16148999 0.036889002 0.085199997
0.15989 0.035454001 0.085450999
0.14543 0.042615 0.092188001
0.1461 0.044319 0.093346998
0.14727999 0.043713 0.090815
0.14154001 0.073925003 0.082454003
0.13093001 0.11254 0.10199
0.13146 0.11248 0.10183
0.18585999 0.16486999 0.13208
0.18455 0.16655 0.1332
0.18567 0.16892999 0.13354
0.18370999 0.17157 0.1345
0.19519 0.14940999 0.12054
0.19588999 0.14692 0.11868
0.17331 0.15703 0.14052001
0.17204 0.15697999 0.1398
0.17364 0.15651 0.13891
0.14461 0.12309 0.103
0.22999001 0.077596001 0.11969
0.23376 0.085784003 0.12412
0.23308 0.086035997 0.1243
0.23532 0.12345 0.10153
0.23559 0.12545 0.10067
0.23594999 0.12267 0.10282
0.18031999 0.043067001 0.095255002
0.17948 0.044101998 0.095769003
0.18066999 0.046239 0.096684001
0.18038 0.047653999 0.097053997
0.18095 0.048757002 0.096720003
0.17995 0.050347999 0.096905001
0.18084 0.052783001 0.096560001
0.17923 0.053897001 0.097216003
0.18013 0.054689001 0.097038999
0.18116 0.056825001 0.096727997
0.18031 0.058401 0.096506998
0.18083 0.059156999 0.095385
0.18065 0.059666 0.095789
0.18088 0.061489001 0.09527
0.18109 0.064095996 0.095794
0.18051 0.065463997 0.093387
0.18016 0.065797001 0.094057001
0.17902 0.067377999 0.094223998
0.18155 0.069591001 0.094768003
0.17949 0.070284002 0.093547001
0.18072 0.070793003 0.094360001
0.18083 0.07254 0.093360998
0.17958 0.075172998 0.093709998
0.18010999 0.077437997 0.093643002
0.17973 0.076462001 0.094660997
0.18059 0.078924999 0.093555003
0.18001001 0.081115 0.093204997
0.17998999 0.08106 0.092664003
0.18010999 0.082069002 0.092738003
0.17972 0.084181003 0.092573002
0.18118 0.085309997 0.09223
0.17955001 0.087058999 0.093451999
0.17966001 0.088725999 0.094232
0.18086 0.089373998 0.092928
0.18165 0.092212997 0.093699999
0.18122 0.092687003 0.093024001
0.18007 0.095253997 0.093184002
0.18053 0.095067002 0.093769997
0.1811 0.096965998 0.0942
0.18031999 0.099062003 0.095104001
0.18006 0.10073 0.094820999
0.18048 0.10096 0.096017003
0.18038 0.10365 0.095611997
0.17989001 0.10391 0.096666001
0.18043999 0.1061 0.097521998
0.18019 0.1065 0.098254003
0.18097 0.10755 0.098949
0.18097 0.11015 0.099079996
0.18064 0.11183 0.10005
0.18166 0.11266 0.10084
0.18167999 0.11377 0.10253
0.18108 0.11532 0.10261
0.17995 0.11748 0.10377
0.18152 0.11791 0.10416
0.18166 0.12056 0.10911
0.14438 0.10109 0.096940003
0.1443 0.10117 0.094320998
0.14323001 0.10118 0.093552001
0.17456 0.15673999 0.13961001
0.17434999 0.15493999 0.14056
0.17298 0.15467 0.14045
0.13170999 0.088321 0.086184002
0.13176 0.10835 0.10097
0.13966 0.093501002 0.08585
0.13093001 0.11402 0.10298
0.1839 0.16661 0.13409001
0.18423 0.16753 0.13518
0.18537 0.17038 0.13591
0.18426 0.17107999 0.13496999
0.19414 0.14031 0.12061
0.18444 0.1496 0.13748001
0.22648001 0.15356 0.10715
0.22521999 0.15534 0.10647
0.21766999 0.17689 0.18666001
0.21814001 0.17656 0.18393999
0.15504 0.095008001 0.083999999
0.15351 0.094953999 0.086133003
0.15294001 0.095945001 0.087265
0.17966001 0.046732999 0.095513001
0.17907999 0.047800001 0.097388998
0.17930999 0.048659999 0.097560003
0.17973 0.049968999 0.096988
0.18041 0.052214 0.097120002
0.17973 0.053206999 0.098142996
0.17989001 0.055225998 0.097194001
0.17948 0.057232 0.096867003
0.17952999 0.057557002 0.095496997
0.17961 0.059833001 0.094962001
0.17918999 0.060674001 0.095169999
0.17941999 0.061572 0.095471002
0.17901 0.064473003 0.094485998
0.17828999 0.06436 0.094330996
0.18026 0.065315001 0.095452003
0.17974 0.067146003 0.094099998
0.17851999 0.069470003 0.094742
0.18113001 0.069734 0.094342001
0.17903 0.072273999 0.094425
0.17933001 0.0722 0.0942
0.17902 0.073983997 0.094397999
0.17878 0.076627001 0.094415002
0.17998999 0.078567997 0.094062001
0.17803 0.079829998 0.094566002
0.17941 0.079875998 0.094302997
0.17926 0.082544997 0.092997
0.17897999 0.082203001 0.092878997
0.17859 0.084031001 0.093098998
0.17971 0.085634001 0.092715003
0.17937 0.087304004 0.09183
0.18063 0.089207001 0.093139
0.17944001 0.090479001 0.092138998
