# .PCD v0.7 - Point Cloud Data file format
VERSION 0.7
FIELDS x y z
SIZE 4 4 4
TYPE F F F
COUNT 1 1 1
WIDTH 1676
HEIGHT 1
VIEWPOINT 0 0 0 1 0 0 0
POINTS 1676
DATA ascii
0.18234 0.081026003 0.30805999
0.17079 0.24663 0.25466001
0.17184 0.24577001 0.25391001
0.17209999 0.24546 0.25218001
0.16219001 0.19311 0.25224999
0.1605 0.19216 0.25189
0.15906 0.19386999 0.25092
0.15922999 0.12813 0.26348001
0.15758 0.12817 0.26356
0.15919 0.12842 0.26359001
0.14846 0.14027999 0.25103
0.14892 0.13926999 0.25127
0.14793 0.13971999 0.24912
0.17779 0.23695 0.27711001
0.17777 0.23615 0.27603
0.17831001 0.23706999 0.27518001
0.17794 0.10462 0.27991
0.18035001 0.10502 0.27902001
0.1785 0.10529 0.27937999
0.13156 0.078974001 0.24906
0.13231 0.079994 0.25038999
0.14117999 0.057131 0.27236
0.14195 0.056673001 0.27149001
0.14079 0.055342 0.27056
0.18010999 0.092083998 0.28606001
0.17900001 0.092647001 0.28679001
0.17896 0.093713 0.28584999
0.15967 0.056347001 0.29559001
0.15922999 0.058154002 0.29277
0.15865999 0.058596 0.29539001
0.15789001 0.11223 0.25474
0.1559 0.11305 0.25810999
0.15790001 0.11068 0.25850001
0.16943 0.11564 0.27151
0.16884001 0.11487 0.27074999
0.16839001 0.11738 0.27254
0.15075999 0.092414998 0.25522
0.14930999 0.092713997 0.25565001
0.14121 0.053438999 0.26905
0.14094 0.052505001 0.26925999
0.14077 0.052735999 0.2703
0.15583 0.079056002 0.27515
0.1548 0.079369999 0.27594
0.15605 0.078679003 0.27505001
0.16542 0.15542001 0.27598
0.16573 0.15772 0.27557001
0.17837 0.064145997 0.30757999
0.17778 0.064062998 0.30720001
0.17872 0.065399997 0.30917001
0.16835 0.23681 0.27140999
0.1665 0.23676001 0.26923001
0.13500001 0.066091001 0.24113999
0.13489 0.065505996 0.242
0.13533001 0.064709 0.24133
0.15793 0.12754001 0.26765001
0.15807 0.12861 0.26861
0.15990999 0.12963 0.26688001
0.1683 0.2422 0.27937001
0.1691 0.2393 0.27904999
0.16943 0.24145 0.27855
0.14145 0.083098002 0.25733
0.14353999 0.083306998 0.25773001
0.14377999 0.084503002 0.25795999
0.17922001 0.14713 0.28646001
0.17918999 0.14717001 0.28808001
0.17831001 0.14625999 0.28856
0.15719999 0.11357 0.26570001
0.15546 0.11186 0.26683
0.15782 0.11276 0.26888999
0.17941 0.16216999 0.27377
0.18037 0.16322 0.27307001
0.17910001 0.16162001 0.27428001
0.16553999 0.11211 0.24722999
0.16523001 0.11176 0.24879
0.16508999 0.11341 0.24872001
0.12045 0.054862 0.25975001
0.12087 0.055978999 0.26091
0.12139 0.056738999 0.25962001
0.14946 0.15467 0.26539999
0.15008999 0.15424 0.26497
0.14961 0.15539999 0.26502001
0.15398 0.19622 0.26548001
0.15456 0.19708 0.26442999
0.15366 0.19694 0.26405001
0.18035001 0.11298 0.27862999
0.18215001 0.11292 0.27733001
0.18151 0.1132 0.27596
0.17154001 0.1636 0.27258
0.16276 0.094402 0.27342001
0.16339999 0.095122002 0.27166
0.16299 0.093546003 0.2728
0.1618 0.12942 0.25911999
0.16474999 0.12788001 0.26019999
0.16522001 0.12587 0.25997999
0.1596 0.24428999 0.25207999
0.15809999 0.24260999 0.25362
0.15573999 0.24352001 0.25211999
0.15615 0.09973 0.26820001
0.15715 0.10173 0.26707
0.16173001 0.24375001 0.26284
0.16238999 0.24378 0.26368999
0.16126999 0.2446 0.26323
0.17887001 0.063161001 0.29583001
0.17928 0.063387997 0.29751
0.17837 0.063887998 0.29960001
0.17934 0.13161001 0.28692001
0.17833 0.13045999 0.28582999
0.18015 0.13065 0.28617999
0.19266 0.061103001 0.31356001
0.19351 0.059622001 0.31316999
0.19373 0.061701 0.31272
0.18656 0.10378 0.27665001
0.18545 0.10203 0.27688
0.18674999 0.10328 0.27778
0.18381999 0.086049996 0.30461001
0.18423 0.085450999 0.30432999
0.18234999 0.083938003 0.30496001
0.15295 0.080619 0.27083001
0.15228 0.080548003 0.26918
0.15162 0.078837 0.26969001
0.16955 0.23082 0.27046999
0.17079 0.23237 0.27017
0.16952001 0.23227 0.27135
0.17223001 0.14621 0.28273001
0.1705 0.14732 0.28446999
0.16906001 0.14828999 0.28114
0.17941999 0.13463999 0.28799
0.17772 0.13352001 0.28661001
0.17907 0.13624001 0.29074001
0.15961 0.14114 0.26594001
0.15764 0.14213 0.26512
0.15786999 0.19337 0.26813
0.15902001 0.19217999 0.26624
0.15797 0.19276001 0.26704001
0.15944 0.16046 0.2631
0.16136 0.16051 0.26323
0.16275001 0.15948001 0.26335999
0.16235 0.2045 0.26539001
0.16267 0.20494001 0.26558
0.16165 0.20356999 0.26427001
0.15612 0.20175 0.26633999
0.15831 0.20100001 0.26486999
0.15595999 0.20181 0.26602
0.17748 0.056759 0.30294001
0.17692 0.056322999 0.30296001
0.17753001 0.056460999 0.30182001
0.16216999 0.19306999 0.27535999
0.15976 0.19374 0.27388
0.16146 0.19348 0.27329001
0.16312 0.10549 0.27313
0.16331001 0.10542 0.27357
0.15295 0.24393 0.25705001
0.15063 0.242 0.25580999
0.16949999 0.21717 0.28198001
0.16974001 0.21637 0.28044999
0.16975001 0.21638 0.28148001
0.15194 0.18949001 0.25771999
0.1514 0.18851 0.25803
0.20232999 0.058373999 0.31434
0.20238 0.058968998 0.31402001
0.2032 0.058166999 0.31450999
0.1813 0.18258999 0.27983001
0.18136001 0.18117 0.27798
0.18054 0.18212999 0.27911001
0.1846 0.12656 0.27368999
0.18271001 0.12512 0.27361
0.18494 0.12609001 0.27156001
0.15933999 0.077714004 0.27906001
0.15896 0.079185002 0.27970001
0.15793 0.078759998 0.27700999
0.1595 0.13871001 0.26837999
0.15979999 0.14049999 0.26967001
0.16057 0.13931 0.26954001
0.14588 0.088283002 0.2476
0.14542 0.088160001 0.24661
0.19042 0.060081001 0.30805999
0.18974 0.059014 0.30974001
0.1451 0.083524004 0.26422
0.14427 0.083733 0.26361999
0.14149 0.083618 0.26464999
0.17551 0.22978 0.27766001
0.17298 0.23030999 0.27904999
0.17342 0.22992 0.27669999
0.17347001 0.22792 0.27336001
0.17275 0.2278 0.27368999
0.17143001 0.22792999 0.27427
0.1605 0.10666 0.25084999
0.16099 0.1033 0.25097999
0.16092999 0.10435 0.24996001
0.15700001 0.12408 0.26929
0.15621001 0.12507001 0.26813999
0.15685999 0.12378 0.26719999
0.15797 0.053537998 0.29692
0.15783 0.051633 0.29513001
0.15639 0.052919 0.29628
0.14734 0.068735003 0.27215999
0.14557 0.066771999 0.27092999
0.15018 0.11942 0.26227
0.15419 0.1195 0.26326999
0.17767 0.090092003 0.29613
0.17761999 0.088260002 0.29561999
0.17817999 0.088430002 0.29688001
0.16177 0.20885 0.26427001
0.16132 0.20867001 0.26398
0.16279 0.20754001 0.26513001
0.15545 0.10568 0.26460999
0.15798999 0.10593 0.26464
0.15710001 0.10708 0.26530999
0.16187 0.17399999 0.25297999
0.16250999 0.17313001 0.25443
0.1504 0.14837 0.26425001
0.15090001 0.14929999 0.26517999
0.15212999 0.15028 0.26567999
0.16481 0.055631999 0.2931
0.16566999 0.055374 0.29212001
0.16372 0.057321001 0.29120001
0.13046999 0.061193001 0.25830001
0.13133 0.061616998 0.26010001
0.13172001 0.064304002 0.26093
0.17444 0.11387 0.27752
0.17591 0.11272 0.27636001
0.17395 0.11253 0.27934
0.15722001 0.11123 0.27054
0.15757 0.11049 0.271
0.15715 0.11079 0.27144
0.18165 0.05652 0.31804001
0.18238001 0.057721999 0.31873
0.18260001 0.057213001 0.31592
0.16923 0.14686 0.28115001
0.16846 0.14724 0.28178
0.16863 0.14912 0.28079
0.16847 0.17995 0.26930001
0.16933 0.17867 0.27015001
0.17114 0.18059 0.27031001
0.17766 0.11024 0.28104001
0.17786001 0.10992 0.27961001
0.17667 0.10892 0.27985001
0.16066 0.17595001 0.25150999
0.16156 0.17568 0.25378999
0.15989 0.17485 0.25161001
0.1476 0.15171 0.24873
0.14718001 0.15307 0.25069001
0.14839 0.15352 0.25086001
0.1381 0.083861001 0.25578001
0.13793001 0.083644003 0.25646001
0.13783 0.083572 0.25534999
0.15062 0.15723 0.2595
0.15096 0.15712 0.2597
0.14923 0.15642001 0.26159999
0.16447 0.16670001 0.27041
0.16541 0.16777 0.27050999
0.16358 0.16693 0.27112001
0.14041001 0.087412 0.2529
0.14084999 0.087085001 0.25178999
0.14178 0.088087 0.25145999
0.15182 0.1948 0.25972
0.15078001 0.1974 0.26047
0.13644999 0.078354001 0.24026
0.13594 0.079076998 0.23896
0.13529 0.078106001 0.23999
0.18574999 0.057390999 0.31920001
0.18732999 0.056531001 0.31931999
0.18663999 0.057156999 0.31858
0.13346 0.059133999 0.25929999
0.13489 0.059882 0.26038
0.13552999 0.059277002 0.25887001
0.15121999 0.054094002 0.28929001
0.14925 0.055217002 0.28957
0.15662 0.059356 0.29069999
0.1727 0.1796 0.27879
0.17325 0.18053 0.27715001
0.17509 0.18144999 0.28037
0.16325 0.11421 0.25457999
0.16274001 0.11561 0.25733
0.16271 0.11567 0.25435999
0.18065999 0.056134999 0.31861001
0.18195 0.055279002 0.31848001
0.18099999 0.054691002 0.31777
0.17670999 0.049387001 0.30153
0.17719001 0.052965999 0.29951999
0.17719001 0.050763 0.29840001
0.15445 0.19069 0.25275999
0.15342 0.19031 0.25209001
0.15411 0.19047999 0.25284001
0.15573999 0.11113 0.25724
0.15431 0.10954 0.25838
0.15537 0.1113 0.25692999
0.17993 0.069110997 0.30109999
0.18019 0.071304001 0.30317
0.132 0.068802997 0.24619
0.13319001 0.068442002 0.24566001
0.13395999 0.067596003 0.24594
0.16937999 0.23653001 0.27864
0.16891 0.23849 0.28003001
0.16940001 0.23886999 0.27862999
0.16469 0.053405002 0.29319
0.16529 0.052567001 0.29458001
0.16523001 0.051371001 0.29427999
0.18599001 0.10649 0.27855
0.1858 0.10524 0.27763
0.18626 0.10469 0.27812999
0.15444 0.059301 0.28549001
0.15422 0.060490999 0.28371
0.15487 0.059932999 0.28255999
0.1734 0.14034 0.28701001
0.17456999 0.13987 0.28702
0.17452 0.14030001 0.28792
0.11796 0.052090999 0.25810999
0.11679 0.050597001 0.25883999
0.11745 0.050237 0.25907001
0.16805001 0.086838 0.28783
0.16892 0.085395001 0.28917
0.16672 0.086470999 0.28764999
0.14719 0.065036997 0.26572999
0.14698 0.066979997 0.26763001
0.17648 0.087141998 0.28235
0.1767 0.088056996 0.28218001
0.17679 0.088225 0.28202999
0.16958 0.21289 0.27750999
0.17020001 0.21294001 0.27862
0.17007001 0.21355 0.2775
0.13267 0.083572999 0.25948
0.1319 0.083553001 0.26025999
0.13471 0.082551003 0.26025
0.16082001 0.18103001 0.26975
0.16091999 0.18175 0.2694
0.16156 0.18114001 0.26958999
0.15266 0.058139998 0.28690001
0.15117 0.057305001 0.28898999
0.1525 0.058290999 0.28898001
0.1723 0.19619 0.28174999
0.14668 0.14057 0.25665
0.14748999 0.13971999 0.25922999
0.14635 0.14053001 0.25826001
0.18133999 0.085081004 0.30037001
0.18175 0.082627997 0.30092999
0.17976999 0.082227997 0.30015999
0.15645 0.20073999 0.25549999
0.1541 0.20082 0.25556001
0.15329 0.20163999 0.25613001
0.13486999 0.080335997 0.24079999
0.1337 0.080735996 0.23907
0.13555001 0.079124004 0.2397
0.16780999 0.13574 0.27320001
0.16745999 0.13513 0.27197999
0.16881999 0.13548 0.27401
0.15607999 0.083143003 0.27472001
0.15685 0.081845999 0.27463001
0.15631001 0.081964999 0.27478999
0.16042 0.13574 0.26547
0.16182999 0.1367 0.26519999
0.1604 0.13808 0.26378
0.17907 0.058853 0.30695
0.17941999 0.058347002 0.30704999
0.17783 0.057944 0.30603999
0.14575 0.058290001 0.28097999
0.15561999 0.24709 0.26010999
0.15802 0.24627 0.26165
0.15694 0.24694 0.26025
0.16580001 0.17485 0.26754999
0.16508 0.17445 0.26725999
0.16475999 0.17671999 0.26851001
0.15527999 0.18213999 0.25103
0.1566 0.18176 0.25290999
0.17704 0.063363001 0.29633999
0.17749 0.062479001 0.29644999
0.17851999 0.062366001 0.29804
0.16204 0.1776 0.26539999
0.16406 0.17704999 0.26488
0.16337 0.17744 0.26510999
0.16502 0.2138 0.27625
0.16576 0.21444 0.27790999
0.16613001 0.21356 0.27745
0.1841 0.15282001 0.28496999
0.18448 0.15446 0.28652
0.18358 0.15296 0.28560999
0.1683 0.23627 0.27947
0.16959 0.23378 0.27829999
0.1693 0.23489 0.28027999
0.15758 0.15975 0.26146999
0.1575 0.15843 0.26034001
0.15721001 0.16012999 0.26144999
0.16665 0.17750999 0.27089
0.16806 0.17812 0.27109
0.16780999 0.17794999 0.26954001
0.15907 0.15291999 0.27790999
0.15827 0.15481 0.27658999
0.15713 0.15312999 0.27612001
0.13367 0.087549999 0.24713001
0.13553999 0.087422997 0.24859001
0.13530999 0.085754998 0.24711999
0.17644 0.10637 0.27937999
0.17745 0.10471 0.27868
0.17881 0.10596 0.27822
0.15287 0.18183 0.25788999
0.15498 0.18043999 0.25652999
0.15538999 0.17982 0.259
0.17291 0.070439003 0.29534999
0.17175999 0.070588998 0.29447001
0.1751 0.072742999 0.29545
0.15784 0.055202998 0.29438001
0.15876999 0.054699 0.29552999
0.15917 0.056332 0.29526001
0.15723 0.10848 0.25501001
0.15569 0.1085 0.25876999
0.15463001 0.10855 0.25707
0.17013 0.11492 0.25115001
0.17084 0.1146 0.25027999
0.16959 0.11486 0.25055999
0.17863999 0.16007 0.27599999
0.18055999 0.15807 0.27693999
0.17918999 0.15983 0.27675
0.15944 0.15245 0.27684999
0.16213 0.15361001 0.27811
0.15984 0.15342 0.27695
0.16224 0.084151 0.28301001
0.16274001 0.083554 0.28134999
0.16199 0.082137004 0.28053001
0.15103 0.12419 0.25521001
0.14888 0.12651999 0.25593999
0.15207 0.12639999 0.25492999
0.15381999 0.10083 0.26370001
0.15439001 0.098360002 0.26355001
0.15482999 0.098843999 0.26276001
0.17839 0.081107996 0.30882999
0.17772 0.079332002 0.30963001
0.17795999 0.080135003 0.31013
0.13961001 0.081793003 0.26328
0.13973001 0.083016999 0.26146999
0.1728 0.20149 0.28235999
0.17539001 0.20176999 0.28312999
0.17459001 0.20112 0.28264001
0.17798001 0.105 0.28
0.17904 0.10711 0.27768001
0.17804 0.1066 0.27930999
0.14394 0.088299997 0.2538
0.14235 0.086791001 0.25420001
0.14274999 0.087012999 0.25512001
0.14723 0.056168001 0.28317001
0.14764 0.056457002 0.28343001
0.14788 0.056635 0.28246999
0.12952 0.064681001 0.25946999
0.13011 0.065541998 0.25718001
0.13135 0.061957002 0.25920999
0.18622001 0.084328003 0.29589
0.18625 0.085276 0.29587001
0.18526 0.086255997 0.29508001
0.15701 0.1569 0.26828
0.15775 0.15632001 0.26804
0.15659 0.15775 0.2692
0.15331 0.12560999 0.25848001
0.15218 0.12496 0.26023999
0.15321 0.12643 0.25891
0.18144999 0.065683 0.30781001
0.18203001 0.065411001 0.30594
0.18189 0.066101 0.30833
0.17264 0.1635 0.27109
0.1715 0.16327 0.27112001
0.17594001 0.15808 0.28624001
0.17552 0.15903001 0.28353
0.17482001 0.15848 0.28242001
0.16483 0.11226 0.27221999
0.16606 0.11336 0.27298999
0.16717 0.11211 0.27202001
0.16192999 0.16850001 0.25896001
0.16173001 0.16802999 0.25781
0.16271999 0.16877 0.25896999
0.16214 0.074097998 0.28619
0.16192 0.074607 0.28584
0.16283 0.075723998 0.28521001
0.17701 0.079200998 0.30983999
0.17640001 0.078717001 0.30893999
0.17051999 0.18523 0.27838001
0.17106 0.18598001 0.27656001
0.153 0.12468 0.25962001
0.15317 0.12531 0.25955001
0.15256999 0.12351 0.26069
0.16919 0.12329 0.27462
0.16813 0.12526999 0.27506
0.16312 0.21389 0.26989999
0.1653 0.21325999 0.26828
0.16384999 0.21481 0.26923999
0.17082 0.23066001 0.27575001
0.17016 0.23228 0.27706999
0.16958 0.23193 0.27731001
0.13085 0.067569003 0.25516999
0.12758 0.069127999 0.25544
0.13012999 0.067795999 0.25501999
0.18398 0.16109 0.27056
0.18433 0.16113 0.27200001
0.18474001 0.16308001 0.27042001
0.20287 0.054400001 0.31828001
0.20254999 0.053222999 0.31674001
0.20535 0.056214001 0.31829
0.16444001 0.056867 0.29424
0.16353001 0.057268001 0.29255
0.16314 0.057270002 0.29449999
0.15682 0.049261 0.29809999
0.15739 0.052540999 0.29822999
0.15662999 0.051522002 0.29642999
0.17818999 0.051130001 0.31442001
0.17845 0.052917998 0.31465
0.17732 0.053433999 0.31325001
0.14375 0.056184001 0.27013001
0.14172 0.055937 0.26923001
0.14136 0.05565 0.27002001
0.15666001 0.12135 0.27034
0.15696999 0.12124 0.26793
0.16213 0.17918999 0.27079999
0.16339 0.18042 0.27035999
0.16204 0.18185 0.27004001
0.18399 0.084266998 0.30524001
0.18314999 0.085037 0.30658999
0.18437 0.085215002 0.30743
0.14002 0.055356 0.26223999
0.13993999 0.056990001 0.26190999
0.1381 0.05604 0.26091999
0.17122 0.091348 0.27946001
0.16827001 0.091678999 0.27948001
0.16853 0.091205001 0.27926001
0.15795 0.049690001 0.29736999
0.16203 0.050446998 0.29739001
0.16266 0.050822999 0.29738
0.17883 0.22168 0.27952999
0.18010999 0.22328 0.27969
0.18298 0.15978 0.27564999
0.18298 0.15884 0.27695
0.18348999 0.15893 0.27623999
0.17730001 0.19287001 0.28387001
0.17929 0.19193999 0.28522
0.17723 0.19359 0.28588
0.14331999 0.053096998 0.26820001
0.14403 0.054437 0.26808
0.1805 0.13338999 0.27745
0.18032999 0.13263001 0.27671999
0.17937 0.13372999 0.27756
0.16049001 0.12217 0.26671001
0.15869001 0.12321 0.26743001
0.16102 0.12134 0.26780999
0.15324999 0.18514 0.25749999
0.15363 0.18340001 0.25808999
0.15245 0.18341 0.25753999
0.15255 0.18550999 0.25865999
0.15304001 0.18516999 0.25701001
0.15356 0.1859 0.25725999
0.1786 0.076789998 0.3064
0.17806 0.076531999 0.3062
0.12177 0.055773001 0.25103
0.12052 0.056402002 0.25101
0.12171 0.057408001 0.25145
0.16381 0.21822999 0.26666999
0.16387001 0.21895 0.26585001
0.16331001 0.21814001 0.26543999
0.14906999 0.13118 0.25696999
0.14777 0.13066 0.25466001
0.14747 0.1296 0.25784001
0.16327 0.13770001 0.27287999
0.16170999 0.13706 0.26993001
0.16265 0.13737001 0.27035001
0.16548 0.16477001 0.2511
0.16414 0.16374999 0.25049999
0.16142 0.10596 0.24927001
0.16237999 0.1074 0.25097999
0.16192999 0.10801 0.24970999
0.17364 0.19045 0.28479001
0.17429 0.1938 0.28262001
0.15385 0.085252002 0.27248001
0.15486 0.084040999 0.27289
0.15372001 0.085234001 0.27241001
0.17565 0.085980996 0.30015001
0.17569 0.087040998 0.29923999
0.17551 0.085709997 0.29960999
0.16954 0.20195 0.27937999
0.16971999 0.20242999 0.27882999
0.1707 0.20321 0.27943999
0.16211 0.16903999 0.26256999
0.16209 0.16854 0.26288
0.16279 0.17087001 0.26306999
0.15121 0.082419999 0.26767999
0.15216 0.081286997 0.26791
0.15143 0.083488002 0.26457
0.17799 0.2304 0.27770999
0.1771 0.23105 0.27671999
0.17801 0.23336001 0.27682999
0.17467999 0.24661 0.27487999
0.17433 0.24642 0.27412
0.17305 0.24645001 0.27372
0.13529 0.073867999 0.25319001
0.13665999 0.074951999 0.25288999
0.13621999 0.074045002 0.25161999
0.17031001 0.16732 0.27318001
0.17177001 0.16762 0.26982
0.16869 0.1688 0.27156001
0.14670999 0.15049 0.26082999
0.1471 0.15189999 0.2597
0.14579 0.15309 0.26054001
0.1569 0.1136 0.26855999
0.16029 0.11378 0.26791
0.1592 0.11311 0.26707
0.17168 0.1758 0.2735
0.17309999 0.17515001 0.27191001
0.13246 0.066928998 0.24158999
0.13260999 0.066817999 0.24108
0.13165 0.064990997 0.24199
0.16703001 0.17197999 0.26967999
0.16658001 0.17285 0.26955
0.16707 0.17105 0.26964
0.16594 0.10256 0.27862999
0.16593 0.10121 0.27891001
0.16723999 0.10297 0.27873999
0.15796 0.075208999 0.27963999
0.15967999 0.074823 0.28093001
0.17001 0.077357002 0.29626
0.17041001 0.078598 0.29523
0.17064001 0.077499002 0.29403001
0.18155999 0.083885998 0.30258
0.18110999 0.083458997 0.30116999
0.18039 0.082400002 0.30304
0.15425999 0.23977 0.25209999
0.15377 0.23898 0.25139001
0.1541 0.23972 0.25138
0.13298 0.061604999 0.24167
0.13515 0.06374 0.24128
0.13330001 0.060913 0.24086
0.17429 0.081263997 0.29819
0.17423999 0.083185002 0.29896
0.17613 0.082552999 0.29780999
0.1798 0.14948 0.28646001
0.17996 0.15151 0.28608999
0.17878 0.15063 0.28692999
0.15843999 0.10677 0.2561
0.15897 0.10527 0.25624999
0.15815 0.10476 0.25760001
0.16653 0.12574001 0.25914001
0.16586 0.12838 0.26006001
0.16325 0.12667 0.25661999
0.16019 0.1789 0.25806001
0.15891001 0.17704 0.25736001
0.1609 0.17644 0.25632
0.14405 0.064819001 0.26883999
0.14471 0.066454999 0.26853001
0.15389 0.24544001 0.25522
0.15403999 0.24634001 0.25556001
0.15409 0.24532001 0.25369999
0.17354999 0.24304 0.27652001
0.17565 0.24314 0.27689001
0.17457999 0.24118 0.27669999
0.17531 0.051231999 0.29808
0.17748 0.051252 0.29771
0.17670999 0.052707002 0.29815999
0.16379 0.16563 0.26332
0.16432001 0.16632 0.26282999
0.16285001 0.16594 0.26168001
0.15631001 0.10918 0.26311001
0.15555 0.11 0.26179999
0.15444 0.11079 0.26023999
0.15306 0.059324998 0.28689
0.15396 0.059165001 0.28635001
0.15299 0.058566 0.28472
0.15033001 0.14758 0.24923
0.15004 0.15009999 0.24973001
0.15005 0.14978001 0.24839
0.17656 0.057599001 0.29537001
0.17629001 0.055962 0.29488
0.17632 0.057041001 0.29510999
0.16174001 0.18976 0.26422
0.16230001 0.18842 0.26366001
0.16128001 0.18949001 0.26504001
0.16766 0.15841 0.27601999
0.16895001 0.15735 0.27436
0.16741 0.15782 0.27666
0.17900001 0.082404003 0.30671999
0.15219 0.20845 0.25891
0.15294001 0.20925 0.25738999
0.15741999 0.2123 0.26174
0.15673 0.21482 0.26139
0.15708999 0.21393 0.26201001
0.14366999 0.056389 0.26736999
0.15334 0.091200002 0.25385001
0.15387 0.093332998 0.25339001
0.15316001 0.091357 0.25235
0.17025 0.22683001 0.2753
0.17151999 0.22626001 0.27276
0.14398 0.050652999 0.26671001
0.14394 0.049437001 0.26673001
0.14245 0.049844 0.26728001
0.14184999 0.084234998 0.26166001
0.14041001 0.083627 0.26177999
0.14129999 0.082842 0.26324999
0.17968 0.18996 0.28518999
0.18117 0.19016001 0.28560001
0.18131 0.19052 0.28521001
0.16704001 0.12893 0.27276999
0.16716 0.12824 0.27112001
0.1587 0.17122 0.26025
0.15882 0.17285 0.26163
0.15831 0.17393 0.26143
0.13449 0.061212 0.25235999
0.13457 0.061636001 0.25398999
0.13493 0.060648002 0.25220999
0.15624 0.21270999 0.26278999
0.15465 0.21085 0.26177999
0.15678 0.21056999 0.2624
0.14501999 0.048896998 0.28586
0.14574 0.051387001 0.28643
0.14613 0.050494 0.28604999
0.15813001 0.21009 0.26210001
0.15824001 0.21013001 0.26392001
0.15738 0.21204001 0.26275
0.16796 0.12811001 0.26883999
0.16807 0.12711 0.26953
0.16823 0.12557 0.2692
0.16112 0.21773 0.26256001
0.16068 0.21839 0.26365
0.16312 0.21862 0.26245999
0.12019 0.054065 0.24756999
0.12175 0.054988001 0.24845
0.12247 0.055794999 0.24782
0.13235 0.068126 0.23931
0.14875001 0.066845998 0.27577999
0.14951 0.068067998 0.27726001
0.14938 0.066880003 0.2753
0.16249 0.22436 0.27121001
0.16034 0.22441 0.27037999
0.16102 0.22318999 0.27094001
0.16492 0.24008 0.26767999
0.16311 0.24076 0.26633999
0.16362 0.24133 0.26721999
0.15728 0.19490001 0.26846001
0.15782 0.19515 0.26868001
0.15708999 0.19611999 0.26789999
0.15843999 0.14213 0.26374
0.15661 0.14257 0.26502001
0.15661 0.14390001 0.26466
0.18192001 0.21814001 0.28233999
0.18165 0.22008 0.28253999
0.16166 0.096809 0.27173001
0.16365001 0.097456999 0.27322999
0.16029 0.096593 0.27182001
0.16315 0.10266 0.24458
0.16482 0.10255 0.24374001
0.16349 0.099738002 0.24493
0.17611 0.079984002 0.30585
0.17668 0.079131998 0.30831
0.17216 0.087300003 0.28828001
0.17298999 0.087371998 0.28746
0.17105 0.087894998 0.28832
0.14817999 0.15065999 0.25026
0.14910001 0.15219 0.24913999
0.13924 0.057585999 0.27305001
0.14226 0.056736 0.27201
0.13981 0.055776998 0.27225
0.15861 0.21443 0.26109001
0.15751 0.215 0.26131001
0.15784 0.21476001 0.26100001
0.17310999 0.15341 0.28591001
0.17346001 0.15539999 0.28709999
0.17307 0.1551 0.28580001
0.16877 0.2334 0.27566001
0.16914 0.23503999 0.27329999
0.17062999 0.23409 0.27408001
0.17759 0.13565999 0.27449
0.17737 0.13522001 0.27506
0.17854001 0.13427 0.27410001
0.18294001 0.1944 0.28136
0.18192001 0.19199 0.27991
0.18329 0.19213 0.28159001
0.12872 0.058152001 0.24578001
0.12667 0.060036 0.24672
0.12841 0.058667999 0.24755
0.16377001 0.11793 0.25121999
0.16383 0.11896 0.25038999
0.1654 0.11896 0.25132
0.14275999 0.054648001 0.28068
0.14227 0.052896999 0.28051001
0.14192 0.054389998 0.28132001
0.16919 0.14048 0.27516001
0.16858999 0.14001 0.27386999
0.16987 0.14145 0.27546999
0.13257 0.066795997 0.25156
0.13321 0.066183999 0.25110999
0.13468 0.064873002 0.25178
0.14125 0.08281 0.25576001
0.14279 0.085101001 0.25494
0.16406 0.10796 0.27531999
0.16362999 0.1064 0.2737
0.16164 0.10761 0.27462
0.17536999 0.083558999 0.30035001
0.17422 0.084259003 0.29969999
0.14431 0.058430001 0.27652001
0.14373 0.057985 0.27715001
0.14199001 0.059712 0.27621999
0.15602 0.088183001 0.26563999
0.15694 0.089716002 0.26688999
0.15744001 0.088487998 0.26824
0.17051999 0.23344 0.27816999
0.16597 0.10584 0.24542999
0.16421001 0.10458 0.24547
0.16438 0.10612 0.24636
0.15843999 0.20777 0.25134999
0.15951 0.20663001 0.25165001
0.1585 0.20512 0.25268999
0.13198 0.058991998 0.25057
0.13176 0.059996001 0.24845999
0.16299 0.082294002 0.28334999
0.18504 0.12876999 0.27601999
0.18424 0.12788001 0.27384001
0.18422 0.12718 0.27489999
0.15651 0.23851 0.26080999
0.1576 0.23684999 0.25940001
0.15742999 0.23816 0.25990999
0.185 0.10468 0.27827999
0.15363 0.060522001 0.28240001
0.15436999 0.060752001 0.28148001
0.15356 0.060766 0.28176001
0.13538 0.08946 0.24913999
0.13281 0.089002997 0.24885
0.13449 0.089934997 0.25036001
0.17783 0.073445998 0.2985
0.14906999 0.15370999 0.24938001
0.15586001 0.24683 0.26028001
0.15612 0.24559 0.26075
0.16545001 0.12293 0.26625001
0.16498999 0.12237 0.26758999
0.16606 0.12399 0.26629001
0.17218 0.13771001 0.28299001
0.17292 0.13652 0.28382999
0.17204 0.13697 0.28499001
0.17016 0.21682 0.28094
0.17059 0.21617 0.28145999
0.15917 0.21052 0.26082
0.15927 0.21285 0.26008999
0.15913001 0.21286 0.26177001
0.18102001 0.1116 0.28156999
0.17907 0.11401 0.28062999
0.17891 0.114 0.28211999
0.16433001 0.2142 0.26866999
0.15895 0.11481 0.26890999
0.15972 0.11576 0.26704001
0.15816 0.11506 0.26776001
0.15593 0.067474 0.28222001
0.15504999 0.068490997 0.28137001
0.15582 0.066547997 0.27963999
0.17687 0.14122 0.28830001
0.17550001 0.14049 0.28665
0.17756 0.14016999 0.28828001
0.16156 0.071225002 0.28545001
0.16202 0.071076997 0.28692999
0.16316 0.071023002 0.28386
0.15990999 0.099798001 0.25040001
0.15759 0.10068 0.25206
0.15886 0.10108 0.25119999
0.16646001 0.22231001 0.27745
0.16853 0.22329 0.27878001
0.16676 0.22332001 0.27695
0.17946 0.091458 0.29049
0.18213999 0.093275003 0.28769001
0.18002 0.093070999 0.28827
0.15334 0.18649 0.26175001
0.15339001 0.18503 0.26227999
0.15445 0.18787999 0.26152
0.16923 0.23363 0.27717999
0.16989 0.23413999 0.27836001
0.16977 0.23329 0.27818999
0.17904 0.064557001 0.30796
0.1788 0.065435 0.30895001
0.14509 0.049456 0.28461999
0.14974 0.050988 0.28716999
0.18523 0.059716001 0.31156
0.18646 0.060750999 0.31125
0.18441001 0.061783001 0.31110001
0.13048001 0.070689999 0.25656
0.13032 0.070936002 0.25773999
0.13149001 0.070735 0.25740999
0.15557 0.2428 0.26223999
0.15791 0.24443001 0.26372001
0.15505999 0.24376 0.26299
0.16785 0.24321 0.27256
0.16850001 0.24119 0.27245
0.16839001 0.24084 0.27226001
0.15202001 0.24165 0.25632
0.15322 0.24258 0.25545001
0.18347999 0.1497 0.28737
0.18471999 0.14808001 0.28685001
0.18413 0.14828999 0.28617999
0.13318001 0.076417997 0.26271001
0.13119 0.076113001 0.26096001
0.13203999 0.075383 0.26098001
0.1583 0.24709 0.25920999
0.15892 0.24731 0.26141
0.16033 0.24566001 0.25973001
0.14262 0.072609998 0.26286
0.14316 0.072048999 0.26260999
0.16877 0.19456001 0.27695
0.16780999 0.19337 0.27814001
0.16531999 0.10686 0.2775
0.16410001 0.10404 0.27669999
0.16445 0.10426 0.27849001
0.13906001 0.086116999 0.25385001
0.13854 0.086260997 0.25345001
0.13846 0.086145997 0.25488999
0.12801 0.065916002 0.25933
0.12918 0.066719003 0.25832
0.12951 0.064143002 0.25764999
0.18038 0.18985 0.28349
0.15279 0.065223999 0.28055999
0.15205 0.062847003 0.28088999
0.15325999 0.063210003 0.28105
0.16177 0.18187 0.26778999
0.16218001 0.18099 0.26831999
0.16346 0.18032999 0.26642001
0.17946 0.16406 0.27395001
0.17913 0.1645 0.27362999
0.13549 0.073142998 0.24506
0.13733999 0.074184999 0.24388
0.13694 0.073519997 0.24541999
0.17025 0.15786 0.27946001
0.17168 0.15786 0.27821001
0.15922 0.097976997 0.27151
0.1842 0.088554002 0.30087
0.18499 0.089584999 0.30184999
0.13369 0.076993003 0.24041
0.13291 0.078904003 0.24207
0.15956999 0.075106002 0.27677
0.15820999 0.076808996 0.27744001
0.15786 0.075792998 0.27807
0.13044 0.060880002 0.26045999
0.13084 0.061854001 0.25959
0.131 0.063451998 0.26095
0.14489 0.059450999 0.2656
0.14414001 0.061035998 0.26526001
0.14601 0.061170999 0.26321
0.16111 0.11581 0.26023999
0.16058999 0.11321 0.26210999
0.16021 0.11605 0.26229
0.15955 0.10502 0.25277001
0.15959001 0.10483 0.25229001
0.15928 0.10446 0.25389001
0.14966001 0.063669004 0.27871999
0.15188999 0.064354002 0.28105
0.16334 0.24521001 0.26802999
0.16339999 0.24563 0.26815999
0.16424 0.24309 0.26916999
0.20028 0.058851 0.31531
0.19921 0.059461001 0.31441
0.14885999 0.091559 0.25082999
0.14805 0.092229001 0.25196001
0.1481 0.14147 0.26405001
0.15123001 0.14049 0.26407999
0.15013 0.13940001 0.26301
0.1578 0.15515 0.27717999
0.15774 0.15445 0.27627
0.13438 0.060476001 0.25753
0.16811 0.24022 0.27704
0.17039999 0.24270999 0.27671
0.12041 0.052839998 0.24508999
0.12087 0.051337 0.24257
0.11876 0.052850001 0.24421
0.15696 0.23841999 0.26620001
0.15759 0.23782 0.26638001
0.15686999 0.24011999 0.26649001
0.17256001 0.21944 0.28301999
0.17337 0.21769001 0.28279999
0.17376 0.21967 0.28066
0.17727999 0.16301 0.27384001
0.1753 0.16327 0.27188
0.17659999 0.16474999 0.27276999
0.13804001 0.066059001 0.26232001
0.13901 0.066886999 0.25935999
0.13955 0.067194998 0.26010999
0.15534 0.059427001 0.29001001
0.15492 0.058552999 0.29163
0.15604 0.059569001 0.29063001
0.16982 0.20588 0.28143999
0.16948999 0.20589 0.28145999
0.17295 0.20621 0.28119001
0.14642 0.1344 0.25652
0.14771 0.13440999 0.25431001
0.14662001 0.13399 0.25481999
0.17466 0.12778001 0.27520999
0.17357001 0.12725 0.27528
0.15955 0.11392 0.26199999
0.1585 0.11474 0.26315001
0.15849 0.11424 0.26339
0.16152 0.11483 0.26119
0.16005 0.11512 0.26076001
0.15633 0.24137001 0.26581001
0.15701 0.24068999 0.26539999
0.1574 0.24071001 0.26557001
0.12116 0.056067999 0.25363001
0.12119 0.058159001 0.25209999
0.13273001 0.072109997 0.26100001
0.13324 0.070240997 0.26100999
0.13451999 0.072020002 0.26151001
0.16312 0.095215999 0.27226999
0.11818 0.052535001 0.25643
0.11851 0.053831998 0.25571001
0.16525 0.16186 0.27339
0.16651 0.16292 0.27357
0.16662 0.16381 0.27066001
0.17631 0.053160001 0.29682001
0.17641 0.049162 0.29671001
0.17613 0.051759001 0.29751
0.19807 0.056028001 0.31862
0.19670001 0.05415 0.3177
0.19712999 0.054097001 0.31922001
0.17568 0.15207 0.28883001
0.1776 0.15131 0.28812
0.17547999 0.15063 0.28726
0.16325 0.13152 0.26846999
0.16456001 0.13313 0.26785001
0.16369 0.13353001 0.26938999
0.17703 0.13166 0.28432
0.17759 0.13336 0.2852
0.17869 0.13327999 0.285
0.13518 0.0605 0.24270999
0.13600001 0.061457001 0.24138001
0.18519001 0.11571 0.27406001
0.18411 0.11661 0.27399999
0.18584 0.11582 0.27377
0.15606999 0.20412999 0.25253001
0.15572999 0.20319 0.25156
0.15482 0.20325001 0.25347
0.16701999 0.13476001 0.27094999
0.17329 0.11394 0.25141999
0.17376 0.1131 0.25095999
0.17129 0.11377 0.25169
0.14848 0.15271001 0.25202999
0.14726 0.15267 0.25156
0.14659999 0.088809997 0.26425999
0.14866 0.088064998 0.26502001
0.14733 0.089515999 0.26460999
0.17648 0.23779 0.28226
0.17633 0.23672 0.28095999
0.17693 0.23814 0.28064999
0.15199 0.14597 0.24933
0.15013 0.14771999 0.24816
0.15121 0.14712 0.24908
0.13163 0.071001001 0.25318
0.13131 0.069303997 0.25503001
0.13036001 0.069655001 0.25666001
0.17259 0.079044998 0.30015999
0.17126 0.079112001 0.30072999
0.17290001 0.080288 0.29914999
0.17791 0.12793 0.27089
0.17833 0.13011 0.27024999
0.17856 0.12913001 0.27004999
0.18284 0.084167004 0.30274999
0.18321 0.083876997 0.30112001
0.16144 0.17419 0.26389
0.16389 0.17297 0.26350001
0.1636 0.17636999 0.26258999
0.15042 0.060943 0.28088
0.14856 0.059275001 0.27857
0.14928 0.060509998 0.28141999
0.18133999 0.12837 0.27961001
0.18389 0.12868001 0.27914
0.1825 0.12716 0.27917001
0.16358 0.24055 0.26973
0.1649 0.24124999 0.26923999
0.16588999 0.20488 0.27039
0.16574 0.20541 0.27177
0.16676 0.20753001 0.27024001
0.17031001 0.18724 0.28119001
0.16982999 0.18512 0.27959001
0.17117 0.18605 0.28134
0.18051 0.13003001 0.28209999
0.17851 0.12961 0.28358001
0.17924 0.13015001 0.28143999
0.16979 0.16539 0.27215999
0.17073999 0.16571 0.27166
0.17049 0.16646001 0.27243999
0.17332999 0.14802 0.28878
0.1724 0.14799 0.28920001
0.17527001 0.1455 0.28769001
0.15557 0.21836001 0.25373
0.15542001 0.21975 0.25523999
0.15546 0.219 0.25463
0.15290999 0.081260003 0.2705
0.1523 0.081317 0.26874
0.16371 0.13044 0.25995001
0.16315 0.13026001 0.25966001
0.16537 0.13034999 0.25981
0.1776 0.067625999 0.30228001
0.17709 0.069893003 0.30206999
0.17615999 0.067562997 0.30162001
0.14316 0.089455999 0.25378999
0.14165001 0.088327996 0.25307
0.17591 0.18543001 0.28424001
0.17404 0.18556 0.28251001
0.17597 0.18540999 0.28274
0.16932 0.18134999 0.27180001
0.16753 0.18414 0.27394
0.16908 0.18257 0.27285001
0.17456 0.12592 0.27502
0.17456 0.12772 0.27557001
0.16255 0.18543001 0.26323
0.16211 0.18242 0.26337001
0.16230001 0.18472999 0.26269999
0.15062 0.14959 0.24704
0.17928 0.21765 0.28248999
0.17882 0.21809 0.28228
0.18002 0.21775 0.28327
0.1725 0.18291999 0.27418
0.17192 0.18265 0.27485999
0.17263 0.18351001 0.27451
0.15755001 0.22627001 0.25654
0.15597001 0.22382 0.25582999
0.15625 0.22499999 0.25709999
0.14584 0.058290001 0.26469001
0.14417 0.058272 0.26403001
0.14522 0.058070999 0.26376
0.15985 0.099413998 0.27309999
0.16133 0.097534999 0.27305001
0.16072001 0.099189997 0.27394
0.15434 0.14399999 0.24891999
0.15436999 0.14456999 0.24775
0.15456 0.14432999 0.24903999
0.17127 0.17823 0.27364001
0.17157 0.17712 0.27335
0.17058 0.17685001 0.27296001
0.16282 0.15748 0.27752
0.16192 0.15640999 0.27937999
0.16453999 0.15763 0.27774999
0.16013999 0.22596 0.27006
0.16134 0.22629 0.26989001
0.16049001 0.2281 0.27103001
0.15578 0.22102 0.25354001
0.15579 0.22035 0.25479001
0.15599 0.2202 0.25477999
0.15432 0.12114 0.25942999
0.15621001 0.12041 0.25955999
0.15489 0.12093 0.25927001
0.15452 0.18692 0.25757
0.15262 0.18678001 0.25611001
0.15715 0.19044 0.26374
0.15583 0.19024999 0.26398
0.15758 0.18775 0.26311001
0.16799 0.11403 0.24167
0.16932 0.1132 0.24154
0.16807 0.11328 0.2405
0.18772 0.12796 0.27125001
0.18799999 0.12875 0.27160001
0.15965 0.11848 0.26616001
0.15962 0.11755 0.26692
0.16089 0.1186 0.26898
0.16717 0.14837 0.278
0.16661 0.14644 0.27700001
0.16666999 0.14779 0.27869999
0.15802 0.10548 0.25648001
0.11876 0.052134998 0.24483
0.11717 0.051596999 0.24445
0.11749 0.050228 0.24526
0.19967 0.060961999 0.31305
0.19979 0.061154 0.31123999
0.19802999 0.061684001 0.31187999
0.15764 0.1123 0.2597
0.1701 0.15663999 0.27609
0.17263 0.093990996 0.2811
0.16825999 0.19611999 0.27647001
0.16909 0.19701999 0.27471
0.15012001 0.14574 0.26412001
0.15109999 0.14551 0.26447001
0.1513 0.14421 0.26565
0.19959 0.062887996 0.3046
0.19891 0.062857002 0.30454001
0.20011 0.061958 0.30667999
0.14195 0.087995 0.25988999
0.14287999 0.087263003 0.25948
0.14191 0.087228999 0.25988999
0.14011 0.082395002 0.26348999
0.13835 0.079921 0.26528001
0.17371 0.19396 0.28262001
0.15899 0.081317 0.27843001
0.16133 0.081439003 0.28022
0.16176 0.20300999 0.26546001
0.17174999 0.13950001 0.27928999
0.17236 0.13891999 0.27658999
0.17328 0.13857 0.27891001
0.18849 0.056207001 0.31722
0.19007 0.056582 0.31883001
0.18959001 0.056237999 0.32014999
0.14741001 0.1495 0.2559
0.14772999 0.15056001 0.25356999
0.14749999 0.1506 0.25305
0.17183 0.16943 0.27599999
0.17278001 0.16844 0.27340001
0.17047 0.16896001 0.27412
0.17892 0.21483 0.28022999
0.17874999 0.21546 0.27996001
0.16401 0.13733999 0.27252999
0.1649 0.13940001 0.27092999
0.16652 0.13722999 0.27346
0.19454999 0.087738 0.29007
0.1938 0.089097999 0.29102001
0.1944 0.087169997 0.29067999
0.16441 0.23398 0.26684999
0.16339 0.23327 0.26471001
0.17676 0.21224 0.28136
0.17829999 0.21412 0.28262001
0.17660999 0.21489 0.28159001
0.16250999 0.17750999 0.27122
0.16391 0.1781 0.26975
0.1647 0.17636999 0.27063
0.14782999 0.075758003 0.26693001
0.14696001 0.077993996 0.26631999
0.1471 0.076719999 0.26644
0.15622 0.17939 0.26231
0.15477 0.17966001 0.26194999
0.15657 0.17885 0.26041999
0.1716 0.20823 0.28007001
0.17094 0.20803 0.28097001
0.17215 0.20642 0.28119999
0.15341 0.20195 0.26447001
0.15328 0.20039 0.26587999
0.13282 0.068060003 0.24573
0.13517 0.067195997 0.24415
0.14545999 0.089020997 0.25364
0.14497 0.089841999 0.25435999
0.14481001 0.089350998 0.25327
0.16199 0.20904 0.26668
0.16173001 0.20957001 0.26618999
0.16282 0.20888001 0.26543
0.17403001 0.13371 0.27564999
0.17442 0.13195001 0.27474001
0.17498 0.13327999 0.27443999
0.16167 0.094232 0.24821
0.15978999 0.092926003 0.24976
0.16146 0.094181001 0.24839
0.17693 0.23120999 0.27947
0.17634 0.23124 0.28061
0.17588 0.23191001 0.27952999
0.11969 0.053530999 0.26192001
0.1208 0.052329 0.26177999
0.12175 0.052974001 0.26143
0.16742 0.19057 0.27353001
0.17020001 0.1911 0.27276
0.16682 0.19053 0.27313
0.15955 0.22563 0.26773
0.16006 0.22775 0.26771
0.16005 0.22549 0.26719001
0.17212 0.064909004 0.29078999
0.17096999 0.063863002 0.29025999
0.17076001 0.062709004 0.2899
0.17931999 0.063867003 0.30926001
0.18031 0.064958997 0.30985001
0.17826 0.064471997 0.31171
0.15274 0.18585999 0.25816
0.16222 0.18828 0.27294001
0.16222 0.18763 0.27283999
0.15876 0.19633 0.26978999
0.15994 0.19741 0.2701
0.15888 0.19724999 0.26842999
0.17711 0.16077 0.27399001
0.17566 0.15905 0.27607
0.17579 0.15863 0.27439001
0.17889 0.092009 0.28918999
0.16728 0.20767 0.27344999
0.16786 0.20465 0.27364001
0.1682 0.20491 0.27500999
0.17851 0.073549002 0.30430999
0.18073 0.072267003 0.30443999
0.18006 0.072172001 0.30476001
0.17793 0.053856 0.30309999
0.17722 0.055069 0.30456999
0.14293 0.086728998 0.26508999
0.14396 0.086698003 0.26538
0.14489999 0.086255997 0.26576999
0.17219 0.13605 0.27605999
0.1719 0.1374 0.27562001
0.17019001 0.13699999 0.27522999
0.15216 0.058272999 0.28523999
0.15411 0.059016999 0.28281999
0.15394001 0.12164 0.26846001
0.15425999 0.12084 0.26822001
0.15369 0.12101 0.26758
0.17829999 0.23176 0.27485999
0.16966 0.23181 0.27524
0.17037 0.23258001 0.27616999
0.146 0.055481002 0.26644
0.14466999 0.054053001 0.26607001
0.17485 0.24434 0.27695999
0.1725 0.24589001 0.27794999
0.17417 0.24586 0.27895001
0.15518001 0.19824 0.25108001
0.15587001 0.1979 0.25018999
0.15501 0.19655 0.25185999
0.1646 0.062052999 0.29229
0.16464999 0.060632002 0.29067001
0.16443001 0.062433001 0.2911
0.15414 0.10574 0.26038
0.15541001 0.10721 0.25968999
0.15537 0.10603 0.26043999
0.15877999 0.22457001 0.26390001
0.15952 0.22436 0.26385
0.14544 0.14732 0.25972
0.14681999 0.14797001 0.25885001
0.14585 0.14628001 0.25815001
0.17665 0.058357999 0.30493999
0.17679 0.056908 0.30726999
0.17846 0.062015999 0.29574999
0.17584001 0.091256 0.28229001
0.17275999 0.090237997 0.28163999
0.17444 0.089754999 0.28163001
0.15825 0.19034 0.26932001
0.15635 0.19171999 0.26894999
0.15701 0.19051 0.26875001
0.13312 0.063524999 0.24169999
0.13264 0.066552997 0.24043
0.18153 0.19673 0.28209999
0.17845 0.19634999 0.28152999
0.17955001 0.19506 0.28389999
0.14161 0.051194999 0.26176
0.14444999 0.051123001 0.26041001
0.14376 0.052471999 0.26056001
0.15466 0.085621998 0.27072999
0.15482 0.086037003 0.26793
0.15482 0.085051 0.26942
0.17947 0.083396003 0.30406001
0.17997999 0.082466997 0.30346999
0.13601001 0.085946001 0.25371999
0.13562 0.086646996 0.25509
0.13625 0.087429002 0.25433001
0.12274 0.055008002 0.23925
0.12283 0.054829001 0.23683
0.12135 0.055620998 0.23806
0.15714 0.20087001 0.2705
0.15910999 0.20166001 0.27085999
0.15714 0.20204 0.26800999
0.17866001 0.16027001 0.27728999
0.18043999 0.15907 0.27684999
0.15896 0.24338 0.26306
0.15785 0.24498001 0.26219001
0.15921 0.24511001 0.26477
0.13753 0.080802999 0.26142001
0.13594 0.082098 0.26021999
0.13733 0.082222 0.26056001
0.17997 0.053828001 0.31758001
0.18198 0.054262001 0.32052001
0.15640999 0.1812 0.26135001
0.15673 0.17983 0.26312
0.15478 0.21708 0.25323001
0.15614 0.21867 0.25128999
0.15662999 0.21630999 0.25147
0.15888 0.19243 0.24952
0.15938 0.19174001 0.25108999
0.15947001 0.19053 0.25047001
0.17554 0.24107 0.28094
0.17502999 0.24196 0.28112999
0.17505001 0.24216001 0.28123
0.16139001 0.2158 0.27296001
0.16267 0.21649 0.27426001
0.16211 0.21716 0.27377999
0.17570999 0.20645 0.28323999
0.17625 0.2058 0.28321999
0.17626999 0.20695999 0.28275001
0.16006 0.1724 0.25242001
0.15820999 0.17521 0.25161999
0.15231 0.12446 0.26133001
0.15291999 0.124 0.26265001
0.16748001 0.20235001 0.27298999
0.16755 0.20056 0.27331001
0.1693 0.20129 0.27472001
0.17148 0.098200001 0.27873001
0.17227 0.098683998 0.27833
0.16150001 0.16474999 0.25406
0.16154 0.16321 0.25420001
0.16079 0.16326 0.25402999
0.16158 0.17121001 0.25711
0.16057999 0.17036 0.25663999
0.16249 0.16967 0.25718999
0.16324 0.13798 0.27366
0.16336 0.13738 0.27289999
0.16478001 0.13651 0.27234
0.14216 0.088372998 0.25924999
0.14311001 0.088541999 0.25832999
0.16267 0.11427 0.26901999
0.16052 0.11467 0.26829001
0.16126999 0.11378 0.26929
0.18271001 0.19168 0.28165999
0.18347 0.19168 0.28165999
0.15866999 0.11514 0.26525
0.15668 0.11404 0.26521999
0.15745001 0.10787 0.26719001
0.1591 0.10759 0.26756999
0.15918 0.1064 0.26686001
0.15929 0.095871001 0.26306999
0.15634 0.097026996 0.26339999
0.15736 0.096483 0.26282999
0.16320001 0.22394 0.24934
0.16402 0.22510999 0.25033
0.16531 0.22677 0.24855
0.17519 0.16835999 0.2746
0.18181001 0.091367997 0.29063001
0.18355 0.09048 0.29126999
0.18344 0.091852002 0.28780001
0.15434 0.053936001 0.29508999
0.15392999 0.054432999 0.29458001
0.15361001 0.052859999 0.2969
0.16174001 0.15402 0.27691001
0.1723 0.2475 0.28152001
0.1725 0.24654 0.28090999
0.17231999 0.24589001 0.28152999
0.17375 0.09826 0.27952999
0.17132001 0.10111 0.27996001
0.18245 0.057280999 0.31466001
0.18162 0.059133001 0.31253001
0.18384001 0.058086 0.31319001
0.15019999 0.15276 0.24759001
0.15056001 0.15267 0.2472
0.14992 0.1512 0.24631999
0.16162001 0.14112 0.27564001
0.16267 0.14143001 0.27577999
0.16335 0.1436 0.27671999
0.14636 0.1512 0.25786999
0.14721 0.14926 0.25613999
0.14712 0.15163 0.25723001
0.16325 0.18283001 0.26977
0.16334 0.18299 0.26943001
0.16372 0.18336 0.26743999
0.13733999 0.070545003 0.24109
0.13752 0.069237001 0.24116001
0.13812999 0.069508001 0.24031
0.17676 0.21351001 0.28020999
0.17665 0.21536 0.28202999
0.17613 0.21595 0.28007001
0.14669 0.089984 0.24793001
0.17784999 0.088092998 0.29692999
0.17744 0.088177003 0.29663
0.1701 0.079149 0.29464999
0.16945 0.077132002 0.29561001
0.16016001 0.21312 0.27215001
0.16232 0.21397001 0.27224001
0.16158 0.21455 0.27382001
0.18110999 0.050197002 0.32348001
0.18113001 0.050376002 0.32053
0.18307 0.050602999 0.32275
0.15684 0.093653001 0.25290999
0.15651 0.095585003 0.25307
0.15703 0.095187999 0.25419
0.13209 0.085096002 0.25488999
0.12952 0.086923003 0.25431001
0.17321999 0.13886 0.28659999
0.17226 0.14061999 0.28564
0.17274 0.13879 0.2852
0.15356 0.062642001 0.28048
0.15478 0.061558001 0.28266999
0.15397 0.063092001 0.28075001
0.13744999 0.067943998 0.26157001
0.13844 0.067156002 0.26229
0.13783 0.068305999 0.26159
0.15028 0.14532 0.26381999
0.14936 0.050740998 0.28670001
0.14794999 0.051601999 0.28625
0.15091 0.090580001 0.25336999
0.14821 0.092109002 0.25156999
0.12751 0.054781999 0.26357001
0.12988 0.055741001 0.26339
0.12695 0.055367 0.26241001
0.17082 0.21089 0.27742001
0.17265999 0.21084 0.27856001
0.17076001 0.21106 0.27673
0.16468 0.16633999 0.25071001
0.16547 0.16594 0.24817
0.16683 0.16489001 0.24985
0.1761 0.076205999 0.30386001
0.17678 0.076732002 0.30256999
0.17772 0.076773003 0.30373001
0.17667 0.15589 0.28654999
0.178 0.15631001 0.28606999
0.17676 0.15491 0.28551
0.16667999 0.12542 0.26771
0.1652 0.1261 0.26694
0.16474 0.12833001 0.26796001
0.15796 0.22237 0.26938
0.15775999 0.22262999 0.26824
0.15854 0.22228 0.26919001
0.15884 0.070486002 0.2809
0.15922999 0.072315998 0.28009999
0.16054 0.072370999 0.27886999
0.19989 0.060605999 0.31531
0.20122001 0.061746001 0.31152001
0.20067 0.061563998 0.31189001
0.14948 0.086112998 0.26815999
0.14955001 0.085006997 0.26701999
0.15075 0.084996998 0.26899999
0.17715 0.053367 0.30344
0.17603 0.05367 0.30537999
0.17122 0.088368997 0.28913999
0.1698 0.086808003 0.28650999
0.16866 0.088515997 0.28766999
0.12623 0.055881999 0.26198
0.12627 0.054738 0.26209
0.12679 0.054775 0.26355001
0.17648 0.14065 0.28786999
0.17758 0.13411 0.28613999
0.17711 0.13288 0.28532001
0.16547 0.089993 0.27789
0.16416 0.087370999 0.27652001
0.16379 0.086712003 0.27719
0.15406001 0.085600004 0.25025001
0.15331 0.086032003 0.24911
0.15355 0.087681003 0.25046
0.15085 0.062945999 0.28134
0.14148 0.086507 0.25527
0.14161 0.085796997 0.25582001
0.14235 0.083215997 0.25612
0.15810999 0.22515 0.25464001
0.15789001 0.22645 0.2561
0.15864 0.22462 0.25586
0.15797 0.17512 0.26223999
0.15904 0.17305 0.26135001
0.16762 0.24019 0.27039
0.16832 0.2392 0.27221
0.16778 0.23837 0.27151999
0.11919 0.057514999 0.25268
0.12137 0.057351001 0.25145
0.19878 0.072746001 0.30586001
0.19693001 0.073786996 0.30543
0.19701 0.072469003 0.30306
0.15584999 0.19536 0.266
0.15614 0.19638 0.26473999
0.13118 0.078486003 0.25893
0.12908 0.079297997 0.25931999
0.12887 0.079944 0.25832999
0.14757 0.14817999 0.26289999
0.14992 0.1478 0.26372999
0.15288 0.050409999 0.29262999
0.15298 0.051162001 0.29354
0.15316001 0.050654002 0.29244
0.15871 0.087647997 0.27173001
0.17485 0.072616003 0.29348001
0.17376 0.072622001 0.29587999
0.17566 0.071855001 0.29513001
0.17628001 0.14114 0.28788999
0.1779 0.14306 0.28773999
0.17742001 0.14428 0.28810999
0.1753 0.055620998 0.29370001
0.17378999 0.055688001 0.29102999
0.17376 0.054848 0.29175001
0.16303 0.097806998 0.27524
0.16226 0.096175 0.27473
0.1714 0.10042 0.27889001
0.18061 0.24680001 0.25762999
0.17621 0.24581 0.25757
0.18029 0.24600001 0.25781
0.17611 0.11415 0.27996999
0.17338 0.11286 0.27914
0.16125 0.17489 0.26265001
0.16041 0.17529 0.26372999
0.15951 0.17426001 0.26319
0.15772 0.095251001 0.26657
0.15711001 0.095798001 0.26784
0.13866 0.074231997 0.26124001
0.13912 0.074529 0.26183999
0.13741 0.075029001 0.26058999
0.17508 0.12196 0.27540001
0.17512999 0.12135 0.27652001
0.17505001 0.11926 0.27630001
0.16658001 0.20313001 0.27072001
0.1661 0.20293 0.27135
0.16513 0.20492999 0.27169001
0.15981001 0.22736 0.26919001
0.16107 0.22708 0.27022001
0.16218001 0.22874001 0.26875001
0.16523001 0.17037 0.26973
0.16445 0.16892 0.26949999
0.16721 0.16926 0.27160999
0.19446 0.060841002 0.3125
0.19687 0.059810001 0.31345001
0.13639 0.071998999 0.26089001
0.13711999 0.071454003 0.26034001
0.13504 0.073705003 0.26008999
0.15535 0.2449 0.25727999
0.12499 0.056131002 0.26146999
0.12467 0.055360001 0.26067001
0.12487 0.055574 0.26144001
0.18097 0.13964 0.28979999
0.18178 0.13919 0.28881001
0.18179999 0.14088 0.28884
0.17347001 0.17318 0.27184001
0.17195 0.17418 0.27274999
0.16034999 0.22425 0.27144
0.15976 0.22457001 0.27124
0.16957 0.093865998 0.27855
0.17058 0.093814999 0.27832001
0.15633 0.096956 0.25369999
0.15559 0.094160996 0.25536001
0.15613 0.095308997 0.25593001
0.17519 0.22095001 0.28139001
0.17805 0.22348 0.28001001
0.17436001 0.22229999 0.28130999
0.16102999 0.081067003 0.27928999
0.16256 0.080358997 0.27976
0.15971 0.12159 0.26341999
0.15857001 0.12197 0.26515001
0.15997 0.12185 0.26376
0.15989 0.065311998 0.29085001
0.15921 0.065637 0.29036
0.16060001 0.064855002 0.28896999
0.15984 0.22923 0.25560001
0.15902001 0.22836 0.25505999
0.15990999 0.22982 0.25599
0.17429 0.24482 0.28005001
0.17544 0.24329001 0.28123
0.17608 0.24353001 0.28117999
0.15434 0.20242999 0.25242999
0.15395001 0.20384 0.25242999
0.15446 0.2051 0.25275999
0.15784 0.15654001 0.27261999
0.15805 0.15719 0.27006999
0.15753999 0.15813001 0.27081999
0.15446 0.20265 0.26563001
0.15615 0.20162 0.26675999
0.15603 0.20246001 0.26657
0.15549 0.066435002 0.28286999
0.15651999 0.066307001 0.28421
0.15752999 0.066859998 0.28406
0.17652 0.11269 0.27915999
0.17831001 0.11196 0.27700001
0.17722 0.11325 0.27713999
0.14666 0.13248999 0.25622001
0.14675 0.13319001 0.25795999
0.14683001 0.13218001 0.25685999
0.1683 0.1753 0.26936999
0.16923 0.17594001 0.26978001
0.16917001 0.17365 0.26831001
0.16415 0.17145 0.26925001
0.16281 0.16977 0.27092001
0.16285001 0.17163 0.26848999
0.15583999 0.19742 0.25612
0.15539999 0.19747999 0.25454
0.15707999 0.19799 0.25738001
0.184 0.089162998 0.29887
0.18404 0.088500001 0.29947999
0.18434 0.087817997 0.29947001
0.17003 0.23869 0.27068999
0.16823 0.24097 0.27168
0.16886 0.24054 0.27226001
0.1769 0.069917001 0.29832
0.17947 0.071291998 0.29764
0.17750999 0.072148003 0.29765999
0.15377 0.19971 0.26442
0.17849 0.059932999 0.30000001
0.17730001 0.059514001 0.29999
0.17732 0.058327999 0.29791
0.18251 0.14192 0.2881
0.18287 0.14212 0.28720999
0.18302 0.14112 0.28819999
0.16865 0.11245 0.24347
0.16908 0.11297 0.24337
0.16417 0.11388 0.24794
0.16282 0.11407 0.24635001
0.16107 0.11281 0.24906
0.1762 0.10604 0.27935001
0.16675 0.16582 0.25005999
0.16610999 0.1671 0.25036001
0.18031999 0.050988998 0.32045001
0.18421 0.050399002 0.32297
0.16457 0.15852 0.27482
0.16425 0.15967999 0.27441999
0.16407 0.12599 0.26888001
0.16278 0.12579 0.26710999
0.16505 0.12525 0.26782
0.15199 0.087687001 0.26811001
0.1515 0.087683998 0.26989999
0.15142 0.087876998 0.26887
0.15792 0.078423999 0.27976
0.16055 0.080150999 0.28077999
0.16055 0.078952998 0.27946001
0.16437 0.12086 0.26620001
0.16665 0.12126 0.26694
0.18082 0.056908999 0.31584999
0.17893 0.055411 0.31608
0.17964999 0.054637 0.31593001
0.16637 0.11648 0.27074
