# .PCD v0.7 - Point Cloud Data file format
VERSION 0.7
FIELDS x y z
SIZE 4 4 4
TYPE F F F
COUNT 1 1 1
WIDTH 1483
HEIGHT 1
VIEWPOINT 0 0 0 1 0 0 0
POINTS 1483
DATA ascii
0.25578001 0.0094261002 0.021442
0.25386 0.0027976001 0.013466
0.25492001 0.0025581999 0.012403
0.26359999 0.017129 0.016186999
0.26438999 0.082774997 0.047361001
0.26346999 0.082652003 0.046987001
0.236 0.065566003 0.020931
0.28369001 0.095559001 0.068098001
0.27113 -0.052978002 0.0058223
0.22485 0.079384997 0.032988999
0.2252 0.078500003 0.032614999
0.22382 0.078286998 0.032127
0.26041001 0.069360003 0.023507999
0.26124001 0.071886003 0.024797
0.32706001 -0.044886 0.047435999
0.32832 -0.045026001 0.046225999
0.32534999 -0.045678999 0.035374999
0.32605001 -0.046891998 0.034878001
0.21683 0.064916 0.028217999
0.31292 0.079770997 0.098402001
0.26826999 0.023279 0.02423
0.26912999 0.023322999 0.024274001
0.30441001 -0.02149 0.040559001
0.31399 0.063968003 0.018167
0.31760001 0.015626 0.033220001
0.31582999 0.015606 0.03359
0.31613001 0.015655 0.034150999
0.27467999 0.032136999 0.010615
0.27329001 0.032575998 0.011235
0.27513 0.032467999 0.0098169995
0.26328999 0.055794999 0.011336
0.27619001 0.087723002 0.03022
0.27614 0.087843001 0.030839
0.30772001 0.057394002 0.0072213998
0.33258 -0.052134998 0.052081998
0.33318001 -0.051502001 0.051440001
0.28955001 0.026446 0.0060466998
0.28986999 0.028266 0.0061535002
0.30746999 -0.0073529999 -0.0094146002
0.29159999 0.0084378999 0.0078027002
0.31292 -0.0068779001 0.028712001
0.30915001 -0.040619999 0.034150999
0.30881 -0.040093999 0.035039999
0.31884 0.065563001 0.055748999
0.31832001 0.065697998 0.056026999
0.26203001 0.017219 0.017679
0.28737 0.0095378002 0.010603
0.31619999 0.072991997 0.081151001
0.31691 0.074137002 0.080476001
0.31647 0.074104004 0.080559
0.26051 -0.046383001 0.0076898001
0.29894999 -0.0043484 -0.0067413002
0.30094001 -0.0044288998 -0.0075519001
0.30094001 -0.0054716999 -0.0072118999
0.32661 0.068525001 0.072434999
0.30098999 0.067876004 0.0043972
0.24201 0.05263 0.01415
0.257 -0.053668998 0.01221
0.32659 0.072649002 0.079866998
0.32710001 0.071232997 0.080369003
0.25757 0.050324 0.011768
0.25459999 0.0076545002 0.017423
0.22691999 0.052374002 0.026838999
0.25843 0.049975999 0.013386
0.26425999 0.056380998 0.010574
0.27595001 -0.023149 0.010693
0.27123001 0.038683001 0.0091442
0.30129001 0.078166999 0.0088868998
0.28386 0.093378998 0.06256
0.30511001 0.069035999 0.0082946001
0.21565001 0.067330003 0.035296999
0.21651 0.067598 0.033697002
0.29934001 0.082433 0.012631
0.26521999 0.010509 0.0063747
0.29648 0.045186002 0.005376
0.30761999 0.078980997 0.027197
0.32466 0.063203998 0.066561997
0.32447001 0.064071 0.065378003
0.32570001 0.062547997 0.066287003
0.25692001 -0.046319999 0.01722
0.26313001 0.073142 0.026636999
0.30971 -0.051350001 0.026891001
0.26936999 0.0027022001 0.0055137002
0.26626 0.051375002 0.010487
0.26668999 0.049632002 0.0098404
0.29859999 0.0063208998 0.0088488003
0.31456 0.067736 0.024406999
0.27471 0.051954001 0.0017662999
0.29934999 0.059934001 0.0028247
0.28862 0.068754002 0.00060798001
0.32121 -0.051189002 0.027543999
0.31578001 0.005752 0.024462
0.31705001 0.0058581 0.025254
0.2385 0.059728 0.019273
0.23902 0.060532 0.019192001
0.23830999 0.059037 0.018554
0.28913 0.054095998 -0.00045990001
0.30283001 0.030918 0.013324
0.27168 0.037935998 0.01228
0.27318001 0.037269998 0.011257
0.31209999 0.070886999 0.019986
0.31951001 0.012918 0.033982001
0.31996 0.012841 0.035433002
0.31996 0.012101 0.035165999
0.27096999 0.082093999 0.022616999
0.27283999 -0.00097835995 0.0079867998
0.27586001 -0.021229999 0.010043
0.22916 0.067873999 0.017534999
0.29403001 0.039705001 0.0060212002
0.31562999 0.052816 0.025587
0.31533 0.052997001 0.024670999
0.28839999 0.084895998 0.012388
0.25874001 -0.053442001 0.011397
0.30599001 0.0030346999 0.021787999
0.30642 0.0792 0.019584
0.30629 0.07982 0.021158
0.30671999 0.078702003 0.019362999
0.22569001 0.069034003 0.020102
0.22509 0.069596 0.0198
0.27160999 -0.039717 0.0011165
0.26427001 0.075939 0.045782
0.26018 0.01435 0.016525
0.30278999 0.07367 0.0075055002
0.30151001 0.074588001 0.0081165005
0.28172001 0.094056003 0.064457998
0.26785001 -0.052813999 0.0038621
0.26800001 -0.052855998 0.0043517002
0.21965 0.088386998 0.051844999
0.27858999 0.031993002 0.0072161001
0.27794999 0.031597 0.0086730998
0.27746001 -0.029897001 0.011433
0.27789 -0.030335 0.010368
0.32493001 -0.034293 0.033390999
0.26466 -0.014465 0.0090894001
0.32088 0.065644003 0.064382002
0.32205001 0.065219998 0.065424003
0.32029 -0.037572 0.028472001
0.27524 0.064064004 0.0019849001
0.27581999 0.064112999 0.0018197
0.27042001 0.081083 0.023022
0.25536001 -0.026513999 0.014989
0.25749001 -0.027377 0.0084806997
0.3242 -0.050818 0.032490999
0.32403001 -0.049858999 0.031645998
0.30739999 0.044445001 0.01046
0.25422999 -0.019787 0.016711
0.27957001 0.012809 0.0087663997
0.26234001 0.072875999 0.025481001
0.29606 0.023907 0.0088697998
0.32253999 -0.014952 0.036003001
0.31072 -0.045101002 0.031647999
0.22297999 0.082511 0.034240998
0.25408 0.052783001 0.011605
0.226 0.084247999 0.037526
0.25472 0.090063997 0.049541
0.32574999 -0.048588999 0.035907999
0.26124999 0.078166001 0.050859001
0.26319 0.078941002 0.049261
0.26194 0.078253001 0.050705999
0.21378 0.079797998 0.043108001
0.32464999 -0.035243999 0.034255002
0.32113999 0.0089033004 0.034368001
0.26029 -0.047026999 0.0073377001
0.26069999 -0.047570001 0.0070588998
0.26743999 0.011964 0.0089571998
0.28217 0.094609 0.066132002
0.28321999 0.095155999 0.066958003
0.29234999 0.02647 0.0070636999
0.29133999 0.025085 0.0076799002
0.26021001 0.081817999 0.051212002
0.27285001 0.062946998 0.0027508
0.32137001 0.057776999 0.048245002
0.32209 0.055868 0.047846001
0.30856001 0.061615001 0.0079857996
0.30763999 0.062801003 0.0077231
0.31366 0.045977999 0.021833001
0.27171999 0.072535001 0.0069748
0.27327001 0.076727003 0.0084622996
0.27327001 0.077705003 0.0091431998
0.31553999 0.073597997 0.077430002
0.28058001 0.022291999 0.0085164001
0.21868999 0.069058001 0.031566001
0.31687 0.065513 0.053252
0.31821999 0.065186001 0.053001001
0.26468 0.053286001 0.011505
0.29595 0.072062001 0.0033712001
0.30814999 0.041978002 0.012642
0.31435999 0.049298 0.022407999
0.27987999 -0.054062001 0.0067698001
0.27838999 -0.052889999 0.0046728998
0.31338 0.071661003 0.029028
0.31329 0.069358997 0.029199
0.31364 0.069657996 0.027695
0.29286 0.029231001 0.0070373998
0.29284 0.029647 0.0064920001
0.31821001 0.051833998 0.042305
0.30274001 0.019165 0.015787
0.29675999 0.067437001 0.0023155001
0.29675001 0.068525001 0.0024412
0.29725999 0.067275003 0.0024548001
0.31672999 0.057638999 0.025281001
0.31540999 0.056522001 0.024734
0.31568 0.057475999 0.024216
0.32944 0.05934 0.071599998
0.32894999 0.061854001 0.070584998
0.25113001 0.048705999 0.014156
0.32416999 0.069126002 0.070946999
0.26372999 0.041320998 0.022337999
0.21256 0.076612003 0.041829001
0.30531999 0.0067730998 0.019521
0.29363999 0.038483001 0.0063816998
0.29295999 0.038438998 0.0058404999
0.25962999 0.044193 0.021807
0.31762999 -0.0084586004 0.032648001
0.31577 -0.0063180998 0.031922001
0.25924 -0.051493999 0.0074565001
0.25918999 -0.050793 0.0075534
0.27976 -0.047076002 0.0022437
0.27287999 -0.016976001 0.016566999
0.292 0.089206003 0.02496
0.29330999 0.088951997 0.024134999
0.29541001 0.053049002 0.00081955001
0.32593 -0.047646001 0.038231
0.32674 -0.047990002 0.039248999
0.24759001 0.050928999 0.015164
0.31240001 -0.037969999 0.028829001
0.28323999 0.083306 0.011112
0.28248999 0.084397003 0.012052
0.26962 -0.043671999 0.0025195
0.27713001 -0.049538001 0.00047401999
0.2791 -0.049959999 0.0013264
0.27766001 -0.051771998 0.00022741
0.30318001 0.047352999 0.0067022
0.30458999 0.047711998 0.0071594999
0.28397 0.033670001 0.0049943998
0.28402999 0.033505 0.0043396
0.26144999 -0.037935998 0.0078523997
0.24889 -0.050790999 0.014085
0.24812999 -0.050108001 0.014691
0.24786 -0.049851 0.015448
0.29515001 -0.0010183 9.8053002e-05
0.278 0.040979002 0.0035840999
0.2902 0.0078081 0.0085276999
0.27318001 -0.0044147 0.0094774999
0.31141001 0.052832 0.011611
0.29787001 0.0098085999 0.014387
0.27926001 0.090625003 0.065421
0.21694 0.061742999 0.030399
0.27779999 0.011943 0.0077314
0.22070999 0.079623997 0.033231001
0.26492 0.086980999 0.049066
0.30708 0.038109999 0.018763
0.26052999 -0.034974001 0.0096306996
0.22029001 0.080999002 0.035392001
0.26677001 0.02241 0.020321
0.21774 0.077326998 0.034697
0.21829 0.076674998 0.033388
0.31836 -0.0058309999 0.031305
0.26065999 -0.049075 0.0071720998
0.30664 0.031438001 0.019032
0.31854001 0.069876999 0.068911001
0.31926 0.069741003 0.068088003
0.29192001 0.089789003 0.03112
0.27033001 0.071985997 0.0074375002
0.29335999 0.016494 0.0097045004
0.28801 0.089822002 0.025033999
0.28806999 0.090627 0.025891
0.28884 0.090480998 0.02568
0.27506 -0.027533 0.0044120001
0.27401 -0.026942 0.0052283001
0.30388999 0.039361 0.012054
0.30700999 0.028461 0.019300001
0.26164001 -0.043648001 0.0094881002
0.33061999 0.057461999 0.073586002
0.33052 0.058800999 0.073494002
0.26589999 -0.029939 0.0017343001
0.26445001 -0.030773999 0.0014089
0.28498 0.040538002 0.0030705
0.32431999 0.070698999 0.074749999
0.2467 -0.052065998 0.015134
0.24767999 -0.050872002 0.015065
0.32009 -0.051998999 0.026753999
0.26460001 0.017044 0.023010001
0.22025999 0.087159999 0.047424
0.29800001 0.047525 0.0043247999
0.26335999 0.080233999 0.052498002
0.27542001 0.026177 0.01057
0.26774999 0.056299001 0.0065275002
0.27092999 0.059866 0.0032949999
0.27046999 0.059742998 0.0039796
0.26225999 0.065968998 0.014966
0.25033 0.055927999 0.01233
0.32339001 0.051559001 0.057317998
0.32343 0.051888999 0.058276001
0.32343 0.051054999 0.057475999
0.31882 -0.0080955001 0.035349999
0.26955 0.080435999 0.026675999
0.26846999 0.079792 0.026608
0.26912999 0.079791002 0.027519999
0.30061001 0.035406001 0.0084696002
0.25257 0.047538999 0.015428
0.23962 0.067667998 0.030917
0.27974001 -0.046303999 0.0041556
0.27994999 -0.045616001 0.0049310001
0.30724001 -0.036726002 0.036308002
0.30774999 -0.036490001 0.035565998
0.30706999 -0.038043 0.035211001
0.25716001 -0.020452 0.011923
0.29159001 0.087540001 0.019494001
0.30899 0.021228001 0.02538
0.33092999 -0.047338001 0.046204001
0.26515001 0.019005001 0.022530001
0.26571 0.020095 0.023093
0.26124999 0.070804 0.062577002
0.26179001 0.072428003 0.062421001
0.23378 0.064163998 0.018774001
0.23416001 0.064309999 0.018340999
0.28795001 0.090850003 0.027318001
0.26600999 -0.021408999 0.0018237
0.26679999 -0.021279 0.0033827999
0.30708 0.02245 0.021164
0.27054 0.015631 0.010002
0.31066 0.052118 0.011557
0.31294999 -0.030765001 0.0285
0.3008 0.0034379 0.022600999
0.30094001 0.0034515001 0.022023
0.30123001 0.0039494 0.021578001
0.26168999 -0.053245001 0.010787
0.2226 0.056646001 0.022894001
0.27706999 0.025555 0.0081770997
0.3123 0.019014001 0.027354
0.31110001 0.019401001 0.027577
0.24955 -0.049431998 0.015291
0.25035 -0.049353 0.014255
0.25606 -0.017523 0.013439
0.26129001 -0.016996 0.0077674999
0.25997999 0.046847001 0.014329
0.26163 -0.019300001 0.0060315002
0.26278999 -0.018446 0.0058428999
0.29747 0.073820002 0.0039121001
0.32190999 -0.013716 0.038865
0.32102999 0.0033147 0.031275999
0.29918 -0.0052701002 -0.0023817001
0.27513999 0.010521 0.0084766997
0.31819001 0.068722002 0.067714997
0.31755 0.069286004 0.068025
0.2368 0.066895999 0.021822
0.33078 -0.047975 0.044257
0.31600001 0.011936 0.025671
0.27096999 -0.014666 0.012176
0.31061 0.047044002 0.013786
0.27355 0.074271999 0.0071932999
0.29786 0.049318999 0.0032184999
0.27473 -0.024021 0.0069802999
0.29897001 0.011366 0.015261
0.25913 -0.023745 0.0059084999
0.30572999 -0.022123 0.034371
0.30586001 -0.021128999 0.035723001
0.26714 0.020972 0.01706
0.27682999 -0.032968 0.0050472999
0.32306001 -0.012195 0.042837001
0.32313001 -0.011798 0.042399
0.25564 0.094916001 0.055326
0.25547001 0.09448 0.055445001
0.30693999 0.049660999 0.0089103999
0.29054001 0.073461004 0.0019722001
0.28977999 0.072424002 0.0014231
0.25556001 -0.013658 0.015873
0.25532001 -0.012855 0.015732
0.26445001 0.073383003 0.019424999
0.22976001 0.068392001 0.020145001
0.32093999 -0.014442 0.036504999
0.26908001 0.078975998 0.016991001
0.26993999 0.079852 0.017659999
0.30577001 -0.020213 0.03537
0.28103 0.057425998 -0.00017881001
0.22539 0.081570998 0.034548
0.22559001 0.080234997 0.034345999
0.28928 0.030768 0.0055852998
0.29042 0.031222001 0.0047217002
0.28455999 0.027657 0.0049784002
0.29642001 -0.0044994 -0.0012717
0.29545 -0.0031824 -0.0011878
0.30633 -0.025328999 0.032986
0.30737999 -0.02444 0.033771001
0.29911 0.0032230001 0.0021832001
0.28130999 0.035863999 0.0074874
0.32203999 -0.0045214999 0.037673999
0.33126 0.063084997 0.071519002
0.22797 0.058743998 0.018750999
0.22928999 0.059404999 0.018639
0.26734 -0.028322 0.0013831001
0.27731001 -0.043251999 0.0039301999
0.30967 -0.040674001 0.033050999
0.31049001 -0.041800998 0.032717999
0.27893001 0.089235999 0.064833
0.29951999 0.062590003 0.0023149
0.27193001 0.084054999 0.024002001
0.30337 0.082841001 0.020415001
0.32857999 -0.048645001 0.040309001
0.31253001 0.075661004 0.1003
0.31204 0.074536003 0.098994002
0.31198999 0.074726999 0.099129997
0.31720999 0.014333 0.030061999
0.23185 0.050563 0.026808999
0.30669001 -0.0030666001 -0.011972
0.27994999 0.089204997 0.063424997
0.25487 0.0063153999 0.016031999
0.30112001 0.057633001 0.0029372999
0.25365001 -0.053929999 0.012983
0.26633 -0.015921 0.0091602001
0.29113001 0.0031586001 0.013445
0.29225001 0.0028935 0.01361
0.29177999 0.0034031 0.013444
0.29446 0.089516997 0.028325999
0.29486001 0.088205002 0.028183
0.31235999 0.003519 0.022275999
0.31215 0.0037195999 0.022784
0.32133999 0.07102 0.071736
0.32148001 0.070234001 0.071147002
0.27031001 0.056359999 0.0040131002
0.31472 0.016162001 0.03108
0.26800999 0.048319999 0.010721
0.26774999 0.046856999 0.0099777998
0.26710001 0.047270998 0.010263
0.26363 0.088889003 0.048746001
0.24502 0.047068 0.017766001
0.24548 0.047644001 0.017421
0.32442999 -0.023806 0.031509999
0.23006999 0.056949001 0.019065
0.21419001 0.079801999 0.041187
0.2687 0.080813996 0.038752001
0.24595 0.060061999 0.016148999
0.31483999 0.064599 0.020755
0.29989001 0.046854001 0.0057355999
0.30035999 0.046344001 0.0044423998
0.25207999 -0.0047730999 0.015759001
0.29357001 0.066927999 0.00059577997
0.29260999 0.059645001 -0.00065127999
0.28799999 0.071244001 0.0014338
0.28755 0.069553003 0.00086063001
0.27753001 0.074326999 0.0040674
0.29905 0.016953999 0.011948
0.29861999 0.018552 0.012128
0.26646999 0.0053415 0.0055903001
0.31601 -0.016774001 0.030683
0.31546 -0.018064 0.030332999
0.28683001 0.018685 0.0069257999
0.24806 -0.053202 0.015929
0.28924999 0.032086998 0.0051962002
0.31755 0.014972 0.03334
0.25692999 0.086038999 0.048833001
0.30963001 -0.0022819 0.024456
0.31086001 -0.0030558 0.024216
0.2985 0.079259001 0.0080300001
0.29806 0.079438001 0.0074136001
0.29944 0.010409 0.015577
0.29973999 0.0098805996 0.015427
0.31503999 0.059344999 0.018591
0.30622 0.029030999 0.017581001
0.21806 0.064369999 0.030786
0.23882 0.068090998 0.027775999
0.31358999 -0.0044021001 0.027282
0.228 0.060229 0.017431
0.27497 0.0062632998 0.0069018002
0.2678 0.049187001 0.0079864003
0.22712 0.072164997 0.023235001
0.22549 0.071608998 0.022306999
0.25522 0.092568003 0.050930999
0.27372 0.076718003 0.0079178
0.30235001 0.010727 0.016028
0.31369001 0.016341001 0.027511001
0.31358999 0.016247001 0.026508
0.21696 0.065056004 0.031766001
0.31345999 -0.0088235 0.030539
0.3125 -0.0092741 0.030292001
0.30985001 0.023052 0.026369
0.30954999 0.022537 0.026737001
0.26401001 0.089625001 0.052538998
0.30805001 -0.035142999 0.032508999
0.32341 -0.043678001 0.033500999
0.30987 0.057052001 0.0092912996
0.31806999 0.014945 0.034924999
0.25271001 -0.048009001 0.013114
0.25279 -0.047311999 0.013868
0.25350001 -0.048450001 0.011948
0.27893999 -0.00046826 0.012657
0.30568999 0.027957 0.016776999
0.25490001 0.046606001 0.015232
0.30813 0.032809 0.021336
0.2633 -0.01833 0.0048276
0.33287999 -0.049711 0.05153
0.28898001 0.091406003 0.063265003
0.28839001 0.089362003 0.063372001
0.28839999 0.089086004 0.022090999
0.28834 0.089033999 0.023050001
0.28889 0.089493997 0.023507999
0.30669999 0.078550003 0.018622
0.30656999 0.078469001 0.019574
0.31907001 0.074396998 0.081873998
0.21537 0.080659002 0.043060001
0.25942999 -0.031058 0.0053182002
0.29221001 0.073477 0.0023238
0.24318001 0.050747 0.014653
0.23128 0.049821001 0.029942
0.28986001 0.041292001 0.0046621999
0.30956 0.072061002 0.018277001
0.31051001 0.072573997 0.019525001
0.26372999 0.063813999 0.012393
0.25821 -0.022857999 0.0077702999
0.31191999 0.010129 0.022723
0.31062999 0.010541 0.021609999
0.32236999 -0.04304 0.032590002
0.30357 0.017078999 0.016511001
0.30425 0.016647 0.017228
0.32196999 0.069711 0.068632998
0.31180999 0.070207 0.017380999
0.31049001 0.070800997 0.017506
0.28748 0.096781999 0.070791997
0.27173999 0.082216002 0.021184999
0.27364001 0.026145 0.011866
0.27482 0.027068 0.010939
0.31305 0.018674999 0.032690998
0.31237 0.019413 0.030946
0.31101 0.016111 0.022324
0.30899 0.015214 0.021579999
0.30680999 0.078924999 0.017971
0.22940999 0.065756001 0.017943
0.23131 0.065743998 0.017964
0.23015 0.065495998 0.017483
0.29609001 0.0071216002 0.0057876999
0.29565001 0.0077658999 0.0058335001
0.30814001 0.083570004 0.097975999
0.24700999 -0.054588001 0.01434
0.24756999 -0.053904001 0.01522
0.29216 0.044346999 0.0042742998
0.30575001 0.021973001 0.019441999
0.32396001 -0.050903998 0.033417001
0.21647 0.067870997 0.032901999
0.31843001 0.078418002 0.091259003
0.23995 0.054067999 0.017757
0.24131 0.054265 0.016345
0.25389001 0.051341001 0.012376
0.32054001 -0.050048001 0.026928
0.26684999 -0.012078 0.0097722001
0.29666999 0.0056095999 0.0041765999
0.31046 0.076520003 0.10472
0.27902001 0.018340999 0.0082852002
0.27746001 0.020021999 0.0082574002
0.2617 0.082408004 0.052421
0.27303001 0.011709 0.0083526997
0.25792 0.011069 0.018166
0.25694001 0.010909 0.019919001
0.30566999 0.026047001 0.015819
0.28602999 0.089475997 0.025542
0.24869999 0.048640002 0.015142
0.25771999 -0.046935 0.011966
0.25694001 -0.047143999 0.011635
0.31235 0.081031002 0.095573001
0.31145999 0.080793999 0.095331997
0.31004 -0.0085412003 -0.011802
0.30834001 0.040275998 0.015414
0.24222 0.048330002 0.016256001
0.30996001 0.043800998 0.013129
0.26333001 -0.0079194997 0.0095074
0.26284999 -0.0081126997 0.010027
0.25992 0.093820997 0.055018999
0.26056001 0.092527002 0.054141
0.28053001 0.081401996 0.008281
0.28130001 0.081657 0.0089010997
0.31869 -0.036045998 0.027595
0.28746 0.068916999 0.00089780003
0.25742999 0.065283999 0.018054999
0.25718001 0.065834001 0.01822
0.27932999 0.048847001 0.00095804001
0.25782999 0.045318 0.018634001
0.25001001 0.045327999 0.019781001
0.28321999 0.083429001 0.010421
0.31176001 0.015211 0.023748999
0.25795001 0.054237001 0.011397
0.21447 0.067032002 0.040171001
0.32014 0.0095757004 0.029266
0.3193 0.0089509003 0.028751999
0.26175001 0.053947002 0.010874
0.30114999 0.085570998 0.030189
0.25999999 0.047646001 0.013941
0.32554001 0.072408997 0.079947002
0.32644001 0.071292996 0.080963999
0.30647999 -0.025079001 0.033923998
0.23722 0.053738002 0.019641999
0.23712 0.053427 0.019516001
0.23841 0.054481 0.019305
0.26914001 0.023843 0.019343
0.30612001 0.043205999 0.0088232001
0.21521001 0.072591998 0.035103001
0.31672001 -0.036676001 0.028503001
0.27790999 -0.041756 0.0087607997
0.27871001 -0.040665999 0.0088261003
0.27711999 -0.042599 0.0086265998
0.29115999 0.022567 0.0080020996
0.33201 -0.050512999 0.045533001
0.25049001 0.047150001 0.013962
0.27542001 0.088973999 0.041407999
0.27423 0.088174 0.040702999
0.2631 0.047047999 0.013709
0.28907999 0.088232003 0.063469999
0.271 0.0039316998 0.0051223999
0.29071 0.047580998 0.00095537002
0.29146999 0.045919001 0.0014057
0.29769 0.072447002 0.0033292
0.29663 0.072209001 0.0032442
0.28018999 0.018364999 0.0086347004
0.29161999 0.088226996 0.016894
0.27658001 0.041356999 0.0045138998
0.29254001 0.0079351002 0.0074450001
0.28068 0.077278003 0.0043465998
0.26440001 -0.01084 0.010099
0.31004 -0.011439 -0.012369
0.30860999 -0.011657 -0.012858
0.30974999 -0.011572 -0.013481
0.21658 0.063963003 0.035330001
0.21734001 0.064484 0.033854999
0.27592 0.065254003 0.0022062999
0.27579999 0.065986 0.0021500001
0.24383 0.06061 0.016847
0.22455999 0.054699998 0.02605
0.26471999 0.063495003 0.010733
0.26444 0.062348001 0.0094788997
0.25874999 -0.033103 0.014328
0.25874999 0.082845002 0.049718998
0.25277001 -0.053815 0.013782
0.27825001 -0.039043002 0.0066340999
0.26734 0.05776 0.0066964002
0.26811001 0.045887999 0.010949
0.28362 0.042459998 0.0020717999
0.32251 0.070139997 0.069917001
0.29982001 0.062226001 0.0024476999
0.29462001 0.087885998 0.024812
0.29459 0.046317998 0.0031481001
0.26298001 0.086274996 0.048462
0.24924 0.058892999 0.014943
0.27843001 0.041517001 0.0034097
0.25325999 -0.048296001 0.013969
0.25275999 -0.048983 0.015601
0.25321999 -0.048866998 0.014907
0.26352999 0.011685 0.0083331997
0.24176 0.065132 0.026799001
0.24078999 0.065341003 0.026446
0.29725999 0.086680003 0.026164999
0.29866999 0.087306999 0.023887999
0.29082999 0.046208002 0.00015511
0.29210001 0.046422001 0.00090585998
0.29455 0.036979001 0.0069928002
0.29409999 0.035879999 0.0075316001
0.25422999 -0.014265 0.01788
0.25384 -0.015788 0.018759999
0.25330999 -0.014876 0.018454
0.26401001 0.073454998 0.024071001
0.26910999 -0.030184001 0.0021556001
0.26818001 -0.02905 0.0015609
0.26980999 -0.033849001 0.0011487
0.32690999 0.069206998 0.073896997
0.32405999 -0.051357999 0.031189
0.32279 -0.050275002 0.030999999
0.31696999 0.0072494 0.025913
0.25279999 -0.011128 0.020056
0.26923001 0.048606001 0.0064805001
0.30968001 0.021281 0.031812001
0.31957999 -0.052186001 0.025909999
0.27654001 0.047357999 0.0034757999
0.25102001 0.053734001 0.012975
0.26176 0.075248003 0.051856
0.28791001 0.087324001 0.018011
0.28924 0.087903999 0.017943
0.25352001 0.045182999 0.018309001
0.25964999 0.080642 0.048457999
0.28478 0.010307 0.0098983999
0.26554999 0.019061999 0.018200999
0.31883001 0.078840002 0.093057998
0.26153001 -0.049492002 0.0058364002
0.28582999 0.089488998 0.045357998
0.21969999 0.071249999 0.027876001
0.32056999 -0.022748999 0.029588999
0.26058999 0.091727003 0.055163998
0.25049001 -0.011862 0.021617999
0.25222 -0.012191 0.021415001
0.32696 -0.044767998 0.043411002
0.26679999 0.017345 0.015431
0.30978999 -0.026194001 0.031021999
0.27241001 0.022025 0.011994
0.30851001 -0.01228 -0.011413
0.30842999 -0.012637 -0.012985
0.26337001 0.088393003 0.050128002
0.30307001 0.012923 0.015838999
0.26262999 0.072160996 0.022717999
0.26284 0.072226003 0.02276
0.30107 0.081606001 0.012224
0.30102 0.081170999 0.013348
0.28817999 0.079944998 0.0064232
0.28951001 0.079793997 0.0050514
0.31740999 0.065977 0.058991
0.29100001 0.094824001 0.070625
0.29039001 0.095426999 0.069656
0.26418999 -0.051397 0.0057049999
0.32323 -0.031867001 0.03187
0.31472999 -0.053296998 0.024675
0.31522 -0.053640999 0.02689
0.29051 0.089630999 0.068557002
0.26231 -0.041359 0.0091297003
0.26133999 -0.039900001 0.010177
0.31053999 -0.03497 0.030477
0.27074999 0.075401999 0.011798
0.25196999 -0.016611001 0.019762
0.25242001 -0.016392 0.020819999
0.32205999 0.075092003 0.089226
0.30913001 0.055041999 0.0090415999
0.28573999 0.077032 0.0039480999
0.30985001 0.084559999 0.097361997
0.25347999 0.090971 0.050023001
0.26054001 -0.024761001 0.0036198001
0.25387999 -0.021594999 0.016628001
0.25387001 -0.023207 0.014871
0.30208999 0.072699003 0.0070775999
0.28235 0.056705002 5.1126e-05
0.31165999 0.082285002 0.096509002
0.30862001 0.042844001 0.011602
0.23112001 0.053479001 0.021522
0.2307 0.054257002 0.021137999
0.30285001 0.022031 0.013689
0.30195001 0.021173 0.013237
0.2712 0.086211003 0.040858001
0.26065999 -0.027363 0.0048782001
0.26030001 -0.027957 0.0049132002
0.33136001 0.064268 0.076174997
0.24258 0.063738003 0.022623001
0.24218 0.063210003 0.023723001
0.26078999 -0.033941001 0.0047053001
0.28997001 0.037246 0.0057526999
0.28957 0.037358001 0.0057414998
0.30050999 0.071829997 0.0052208998
0.29774001 0.012305 0.012749
0.26221001 0.070396997 0.020818001
0.26277 0.071341 0.020401999
0.27225 -0.015444 0.015254
0.23153999 0.062116999 0.017593
0.23228 0.062903002 0.017550001
0.23194 0.063224003 0.018263999
0.31641001 -0.041212998 0.027861999
0.26300001 0.073100001 0.031874001
0.26273 0.072779998 0.032304
0.30636999 0.059640002 0.0076831002
0.30702001 0.061677001 0.0079635996
0.30739 0.061317001 0.0080711003
0.26478001 -0.039942 0.0034985
0.2649 -0.040481001 0.0043551
0.21776 0.063240997 0.029947
0.27320001 0.021437 0.010029
0.27313 0.020175001 0.010602
0.28777999 0.062197998 -0.0022064
0.32642001 -0.024745001 0.036215
0.32668999 -0.025033999 0.03771
0.21754999 0.084334001 0.042463001
0.21682 0.082268998 0.041242
0.31988001 0.0094854003 0.029820999
0.26418999 -0.0065553999 0.0084947003
0.26506001 -0.0069932998 0.0085429
0.26423001 -0.0066657001 0.0083605004
0.30360001 0.0096968003 0.018736999
0.24404 0.062917002 0.022414999
0.22078 0.064967997 0.022264
0.28226 0.077256002 0.0052817999
0.31220999 0.048370998 0.016806999
0.26139 0.070942998 0.053606
0.26098999 0.072042003 0.053741999
0.26155001 0.070468001 0.053419001
0.28027999 0.088432997 0.061221
0.28128001 0.088802002 0.059599999
0.32562 -0.017968999 0.037919998
0.32576001 -0.016983001 0.03782
0.29848999 0.07141 0.0035575
0.29730999 0.069822997 0.0027637
0.25589001 -0.00071225001 0.011101
0.26014 0.0096413996 0.0094295004
0.25714999 -0.029742001 0.016094999
0.25707999 -0.028143 0.016989
0.25646001 -0.029012 0.016176
0.31027001 -0.026836 0.028742
0.24627 -0.05274 0.015184
0.24623001 -0.053619001 0.015879
0.24564999 -0.052712999 0.015946999
0.32167 -0.001681 0.035399001
0.3215 -0.0025672 0.034403998
0.27754 -0.038699001 0.0043838001
0.21093 0.071699001 0.041769002
0.32424 0.052175 0.060516
0.32468 0.051762 0.060341001
0.32514 0.051465999 0.059879001
0.26076999 0.004654 0.0081361001
0.26029 0.0040401001 0.0082222996
0.30252999 -0.0056659002 -0.0055563999
0.30438 -0.0059566 -0.0058550001
0.30482 -0.0053138998 -0.0055122999
0.25735 -0.02493 0.0099534998
0.32030001 0.0057752999 0.031282999
0.32056999 0.0059225 0.029991999
0.32436001 -0.017152 0.036695
0.24957 0.062668003 0.018750001
0.28051999 0.054891001 -0.00054008001
0.28038001 0.054184999 0.00026576
0.23702 0.070191003 0.028023001
0.31650001 0.057029001 0.025723999
0.32233 0.063020997 0.055721998
0.29451001 0.0039515002 0.0025720999
0.25573 0.089662001 0.049307
0.25698 0.089702003 0.047871001
0.25476 0.065104999 0.019282
0.25533 0.065027997 0.019314
0.32929 0.070381001 0.080655001
0.23769 0.052935001 0.019486999
0.25929001 -0.053690001 0.014731
0.25985 -0.052926999 0.013462
0.30537 -0.0064130998 -0.0077022999
0.22062001 0.057172999 0.031966001
0.24033999 0.053157002 0.01701
0.24066 0.052602999 0.017976999
0.31351 0.049506001 0.021743
0.32662001 0.058049999 0.067910001
0.30166 0.021449 0.01208
0.31944001 0.066146001 0.064921997
0.25834 0.066446997 0.026324
0.25874999 0.0122 0.017642001
0.31952 0.060477 0.044596002
0.28898001 0.091247 0.064791001
0.26508 0.083244003 0.048250999
0.31608999 0.077252999 0.089061998
0.30601999 -0.017738 0.041423999
0.26142001 0.070653997 0.052845001
0.31145 0.082694001 0.098885
0.31273001 0.083052002 0.098402999
0.31215999 0.083993003 0.098704003
0.27814999 0.016442999 0.0081842002
0.23873 0.048395 0.023203
0.21619 0.082128003 0.041367002
0.27081999 -0.0057778 0.0095074
0.27066001 -0.0041279001 0.0079905996
0.30522001 0.080863997 0.022077
0.30454001 0.081017002 0.021238999
0.32418999 -0.015338 0.040211
0.31801999 0.001792 0.028019
0.29719001 0.065407999 0.0010027
0.22838999 0.071912996 0.023923
0.22193 0.077843003 0.032435998
0.24621999 0.052875001 0.015093
0.32054999 0.074648 0.081151001
0.30023 0.0010903 -0.0016575
0.30557001 -0.0094601996 -0.010867
0.30666 -0.0090017002 -0.010333
0.30456999 -0.007768 -0.011692
0.22507 0.087507002 0.041159
0.23192 0.052931 0.022098999
0.26833999 -0.0091535002 0.0095525999
0.31490001 0.016632 0.030206
0.27450001 0.078013003 0.0090498002
0.27482 0.078892998 0.0080637001
0.25437 -0.021808 0.017158
0.26783001 0.036658 0.018192001
0.26784 0.018383 0.014608
0.27823001 0.088404 0.02523
0.27873999 0.088440999 0.024692001
0.31531999 0.074166 0.087297
0.28667 0.093488999 0.062931001
0.31997001 -0.038357999 0.028452
0.30741 -0.0042669 -0.0078170998
0.30726999 -0.0040596002 -0.0064626001
0.28222001 0.087955996 0.019322
0.28279001 0.087724999 0.019662
0.30118001 0.020401999 0.01199
0.26100001 0.067465998 0.017932
0.26938999 -0.017692 0.0072951
0.27048001 -0.017921999 0.0069717001
0.21287 0.072823003 0.039758999
0.21262001 0.074619003 0.039629001
0.22081999 0.085196003 0.049017001
0.22112 0.086310998 0.048537999
0.2216 0.086051002 0.048654001
0.26903999 0.027814999 0.018828001
0.26883 0.022628 0.017372999
0.26868999 0.023731001 0.018947
0.26839 0.080294997 0.031230001
0.29949 0.019486001 0.0114
0.25648001 0.0075682001 0.01432
0.25544 0.0068959999 0.014169
0.28722 0.096977003 0.069450997
0.28748 0.097198002 0.068870999
0.27162999 0.073806003 0.0087869
0.26686999 -0.052577998 0.010182
0.30689001 -0.029558999 0.032614999
0.25138 -0.017162001 0.023569999
0.28674001 0.094869003 0.064690001
0.29679 0.082041003 0.010659
0.26315999 0.050319001 0.012657
0.27963001 0.054942999 -2.7557e-05
0.26975 0.049059998 0.0060208002
0.31652001 0.0098559 0.025986001
0.26963001 0.072603002 0.0086281998
0.27309 0.013395 0.0089745997
0.27336001 0.013668 0.0083307996
0.29154 0.045097001 0.0013746
0.29056001 0.044243999 0.0023713999
0.27574 0.088744998 0.042243998
0.27666 0.088652998 0.043698002
0.26780999 -0.0071473001 0.0082083996
0.26093 0.047842 0.014621
0.26089001 0.048275001 0.014783
0.25685999 -0.054131001 0.015811
0.25547999 -0.053339999 0.015102
0.26381999 -0.015109 0.0095256995
0.26396 -0.015606 0.0085751005
0.2137 0.078686997 0.040918
0.26008001 -0.0097016999 0.010444
0.27717999 -0.040054001 0.0043389001
0.26635 -0.053879999 0.0060156002
0.30836999 0.057371002 0.0086152004
0.30908 0.056522999 0.0085038999
0.30829 0.056623999 0.0079546999
0.22486 0.086173996 0.038874
0.25716999 -0.0045099002 0.01085
0.25753999 -0.0049660001 0.0099585997
0.25635999 -0.0057941 0.010638
0.29639 0.040739998 0.0064980001
0.27175999 -0.017638 0.0094819004
0.30069 0.054807 0.0032442999
0.30177999 0.056409001 0.0035285
0.30287001 0.056171998 0.0042333002
0.26679999 0.059772 0.0062937001
0.25784001 0.012402 0.016484
0.25413999 -0.013399 0.018370001
0.25297999 -0.014076 0.018809
0.27212 -0.040415 0.0020005
0.27316999 -0.052551001 0.0051978002
0.27013999 0.072082996 0.0086070998
0.27706999 -0.047511999 0.0014235
0.21875 0.086668 0.051073998
0.27778 0.028689999 0.0083290003
0.30651 0.050620999 0.0080251005
0.30638 0.051619999 0.0081508001
0.29119 0.0071144998 0.0082211997
0.26222 0.069458999 0.016039999
0.27958 0.088684 0.032885998
0.31253001 0.057048999 0.013605
0.31215 0.055603001 0.013717
0.30192 0.050944 0.0040171002
0.26651001 0.076309003 0.019131999
0.27039 -0.0076438002 0.010356
0.29804 0.059912998 0.0022167
0.27186999 -0.040915001 0.0014964
0.31937 0.052572999 0.044463001
0.22816999 0.076178998 0.033135999
0.3123 0.065215997 0.016169
0.29581001 0.089259997 0.027113
0.29104 0.024491999 0.0068728002
0.26008001 -0.048877001 0.0075105
0.27344999 -0.011969 0.01506
0.27234 -0.013317 0.015473
0.23096 0.076168001 0.031576999
0.22995999 0.076683998 0.032244999
0.29661 0.069418997 0.0021200001
0.28917 0.054905999 -0.00093580998
0.32069999 -0.037308998 0.028907999
0.29763001 0.068337001 0.003114
0.31162 0.0011225 0.022869
0.29739001 0.082267001 0.011555
0.22957 0.070377998 0.022445999
0.31066 -0.051752001 0.02929
0.31878 0.011809 0.028679
0.27587 0.019339999 0.0092393002
0.24855 0.052689001 0.013982
0.30976 -0.0010207 0.024263
0.22147 0.063276 0.021105001
0.25413001 -0.022090999 0.014575
0.2543 -0.022036999 0.015992999
0.25883001 0.047090001 0.013836
0.32167 0.075384997 0.089855999
0.32012001 0.076777004 0.091435999
0.32108 0.076302998 0.091031998
0.26187 0.074476004 0.053015999
0.26008001 0.013399 0.013393
0.24081001 0.065208003 0.023522999
0.26899001 -0.0050825998 0.0082526999
0.25964001 -0.052188002 0.0074792998
0.22694001 0.076444998 0.029286999
0.28933999 0.041432999 0.0037869001
0.26707 -0.045775 0.0029932
0.31643 -0.027296999 0.028054999
0.26176 0.016508 0.018896
0.27377999 0.087765999 0.039932001
0.2746 0.088794 0.03991
0.31031001 -0.0055419998 0.026923999
0.31114 -0.0051107001 0.027496999
0.26761001 0.076200999 0.016876999
0.25362 -0.052742999 0.016239
0.25284001 -0.051750999 0.016313
0.25202999 -0.052602001 0.015930999
0.27680999 0.084523998 0.018966001
0.30763999 -0.022832001 0.032497
0.25393999 -0.0092935003 0.01682
0.32394999 0.070563003 0.073826998
0.32302001 0.070823997 0.073446997
0.31731999 -0.043625001 0.027172999
0.27873999 -0.00090043002 0.013473
0.30588999 -0.0010755 -0.0080562998
0.26359999 -0.042906001 0.0071506002
0.31314999 0.049019001 0.019557999
0.31342 0.049589001 0.019602001
0.2766 0.087335996 0.027347
0.33087999 0.061551001 0.071716003
0.23379999 0.065670997 0.019965
0.31884 0.077678002 0.091605
0.31942001 0.076292999 0.090285003
0.31812 0.076128997 0.089872003
0.32212001 0.0035550001 0.036285002
0.32190001 0.0029902 0.036247998
0.23761 0.049369998 0.024192
0.30568001 0.079576001 0.019845
0.30574 0.080558002 0.020674
0.23101 0.055016998 0.021095
0.30430001 0.036495 0.014532
0.30576 0.036559001 0.01524
0.30520999 0.03638 0.013777
0.24059001 0.063766003 0.021906
0.26743001 0.020955 0.016835
0.2683 0.022314999 0.016633
0.27432999 0.00074937003 0.0079720002
0.30744001 -0.035732999 0.036853001
0.30717 -0.034364 0.036534
0.30689001 -0.035681002 0.036570001
0.27533001 0.088417001 0.040638
0.31995001 -0.049412999 0.025281999
0.32031 -0.050244 0.0264
0.25064 -0.01608 0.022724001
0.25165001 -0.014195 0.023707001
0.28217 0.013617 0.0078766001
0.28037 0.015339 0.0090305004
0.32102999 0.055101 0.046870999
0.28759 0.096865997 0.072453998
0.23519 0.063074 0.019167
0.23436999 0.063694999 0.019398
0.23576 0.063386999 0.020099999
0.26141 0.013971 0.012788
0.26256001 0.01426 0.011738
0.25356999 0.095403999 0.050937001
0.25628999 -0.046629999 0.018510001
0.25450999 -0.047235001 0.018722
0.30704999 0.081304997 0.028534001
0.25839001 -0.026356 0.0084688002
0.27146 0.012106 0.0092663001
0.25255001 0.057851002 0.012352
0.27314001 0.040261999 0.0060748998
0.30559999 -0.0030886999 -0.011737
0.21536 0.080031998 0.04188
0.32251999 0.072944999 0.075561002
0.32144001 0.065218002 0.059530001
0.25898999 -0.030518999 0.0062246998
0.30680001 0.056387 0.0061189001
0.30715999 0.057936002 0.0080068
0.26093999 0.065123998 0.014357
0.29877999 0.066077001 0.00194
0.29516 0.055714998 2.0134999e-05
0.29574001 0.055824 0.00078234001
0.21331 0.075442001 0.038917001
0.26255 -0.0010779999 0.0071036001
0.26142001 -0.001025 0.0080429995
0.30691001 0.020874999 0.020529
0.30711001 0.022119001 0.02022
0.27068999 0.076245002 0.0090579996
0.27044001 0.075314999 0.010579
0.25391001 -0.048834 0.014968
0.25411001 -0.048303001 0.015104
0.25654 -0.027170001 0.012428
0.25626999 -0.027233001 0.013294
0.25624001 -0.026408 0.013317
0.26493001 0.074193001 0.022182999
0.26459 0.074478999 0.022397
0.21996 0.068687998 0.026224
0.21902999 0.067296997 0.026061
0.21843 0.072012998 0.033071
0.30524999 0.037379 0.014811
0.25810999 0.012018 0.016319999
0.31233999 0.053837001 0.01495
0.30963001 0.061292 0.0093798004
0.28547001 0.089700997 0.031805001
0.21963 0.060137 0.025502
0.2802 0.0066026002 0.0086359996
0.27935001 0.0061317999 0.0091703003
0.32293001 -0.050719 0.029451
0.26644 0.037044998 0.021354999
0.32635999 -0.019781001 0.037037998
0.32565999 -0.020602001 0.036646001
0.32589999 -0.020510999 0.036334001
0.24081001 0.066656001 0.031479999
0.30246001 0.038043998 0.011847
0.32431999 0.061166 0.057872999
0.30847999 -0.040004998 0.033562999
0.28784001 0.090484001 0.02434
0.28961 0.090204999 0.025202001
0.31386 -0.035342999 0.027650001
0.30289 0.039709002 0.010147
0.30346 0.039581999 0.011696
0.26749 0.054416001 0.0063312999
0.2836 0.086887002 0.016678
0.28546 0.087729998 0.017293001
0.26738 0.046193998 0.010906
0.26699999 0.047237001 0.010544
0.30524001 0.051447999 0.0058451998
0.30449 0.050457001 0.0063703
0.32289001 -0.045775 0.031578001
0.25185001 -0.047842 0.013835
0.25207999 -0.048955999 0.013688
0.25939 -0.0024212999 0.0088187
0.25847 0.065475002 0.016416
0.26535001 -0.0018639 0.0069447998
0.26222 -0.043327 0.0094603002
0.26234001 -0.041684002 0.0092059001
0.27939001 0.016504001 0.0085757002
0.26299 -0.040222 0.0052252999
0.26317999 -0.040302999 0.0052712001
0.26278999 0.040888999 0.030237
0.32018 -0.032120999 0.028062001
0.25402001 0.0039988002 0.017223001
0.26238999 -0.016661 0.0088088997
0.29905 0.042454999 0.0069158999
0.30634001 0.030361 0.016481001
0.26576 0.047878001 0.012159
0.31259999 0.076061003 0.093234003
0.28894001 0.084624 0.011856
0.22836 0.072472997 0.024932999
0.26444 0.015098 0.012404
0.21559 0.082788996 0.052533999
0.26111999 0.063228004 0.012686
0.27022001 0.015606 0.011814
0.32558 -0.045917999 0.037489999
0.33056 -0.048067 0.046840999
0.26692 -0.018361 0.0050804
0.26776001 -0.018348999 0.0052966001
0.25029999 -0.013473 0.021974999
0.25128999 -0.013936 0.021416999
0.30333 0.052432999 0.0056451
0.30250001 0.052428 0.0050118002
0.28527999 0.072535001 0.0019644001
0.30853999 0.0073742 0.020383
0.26122999 -0.0022736001 0.0078304997
0.27676001 0.031684 0.0085210996
0.26513001 0.065470003 0.012041
0.30945 -0.0056548002 -0.0099716
0.30834001 -0.0059834002 -0.010573
0.30127999 0.049428999 0.0038395999
0.30576 0.011952 0.018595001
0.26243001 0.0066112 0.0082136001
0.29617 0.088739 0.024567001
0.29631999 0.088027 0.024707001
0.30393001 -0.0023324001 0.024607001
0.30491999 -0.0024009 0.024234001
0.26515999 0.075342998 0.026467999
0.30300999 0.012221 0.016254
0.30388001 0.012289 0.016754
0.30129999 -0.0046684998 -0.0087158
0.29308999 0.032104 0.0080869999
0.32056999 0.0077864002 0.032269999
0.32098001 0.0085965004 0.032609999
0.26140001 0.071395002 0.021707
0.25824001 -0.020647001 0.0073174001
0.25942001 -0.020274 0.0068974998
0.33096001 -0.053072002 0.046317
0.33109999 -0.053902 0.046356
0.2816 0.016849 0.0093106003
0.26135999 -0.053243998 0.011666
0.26063001 -0.053314 0.011521
0.32053 0.010935 0.030990001
0.30015001 0.075709999 0.0072392002
0.28026 -0.051583 0.0046778
0.20982 0.072469003 0.046496
0.23165999 0.055027001 0.020653
0.25154001 -0.015427 0.022778001
0.22142 0.058442999 0.022558
0.30371001 -0.0058463998 -0.011764
0.27708 -0.030422 0.0058281999
0.27623001 -0.030179 0.0060840999
0.30486 0.055617001 0.0050222999
0.30331001 0.054838002 0.0048945001
0.27684 0.03159 0.0093582999
0.32444999 -0.026743 0.032724001
0.31623 0.0042352998 0.025308
0.22242001 0.085629001 0.038694002
0.31681001 0.0087836999 0.025005
0.30981001 0.020664999 0.023134001
0.32753 0.062300999 0.068847001
0.27417001 0.074957997 0.0056185001
0.26919001 0.079631001 0.02949
0.31672999 -0.026443999 0.028210999
0.31801 -0.0070735002 0.032731
0.31788 0.065397002 0.053856999
0.27623999 -0.039450999 0.0019226
0.30858001 -0.0051771002 -0.0088790003
0.24931 0.056329001 0.013027
0.29674 0.05367 0.0017319
0.29543999 0.052698001 0.00093725999
0.27548 0.088330999 0.041629001
0.29771 0.071484998 0.0035011
0.29602 0.070327997 0.0032998
0.25949001 -0.047038 0.0078846999
0.27078 -0.029764 0.0020739001
0.22864 0.057643 0.018252
0.2552 -0.050673001 0.0083665
0.22436 0.066307001 0.019741001
0.22352999 0.066423997 0.020035001
0.27146 -0.0069745998 0.0099042002
0.26945001 -0.0074303001 0.0084662996
0.26370001 0.013518 0.010673
0.26388001 0.013363 0.010833
0.26282999 0.0026427 0.0075289002
0.21065 0.073767997 0.044815
0.21187 0.0744 0.044622999
0.21115001 0.073744997 0.04346
0.23012 0.067514002 0.021312
0.23032001 0.068441004 0.021565
0.26677001 0.015253 0.011966
0.29245001 0.044923 0.0037543999
0.29293001 0.044668 0.0019934999
0.29594001 0.030130001 0.0080989003
0.29413 0.030639 0.0085354997
0.26102999 0.070946999 0.061567001
0.27748001 -0.025075 0.011712
0.2775 -0.026799001 0.013319
0.22104999 0.087433003 0.051391002
0.31588 -0.015476 0.031682
0.25321999 0.092499003 0.050595999
0.2527 0.092892997 0.051093999
0.23715 0.062753998 0.02018
0.29651999 0.0061373999 0.0052203001
0.26899999 0.074479997 0.0099277999
0.26231 0.075221002 0.050926998
0.26337001 0.074473001 0.050151002
0.30612001 0.054714002 0.0055185002
0.27243999 0.047864001 0.0038389999
0.31773001 -0.030583 0.028627999
0.31922001 -0.029331001 0.028349999
0.29482001 0.011874 0.0098606003
0.28048 0.089872003 0.031821001
0.26565999 0.084441997 0.047809001
0.26229 0.016027 0.016392
0.21687999 0.077023 0.034265
0.3213 -0.030125 0.028386001
0.21709999 0.081753001 0.038362
0.23353 0.070132002 0.022808
0.23353 0.067527004 0.021372
0.23288 0.067873999 0.021389
0.27059999 0.080885999 0.019357
0.27219 -0.0010213 0.0075246999
0.27605 0.021543 0.0090530999
0.30592 0.082447 0.027054001
0.30574 0.082226999 0.028278001
0.23598 0.054876 0.020226
0.28942999 0.096159004 0.069927998
0.27023 0.036734998 0.016256999
0.29503 0.060183998 0.00032396
0.28022 0.033574998 0.0051640999
0.31909001 0.078014001 0.095916003
0.27357 -0.029669 0.0035093001
0.31665 -0.037485 0.027628001
0.27439001 -0.0040477002 0.0096078003
0.27215999 0.053348999 0.002689
0.29786 -0.00028537001 -0.0035045
0.29877001 1.2081e-05 -0.0037336
0.25121999 -0.013353 0.024313999
0.25062001 -0.013876 0.022615001
0.25125 0.045823999 0.019495999
0.21692 0.085784003 0.046216
0.21753 0.085088 0.046351999
0.31764001 -0.0082499003 0.034481
0.27860001 -0.032660998 0.0092104003
0.30414999 0.027772 0.015264
0.27235001 -0.032685 0.0020481001
0.31255999 0.044425 0.021682
0.28141001 0.047772001 0.00034673
0.32348999 -0.017285001 0.034006
0.29446 0.079076 0.0066101002
0.29569 0.079648003 0.0074108001
0.31874999 -0.034336999 0.028198
0.31518 -0.013821 0.034035001
0.28992 0.091955997 0.068830997
0.31584999 0.016008001 0.032473002
0.31626001 -0.047927 0.024617
0.27307001 0.075012997 0.0074101998
0.23021001 0.066395 0.017424
0.29624 0.017680001 0.010402
0.29484001 0.016548 0.0094937999
0.29519001 0.018282 0.010143
0.2744 0.065903999 0.0017321
0.26119 -0.044817999 0.0078697996
0.29132 0.047159001 0.00073090999
0.30372 0.084292002 0.028239001
0.28226 0.083379999 0.010606
0.24146999 0.058462001 0.015664
0.24724001 0.062604003 0.022619
0.24782 0.063049003 0.023569999
0.26517001 -0.011948 0.0098825004
0.25731999 -0.019778 0.011202
0.25599 -0.046146002 0.014731
0.27241001 0.075943001 0.0079910997
0.22214 0.071138002 0.025041999
0.25723001 -0.028704001 0.017741
0.25755 -0.028251 0.018286999
0.31816 -0.0015597 0.029499
0.29973999 0.071303003 0.0042085
0.30348 0.011853 0.018102
0.27770999 0.029779 0.0087401001
0.26087999 -0.033105999 0.0047641001
0.27810001 -0.02974 0.0096196998
0.30704999 -0.0053845998 -0.01251
0.29536 0.057652999 0.0014445001
0.22111 0.056935001 0.031980999
0.22125 0.057331 0.030431001
0.30454999 0.0023185001 0.020857001
0.32516 -0.019359 0.034938
0.26424 0.074189998 0.027739
0.28523999 0.078344002 0.0054358998
0.28652999 0.078959003 0.0054635
0.22953001 0.052425999 0.024178
0.26831001 0.011044 0.0070031001
0.26730001 0.0098652001 0.0056141
0.25931001 -0.032634001 0.011389
0.25885999 -0.03159 0.011306
0.25953001 -0.031815 0.010657
0.25285 0.0017286 0.021561
0.30649 -0.0083558001 -0.013817
0.32416999 -0.047346 0.033098999
0.32332999 -0.047061 0.033656001
0.32325 0.054621998 0.055466
0.26846999 0.023588 0.018495001
0.31222001 -0.051290002 0.024433
0.31189999 -0.052701 0.025180001
0.32390001 -0.020319 0.030817
0.25128999 0.063891999 0.018789999
0.26694 0.075372003 0.028839
0.28273001 0.072059996 0.0012287
0.32499 0.064255998 0.066522002
0.32457 0.063982002 0.065641999
0.31253999 0.075609997 0.10121
0.26172 0.071530998 0.02197
0.30893001 -0.010853 -0.011273
0.27423999 -0.018839 0.015339
0.32001999 0.053027 0.045224
0.28918001 0.062852003 -0.00054893002
0.29451999 0.043781999 0.0051365001
0.29584 0.043283999 0.0055164001
0.31284001 0.069378003 0.018920001
0.27518001 0.064841002 0.0018697
0.2516 -0.0027178 0.020362001
0.28902 0.089097001 0.019985
0.26120001 -0.039205998 0.011101
0.26152 -0.037701 0.011356
0.22897001 0.070637003 0.023666
0.27698001 -0.030466 0.0065608998
0.28068 0.039930001 0.0034161999
0.24967 -0.053854 0.015388
0.28850999 0.019378999 0.0065772999
0.31850001 0.001389 0.028030001
0.31801 0.001333 0.028100001
0.31783 0.073265001 0.077734999
0.32227001 -0.034095 0.029912001
0.29291001 0.088710003 0.021805
0.2938 0.088496998 0.019934
0.32653999 -0.019342 0.038267002
0.32537001 -0.019516001 0.039379999
0.27484 -0.0075376998 0.016474999
0.30873001 -0.0082411002 -0.012896
0.30654001 0.05164 0.0076086
0.32122001 -0.031737 0.029085999
0.26785001 0.049291 0.0095432997
0.32137999 0.072761998 0.076842003
0.26348999 -0.052809 0.0066638002
0.26729 0.022902999 0.018401001
0.28084001 0.024037 0.0073926002
0.27908 0.024974 0.0071089002
0.29706001 0.072999999 0.0035478999
0.31173 -0.052781001 0.028393
0.22364999 0.080967002 0.032976002
0.22383 0.080939002 0.033043001
0.29446 0.047387999 0.0022374
0.25670001 0.047394 0.013886
0.32405001 -0.046595 0.032777999
0.23554 0.050544001 0.022899
0.31823999 -0.053438999 0.026161
0.30522001 -0.018383 0.039151002
0.32692999 -0.046390001 0.039489999
0.26741999 0.012233 0.0084469002
0.25264999 -0.0044781002 0.016119
0.22836 0.054662999 0.021441
0.22856 0.054717001 0.020485001
0.25894001 0.064698003 0.01476
0.2836 0.081908002 0.0088259
0.28233001 0.081345998 0.0085765999
0.31279999 0.062674999 0.014468
0.31005001 0.066427 0.012509
0.25522 0.064732999 0.019513
0.26820999 0.064245 0.0067750998
0.26716 0.045545999 0.01059
0.26756999 0.04685 0.0086081
0.29269999 0.0056099999 0.0063915001
0.29436001 0.0056886999 0.0045858002
0.25319999 0.095459998 0.050879002
0.32001999 0.074061997 0.084740996
0.22155 0.071602002 0.027311999
0.31275001 -0.031330001 0.028542999
0.22732 0.068391003 0.018476
0.26223001 0.073811002 0.030353
0.27792999 0.089815997 0.041756999
0.28724 0.050349001 -0.00022849
0.28891999 0.050349001 0.00057973998
0.32494 -0.044318002 0.034019001
0.32480001 -0.043896999 0.034017
0.25297999 0.093042001 0.052076001
0.25415 0.092459001 0.052193999
0.30968001 -0.0019763 0.023135999
0.31424999 0.065215997 0.024413001
0.27974999 0.018246001 0.0092615001
0.26791999 0.036293998 0.020097001
0.30783999 -0.035811 0.031810001
0.27835 0.02244 0.0090293
0.28957 0.0063624 0.0095009999
0.29010001 0.0062921001 0.0093711
0.23284 0.050282001 0.025787
0.2333 0.049422 0.025671
0.26861 0.077867001 0.017397
0.26115 0.079696 0.048732001
0.28422001 0.078659996 0.0061157001
0.2482 -0.051353 0.022871001
0.24964 -0.050379001 0.023235001
0.24911 -0.051050998 0.022754
0.32042 0.076503001 0.090218
0.3197 0.075576 0.089244001
0.27138999 -0.0039734999 0.0072158002
0.26945001 -0.0023328001 0.007212
0.26688999 0.076890998 0.018887
0.28643 0.073073998 0.0013229999
0.27309 0.082676999 0.016822999
0.30576 0.079899997 0.017410999
0.2854 0.022869 0.0065430999
0.27790999 0.072044998 0.0040966002
0.27836999 0.072042003 0.0040302002
0.28534999 0.0075866999 0.011222
0.25775999 0.054336 0.010563
0.30866 0.054873001 0.0079715
0.30344 0.057495002 0.0040719002
0.30338001 0.057275999 0.004493
0.30375999 0.056751002 0.0042210999
0.29074001 0.072035998 0.0021303999
0.29157999 0.072901003 0.001465
0.27158999 -0.01636 0.010914
0.22281 0.064135998 0.019609001
0.30215999 0.019130001 0.013542
0.27982 0.07237 0.0031614001
0.26714 0.070159003 0.0093785003
0.30917999 -0.03122 0.030393001
0.26881 0.062383 0.0053919
0.25764 -0.0076910001 0.012871
0.31013 0.021268999 0.027512999
0.28037 0.0010776001 0.016249999
0.28033999 0.0014944 0.015811
0.28112999 0.0015247 0.015348
0.28779 0.076922998 0.0041169999
0.28668001 0.077096 0.0045189001
0.26210999 -0.033273 0.0038823001
0.22295 0.073973998 0.028271001
0.28791001 0.076006003 0.0038715999
0.27783 -0.0019558 0.013341
0.27814999 -0.0017661999 0.014639
0.27836001 -0.0029823999 0.015579
0.26027 0.082516 0.047520999
0.27122 0.017124999 0.011088
0.27215999 0.017207 0.010666
0.2929 0.00021504999 0.0039349999
0.31355 0.017944001 0.032873001
