# .PCD v0.7 - Point Cloud Data file format
VERSION 0.7
FIELDS x y z
SIZE 4 4 4
TYPE F F F
COUNT 1 1 1
WIDTH 1431
HEIGHT 1
VIEWPOINT 0 0 0 1 0 0 0
POINTS 1431
DATA ascii
-0.014142 -0.027526001 0.080482997
0.0020639 -0.035985 0.1151
0.085516997 -0.0040813 0.082580999
0.076118 -0.025916999 0.098724999
0.077639997 -0.025708999 0.098559
0.077468 -0.024567001 0.098435
0.0044465 -0.036095999 0.11378
-0.050788999 0.018962 0.091756999
-0.049869999 0.020098001 0.092214003
-0.023514001 -0.0030278999 0.080720998
-0.045480002 -0.010304 0.087125003
0.096491002 0.012245 0.084311001
-0.053743999 -0.031371001 0.060873002
-0.050418999 -0.00065736001 0.088271998
0.086081997 -0.0016005 0.082043
0.022543 -0.00027756 0.073802002
0.0019703 -0.018258 0.073207997
0.0014107 -0.019762 0.074176997
0.033358999 -0.012374 0.092671998
0.047208 -0.031911999 0.069251999
0.048106 -0.031282 0.069953002
0.046636999 0.0054655001 0.10429
0.046376999 0.0046152999 0.10315
-0.022880999 0.030861 0.1102
0.033842999 0.015553 0.096403003
0.017121 0.016514 0.085963003
-0.031764001 0.036375001 0.11521
-0.030037001 0.034954999 0.11492
-0.029974001 0.036024 0.11515
0.048686001 0.0051806001 0.10508
0.033252001 0.012559 0.10421
-0.082731001 0.027711 0.1216
0.0062815002 -0.037441999 0.11537
-0.048113 0.033408001 0.086783998
0.0035742 -0.012954 0.070023
0.047076002 -0.034637 0.066867001
0.046519998 -0.035742 0.067254998
-0.039446998 0.031168999 0.10821
-0.068131 0.021575 0.10961
-0.00086352997 -0.020073 0.073338002
-0.001462 -0.019622 0.071657002
0.087325998 0.032292999 0.086667001
0.088499002 0.032364 0.086878002
0.083025001 -0.0092003997 0.081979997
-0.055656001 0.035087001 0.118
-0.053399999 0.035541002 0.11757
0.029573999 0.017588001 0.098430999
0.029793 0.018474 0.098128997
-0.046833999 0.034001999 0.11412
-0.04513 0.033528998 0.1141
-0.026974 0.0061809001 0.092492998
-0.023197001 -0.020932 0.065553002
0.10274 0.040582001 0.08083
-0.043214999 -0.010762 0.083451003
-0.041365001 -0.0098014995 0.082773
-0.042179 -0.010996 0.08281
0.081669003 0.020468 0.089097001
0.082135998 0.021632001 0.087906003
-0.029205 -0.013138 0.063646004
-0.029124999 -0.013689 0.064483002
-0.064684004 0.010303 0.10786
-0.064622998 0.010194 0.10849
0.084407002 -0.016179999 0.092615999
0.085414998 -0.014725 0.092381001
-0.046241999 -0.031578001 0.058865
0.079512998 -0.022009 0.096831001
0.078174002 -0.023259999 0.097084999
0.059593 -0.014512 0.085405
-0.028943 0.014906 0.11086
0.013134 -0.013896 0.080493003
-0.032552 -0.039347999 0.054869998
0.081823997 -0.040842999 0.12925
-0.060222998 -0.032219999 0.064800002
-0.058216002 -0.032221001 0.063888997
-0.033286002 -0.021672999 0.055002999
-0.034131002 -0.021282 0.056118999
-0.051656 0.037640002 0.12269
-0.050540999 0.037898 0.12223
0.010433 -0.0073854001 0.069799997
-0.040323999 0.012363 0.092104003
0.047059 0.0037426001 0.10368
0.07339 -0.0045548999 0.091936998
0.085582003 0.029587001 0.085786998
0.043923002 -0.0027628001 0.092739001
-0.0024461001 -0.039956 0.11516
0.036442999 0.016483 0.098578997
0.062591001 -0.0055705002 0.098333001
0.085738003 -0.0001686 0.083048001
0.085781999 -0.0013416 0.082524002
-0.0067234002 -0.029735001 0.10877
-0.0071924999 -0.030972 0.10848
-0.041173 -0.0044215 0.083747
-0.050701998 0.013215 0.091926001
0.033852998 -0.015666001 0.096725002
0.078819998 -0.031573001 0.11577
0.078579001 -0.032097999 0.11661
0.065406002 -0.013619 0.087233998
-0.072010003 0.021287 0.11423
-0.042024001 0.0072217002 0.091378003
-0.0082711997 0.0010324999 0.072751999
-0.0064252 0.0026143 0.072848998
-0.048489001 0.033744998 0.10313
0.084555998 0.038871001 0.090861
-0.033126999 -0.039469998 0.11777
-0.033918001 -0.038943 0.11607
0.024936 -0.039044 0.05926
0.099390998 0.012385 0.086074002
-0.033091001 -0.011005 0.065256
0.1018 0.045499001 0.078015998
0.082052998 -0.017623 0.1196
-0.041264001 0.022723 0.098015003
-0.059921999 0.015294 0.10214
0.099945001 0.027423 0.078354001
0.060196999 -0.01338 0.092486002
-0.04696 -0.039301001 0.061253998
-0.025955001 -0.024894999 0.061073001
-0.018584 -0.026102999 0.078218997
0.018291 0.018533999 0.087710999
0.064268 -0.020431001 0.077014998
-0.059009001 0.023104999 0.10307
-0.050501 0.038570002 0.11933
0.063077003 -0.028027 0.075292997
0.063833997 -0.027492 0.075907998
0.062923998 -0.015662 0.070904002
0.061128002 -0.031045999 0.075456001
0.061296001 -0.031125 0.075080998
-0.0070202998 -0.032823 0.1085
0.074013002 -0.026711 0.11007
0.074582003 -0.025785999 0.112
-0.020073 0.039066002 0.1104
0.058129001 -0.012421 0.079527996
-0.035253 0.030007999 0.097859003
-0.061707001 -0.038701002 0.063768998
0.10513 0.030366 0.077053003
0.092986003 0.033057 0.082217
0.061756 -0.019037001 0.072485998
0.0023828 0.0071991999 0.071732998
0.068318002 -0.027491 0.091507003
-0.044629 -0.012145 0.086351
0.036318 0.014407 0.10324
0.034889001 0.013774 0.10302
0.040856998 0.018172 0.10271
-0.039430998 0.017919 0.093534999
-0.040414002 0.045152999 0.080913998
0.0011731 -0.018162999 0.072319001
-0.030946 -0.011465 0.057241
-0.030345 -0.010997 0.058888
0.091610998 0.031560998 0.081679001
-0.002624 0.0127 0.085400999
-0.0022040999 0.012091 0.086246997
-0.049451001 0.034123 0.1118
-0.039771002 0.038734999 0.078197002
0.033548001 -0.032504 0.066206999
0.033243999 0.0011277 0.084541999
0.089689001 0.0010403 0.084922999
-0.061845001 -0.034382999 0.059744999
-0.063114002 -0.035158001 0.060688
-0.013169 -0.026403001 0.079204999
0.082957998 0.00087292999 0.083397001
-0.010554 -0.027933 0.085566998
-0.010474 -0.028347 0.085960999
-0.050949 -0.03066 0.062977999
-0.051339999 0.0078571998 0.090023004
-0.05201 0.0082130004 0.090893999
-0.0042404998 0.012928 0.084872
-0.0035259 0.012674 0.084693998
0.048439 0.0075617 0.10736
0.073795997 -0.026466999 0.091504999
0.059411 -0.034040999 0.073738001
0.032428999 -0.032605 0.075722001
0.033427998 -0.032026 0.076701999
0.062665001 -0.038189001 0.070221998
0.061409999 -0.038113002 0.069456004
0.061392002 -0.037921999 0.069893003
0.079106003 0.01194 0.092165001
0.077298 0.012126 0.092532001
0.061629001 -0.012042 0.070272997
0.043437 0.0073134 0.10332
-0.044149999 0.029506 0.10464
0.074215002 -0.016076 0.084637001
0.10166 0.022806 0.080421999
-0.018124999 -0.03796 0.11251
-0.030583 0.0079154 0.10196
-0.045465 0.003606 0.089594997
-0.044714 0.0044278 0.089511
0.066610999 -0.033344001 0.1139
0.029735999 0.013057 0.088492997
0.061214998 -0.013813 0.080321997
-0.0069781998 0.0081995996 0.081780002
0.061616 -0.014344 0.069560997
0.064231001 -0.026450001 0.089239001
-0.042768002 0.047607001 0.11624
0.025911 0.017355001 0.095971003
0.024666 0.016410001 0.096727997
0.064949997 -0.021121001 0.074934997
-0.016407 -0.0080321003 0.071161002
0.052287001 -0.012975 0.090383999
-0.028503999 -0.011315 0.071676001
-0.037291002 0.013981 0.090048
-0.073200002 0.041327 0.12255
0.028100999 -1.89e-05 0.079437003
0.074190997 -0.017872 0.085073002
-0.029082 0.0026417 0.087632
0.061461002 -0.016057 0.081070997
0.084680997 -0.0046164999 0.082207002
0.083825998 -0.0034789999 0.082360998
-0.045651 0.035222001 0.10431
-0.046478 0.035642002 0.10424
-0.022724999 0.034014001 0.10767
-0.0026352 -0.017284 0.071080998
-0.071419001 0.0041764998 0.11726
-0.024338 -0.014912 0.068929002
0.032632001 0.014282 0.094201997
0.031961001 0.01487 0.094439
-0.047036 0.023566 0.086852998
0.038674001 0.018252 0.10444
0.036460999 0.013143 0.098131999
0.053293999 -0.0079156999 0.098056003
0.054503001 -0.007675 0.097470999
0.0042109 -0.040352002 0.11704
0.0033195999 -0.039305001 0.11787
-0.027184 0.0070361998 0.092685997
-0.037193 -0.031782001 0.055913001
0.048671 -0.037306 0.077711999
-0.072457001 0.028671 0.11813
-0.071837999 0.029511999 0.11895
-0.026707999 -0.026591999 0.054896999
-0.027433001 -0.028576 0.05477
-0.038059 0.035271998 0.1101
0.043285999 -0.031461999 0.069443002
0.043060001 -0.031973999 0.069425002
-0.010112 0.014359 0.087581001
-0.040376998 0.030153001 0.081396997
-0.030014001 -0.029516 0.054320998
-0.067027003 0.0048713 0.11134
-0.065719999 0.0064749001 0.11064
0.0041314 0.0069065001 0.073128
-0.048834 0.031146999 0.088255003
-0.032738 -0.011172 0.055296998
0.073276997 -0.029580001 0.10926
-0.063005999 -0.036446001 0.054616999
0.014893 0.014975 0.083655
0.061859999 -0.031243 0.071356997
-0.027013 0.010771 0.1072
-0.051493 -0.032698002 0.058673002
-0.050886001 -0.032037001 0.058180001
-0.072858997 0.040305998 0.11411
0.065261997 -0.0047124 0.101
0.064349003 -0.0055010999 0.10147
0.065823004 -0.0050443001 0.10151
0.039595999 0.0064663999 0.093048997
-0.030074 0.0025177 0.088344999
-0.054442 0.040548 0.10015
-0.054409001 0.039670002 0.1008
-0.034529999 -0.0063200002 0.080920003
-0.025358999 0.048280001 0.10884
-0.025682 0.048285 0.10932
-0.045143001 -0.032207999 0.057372
0.021412 0.017636999 0.089853004
-0.046861 -0.028264999 0.065279998
-0.047325999 -0.029607 0.064907998
-0.017043 -0.032644998 0.11208
-0.015867 -0.032324001 0.11237
-0.033335 0.0060247998 0.089414001
0.064260997 -0.023538999 0.080199003
0.065327004 -0.023151999 0.079320997
0.042904999 -0.013582 0.093153998
0.041561 -0.014079 0.093520999
0.040922999 -0.013909 0.092142001
-0.051261999 0.034968998 0.11666
-0.055679001 0.020337 0.098444998
-0.063357003 -0.033160001 0.068405002
-0.041466001 -0.029398 0.0594
-0.041710999 -0.029278999 0.059905
-0.047191001 -0.0052987998 0.085036002
0.0137 -0.0025669001 0.070303999
0.070101999 -0.014128 0.085065
0.071423002 -0.014731 0.084426001
-0.068304002 0.036940999 0.10917
0.020548999 0.016156999 0.086165003
0.020143 0.016611001 0.087307997
0.025056001 0.0068081999 0.077330999
-0.065316997 0.032506999 0.10608
0.082364999 0.023401 0.090492003
0.071524002 -0.029308001 0.10673
0.069048002 -0.010029 0.090112999
0.041878 0.0069356998 0.097602002
-0.065522999 0.010968 0.10803
-0.054407999 0.036584001 0.1235
-0.055766001 0.036327999 0.12459
-0.055323999 0.035110001 0.12379
-0.036405001 -0.032109 0.055610999
0.076375999 -0.022267001 0.088055998
-0.044016 -0.039597001 0.060403001
-0.045143999 -0.039880998 0.060892999
-0.016776999 -0.0047493 0.073601998
0.047642998 -0.0037789 0.096222997
0.037335001 -0.014149 0.093716003
0.054152001 -0.031071 0.077297002
0.053978 -0.030334 0.077667996
-0.030463001 0.0037713 0.087949999
-0.068526998 0.019502999 0.11324
-0.067382999 0.019764001 0.11294
-0.067829996 0.018820999 0.11365
0.043110002 -0.031461999 0.076977998
0.058499999 -0.020308999 0.071382999
-0.028889 -0.0030505001 0.082575999
-0.046183001 0.017421 0.093043998
-0.046344001 0.016213 0.092194997
-0.058015 0.028736999 0.10199
-0.058573 0.027651999 0.10336
0.029871 0.012236 0.08484
-0.022938 0.042075001 0.10763
-0.037292998 -0.019522 0.0634
-0.021744 -0.036809001 0.11246
-0.021872001 -0.036513999 0.1135
0.040447 -0.020504 0.099241003
0.048039999 0.0018897 0.10332
0.047424 0.0021273999 0.10226
0.033482999 0.015147 0.097804002
0.086626001 0.029955 0.085422002
0.0080329999 0.012229 0.078722998
0.021934999 -0.0060353 0.077939004
0.080682002 0.010206 0.09482
0.080877997 0.010361 0.095360003
0.080693997 0.0085480995 0.094109997
0.061476 -0.039921999 0.073774002
0.079838999 -0.019665999 0.087925002
0.059277002 -0.013577 0.086635001
-0.035333 0.036513001 0.11034
0.058865 -0.026727 0.068526998
-0.021903999 -0.035131998 0.11328
-0.021190001 -0.034460001 0.11277
-0.021898 -0.035556 0.1137
0.075847998 -0.023771999 0.11318
0.057794999 -0.010174 0.095218003
0.057238001 -0.011218 0.094290003
-0.032894 -0.011202 0.055472001
-0.013424 -0.0043020002 0.071167998
0.086888999 0.012182 0.092184
-0.058155 -0.031929001 0.065606996
-0.0044312999 -0.022883 0.074180998
-0.053610001 0.0067325998 0.091991998
0.028425001 -0.039872002 0.062628001
0.027987 0.013773 0.087214999
-0.046804 -0.0016069 0.085569002
0.062707998 -0.019617001 0.072099999
-0.040931001 0.028829001 0.1081
-0.042167 0.029437 0.10862
-0.034612998 0.012248 0.094759002
-0.034451999 0.010392 0.095331997
-0.043212999 0.013501 0.093194
-0.048719998 0.019117 0.089762002
-0.048455998 0.020028999 0.091162004
0.090864003 0.027129 0.082881004
-0.028153 -0.029897001 0.054310001
0.061356999 -0.026262 0.086819001
-0.075014003 0.028650001 0.11756
-0.059284002 -0.038823999 0.057433002
-0.060155001 -0.039859999 0.056731001
0.054598 -0.036129002 0.076330997
-0.048273001 -0.0081815999 0.090255
0.080523998 -0.016977999 0.086130001
-0.071088001 0.027822001 0.11774
-0.046379998 0.016362 0.095945999
-0.0063676001 -0.02836 0.10385
-0.048928 0.037501 0.12137
-0.054901998 -0.035427 0.056706
-0.0017581 -0.031994998 0.11076
-7.4276999e-05 -0.031311002 0.11463
0.00098083995 -0.030444 0.11421
-0.031020001 -0.0063278 0.079907
-0.027248999 0.0041658999 0.088183999
-0.053723998 -0.038557 0.058139998
-0.054843999 -0.039014 0.059592001
-0.058196999 0.016109001 0.10089
0.012384 -0.011412 0.074542001
0.013213 -0.011439 0.075026996
-0.067475997 0.022465 0.10986
-0.075359002 0.027081 0.11653
0.055505998 -0.0075885998 0.098416001
0.0090889996 0.0083531002 0.073172003
-0.041329 0.024947001 0.085231997
-0.048140001 0.014219 0.089777999
-0.0016125001 -0.029201001 0.10704
-0.0017224 -0.030243 0.10788
0.027367 0.0047352002 0.079154
0.014734 -0.01182 0.077953003
-0.068190999 0.0056332001 0.11317
0.0073815999 -0.016830999 0.074831001
0.090383999 0.031086 0.087044001
0.090397999 0.030537 0.087894
-0.0076762 -0.014594 0.068182997
0.024619 0.01392 0.085166
0.057236999 -0.037726998 0.068190001
0.067519002 -0.012246 0.089420997
0.068712004 -0.012148 0.088615999
0.045104999 -0.022003001 0.094113
-0.013042 -0.017052 0.069701999
-0.038917001 0.0069895 0.091490999
0.036837 0.00082805997 0.087591998
0.077125996 -0.03551 0.11922
0.076921001 -0.034409001 0.12001
-0.063662998 -0.035766002 0.057356998
0.049699001 9.0968999e-05 0.10393
0.048487999 0.0017304 0.10261
-0.026208 -0.023905 0.061996002
-0.032965001 0.021524001 0.1117
0.0025667001 -0.022813 0.081514001
0.0021537 -0.02245 0.082796
0.052708998 -0.039019998 0.070122004
-0.030788001 0.025082 0.10966
0.082525 -0.021233 0.1179
-0.056995001 0.018746 0.099101998
0.026433 -0.039919998 0.063906997
0.074029997 -0.0072607999 0.085652001
-0.056857001 -0.032366 0.060525
0.030548001 -0.012548 0.092479996
0.072825998 -0.039393 0.1269
-0.0072094002 -0.026364001 0.080485001
-0.070887998 0.039053001 0.11966
-0.067693003 0.040413 0.12661
0.081936002 0.022747001 0.089018002
0.061946999 -0.029451 0.094697997
0.076279998 -0.029451 0.11224
0.053211 0.0014258 0.10806
-0.011629 -0.020722 0.072564997
0.013003 -0.010469 0.074386999
0.013727 -0.011537 0.075255997
0.034929 -0.031929001 0.067498997
-0.029735999 -0.013445 0.066257998
-0.029095 -0.01453 0.065633997
-0.0092511997 -0.032055002 0.10865
-0.071416996 0.039439999 0.12032
-0.072392002 0.040052999 0.12041
0.014996 -0.0079570999 0.073648997
-0.039030999 0.01977 0.097828001
-0.049481001 0.032729 0.10226
0.082525998 -0.0040352 0.082272001
-0.033938002 0.038534999 0.11167
0.072919004 -0.0048710001 0.090775996
-0.0063128001 -0.0186 0.069830999
-0.0069072 -0.016973 0.068879999
-0.0052618999 -0.018071 0.069023997
0.070600003 -0.024727 0.088308997
-0.020671999 -0.0028568001 0.079218999
-0.021565 -0.0032158999 0.080218002
0.030743999 -0.035004001 0.063684002
-0.040901002 -0.039317999 0.060377002
-0.040153999 -0.039016001 0.062410001
-0.041901 -0.039429002 0.061103001
0.094614998 0.033907998 0.086983003
0.056860998 -0.011486 0.092872001
-0.032016002 -0.010102 0.06983
0.031029001 0.014665 0.093571
-0.047079001 -0.0086703999 0.086076997
-0.057305999 0.023748999 0.10126
-0.064738996 0.035466 0.10543
0.044861998 0.00045627001 0.096276999
0.045793999 -0.00037200999 0.097713999
-0.072751999 0.041060999 0.12267
-0.059340999 0.036345001 0.10134
-0.0070115002 0.010938 0.085578002
-0.0061400998 0.011914 0.085072003
-0.027621999 -0.011179 0.071459003
0.030964 0.017176 0.10027
0.0013837999 -0.038805 0.11437
0.011619 -0.010578 0.073633999
0.079634003 -0.013226 0.083053
0.080050997 -0.013554 0.083711997
0.048172001 -0.0075205001 0.094509996
-0.041979 0.040745001 0.081951
-0.050956 0.0083317999 0.089910999
0.047123 0.0013852 0.10272
-0.032322001 -0.037927002 0.11406
-0.0046748999 -0.036628999 0.11291
0.0074205999 -0.0072607999 0.070072003
-0.063722998 0.0067023002 0.10815
-0.063104004 0.0076867002 0.1082
-0.046480998 0.033468001 0.1128
0.026962999 -0.036807999 0.062477998
0.059473 -0.012632 0.074818
0.058493 -0.013222 0.076251999
-0.059585001 -0.036293998 0.055748999
-0.053180002 0.034401 0.11109
-0.053261999 0.034441002 0.11193
0.0015255 0.013297 0.086157002
-0.040392999 0.0066046999 0.090044998
0.090718001 0.015905 0.091224998
-0.031891 0.036834002 0.11482
0.016114 0.01308 0.078521997
-0.032949001 -0.0037418001 0.082387
-0.071565002 -0.00047306999 0.1165
-0.071837999 -0.00053999998 0.11587
-0.060029 0.019748 0.10313
-0.034945998 -0.0091527998 0.075282
-0.015809 0.00074413 0.077744
0.067380004 -0.0046697999 0.096441999
0.041205999 -0.030467 0.075508997
0.078341 -0.016511001 0.083163001
-0.038252998 0.039919 0.081281997
0.091356002 0.015983 0.092239
-0.036364 0.029525001 0.098256998
-0.035675 0.030245 0.097795002
0.039999001 0.00059652003 0.089364998
0.039331999 0.0019098 0.089617997
0.039942998 0.0027053 0.090397
-0.075308003 0.029748 0.11825
-0.076164998 0.029642999 0.11781
0.032480001 0.017868999 0.096759997
0.094852 0.0070018 0.088238999
0.094691001 0.0074915001 0.088886
-0.042068999 0.011769 0.090544999
0.062121 -0.039524999 0.069495998
-0.027586 -0.013859 0.068975002
-0.026958 -0.01451 0.068825997
0.074006997 -0.027076 0.094267003
0.0074160001 0.00058043998 0.069022998
0.0073362002 0.00061523 0.069755003
0.083618 0.010203 0.091247998
-0.0083283 0.0078694997 0.082402997
-0.063424997 0.031151 0.10779
-0.029999999 0.0059087002 0.086909004
-0.030086 0.0071287998 0.087623
-0.02802 -0.027504001 0.053500999
0.031571001 0.017704999 0.096180998
0.017632 0.017362 0.086494997
-0.063518003 -0.034334999 0.062696002
-0.065084003 -0.034083001 0.063575998
-0.062941998 -0.033612002 0.063300997
0.048067 -0.030769 0.070975997
0.048353001 -0.031445 0.068737999
0.0026676001 -0.013999 0.070963003
0.052639 -0.032074001 0.067818001
-0.023193 -0.022940001 0.073204003
-0.0042623002 -0.0077988999 0.067869999
0.061602 -0.014103 0.076886997
0.097984999 0.027384 0.084229
-0.055498 0.0085688997 0.094600998
-0.041189 -0.038259 0.057240002
-0.076444 0.033376001 0.11917
-0.027735 0.029294999 0.10722
0.013546 -0.012392 0.075947002
-0.027891999 -0.022737 0.053904999
-0.039439999 0.0087150997 0.092256002
0.0073966002 -0.019493001 0.083939999
0.0043477998 -0.039484002 0.11151
0.0039259 -0.039817002 0.11184
-0.0027222 -0.025136 0.10205
0.0072921999 0.010344 0.075750001
0.0026658 -0.0027926001 0.06825
-0.04882 -0.0023353 0.086452998
-0.067856997 0.0081877001 0.11256
0.033403002 -0.01784 0.10043
0.034067001 -0.018164 0.10088
0.057884 -0.010306 0.096240997
0.062070001 -0.021904999 0.069601998
0.061381999 -0.021036999 0.070294
0.070474997 -0.010293 0.087878004
-0.017057 -0.037797 0.11162
-0.032513 0.012546 0.092839003
-0.032967001 0.010636 0.093588002
0.038488999 0.0095706005 0.092658997
-0.055284999 -0.030329 0.072149999
0.043563001 0.0021776001 0.11222
-0.013991 -0.028293001 0.081643
0.061336 -0.019239999 0.083195001
-0.044091001 0.044679999 0.11651
-0.025278 0.0082932003 0.094319999
-0.011098 -0.013393 0.069595002
-0.048923001 -0.039313 0.061193999
0.039464001 -0.03342 0.067893997
0.087405004 0.0085891997 0.092119001
-0.011097 0.0071621002 0.083646998
-0.012742 -0.019440001 0.071115002
0.0080367997 -0.012313 0.072852001
0.022047 0.0076203998 0.076672003
0.0046220999 0.014691 0.087494001
-0.032077 0.0067958999 0.093652003
0.040236998 0.011593 0.10178
-0.038444001 0.037757002 0.082033999
-0.038261998 0.037294999 0.080410004
-0.00051063998 0.014703 0.083443999
-0.038619 0.029154999 0.083094999
-0.033925001 -0.0093181999 0.075877003
-0.034432001 -0.0095303999 0.076388001
0.086382002 -0.0063339998 0.083747
-0.026388999 0.018615 0.11076
-0.060178999 0.038392998 0.12246
0.075704001 -0.026775001 0.096900001
0.0867 0.0024557 0.082998
-0.028943 -0.0088916002 0.075447001
-0.042773999 0.021740001 0.095997997
-0.036164999 0.031907 0.10921
-0.039345998 -0.037469 0.11776
-0.037542 -0.037395 0.11717
-0.038387999 -0.038169 0.11807
0.024398999 0.019357 0.093524002
0.0077531999 -0.0014144999 0.068980001
0.071679004 -0.0090515995 0.086661004
-0.04276 -0.039303999 0.060143001
-0.043272 -0.039416 0.061866
0.073427998 -0.0041983002 0.089096002
0.031033 -0.034359001 0.067570001
0.032078002 -0.032609001 0.066885002
0.027433001 -0.039868999 0.065292001
0.0054404 -0.0018606 0.068224996
-0.062176 0.026919 0.10638
0.044162001 0.0048667002 0.098503999
-0.015297 -0.0025224001 0.075033002
0.050278001 -0.015063 0.090410002
0.049226001 -0.014586 0.091168001
0.050705999 -0.01381 0.090461001
0.074817002 -0.016973 0.084752999
-0.028356001 0.0071585001 0.093188003
-0.065361999 -0.0025406999 0.10886
-0.064887002 -0.001546 0.10928
-0.063562997 -0.0019546 0.10926
-0.017890999 -0.012572 0.070347004
0.071401 -0.031713001 0.1099
-0.064508997 -0.034401 0.063130997
-0.00063412997 -0.0082521997 0.068833999
-0.057482999 0.037974998 0.10373
-0.059608001 0.029313 0.1023
-0.057868 0.029617 0.10145
-0.025388001 0.0085741999 0.10728
0.069660999 -0.024814 0.087954
0.038594998 -0.032097999 0.069923997
0.085837997 -2.3664999e-05 0.093397997
0.031640999 -0.0087748999 0.087090999
-0.043340001 0.017267 0.089764997
0.050932001 -0.03074 0.076425999
0.0105 -0.017283 0.079513997
0.082773 0.0076791001 0.091366999
0.081404999 -0.016864 0.085638002
-0.049346998 -0.03957 0.061675999
0.070159003 -0.038104001 0.073169999
0.034246001 0.012773 0.10527
0.035732999 0.011684 0.10466
0.053835999 -0.039016001 0.069571003
-0.047318 0.035282001 0.087127
0.071061 -0.037558999 0.12125
0.071301997 -0.037595998 0.12148
0.028612999 -0.0097163003 0.088999003
-0.030555001 0.0087296003 0.092560999
0.057479002 -0.039101001 0.069486998
0.041552 -0.022953 0.099955998
0.024719 0.0040941001 0.075915001
-0.031404 0.013451 0.097638004
0.025959 0.015398 0.097978003
-0.052138001 0.034480002 0.12112
-0.05249 0.035011999 0.12103
0.061453 -0.018858001 0.083907001
0.063905001 -0.024522999 0.080008
0.079680003 -0.026027 0.11749
-0.032834999 -0.0064428998 0.079051003
-0.021064 -0.010635 0.071659997
-0.021007 -0.0094400002 0.072912
-0.02716 0.0035465001 0.10358
-0.052825 0.034593001 0.1115
-0.052604001 0.034141 0.11057
0.079007998 -0.016581999 0.084324002
0.0090565002 -0.038166001 0.11187
-0.028839 0.036341 0.11341
-0.013174 -0.0074793999 0.070125997
0.012338 -0.014032 0.078511
0.013063 0.010635 0.076026
0.012238 0.010337 0.076508999
0.033909 0.01777 0.097217001
0.039935999 0.0078812996 0.10881
0.039524 0.0069602998 0.10957
-0.062125999 0.03128 0.10579
0.044392001 -0.034230001 0.067386001
0.071244001 -0.030208999 0.10101
0.0015397 -0.039572001 0.11275
0.0030131999 -0.04008 0.11247
-0.038148001 -0.039259002 0.059563
-0.052861001 0.036180001 0.11933
-0.027581001 0.025974 0.11224
-0.026963999 0.026546 0.11233
-0.080998003 0.030695001 0.12071
-0.083329 -0.0027154 0.12909999
0.063038997 -0.038598001 0.069218002
-0.029668 -0.011928 0.060387999
0.060382001 -0.019537 0.072376996
0.050569002 -0.036426 0.067941003
0.023877 -0.0091906004 0.082895003
0.058669999 -0.015585 0.070812002
0.10131 0.040879 0.083259001
-0.028979 -0.017144 0.060129002
-0.020711999 0.039712999 0.10809
-0.020825 0.040057998 0.10841
-0.020470999 0.039875999 0.10924
-0.064413004 0.038362999 0.12730999
-0.068340003 0.026412999 0.11253
-0.069468997 0.026202001 0.11152
0.083750002 -0.04036 0.12914
-0.043976001 0.029488999 0.10246
-0.011965 -0.027741 0.084592
-0.075072996 0.025889 0.11461
0.079585001 0.010395 0.090810999
0.078642003 0.010304 0.091587
0.069698997 -0.028866 0.095610999
-0.016334999 -0.028592 0.083568998
-0.033066001 -0.021120001 0.055426002
0.034706999 -0.032017998 0.068274997
0.0066340002 -0.0010562 0.069055997
-0.033801001 -0.0065143998 0.080537997
0.036619 -0.037636001 0.065600999
0.078744002 0.0029728999 0.090724997
-0.0014873 0.012215 0.082345001
0.0055431998 -0.021144001 0.082066998
-0.041742001 -0.00059469999 0.085717
0.022758 0.00050657999 0.075585999
-0.035886999 0.018177999 0.1026
-0.032917999 -0.0016043 0.085555002
-0.077494003 0.027618 0.11739
-0.025581 -0.022852 0.063666001
0.082073003 -0.021414001 0.095435001
0.054345001 -0.018173 0.078952998
0.037806001 0.010851 0.097149
-0.028022001 0.026180999 0.10885
-0.030288 0.0059114001 0.10483
-0.058756001 0.025970999 0.10249
-0.034194998 -0.035406999 0.061390001
-0.023923 -0.015922001 0.069897003
-0.069146 -0.037315 0.055087999
-0.036277 0.0061337999 0.090764999
-0.070014 0.037912 0.11961
-0.011902 -0.027039999 0.080486
0.077334002 -0.037950002 0.12805
0.072715998 -0.0024949 0.096205004
0.072471999 -0.0023928999 0.094935998
0.071208999 -0.0024707001 0.095045999
-0.061476 0.025475999 0.10579
0.036143001 0.013947 0.10424
0.036894001 0.013484 0.10475
-0.043024 -0.040095001 0.059399001
-0.034572002 0.030965 0.10798
-0.035266001 0.025479 0.10714
-0.055587001 0.010064 0.096725002
0.040093999 0.0011329 0.089483999
0.080158003 -0.021788999 0.095739998
0.079971001 -0.022575 0.094723001
0.054141998 -0.0034647 0.10205
0.063983999 -0.040286999 0.070808999
0.0028532001 -0.036933001 0.11275
-0.018412 -0.038355 0.11253
0.037834998 -0.014369 0.092487998
0.036635999 -0.014176 0.092317998
-0.035053 -0.037280001 0.061875999
-0.028198 0.026582999 0.10919
-0.046023998 0.0043571 0.088867001
0.081693999 0.0093531003 0.089592002
-0.028209001 0.026738999 0.10772
-0.023928 0.036076002 0.1066
-0.033132002 0.0021701001 0.088206999
-0.038104001 0.017052 0.092207998
0.058811001 -0.037555002 0.12343
-0.016930001 0.0010269 0.078185998
0.080357999 0.00069407001 0.084547997
0.047572002 -0.0047366 0.095908001
0.067175001 -0.010471 0.092468999
-0.071061 0.0053412998 0.11635
-0.057068001 -0.038031001 0.057346001
-0.029816 0.0055579999 0.092014998
-0.039439 0.027813001 0.086001001
-0.029841 0.024114 0.11293
-0.029057 0.024529001 0.11093
-0.019386999 -0.024262 0.076017
-0.061942 0.0055974 0.10505
-0.028348999 -0.019808 0.059372
-0.076534003 0.038038 0.1174
-0.075456001 0.039143 0.11785
-0.019632 -0.023104001 0.075568996
0.0085669998 0.017006001 0.083884001
-0.033909 0.012315 0.097073004
0.041790999 0.0058328998 0.094728
0.041930001 0.0051000998 0.094607003
0.034281 -0.040362 0.066202998
-0.035397999 -0.037009001 0.056439001
-0.081680998 -0.0025471 0.12732001
0.038637001 -0.031129001 0.071800999
0.039143 -0.031962998 0.072849996
0.063164003 -0.035617001 0.072539002
0.043885 -0.018952001 0.095338002
-0.044994999 0.0049787001 0.089605004
-0.045809001 0.0052932999 0.089888997
-0.061349999 0.039957002 0.12634
0.063818999 -0.036068998 0.071382001
0.0026050999 -0.024174999 0.10826
-0.011569 -0.040256999 0.11898
-0.037163001 0.020271 0.10526
0.088172004 -0.0087462999 0.087397002
0.040479999 0.0081904 0.096675001
-0.0026616999 0.0099020004 0.079798996
-0.013723 -0.018603001 0.071199
-0.049727 0.030797999 0.088968001
-0.049419001 0.032129001 0.090248004
0.069036998 -0.034846 0.11576
0.070436001 -0.034786999 0.11622
0.069032997 -0.033882 0.11666
-0.066487998 0.024767 0.11285
-0.066698 0.023511 0.11234
-0.032623 -0.020579999 0.056040999
0.021935999 -0.0061023999 0.078083001
0.038013 -0.032001 0.070531003
0.065169998 -0.021726999 0.071891002
0.063680999 -0.021528 0.071011998
0.03173 -0.015324 0.097428001
-0.025088999 -0.021415001 0.070382997
-0.064663 -0.0034367 0.10878
0.032359 -0.038137998 0.062522002
0.081492998 -0.040752999 0.12699001
0.048035 -0.039152998 0.12620001
0.033032998 0.0081292996 0.085192002
-0.068905003 0.022924 0.11113
0.00019249 -0.01327 0.069802001
-0.068176001 0.0035981999 0.11292
-0.068710998 0.0041010999 0.11327
-0.039437 0.021048 0.098398
-0.047518998 0.036803 0.11972
-0.048097 0.036405001 0.11971
-0.046737999 0.038396001 0.12039
-0.033544999 -0.0057287002 0.081133001
0.062194999 -0.029550999 0.071562
0.062679 -0.029529 0.073118001
-0.025031 0.015376 0.11001
-0.023969 0.016404999 0.10993
0.078699 -0.00058593001 0.08585
0.049729001 -0.0022940999 0.10085
-0.0093652001 -0.038989 0.11761
0.02424 -0.0085816002 0.082267001
-0.065977 -0.038732 0.054788001
-0.064502001 -0.039294001 0.054706998
-0.038098 -0.0017685 0.084753998
0.045614999 -0.016194001 0.092937998
-0.0056701 -0.028986 0.10673
0.0022623001 0.0072745001 0.074625
-0.047343999 -0.012517 0.089109004
-0.047093999 -0.012897 0.089555003
0.080036998 -0.025202001 0.11874
-0.046337999 0.024719 0.086703002
0.033287998 -0.017620999 0.098987997
-0.065870002 0.023162 0.10972
0.065403998 -0.012669 0.089478999
0.078910999 -0.024552001 0.095009997
-0.01385 -0.022311 0.073567003
0.069645002 -0.028918 0.097347997
-0.083337002 0.024101 0.12527999
-0.0036607999 0.0016966 0.071791999
-0.031191999 -0.0013342 0.084925003
-0.036617 0.022422001 0.10566
-0.053915001 -0.035046998 0.057599001
-0.01498 -0.018378001 0.071004003
0.066091999 -0.006939 0.095802002
-0.018314 -0.0027147999 0.074481003
-0.026052 -0.040024001 0.056531001
-0.068824001 0.0048616002 0.1128
-0.034575 0.012089 0.095948003
0.040123001 -0.019007999 0.096286997
0.040688001 -0.019355001 0.096455
0.040707 -0.012986 0.092343003
0.012703 -0.0073159998 0.072059996
-0.029584 0.017012 0.10688
-0.049624 -0.039489999 0.061216
0.04064 -0.031737 0.070146002
-0.025796 -0.024596 0.075615004
0.055605002 -0.021049 0.074550003
0.10144 0.040594 0.079350002
0.10128 0.042619999 0.078383997
-0.030863 -0.018234 0.060456999
-0.0277 0.012635 0.1033
-0.027779 0.012452 0.10279
-0.031357002 0.013029 0.096919
-0.031578001 0.013418 0.098079003
-0.022562001 -0.015644999 0.069798999
0.051399998 -0.0061324001 0.097586997
-0.032164 0.0021488001 0.088050999
-0.032035001 0.0024115001 0.089037001
0.072214998 -0.032919001 0.11111
-0.072632998 0.0028641999 0.1184
-0.038823001 0.031764999 0.11006
-0.037085999 0.031367999 0.11014
-0.037620999 0.03097 0.10844
0.054524999 -0.00078924 0.10752
0.090256996 0.018751999 0.09127
0.084742002 0.00035727999 0.083057001
-0.020158 -0.0080426997 0.074258
0.024700001 0.0018367 0.075622998
0.039356001 0.010147 0.095532998
-0.044985 0.0070913001 0.090925001
0.083458997 0.026763 0.088391997
0.018525001 0.0072867 0.075425997
0.049812 -0.0092024002 0.094609
0.0093214996 0.0092340996 0.073252
-0.045472998 0.036037002 0.104
-0.070536003 0.0025674 0.11553
0.079811998 -0.00089028 0.084694996
-0.042725999 0.032391001 0.081325002
-0.023697 -0.0075889002 0.076260999
-0.011928 -0.015900001 0.068403997
0.087379001 -0.011278 0.088633999
0.087305002 -0.011731 0.088857003
-0.041388001 -0.039445002 0.059450999
0.075880997 -0.016311999 0.084380001
0.062550001 -0.01847 0.080539003
0.064081997 -0.025821 0.070826001
0.063325003 -0.026574999 0.071217999
0.062808 -0.025722999 0.070528999
-0.052379001 0.034148 0.10896
-0.051899999 0.034687001 0.10928
-0.051424 0.034807999 0.10859
0.076797001 -0.040555 0.12612
0.048751 -0.0092292996 0.093575001
0.033429999 -0.033580001 0.064685002
0.071229003 -0.034982 0.11588
0.092499003 0.033652999 0.083492003
-0.045120001 -0.031523999 0.058421999
-0.023522001 -0.024332 0.074805997
0.034770999 -0.00044417 0.085997
0.037725002 0.011912 0.099027999
0.038302999 0.013413 0.099353001
0.089460999 -0.001372 0.092151999
-0.072148003 0.038479 0.11233
0.055729002 -0.026989 0.068687998
-0.036803 -0.018928999 0.064213
0.099651001 0.035156999 0.081672996
0.079163998 -0.030725 0.11843
-0.045442 0.028201999 0.084835
-0.02526 0.046069 0.10948
0.036688 -0.014799 0.093121998
0.076713003 -0.0019359 0.087825999
0.041418001 -0.018418999 0.095857002
0.041873999 -0.018173 0.095752001
0.048601002 0.0021236001 0.11089
0.047157001 0.0026203999 0.11126
0.046317 0.0017361999 0.1121
0.102 0.041312002 0.082650997
0.084081002 -0.016912 0.092955001
-0.082966 0.022744 0.1265
-0.031063 -0.011313 0.063461997
0.054629002 -0.025452999 0.071296997
0.055833001 -0.024731999 0.070478998
-0.056915 0.039172001 0.10044
-0.051289 0.0075192 0.088708997
-0.040467001 0.00031767 0.086355001
0.037739001 -0.031771999 0.073720999
0.035842001 -0.033555999 0.066529997
0.063917004 -0.036770001 0.12264
0.086023003 -0.013272 0.092816003
0.097906999 0.019710001 0.087240003
0.0013871 -0.025846999 0.10538
0.099767998 0.047222 0.078143999
-0.080810003 0.031507999 0.12229
-0.037202999 -0.039724998 0.05883
0.045683999 -0.039538998 0.069583997
0.0277 0.0043804999 0.078768998
0.013632 -0.0069811 0.072506003
0.035463002 0.010846 0.10604
0.066638999 -0.038720999 0.071240999
0.012533 -0.0069611999 0.070735998
0.036368001 0.011324 0.093718998
-0.010116 0.0094555002 0.088115998
-0.021831 0.0037807 0.092933998
-0.021017 0.0035182999 0.093143001
-0.021152999 0.0028311 0.092009
-0.061808001 0.0059568998 0.10486
-0.043081999 0.023223 0.093676999
-0.083815999 0.024669001 0.12364
0.067893997 -0.033268001 0.11083
-0.065298997 -0.038297001 0.061352
-0.065318003 -0.039239001 0.061429001
-0.066480003 -0.039172001 0.062470999
-0.053068999 -0.039712999 0.059964001
-0.054329 -0.039167002 0.061005
-0.062955998 0.040022001 0.12456
0.059225999 -0.013963 0.068875
0.070662998 -0.029858001 0.10385
0.073284999 -0.040670998 0.12955
0.049823999 -0.0052071 0.096337996
0.061131001 -0.039641 0.070595004
-0.021833999 -0.0032474 0.080186002
-0.0066280002 0.0083779003 0.081563003
-0.010815 -0.039965 0.11633
-0.070720002 0.040272001 0.12043
-0.032125 0.0053309002 0.088342004
-0.0041670999 0.0014141001 0.071249999
-0.062941998 -0.039158002 0.061689001
-0.061942998 -0.039177999 0.062830001
-0.049467001 0.039710999 0.11982
0.043586999 0.00093629002 0.094600998
0.044101 0.00093024003 0.095274001
0.090566002 0.0022470001 0.088965997
0.050106 0.0027278999 0.10995
0.049903002 0.0025309001 0.11006
-0.013345 -0.023363 0.074585997
-0.0081000002 -0.037014 0.11122
-0.024924001 -0.019375 0.068810999
-0.062509999 -0.033179 0.069990002
0.065154001 -0.031268999 0.10047
0.0079608997 -0.019293999 0.081863999
0.067502998 -0.036940001 0.073812999
0.070790999 -0.031523 0.10827
-0.00088949001 0.00044092 0.069856003
0.086424999 0.038013 0.090007998
0.047726002 -0.03066 0.075354002
0.047019999 -0.030461 0.074956
0.054641999 -0.012335 0.091058001
0.056391999 -0.012811 0.090673
0.090265997 -0.0024279 0.088735998
0.093295999 0.020414 0.090791002
0.095505998 0.01657 0.082245
0.095942996 0.017109999 0.082423002
-0.029796001 -0.037997998 0.057452001
0.060919002 -0.017114 0.085775003
-0.022631999 -0.021745 0.071140997
-0.022266001 -0.022418 0.072701998
0.086544998 0.037746999 0.088761002
-0.020574 -0.0034298999 0.079517998
0.0019102 -0.022714 0.10816
-0.030393999 0.0032406 0.087853
-0.024975 0.016721001 0.11232
0.057571001 -0.013807 0.087876
-0.031741001 -0.038860001 0.054473002
-0.025853001 -0.025148001 0.062421001
-0.043637998 0.022724001 0.093227997
0.070975997 -0.024815001 0.088684
0.090708002 0.0026387 0.087173998
0.0022166001 0.0029006 0.069839999
0.0028722 0.0031218999 0.070750996
0.018332001 0.013117 0.080025002
-0.033845 0.032106001 0.11551
-0.058130998 -0.030959001 0.064978004
-0.057305999 -0.031562001 0.063992001
-0.081706002 0.026929 0.1211
0.064864002 -0.019475 0.074998997
0.024846001 -0.0071084001 0.081637003
0.070074998 -0.037425 0.12141
-0.02887 0.013929 0.10387
0.062132999 -0.029335 0.070376001
0.086701997 0.035689 0.090810999
0.061273001 -0.027431 0.089038998
-0.027798001 0.0061837998 0.089676999
-0.032506999 -0.029981 0.054074999
-0.035920002 0.024125 0.10669
-0.054047 -0.036754999 0.057333998
0.014968 0.013747 0.080123
0.015952 0.014486 0.080617003
0.096536003 0.022748999 0.081182003
0.037468001 -0.014375 0.093230002
-0.0058033001 -0.011607 0.06814
-0.013456 -0.0096613001 0.070074998
-0.052005 -0.033551998 0.057776
-0.016542999 -0.0054477998 0.072500996
-0.070110999 0.022701999 0.11186
-0.056449 -0.031330999 0.062245999
-0.041351002 0.041198999 0.078855
0.035434999 -0.039283 0.065360002
-0.032228 0.0024361999 0.088454999
0.085879996 0.0048217 0.092262
0.084770001 0.0040712999 0.093140997
0.0013214001 -0.026342001 0.10663
0.024080999 -0.0076680002 0.081492998
0.076747999 -0.019410999 0.085745998
-0.071658 -0.038369 0.054868001
0.049819998 -0.0055586002 0.095675997
0.061615001 -0.015005 0.080339998
0.062524997 -0.016264001 0.080310002
-0.069467999 0.026464 0.1164
-0.069503002 0.026520999 0.11678
-0.056379002 0.035018999 0.12139
-0.058010999 0.034421001 0.12199
0.076536998 -0.021810999 0.11762
-0.014982 -0.0011254 0.076158002
-0.013995 -0.00021416 0.074818
0.050955001 0.0037087 0.10594
0.034945 -0.030804999 0.077574
-0.051980998 -0.029727999 0.065779999
0.094183996 0.028246 0.081556
-0.035324998 -0.029681001 0.055355001
-0.067309998 -0.038961999 0.058660999
0.052627999 -0.00051839999 0.10375
-0.063982002 0.0079584001 0.10982
-0.064958997 0.0079608997 0.1102
-0.027837001 -0.029761 0.061818998
-0.071004003 0.039836001 0.11541
0.040162001 0.011688 0.10054
0.055698998 -0.035999 0.076209001
0.055240002 -0.035523001 0.076575004
-0.033461999 0.0042134998 0.090823002
-0.077987999 0.031373002 0.11967
0.032310002 -0.010828 0.089087002
-0.021661 -0.037408002 0.11353
-0.072875999 0.0014735 0.11861
-0.0024081999 -0.038789 0.11287
0.049026001 -0.035002001 0.078303002
-0.045667 -0.0072359 0.086575001
-0.045423999 -0.0054429001 0.086680003
-0.044728 -0.0063725002 0.086026996
-0.028752999 -0.038849998 0.1182
-0.023302 0.015285 0.11066
0.026325 -0.037751999 0.064718001
-0.020914 -0.0091174003 0.073040999
-0.036132 0.021098001 0.10479
0.047070999 -0.030238001 0.073596001
-0.033689 0.011512 0.10707
-0.033089999 0.013138 0.1097
-0.033994999 0.012209 0.10785
0.074873999 -0.036081001 0.117
0.077983998 -0.039825 0.13294999
0.086764 0.029691 0.091605
0.064263999 -0.026542 0.078864001
0.061838001 -0.037384 0.070914999
-0.0079129003 -0.013007 0.068246998
0.063282996 -0.039948002 0.12735
-0.075009003 -0.0030867001 0.11872
0.025605001 0.018997001 0.094927996
-0.048512001 -0.0065384 0.090324
-0.01386 -0.022999 0.074911997
-0.024261 -0.0084766997 0.074785002
-0.026071999 0.0086687999 0.093650997
0.056332 -0.0019563001 0.10242
-0.038210001 0.020594999 0.097703002
-0.0023943 -0.039958999 0.11761
0.064397 -0.039859999 0.076398998
0.051006999 -0.032466002 0.067152001
0.019659 -0.010738 0.084760003
0.021562001 0.016174 0.095464997
0.022647001 0.016801 0.095550001
0.059794001 -0.013357 0.078840002
-0.049913999 -0.032542001 0.057695001
-0.049879 -0.034313001 0.0579
-0.049566001 -0.032855 0.058382999
0.0077525 -0.0117 0.071791001
-0.018066 0.0019505 0.086772002
0.099811003 0.020373 0.080155
-0.054584999 0.037574999 0.12224
-0.041533001 0.018106 0.093948998
0.044608999 -0.022793001 0.095968001
0.086186998 0.0027717 0.093742996
0.084829003 0.0016532 0.093886003
-0.050216999 0.00085438997 0.089791
-0.033833001 -0.021136999 0.059181001
0.065295003 -0.019943001 0.085169002
0.020424999 0.0050951 0.074538998
-0.066666 -0.0030704001 0.10965
-0.065476999 -0.0030827001 0.11139
-0.066243999 -0.0022756001 0.1122
-0.080176003 0.033016 0.1226
-0.057015002 -0.032145999 0.061372999
-0.032701999 0.016183 0.10343
0.024766 0.019243 0.092407003
-0.061020002 0.022283999 0.10557
-0.022321001 0.0058685001 0.10109
-0.023437999 0.0046039 0.10038
-0.011981 0.0012421 0.075111002
-0.0039217002 -0.034623999 0.1166
0.067149997 -0.012531 0.089373
-0.043255001 -0.0097765997 0.085367002
-0.044505 -0.0099846004 0.086448997
-0.0098652998 0.0044388999 0.079092003
0.059827998 -0.012354 0.078488998
0.087415002 0.01051 0.084325001
0.088082999 0.011413 0.083708003
0.063111 -0.024909999 0.069692001
-0.024774 0.03458 0.11296
0.062013 -0.014618 0.072962001
0.097260997 0.036975 0.080746002
0.033298999 -0.0056975 0.085781999
0.0062322998 -0.013193 0.072270997
0.0073766001 -0.013538 0.072122999
0.0014294001 -0.021033 0.11047
-0.030005001 0.0059560998 0.1049
-0.011538 0.014807 0.086225003
0.018516 0.0043946998 0.073683999
-0.0022857001 0.0072746999 0.076102003
0.060844999 -0.018656 0.072802
-0.008808 -0.019796999 0.070805997
-0.039932001 -0.035902999 0.056862
0.10148 0.037099998 0.081458002
-0.05765 0.025703 0.10173
0.030972 -0.00027845 0.082230002
-0.050755002 0.0037358 0.087586001
0.087595999 0.0071953 0.084307998
0.097879 0.030174 0.082673997
-0.064039998 -0.0023604999 0.10875
-0.066528 0.024339 0.10954
-0.027044 -0.024077 0.068502001
-0.026690001 -0.024816999 0.068360999
-0.033907 0.010607 0.088872999
-0.033549 0.011407 0.089414999
0.068549 -0.037813999 0.074166998
-0.032286 0.0038749001 0.089937001
-0.028743999 -0.037528001 0.057108
0.039859001 -0.030733 0.075369
0.014795 0.014886 0.080875002
-0.053374 0.015163 0.095845997
-0.023097999 -0.036630999 0.11377
0.013798 0.0036132 0.071064003
0.015048 0.0046087001 0.071460001
0.0054281 -0.040026002 0.11266
-0.0019214 -0.026662 0.11791
-0.0017179 -0.028139999 0.11739
-0.00097549998 -0.027797 0.11701
-0.033105999 0.019161001 0.11387
-0.034843002 0.02306 0.11033
0.018038001 0.013691 0.082184002
-0.069683999 0.025836 0.11147
0.083400004 0.037264001 0.090117
0.0063962 -0.015007 0.072443001
0.083676003 -0.0053953002 0.082378998
-0.0085169999 0.010995 0.086799003
0.06284 -0.021354999 0.070941001
0.064048 -0.037108999 0.12244
0.10074 0.046225 0.076526999
0.025583999 -0.034968 0.082397997
0.025312001 -0.035801001 0.081730001
-0.075552002 0.0069196001 0.12498
-0.075801 0.0071469001 0.1248
-0.075292997 0.0077018002 0.12455
-0.04304 -0.003883 0.085208997
-0.043832 0.011274 0.087424003
0.079190001 0.0097712995 0.0911
0.033888001 -0.031153001 0.076817997
0.1047 0.025125001 0.079705998
-0.057657 0.012192 0.098975003
-0.058114 0.011075 0.098861001
-0.061643999 -0.032843001 0.063646004
0.0016121001 -0.02235 0.10597
0.016966 -0.0073414999 0.072979003
-0.047612 0.0091442 0.091486998
-0.062491 -0.032802001 0.068550996
-0.061375 -0.031782001 0.069935001
0.052639998 -0.031381998 0.068717003
0.0012407 -0.023401 0.10652
-0.057916 0.035038002 0.10306
-0.056953002 0.021276001 0.10015
0.04245 0.0024921999 0.093962997
0.089308999 0.0051199999 0.091802999
0.087456003 0.0051918998 0.092183001
0.061365999 -0.029402999 0.072306
0.065270998 -0.021344 0.072503
-0.044615999 0.033918999 0.11445
0.063943997 -0.017919 0.077197999
0.056823 -0.0029074 0.10143
0.01343 0.018145001 0.085672997
-0.073183998 0.0024900001 0.11935
0.084775999 -0.015835 0.093575999
0.039788999 0.020466 0.10451
-0.033167999 -0.034239002 0.061234999
-0.033257999 -0.034843002 0.061163001
-0.046085998 0.028496001 0.10048
-0.047761001 -0.0093491999 0.090824001
0.069629997 -0.038378999 0.072682999
-0.052678999 0.021142 0.094293997
0.097179003 0.021521 0.081088997
-0.078721002 0.033647001 0.12151
-0.078530997 0.03396 0.12197
-0.027548 0.0062218001 0.099587001
-0.043974999 0.017406 0.089015
0.03822 -0.033877999 0.066697001
-0.024721 0.041007999 0.10836
-0.058800001 0.033914 0.10364
0.0099259 -0.017825 0.082441002
-0.030565999 -0.011246 0.054492
-0.055062 -0.029106 0.068343997
-0.054754999 -0.028549001 0.070035003
0.044027999 -0.00030369 0.094751
0.066721 -0.037457999 0.074318998
-0.030075001 -0.030633001 0.054669999
-0.028042 -0.025191 0.071294002
0.081592999 0.011591 0.087117001
-0.025467001 0.0059321001 0.10645
0.037788998 -0.039650001 0.069884002
-0.055884998 -0.030432001 0.073601
0.043347999 0.0099207005 0.1079
0.0075308001 0.001473 0.070136003
0.0084255999 0.0013647 0.069692001
-0.060639001 0.0026865001 0.10113
0.068783998 -0.0053796 0.095053002
-0.037324999 -0.034646999 0.055663001
0.016204 0.0074641998 0.073918
0.079572 -0.018451 0.086159997
0.075460002 -0.022719 0.11275
-0.01894 -0.0073259999 0.074584998
-0.053975999 0.0057083 0.092836
-0.054458998 0.0070863999 0.093221001
-0.031936999 0.032944001 0.11537
-0.031373002 0.033619002 0.1148
0.019013001 0.00046128 0.072228998
0.017996 0.00014556 0.071735002
-0.042125002 -0.0080479002 0.084555998
-0.045501001 0.022962 0.088714004
-0.026467999 -0.024653999 0.054767001
-0.066303 0.03638 0.10991
0.048861001 2.8414001e-05 0.1124
-0.043905001 -0.033505 0.056747999
-0.056471001 0.02173 0.099218003
-0.061241001 0.036348 0.10323
0.082296997 0.040208999 0.089287996
0.0014368 -0.039193001 0.11164
0.041868001 -0.0077884002 0.090314999
-0.040011998 0.014804 0.092262998
-0.064020999 0.025369 0.10954
-0.023979999 0.043717001 0.1115
0.064061999 -0.016452 0.074359998
-0.0079592001 -0.016762 0.069284
0.067024998 -0.014771 0.087087996
-0.013267 0.0011293 0.075703003
-0.049798001 0.0090402002 0.088435002
-0.023523999 -0.019762 0.066427998
-0.044296999 -0.036807001 0.056848999
0.010528 -0.016147999 0.085349999
-0.011034 0.0014956 0.075356998
0.048076998 -0.030334 0.074395001
0.048234999 -0.03049 0.075332001
-0.029758001 0.010568 0.098858997
-0.030252 0.011365 0.099523999
0.011911 -0.011509 0.073569998
0.066869996 -0.0098879999 0.093791999
-0.0074332999 -0.036286 0.11128
0.065917 -0.024754999 0.088353999
-0.075300001 -0.0020931 0.11847
-0.085603997 0.020927999 0.12754001
-0.049272999 -0.0011173 0.089594997
-0.049378 -0.0017723 0.090787999
0.017144 0.0039852001 0.072668001
-0.046470001 0.031578001 0.10746
-0.084495999 0.025621001 0.1252
0.088596001 0.016835 0.091972001
0.089217998 0.015930999 0.091237001
-0.046812002 -0.0088962996 0.088505
-0.019847 -0.0092321001 0.072327003
0.084186003 0.031631999 0.089387
0.063511997 -0.01174 0.094013996
0.058203001 -0.040339001 0.071168996
0.057457 -0.040534001 0.071998999
0.062772997 -0.026622999 0.069608003
0.083279997 -0.016873 0.090457
0.075554997 -0.020823 0.11661
0.010829 0.017729999 0.088257
-0.060710002 -0.034433 0.057383001
0.075740002 -0.025496 0.11306
0.075828001 -0.040275998 0.12903
-0.064638004 -0.0025857999 0.10803
0.089712001 0.021709999 0.083255
-0.022684 0.0038608001 0.090552002
-0.059765998 0.03582 0.12468
0.081367999 0.038667001 0.089548998
-0.054028001 0.013818 0.094387002
0.011192 -0.012959 0.075684004
-0.031468 0.029424001 0.10789
-0.00067698001 -0.036974002 0.11224
-0.056001 -0.037925001 0.057011001
-0.026118999 -0.017996 0.065609001
-0.025973 0.0013988001 0.090002999
-0.042141002 -0.0094887 0.084142998
0.072301 -0.036148999 0.1175
0.073239997 -0.035640001 0.11639
-0.0081141004 -0.031893998 0.10874
-0.0074872999 -0.032391001 0.10868
0.011154 0.0040242001 0.071286999
0.00024409 -0.031998001 0.11237
-0.044548001 -0.029906999 0.065301999
-0.029258 0.034915 0.10955
-0.065566003 -0.039639998 0.055155002
0.00047643 -0.025467999 0.11611
-0.059036002 0.031996001 0.10318
0.054621 -0.011016 0.094509996
0.078905001 -0.023437999 0.094059996
0.031300999 0.016487001 0.10093
-0.058203999 0.017543999 0.10125
-0.043552998 0.043947998 0.11754
0.075588003 -0.032462001 0.11292
0.045368999 -0.0096516004 0.093029998
-0.024359999 -0.017781001 0.070886001
-0.046935 0.011976 0.090801001
-0.019145999 -0.003757 0.077568002
0.057790998 -0.039763998 0.072843
-0.043807 -0.0078803999 0.085366003
0.053456001 -0.020011 0.077234998
0.020051001 0.011574 0.079760998
-0.062964998 0.031189 0.10835
-0.068416998 0.019885 0.11051
0.069441997 -0.0087412996 0.090916
-0.031633999 0.035050999 0.11566
-0.043423001 0.0050368002 0.090804003
0.052595999 -0.027621999 0.072630003
0.075227998 -0.020326 0.086116001
-0.0019044999 -0.016590999 0.070753999
-0.047169 0.034621999 0.10738
-0.064537004 0.013351 0.10678
-0.064093001 0.012294 0.10722
0.10161 0.018123999 0.083554
0.0039185002 -0.00069145003 0.068521
-0.026536999 -0.026156999 0.079397999
-0.053808 -0.030955 0.065306999
0.0095488997 -0.014499 0.075764999
0.055399999 -0.00085299002 0.10444
0.064181998 -0.010221 0.094740003
0.062953003 -0.010537 0.094288997
-0.066973999 0.0083609996 0.11143
-0.067169003 0.0093093999 0.11204
-0.067008004 0.0093189999 0.11186
-0.027339 -0.011373 0.071425997
-0.040674999 0.0039630001 0.088569999
-0.038167 0.033498 0.080100998
-0.049424 0.032625999 0.1046
0.053511001 -0.031200999 0.069174998
0.047398001 -0.040171001 0.12769
0.063121997 -0.010129 0.095847003
0.063127004 -0.0096150003 0.096404001
0.056988001 -0.039870001 0.070225
0.079384997 0.00187 0.088179998
-0.028597999 -0.023588 0.052987002
0.10269 0.040295001 0.082351997
0.025562 -0.036864001 0.062582999
0.078838997 -0.023026001 0.096060999
-0.054205999 -0.029859001 0.070822999
-0.033349998 0.038936 0.11404
0.033907998 0.010553 0.089036003
-0.032134999 -0.011761 0.060835999
-0.030174 -0.011986 0.054572999
-0.013383 0.0031067999 0.080583997
-0.070496 -0.0054684998 0.11634
-0.070763998 -0.0056568002 0.11697
0.044658002 -0.018025 0.094406001
0.044038001 -0.018000999 0.094685003
-0.027875001 0.0045238002 0.086351998
-0.047685999 0.042413998 0.11925
