# .PCD v0.7 - Point Cloud Data file format
VERSION 0.7
FIELDS x y z
SIZE 4 4 4
TYPE F F F
COUNT 1 1 1
WIDTH 1533
HEIGHT 1
VIEWPOINT 0 0 0 1 0 0 0
POINTS 1533
DATA ascii
0.096049003 0.053365 0.28290001
0.095490001 0.053854 0.28310999
0.090651996 0.053475998 0.28604999
0.084886 0.053709 0.28883001
0.086076997 0.053412002 0.28803
0.093204997 0.054591998 0.28472999
0.093719997 0.053700998 0.28382999
0.089423001 0.054033 0.28545001
0.089275002 0.054423999 0.28604001
0.089161001 0.054625001 0.28670999
0.086617 0.054481 0.28702
0.082805999 0.054177999 0.28904
0.082269996 0.054563999 0.28911999
0.081132002 0.053989999 0.28977001
0.081727996 0.054125 0.28952
0.079039998 0.054308999 0.29183
0.093225002 0.054648001 0.28448001
0.079939 0.054301001 0.29006001
0.079145998 0.054182 0.29159001
0.093735002 0.054691002 0.28310001
0.093333997 0.054708 0.28406999
0.088597 0.054442 0.28667
0.087269999 0.055342 0.28731
0.086551003 0.054678001 0.28828999
0.086894996 0.055202 0.28663999
0.086678997 0.054855999 0.28735
0.13744999 0.058047999 0.26113001
0.13680001 0.057952002 0.26190001
0.14227 0.066817001 0.25940001
0.14242999 0.067332 0.25918999
0.14236 0.068048999 0.25883001
0.14184999 0.069339998 0.25955001
0.14135 0.069522001 0.25891
0.14026 0.069532 0.26041001
0.14018001 0.070215002 0.26073
0.13985001 0.071165003 0.26014
0.13928001 0.071647003 0.26045001
0.13919 0.071250997 0.26073
0.13789999 0.072476 0.26089999
0.13778999 0.073615998 0.26133001
0.13619 0.074284002 0.26233
0.1365 0.073829003 0.26109999
0.13586 0.075620003 0.26201999
0.13575999 0.074336 0.26190001
0.13533001 0.075606003 0.26266
0.13589001 0.076417997 0.26253
0.1347 0.076668002 0.26295999
0.13766 0.078557998 0.26168999
0.13661 0.078671001 0.26205
0.13600001 0.078731 0.26212999
0.13714001 0.078675002 0.26133999
0.14252999 0.078546003 0.259
0.13884 0.078285001 0.26016
0.13797 0.079264 0.26080999
0.14499 0.080228999 0.25784999
0.14481001 0.079911999 0.25751999
0.14433999 0.079324 0.25828999
0.14571001 0.080513 0.25736001
0.14517 0.080608003 0.25696999
0.14544 0.081023999 0.2568
0.14588 0.082125999 0.25648001
0.14564 0.081808999 0.25669
0.14561 0.084375001 0.25731
0.14533 0.082762003 0.25685999
0.14487 0.084756002 0.25740999
0.14500999 0.084668003 0.25830001
0.14493001 0.085377 0.25797999
0.14447001 0.086568996 0.25769001
0.1443 0.087146997 0.25832999
0.14444999 0.087954 0.25751999
0.14495 0.088460997 0.25810999
0.14754 0.087838002 0.25634
0.14399999 0.088646002 0.25762999
0.14561 0.088131003 0.25659999
0.14723 0.088432997 0.25622001
0.14616001 0.088776 0.25727001
0.14534999 0.088843003 0.25810999
0.14489 0.089206003 0.25713
0.10178 0.0042420002 0.27936
0.098768003 0.010043 0.28049001
0.098263003 0.01165 0.28171
0.097994998 0.012432 0.28206
0.1347 0.024863999 0.26341
0.13454001 0.025318 0.26277
0.13503 0.023252999 0.26308
0.1344 0.027496999 0.26306
0.13403 0.028399 0.26245999
0.13423 0.033261999 0.26293001
0.134 0.033592999 0.26260999
0.13231 0.037096001 0.26363999
0.12247 0.037487999 0.26912001
0.12193 0.037861999 0.26945999
0.12171 0.038348 0.26941001
0.063428998 0.041931 0.29980001
0.11573 0.043063 0.27283999
0.11509 0.043359999 0.27314001
0.064244002 0.045378 0.29881999
0.11355 0.044845998 0.27243
0.063580997 0.045355 0.29897001
0.064845003 0.044953 0.29855001
0.11174 0.047414001 0.27390999
0.11125 0.045972999 0.27410001
0.13425 0.049316999 0.26289001
0.13414 0.048558999 0.26251
0.10373 0.049435999 0.27814001
0.10522 0.049178999 0.27783999
0.069013 0.049419999 0.29528999
0.10375 0.049610998 0.27858999
0.10305 0.049284998 0.27843001
0.10523 0.049895 0.27739
0.10224 0.051341999 0.27847001
0.099198997 0.051483002 0.28031
0.097709 0.051306002 0.28116
0.10235 0.052304 0.27948001
0.096548997 0.051589999 0.2816
0.093624003 0.052703999 0.28345999
0.092960998 0.051477 0.28426999
0.077223003 0.051819 0.29172999
0.075372003 0.052305002 0.29267001
0.075011998 0.052276 0.29247999
0.099797003 0.052962001 0.28044999
0.091720998 0.051881999 0.28490001
0.090503 0.052871998 0.28428999
0.1011 0.052923001 0.27979001
0.085959002 0.053442001 0.28795999
0.085758999 0.052586 0.28733
0.086062998 0.053194001 0.28736001
0.084755003 0.052873001 0.28830001
0.083536997 0.053157002 0.28867
0.095209002 0.054079998 0.28288999
0.094393 0.053874001 0.28349
0.079363003 0.054187 0.29067999
0.14139999 0.067295 0.25909001
0.13839 0.071730003 0.26155001
0.13642 0.076536 0.26166001
0.13595 0.077137999 0.26139
0.13600001 0.077317998 0.26205999
0.1382 0.078411996 0.26067001
0.1451 0.088055998 0.25722
0.055346001 -0.050700001 0.30346
0.05632 -0.048735 0.30239999
0.056276999 -0.046395998 0.30215001
0.056694999 -0.045557 0.30246001
0.056037001 -0.045497999 0.30131
0.057700999 -0.044135999 0.30157
0.058212999 -0.043042999 0.30136001
0.059154999 -0.042171001 0.30107
0.057928 -0.042302001 0.30125001
0.059677999 -0.041150998 0.30039999
0.10461 -0.0032146999 0.27789
0.10014 0.0075543998 0.27924001
0.098201998 0.010249 0.28071001
0.13525 0.024364 0.26159
0.13409001 0.025395 0.26203999
0.13426 0.025178 0.26328
0.13474 0.02641 0.26201001
0.13454001 0.029266 0.26172
0.13468 0.029634001 0.26241001
0.13412 0.030989001 0.26266
0.13327999 0.034616001 0.26265001
0.13327 0.034531999 0.26271001
0.13313 0.035500001 0.26328
0.12361 0.036612999 0.26842999
0.12292 0.037204001 0.26872
0.13276 0.038274001 0.26368001
0.13333 0.039034002 0.26269999
0.060226999 0.039891001 0.30076
0.060120001 0.040031999 0.30045
0.060313001 0.040647 0.30006
0.060175002 0.040238999 0.29940999
0.061046001 0.041393999 0.29911
0.061342001 0.041411001 0.30035001
0.061191 0.041939002 0.29945001
0.11802 0.042355001 0.27111
0.061907001 0.042672001 0.29927
0.11714 0.042583 0.27105001
0.11673 0.041715 0.27059001
0.11567 0.042523999 0.27213001
0.11595 0.042158 0.27237001
0.11506 0.042851001 0.27272999
0.062449999 0.043598 0.29929999
0.11421 0.043354001 0.27254999
0.11449 0.043906 0.27199
0.13328999 0.044330001 0.26212999
0.1135 0.044011001 0.27276
0.13375001 0.044977002 0.26233
0.063766003 0.045341 0.29764
0.1108 0.046048 0.27452999
0.13309 0.046576999 0.26306
0.11132 0.047153 0.27377
0.13384999 0.047224 0.26244
0.13373999 0.048036002 0.26177999
0.10582 0.049159002 0.27764001
0.10474 0.048854001 0.27767
0.10493 0.048553001 0.27794999
0.10355 0.049068999 0.27770001
0.10343 0.048198 0.27737999
0.1061 0.049338002 0.2775
0.10539 0.049773999 0.27700999
0.070142999 0.050220001 0.29434001
0.071800001 0.050152 0.29347
0.071581997 0.049626999 0.29385999
0.098706 0.050230999 0.28064999
0.098677002 0.050519999 0.28141999
0.097981997 0.049732 0.28022
0.072897002 0.050988 0.29468
0.10262 0.050896 0.27858999
0.10163 0.051649999 0.27925
0.10005 0.051442999 0.28042001
0.0999 0.051316001 0.28049999
0.096596003 0.051805999 0.28169999
0.092854001 0.051433001 0.28345001
0.092352003 0.052014001 0.28433999
0.091654003 0.050894 0.28321999
0.1006 0.052579001 0.27947
0.096532002 0.052232999 0.28253999
0.095716 0.050345 0.28112999
0.093659997 0.051612999 0.28393999
0.085849002 0.052715998 0.28757
0.086033002 0.051934998 0.28727999
0.078994997 0.051895998 0.29065001
0.077803999 0.051421002 0.29161
0.078658998 0.053258002 0.29018
0.076474003 0.051984001 0.29280001
0.075737998 0.051615 0.29139
0.073792003 0.052719001 0.29385999
0.095916003 0.052085999 0.28228
0.095031999 0.053560998 0.28281999
0.085116997 0.052196 0.28727001
0.094126001 0.053146999 0.28275999
0.084431998 0.052203 0.2872
0.084307998 0.052988 0.28780001
0.089400001 0.052808002 0.28523001
0.087525003 0.053833 0.28715
0.088955998 0.053663 0.28470999
0.089524001 0.053300999 0.28558001
0.087683 0.053362999 0.28626999
0.086832002 0.053173002 0.28584999
0.087447003 0.053640999 0.28659001
0.079315998 0.053422 0.29084
0.13691001 0.060382001 0.26078001
0.14129999 0.066205002 0.25847
0.14036 0.070482001 0.25891
0.1398 0.070051 0.26003
0.13911 0.071865998 0.25942999
0.13846999 0.071998999 0.25993001
0.13744999 0.073036 0.26089001
0.13817 0.073646002 0.25993001
0.13607 0.074152999 0.26146999
0.1373 0.075533003 0.26146001
0.13648 0.075409003 0.26115
0.13738 0.077214003 0.26155001
0.13790999 0.077495001 0.26054999
0.13714001 0.077113003 0.26056001
0.13965 0.078418002 0.25933999
0.14001 0.078117996 0.25955001
0.13846999 0.079153001 0.26030001
0.14482 0.080614001 0.25622001
0.14373 0.079406999 0.25672001
0.14472 0.085683003 0.25734001
0.14503001 0.086667001 0.25738001
0.14738999 0.086736001 0.25545001
0.14796001 0.086514004 0.2543
0.14584 0.088102996 0.25687
0.1471 0.087448999 0.25569999
0.056136999 -0.04527 0.30142999
0.057117999 -0.043736 0.30142
0.057652 -0.043501999 0.30142
0.057319999 -0.043384999 0.30114999
0.058169 -0.042319998 0.30087
0.059153002 -0.042413 0.30037999
0.059114002 -0.041157 0.29955
0.059478998 -0.040812999 0.30012
0.059891 -0.040203001 0.29940999
0.060265999 -0.040022001 0.29977
0.10368 -0.00017860001 0.27809
0.10334 0.00046295 0.27807999
0.10271 0.0011615 0.27772
0.10264 0.0020804 0.27807999
0.10275 0.0023377 0.27821001
0.10219 0.0032138999 0.27818999
0.10196 0.0037086001 0.27827999
0.10122 0.0040519 0.27877
0.10102 0.0049612001 0.27845001
0.10174 0.0063247001 0.27873001
0.10086 0.0063275001 0.27897999
0.10031 0.0067635002 0.27950001
0.098889001 0.0081366003 0.27937999
0.099591002 0.0087300995 0.28016999
0.099633999 0.0091832001 0.27989
0.09883 0.0099465996 0.28027001
0.097253002 0.01186 0.28072
0.096579999 0.01154 0.28095001
0.097167 0.012479 0.28195
0.09747 0.012483 0.28119999
0.14159 0.014744 0.25894001
0.1428 0.0126 0.25760001
0.14219999 0.013598 0.25861001
0.1418 0.013073 0.25802001
0.14155 0.013054 0.25850001
0.13556001 0.023251999 0.26111999
0.13541999 0.023073001 0.26109999
0.13575 0.022211 0.26208001
0.13528 0.024784001 0.26139
0.13503 0.025924999 0.26205999
0.13507 0.025866 0.26155001
0.13496 0.026787 0.26159
0.1345 0.028328 0.26166001
0.13441999 0.030037001 0.26161999
0.13466001 0.031390999 0.26172
0.13402 0.033624999 0.26232001
0.13447 0.032219999 0.26188001
0.13397001 0.034251999 0.26214999
0.12264 0.036493 0.26824999
0.12226 0.036191002 0.26798999
0.13314 0.036710002 0.26313001
0.13323 0.037029002 0.26258001
0.12233 0.036981001 0.26807001
0.12132 0.037246 0.26914999
0.059723001 0.040003002 0.29962
0.059069 0.039271999 0.29999
0.13324 0.040045999 0.26234999
0.11895 0.040339999 0.27035999
0.11853 0.040397 0.26947001
0.1185 0.041540001 0.27024001
0.11736 0.041216001 0.27056
0.1171 0.041299999 0.26988
0.11782 0.041085001 0.27061
0.061657999 0.041905001 0.29894999
0.11553 0.041843999 0.27096999
0.11679 0.042610001 0.27136999
0.062876001 0.042950001 0.29865
0.062093999 0.044071 0.29910001
0.11317 0.04527 0.27283001
0.062872998 0.044936001 0.29813999
0.11321 0.045395002 0.27276999
0.063596003 0.045678001 0.29800999
0.13299 0.046130002 0.26219001
0.11269 0.045642 0.27294999
0.065780997 0.046 0.29824001
0.064691 0.046151999 0.29743001
0.11333 0.04603 0.27382001
0.11092 0.045224998 0.27375001
0.10942 0.045460001 0.27535
0.10977 0.045626 0.27449
0.10912 0.046549998 0.27476001
0.065793999 0.045490999 0.2965
0.066257998 0.046682999 0.29723999
0.067089997 0.046427999 0.29657999
0.10853 0.046487 0.27443001
0.066915996 0.047768999 0.29721999
0.13399 0.047942001 0.26192999
0.10817 0.04851 0.27476999
0.10837 0.048672002 0.27605
0.10917 0.047827002 0.27531001
0.10826 0.047304999 0.27524
0.066894002 0.048533 0.29699999
0.10819 0.048595 0.27544001
0.10566 0.047878001 0.27761
0.10266 0.049449001 0.27801999
0.13466001 0.049033001 0.26131999
0.10809 0.049709 0.2757
0.10837 0.049518999 0.27592
0.10603 0.049194001 0.27636001
0.067863002 0.049102999 0.29668999
0.10697 0.048840001 0.27616999
0.10221 0.049667999 0.27829
0.067547001 0.049206998 0.29620999
0.13492 0.050434001 0.26122999
0.10683 0.048257001 0.27608001
0.10695 0.050694998 0.27652001
0.068172 0.049423002 0.29497999
0.10603 0.050158001 0.27636999
0.10211 0.049702 0.27860999
0.070456997 0.049631 0.29466999
0.070332997 0.049750999 0.29416999
0.069204003 0.049802002 0.29591
0.098803997 0.050046001 0.28033
0.073044002 0.049090002 0.29350999
0.099680997 0.050675999 0.27987999
0.10028 0.050053 0.27934
0.096964002 0.050861001 0.28055999
0.097058997 0.050884001 0.28094
0.072901003 0.050739001 0.29378
0.072284997 0.050562002 0.29346001
0.10134 0.049745999 0.27866
0.10038 0.051452 0.27939001
0.10081 0.050524 0.27963001
0.10072 0.049674001 0.27902001
0.096408002 0.050650999 0.28097001
0.092758998 0.050822001 0.28373
0.093441002 0.050997999 0.28336
0.093782999 0.052087002 0.28284001
0.093294002 0.052216999 0.28273001
0.089881003 0.051169999 0.28415
0.077875003 0.051442999 0.29080999
0.078667998 0.051633999 0.29019001
0.077372 0.051543999 0.29076999
0.073381998 0.05178 0.29398999
0.073127002 0.051470999 0.29297
0.073082998 0.051180001 0.29300001
0.090809003 0.051527999 0.28477001
0.090567999 0.051364999 0.28505
0.086157002 0.051167 0.28691
0.080080003 0.052266002 0.28970999
0.077956997 0.050641999 0.29030001
0.075997002 0.052553002 0.29229999
0.094566002 0.051631998 0.28178
0.094590001 0.052405 0.28308001
0.094204001 0.052476 0.28259
0.089523003 0.052041002 0.28549999
0.086622 0.052164 0.28602001
0.079723001 0.053256001 0.28949001
0.077017002 0.051435001 0.29104999
0.076707996 0.050643001 0.29126999
0.073762 0.051952999 0.2931
0.086479999 0.052494001 0.28650999
0.087591 0.053249002 0.28555
0.088082001 0.052793998 0.28521001
0.086727001 0.05384 0.28639999
0.082544997 0.052882999 0.28827
0.079563998 0.053573001 0.28973001
0.082629003 0.053537998 0.28922001
0.080903001 0.054014001 0.28900999
0.080886997 0.053931002 0.28948
0.13725001 0.059553001 0.26012
0.14094 0.065343 0.25937
0.14099 0.065283999 0.25832
0.14196999 0.067065999 0.25746
0.14239 0.068388 0.25771999
0.1418 0.067915998 0.25827
0.14193 0.069656998 0.25786
0.14153001 0.069006003 0.25757
0.14031 0.070349999 0.25909001
0.14038999 0.070817001 0.25881001
0.1391 0.072212003 0.25870001
0.13850001 0.072995 0.25986999
0.13762 0.074775003 0.26091
0.13699 0.07418 0.26054001
0.13631 0.075415 0.26085001
0.13693 0.076039001 0.26104
0.13884 0.077761002 0.26028001
0.13876 0.078262001 0.25924999
0.14041001 0.078544997 0.25863001
0.14018001 0.077884004 0.25889999
0.14302 0.078684002 0.25751001
0.14212 0.078982003 0.25808999
0.14198001 0.078293003 0.25817999
0.14386 0.079435997 0.25652
0.15191001 0.080075003 0.25318
0.15185 0.081277996 0.25294
0.15189999 0.080721997 0.25411001
0.14518 0.080978997 0.25650001
0.14541 0.081853002 0.25676
0.14456999 0.081765004 0.25602999
0.14504001 0.082699999 0.25626999
0.14534999 0.083400004 0.25670001
0.14493001 0.083664 0.25658
0.14461 0.085101999 0.25639001
0.1454 0.086319 0.25637999
0.14888 0.086420998 0.25578001
0.14733 0.086724997 0.25450999
0.14638001 0.087508 0.2554
0.14545 0.086516 0.25573
0.14538001 0.086630002 0.25608
0.14538001 0.087099001 0.25606
0.055255 -0.048030999 0.30291
0.055670001 -0.047736 0.30149999
0.054632999 -0.047157999 0.30241999
0.056026999 -0.045313999 0.30197001
0.057402 -0.043175999 0.30147001
0.058533002 -0.041724 0.30069
0.061253998 -0.038805999 0.29956001
0.060871001 -0.038745001 0.29953
0.060550001 -0.037737001 0.29923001
0.1035 -5.2183001e-05 0.27713999
0.097645 0.011038 0.28058001
0.096653 0.012297 0.28007999
0.096624002 0.013518 0.28123
0.096513003 0.013128 0.28042001
0.053045999 0.020902 0.30283999
0.053777002 0.021731 0.30246001
0.053762998 0.021026 0.30307001
0.13483 0.026515 0.26115999
0.13479 0.027662 0.26086
0.13486999 0.027778 0.26192999
0.1347 0.028841 0.26135999
0.13496999 0.029309999 0.26097
0.13298 0.032855999 0.26137999
0.133 0.035638001 0.26264
0.13349999 0.035921 0.2622
0.12353 0.035845999 0.26756999
0.1329 0.03751 0.26188001
0.13367 0.038137 0.26244
0.11836 0.040146001 0.27090001
0.11848 0.039579999 0.26938999
0.11623 0.041051999 0.27045
0.1134 0.043398999 0.27181
0.11248 0.04459 0.27169999
0.11156 0.045003999 0.27307999
0.11152 0.044599999 0.27381
0.11142 0.044858001 0.27287
0.067331001 0.047892999 0.29589999
0.10777 0.047876 0.27553001
0.10446 0.047587998 0.27715999
0.10544 0.047481999 0.27596
0.067326002 0.048865002 0.29539999
0.1072 0.049089 0.27529001
0.10607 0.048216999 0.27625
0.10274 0.047924999 0.27796999
0.072382003 0.048884001 0.29308999
0.071567997 0.049291998 0.29370999
0.069367997 0.049543999 0.29459
0.096175998 0.050257999 0.28104001
0.079265997 0.051397 0.28990999
0.080132999 0.051876999 0.28905001
0.094446003 0.051189002 0.28143999
0.094089001 0.050572999 0.28216001
0.089556001 0.051555 0.28406999
0.085988 0.051367 0.28602001
0.08602 0.051371001 0.287
0.084345996 0.050776999 0.28665999
0.083425999 0.051718 0.2879
0.079025 0.050691001 0.29080999
0.088706002 0.051881 0.28485999
0.076232001 0.051102001 0.29087999
0.086969003 0.052154001 0.28565001
0.079968996 0.053351 0.28859001
0.074395999 0.052384 0.29194999
0.088109002 0.052005 0.28514999
0.082221001 0.052937999 0.28793001
0.081485003 0.052946001 0.28904
0.14108001 0.066215999 0.25828001
0.14079 0.066667996 0.25725001
0.14185999 0.067794003 0.25713
0.1392 0.073110998 0.25909001
0.13856 0.073872 0.25946999
0.13719 0.075947002 0.25977001
0.13856 0.075972997 0.26003999
0.13748001 0.075668 0.25973001
0.13755 0.075487003 0.25909001
0.13888 0.077068001 0.25944
0.14117 0.078171998 0.25812
0.1454 0.080663003 0.25626999
0.14484 0.083645001 0.25591999
0.14519 0.085888997 0.25565001
0.14898001 0.085247003 0.25443
0.14792 0.08585 0.25455001
0.14675 0.086274996 0.25521001
0.054772999 -0.048873 0.30228001
0.054664999 -0.046822999 0.30160999
0.054931 -0.04659 0.30120999
0.055298001 -0.046243999 0.30144
0.056694001 -0.044163 0.30171001
0.055911999 -0.044000998 0.30136999
0.058177002 -0.042305999 0.30041999
0.059234001 -0.040056001 0.29991001
0.10142 0.0047205002 0.27862
0.10033 0.0067870002 0.27829999
0.10038 0.0059834002 0.27794999
0.10013 0.0076465998 0.27957001
0.099643998 0.0077912002 0.27864999
0.14210001 0.0095193004 0.25735
0.14225 0.010208 0.25759
0.14176001 0.011298 0.25782999
0.097875997 0.010448 0.28001001
0.097034998 0.011342 0.27959999
0.049091998 0.01068 0.30524999
0.049036998 0.011739 0.30486
0.048799999 0.012312 0.30520001
0.14179 0.012141 0.25835001
0.14036 0.012824 0.25832
0.14083999 0.012699 0.25722
0.13966 0.012676 0.25825
0.13955 0.01399 0.25872999
0.096014 0.013865 0.28047001
0.13572 0.022714 0.25984001
0.13551 0.022069 0.26100999
0.13541 0.023490001 0.26034001
0.13549 0.025715999 0.26075
0.13536 0.024972999 0.26102
0.13423 0.030214 0.26064
0.13422 0.031505998 0.26087999
0.13286 0.033248998 0.25946
0.13391 0.031872999 0.26005
0.13362999 0.032820001 0.2615
0.12231 0.036059 0.26725999
0.13241 0.041237999 0.26198
0.059469 0.039367002 0.30039001
0.13211 0.039577 0.26183999
0.11787 0.040240999 0.27031001
0.11693 0.040709998 0.27059001
0.060249001 0.041738 0.2987
0.061737001 0.041917 0.29756999
0.061413001 0.041774001 0.29892999
0.06151 0.042773001 0.29811999
0.062405001 0.043076999 0.29807001
0.062162001 0.043754999 0.29798001
0.11226 0.044594001 0.27278
0.11153 0.044617999 0.27287999
0.063371003 0.044709001 0.29793
0.062932 0.044475999 0.29718
0.063056998 0.045394 0.29764
0.1088 0.045605 0.27428001
0.065820001 0.045855001 0.29661
0.13353001 0.045995001 0.26126999
0.13361 0.047029998 0.26111001
0.068378001 0.046808999 0.29495999
0.067121997 0.045653 0.29534
0.067530997 0.046468001 0.29620001
0.067815997 0.046966001 0.2956
0.13354 0.047242001 0.26137
0.10748 0.047037002 0.27430999
0.10642 0.047924001 0.27577999
0.10589 0.04693 0.27546999
0.068163998 0.048480999 0.29526001
0.1058 0.047421999 0.27575999
0.067863002 0.048175 0.29543999
0.10264 0.04792 0.27835
0.073829003 0.049445 0.29196
0.073991999 0.048159 0.29201001
0.073977001 0.049102999 0.2924
0.070678003 0.049013998 0.29387999
0.10167 0.049474999 0.27818
0.1004 0.049476001 0.27875
0.099487998 0.050159998 0.27851999
0.098810002 0.049279999 0.27926999
0.073898003 0.049851 0.29256001
0.073390998 0.049141001 0.29286
0.069724999 0.049467001 0.2949
0.097269997 0.049865 0.28003001
0.095945999 0.050313 0.28018999
0.074047998 0.051320001 0.29238001
0.095592 0.050299 0.28099999
0.092114002 0.051038999 0.28299999
0.092563003 0.050409999 0.28252
0.092036001 0.050147999 0.28248999
0.079158001 0.050434001 0.28906
0.080516003 0.051298998 0.28874001
0.080265999 0.050962001 0.28881001
0.079627998 0.050035998 0.28881001
0.078327999 0.051300999 0.28992999
0.077127002 0.050282001 0.28920001
0.091040999 0.050106999 0.28259999
0.085143998 0.050356999 0.28633001
0.076981999 0.050097 0.28979999
0.076856002 0.050650001 0.29056999
0.089137003 0.051713001 0.28455001
0.088904001 0.050696 0.28415999
0.087053999 0.050473001 0.28468001
0.084028997 0.050755002 0.28692001
0.083214 0.052143998 0.28733
0.080591001 0.051107001 0.28893
0.083028004 0.050763 0.28619
0.082590997 0.051169999 0.28762001
0.081514001 0.052071001 0.28816
0.08179 0.051824 0.28854001
0.082427002 0.051777001 0.28738999
0.08134 0.052395001 0.28894001
0.14229999 0.069300003 0.25705001
0.14044 0.071051002 0.25863999
0.13997 0.072263002 0.25843
0.13823999 0.073582001 0.25841999
0.13842 0.072876997 0.25907001
0.1392 0.073298998 0.25891
0.13856 0.074772999 0.25937
0.1388 0.075176001 0.25904
0.13829 0.076219 0.25935
0.13834 0.076985002 0.25867999
0.13867 0.077532001 0.25907999
0.13962001 0.077711001 0.25926
0.14126 0.077271 0.25768
0.14008 0.077137001 0.2577
0.14188001 0.078008004 0.25769001
0.14538001 0.082356997 0.25562999
0.14551 0.082638003 0.25503001
0.14905 0.083641998 0.25314
0.15008999 0.084091999 0.25354999
0.15121 0.082937002 0.25362
0.14455999 0.083554 0.25577
0.14521 0.083976999 0.25558001
0.14861999 0.084802002 0.25374001
0.14843 0.085602999 0.25385001
0.14549001 0.084813997 0.25571999
0.14607 0.085825004 0.25599
0.1473 0.085654996 0.25455001
0.14585 0.085404001 0.25455999
0.14654 0.085478 0.25408
0.055955 -0.045391999 0.30120999
0.054577999 -0.045288 0.30169001
0.055527002 -0.044891998 0.30156001
0.056281 -0.043319002 0.30083001
0.056924999 -0.043078002 0.30055001
0.057638001 -0.042548001 0.30026001
0.056970999 -0.043065 0.30081001
0.057913002 -0.042181998 0.30048999
0.057656001 -0.041471999 0.29975
0.058382999 -0.040681999 0.29932001
0.058350999 -0.040240001 0.29993999
0.059181999 -0.040155999 0.29947999
0.059905 -0.038835 0.29888001
0.059165001 -0.039565999 0.2987
0.10159 0.0027771001 0.27682
0.10218 0.0024267 0.27687001
0.10174 0.0047422 0.27816999
0.10193 0.0040434999 0.27792999
0.10111 0.0051011001 0.27753001
0.10094 0.0056767999 0.27783999
0.10007 0.0072984002 0.27792001
0.099200003 0.0080773002 0.27875999
0.098011002 0.010015 0.27921
0.098895997 0.0093635004 0.2782
0.098342001 0.0099788997 0.2793
0.14179 0.0094542 0.257
0.14131001 0.010961 0.25766
0.14129999 0.010326 0.25702
0.1408 0.011771 0.25736001
0.13975 0.013161 0.25830999
0.04566 0.015149 0.30625999
0.046436001 0.014714 0.30700001
0.045271002 0.014475 0.30651999
0.13711999 0.017573001 0.25902
0.13689999 0.017410999 0.26034999
0.13649 0.018321 0.25990999
0.13693 0.018378999 0.25914001
0.13636 0.019227 0.26143
0.13677 0.020513 0.25985
0.13679001 0.018704999 0.25993001
0.13648 0.02018 0.25997001
0.13631999 0.020052001 0.26113999
0.13510001 0.021183001 0.26097
0.13598 0.021275001 0.26073
0.13524 0.022093 0.26023999
0.13632999 0.022078 0.25966999
0.13551 0.021833999 0.26076999
0.052051 0.023409 0.30392
0.051520001 0.022026001 0.30410999
0.051757999 0.022635 0.30311
0.1354 0.025198 0.25964999
0.13600001 0.025657 0.26014
0.13548 0.026125001 0.26007
0.13512 0.027327999 0.26003999
0.1354 0.027550001 0.26036
0.13536 0.029292 0.26017001
0.13502 0.028956 0.26019999
0.13448 0.030237 0.26102
0.13379 0.032349002 0.26183999
0.13345 0.034766 0.26109001
0.13273001 0.037083998 0.26052001
0.13341001 0.036486 0.26183
0.13327 0.037857 0.26129001
0.058846999 0.037911002 0.29901001
0.058552001 0.039003 0.30002999
0.059282001 0.039588001 0.29914001
0.13287 0.038394 0.26109999
0.058729 0.040116999 0.29929
0.05923 0.040401001 0.29879999
0.059902001 0.040778 0.29872
0.061310001 0.041021999 0.29806
0.060927998 0.040970001 0.29802001
0.062316 0.043708 0.29732999
0.11321 0.042468 0.27182001
0.11157 0.043722998 0.27195999
0.063193999 0.044064999 0.29785001
0.062606998 0.044109002 0.29719001
0.064910002 0.045161001 0.29626
0.063766003 0.045527998 0.29633
0.064153999 0.045343999 0.29727
0.065425999 0.04549 0.29716
0.065718003 0.045472 0.29595
0.066941001 0.045919001 0.29578999
0.068031996 0.045453001 0.29426
0.10672 0.046546999 0.27509999
0.10793 0.046514001 0.27394
0.13383 0.047784999 0.26063001
0.10554 0.046406999 0.27467
0.067551002 0.047759999 0.29505
0.068565004 0.046174001 0.29409
0.068361998 0.047800999 0.29492
0.10497 0.047672998 0.27590001
0.13399 0.047642 0.26122001
0.13387001 0.049417 0.26038
0.10086 0.048749998 0.27744001
0.10069 0.049454998 0.27744001
0.074380003 0.049513001 0.29135001
0.073596999 0.048610002 0.29189
0.073022999 0.048335999 0.29236001
0.071562998 0.048728 0.29264
0.070552997 0.048158001 0.29306
0.069527999 0.048126999 0.29401001
0.068671003 0.048932001 0.29482001
0.069220997 0.048330002 0.29438999
0.068217002 0.049082 0.29572001
0.099276997 0.049631 0.27834001
0.069669999 0.049663 0.29416001
0.099169001 0.048920002 0.27932
0.099007003 0.048767999 0.2793
0.097650997 0.049508002 0.27974999
0.097083002 0.049984999 0.27965
0.074919999 0.049442999 0.29196
0.073856004 0.050202999 0.29238999
0.073903002 0.051421002 0.29221001
0.095007002 0.049926002 0.28057
0.079108 0.050012998 0.28992
0.095311001 0.050783001 0.28099999
0.094329 0.050517999 0.28138
0.094361 0.050618 0.28172001
0.093666002 0.050747 0.28198001
0.092979997 0.049977999 0.28143999
0.092912003 0.050081 0.28178999
0.085781001 0.050524998 0.28551999
0.074289002 0.051185001 0.29201999
0.090103 0.050856002 0.28307
0.090200998 0.050523002 0.28301001
0.089902997 0.050624002 0.28432
0.086856 0.050411999 0.28529999
0.083691999 0.050505001 0.28657001
0.080283999 0.051490001 0.28830999
0.088292003 0.050981998 0.28444999
0.081326 0.051187001 0.28780001
0.080916002 0.052065 0.28926
0.075383998 0.050703999 0.29183
0.1424 0.067437001 0.25712001
0.14238 0.068605997 0.25648001
0.14202 0.068295002 0.25584999
0.14114 0.066710003 0.25615999
0.1425 0.069150999 0.25711
0.14173999 0.070290998 0.25659999
0.14128 0.070367999 0.25709999
0.14043 0.070198998 0.25749999
0.14029001 0.071338996 0.25792
0.14001 0.071442001 0.25815001
0.14043 0.071791999 0.25773999
0.14038 0.072824001 0.25703001
0.13947 0.072816998 0.25841999
0.13879 0.074933 0.25867999
0.13752 0.074072003 0.25922999
0.13871001 0.075466 0.2588
0.13856 0.077136002 0.25841999
0.1398 0.077363998 0.25838
0.14005999 0.076815002 0.25815001
0.14097001 0.077395998 0.25685999
0.1411 0.078183003 0.25771001
0.14097001 0.078240998 0.25639999
0.14297999 0.079484999 0.25623
0.14366999 0.079359002 0.25650999
0.14382 0.079239003 0.25587001
0.15042999 0.079686001 0.25259
0.14432999 0.079871997 0.25549001
0.14504001 0.080407999 0.25490999
0.14425001 0.080173001 0.25440001
0.14426 0.080683 0.25582999
0.15047 0.080643997 0.25211999
0.1455 0.083742999 0.25543001
0.14793 0.084390998 0.25354001
0.14917 0.084784001 0.25319001
0.14586 0.084936 0.25498
0.14596 0.084197998 0.25446999
0.14776 0.085417002 0.25444999
0.14726999 0.084146999 0.25376001
0.055059001 -0.044532999 0.30140999
0.054873001 -0.044711001 0.30122
0.057126001 -0.041235998 0.29962999
0.099400997 0.0071212002 0.27741
0.14162999 0.0098652001 0.25643
0.098422997 0.0094475001 0.27919
0.095973 0.013006 0.27948001
0.096658997 0.012195 0.27954
0.095553003 0.01421 0.28099
0.094920002 0.01522 0.28047001
0.09505 0.015097 0.28059
0.095133997 0.01494 0.28095001
0.045086998 0.014015 0.30647999
0.13727 0.016728999 0.25940001
0.13681 0.018479999 0.25896001
0.13711999 0.019439001 0.25832999
0.13697 0.019845 0.25898001
0.13716 0.020438001 0.25883001
0.13595 0.021315999 0.25933
0.13666999 0.021624999 0.25874999
0.13561 0.023677001 0.25948
0.13552 0.028228 0.25993001
0.13321 0.034069002 0.26102999
0.13349 0.036036 0.26135999
0.13338999 0.034938999 0.26041001
0.13325 0.033932999 0.26036999
0.13236 0.036291 0.26047
0.13323 0.038901001 0.26122001
0.062826 0.043097001 0.29753
0.063617997 0.042812999 0.29616001
0.063395999 0.041848 0.29569
0.062650003 0.044199001 0.29664001
0.065251 0.044673 0.29524001
0.065281004 0.044955 0.29584
0.063983999 0.045081999 0.29591
0.066744 0.044991001 0.29473001
0.066298001 0.045115001 0.29455999
0.065909997 0.045136999 0.29596001
0.068075001 0.045775998 0.29466999
0.10589 0.047104001 0.27517
0.068515003 0.047541 0.29413
0.073512003 0.047933999 0.29177999
0.073238999 0.047573 0.2906
0.071547002 0.048048999 0.29233
0.072375 0.046884999 0.29135001
0.071107998 0.046498001 0.29166001
0.098894998 0.048565999 0.27739999
0.099753998 0.049214002 0.27809
0.075360999 0.049247 0.29106
0.069355004 0.048528001 0.29368001
0.075000003 0.047805998 0.29014
0.075336002 0.050751001 0.29065999
0.096969001 0.049456 0.28020999
0.077855997 0.049869001 0.28876999
0.080026001 0.049717002 0.28815001
0.080325 0.050218001 0.28716999
0.090369001 0.050496999 0.28323999
0.088039003 0.050771002 0.28299999
0.086356997 0.050763998 0.28501999
0.084752999 0.050273001 0.28593999
0.084769003 0.050921999 0.28475001
0.083189003 0.050889999 0.28639999
0.083788998 0.051144 0.28670001
0.084233001 0.050361998 0.28538001
0.082543999 0.049936 0.28613001
0.081597999 0.050317999 0.28707001
0.080853999 0.050283998 0.28758001
0.081138998 0.050825998 0.28757
0.075758003 0.050733998 0.29099
0.082993001 0.049872 0.28613999
0.14125 0.070767999 0.25672001
0.14030001 0.073480003 0.25737
0.13941 0.074519001 0.25773001
0.13947 0.075882003 0.25804999
0.14192 0.077890001 0.25681999
0.14208999 0.077881999 0.25598001
0.14556 0.082870997 0.25476
0.14506 0.082347997 0.25459999
0.14839999 0.083857998 0.25336999
0.14642 0.084284 0.25378001
0.052436002 -0.052051 0.30237001
0.052513 -0.052655999 0.30250999
0.05288 -0.051242001 0.30250999
0.051686998 -0.050939001 0.30230001
0.051778 -0.050152 0.30237001
0.053924002 -0.047187001 0.30118001
0.053318001 -0.047435999 0.30090001
0.053761002 -0.046509001 0.30065
0.055128001 -0.046255 0.30140001
0.054814 -0.043584999 0.30032
0.054572001 -0.043308001 0.30066001
0.056233998 -0.042222999 0.29947999
0.056520998 -0.041988999 0.29993001
0.057232 -0.040933002 0.29969001
0.057668999 -0.040465999 0.29936999
0.056930002 -0.040162999 0.29905999
0.058414999 -0.038766999 0.29890001
0.057663999 -0.039476998 0.29925999
0.14560001 0.0039377999 0.25393
0.14631 0.0049586999 0.25358999
0.1459 0.0046973 0.25374001
0.14556 0.0060029998 0.25450999
0.14642 0.0057255998 0.25418001
0.14475 0.0059949998 0.25415999
0.14506 0.0068524 0.25448999
0.10043 0.0064817001 0.27719
0.099257998 0.0074784998 0.27774999
0.099769004 0.0092398003 0.27766001
0.14108001 0.0093476996 0.25672999
0.14183 0.0089581003 0.25571001
0.098890997 0.0090436004 0.27818999
0.14115 0.0094040995 0.25604001
0.14042 0.0106 0.25753
0.14025 0.011869 0.25698
0.13989 0.010922 0.25659001
0.098702997 0.010936 0.27796999
0.13931 0.011765 0.25756001
0.097529002 0.011213 0.27827001
0.096350998 0.013021 0.27908
0.097174004 0.013003 0.27833
0.13774 0.012716 0.25788
0.13902999 0.012041 0.25747001
0.044486001 0.014071 0.3055
0.044126 0.01294 0.30469999
0.095338002 0.014105 0.27934
0.095576003 0.014644 0.27972999
0.044465002 0.01433 0.30594999
0.13691001 0.016236 0.25852999
0.13795 0.015532 0.25999999
0.13721 0.01901 0.25871
0.13708 0.019126 0.25757
0.13783 0.019329 0.25863999
0.13643999 0.022118 0.25955999
0.13679001 0.021785 0.25872001
0.13541999 0.022418 0.25964999
0.13651 0.023508999 0.25922999
0.1367 0.023943 0.2586
0.13519 0.024751 0.25948
0.13552 0.025715001 0.25986001
0.13518 0.026854999 0.25986999
0.13494 0.026883001 0.2595
0.13457 0.028357999 0.25983
0.13471 0.02864 0.25887001
0.13425 0.029381 0.25933
0.13479 0.029118 0.25887001
0.13459 0.030071 0.25966001
0.13429999 0.031585999 0.26012
0.13277 0.035292 0.26096001
0.0605 0.038031001 0.29756999
0.059450999 0.037609 0.29753
0.13249999 0.039441001 0.26087999
0.059303999 0.038654 0.29828
0.059749 0.038493998 0.2987
0.059957001 0.039089002 0.29793999
0.059826002 0.039879002 0.29837
0.060247999 0.040606 0.29837999
0.060681999 0.040447999 0.29820001
0.060805 0.040252998 0.29649001
0.060984999 0.040612001 0.29776999
0.062307999 0.040711001 0.29701999
0.062702999 0.041393001 0.29607001
0.061971001 0.041007001 0.29679999
0.061330002 0.041825999 0.29767001
0.063216999 0.042103 0.29706001
0.063178003 0.041715 0.29686001
0.063987002 0.043593999 0.29662001
0.064025998 0.044934001 0.29606
0.066807002 0.044643998 0.29414999
0.067215003 0.044982001 0.29455
0.064433999 0.044883002 0.29585001
0.068305999 0.044895001 0.29308
0.069011003 0.045860998 0.29324001
0.070165999 0.046225999 0.29313001
0.13372 0.046898 0.26025
0.068944 0.046663001 0.29387
0.069151998 0.047750998 0.29359999
0.13395 0.047692001 0.26007
0.069631003 0.047268 0.29357001
0.070542 0.047943 0.29300001
0.074226998 0.047276001 0.2904
0.074320003 0.047575001 0.29034001
0.069741003 0.046774998 0.29280999
0.074513003 0.048181999 0.29141
0.13349999 0.048965 0.26030001
0.13353001 0.049024999 0.26023999
0.10062 0.048014 0.27688
0.075539 0.048448 0.28964999
0.075810999 0.048852 0.29065999
0.097309999 0.049614001 0.27855
0.095794998 0.050167002 0.27846
0.097475 0.049736001 0.27893001
0.078472003 0.048969001 0.28808001
0.078681 0.049463 0.28713
0.078024998 0.049915999 0.28881001
0.076972999 0.048960999 0.28881001
0.076157004 0.048220001 0.28975001
0.076816 0.049424998 0.28983
0.075461 0.049435999 0.29028001
0.094627999 0.050007999 0.2798
0.094002001 0.050567999 0.28018001
0.092932999 0.050067998 0.28084999
0.092299998 0.049662001 0.2807
0.090833999 0.050039999 0.28195
0.090246998 0.050252002 0.28283
0.080877997 0.049963001 0.28667
0.089491002 0.050852999 0.28266999
0.087089002 0.050455 0.28461999
0.14059 0.066510998 0.25639999
0.14218999 0.068718001 0.25571001
0.14246 0.069017999 0.25580999
0.14171 0.070013002 0.25634
0.14147 0.070835002 0.25626001
0.14074001 0.072743997 0.25632
0.14015 0.072755001 0.25670001
0.1401 0.074587002 0.25659999
0.13986 0.073717996 0.25709999
0.13971999 0.074624002 0.25747001
0.13968 0.076366 0.25758001
0.14063001 0.076292999 0.25652
0.14121 0.075825997 0.25692999
0.14156 0.077299997 0.25645
0.14142001 0.077564999 0.25637001
0.14149 0.077785 0.25584
0.14372 0.078529 0.25545999
0.14325 0.079469003 0.25529
0.14374 0.079002 0.25446999
0.14489 0.079798996 0.25542
0.14473 0.080114998 0.25402999
0.14532 0.081178002 0.25470999
0.14956 0.080778003 0.25141999
0.14968 0.08162 0.25183001
0.15014 0.081623003 0.25240001
0.14559001 0.081367001 0.25369999
0.14936 0.08264 0.25222999
0.14602 0.082928002 0.2545
0.14889 0.083191 0.25275001
0.14785001 0.083576001 0.25305
0.14638001 0.083457999 0.25332999
0.14693999 0.083926 0.25358999
0.14731 0.083423004 0.25398999
0.14724 0.084169 0.25347
0.052510001 -0.053098999 0.30219001
0.051104002 -0.051566999 0.30164
0.051300999 -0.050731 0.30160001
0.053950999 -0.045134999 0.30105999
0.054363001 -0.044045001 0.30052999
0.14704999 0.0038963 0.25314
0.14755 0.0035558001 0.25261
0.14752001 0.004861 0.25342
0.1446 0.0047161002 0.25407001
0.14112 0.0084589003 0.25685
0.13755 0.013827 0.25799
0.13801999 0.012703 0.25784999
0.13817 0.013371 0.25808001
0.13777 0.013633 0.25854
0.044183999 0.014553 0.30603001
0.043861002 0.014353 0.30572
0.13722999 0.014886 0.25764
0.1375 0.014691 0.25870001
0.13665999 0.015742 0.25845999
0.093464002 0.016549001 0.28053001
0.093180001 0.016034 0.28029001
0.094008997 0.015930001 0.28053999
0.13733 0.016512999 0.25685999
0.13716 0.019502999 0.25782001
0.13653 0.022799 0.25836
0.13581 0.025518 0.25902
0.13335 0.031509999 0.26001
0.058412001 0.036497001 0.29892001
0.057558 0.036835 0.29923999
0.058859002 0.037002001 0.29877999
0.057739999 0.037067998 0.29876
0.058288999 0.038112 0.29903999
0.060152002 0.039484002 0.29708001
0.062185001 0.039186001 0.29585999
0.062671997 0.041446999 0.29624
0.064352997 0.043072999 0.29576001
0.063873999 0.043813001 0.29545
0.066615999 0.043646 0.29420999
0.064199001 0.044215001 0.29493001
0.068674996 0.044750001 0.29273999
0.069992997 0.046319999 0.29286
0.070343003 0.047251001 0.29212001
0.099590003 0.048567999 0.27678001
0.095242001 0.049819998 0.27956
0.079742 0.049591001 0.28751999
0.094008997 0.049896002 0.27912
0.091031998 0.050776001 0.28136
0.087145001 0.049814001 0.28380999
0.14274 0.069946997 0.25547999
0.14129999 0.070914 0.2561
0.14052001 0.072012 0.25604001
0.14019001 0.073244996 0.25626999
0.14106999 0.074217997 0.2561
0.14046 0.075608999 0.25553
0.14108001 0.075012997 0.25595
0.14172 0.076954 0.25589001
0.141 0.076471001 0.25654
0.14422999 0.078266002 0.25472999
0.14458001 0.079603001 0.25325
0.14546999 0.080495998 0.25457999
0.1454 0.079402 0.25402999
0.14706001 0.083453998 0.25306001
0.14915 0.081804 0.25248
0.14655 0.081514999 0.25408
0.14844 0.082326002 0.25193
0.050519999 -0.050942 0.30206999
0.052053001 -0.050030999 0.30164999
0.051295999 -0.049725 0.30134001
0.053222001 -0.044334002 0.30136001
0.054389 -0.043207999 0.30033001
0.056644 -0.040619999 0.29919001
0.14511999 0.0035323999 0.25350001
0.1441 0.0069050002 0.25433999
0.14377999 0.0062516001 0.25398999
0.14144 0.0086712996 0.25529
0.13987 0.010958 0.25624999
0.13966 0.01115 0.25598001
0.098332003 0.010059 0.27792001
0.097338997 0.011043 0.27818
0.045596 0.011026 0.30508
0.044296 0.011319 0.30570999
0.043846998 0.010005 0.30445001
0.13887 0.011837 0.25685
0.044665001 0.013021 0.30509999
0.04408 0.012052 0.30482
0.045451 0.011962 0.30546999
0.096236996 0.013508 0.27893999
0.09606 0.012792 0.27853999
0.13891 0.013673 0.25623
0.13883001 0.013041 0.25681001
0.13886 0.012745 0.25656
0.13691001 0.015427 0.25725999
0.13804001 0.01555 0.25713
0.094398998 0.016736999 0.27943
0.093842998 0.015854999 0.27925
0.093408003 0.015800999 0.27976
0.13744999 0.019848 0.25714001
0.13609 0.024700001 0.25755
0.13634001 0.024676001 0.25777999
0.13595 0.023662001 0.25748
0.13593 0.024108 0.25865
0.13562 0.026171001 0.25845999
0.058897998 0.03624 0.29787999
0.057856001 0.035549 0.29804999
0.057704002 0.036036 0.29923999
0.059595998 0.036823001 0.29802999
0.060458001 0.037808001 0.29622999
0.060042001 0.036823001 0.29706001
0.058814 0.036506001 0.29775
0.13166 0.039244998 0.25935
0.060074002 0.038904 0.29681
0.061121002 0.039817002 0.29657
0.060683001 0.038864002 0.29697999
0.061181001 0.039032999 0.29655001
0.064749002 0.042275999 0.29552999
0.065665998 0.042943999 0.29446
0.067789003 0.043556001 0.29335001
0.066797003 0.043822002 0.29308
0.06758 0.043882001 0.29302001
0.070128001 0.045056999 0.29214999
0.069507003 0.044893999 0.29260001
0.069681004 0.045729 0.29275
0.070009001 0.045811001 0.29179999
0.073140003 0.046721999 0.29084
0.071731001 0.047871999 0.29113999
0.074954003 0.048285998 0.29006001
0.075153999 0.046744 0.28876001
0.13338999 0.048369002 0.25972
0.13359 0.049433 0.25906
0.077225998 0.048478998 0.2886
0.076077998 0.049036 0.28929001
0.076153003 0.049325 0.28900999
0.13350999 0.050324 0.25979999
0.099563003 0.048156001 0.27645001
0.098637998 0.048606999 0.27726001
0.097571 0.048783001 0.27695999
0.078406997 0.049242001 0.28703001
0.078245997 0.049049001 0.28742
0.13395 0.049883999 0.25931999
0.095375001 0.049784001 0.27965
0.094976999 0.048831001 0.27959999
0.094834 0.049166001 0.27816001
0.082147002 0.050043002 0.28522
0.081391998 0.050067998 0.2863
0.088854998 0.050122 0.28233001
0.14117 0.067762002 0.25470999
0.14128 0.071557 0.25542
0.14047 0.071722001 0.25558999
0.14071999 0.072109997 0.25488999
0.14086001 0.073468 0.25529
0.14182 0.074280001 0.25479999
0.14148 0.074101001 0.25477001
0.14185999 0.076746002 0.25496
0.14343999 0.076784998 0.2545
0.14278001 0.078217998 0.25512001
0.14383 0.078247003 0.25400001
0.14872999 0.080672003 0.25182
0.14561 0.081198998 0.25224999
0.14778 0.082272001 0.25288001
0.14794999 0.081735998 0.25227001
0.14738999 0.081887998 0.25316
0.14775001 0.080416001 0.25209999
0.14706001 0.080964997 0.25277001
0.050181001 -0.050627001 0.3012
0.050744999 -0.052299 0.30136999
0.050838999 -0.051786002 0.30179
0.051410001 -0.050599001 0.30228001
0.053160001 -0.043244999 0.30070001
0.055208001 -0.043209001 0.2999
0.055077001 -0.042371001 0.29945001
0.054726001 -0.042679001 0.29938999
0.056451 -0.041857 0.29951
0.055491999 -0.041326001 0.29861
0.055353001 -0.041290998 0.29896
0.056336001 -0.040979002 0.29883
0.056628998 -0.040189002 0.29831001
0.14483 0.003582 0.25345999
0.14523999 0.0034227001 0.25299999
0.14473 0.0046934001 0.25413001
0.14441 0.0058332002 0.25378999
0.14353 0.0072662998 0.25426
0.14271 0.0072297999 0.25409999
0.14079 0.0087716999 0.25558999
0.14078 0.0095004998 0.25554001
0.098494001 0.0091843 0.27777001
0.13978 0.010222 0.25538
0.098109998 0.010224 0.27744001
0.13965 0.010837 0.25598001
0.097396001 0.011543 0.27790001
0.045063 0.011411 0.30572
0.097107999 0.01129 0.2782
0.13926999 0.012097 0.25727001
0.096754 0.011113 0.27788001
0.096400999 0.012419 0.27893999
0.044771999 0.0122 0.30576
0.043976001 0.012687 0.30526999
0.043465 0.01358 0.30487999
0.13812 0.01443 0.25718001
0.043629002 0.014778 0.3048
0.13833 0.015036 0.25694999
0.094733998 0.015262 0.27913001
0.13776 0.015374 0.25702
0.094977997 0.014886 0.27899
0.092670999 0.016860001 0.28018001
0.13705 0.017759999 0.25672999
0.13681 0.020965001 0.25714001
0.13644999 0.02251 0.25781
0.13668001 0.022582 0.25751999
0.13462999 0.027013 0.25746
0.13530999 0.027494 0.25867999
0.13448 0.028425001 0.25883001
0.13398001 0.03035 0.25869
0.13365 0.031272002 0.25940001
0.13373999 0.032412 0.25926
0.056756999 0.032556001 0.29798999
0.056460001 0.032451998 0.29883999
0.056896001 0.032954998 0.29877999
0.13263001 0.032715 0.25974
0.13246 0.033627 0.2595
0.13283999 0.034976002 0.25955001
0.057459 0.034766998 0.29866001
0.057222001 0.034662999 0.29833999
0.057521001 0.034773 0.29848999
0.057505 0.034327 0.29811999
0.058664002 0.035347 0.29706001
0.13191999 0.035865001 0.25986999
0.13217001 0.039494999 0.25909999
0.13196 0.038798999 0.25917
0.060550001 0.037737999 0.29677999
0.061643001 0.039191999 0.29609999
0.063679002 0.041103002 0.29477
0.063463002 0.041209001 0.29572999
0.064862996 0.042238001 0.29501
0.064056002 0.041644 0.29479
0.064493001 0.042192999 0.29513001
0.064699002 0.04273 0.29528001
0.066513002 0.043026999 0.29352
0.066377997 0.043189999 0.29359999
0.065866999 0.042245001 0.29416999
0.065858997 0.043602999 0.29398999
0.069055997 0.044117998 0.29249001
0.070615999 0.045891002 0.29210001
0.071725003 0.045933999 0.29146999
0.070710003 0.045697 0.29155999
0.072388001 0.046431001 0.29023001
0.072535999 0.046638999 0.29121
0.073661998 0.046211999 0.2902
0.073348999 0.047991 0.29032999
0.074440002 0.047414999 0.28955001
0.099862002 0.048098002 0.27629
0.099932 0.048115999 0.27610999
0.075870998 0.048595 0.28918999
0.075591996 0.048277002 0.28905001
0.099137999 0.048857 0.27812001
0.077848002 0.048803002 0.28775999
0.096675999 0.049497001 0.27803001
0.096294001 0.049198002 0.27779999
0.094625004 0.049577001 0.27961001
0.094042003 0.049770001 0.27987999
0.080765001 0.049575999 0.28568
0.082410999 0.049137 0.28527999
0.079847999 0.049841002 0.28568
0.14115 0.067507997 0.25542
0.14207999 0.068388999 0.25479001
0.14203 0.068848997 0.25479999
0.14177001 0.069558002 0.25446001
0.14262 0.071477003 0.25461
0.14217 0.070248999 0.25503001
0.1416 0.071162 0.25540999
0.14181 0.076157004 0.25481001
0.14117 0.075548001 0.25527999
0.14204 0.075391002 0.25446999
0.14232001 0.074233003 0.25497001
0.14139999 0.076292999 0.25503001
0.14184 0.076458998 0.25444001
0.14259 0.075521998 0.25477999
0.14383 0.077459 0.25391999
0.14473 0.078184001 0.25323999
0.1446 0.078341998 0.25382999
0.14598 0.079396002 0.25365999
0.14544 0.080541998 0.25279
0.1459 0.080732003 0.25349
0.14579999 0.079864003 0.25255001
0.14921001 0.079853997 0.25116
0.14568999 0.080875002 0.25279999
0.14678 0.082096003 0.25284001
0.14796001 0.081532001 0.25171
0.050880998 -0.053233001 0.30103999
0.050043002 -0.051465001 0.30171001
0.050397001 -0.049098 0.30103001
0.051293999 -0.048834998 0.30116999
0.053064 -0.044689 0.3003
0.052469 -0.045336001 0.30048999
0.052735999 -0.045779001 0.30001
0.053596001 -0.043398 0.29967001
0.1451 0.0030737 0.25330001
0.14383 0.0063958 0.25363001
0.14252 0.0079683 0.25474
0.14163999 0.0081676003 0.25505
0.095985003 0.012144 0.27757999
0.04346 0.011062 0.30447999
0.13887 0.013657 0.25540999
0.095963001 0.014444 0.27796
0.13898 0.013547 0.25630999
0.095316 0.01483 0.27833
0.095218003 0.014616 0.27844
0.13828 0.01483 0.25628
0.043726001 0.016078001 0.30543
0.1373 0.015795 0.25687999
0.093286999 0.016347 0.27836999
0.094489999 0.016309001 0.27862999
0.13688999 0.019174 0.25672999
0.13674 0.022221001 0.25702
0.13515 0.025387 0.25788
0.13521001 0.026436999 0.2572
0.13417999 0.027295001 0.25795001
0.13406999 0.029242 0.25808001
0.13439 0.028196 0.25709
0.055861998 0.029410999 0.29822999
0.055555999 0.029858001 0.29841
0.056039002 0.029216999 0.29874
0.055656999 0.029114 0.29977
0.055537 0.030613 0.29934001
0.056058999 0.030844999 0.29932001
0.056001 0.032189999 0.29936001
0.056607999 0.032207001 0.29839
0.056407999 0.031426001 0.29854
0.057514999 0.032108001 0.29833001
0.058249999 0.032506999 0.29786
0.058171 0.033999 0.29750001
0.13249999 0.035151999 0.25850999
0.13214 0.033349 0.25896001
0.058474001 0.034593001 0.29806
0.13304 0.034708001 0.25865
0.060026001 0.037021998 0.29738
0.060490999 0.036214001 0.29607999
0.059992 0.036529001 0.29576001
0.13269 0.037094001 0.25946
0.061039999 0.037811998 0.29584
0.062371001 0.039935999 0.29574001
0.063187003 0.040908001 0.29543
0.062567003 0.040199 0.29492
0.062504999 0.038812999 0.29455
0.063685 0.041710999 0.29448
0.064616002 0.041069999 0.29365
0.064825997 0.042357001 0.29358
0.066903003 0.043088999 0.29330999
0.068498001 0.043694999 0.29172
0.067899004 0.044222001 0.29244
0.069011003 0.044326998 0.2913
0.070332997 0.045518 0.29027
0.071186997 0.045793001 0.29047999
0.072849996 0.046957999 0.28928
0.073987 0.046843 0.28852001
0.074529 0.046606999 0.28760999
0.092823997 0.049438 0.27989
0.080962002 0.049369 0.28724
0.092354 0.049851 0.27983999
0.086551003 0.049929 0.28296
0.085662 0.050423 0.28341001
0.14127 0.067822002 0.25455999
0.14216 0.069091998 0.25497001
0.14241999 0.070946999 0.25396001
0.14183 0.071663998 0.25497001
0.14195 0.072598003 0.25490001
0.14162999 0.073767997 0.25472
0.14196 0.074192002 0.25391001
0.14263999 0.073435999 0.25398001
0.14318 0.076531999 0.25395
0.14374 0.076651998 0.25400999
0.14405 0.078137003 0.25299001
0.14426 0.078077003 0.25281999
0.15009999 0.0792 0.25082999
0.14895999 0.079667002 0.25069001
0.14981 0.080076002 0.25094
0.14924 0.079952002 0.25059
0.14652 0.079792999 0.25275001
0.14885999 0.080908999 0.25119999
0.14915 0.078394003 0.25044
0.14668 0.080048002 0.25209001
0.050195999 -0.052522 0.3012
0.050786 -0.052845001 0.30127999
0.049568001 -0.051244002 0.30199999
0.049242001 -0.049688 0.30118999
0.049984001 -0.048687998 0.30112001
0.051633999 -0.045148998 0.30019
0.051982999 -0.044142 0.30032
0.052168999 -0.045836002 0.30008
0.052391 -0.044475 0.30004999
0.051826 -0.043961 0.2999
0.052499998 -0.044119999 0.29944
0.053116001 -0.043042 0.29967999
0.053334001 -0.042275999 0.29971001
0.054283999 -0.042203002 0.29890001
0.14587 0.0031055999 0.25191
0.14619 0.0021720999 0.25213
0.14482 0.0026094001 0.25323001
0.1454 0.0020919 0.25237
0.14369 0.0038113 0.25263
0.14375 0.0029396999 0.25257999
0.14201 0.0063622999 0.25319999
0.14281 0.0062962002 0.25364
0.14338 0.0071641002 0.25330001
0.14208999 0.007956 0.25413001
0.14099 0.0078755002 0.25448
0.045079999 0.0078071002 0.30396
0.044596002 0.0084514003 0.30419999
0.044337001 0.0077879 0.30384001
0.13989 0.0099700997 0.25429001
0.14015 0.0088553 0.25494999
0.13948999 0.010106 0.25499001
0.044259001 0.0095995003 0.30393001
0.043678001 0.010303 0.30507001
0.097644001 0.010917 0.27699
0.096506 0.012331 0.27713999
0.096666999 0.012579 0.27715999
0.042713001 0.01268 0.30469999
0.043072999 0.012166 0.30475
0.13985001 0.012839 0.25562
0.13947999 0.013496 0.25586
0.043513998 0.013839 0.30504999
0.13916001 0.015026 0.25606999
0.042702001 0.013068 0.30250001
0.042768002 0.013823 0.30405
0.13908 0.01541 0.25501999
0.13795 0.015818 0.25674999
0.13887 0.016163999 0.25593999
0.094369002 0.014701 0.27869001
0.093751997 0.014917 0.27733999
0.043154001 0.015549 0.30487001
0.13793001 0.016194001 0.25645
0.092763998 0.016872 0.27959999
