# .PCD v0.7 - Point Cloud Data file format
VERSION 0.7
FIELDS x y z
SIZE 4 4 4
TYPE F F F
COUNT 1 1 1
WIDTH 1630
HEIGHT 1
VIEWPOINT 0 0 0 1 0 0 0
POINTS 1630
DATA ascii
0.17144001 0.039462 0.13674
0.17878 0.061744999 0.14920001
0.17953999 0.071267001 0.14593001
0.21662 -0.017766001 0.12469
0.21662 -0.017674999 0.12465
0.1226 0.082213998 0.084689997
0.15757 0.094292 0.091522999
0.18786 0.088388003 0.12754001
0.18818 0.089342996 0.12593
0.15700001 0.0099176001 0.13778
0.15542001 0.011107 0.13763
0.15556 0.0097465999 0.13771001
0.22721 0.088385999 0.069588996
0.12695999 0.072099 0.10497
0.16125 0.066780001 0.13528
0.16218001 0.064370997 0.13759001
0.16192 0.066078 0.13579001
0.15451001 0.066197 0.12085
0.16952001 0.016657 0.13733
0.11686 0.062560998 0.094242997
0.21626 -0.025868 0.12876
0.21668001 -0.025602 0.1286
0.20564 -0.053826999 0.13096
0.2054 -0.053126998 0.13226999
0.19947 -0.0016706 0.126
0.20031001 -0.001158 0.12688001
0.11351 0.062803 0.074704997
0.16757999 0.083288997 0.086507998
0.17001 0.087719001 0.089482002
0.16974001 0.087287001 0.089481004
0.17 0.088074997 0.088105999
0.14602999 -0.023627 0.12545
0.18444 0.087614 0.13122
0.18393999 0.087296002 0.1311
0.16564 0.047265999 0.13978
0.16671 0.048751 0.13978
0.1603 -0.052498002 0.13843
0.16056 -0.053633999 0.13933
0.15862 -0.051715001 0.13899
0.17664 0.046707999 0.14726
0.14703999 -0.020090999 0.13524
0.14683001 -0.019455999 0.13569
0.16624001 0.074732997 0.1339
0.17343999 0.039014999 0.13847999
0.16376001 0.054354999 0.14058
0.16376001 0.053688999 0.1398
0.13304 -0.051752001 0.11963
0.13323 -0.052471999 0.11922
0.19134 0.012237 0.14094
0.15074 0.0055815 0.12047
0.1663 0.038302999 0.10306
0.16684 0.038869001 0.10194
0.13821 0.065518998 0.11692
0.16517 0.038674001 0.10407
0.15791 -0.042442001 0.14026
0.1564 -0.043074999 0.14004999
0.12063 0.065018997 0.10957
0.13668001 0.062935002 0.11886
0.13812 0.063647002 0.1204
0.13886 0.062942997 0.1196
0.19045 -0.0058094999 0.15093
0.1486 0.0021911 0.12994
0.13086 0.052382 0.11072
0.20437001 -0.0526 0.11305
0.2054 -0.054097999 0.11238
0.20521 -0.053036001 0.11424
0.17252 0.029281 0.13709
0.20174 -0.019656001 0.11876
0.16105001 -0.024429999 0.13937999
0.16114999 -0.021717001 0.13851
0.18842 -0.002083 0.15042999
0.18835001 -0.00081013999 0.1499
0.16475999 0.068939 0.13692001
0.16517 0.068025999 0.13706
0.16617 0.025955001 0.12324
0.16904999 0.087605 0.095112003
0.16846 0.088820003 0.094255999
0.19752 0.051515002 0.14613
0.19905999 0.049353998 0.14522
0.19938999 0.050223 0.14633
0.14717001 -0.051513001 0.13686
0.14737999 -0.051167998 0.13686
0.18544 0.027310999 0.14165001
0.18514 0.026342999 0.14319
0.1859 0.025793999 0.14222001
0.16966 0.080670998 0.11942
0.16954 0.080509 0.1178
0.15225001 0.011632 0.12695999
0.16421001 0.076448999 0.11515
0.19552 0.095090002 0.077881001
0.14614999 -0.0083633997 0.1279
0.18890999 -0.0016758 0.14963
0.16531999 0.077639997 0.12658
0.12028 0.074157998 0.079813004
0.22857 0.086577997 0.070874996
0.22765 0.086820997 0.071029998
0.16737001 0.022924 0.13278
0.16327 0.069829002 0.13708
0.13134 0.070146002 0.10916
0.14748 0.064607002 0.12245
0.14576 0.063189998 0.12074
0.16821 0.073475003 0.084812
0.13691001 0.063254997 0.12002
0.15277 -0.029208999 0.14074001
0.18389 0.028432 0.14415
0.14817999 -0.0063246 0.12983
0.19614001 0.063406996 0.14803
0.18497001 0.022999 0.14214
0.18446 0.022574 0.1425
0.18980999 0.059801999 0.14918
0.15218 -0.042785 0.13869999
0.18292999 0.077271 0.14313
0.18359999 0.076947004 0.14319
0.16189 0.062702 0.13885
0.20375 -0.037719 0.11924
0.11702 0.063418001 0.099806003
0.14867 -0.010564 0.13090999
0.1515 -0.051594 0.13914999
0.1523 -0.051748 0.13982999
0.16469 0.022356 0.11997
0.17408 0.016758 0.13896
0.17474 0.086786002 0.11592
0.13420001 0.070306003 0.10511
0.18348999 0.036681 0.14391001
0.15402 -0.0060585998 0.1357
0.15541001 -0.0063203 0.13485999
0.1691 0.024734 0.12016
0.16738001 0.024586 0.12192
0.16856 0.025986999 0.12008
0.18515 0.024865 0.14327
0.16712999 0.032823998 0.12009
0.17704999 0.0099250004 0.13835
0.16191 -0.0096217003 0.13397001
0.19491 0.053158 0.14782
0.19644 0.050854001 0.14681999
0.18603 0.0069615999 0.14004
0.12598 0.069881 0.10749
0.14797001 -0.026192 0.13476001
0.14791 -0.026786 0.13459
0.14797001 -0.026560999 0.13449
0.19070999 0.072301999 0.14648999
0.16012999 -0.0097065996 0.13541
0.15175 0.0079402002 0.11959
0.16441 0.093108997 0.092317998
0.16345 0.095421001 0.092642002
0.16395 0.092578001 0.091836996
0.15796 0.068915002 0.10899
0.17318 0.021446999 0.11186
0.17346001 0.021871001 0.11084
0.17241 0.023980999 0.1115
0.16459 0.072461002 0.099347003
0.16438 0.072603002 0.099081002
0.16604 -0.0018008 0.1388
0.16783001 0.079563998 0.088491999
0.15684 -0.031341001 0.14106999
0.17543 0.017902 0.14026
0.19735999 0.095573001 0.081961997
0.18717 0.00033091 0.14325
0.18742 -0.00022618999 0.14415
0.18745001 0.0023202 0.14388999
0.1671 0.078117996 0.090035997
0.16737001 0.078341 0.090425998
0.14335001 0.055174999 0.12439
0.14562 0.053020999 0.12569
0.1991 -0.027787 0.11745
0.20001 -0.027484 0.11801
0.19909 -0.02833 0.1178
0.17606001 0.026503 0.10578
0.17637999 0.025940999 0.10662
0.13784 0.064320996 0.11439
0.18395001 0.090447001 0.1151
0.20343 -0.016944 0.11917
0.15233999 0.0021905 0.13610999
0.15036 0.0026406001 0.13371
0.17057 0.080265999 0.10556
0.17058 0.082134999 0.1053
0.20348001 -0.029902 0.11279
0.20254999 -0.029858001 0.11474
0.15658 0.067074999 0.12556
0.15817 0.065673999 0.1241
0.15008999 -0.0010779999 0.11635
0.15054999 -0.0010519 0.11661
0.16389 0.078512996 0.11129
0.16463999 0.090576001 0.094480999
0.16325 0.090691 0.094483003
0.12207 0.072949998 0.10178
0.12241 0.073665 0.1029
0.1228 0.073069997 0.10059
0.16802 0.053847998 0.14261
0.14669999 0.046544001 0.11418
0.14675 0.04662 0.11607
0.14685 0.046727002 0.11625
0.16418999 0.083901003 0.095844001
0.164 0.084694996 0.094237998
0.11448 0.059066001 0.086805001
0.11398 0.059333999 0.087099999
0.17149 0.065293998 0.14449
0.1705 0.065158002 0.14509
0.14703999 -0.043579999 0.12831999
0.1655 0.070491001 0.090786003
0.12766001 0.054008 0.11184
0.17855 0.0076203002 0.13669001
0.17828 0.0084800003 0.13786
0.11497 0.073693 0.083673999
0.20488 -0.044349998 0.13070001
0.20338 -0.045614999 0.12958001
0.18626 0.069521002 0.14617001
0.18559 0.070157997 0.14733
0.16517 0.082181998 0.093685001
0.20766 -0.044946998 0.13417999
0.20985 -0.026861999 0.13184001
0.21198 -0.029119 0.13090999
0.13578001 -0.049777001 0.12276
0.14943001 0.00065321999 0.13116001
0.16829 0.031350002 0.11361
0.16912 0.030223001 0.11556
0.17741001 0.088927001 0.12262
0.17817 0.089806996 0.12039
0.13600001 0.052304 0.11626
0.19389001 -0.0046726 0.1635
0.19165 0.047430001 0.14625999
0.19164 0.048808001 0.14512999
0.18088 0.086630002 0.13358
0.21723001 -0.035105001 0.13054
0.21633001 -0.034244999 0.13165
0.21622001 -0.034566998 0.13132
0.20106 0.012335 0.13297001
0.20191 0.013037 0.1323
0.20114 0.012829 0.13349
0.13515 0.067868002 0.11291
0.13401 0.068783 0.11083
0.19514 0.095353998 0.079104997
0.1541 -0.019956 0.14092
0.18953 0.089152001 0.1295
0.14895999 -0.046154 0.13806
0.18594 0.037002001 0.14297
0.11838 0.075971 0.078716002
0.20442 -0.043242998 0.13015001
0.14719 0.063015997 0.12498
0.14714 0.061392002 0.12469
0.15369999 -0.052030001 0.1362
0.15516999 -0.053213999 0.13612001
0.15583 -0.053171001 0.13654999
0.12707999 0.068960004 0.089221001
0.12627 0.068833999 0.089349002
0.12551001 0.068897001 0.088797003
0.21403 -0.014419 0.12332
0.11547 0.059905998 0.078339003
0.18734001 0.010434 0.14019001
0.22372 0.089348003 0.068659
0.16802 0.081081003 0.11106
0.20063999 -0.0065450999 0.12175
0.20486 -0.040128 0.12274
0.20708001 -0.038095001 0.13273001
0.20631 -0.037792999 0.13243
0.16991 0.080891997 0.12761
0.16966 0.082405999 0.12647
0.15256 -0.036532 0.14021
0.19051 -0.0055579999 0.16197
0.19216999 -0.0055280998 0.16091
0.13697 0.048861999 0.11597
0.17161 0.071029998 0.079395004
0.17290001 0.071195997 0.078731
0.13607 0.052646 0.11883
0.16083001 0.07034 0.10806
0.14701 -0.027518 0.13405
0.12932 0.074377999 0.10122
0.16912 0.088505998 0.096720003
0.16157 0.070386998 0.13168
0.16241001 0.073236004 0.12358
0.11459 0.070010997 0.078109004
0.12009 0.056834999 0.1024
0.11879 0.057606999 0.10054
0.13861001 -0.051307999 0.1332
0.13968 -0.051775999 0.13449
0.13744999 -0.050971001 0.13211
0.17073999 0.065839998 0.1441
0.16775 0.066198997 0.14384
0.14740001 0.0012424 0.11996
0.18152 0.016409 0.13985001
0.18043999 0.016765 0.13952
0.14865001 -0.018066 0.1198
0.14862999 -0.016675999 0.11889
0.14824 -0.017325999 0.11798
0.18666001 0.055206999 0.14943001
0.18579 0.056479 0.1497
0.16728 0.030130001 0.1194
0.16851 0.030115001 0.12028
0.14672001 -0.0021379001 0.12468
0.14707001 -0.0019982001 0.12544
0.14621 -0.0010995 0.12532
0.14839999 -0.031884 0.13410001
0.11807 0.059296001 0.089777
0.11968 0.058316998 0.089748003
0.14737999 -0.021392999 0.12305
0.14601 -0.020814 0.12201
0.1486 -0.047067001 0.13679001
0.14887001 -0.047963999 0.13722999
0.16320001 -0.038061999 0.13863
0.19358 0.010094 0.13975
0.19212 0.010658 0.13965
0.16031 0.071783997 0.12466
0.15921 0.071924001 0.12498
0.16614 0.027907999 0.12461
0.16627 0.027895 0.12404
0.17362 0.065771997 0.14647
0.15786999 -0.052489001 0.13869999
0.15683 -0.053224999 0.13875
0.19840001 0.050535001 0.14616001
0.14735 -0.027778 0.12599
0.17303 0.011405 0.13946
0.17470001 0.012586 0.13902999
0.15813001 0.070869997 0.11831
0.19769999 0.057585999 0.14681
0.19723 0.056086998 0.14791
0.14195 0.054356001 0.12432
0.18271001 0.028620999 0.14279
0.1846 0.028022001 0.14206
0.2097 -0.034173001 0.13267
0.20963 -0.033417001 0.13356
0.19154 0.086043999 0.090703003
0.16593 0.046165999 0.13909
0.16680001 0.046115998 0.13978
0.16844 0.046957001 0.13955
0.19079 0.026351999 0.14257
0.17219 0.041209999 0.14267001
0.18799999 0.011615 0.14074001
0.13747001 -0.053020999 0.13068999
0.13854 -0.053443 0.13073
0.13894001 -0.052988999 0.13086
0.15695 0.016333001 0.13090999
0.11535 0.059018001 0.076358996
0.16416 0.075631998 0.12915
0.1654 0.044496998 0.13598
0.15737 0.067869 0.12457
0.15751 0.065421999 0.1246
0.17825 0.089573003 0.11254
0.17735 0.089229003 0.11402
0.17857 0.089248002 0.11197
0.18409 0.026168 0.1429
0.18278 0.026557 0.14349
0.1989 -0.0068235998 0.12271
0.20946001 -0.031727001 0.13268
0.167 0.077941999 0.11757
0.16765 0.072484002 0.088821001
0.19954 0.036044002 0.13835999
0.20804 -0.052632999 0.13590001
0.20704 -0.054653998 0.13564
0.13694 -0.048053 0.12066
0.13506 -0.047821999 0.11933
0.20026 -0.0023084001 0.12512
0.2009 -0.0044475002 0.12511
0.13625 0.064062998 0.11563
0.13792001 0.064511999 0.11597
0.1981 0.044739 0.14277001
0.16504 0.070795998 0.092317
0.16456001 0.069239996 0.091481999
0.19033 -0.0023143 0.14327
0.18989 -0.0019773999 0.14267001
0.19081999 -0.0019652999 0.14221001
0.20207 -0.050512999 0.13061
0.2016 -0.050491001 0.13008
0.18482 0.069087997 0.1472
0.18945 -0.0021646 0.14353999
0.18779001 -0.00011384 0.14206
0.11261 0.062247001 0.086378999
0.18288 0.042215001 0.14538001
0.18264 0.039969999 0.14480001
0.1508 -0.015618 0.13755
0.15004 -0.017478 0.13653
0.18873 0.0010666 0.14613999
0.14509 -0.0070797 0.12426
0.13868 0.050735999 0.11961
0.1654 0.036408 0.12212
0.15215001 0.066458002 0.1167
0.15069 0.065286003 0.11689
0.20349 -0.052478001 0.12079
0.15474001 0.094856001 0.087291002
0.19058 0.085042998 0.13635001
0.1899 0.084636003 0.13583
0.16580001 0.031881001 0.12254
0.1113 0.062158 0.082171001
0.14774001 -0.025278 0.13713001
0.14945 -0.025712 0.13847999
0.15707999 -0.0084493998 0.13452999
0.16398001 0.020147 0.13242
0.14853001 -0.033376001 0.13418999
0.14781 -0.034169 0.13422
0.15481 -0.029149 0.14101
0.18826 0.057769999 0.1497
0.18931 0.056738999 0.1494
0.14685 -0.0025015001 0.12709001
0.14782 -0.0033543999 0.12802
0.11795 0.074112996 0.092664003
0.16359 0.074298002 0.11965
0.16283999 0.075306997 0.11913
0.16587 0.042364001 0.13428
0.16508999 0.039526999 0.10209
0.15325999 0.056081999 0.12931
0.14544 0.047614999 0.12318
0.1427 0.065443002 0.11567
0.18672 0.015234 0.14111
0.19483 0.010146 0.13914999
0.18773 0.090467997 0.084716998
0.18832 0.090962 0.087296002
0.17558999 0.023915 0.13961001
0.17456 0.022992 0.13878
0.19416 0.072361998 0.14517
0.11903 0.076626003 0.076475002
0.16515 0.081799001 0.093851
0.16169 0.074461997 0.11652
0.16275001 0.074165002 0.11724
0.16793001 0.012606 0.14015999
0.16731 0.013462 0.1392
0.15380999 0.010064 0.11992
0.11416 0.070138 0.084818996
0.11362 0.068351999 0.087922998
0.20209999 -0.015962999 0.11274
0.20300999 -0.015531 0.11292
0.16241001 0.042449001 0.10556
0.19618 -0.0059639998 0.15931
0.19706 -0.0062262001 0.15907
0.19701 -0.0064340001 0.16027001
0.18901999 0.089056998 0.12691
0.19061001 0.088519998 0.12830999
0.19189 0.050969001 0.14732
0.19727001 -0.0016328 0.12259
0.19731 -0.0019722001 0.12369
0.19678 -0.001485 0.12414
0.13449 -0.053100999 0.11823
0.13337 -0.054177001 0.11896
0.13505 -0.053130001 0.12165
0.16271999 0.097328998 0.088716
0.16292 0.095868997 0.089054003
0.1227 0.080831997 0.084801003
0.12281 0.080072999 0.086618997
0.16410001 0.022084 0.12361
0.16358 0.021451 0.12381
0.16298001 0.021609001 0.12332
0.20755 -0.033645 0.13189
0.20889001 -0.037528001 0.13262001
0.20990001 -0.038222 0.13221
0.20987 -0.037811 0.13417999
0.18934 0.072492003 0.14724
0.18616 0.073495001 0.14577
0.15798 0.090774998 0.091168001
0.15865999 0.091788001 0.091564
0.11323 0.065215997 0.086232997
0.18822999 0.088629 0.079248004
0.18808 0.087885998 0.079214998
0.16498999 0.067307003 0.13935
0.18709999 0.050246999 0.14915
0.18736 0.049741998 0.14776
0.14875001 -0.016996 0.1196
0.19787 0.077981003 0.13974001
0.19760001 0.079502001 0.14094999
0.20603999 -0.054558001 0.11918
0.15161 0.061705001 0.12796
0.15097 0.061586 0.12654001
0.15694 0.063277997 0.12526
0.15497001 0.063115001 0.12709001
0.17094 0.026822001 0.13526
0.1631 0.086065002 0.094247997
0.16250999 0.087458 0.094030999
0.20153999 -0.034111001 0.11972
0.21039 -0.049906 0.13468
0.21154 -0.050622001 0.13586
0.21135999 -0.050545 0.13416
0.16075 0.095803 0.091329001
0.20633 -0.017534001 0.12412
0.13609999 0.050547 0.10973
0.16790999 0.040908001 0.13502
0.14555 -0.0098663 0.12509
0.17997 0.079651996 0.14281
0.16099 0.092304997 0.084409997
0.17026 0.081028 0.098383002
0.17081 0.081981003 0.099200003
0.16288 0.068751 0.098683
0.16342001 0.074257001 0.12397
0.16205999 0.074464999 0.12346
0.17773999 0.068768002 0.14738999
0.19187 0.092885002 0.077437997
0.16292 0.074546002 0.13054
0.20291001 -0.022506 0.10954
0.20277999 -0.021206001 0.10946
0.20285 -0.022305001 0.1098
0.16609 0.075868003 0.090741001
0.16627 0.076775998 0.091346003
0.17877001 0.070681997 0.14556
0.19586 0.094224997 0.083443999
0.14941999 -0.032685 0.1259
0.19016001 0.063902996 0.14777
0.18900999 0.062100999 0.14914
0.17071 0.081265002 0.13011
0.16429 0.071147002 0.10113
0.14774001 -0.053851001 0.13432001
0.14765 -0.053105 0.13371
0.11707 0.068287998 0.075776003
0.11654 0.065940998 0.076458998
0.11695 0.066027001 0.076677002
0.14859 -0.032274999 0.13395
0.15999 0.01259 0.11998
0.15916 0.013172 0.11934
0.20535 -0.018354001 0.10735
0.20619 -0.018572999 0.10742
0.17073999 0.043540001 0.14266001
0.17003 0.044481002 0.14121
0.171 0.043196 0.14166
0.18124001 0.085718997 0.13435
0.12718 0.059014998 0.11387
0.16592 -0.052905001 0.14143001
0.16688 -0.051918 0.14018001
0.16022 0.065332003 0.13405
0.17879 0.035413001 0.14217
0.16467001 0.043101002 0.13688
0.16655999 0.041170999 0.13641
0.1213 0.056926001 0.093511
0.12082 0.057902999 0.092929997
0.18872 0.0055916002 0.14145
0.17009 0.033895999 0.10463
0.16964 0.035066001 0.10498
0.168 0.034940999 0.10639
0.17577 0.070959002 0.14376999
0.15203001 0.061255999 0.12557
0.17746 0.088627003 0.11861
0.16317999 0.016178001 0.13768999
0.20604999 -0.0041044001 0.12604
0.20475 -0.0033283001 0.12650999
0.16558 0.041147001 0.10196
0.12296 0.055504002 0.10633
0.19784001 0.051488001 0.147
0.14986999 0.057020001 0.12814
0.15054999 0.058242001 0.1285
0.14816 0.057684999 0.12788001
0.18287 0.090442002 0.1096
0.12215 0.077757999 0.089374997
0.12693 0.063281998 0.1141
0.16249999 0.074772 0.1102
0.11731 0.063847996 0.10452
0.18669 0.0044839 0.13704
0.1758 0.063832998 0.14681
0.17843001 0.065320998 0.14751001
0.11841 0.067082003 0.098476999
0.19552 -0.0075097 0.1604
0.19351999 -0.0078232 0.16136999
0.19489001 -0.0059292 0.15982001
0.11306 0.064034998 0.089561999
0.16812 0.030153001 0.13017
0.1674 0.030459 0.13101
0.20315 -0.017942 0.1189
0.17844 0.023018001 0.14105999
0.17808001 0.024421001 0.14026
0.14804 0.055311002 0.12853999
0.19058999 0.050517 0.14696001
0.20411 -0.0040752999 0.12582
0.1831 0.061871 0.14862999
0.16092999 0.041536 0.11909
0.16099 0.041583002 0.12113
0.15525 0.014259 0.12591
0.20415001 -0.048007 0.11765
0.16867 0.026989 0.11976
0.16821 0.026164001 0.12079
0.12404 0.073367998 0.095151998
0.12503 0.074360996 0.096676998
0.12576 0.074256003 0.096222997
0.20611 -0.034242999 0.13123
0.20686001 -0.032947998 0.13234
0.20544 -0.033512998 0.13197
0.15187 -0.0045380001 0.13338999
0.19918001 -0.027073 0.1185
0.20411 -0.0073215002 0.1228
0.18148001 0.0091167996 0.13713001
0.18828 0.032308999 0.14376
0.18937001 0.032935999 0.14297
0.20372 -0.053002998 0.12511
0.20333 -0.052802 0.12609001
0.15305001 0.061826002 0.12551001
0.15305001 0.063414998 0.12673999
0.16288 0.056209002 0.13865
0.14489999 -0.0071172998 0.11893
0.16765 0.082382999 0.10989
0.16848999 0.081900001 0.10946
0.20565 -0.021571999 0.12667
0.20476 -0.022994 0.12775999
0.14252999 0.063009001 0.12083
0.1426 0.063545004 0.12082
0.19145 0.081837997 0.13968
0.16838001 0.073573999 0.080908
0.16777 0.072176002 0.080962002
0.1166 0.076725997 0.084743001
0.14681 -0.0046398002 0.12941
0.13796 0.062804997 0.11867
0.16637 0.026604 0.12806
0.15874 0.095539004 0.085335001
0.15938 0.095886 0.085882999
0.16435 0.066218004 0.096271999
0.16503 0.066703998 0.095146999
0.16618 0.066721998 0.095228001
0.14281 -0.045625001 0.12873
0.14235 -0.046023 0.12905
0.14210001 -0.045375001 0.12820999
0.19761001 -0.0057008001 0.16072001
0.1981 -0.0063903001 0.16026001
0.19693001 -0.0049629002 0.16078
0.16171999 0.0055420999 0.1409
0.22651 0.089031003 0.068066001
0.19053 0.051213998 0.14952999
0.18994001 0.052305002 0.14918999
0.20508 -0.02046 0.10885
0.15167999 -0.046110999 0.13955
0.16685 0.057884999 0.14326
0.15742999 -0.0050025 0.1375
0.169 0.03441 0.13026001
0.1665 0.034635998 0.10752
0.16628 -0.053160001 0.14092
0.16697 -0.053640999 0.13907
0.13733999 0.068017997 0.11074
0.17806 0.047331002 0.14771
0.12497 0.051987998 0.098549001
0.12496 0.052728999 0.099182002
0.21295001 -0.02397 0.12885
0.21286 -0.023364 0.1295
0.16076 -0.037925001 0.14015
0.16536 -0.046560999 0.14021
0.16416 -0.047892999 0.14163999
0.19656999 0.052315 0.14392
0.197 0.050593 0.14621
0.19310001 0.039932001 0.14153001
0.13638 -0.053474002 0.12961
0.14627001 0.061875999 0.12426
0.14487 0.060873002 0.1239
0.19194999 0.033814002 0.14257
0.16644999 0.041037001 0.13163
0.21373001 -0.018549999 0.126
0.16583 0.072494 0.091732003
0.16582 0.074546002 0.090186
0.16546001 0.073453002 0.10219
0.16445 0.072024003 0.10271
0.16661 0.043871 0.13821
0.13688999 -0.048415001 0.11952
0.16291 0.039156999 0.11519
0.1626 0.040072002 0.11515
0.16198 0.039274 0.11407
0.17811 0.028344 0.14083999
0.16671 0.035670001 0.10585
0.16680001 0.035551 0.10382
0.15796 -0.027962999 0.14091
0.13468 0.062729001 0.11523
0.15875 0.017075 0.12913001
0.16457 0.068365 0.13874
0.16655999 0.067225002 0.1407
0.16731 0.068457 0.14034
0.15679 -0.053119 0.13765
0.15764 -0.05223 0.1367
0.15783 -0.052345 0.13677
0.11968 0.058146 0.10888
0.11953 0.057349 0.10792
0.15478 0.064562999 0.1241
0.17599 0.029304 0.13965
0.17556 0.031380001 0.13951001
0.17414001 0.030216999 0.13974001
0.21241 -0.04377 0.11173
0.21116 -0.045651 0.1103
0.21190999 -0.04569 0.11186
0.16858 0.018677 0.13736001
0.16753 0.019064 0.13781001
0.12216 0.082617998 0.084461004
0.19318999 0.0021172001 0.14972
0.19400001 0.001065 0.15054999
0.15067001 0.061313 0.12751999
0.20491999 -0.047467999 0.11111
0.20569 -0.046471 0.11262
0.2054 -0.046418 0.11026
0.11883 0.074284002 0.094835997
0.11963 0.073435999 0.093879998
0.13468 0.059934001 0.11669
0.19881 -0.0030640999 0.12258
0.19891 -0.0023397 0.12392
0.17147 0.077136002 0.13816001
0.17019001 0.077050999 0.13798
0.15023001 -0.019332999 0.13816001
0.14876001 -0.019461 0.13818
0.11363 0.058897 0.073694997
0.19757 0.069498003 0.14429
0.2269 0.087534003 0.070877999
0.15849 0.014221 0.13591
0.15734001 0.014604 0.1345
0.11173 0.060623001 0.084632002
0.11279 0.06213 0.087241001
0.16457 -0.0017657001 0.13832
0.11686 0.064815 0.097677
0.20153999 -0.036832001 0.12364
0.20136 -0.035581999 0.12335
0.14806999 -0.044874001 0.13538
0.19323 0.0060530999 0.14390001
0.19367 0.0070246998 0.14342
0.19162001 0.0068923999 0.14289001
0.16497999 0.074692003 0.10403
0.16566999 0.074346997 0.10512
0.18483 0.075643003 0.14474
0.18557 0.076255001 0.14442
0.18554001 0.075946003 0.14526001
0.20462 -0.048285998 0.11505
0.15783 0.071029 0.12038
0.17646 0.086191997 0.13074
0.20336001 -0.014273 0.11696
0.11655 0.069275998 0.078644998
0.14704999 -0.024765 0.12405
0.17001 0.085754998 0.096671999
0.17037 0.084891997 0.097787999
0.171 0.084618002 0.096853003
0.15952 -0.0012831 0.13873
0.16055 -0.0012375 0.1391
0.16049001 0.0010398 0.13839
0.14571001 0.061347999 0.12438
0.14708 0.061455999 0.12592
0.16723 0.079478003 0.087466002
0.16471 -0.050971001 0.14263999
0.16294 -0.052083999 0.1427
0.17712 0.090213001 0.12167
0.12216 0.073055997 0.098187998
0.1211 0.073376998 0.099013999
0.15862 0.016858 0.1258
0.16903 0.035946999 0.1041
0.16903 0.035057999 0.10365
0.11449 0.073455997 0.085858002
0.15305001 0.0075638001 0.118
0.17048 0.023216 0.13787
0.18678001 0.077992998 0.14511
0.16727 0.011684 0.14125
0.17218 0.041529 0.14263999
0.15515 -0.026412001 0.14076
0.14861999 -0.042433001 0.13028
0.19755 0.071735002 0.14431
0.15064 0.0038949 0.13319001
0.12162 0.055461001 0.095789999
0.18012001 0.016053 0.13981999
0.17797001 0.014601 0.14014
0.22502001 0.087830998 0.069944002
0.17021 0.082433999 0.12416
0.17016 0.082144 0.12349
0.16812 0.081652001 0.12364
0.17803 0.013487 0.14060999
0.17873999 0.012386 0.13985001
0.17348 0.040803999 0.1441
0.15379 -0.020090999 0.14037
0.16926 0.080578998 0.1155
0.16538 -1.3379e-05 0.1392
0.20656 -0.033372998 0.13186
0.14357001 0.064878002 0.11441
0.15361001 -0.0031952001 0.13547
0.11755 0.076716997 0.089598
0.11754 0.076860003 0.090896003
0.11589 0.076750003 0.089038998
0.16625001 0.065151997 0.14129999
0.16599999 0.064274997 0.14026999
0.16469 0.063823 0.14163999
0.16658001 0.088164002 0.09584
0.19657999 0.060842998 0.14662001
0.11601 0.07254 0.077513002
0.17338 0.059301 0.14834
0.17482001 0.058834001 0.14741001
0.1435 -0.049904998 0.13523
0.14702 -0.0090146996 0.12636
0.19086 0.080071002 0.14214
0.17338 0.025364 0.13857999
0.16690999 -0.050978001 0.14047
0.16814999 0.064768001 0.14253999
0.15284 -0.051782999 0.13912
0.18166 0.067178003 0.14869
0.14913 -0.045293 0.12343
0.16079 0.065993004 0.10405
0.16089 0.065783001 0.1023
0.14676 -0.042881001 0.13301
0.14667 -0.043589 0.13173001
0.16780999 0.020877 0.13512
0.15937001 0.047497001 0.12667
0.1735 0.024913 0.10995
0.21143 0.0070602 0.12843999
0.15691 0.015904 0.13215999
0.15646 -0.017571 0.13908
0.1884 0.019362001 0.14040001
0.20338 -0.040061999 0.12275
0.15444 -0.037475999 0.14056
0.19400001 0.012784 0.13677
0.19904 -0.0077535999 0.12158
0.2017 -0.0078069 0.12142
0.19968 -0.0070022 0.12243
0.16057 0.072572 0.11815
0.13668001 -0.051599 0.11844
0.20223001 -0.018398 0.11262
0.20175 -0.016756 0.11349
0.20382001 -0.016536999 0.1135
0.15713 -0.040059999 0.13991
0.11713 0.076058999 0.08845
0.19619 0.033295002 0.14018001
0.12045 0.072778001 0.10012
0.11954 0.072158001 0.097929999
0.16437 0.095790997 0.090144999
0.1639 0.095214002 0.089979999
0.15394001 -0.0051885 0.13568
0.16723 0.039778002 0.1329
0.16061001 -0.043907002 0.14134
0.13797 -0.047485001 0.12939
0.16661 0.049155001 0.1409
0.11932 0.080454998 0.086834997
0.18953 -0.00053929997 0.14027999
0.1187 0.073022 0.094944
0.11894 0.071828 0.095996998
0.17543 0.067116 0.14605001
0.19039001 -0.0041242 0.15195
0.18960001 -0.0034960001 0.1524
0.15374 0.047598999 0.12640999
0.15493 0.048498001 0.12685999
0.13775 0.062697999 0.12058
0.13912 0.062493999 0.12061
0.19999 0.033328999 0.13863
0.19697 -0.0025398 0.14837
0.19656999 -0.0016590999 0.14835
0.19318999 -0.0024089999 0.16201
0.19217999 -0.0022165 0.16167
0.13911 -0.052703999 0.13201
0.14004999 -0.053911999 0.13281
0.16689999 0.037799999 0.13150001
0.16761 0.038660001 0.13233
0.2044 -0.041152999 0.12372
0.20296 -0.040375002 0.12401
0.11552 0.073628001 0.081477001
0.13357 0.058352999 0.11566
0.13500001 0.057859 0.11614
0.16509999 0.078867003 0.11128
0.16562 0.078023002 0.11163
0.16934 0.021058001 0.1158
0.17009 0.019894 0.11407
0.16902 0.019950001 0.11529
0.13559 -0.049768999 0.12177
0.13891 -0.054446001 0.1305
0.13831 -0.052577 0.12935001
0.12567 0.052802 0.10214
0.15020999 -0.0035550001 0.13262001
0.11784 0.074607 0.071840003
0.11885 0.074497998 0.071730003
0.17283 0.087338999 0.10586
0.17399 0.087734997 0.10585
0.17287 0.088256001 0.10545
0.20261 0.064786002 0.14319
0.19874001 -0.0058208001 0.12148
0.18776999 0.058327001 0.14856
0.19552 0.074942 0.14359
0.21436 -0.025769001 0.12959
0.2159 -0.024874 0.12999
0.21404 -0.023796 0.12918
0.19093999 -0.0054660002 0.147
0.15668 -0.045256998 0.14168
0.15582 -0.046087001 0.14181
0.15695 0.066717997 0.11414
0.15703 0.067841999 0.11376
0.11598 0.065142997 0.10088
0.17736 0.088924997 0.1111
0.18348999 0.024507999 0.14286
0.14821 -0.030796001 0.13369
0.14786001 -0.029705999 0.13268
0.13733999 0.064684004 0.1175
0.13861001 0.063277997 0.11887
0.1429 -0.048982002 0.12168
0.14465 -0.048657 0.12216
0.14353999 -0.048027001 0.12152
0.1639 0.018843001 0.13582
0.16655 0.018208001 0.13536
0.20095 -0.025645001 0.12237
0.14406 -0.010239 0.11883
0.14266001 -0.010383 0.12039
0.16427 0.017641 0.13557
0.1751 0.0099446997 0.14013
0.20164999 -0.011131 0.1199
0.20285 -0.011561 0.11965
0.19140001 0.090235002 0.078020997
0.19212 0.090566002 0.077945001
0.17062999 0.069004998 0.078298002
0.16162001 -0.040963002 0.13922
0.16096 -0.039905999 0.13946
0.17185 0.031289998 0.10843
0.17104 0.051888 0.14384
0.16711 0.068458997 0.084454998
0.16764 0.068976 0.085298002
0.12705 0.073682003 0.10151
0.15764 -0.014897 0.13597
0.15615 -0.013486 0.13427
0.19795001 0.055544 0.14643
0.16342001 -0.0051727002 0.13829
0.16301 -0.0053579002 0.13689999
0.14677 -0.027295001 0.12803
0.17335001 0.016189 0.14014
0.20032001 -0.022343 0.11991
0.20118999 -0.021743 0.12042
0.20046 -0.0028416 0.12444
0.20271 -0.010741 0.11966
0.1822 0.089521997 0.10287
0.15971 -0.014583 0.13427
0.15977 -0.013281 0.13378
0.20089 -0.025665 0.11252
0.20239 -0.027763 0.11336
0.18205 0.086188003 0.13361999
0.18080001 0.08495 0.13330001
0.1366 -0.048392002 0.12353
0.20281 -0.019299001 0.11321
0.20237 -0.018578 0.1128
0.16356 0.075391002 0.12659
0.18982001 -0.0038141001 0.15327001
0.18949001 -0.0021315 0.1521
0.19006 0.088422999 0.079980999
0.16528 -0.049100999 0.14274
0.16543999 -0.051879 0.14162999
0.20509 -0.053964999 0.11595
0.2052 -0.053316001 0.11583
0.17668 0.030749001 0.10314
0.17302001 0.027168 0.13896
0.11993 0.078290999 0.081707999
0.1979 0.034203999 0.14082
0.14439 -0.016438 0.12338
0.16735999 0.074969001 0.084712997
0.17670999 0.021091999 0.13852
0.21252 0.0088822003 0.12666
0.20234001 -0.019408001 0.11594
0.20252 -0.0015487 0.12709001
0.20408 -0.0044030999 0.12643
0.11495 0.070720002 0.089661002
0.19769999 -0.0040823999 0.15538
0.19548 -0.0057772002 0.15411
0.19615 -0.0052902 0.15345
0.19205999 -0.0011774 0.15873
0.18091001 0.079149999 0.14225
0.18923 -0.0015323 0.14166
0.18633001 0.090421997 0.12268
0.12026 0.056901999 0.10128
0.11944 0.055339999 0.10044
0.13728 0.058293 0.12173
0.16441 0.074424997 0.094679996
0.16422001 0.080246001 0.093656003
0.19904 0.061980002 0.14650001
0.1815 0.063345 0.14974
0.13973001 -0.050292999 0.13473
0.13776 -0.049187001 0.13364001
0.18878999 0.052398 0.14963999
0.16655 0.036449 0.10736
0.18915001 0.062751003 0.14957
0.18446 0.083952002 0.13901
0.16001999 -0.048556998 0.14332999
0.1591 -0.047704 0.14153001
0.15835001 -0.049106002 0.14274999
0.16903 0.062789999 0.091131002
0.16875 0.064493999 0.092187002
0.18859001 0.081262998 0.14064001
0.18726 0.081124999 0.14157
0.16948999 0.029276 0.11426
0.18771 0.085306004 0.091004997
0.21174 0.0082876002 0.12823001
0.19135 0.093846999 0.080003999
0.19224 0.063089997 0.14996
0.19261999 0.062141001 0.14837
0.17485 0.085391 0.13156
0.17298 0.083779998 0.13349
0.13502 -0.053296 0.12112
0.20031001 0.066302001 0.14482
0.1737 0.086511001 0.096073002
0.17321999 0.085491002 0.096612997
0.12756 0.060286 0.11448
0.17438 0.028299 0.10632
0.15618999 -0.047210999 0.1409
0.15785 -0.046411 0.14205
0.15806 -0.046429999 0.14143001
0.16286001 0.076503001 0.11244
0.15784 0.066225 0.12219
0.14534999 0.062930003 0.12314
0.14679 0.063920997 0.12309
0.15892 0.072756998 0.11435
0.15906 0.072203003 0.11389
0.16398001 0.023250001 0.12535
0.16332 0.021740999 0.12585001
0.13867 -0.050942 0.13508999
0.22733 0.087146997 0.069657996
0.22776 0.085481003 0.069177002
0.14877 -0.0027888999 0.13208
0.18264 0.032579999 0.14212
0.19369 0.084114 0.13546
0.19473 0.082808003 0.13574
0.12295 0.055179 0.10962
0.17193 0.030033 0.13467
0.16618 0.034329999 0.10986
0.17843001 0.089787997 0.1153
0.17477 0.056876 0.14768
0.16122 0.093034998 0.092890002
0.19 0.075568996 0.14583001
0.18963 0.074911997 0.1445
0.20145001 -0.026649 0.12428
0.20062 -0.026714999 0.12368
0.17128 0.084748998 0.12616999
0.17161 0.084546 0.12493
0.14903 -0.035831999 0.12523
0.15004 -0.034621999 0.12644
0.16057999 0.042952001 0.12718999
0.20652001 -0.045977 0.1154
0.16215999 0.018099001 0.12532
0.16769999 -0.0022137 0.13857
0.14904 0.059075002 0.12738
0.11587 0.068361998 0.094274998
0.15855999 0.061204001 0.13397001
0.15857001 0.065086998 0.12452
0.15736 0.064825997 0.12351
0.16027001 0.096842997 0.089975998
0.19227999 0.065716997 0.14812
0.19238999 0.064888999 0.14753
0.12028 0.068848997 0.10977
0.12024 0.066578999 0.10938
0.13004 0.051104002 0.10306
0.12732001 0.073136002 0.10032
0.12757 0.074712001 0.099985003
0.17143001 0.033932999 0.13753
0.17809001 0.089143001 0.10794
0.17698 0.087949 0.10761
0.14478 -0.017572001 0.12938
0.1446 -0.017018 0.12970001
0.14472 -0.017604999 0.12931
0.14549001 -0.0043895999 0.12097
0.14595 -0.0052164998 0.12327
0.2263 0.087750003 0.067174003
0.20412 -0.037353002 0.13039
0.14854001 -0.0044944002 0.13215999
0.14910001 -0.0053937999 0.13229001
0.20372 0.066354997 0.14233001
0.20541 0.065284997 0.14207999
0.1893 0.059223998 0.14830001
0.18866 0.060447 0.14816999
0.14909001 -0.032178 0.12582999
0.17914 0.043885 0.14634
0.18087 0.043869 0.14673001
0.11273 0.066890001 0.087265998
0.11367 0.067275003 0.084844001
0.14341 0.051860001 0.12243
0.20193 -0.019053999 0.11887
0.13437 0.050099999 0.11261
0.13467 0.051401999 0.11201
0.19042 0.064489 0.14883
0.14736 0.00099195004 0.12035
0.14823 0.0018943 0.11974
0.15069 -0.035898 0.1391
0.14993 -0.035246 0.13802999
0.16977 0.050471999 0.14403
0.16333 0.018285999 0.13492
0.18251 0.075880997 0.14339
0.18246 0.076174997 0.14419
0.14264999 -0.052765999 0.13331001
0.12037 0.071036004 0.10597
0.13166 -0.050526001 0.12718999
0.14643 -0.022502 0.13715
0.1477 -0.02386 0.13606
0.16419999 0.053004 0.13876
0.16392 0.053606998 0.13996001
0.17473 0.083692998 0.13519
0.16677 0.037152 0.12800001
0.16023 0.012254 0.1194
0.15973 0.0107 0.11708
0.15894 0.012404 0.11861
0.16885 0.017341999 0.13694
0.15707999 0.015421 0.12878001
0.20474 -0.040167999 0.12031
0.13178 -0.052772999 0.11902
0.15792 0.068182997 0.1157
0.15652999 0.066549003 0.11522
0.15707999 0.067364998 0.11744
0.12666 0.054249998 0.11095
0.12688001 0.052044999 0.10473
0.16700999 0.071286 0.083705001
0.16692001 0.076006003 0.10823
0.1675 0.078071997 0.10683
0.12885 0.062254999 0.11393
0.15990999 0.051685002 0.13053
0.20423999 -0.0040425998 0.12676001
0.138 0.049279999 0.11328
0.15944 0.066497996 0.13051
0.15995 0.066878997 0.13175
0.18548 0.071960002 0.14737
0.18619999 0.073425002 0.14535999
0.18538 0.072774 0.14669999
0.16204999 0.01384 0.11874
0.16113 0.012593 0.11776
0.16371 -0.0080944998 0.13479
0.11819 0.063178003 0.080421001
0.1167 0.063634999 0.078092001
0.11752 0.064189002 0.079089001
0.14858 -0.0039332001 0.13229001
0.17602 0.087874003 0.11748
0.16573 0.039918002 0.10204
0.15813001 0.070584998 0.12104
0.17126 0.079369001 0.1366
0.20513 -0.036343001 0.13042
0.16203 0.060442999 0.14009
0.18534 0.086994998 0.084302001
0.18617 0.087219 0.084032997
0.17633 0.025442 0.14052001
0.14975999 -0.024294 0.14045
0.16404 -0.0092075998 0.13314
0.18028 0.025462 0.14241
0.14603999 -0.053032 0.13243
0.1243 0.073183 0.10025
0.15054999 0.051624 0.12819
0.185 0.017972 0.14040001
0.15666001 -0.016387001 0.13913
0.18790001 0.025194 0.1417
0.18697999 0.030452 0.14332999
0.14464 -0.016960001 0.12482
0.1435 -0.015799999 0.12419
0.19171999 0.087025002 0.12835
0.19211 0.088046998 0.12778001
0.20453 -0.048402999 0.11106
0.20428 -0.048884999 0.11064
0.17061999 0.082966 0.12695
0.14906 -0.0093761999 0.13131
0.14230999 -0.044523001 0.13132
0.14308 -0.044394001 0.1318
0.14308999 -0.044427998 0.13262001
0.15667 0.046472002 0.12614
0.1565 0.046569999 0.12447
0.15708999 0.047115002 0.12517001
0.16551 0.073651001 0.10691
0.11472 0.072678 0.085042
0.11455 0.071465999 0.083501004
0.21276 -0.042601001 0.13246
0.20551001 -0.049150001 0.1184
0.17609 0.041250002 0.14494
0.15768 0.067317002 0.11898
0.16637 0.026318001 0.12229
0.20495 -0.048390001 0.1141
0.11676 0.069688998 0.074235
0.18458 0.042952999 0.14669999
0.17302001 0.081513003 0.10312
0.20344 -0.018181 0.12309
0.20416 -0.019831 0.12365
0.16263001 0.049906 0.13692001
0.19228999 -0.0094368001 0.16226999
0.19232 -0.010375 0.16320001
0.17191 0.026928 0.1355
0.11492 0.071912996 0.091348998
0.1972 0.029477 0.14058
0.20566 -0.018786 0.12533
0.20412999 -0.041010998 0.12209
0.14906 0.048222002 0.1257
0.14542 -0.012828 0.12406
0.16261999 -0.043078002 0.14041001
0.1613 -0.042665999 0.14040001
0.11824 0.058469001 0.10086
0.19609 0.080003999 0.1407
0.16754 0.017483 0.11762
0.168 0.017275 0.1161
0.16716 0.017227 0.11534
0.11994 0.057503998 0.096481003
0.15628999 0.046222001 0.12391
0.15679 0.047019001 0.12187
0.18023001 0.084799998 0.13444
0.19591001 -0.0015803 0.16133
0.1944 -0.0014086 0.16254
0.15211999 0.052134 0.12858
0.15820999 0.043931998 0.12213
0.16598 0.047169 0.13835999
0.15764 0.057006001 0.12921999
0.1583 0.057365999 0.13083
0.16264001 0.072866999 0.11044
0.18922 0.065509997 0.14845
0.18991999 0.063882999 0.14837
0.14278001 -0.047579002 0.13414
0.11666 0.069770001 0.073882997
0.20318 -0.026254 0.11027
0.20265999 -0.027665 0.11205
0.18037 0.033826001 0.14271
0.12218 0.056616999 0.092283003
0.18389 0.091316998 0.11395
0.18402 0.090977997 0.1135
0.11957 0.058874998 0.091393001
0.11863 0.058313001 0.091992997
0.18336 0.080130003 0.14206
0.18932 0.053258002 0.14816
0.20793 -0.0055800001 0.12594
0.17838 0.034368001 0.14258
0.15126 0.0037942 0.13523
0.15101001 0.0027015 0.13218001
0.20151 0.057266999 0.14549001
0.20148 0.058222 0.14492001
0.2025 -0.030369001 0.1277
0.20089 -0.030786 0.12778001
0.20236 -0.015397 0.11352
0.16631 0.075296 0.099457003
0.21315999 -0.014337 0.12191
0.21421 -0.014073 0.12139
0.15888 0.061912999 0.13199
0.15815 0.062410001 0.1327
0.1727 0.032078002 0.13683
0.17220999 0.030444 0.13587999
0.16136 0.073133998 0.11494
0.17258 0.086990997 0.11045
0.14957 -0.050746001 0.13745999
0.19941001 -0.0081473999 0.11759
0.20112 -0.0089020999 0.11733
0.20048 -0.0072960998 0.11882
0.15915 0.093934998 0.091891997
0.16553999 0.055723 0.14155
0.16599 0.054159001 0.14060999
0.16718 0.054896001 0.14223
0.17896 0.060679998 0.15005
0.18012001 0.060217001 0.14871
0.18357 0.077289999 0.14377999
0.20167001 -0.050030999 0.13012999
0.20243999 -0.049353 0.13132
0.17589 0.086492002 0.099997997
0.11702 0.071698003 0.093391001
0.17822 0.076210998 0.14365
0.18024001 0.078351997 0.14195
0.11985 0.055555999 0.098259002
0.16962001 0.05923 0.14431
0.15153 -0.032139 0.12347
0.16261999 0.019091999 0.12229
0.16723999 0.080867998 0.10874
0.1693 0.064714 0.14545
0.22412001 0.087646998 0.064884
0.14119001 -0.050561 0.13549
0.18593 0.023813 0.14242999
0.1596 0.071053997 0.1276
0.16117001 0.071530998 0.12662999
0.14568999 -0.025016 0.12929
0.15053 -0.013792 0.11879
0.15018 -0.013293 0.11762
0.17669 0.088744 0.10765
0.17553 0.088904999 0.10773
0.17656 0.088453002 0.10697
0.20967001 -0.045106001 0.13431001
0.19862001 -0.026759 0.11926
0.19882999 -0.026077 0.11942
0.1885 0.0081971996 0.14224
0.17955001 0.090718001 0.12298
0.1525 -0.0081789996 0.13327999
0.15279 -0.049826 0.14019001
0.16945 0.065948002 0.080413997
0.12538999 0.063455999 0.1149
0.22479001 0.085557997 0.069829002
0.13702001 0.060908999 0.12143
0.11438 0.067996003 0.090309002
0.11349 0.069531001 0.088569
0.16632 0.076581001 0.091973998
0.21554001 -0.034736998 0.13131
0.11197 0.059811998 0.076200001
0.16339999 0.065917 0.099606998
0.20943999 -0.013625 0.12368
0.20787001 -0.01296 0.12384
0.16501001 0.073104002 0.10044
0.12304 0.064956002 0.086583003
0.12231 0.064765997 0.085795999
0.12372 0.064632997 0.085707001
0.16553 0.048664998 0.1389
0.20519 -0.0094499001 0.12264
0.20513 -0.01911 0.12362
0.1441 -0.013423 0.12406
0.18018 0.044298001 0.14636
0.17922001 0.044006001 0.14569999
0.11638 0.077191003 0.082249001
0.21331 -0.021136001 0.12811001
0.17791 0.076986 0.14202
0.11807 0.068928003 0.076099999
0.17209999 0.086544998 0.095128998
0.17152999 0.086295001 0.096776001
0.15790001 -0.0063058999 0.13722
0.20336001 -0.040341999 0.12503
0.11427 0.057952002 0.084624998
0.11355 0.057048 0.085026003
0.11361 0.059023 0.085075997
0.16295999 -0.023453999 0.13891
0.16316999 0.085286997 0.092334002
0.14508 -0.012874 0.12372
0.20186 -0.032297 0.11444
0.14689 0.048852 0.12229
0.19327 0.087949 0.082964003
0.19208001 0.086649001 0.084227003
0.19183999 0.087668002 0.082658999
0.19214 0.041590001 0.14263
0.16188 0.074341998 0.1138
0.14569999 0.060033001 0.12548999
0.18447 0.089686997 0.12802
0.16549 0.078929 0.11224
0.19602001 -0.0035568001 0.16291
0.19523001 -0.0039972002 0.16361
0.1965 -0.0048472001 0.16226
0.1478 -0.017747 0.13366
0.16398001 -0.052577 0.14155
0.16353001 0.067415997 0.13655999
0.17247 0.068219997 0.14472
0.17344999 0.066384003 0.14548001
0.20108999 -0.026504001 0.11338
0.15428001 0.0033135 0.13618
0.15353 0.0039404999 0.13744
0.11702 0.061299998 0.10103
0.18147001 0.090644002 0.11295
0.18272001 0.089979999 0.1112
0.16979 0.084546 0.097067997
0.18625 0.059198 0.14826
0.11461 0.062849998 0.075978003
0.1143 0.062674999 0.077253997
0.19719 -0.0065772999 0.16320001
0.19649 -0.0084768999 0.16312
0.18621001 0.032460999 0.14309999
0.14556 0.047323 0.11417
0.14651 0.046815 0.11514
0.20452 -0.049465001 0.11391
0.18319 0.080449 0.14134
0.19925 -0.028712999 0.12032
0.18641999 0.062847003 0.14884
0.15885 -0.018130001 0.1382
0.15335 -0.0095073003 0.13394
0.15965 0.065729998 0.10495
0.15001 0.0022366 0.13185
0.18558 0.074882999 0.14578
0.11942 0.059779 0.10906
0.19399001 0.072008997 0.14612
0.19192 0.034093 0.14271
0.19171 0.034442 0.14206
0.19292 0.035698 0.14199001
0.16745 0.030060001 0.1285
0.20524 -0.024646999 0.12881
0.20462 -0.022902001 0.12887999
0.20505001 -0.024889 0.12806
0.19854 -0.0017794 0.12466
0.20111001 -0.0028227 0.12518001
0.17064001 0.072575003 0.082263
0.19502001 0.028191 0.14046
0.19505 0.028228 0.14064001
0.11726 0.062346 0.10502
0.11739 0.062449001 0.10612
0.19224 0.085313998 0.089699998
0.19628 0.02296 0.13945
0.19529 0.024053 0.14029001
0.17051999 0.084766999 0.10924
0.15941 -0.037013002 0.14044
0.13799 0.049977999 0.11887
0.1842 0.079750001 0.14301001
0.1781 0.081583001 0.13799
0.1781 0.082879998 0.13745999
0.16461 0.015547 0.11738
0.16976 -0.00071667001 0.13914999
0.16884001 -0.0016882 0.13877
0.15042999 0.055718999 0.12861
0.12122 0.055383999 0.097910002
0.16052 0.06233 0.13522001
0.16171999 0.064355999 0.13601001
0.20223001 -0.019417999 0.11928
0.20169 -0.018839 0.11583
0.15686999 0.015362 0.12727
0.15656 0.015844001 0.12863
0.15628 0.015585 0.12811001
0.14406 0.047961999 0.12042
0.14392 0.050018001 0.12135
0.15730999 -0.053157002 0.13868
0.16576999 0.068135999 0.13844
0.16534001 0.068170004 0.13734999
0.16379 0.037657 0.12032
0.20428 -0.01457 0.12073
0.20465 -0.016773 0.12104
0.20531 -0.015468 0.12122
0.16338 0.074550003 0.12186
0.18411 0.087889999 0.12959
0.18321 0.088110998 0.12926
0.11639 0.071964003 0.089270003
0.11576 0.071528003 0.091898002
0.11443 0.071754001 0.090213001
0.14845 -0.042647999 0.12912001
0.18816 0.030238001 0.1426
0.15944999 0.051959001 0.13049001
0.15872 0.054404002 0.13055
0.17748 0.0075647002 0.13864
0.1786 0.0071081999 0.13755
0.1552 0.067133002 0.11849
0.20881 -0.010876 0.12409
0.17442 0.0087678004 0.14
0.17461 0.01003 0.13897
0.17367999 0.010704 0.14002
0.15321 0.0095982999 0.13038
0.21021999 -0.053557999 0.10979
0.14403 -0.017185001 0.12309
0.19527 0.082393996 0.13608
0.19453 0.083134003 0.1357
0.19566999 -6.2343002e-05 0.14988001
0.19594 6.5649998e-05 0.14934
0.19498999 0.00075836002 0.15036
0.14978001 -0.040819 0.13228001
0.19069 0.065866999 0.1488
0.1524 0.0057683 0.11782
0.14793999 -0.025955999 0.12328
0.14925 -0.026977001 0.12249
0.13663 0.069586001 0.10672
0.13609 0.069665 0.10601
0.20066001 -0.034968 0.12376
0.20134 -0.035737999 0.12278
0.14343999 0.047598999 0.1132
0.1604 0.071938999 0.11343
0.15148 0.051406998 0.12785
0.19942001 -0.0025816001 0.12605999
0.16285001 0.043439999 0.13454001
0.17165001 0.079000004 0.13519999
0.16606 0.034775998 0.11426
0.20377 -0.022319 0.10957
0.193 0.074561998 0.14487
0.15731999 0.095863 0.084615998
0.15751 0.094355002 0.084940001
0.14862999 -0.043200999 0.13151
0.15782 0.069917999 0.11625
0.21879999 -0.020163 0.12427
0.21746001 -0.019904001 0.12575001
0.19317999 0.020938 0.13959
0.189 0.090167001 0.078785002
0.1689 0.032637 0.13264
0.14722 -0.052622002 0.13251001
0.14881 -0.053438999 0.13386001
0.18440001 0.037751 0.14317
0.18584999 0.036258001 0.14314
0.16637 0.037390001 0.10552
0.18276 0.086575001 0.13289
0.14183 -0.045759998 0.12769
0.14203 -0.04738 0.12715
0.14194 -0.047405001 0.12598
0.1576 0.093179002 0.089057997
0.16813 0.077643998 0.10251
0.16859999 0.079125002 0.10098
0.13686 0.062682003 0.11738
0.20415001 -0.031337 0.12768
0.16056 0.016728999 0.12356
0.11623 0.059482999 0.077188
0.17201 0.085491002 0.12024
0.13260999 0.060484 0.11458
0.13184001 0.061629001 0.11483
0.15877999 0.067800999 0.12933999
0.21180999 -0.021358 0.12863
0.21259999 -0.022335 0.12874
0.20251 -0.021526 0.11028
0.20268001 -0.021229001 0.11144
0.17110001 0.047143999 0.14557999
0.15696999 -0.046489999 0.14137
0.15503 -0.047038998 0.14049
0.16853 0.069769002 0.14008
0.17732 0.087251 0.12772
0.19262999 0.027083 0.14120001
0.12172 0.055822 0.094322003
0.16023999 0.040711001 0.11324
0.16141 0.040488001 0.11405
0.12264 0.072332002 0.10285
0.16449 0.058692999 0.14208999
0.16500001 0.023046 0.12371
0.21512 -0.015416 0.12245
0.21362001 -0.014926 0.12226
0.21496999 -0.016238 0.12249
0.18765 0.092361003 0.085024998
0.20446999 -0.052797001 0.1135
0.20399 -0.051757 0.11275
0.19472 -0.0060898 0.14548001
0.21161 -0.049601 0.13451999
0.13886 0.049922999 0.10967
0.13879 0.050073002 0.10976
0.13855 0.047973 0.1085
0.15036 -0.046466999 0.13936999
0.15206 -0.046218999 0.13885
0.12013 0.080434002 0.080790997
0.17151 0.064503998 0.14498
0.15967 0.015421 0.13662
0.15865 0.014504 0.13499001
0.15848 0.015663 0.13546
0.162 0.0526 0.13607
0.20268001 -0.014837 0.11733
0.20300999 -0.014934 0.11861
0.16367 0.082296997 0.093952
0.16211 0.081765004 0.092033997
0.18125001 0.058511999 0.14873999
0.13473 -0.051895998 0.13194001
0.13517 -0.051934998 0.13123
0.11942 0.071043 0.099013999
0.14735 -0.01002 0.12925
0.19617 0.027394 0.13962001
0.19628 0.027461 0.13902
0.15673 0.069105998 0.12161
0.19291 -0.0077510001 0.16230001
0.16899 0.080153003 0.11449
0.16491 -0.0072487001 0.13546
0.16452 -0.0068484 0.13631
0.14361 0.065025002 0.11911
0.14238 0.065261997 0.11928
0.12894 0.074239001 0.097615004
0.12905 0.074580997 0.099206999
0.13101 0.073840998 0.097537003
0.14579 -0.052255999 0.13166
0.1279 0.066941001 0.11001
0.18968999 0.067001998 0.14776
0.12153 0.072352998 0.10392
0.17293 0.027677 0.11042
0.17366999 0.027789 0.11032
0.16584 0.037037 0.10593
0.16585 0.036299001 0.10532
0.15813001 0.066771999 0.12015
0.20514999 -0.046429001 0.11512
0.20621 -0.046317 0.11512
0.12307 0.054487001 0.092624001
0.16886 0.028147001 0.11902
0.16922 0.026548 0.11789
0.11544 0.058598001 0.078749999
0.20461001 -0.022591 0.12702
0.18475001 0.078088999 0.14406
0.16621999 0.092629999 0.092430003
0.14544 0.065866999 0.11424
0.14524999 0.065883003 0.11368
0.18381999 0.070404999 0.14652
0.18471 0.082029998 0.14064001
0.14624 -0.026448 0.12297
0.14613999 -0.026502 0.12471
0.13077 0.062838003 0.11494
0.12101 0.061949 0.11111
0.12128 0.063497998 0.11077
0.18769 0.0060840002 0.1428
0.16704001 0.066949002 0.14112
0.18031 0.089624003 0.10876
0.17518 0.088284999 0.12056
0.17359 0.086782999 0.12176
0.19311 0.059564002 0.14788
0.16057 -0.051536001 0.14218999
0.16466001 0.0060961 0.14193
0.16306999 0.0055457 0.14173999
0.17269 0.026827 0.1108
0.18246 0.031718999 0.14278001
0.17629001 0.040647998 0.14353
0.17646 0.040594999 0.14354999
0.17163999 0.070315003 0.14318
0.15582 0.012987 0.1375
0.20527001 -0.021103 0.12779
0.19446 0.040059 0.14146
0.1648 0.052274998 0.14063001
0.20389 -0.041313998 0.12635
0.20325001 -0.039985001 0.12735
0.12623 0.053009 0.10677
0.12741999 0.052159 0.10841
0.18697 0.0030465 0.14391001
0.17572001 0.078769997 0.13926999
0.17517 0.079728998 0.13795
0.17488 0.078652002 0.13889
0.21443 -0.039919 0.13149001
0.18617 0.073374003 0.14573
0.18604 0.074161999 0.14519
0.124 0.054373998 0.10879
0.16447 0.020284999 0.12034
0.16291 0.019718001 0.12123
0.16932 0.038445 0.13382
0.16821 0.038857002 0.133
0.16934 0.038222 0.13335
0.20326 -0.03005 0.12788001
0.20365 -0.030441999 0.12752999
0.16967 0.030043 0.11117
0.17117999 0.081171997 0.10681
0.16808 0.083189003 0.10718
0.17471001 0.087477997 0.12329
0.15297 -0.033780999 0.1393
0.13590001 0.065725997 0.1134
0.13437 0.065376997 0.11337
0.14704999 -0.026303999 0.12422
0.14712 -0.026393 0.12444
0.15862 -0.038027 0.14105999
0.16512001 0.023658 0.12983
0.16558 0.02375 0.12988
0.16672 0.025638999 0.12815
0.16763 0.032348 0.12725
0.15747 0.066722997 0.11972
0.14067 -0.050291002 0.11521
0.14208999 -0.050427001 0.11563
0.16229001 0.020277999 0.12509
0.15468 -0.051199999 0.14097001
0.15414999 -0.049798999 0.14067
0.18024001 0.045981001 0.14659999
0.18979 0.024137 0.14181
0.14349 -0.0096968999 0.12052
0.1608 0.068319 0.10505
0.16043 0.067644 0.1045
0.15295 -0.014907 0.13646001
0.17048 0.082408004 0.12113
0.19183999 -0.0061281002 0.15297
0.19241001 -0.0061929999 0.15196
0.15606 0.056612 0.13026001
0.15572999 0.055514999 0.12951
0.15067001 -0.048500001 0.13768999
0.15234999 -0.036116999 0.13883001
0.15195 0.063238002 0.12426
0.15481 0.0097393002 0.13727
0.11184 0.060826998 0.084981002
0.20095 -0.022759 0.11226
0.1947 0.026791001 0.13924
0.19520999 0.026295001 0.13948999
0.22401001 0.086529002 0.066435002
0.19453999 0.0091489004 0.13897
0.16502 0.039627001 0.1028
0.16553 0.040514 0.10325
0.14580999 0.057032 0.12716
0.14639001 0.055881999 0.12623
0.18088 0.060559999 0.14893
0.18097 0.06222 0.14885999
0.16799 0.079360999 0.1171
0.16927999 0.081280999 0.11929
0.14943001 -0.043469999 0.1252
0.14786001 -0.044062 0.12673999
0.14544 0.065291002 0.12005
0.19310001 0.071728997 0.14647999
0.17808001 0.042075001 0.14549001
0.20219 -0.048927002 0.12729
0.20204 -0.050825998 0.12831999
0.20622 -0.054590002 0.13347
0.16422001 0.070467003 0.13602
0.15978999 0.066170998 0.13179
0.16067 0.065182999 0.13445
0.20223001 -0.035797998 0.12511
0.20202 -0.034582999 0.12406
0.16342001 0.038904998 0.11847
0.16320001 0.037202999 0.11892
0.20193 -0.046484999 0.12134
0.18125001 0.019316001 0.14060999
0.16108 0.014884 0.12052
0.16088 0.01516 0.11932
0.16041 0.01375 0.11913
0.16320001 0.037486002 0.11513
0.19374999 0.066481002 0.146
0.19428 0.068318002 0.14677
0.19361 0.067404002 0.14634
0.16340999 0.057232 0.14159
