# .PCD v0.7 - Point Cloud Data file format
VERSION 0.7
FIELDS x y z
SIZE 4 4 4
TYPE F F F
COUNT 1 1 1
WIDTH 1609
HEIGHT 1
VIEWPOINT 0 0 0 1 0 0 0
POINTS 1609
DATA ascii
0.042185001 0.22508 0.16155
0.042287 0.22638001 0.16144
0.034541 0.22565 0.16628
0.036088001 0.22747 0.16625001
-0.011287 0.22911 0.1921
0.042902999 0.22833 0.16227999
0.043407001 0.22920001 0.16267
-0.0043899999 0.22752 0.18859001
0.036311999 0.22922 0.16595
-0.010981 0.23068 0.19219001
0.043453999 0.23319 0.16225
0.014507 0.23388 0.17812
0.015325 0.23356 0.17747
-0.0056874999 0.23475 0.18894
0.013002 0.23525 0.17872
0.036409002 0.23546 0.16581
0.036001999 0.23632 0.16629
-0.0053976998 0.23586001 0.18899
0.011987 0.23649 0.17913
0.019585 0.23571 0.17506
0.019362001 0.23481999 0.17552
0.019088 0.23592 0.17369001
-0.012009 0.23476 0.19235
-0.011953 0.2362 0.19254
-0.0052621998 0.23661 0.18896
-0.0047160001 0.23783 0.18854
0.011527 0.23738 0.17972
-0.012137 0.23784 0.19276001
-0.012124 0.23951 0.19278
0.034162998 0.23885 0.16705
0.033532999 0.23951 0.16738001
0.0095634004 0.23965 0.18053
0.0090276999 0.24036001 0.18092
0.0078697996 0.24203999 0.18137001
0.0071719 0.24187 0.18031999
-0.011541 0.24301 0.19267
-0.012047 0.24186 0.19268
-0.0087473001 0.24378 0.19013
-0.0074204998 0.24374001 0.18946999
-0.010964 0.24394999 0.19208001
0.020248 0.24331 0.17309999
-0.010514 0.24428999 0.19103999
-0.0093839001 0.24462999 0.19148999
-0.00061520998 0.24402 0.18622001
-0.0011084001 0.24456 0.18689001
0.0026588 0.24551 0.18476
0.0012452001 0.24463999 0.18513
0.020381 0.24601001 0.17481001
0.029013 0.24600001 0.17031001
0.02947 0.24463999 0.16978
0.037303999 0.24474999 0.1654
-0.0057616001 0.24654 0.18917
-0.0029392999 0.24677999 0.18786
-0.0024345 0.24619 0.18780001
0.025993999 0.24579 0.17136
0.037177 0.24608999 0.16543999
-0.0044408999 0.24686 0.18856999
0.034417 0.24629 0.16675
0.035873 0.2467 0.16605
0.011872 0.2473 0.17862
0.027478 0.24649 0.17103
0.0055570998 0.24711999 0.18249001
0.013048 0.2471 0.17862
0.015903 0.24749 0.17756
0.016363 0.24749 0.17660999
0.014879 0.24733 0.17621
-0.02172 0.059209999 0.19829001
-0.022400999 0.059526 0.19867
-0.024966 0.065465003 0.19993
-0.022981999 0.070880003 0.1992
-0.021747001 0.076797999 0.19777
-0.021522 0.077261999 0.19856
-0.013339 0.079369999 0.19314
-0.010847 0.079484001 0.1917
-0.010442 0.079456002 0.19135
-0.0053367 0.079690002 0.18904001
0.024303 0.083167002 0.17265999
0.015900999 0.082842 0.17727
-0.012139 0.099078998 0.19264001
-0.011693 0.10064 0.19188
-0.014744 0.11509 0.19444001
-0.015042 0.11876 0.19361
-0.013718 0.1191 0.19318999
-0.013488 0.13496 0.19332001
-0.013712 0.14587 0.19399001
-0.012728 0.15081 0.19250999
-0.014301 0.15158001 0.19311
-0.014067 0.15365 0.19388001
-0.012487 0.15968999 0.19304
-0.011831 0.16258 0.19222
-0.01094 0.16553 0.19156
-0.011331 0.16716 0.19148
-0.0097195003 0.16683 0.19108
-0.0099994997 0.16547 0.19131
-0.0099187996 0.16821 0.19115999
-0.0099291001 0.16959 0.19085
-0.01216 0.17431 0.19201
-0.011287 0.17411 0.19225
-0.0015941 0.17632 0.18708
-0.011379 0.17946 0.19283
-0.010895 0.20737 0.19185001
-0.011191 0.21007 0.19227999
-0.012019 0.21021 0.19157
0.010275 0.21064 0.18057001
0.011452 0.21348 0.18014
0.011625 0.21345 0.17918999
0.01287 0.21495999 0.17873999
-0.010565 0.21614 0.19172999
-0.01059 0.2218 0.19182999
0.033677999 0.22304 0.16744
0.034185998 0.22352999 0.16741
0.042954002 0.22615001 0.16271
0.042961001 0.22751001 0.16268
-0.010749 0.22744 0.19238
-0.011127 0.22628 0.19224
0.036777999 0.23061 0.16591001
0.036538001 0.23231 0.16576
0.036717001 0.23315001 0.16553
0.036885001 0.23442 0.16576999
0.012763 0.23563001 0.17893
0.020334 0.23652001 0.17477
-0.0027776 0.23993 0.18735
-0.0036154001 0.23946001 0.18799999
0.032331001 0.24065 0.16809
0.044222001 0.23903 0.16182999
-0.0019771999 0.24031 0.18739
0.00056535 0.24074 0.1857
0.031406 0.24124999 0.16850001
0.031019 0.24152 0.16893999
-0.012021 0.24083 0.19284999
-0.0072217002 0.24539 0.18980999
0.0029908 0.24617 0.18418001
0.01202 0.24642999 0.17934
0.0052081998 0.24731 0.18297
0.014157 0.24710999 0.17782
0.0043255999 0.24751 0.18378
-0.023568001 0.061407 0.19919001
-0.024169 0.062955 0.19988
-0.024064001 0.068732999 0.19986001
-0.015970999 0.079471 0.19512001
-0.012129 0.079285003 0.19276001
-0.0044898 0.079727001 0.18859001
0.024443001 0.084439002 0.17261
-0.011666 0.10061 0.19281
-0.016826 0.11501 0.19578999
-0.014681 0.11756 0.19446
-0.013317 0.13610999 0.19405
-0.011041 0.16267 0.19209
-0.010827 0.16419999 0.1918
-0.0097618997 0.16236 0.19164
-0.0099363998 0.16383 0.19125
-0.0084773004 0.16726001 0.19027001
-0.0085696997 0.16864 0.19047999
0.00024182 0.16834 0.18614
-0.01018 0.17107999 0.19112
-0.0095974999 0.17248 0.19159
0.00019756 0.17287999 0.18633001
-0.010732 0.17557 0.19223
-0.010886 0.19305 0.19208001
0.0096771996 0.21017 0.18100999
0.013208 0.21602 0.17887001
-0.010224 0.21741 0.19175
-0.010047 0.22039001 0.19227
-0.010809 0.22490001 0.19205999
-0.0036108999 0.22547001 0.18833999
-0.0033253001 0.22473 0.1882
-0.0051596002 0.22935 0.18858001
-0.011078 0.23232 0.19238
-0.0054152999 0.23355 0.18933
-0.0081869997 0.24503 0.19067
-0.0070012002 0.24587999 0.19014999
-0.0087711997 0.079498 0.19089
0.024272 0.085726999 0.17309
-0.016735001 0.090134002 0.19537
-0.013361 0.11774 0.19381
-0.010603 0.16129 0.19233
-0.0071084001 0.16534001 0.1901
-0.0080503998 0.16376001 0.19045
-0.0072667999 0.16401 0.19042
-0.0082681002 0.16552 0.19036999
-1.4461e-05 0.16726001 0.18616
-0.0082778996 0.16941001 0.19081999
-0.0087657999 0.17114 0.19058999
-0.0083804997 0.1727 0.19083001
-0.0069966 0.17303 0.19005001
-0.01097 0.20908 0.19253001
-0.010279 0.21899 0.192
-0.010569 0.2235 0.19239999
-0.011012 0.23338 0.19253001
-0.011053 0.23602 0.19295
0.034209002 0.23939 0.16868
0.044027999 0.24094 0.16199
0.0088218004 0.24111 0.18169001
0.0040529999 0.24685 0.18414
-0.022776 0.060229 0.20045
-0.014698 0.079279996 0.19420999
-0.0032352 0.079608999 0.18822999
0.016495001 0.081362002 0.17745
0.016240999 0.084376 0.17743
-0.017266 0.089198001 0.19690999
-0.011366 0.10176 0.19272
-0.011918 0.11783 0.19284999
-0.011791 0.11917 0.19265001
-0.014435 0.14402001 0.19553
-0.012666 0.14988001 0.19362999
-0.0098227998 0.16133 0.19174001
-0.0056647998 0.16283 0.18949001
-0.008014 0.16263001 0.1908
-0.0093670003 0.17398 0.19155
-0.011457 0.18667001 0.19316
-0.0098625999 0.19727001 0.19237
-0.010357 0.2014 0.19187
-0.0099921003 0.20297 0.19198
-0.0025024 0.22455999 0.18929
-0.0034858999 0.22651 0.18934999
-0.0050706002 0.23198999 0.19044
-0.0052140001 0.23064999 0.18964
0.043588001 0.23176 0.16316999
0.014242 0.23465 0.17887001
-0.0051573999 0.23479 0.19049001
-0.0046509998 0.23645 0.19029
0.013952 0.24738 0.17997999
0.012794 0.24642 0.18058001
-0.021374 0.078514002 0.19889
-0.0022054 0.079815999 0.18763
0.016635001 0.084478997 0.17745
0.016315 0.083553001 0.17718001
0.015745999 0.086084001 0.1768
0.016752001 0.085617997 0.17749
-0.01616 0.090209998 0.19684
-0.014192 0.091957003 0.19566
-0.012794 0.094366997 0.19402
-0.012359 0.096316002 0.19374
-0.016643001 0.11611 0.19595
-0.01417 0.11677 0.19456001
-0.01273 0.11719 0.19397999
-0.01061 0.11803 0.19277
-0.010758 0.1192 0.19258
-0.01216 0.12064 0.19304
-0.011856 0.12241 0.19307999
-0.012254 0.12333 0.19339
-0.012134 0.13592 0.19320001
-0.010904 0.1354 0.19221
-0.011164 0.13612001 0.19406
-0.013969 0.13917001 0.19542
-0.013959 0.15142 0.19464999
-0.012659 0.15561 0.19486
-0.010572 0.16017 0.19261999
-0.0079404004 0.16103999 0.19114
-0.0071072001 0.16255 0.19073001
-0.0054728002 0.16156 0.19006
-0.0024963 0.16326 0.1882
-0.0080672996 0.17407 0.19113
-0.0062445998 0.17423999 0.18993001
0.00017566 0.17409 0.18673
-0.0091540003 0.17567 0.19204
-0.008262 0.17542 0.19140001
-0.010873 0.17663001 0.19256
-0.0054203998 0.17653 0.1895
-0.011258 0.17869 0.19338
-0.0098724999 0.20745 0.19204
0.014387 0.21709 0.17849
0.014204 0.21641 0.17786001
-0.010105 0.22899 0.19278
0.043455999 0.23085 0.16302
0.021815 0.23924001 0.17415
0.020749001 0.2378 0.17447001
0.020939 0.23853 0.1742
0.0022072 0.24504 0.18652
-0.0078024999 0.24564999 0.19087
0.025839999 0.24525 0.17212
0.027623 0.24607 0.17236
0.0044578002 0.24671 0.18494999
0.0038115 0.24615 0.18543001
0.014914 0.24738 0.17935
-0.021257 0.059007999 0.19984999
-0.0243 0.064410001 0.20112
-0.02231 0.071264997 0.20024
-0.020323999 0.072802 0.19902
-0.019977 0.074167997 0.19862001
-0.020513 0.075636998 0.199
-0.021062 0.076440997 0.1996
-0.020476 0.079538003 0.19877
-0.019056 0.079357997 0.19856
-0.0070777 0.079639003 0.19046
0.015786 0.079388998 0.17829999
0.01654 0.079827003 0.17865001
0.017511001 0.081326 0.17831001
0.025730999 0.081863001 0.17236
-0.017816 0.087598003 0.19738001
-0.015581 0.090516999 0.1962
-0.012852 0.094717003 0.19467001
-0.011429 0.10042 0.19400001
-0.011046 0.10143 0.19373
-0.011422 0.11663 0.19375999
-0.01404 0.13638 0.19554
-0.014598 0.13806 0.19552
-0.013218 0.14117999 0.19461
-0.012287 0.14939 0.19475999
-0.013446 0.15081 0.19525
-0.013154 0.15408 0.19505
-0.011463 0.15821999 0.19377001
-0.010655 0.15955 0.19272
-0.0090907002 0.15970001 0.19222
-0.0067445999 0.16044 0.19057
-0.0067595001 0.16141 0.19055
-0.0079659997 0.16071001 0.19137999
-0.0052656 0.16109 0.19046
-0.004071 0.16249999 0.18990999
-0.0027783001 0.16329999 0.18903001
-0.0011644 0.16449 0.1876
0.00057884998 0.17455 0.18742999
-0.0072162002 0.17612 0.19129001
-0.0070758001 0.17535 0.19068
-0.0068772002 0.17605001 0.19080999
-0.0065187998 0.17697001 0.19109
-0.01157 0.17787001 0.19351
-0.01029 0.18379 0.19374999
-0.010802 0.18471 0.19401
-0.011114 0.18702 0.19396
-0.011711 0.19016001 0.19448
-0.011413 0.18874 0.19402
-0.011197 0.19157 0.19385
-0.0098575 0.19310001 0.19271
-0.0094320998 0.19580001 0.19302
-0.010388 0.20905 0.19253001
-0.0091722999 0.20902 0.19317999
-0.0096453 0.21145999 0.1927
-0.0090742996 0.21175 0.19294
0.012189 0.21489 0.18065
0.0042937999 0.21446 0.18544
0.0041486002 0.214 0.18511
0.0047972999 0.21351001 0.18505
0.0038811001 0.21412 0.18416999
0.014315 0.21712001 0.18020999
-0.0098272003 0.21684 0.19226
0.0029780001 0.21811 0.18626
0.0021013001 0.21795 0.18493
0.0021623999 0.21849 0.18516
-0.0091736 0.21922 0.19275001
-0.010116 0.21927001 0.19216
-0.010227 0.21985 0.19238999
-0.010198 0.22615001 0.19247
0.036488999 0.22626001 0.16757999
-0.0044768001 0.22932 0.19001999
-0.01115 0.23427001 0.19275001
-0.010003 0.23352 0.19317999
0.03743 0.23367999 0.16680001
0.037769001 0.23449001 0.16728
-0.0099322004 0.23507001 0.19327
-0.010283 0.23737 0.19322
0.012433 0.23699 0.18072
0.012828 0.23671 0.18089999
0.044447001 0.23777001 0.16349
0.044408001 0.23903 0.16303
-0.011534 0.23946001 0.1934
0.010998 0.23899999 0.18197
0.010671 0.23986 0.18218
0.022908 0.24028 0.17425001
0.022921 0.2394 0.17539001
0.022495 0.23983 0.1736
0.022910999 0.24070001 0.17362
0.008525 0.2423 0.18298
0.0092829997 0.24121 0.18271001
0.039074 0.24157999 0.1652
0.038738001 0.24197 0.16561
0.039694 0.24161001 0.16426
-0.010998 0.24198 0.19346
0.041717 0.24335 0.1648
0.040899999 0.24205001 0.16323
0.042911001 0.24258 0.16383
0.041818999 0.24278 0.16377001
-0.0099910004 0.24329001 0.19316
0.0012339 0.24463999 0.18719
-0.0012568 0.24526 0.18832999
0.026223 0.24510001 0.17303
0.033755999 0.24587999 0.16764
0.034984 0.24646001 0.16797
0.037415002 0.24623001 0.16661
-0.021806 0.059300002 0.20006
-0.023177 0.061308999 0.20066001
-0.023676001 0.063022003 0.20096
-0.023856999 0.068896003 0.20122001
-0.023711 0.069463 0.2006
-0.023212001 0.070366003 0.20054001
-0.021237001 0.072453 0.19977
-0.02139 0.078496002 0.19949999
0.030853 0.079255998 0.16936
0.029857 0.079177998 0.16978
0.031244 0.079056002 0.17014
-0.017821999 0.079516001 0.19752
-0.0166 0.079517998 0.19682001
-0.0052807 0.079355001 0.19013999
-0.0028689001 0.079833001 0.18888
-0.0014351 0.079599001 0.18855
0.01712 0.083167002 0.17783999
-0.017433999 0.088742003 0.19751
-0.014685 0.091573998 0.19654
-0.0136 0.093097001 0.19519
-0.012996 0.093625002 0.19463
-0.011692 0.097553 0.19411001
-0.01141 0.099122003 0.19399001
-0.016129 0.11633 0.19683
-0.016538 0.11459 0.19682001
-0.015319 0.1167 0.19618
-0.014361 0.11618 0.19554999
-0.0128 0.11642 0.19475999
-0.010493 0.11712 0.19347
-0.010218 0.11785 0.19315
-0.0097081997 0.1191 0.19271
-0.0095205 0.11935 0.19311
-0.011643 0.12558 0.19314
-0.010544 0.12482 0.19291
-0.010253 0.12623 0.19262999
-0.0098529998 0.12791 0.19239999
-0.0098738996 0.12627 0.19233
-0.01281 0.13657001 0.19513001
-0.01354 0.1399 0.19492
-0.013416 0.14177001 0.19437
-0.014 0.14245 0.1957
-0.013745 0.14509 0.19569001
-0.013072 0.14579999 0.19495
-0.012447 0.14679 0.19449
-0.01222 0.14832 0.19494
-0.013813 0.15282001 0.19546001
-0.013891 0.15352 0.19505
-0.012478 0.15662 0.19417
-0.011087 0.15683 0.1944
-0.010299 0.15816 0.19320001
-0.0078367004 0.15936001 0.19135
-0.0064917002 0.15965 0.19080999
-0.0021013001 0.16388001 0.18919
-0.0017224 0.16424 0.18855999
0.0011427 0.17117999 0.18731999
0.0011905 0.17003 0.18719999
0.00080589001 0.17400999 0.18729
0.0010383 0.17259 0.18702
-0.00038109001 0.17576 0.18790001
-0.0053361999 0.17715 0.1901
-0.0077125002 0.17694999 0.19193999
-0.0012777 0.17675 0.18833999
-0.0095261997 0.17709 0.19232
-0.010118 0.17754 0.19292
-0.0021534001 0.17716999 0.18882
-0.0041585001 0.17738999 0.18949001
-0.010119 0.17876001 0.19316
-0.0039300001 0.17861 0.18987
-0.0027185001 0.17815 0.18980999
-0.01108 0.17986 0.19393
-0.010168 0.17986 0.19341999
-0.010484 0.18153 0.19394
-0.0099179996 0.18278 0.19354001
-0.011398 0.18572 0.19412
-0.009811 0.19233 0.19305
-0.0095030004 0.19453999 0.19261999
-0.0096696997 0.19626001 0.19307999
-0.0090909004 0.19723 0.19314
-0.0092479996 0.19889 0.19282
-0.0089491997 0.20034 0.19282
-0.0089276005 0.20200001 0.19272999
-0.0090503003 0.20311999 0.19262999
-0.0094341999 0.20602 0.19302
-0.009203 0.20769 0.19294
-0.0099558998 0.21013001 0.19317
0.0096351998 0.21049 0.1822
0.010718 0.21128 0.18227001
0.010737 0.21197 0.18149
-0.0093814004 0.21292 0.19324
0.011618 0.21337999 0.18148001
-0.0097404001 0.21342 0.19317
-0.0098211998 0.21430001 0.19355001
-0.0099766999 0.21619 0.19359
0.013477 0.21624 0.18012001
-0.0091979997 0.21775 0.19284
0.014978 0.21763 0.17944001
0.015807999 0.21808 0.17891
0.0025738999 0.21928 0.18633001
0.0012904 0.22056 0.18554001
0.042103 0.21961001 0.16283999
0.042226002 0.21907 0.16412
0.042387001 0.22037999 0.16396999
0.042645 0.22183 0.16394
-0.0015524999 0.22284 0.18900999
-0.00069720001 0.22228 0.18803
-0.0092388997 0.22328 0.19326
0.036005002 0.22439 0.1682
-0.0099352002 0.22390001 0.19267
0.042769998 0.22627001 0.16369
0.042936999 0.22493 0.16399001
-0.0097807003 0.22476999 0.19267
-0.0029259 0.22595 0.18949001
-0.0035414 0.22799 0.18984
0.036979999 0.22745 0.16751
0.043320999 0.22914 0.16389
-0.0099293003 0.23025 0.19292
0.037317999 0.22959 0.16734999
0.037652001 0.23021001 0.16687
-0.0099269999 0.23172 0.19291
0.043875001 0.23351 0.16340999
-0.0050662002 0.23321 0.191
0.017704999 0.23295 0.17754
0.016339 0.23304 0.17883
0.015544 0.23389 0.17931999
0.014745 0.23443 0.1796
0.019869 0.23485 0.17673001
0.01334 0.23573001 0.18010999
0.014019 0.23513 0.18003
0.036646999 0.23631001 0.16711
0.037209999 0.23543 0.16708
0.020643 0.23612 0.17643
0.020880001 0.23668 0.17646
0.044020999 0.2377 0.1618
0.044355001 0.23634 0.16298001
0.043919999 0.23686001 0.16177
0.036293998 0.23739 0.16755
-0.0039871 0.23785999 0.19009
0.035668001 0.23799001 0.16811
0.02172 0.23767 0.17562
0.03506 0.23852 0.16838001
-0.010097 0.23915 0.19354001
-0.0025052 0.23947001 0.18933
-0.0034976001 0.23905 0.1899
-0.010904 0.24052 0.1934
0.0099561997 0.2403 0.18178
0.044346999 0.24071001 0.16333
0.033273999 0.24014001 0.16858
-0.00029036999 0.24068999 0.18779001
0.0011909 0.24106 0.18720999
0.0015171 0.24206001 0.1848
0.032212 0.241 0.17015
0.032752998 0.24054 0.16974001
0.031367999 0.24183001 0.17041001
0.043992002 0.24199 0.16328999
0.0024832999 0.24212 0.18579
0.039675001 0.24251001 0.16503
0.037439 0.24191 0.16536
0.038198002 0.24241 0.16615
0.038201001 0.24335 0.16605
0.040185001 0.24338999 0.16541
0.042913001 0.24287 0.16417
0.038578 0.24505 0.16626
6.1762999e-05 0.24422 0.18805
-0.0088163 0.24469 0.19273999
0.00077569002 0.24440999 0.1859
-0.0075071999 0.24496 0.19239999
0.021242 0.24637 0.17606001
0.021706 0.24472 0.17573
0.029904 0.24593 0.17117999
0.030304 0.24481 0.17105
-0.0074455999 0.24620999 0.19224
-0.0016676 0.24657001 0.18855999
0.036846999 0.24637 0.16764
-0.0023904999 0.24687 0.18926001
0.016065 0.24765 0.17858
-0.024797 0.065906003 0.20112
-0.024428001 0.067400001 0.20125
-0.021708 0.072159998 0.19972999
-0.010656 0.079253003 0.19321001
-0.013196 0.079089001 0.19487
-0.0098785004 0.079458997 0.19295999
-0.0035759001 0.079796001 0.18996
0.017617 0.080210999 0.1785
0.026478 0.080196001 0.1726
0.026865 0.081712998 0.17309999
0.017609 0.084397003 0.17837
-0.012127 0.095876001 0.19444001
-0.016332 0.11349 0.19679999
-0.01479 0.13793001 0.19596
-0.0089440001 0.15793 0.19272999
-0.0077106999 0.15824001 0.19208001
-0.0061797998 0.15836 0.19141001
-0.0090066995 0.17828 0.19313
-0.0051560001 0.17848 0.19084001
-0.010321 0.19182999 0.19356
-0.0090434998 0.20439 0.19307999
-0.0089004003 0.21031 0.19305
0.0014247 0.2219 0.18677001
0.0020363999 0.2203 0.18695
0.034983002 0.22359 0.16802999
0.042840999 0.22351 0.16407
-0.0098174997 0.22808 0.19310001
-0.0090672998 0.22751001 0.193
0.036986999 0.22882 0.16753
-0.0091297999 0.22927999 0.19304
-0.0090910001 0.23044001 0.19304
-0.0048313998 0.2305 0.19081999
-0.0097013004 0.23658 0.19322
-0.0045755999 0.23647 0.19024999
0.011661 0.23814 0.18131
-0.0074434001 0.24329001 0.19196001
-0.0061964998 0.2421 0.19134
-0.0062190001 0.24341001 0.19102
-0.0074963998 0.24244 0.19216999
0.039023999 0.24363001 0.1663
0.038938999 0.24444 0.16625001
0.0029525 0.24567001 0.18549
-0.0060819001 0.24624 0.1909
0.029061001 0.24675 0.17167
-0.0039492999 0.24698 0.18962
0.0056433999 0.24724001 0.18472999
0.0064043999 0.24684 0.18401
-0.020107999 0.075345002 0.19994
-0.011349 0.079338998 0.19414
-0.019889001 0.079484001 0.19921
-0.0082671996 0.07931 0.19191
-0.0049431999 0.079599999 0.19057
0.017511001 0.087545998 0.17773999
0.017951 0.086505003 0.17824
-0.014703 0.13643999 0.19615
-0.0053156 0.16027001 0.19115999
-0.0061932998 0.17846 0.19148999
-0.0076203002 0.17861 0.19230001
-0.0091545004 0.22194 0.19286001
-0.0092022996 0.22503 0.19305
-0.0090421997 0.22632 0.19283
0.043267 0.23062 0.16391
0.037739001 0.23207 0.16715001
-0.010437 0.24062 0.19382
-0.010099 0.24234 0.19363999
0.027519999 0.24546 0.17309
-0.0050367001 0.24659 0.19084001
0.0049581998 0.24769001 0.18453
-0.023994001 0.066560999 0.20194
-0.021171 0.077339999 0.19969
0.030549999 0.078790002 0.17073999
-0.015391 0.079595998 0.19634999
0.015331 0.079438001 0.17946
-0.018265 0.087194003 0.19834
-0.018486001 0.086530998 0.19848999
-0.011021 0.098848999 0.19518
-0.013345 0.14119001 0.19582
-0.01344 0.14982 0.19548
-0.010084 0.15715 0.19391
-0.0089117996 0.15682 0.19338
-0.0075925002 0.15695 0.19228999
-0.0052744001 0.15999 0.19115999
-0.0091476999 0.19459 0.19314
0.013184 0.21573 0.18103001
-0.0093809003 0.21692 0.19315
0.015837001 0.21848001 0.17948
0.016601 0.21868999 0.17901
-0.0090381997 0.22019 0.193
0.042234998 0.22022 0.16464999
0.034334 0.22287001 0.16841
0.034465 0.22175001 0.16893999
0.035163999 0.22244 0.16869
-0.0020041999 0.22392 0.1894
0.037009999 0.22538 0.16919
-0.0090640001 0.23201001 0.19295999
0.043586999 0.2317 0.16399001
-0.0090335999 0.23344 0.19345
0.018044 0.23251 0.17839
-0.0091941003 0.23514 0.1934
-0.0083956001 0.23642001 0.19355001
0.044546001 0.23777001 0.16463
0.022219 0.23846 0.17557
-0.0051126 0.24387001 0.19137
-0.0059826998 0.24439 0.19182
-0.00091095001 0.24587999 0.18954
0.0045918999 0.24631 0.18688001
0.0029815999 0.24538 0.18781
-0.0031097 0.24656001 0.19135
0.01392 0.24680001 0.18132
-0.021694001 0.059638001 0.20066001
-0.022222999 0.060070001 0.20153999
-0.023488 0.062038999 0.2013
-0.020606 0.076086998 0.20056
-0.021179 0.077039003 0.20092
0.032582 0.079172 0.16978
-0.019877 0.079501003 0.20024
-0.020710999 0.078847997 0.20112
-0.018510001 0.079244003 0.19936
-0.013656 0.079649001 0.19575
-0.0068521998 0.079309002 0.19182
0.028388999 0.080100998 0.17323001
0.027145 0.079821996 0.17328
0.018765001 0.084544003 0.17884
0.018519999 0.086115003 0.17883
-0.017276 0.089149997 0.1988
-0.017961999 0.088101998 0.19903
-0.014194 0.092137001 0.19653
-0.013357 0.093249999 0.19653
-0.015416 0.11614 0.19798
-0.014266 0.13790999 0.19716001
-0.012881 0.15267999 0.19641
-0.0045489999 0.16114999 0.19167
0.00076372002 0.17257001 0.18807
0.00099318998 0.17120001 0.1883
-0.00064435002 0.17704999 0.18963
-0.0090643996 0.17929 0.19338
-0.0071755 0.17995 0.19316
-0.010975 0.18717 0.19501001
0.010667 0.21162 0.18368
0.011181 0.21209 0.18271001
0.012205 0.21462999 0.18159001
0.016972 0.21929 0.17996
0.017254001 0.21931 0.17771
0.042252 0.21912999 0.16587999
0.018316001 0.22005001 0.17935
0.018604999 0.21994001 0.17799
0.035271998 0.22205999 0.16956
0.042762 0.2219 0.16590001
0.042936999 0.22446001 0.16481
0.042840999 0.22667 0.16473
-0.0043219002 0.22973999 0.19089
0.038107999 0.22919001 0.16833
0.014693 0.235 0.18094
-0.0084976004 0.2351 0.19348
0.012568 0.23797999 0.18258999
0.010305 0.24065 0.18318
0.044957001 0.23908 0.16461
0.044810999 0.24078 0.16483
-0.0054682 0.24257 0.19142
0.043379001 0.2431 0.16507
0.027063999 0.24326 0.17434999
0.026525 0.24314 0.17327
0.0283 0.24338999 0.17351
0.032118 0.24365 0.17158
0.031612001 0.24372 0.17016999
0.039894 0.24415 0.16591001
0.042367 0.24372 0.16595
0.031019 0.24493 0.17202
0.034320001 0.24492 0.16881
0.035117999 0.24548 0.16854
0.035863001 0.245 0.16936
-0.0054931999 0.24643999 0.19250999
-0.021001 0.058945 0.20095
-0.022616999 0.060896002 0.20132001
-0.023752 0.064121999 0.2025
-0.024367001 0.067245997 0.20220999
-0.022128999 0.071290001 0.20158
-0.021252001 0.071993999 0.20128
-0.020572999 0.072503999 0.20069
-0.019851999 0.073041998 0.20028
-0.019485001 0.074023001 0.20008001
-0.017542001 0.079613999 0.19856
-0.015835 0.079498999 0.19814
-0.0096201003 0.079337001 0.19439
-0.0048039998 0.079567 0.1917
0.01531 0.079189003 0.18057001
0.014589 0.079507001 0.17961
0.014789 0.079306997 0.18096
0.016714999 0.07982 0.17967001
0.018189 0.080064997 0.17935
0.027817 0.078971997 0.17257001
0.018598 0.086847 0.17868
0.019111 0.087820999 0.17872
-0.018549999 0.087379001 0.19949
-0.016578 0.090239003 0.19859
-0.015797 0.090916 0.19813
-0.014503 0.092013001 0.19739
-0.012233 0.095163003 0.19607
-0.011583 0.096472003 0.19586
-0.01187 0.097831003 0.19515
-0.016070999 0.11342 0.19836
-0.016031001 0.11492 0.19825
-0.013446 0.11611 0.19651
-0.010847 0.1161 0.19518
-0.014756 0.11665 0.19744
-0.0099363001 0.11659 0.19491
-0.0092874002 0.11768 0.19428
-0.0088913999 0.11896 0.19430999
-0.0082059996 0.12937 0.19204
-0.0075637 0.13074 0.19335
-0.0080126999 0.13088 0.19187
-0.014614 0.13647 0.19760001
-0.013085 0.13634001 0.19660001
-0.01335 0.1397 0.19672
-0.013178 0.14097001 0.19652
-0.013432 0.14204 0.19681001
-0.013987 0.14399 0.19731
-0.013672 0.1444 0.19683
-0.013244 0.14531 0.19631
-0.012773 0.14549001 0.19632
-0.011945 0.14669999 0.19577999
-0.011649 0.14801 0.19586
-0.012433 0.14918 0.19615
-0.01304 0.15012001 0.19636001
-0.011918 0.15384001 0.19594
-0.010795 0.15556 0.19485
-0.0094218003 0.15536 0.19426
-0.0065783998 0.15626 0.19287001
-0.0072225998 0.15544 0.19338
-0.0058872998 0.15745001 0.19295999
-0.0059921001 0.15836 0.19235
-0.0051858998 0.15995 0.19241001
-0.00093749003 0.16577999 0.18949001
-0.00094743998 0.16522001 0.18869001
0.00081945001 0.16996001 0.18791001
0.00066407002 0.16992 0.18923999
0.00092472997 0.17285 0.18864
0.00079130998 0.17445 0.18914001
2.4217001e-05 0.17565 0.18897
-0.0012991 0.17792 0.19002999
-0.0022301001 0.17857 0.19018
-0.0063029998 0.17929 0.19216
-0.0072090002 0.17899001 0.19248
-0.0060888999 0.18009 0.19238
-0.0032717001 0.17927 0.19062001
-0.0087529002 0.18001001 0.19369
-0.0031453001 0.17976999 0.19119
-0.010004 0.18020999 0.19425
-0.0044840998 0.18009 0.19171
-0.0095525002 0.18149 0.19484
-0.0097482996 0.18245 0.19454999
-0.0098002004 0.18421 0.19479001
-0.010488 0.18472999 0.19492
-0.010652 0.18568 0.19552
-0.011009 0.18881001 0.19531
-0.010776 0.19014999 0.19531
-0.010762 0.19114 0.19463
-0.0090821004 0.19236 0.1938
-0.0096493 0.19155 0.19419
-0.0083330004 0.19475999 0.1939
-0.0083068004 0.19599 0.19391
-0.0083627002 0.19708 0.19374999
-0.0079450002 0.1988 0.19362999
-0.0078496998 0.19993 0.1935
-0.0078662001 0.20187999 0.19320001
-0.0075222999 0.20286 0.19354001
-0.0080051003 0.20431 0.19307999
-0.0083521996 0.20596001 0.19357
-0.0079611 0.20744 0.19417
-0.0080931 0.21039 0.19374
-0.0083146999 0.20874 0.19392
0.0096044 0.21005 0.1839
0.010423 0.21059 0.18299
-0.007795 0.21179 0.19414
0.0057163001 0.21178 0.18626
0.0052079 0.21187 0.18471999
-0.0082307998 0.21341 0.19345
0.011494 0.2133 0.18303999
-0.0092198001 0.21476001 0.19448
0.012253 0.21437 0.18262
0.0041240999 0.21608999 0.18697
0.0037944 0.21601 0.1857
0.012714 0.21521001 0.18197
-0.0096279997 0.21641 0.19467001
0.013405 0.21604 0.18189
0.014431 0.21734001 0.18142
-0.0085875001 0.21748 0.19371
0.015308 0.21781 0.18051
0.0037159999 0.21749 0.18725
0.0036140999 0.21833 0.18735
0.0030532 0.21888 0.18752
-0.0079015 0.21908 0.19363999
0.016054999 0.21855 0.18034001
0.0027042001 0.21991999 0.18761
0.017762 0.21956 0.17903
0.0026356999 0.22087 0.18824001
0.0017539 0.22157 0.18816
-0.0082628997 0.22011 0.19341999
0.042234998 0.22211 0.16487999
-0.00048732001 0.22249 0.18982001
0.036339998 0.22367001 0.16937
0.036764 0.22455999 0.16915999
0.042358 0.22379 0.16595
0.036903001 0.22600999 0.16886
-0.0079798 0.2251 0.19349
-0.0080700004 0.22572 0.19324
-0.0021571 0.22598 0.19016001
0.042619999 0.22594 0.16619
-0.0067250002 0.22772001 0.19321001
-0.0082350001 0.22779 0.19313
-0.0070088999 0.22639 0.19338
-0.0029736001 0.22596 0.19137999
0.037698001 0.22775 0.16838001
-0.0035961999 0.22757 0.19070999
-0.0072017 0.22896001 0.19321001
-0.0041942 0.22875001 0.19096
-0.0047022002 0.22933 0.19140001
-0.0071838 0.23057 0.19276001
-0.0079899002 0.22943 0.19314
-0.0051377998 0.23054001 0.19167
0.043336999 0.23115 0.16552
0.043446999 0.23183 0.16519
-0.0075532999 0.23185 0.19278
0.017952001 0.23176999 0.17907
0.019475 0.23219 0.17787001
0.01912 0.23217 0.17795999
-0.0082858996 0.23342 0.19325
-0.0059119002 0.23209 0.19194999
0.017572001 0.23251 0.17953999
0.038582999 0.23345999 0.16777
0.016886 0.23317 0.18001001
-0.0059721 0.23341 0.19197001
0.016380999 0.23396 0.18055999
-0.0055181999 0.23489 0.19144
-0.0057779001 0.23494001 0.19231001
0.020728 0.23481999 0.17822
0.020355999 0.23331 0.17804
0.019928001 0.23402999 0.17746
0.015942 0.2344 0.18047
0.038382001 0.23496 0.16839001
0.037413001 0.2357 0.1679
-0.0042730998 0.23667 0.19144
0.013627 0.23642001 0.18196
0.014312 0.23594999 0.18174
0.037723999 0.23648 0.16857
0.043896999 0.23517001 0.16407999
0.044498999 0.23627 0.16513
-0.0033672 0.23789001 0.1911
-0.0081666997 0.23774 0.19384
0.021586001 0.23694 0.17722
0.012891 0.23748 0.1821
0.036628999 0.23748 0.16872001
0.035985999 0.23802 0.16923
0.023002001 0.23815 0.17651001
0.023467001 0.23923001 0.17623
-0.0080914004 0.23903 0.19384
-0.0092671001 0.23937 0.19372
0.034525 0.23927 0.17012
0.035532001 0.23886 0.16971
0.011701 0.23895 0.18287
0.010805 0.23991001 0.18333
-0.0082679 0.24041 0.19367
0.033539999 0.24032 0.17087001
-0.00031333999 0.2402 0.18962
-0.00096868002 0.23998 0.18996
-0.0014511 0.23986 0.18894
0.024552001 0.24067 0.17585
0.032462999 0.24102999 0.17152999
0.0099790003 0.24142 0.18382999
0.0094985003 0.24209 0.184
0.031714998 0.24155 0.1709
-0.0085490998 0.24217001 0.19343001
-0.0058475002 0.24213 0.19241001
-0.0072021 0.24153 0.19304
0.030990001 0.24196 0.17207
-0.0044061998 0.24271999 0.19185001
0.0077582002 0.24265 0.1832
0.0087797996 0.24259 0.18418001
-0.0086104004 0.24330001 0.19322
-0.0043990999 0.24298 0.19126
0.0031187001 0.24166 0.18784
0.0029617001 0.24242 0.18584
0.0083763003 0.24315999 0.18463001
0.044427998 0.24226999 0.16457
-0.0089814002 0.24359 0.19351999
0.0062607001 0.24365 0.18419001
0.0069704 0.24383 0.18547
0.0055629001 0.24355 0.18610001
-0.0084597999 0.24456 0.19316
-0.0074085002 0.24402 0.19287001
-0.00722 0.24505 0.19281
-0.0047550001 0.24503 0.19165
0.034577999 0.24354 0.17037
0.034818001 0.24473999 0.16989
0.040886 0.24372 0.16658001
0.00063412002 0.24442001 0.18881001
0.041003 0.24479 0.16651
-0.00089219998 0.24482 0.18977
0.025683001 0.24353001 0.1753
0.027075 0.24465001 0.1744
-0.0057442999 0.24546 0.19231001
0.0017881 0.24484 0.18816
0.040013 0.24548 0.16707
0.022033 0.24648 0.17719001
0.022252999 0.24485999 0.17703
0.038557 0.24609999 0.16779
-0.0068444 0.24605 0.19261999
0.030897001 0.2463 0.17238
0.029847 0.24643999 0.17285
0.037679002 0.24652 0.16852
0.036118999 0.24643999 0.16912
-0.0043045999 0.24645001 0.19163001
-0.0018905 0.24665 0.19069
-0.0025696999 0.24702001 0.19052
0.0051758001 0.24709 0.18610001
0.0060641002 0.24735001 0.18613
0.01432 0.24752 0.18144999
0.017129 0.248 0.18019
0.01822 0.24729 0.17928
-0.022871999 0.061512999 0.20228
-0.023212999 0.069720998 0.20200001
-0.023746001 0.068563998 0.20232999
-0.022541 0.070580997 0.2017
-0.010684 0.079187997 0.19469
-0.0078705996 0.079393998 0.19306
-0.0068746 0.079154998 0.19345
0.015874 0.079853997 0.18077999
0.028302001 0.079158001 0.17326
-0.002911 0.079708003 0.19113
-0.0018594 0.079984002 0.19038001
0.018557999 0.083162002 0.17912
-0.014563 0.11202 0.19754
-0.014595 0.11282 0.19702999
-0.013803 0.11393 0.19569001
-0.013652 0.11319 0.19645999
-0.011855 0.11578 0.19575
-0.0072396998 0.13357 0.19327
-0.0077279001 0.13535 0.19358
-0.007803 0.13386001 0.19182999
-0.0079151997 0.13507 0.19186001
-0.013448 0.13536 0.19701
-0.014106 0.13530999 0.19747999
-0.01198 0.13636 0.19569001
-0.010574 0.13644999 0.19546001
-0.013059 0.15128 0.19644
-0.011551 0.1552 0.19566999
-0.0086281002 0.15536 0.19365001
-0.0036347001 0.16294999 0.19126999
-0.0026167 0.1637 0.19103
-0.0085479002 0.19291 0.19419
0.011452 0.21262001 0.18363
0.0049792998 0.21347 0.18617
0.0049001002 0.21348999 0.18672
0.0045560002 0.21438999 0.18697999
-0.0085840002 0.21399 0.19419
0.013925 0.21664 0.18142
0.042169001 0.22035 0.16606
-0.0080771996 0.22191 0.19352999
0.00041012999 0.22228999 0.18906
-0.0010307 0.22330999 0.18984
-0.0017819999 0.22508 0.19068
0.043037999 0.22799 0.16504
0.043265998 0.22937 0.16497
-0.0057315999 0.22906999 0.19232
-0.0057144999 0.23048 0.19209
0.019655 0.23082 0.17842001
0.038185 0.23197 0.16788
0.018227 0.23062 0.17930999
-0.0072454 0.23322 0.19283
0.02066 0.23218 0.17797001
-0.0027898999 0.23867001 0.19081999
0.00042100999 0.24031 0.18896
0.0015914 0.24081001 0.18833999
0.043396998 0.24203999 0.16587999
0.0049743 0.24321 0.18663
0.0049203001 0.24379 0.18494999
0.028646 0.24608999 0.17349
0.013348 0.24645001 0.18158001
0.0074189999 0.24586999 0.18373001
0.0071314001 0.24715 0.18542001
0.015745999 0.2476 0.18093
-0.023337999 0.062465999 0.20212001
-0.016393 0.079558 0.1989
-0.013769 0.079324998 0.19645
-0.014434 0.079320997 0.19724999
-0.0041838 0.079533003 0.19172999
0.018415 0.081703998 0.17869
0.028315 0.081937999 0.17373
0.019078 0.086327001 0.17892
-0.015267 0.091578998 0.19829001
-0.011498 0.097664997 0.19609
-0.010682 0.10041 0.19539
-0.010869 0.10219 0.19525
-0.015547 0.1119 0.19858
-0.012078 0.11316 0.19591001
-0.00030076 0.16669001 0.18970001
0.00020655 0.16690999 0.18894
-0.0093590999 0.19051 0.1948
-0.0074451002 0.20429 0.19341999
-0.0082283001 0.22318999 0.1935
-0.0044550998 0.22795001 0.19192
0.018293999 0.22916 0.17942999
0.019685 0.22786 0.17846
0.018719999 0.22801 0.17923
0.019592 0.22927 0.17843001
0.042845 0.22904 0.1661
0.038291 0.23063999 0.16813999
0.020826999 0.23071 0.17787001
-0.0068569998 0.23480999 0.19317
-0.0053532999 0.23628999 0.19281
0.021421 0.23608001 0.17783
-0.0041259001 0.23699 0.19199
-0.0069753998 0.24089999 0.19382
0.0021035001 0.24156 0.18762
0.039848998 0.24098 0.16768
0.039670002 0.24221 0.16722
0.038982 0.24174 0.16790999
0.026067 0.24222 0.17502999
0.026365999 0.24246 0.17456
0.038706001 0.24357 0.16784
0.039833002 0.24354 0.16745
-0.0029470001 0.24383999 0.19128001
-0.0029821999 0.24507999 0.1912
0.041809998 0.24432001 0.16647001
0.0080388999 0.24626 0.18528999
-0.023816001 0.065681003 0.20286
-0.02392 0.067331001 0.20309
0.033578001 0.079472996 0.17089
-0.012063 0.079240002 0.19656
-0.0053796 0.079318002 0.19249
-0.017577 0.088615999 0.19960999
-0.0073458999 0.15423 0.19388001
-0.0081396997 0.15385 0.1943
-0.0037440001 0.16221 0.19169
0.00084282999 0.17115 0.18904001
-0.0021744 0.17964 0.19091
-0.0042698998 0.18114001 0.19242001
-0.0082623996 0.18141 0.19411001
-0.0073215002 0.1814 0.19369
-0.0083873998 0.19145 0.19462
-0.0072069 0.20581 0.19385
-0.0089827003 0.21707 0.19475999
-0.0071776002 0.21947999 0.19355001
-0.0071196002 0.22018 0.19399001
-0.0068994998 0.22353999 0.19348
-0.0068156002 0.22473 0.19362
0.042376 0.22493 0.1662
0.042668998 0.22779 0.16592
-0.0053395 0.22764 0.19277
0.020865999 0.2289 0.17825
0.02076 0.22755 0.17839999
0.044041999 0.23494001 0.1653
-0.0066253999 0.23638 0.19330999
0.041285999 0.24078999 0.16693
0.041370001 0.24191 0.16686
0.037450001 0.24369 0.16885
0.037592001 0.24207 0.1692
0.0074719 0.24366 0.18647
0.037425999 0.24525 0.16917001
0.00010076 0.24417 0.18945999
0.028065 0.24544001 0.17426001
0.039546002 0.24579 0.16763
-0.012467 0.094269 0.19670001
-0.011125 0.097521 0.19741
-0.011121 0.098399997 0.19632
-0.013021 0.1122 0.19735
-0.0075759999 0.13582 0.19384
-0.0072550001 0.13524 0.19516
-0.0077962 0.13615 0.19518
-0.013953 0.13768999 0.19869
-0.013758 0.13917001 0.1973
-0.01266 0.14074001 0.19805001
-0.013272 0.14307 0.19812
-0.0092284 0.15460999 0.19498999
-0.010761 0.15418001 0.19592001
-0.0035798999 0.1812 0.19179
-0.0050855 0.18182001 0.19277
-0.0088028004 0.19045 0.19490001
-0.0074092001 0.20045 0.19396999
-0.0071459999 0.20302001 0.19423001
-0.0070723002 0.20475 0.19462
-0.0064768 0.21156999 0.19471
0.042197 0.22023 0.16683
-0.0067089 0.22187001 0.19363999
0.019915 0.2262 0.17887001
-0.0045236 0.22686 0.19235
-0.007154 0.23759 0.19379
0.00028673999 0.23999 0.1902
0.026391 0.24183001 0.17622
0.0040531 0.24292 0.18726
0.036254998 0.24312 0.16966
0.035960998 0.24202 0.16994999
0.01183 0.24378 0.18276
0.010124 0.24345 0.18238001
0.010702 0.24382 0.18373001
0.038862001 0.24495 0.16875
-0.0013826001 0.24511001 0.19106001
0.029586 0.24600001 0.17485
-0.021499 0.059760999 0.20269001
-0.023683 0.064553 0.20422
-0.023649 0.067264996 0.20398
-0.021497 0.071349002 0.20281
-0.020213 0.072463997 0.20245001
-0.019371999 0.074491002 0.20182
-0.019929999 0.076121002 0.20184
0.015876999 0.079534002 0.18169001
-0.015406 0.079742 0.19914
0.016752999 0.079410002 0.18170001
0.017735999 0.079603001 0.18144
0.019401001 0.081796996 0.17934
0.028395001 0.083118998 0.17394
0.027192 0.083636999 0.17366
0.028421 0.084380001 0.17411999
0.019931 0.085643999 0.17963
-0.017673999 0.088974997 0.20091
-0.013037 0.093489997 0.19801
-0.012289 0.094607003 0.19785
-0.015094 0.1157 0.19885001
-0.011407 0.11585 0.19717
-0.01011 0.11581 0.19637001
-0.0096736997 0.11664 0.1961
-0.0087585002 0.1193 0.19591001
-0.011764 0.13595 0.1965
-0.011318 0.13500001 0.1969
-0.0083291 0.13682 0.19374999
-0.01367 0.13902999 0.19874001
-0.013031 0.13964 0.19802
-0.011306 0.15345 0.19654
-0.0056122998 0.15726 0.19397999
-0.0055955001 0.1568 0.19441
-0.0048440001 0.16044 0.19288
-0.0029237 0.16417 0.19238999
-0.00031842999 0.16709 0.19107001
0.00020999 0.16824 0.18999
0.00045657999 0.16892999 0.18904001
2.0375999e-05 0.16862001 0.19070999
0.0011537001 0.1727 0.19054
0.00071937998 0.17524 0.1901
-0.0022787999 0.18057001 0.19175
-0.0067111999 0.18245 0.19407
-0.0076358002 0.18279999 0.19487
-0.0099905999 0.18855999 0.19608
-0.0076136002 0.19006 0.19492
-0.0073042 0.19154 0.19504
-0.0075524002 0.19586 0.19497
-0.0072146999 0.19429 0.19487
-0.0069094002 0.20136 0.19449
0.0055153999 0.21231 0.18758
-0.0063781999 0.2131 0.19482
0.0054370002 0.21338999 0.18787999
0.011858 0.2132 0.18436
0.012405 0.2147 0.18377
0.013702 0.21612 0.18336999
0.014489 0.21787 0.18263
0.016549001 0.21875 0.18163
-0.0063831001 0.22029001 0.19396
-0.0062047001 0.22178 0.1938
0.042615999 0.2235 0.16751
-0.0023089 0.22515 0.19136
-0.0016683 0.22464 0.19134
-0.0059643001 0.22543 0.19333
0.04273 0.22482 0.16745999
0.019319 0.22616 0.18024001
0.037964001 0.22619 0.16992
-0.0052348999 0.22615001 0.19294
-0.0045571001 0.22569001 0.19266
0.02059 0.22631 0.17873
0.038178001 0.22745 0.1699
0.018754 0.22657999 0.17983
0.018666999 0.22763 0.18046001
0.037930999 0.22838999 0.16897
0.021906 0.22741 0.17900001
0.043483 0.2289 0.16689
0.043187998 0.23010001 0.16643
0.021765999 0.23197 0.1787
0.044484999 0.23357999 0.16616
0.043699 0.23356 0.16511001
0.039051998 0.23492999 0.16958
0.044213999 0.23609 0.16585
0.044447999 0.23511 0.16622999
0.044599999 0.23691 0.16552
0.022294 0.23643 0.17839
0.038277 0.23641001 0.16956
-0.0028021999 0.23808999 0.19198
0.03689 0.23820999 0.17042001
-0.0010379 0.23936 0.19176
0.036183 0.23845001 0.17027999
0.012003 0.23907 0.18398
0.040585 0.24092001 0.16843
0.010639 0.24132 0.18536
0.042203002 0.24090999 0.16677
0.027417 0.24268 0.17574
0.0063144998 0.24343 0.18754999
0.03145 0.24431001 0.17220999
-0.0022440001 0.24417999 0.19117001
0.0025146999 0.24471 0.18966
0.014038 0.24620999 0.18308
0.015338 0.24715 0.18231
0.016697999 0.24748001 0.18192001
0.017533001 0.24762 0.18088
-0.020920999 0.059480999 0.20236
-0.02042 0.058665998 0.20194
-0.023297001 0.068980999 0.20377
-0.022405 0.070338003 0.20348001
-0.019482 0.073216997 0.20192
-0.020597 0.077431999 0.20235001
-0.020376001 0.078566998 0.20207
-0.01128 0.079177 0.19721
0.015408 0.079338998 0.18227001
0.030354001 0.080343001 0.17384
-0.01926 0.079496004 0.20139
-0.017988 0.079508997 0.20085999
-0.012884 0.079441004 0.198
-0.019339999 0.079836003 0.20164999
0.018897999 0.079674996 0.17994
0.020354001 0.079925999 0.17986999
0.030041 0.082299002 0.1742
0.029254001 0.081276 0.17398
0.029340001 0.083258003 0.17414001
0.029402001 0.084619001 0.17445999
0.020241 0.084499002 0.17987999
0.020359 0.083095998 0.18008
0.020260001 0.087461002 0.17971
-0.017552 0.085849002 0.20067
-0.018510999 0.086081997 0.20167001
-0.018890001 0.087346002 0.20130999
-0.018291 0.087586999 0.20048
-0.013786 0.092862003 0.1987
-0.011877 0.096211001 0.19733
-0.011136 0.098926999 0.19716001
-0.010873 0.10048 0.19661
-0.010171 0.10183 0.19656
-0.015616 0.11061 0.19904999
-0.015995 0.11213 0.19975001
-0.010329 0.11215 0.19531
-0.010662 0.11134 0.19618
-0.011394 0.11182 0.19659001
-0.015915001 0.11344 0.20002
-0.015830999 0.11376 0.19931
-0.01557 0.11516 0.19938999
-0.013845 0.11601 0.19823
-0.012598 0.11595 0.19822
-0.0090111 0.11768 0.19588
-0.0078115999 0.12767 0.19468001
-0.0077666002 0.12653001 0.19396999
-0.0081158997 0.12621 0.19487
-0.0069517 0.13373999 0.19445001
-0.014159 0.13508999 0.19858
-0.013012 0.13451999 0.19763
-0.014328 0.13661 0.19897
-0.01016 0.13516 0.19622999
-0.0095164003 0.13708 0.19468001
-0.0091265002 0.13615 0.19527
-0.012993 0.14229999 0.19817001
-0.013681 0.14375 0.19825999
-0.012764 0.14508 0.19801
-0.011539 0.14827999 0.1974
-0.011567 0.14669 0.19721
-0.011948 0.14892 0.1973
-0.012276 0.14966001 0.19763
-0.012676 0.15110999 0.19767
-0.012346 0.15225001 0.19780999
-0.011527 0.15277 0.1973
-0.010276 0.15353 0.19611999
-0.0077101998 0.15333 0.19474
-0.0068198 0.15415999 0.19469
-0.0091375997 0.15352 0.19562
-0.0059721 0.15559 0.19399001
-0.0050712 0.15966 0.1936
-0.0053595002 0.15814 0.19395
-0.0034245001 0.16255 0.19279
-0.0030811999 0.16311 0.19215
-0.0011061 0.16517 0.19169
-0.00085861998 0.16627 0.19062001
0.00047413001 0.16964 0.19019
0.00089168001 0.17395 0.19041
0.00067406998 0.17541 0.19093999
0.00010127 0.17696001 0.19099
-0.00067723001 0.17806 0.19098
-0.00087375002 0.17887001 0.19137
-0.0017824 0.17986999 0.19191
-0.0025613001 0.1814 0.19227
-0.0038697999 0.18172 0.19230001
-0.0038290999 0.18266 0.19296999
-0.0086350003 0.18301 0.19547001
-0.0090490999 0.18435 0.1957
-0.010068 0.18545 0.19616
-0.0097575998 0.18731999 0.19645999
-0.0089523997 0.18883 0.19553
-0.0073945001 0.1925 0.19498
-0.0072345999 0.19713999 0.19491
-0.0067731999 0.20611 0.19484
-0.006606 0.20751999 0.19441
-0.0073372 0.20897999 0.19458
0.0088753002 0.2101 0.18584
0.0099056996 0.21043 0.18547
-0.0071903002 0.21010999 0.1946
0.010398 0.2113 0.18523
0.0060521001 0.21201 0.18759
0.0077475002 0.21028 0.18645
0.010797 0.21201999 0.18486001
-0.0076543 0.21448 0.19537
-0.0072526 0.21365 0.19441
-0.0085645998 0.21578 0.19588
-0.0086730001 0.2147 0.19532999
0.0047391001 0.21596999 0.1885
0.004431 0.21729 0.18821999
0.014258 0.21701001 0.18313999
-0.0086145997 0.2176 0.19571
-0.0081785005 0.21791001 0.19531
-0.0069952998 0.2184 0.19479001
-0.0063751 0.21907 0.19435
0.0036682 0.21874 0.18866999
0.017161001 0.21954 0.18094
0.0026445 0.22021 0.18934
0.017983001 0.22005001 0.18081
0.0021327001 0.22154 0.18956
-0.0059334999 0.22267 0.19385999
0.042183999 0.22195999 0.16709
0.0013889 0.22189 0.19056
0.00029833999 0.22233 0.19054
0.035918999 0.22214 0.17067
-0.00050536997 0.22256 0.19070999
-0.0016773 0.22296 0.19165
0.036704 0.22321001 0.17073999
-0.0052187 0.22326 0.1936
-0.0059906999 0.22457001 0.19365001
0.037060998 0.22446001 0.17056
-0.0052336999 0.22484 0.19348
-0.0027077 0.22491001 0.19205
0.037436999 0.22521999 0.17038
0.020321 0.22504 0.17979001
0.019926 0.22576 0.17907999
-0.0038473001 0.22485 0.19281
0.021284999 0.22614001 0.17882
0.042605001 0.22612 0.16749001
0.043122001 0.2279 0.16711999
0.021395 0.22938 0.17891
0.039023001 0.22905 0.16953
0.022056 0.23051 0.17884
0.018278001 0.23022 0.18020999
0.018456001 0.22916 0.18057001
0.039515 0.23097999 0.16955
0.044064 0.23029 0.16663
0.039283998 0.23194 0.16911
0.044323001 0.23171 0.16636001
0.018164 0.23188999 0.18065
0.039246 0.2335 0.16906001
0.021646 0.23351 0.17892
0.017589999 0.2334 0.18124001
0.022128001 0.23587 0.17878
0.014605 0.23571 0.18264
0.021555999 0.23537999 0.17905
-0.0062095998 0.23783 0.19383
-0.0039288001 0.23776001 0.19288
-0.0048183999 0.23779 0.19348
0.014137 0.23643 0.18342
0.037705999 0.23732001 0.17005
0.012854 0.23777001 0.18382999
0.023924001 0.23897 0.17731
0.023571 0.23825 0.17783999
0.044766001 0.23875 0.16553999
0.0449 0.23766001 0.16553999
0.035463002 0.23943999 0.17152999
0.044190001 0.23910999 0.16566999
-0.0061205998 0.2392 0.19385999
0.011518 0.2394 0.18436
-0.0070345998 0.23992001 0.19382
0.034102 0.24008 0.17218
-0.0061312001 0.24055 0.19379
0.042838998 0.23902 0.16699
0.044294 0.24111 0.16564
0.01111 0.24064 0.18482
0.041076001 0.24022 0.16793001
0.04194 0.23936 0.16797
0.042815 0.24056999 0.16659001
0.033027999 0.24078999 0.17282
-0.0049755001 0.24101999 0.19401
-0.0050257002 0.24167 0.19344001
0.031622998 0.24165 0.17355999
0.039446998 0.24152 0.16925
0.0099545 0.242 0.1858
0.036607001 0.24162 0.17054
0.037900001 0.24165 0.16976
0.042142 0.24183001 0.16662
0.042679999 0.24232 0.16663
-0.0037352999 0.24202 0.19315
0.035225999 0.24234 0.17123
-0.0023475999 0.24303 0.19238999
0.034745999 0.24258 0.17202
0.033847999 0.24305999 0.17207
0.041248001 0.24360999 0.16756
0.042548001 0.24355 0.16703001
0.0050098998 0.24293 0.18790001
0.032923002 0.24338999 0.17261
-0.0013841999 0.24322 0.19117001
0.0091036996 0.24349 0.18605
0.012862 0.2436 0.18425
0.040640999 0.24394999 0.16802999
2.4737999e-05 0.24349 0.19096
-0.00019642001 0.24419001 0.19033
0.0010628999 0.24361999 0.18994001
0.031907 0.24419001 0.17329
0.040509 0.24485999 0.16829
0.027784999 0.2449 0.1754
0.026295001 0.2439 0.17608
0.03156 0.24518 0.17369001
0.0035836 0.24552 0.18849
0.041386999 0.24468 0.16752
0.039175 0.24507999 0.16865
0.028961999 0.24562 0.17452
0.038134001 0.2457 0.16941001
0.039880998 0.24603 0.16847999
0.013254 0.24535 0.18237001
0.038341999 0.24621999 0.1691
0.030215001 0.2464 0.1743
0.039209001 0.24587999 0.16892999
0.0086914003 0.24604 0.1864
0.031163 0.24654999 0.17361
0.0055636 0.24649 0.18798
0.0062051001 0.24719 0.18756001
0.0075113 0.24680001 0.18688001
0.021429 0.24707 0.17924
0.019626999 0.24696 0.17817999
0.020466 0.24722999 0.17935
0.019205 0.24752 0.18049
-0.022467 0.061361 0.20345999
-0.023635 0.066210002 0.2041
-0.023356 0.068228997 0.204
-0.019452 0.075240001 0.20149
-0.0099748001 0.079079002 0.19645
-0.0076891002 0.079342999 0.19536
0.019202 0.079364002 0.18027
-0.016589999 0.079462998 0.20031001
-0.0039630998 0.079645999 0.19339
-0.0027475001 0.079614997 0.19196001
-0.016838999 0.085630998 0.19977
-0.017353 0.085669003 0.19888
-0.015035 0.085794002 0.19938999
-0.013383 0.13395 0.19876
-0.012383 0.13386001 0.19836
-0.0042669 0.16118 0.19311
0.00095059001 0.17139 0.19017
-0.0049001998 0.1831 0.1934
-0.0077419002 0.18856999 0.19538
0.011984 0.21382999 0.18392999
0.0048357002 0.21443 0.18801001
0.042160001 0.21885 0.16788
0.042095002 0.21890999 0.16727
-0.0047583999 0.22058 0.19412
0.018917 0.22077 0.18064
-0.0048552002 0.22182 0.19392
-0.0037203999 0.22308999 0.19321001
-0.0026157999 0.22336 0.19245
0.021330001 0.22476999 0.17896
0.016853999 0.23405001 0.18159001
0.015189 0.23529001 0.18234
0.016042 0.23441 0.18185
0.044137001 0.2377 0.16615
0.013249 0.23728999 0.18365
0.043051001 0.23761 0.16698
-0.00025387001 0.23968001 0.19091
0.0011494 0.2404 0.19031
0.0024528001 0.24117 0.18941
0.011538 0.24367 0.18461999
0.0092284 0.24533001 0.18557
-0.023084 0.062537 0.20361
-0.0088155996 0.079221003 0.19578999
0.020265 0.081706002 0.18004
0.030232999 0.083618999 0.17443
-0.011738 0.095696002 0.19841
-0.011747 0.096124001 0.1991
-0.011515 0.10902 0.19731
-0.010751 0.10913 0.19638
-0.010235 0.10766 0.19652
-0.015654 0.11058 0.20015
-0.013823 0.11567 0.19922
-0.0089766998 0.12964 0.19606
-0.0090933004 0.12812001 0.19597
-0.010084 0.12837 0.19664
-0.0099462001 0.13422 0.19647001
-0.01126 0.13452999 0.19735999
-0.0088154003 0.13526 0.19581001
-0.0084483996 0.1339 0.1961
-0.0096457005 0.15301999 0.19673
-0.0086292 0.15295 0.19602001
-0.0075552999 0.15260001 0.19557001
-0.001806 0.16489001 0.19222
-0.0020423001 0.16444001 0.19148999
-0.00089048001 0.16683 0.19192
-0.0024842999 0.18256 0.19292
-0.0061789998 0.18426999 0.19445001
-0.0075428998 0.18443 0.19519
-0.0091129001 0.18558 0.19591001
0.043531001 0.19602001 0.16848999
0.043271001 0.19558001 0.16701999
0.043404002 0.19694 0.16689999
-0.0072325999 0.19882999 0.19532
-0.007003 0.20036 0.19481
-0.0068489001 0.20322999 0.1952
-0.0068310001 0.20895 0.19494
-0.0064415 0.21036001 0.19529
0.013274 0.21544001 0.18407001
0.0046275998 0.21805 0.18900999
0.015287 0.21829 0.18257
0.0029680999 0.21909 0.18987
0.042335 0.22040001 0.16780999
0.042491 0.22169 0.16774
-0.0010153 0.22239 0.19159999
0.042353 0.22271 0.16766
0.019508 0.2252 0.18055999
0.038945001 0.22758 0.16979
0.018310999 0.23068 0.18091001
0.043419 0.23655 0.1674
-0.0050094998 0.23923001 0.19378
-0.0025681001 0.23855001 0.19284999
0.0031953 0.24102999 0.19054
0.0041291998 0.24201 0.1885
0.038077001 0.24150001 0.16983999
0.0096111996 0.24275 0.18579
-0.002874 0.24278 0.19301
0.0022978 0.24395999 0.19029
0.013951 0.24553999 0.18370999
-0.022783 0.068299003 0.2054
0.020509999 0.079204999 0.18048
0.019669 0.079579003 0.18142
-0.017232999 0.079437003 0.20032001
-0.015025 0.10918 0.19919001
-0.016100001 0.11467 0.20031001
-0.011156 0.12402 0.19788
-0.010404 0.1252 0.19612999
-0.0099584004 0.12384 0.19698
-0.01347 0.12796 0.19893999
-0.012549 0.12619001 0.19799
-0.013523 0.12647 0.19881999
-0.0074461 0.1339 0.19529
0.00086887 0.17127 0.19119
-0.0045471 0.18431 0.19394
-0.0089934999 0.18681 0.19588999
-0.0073557999 0.18572 0.19528
-0.0072283 0.18673 0.19549
-0.0067359 0.19457 0.19564
0.011776 0.2133 0.18573999
0.014946 0.21748 0.18466
-0.0024870001 0.22220001 0.19276001
0.020741999 0.22319999 0.18039
0.021610999 0.22336 0.17963
0.015904 0.23503999 0.1839
-0.0034976001 0.23897 0.19348
0.042447001 0.23815 0.16836999
0.012979 0.23874 0.18559
0.025250999 0.24058001 0.17701
0.018610001 0.24766 0.18244
0.017371999 0.24727 0.18303999
-0.020883 0.071562998 0.20403001
