# .PCD v0.7 - Point Cloud Data file format
VERSION 0.7
FIELDS x y z
SIZE 4 4 4
TYPE F F F
COUNT 1 1 1
WIDTH 1542
HEIGHT 1
VIEWPOINT 0 0 0 1 0 0 0
POINTS 1542
DATA ascii
0.060879 0.022795999 0.28182
0.13748001 0.022694999 0.24207
0.093106002 0.023441 0.26438999
0.094347 0.022942999 0.26409
0.095316999 0.022562001 0.26298001
0.061104 0.022466 0.28176001
0.1105 0.023118 0.25667
0.11013 0.024132 0.25643
0.072856002 0.023558 0.27513999
0.070772998 0.022994 0.27614999
0.071851 0.024512 0.27616
0.15886 0.022991 0.23165999
0.15789001 0.023351001 0.2317
0.13765 0.023414001 0.24192999
0.10848 0.024297001 0.25753999
0.10938 0.023611 0.25749001
0.10798 0.023779999 0.25734001
0.15678 0.025001001 0.23148
0.093842 0.02424 0.26482999
0.072521999 0.024995999 0.27608001
0.061806001 0.024420001 0.28022999
0.15519001 0.025288999 0.23199999
0.15643001 0.025110999 0.23225001
0.13629 0.023852 0.24259
0.1363 0.025741 0.24335
0.1078 0.024806 0.2581
0.072732002 0.026007 0.27531001
0.072820999 0.024896 0.27559999
0.15527999 0.025465 0.23377
0.092092998 0.026422 0.26620999
0.091006003 0.025968 0.26631999
0.061437 0.026742 0.27987
0.061303999 0.024660001 0.28112999
0.061657 0.025992 0.28046
0.074276999 0.026899001 0.27526
0.072397999 0.025589 0.27516001
0.10754 0.024777001 0.25709999
0.10785 0.026928 0.25799
0.10625 0.025676999 0.25734001
0.10775 0.027077001 0.25810999
0.091333002 0.027403999 0.26688001
0.15558 0.026087999 0.23395
0.15301999 0.026795 0.23451
0.10543 0.026438 0.25869
0.15315001 0.026504001 0.23442
0.15322 0.02833 0.2344
0.13700999 0.027536999 0.24363001
0.076401003 0.02832 0.27419999
0.073440999 0.027474999 0.27381
0.063225999 0.027068 0.28088999
0.10688 0.027306 0.25828001
0.10515 0.027037 0.25825
0.090925001 0.028349999 0.26391
0.091015004 0.027945001 0.26517999
0.090020001 0.028996 0.26675001
0.091721997 0.029847 0.26541999
0.13784 0.029588001 0.24133
0.10584 0.027918 0.25915
0.075969003 0.029449999 0.27484
0.090259999 0.029766001 0.26715001
0.075078003 0.030115999 0.27339
0.13743 0.02936 0.24289
0.10423 0.028324001 0.25931001
0.088509001 0.029213 0.26868999
0.063450001 0.029858001 0.28009999
0.15233999 0.028419999 0.23541
0.10345 0.029275 0.25979
0.10243 0.029305 0.26008001
0.090148002 0.03091 0.26693001
0.091647997 0.030983999 0.26659
0.090650998 0.02947 0.26633999
0.063561998 0.029014001 0.28007001
0.087935001 0.030375 0.26841
0.15238 0.029448999 0.23593
0.10167 0.029633 0.25968999
0.1024 0.0306 0.26104999
0.10211 0.029394999 0.26043001
0.09217 0.031151 0.2665
0.091315001 0.030114001 0.26620001
0.088602997 0.030525001 0.26637
0.076338001 0.030608 0.27349001
0.076742999 0.030957 0.27271
0.15165 0.030531 0.23614
0.15119 0.029495999 0.23562001
0.13804001 0.031319998 0.24093001
0.13792001 0.031066 0.24146999
0.091789 0.030528 0.26592001
0.089524999 0.030286999 0.26694
0.088451996 0.030791 0.26758
0.087361 0.030499 0.26743001
0.088444002 0.030547 0.26677001
0.077964999 0.03052 0.27309999
0.065049 0.028771 0.27965
0.064838998 0.030417001 0.27934
0.10011 0.031753 0.26194999
0.10018 0.029685 0.26177999
0.099570997 0.030362001 0.26067999
0.095973 0.029972 0.26313999
0.095214002 0.030567 0.26372001
0.095905997 0.030766999 0.26381001
0.091649003 0.031445 0.26594999
0.079048999 0.032225002 0.27200001
0.076650999 0.029603001 0.27379999
0.075079001 0.031615 0.27331999
0.10171 0.029371999 0.26012999
0.094988003 0.031047 0.26468
0.077262998 0.031773001 0.27302
0.075243004 0.030447001 0.27432001
0.065408997 0.030283 0.27998
0.099431999 0.030598 0.26188999
0.083535001 0.032065999 0.27096999
0.081410997 0.033624001 0.27142
0.081107996 0.032217 0.27109
0.14930999 0.030893 0.23583999
0.099628001 0.031890001 0.26238
0.098480001 0.031583 0.26207
0.097654998 0.031268001 0.26311001
0.098237999 0.031413 0.26234999
0.094573997 0.030885 0.26411
0.095852003 0.031273 0.26313999
0.094265997 0.031567 0.26510999
0.088281997 0.032439001 0.26785001
0.088403001 0.031723 0.26826999
0.087151997 0.031941999 0.26835999
0.086460002 0.031337 0.26892999
0.079645999 0.031741999 0.27261999
0.077983998 0.031890001 0.27296999
0.067380004 0.031907 0.27834001
0.065475002 0.030902 0.27788001
0.066630997 0.031831 0.27891999
0.067165002 0.030893 0.27991
0.097905003 0.031129001 0.26335001
0.086861998 0.032784998 0.26857999
0.082501002 0.033098001 0.26998001
0.082709 0.032437 0.27068999
0.079159997 0.031851999 0.27210999
0.079042003 0.031408999 0.27265999
0.077872001 0.032917999 0.27243999
0.067567997 0.032140002 0.27761999
0.067075998 0.031913001 0.27816999
0.089032002 0.034361001 0.26723
0.088365003 0.032632999 0.26714
0.08805 0.031569 0.26743999
0.085202999 0.032885998 0.26745999
0.080976002 0.032729 0.27111
0.080107003 0.033484999 0.27149999
0.078244999 0.032419 0.27325001
0.077806003 0.033257999 0.27318001
0.097133003 0.032164 0.26245999
0.095968999 0.031017 0.26293999
0.13926999 0.033852 0.24179
0.13768999 0.034150001 0.24172001
0.138 0.031578001 0.24233
0.093121 0.032412 0.26481
0.095298 0.032210998 0.26480001
0.093653999 0.032901999 0.26466
0.092311002 0.033953 0.26552001
0.091973998 0.032674 0.26429
0.092258997 0.031769998 0.26515001
0.092378996 0.033220999 0.26569
0.085101001 0.034752 0.26971999
0.084440999 0.033700999 0.27006999
0.082275003 0.033344001 0.27076
0.080073997 0.034993 0.2719
0.068131998 0.032053001 0.27822
0.068338998 0.031776 0.27807
0.090829998 0.032379001 0.26559001
0.091199003 0.032818999 0.26572001
0.088854 0.033555001 0.26712
0.089693002 0.033273 0.26675999
0.085745998 0.033643 0.26818001
0.081194997 0.033689 0.27153999
0.080597997 0.033282999 0.27070999
0.078933999 0.034023002 0.27298
0.077542 0.035009 0.27320001
0.14799 0.034031998 0.23677
0.14741001 0.032956999 0.23711
0.13758001 0.033668999 0.2429
0.089878 0.034286998 0.26706001
0.088467002 0.031803001 0.26686001
0.089451998 0.034609001 0.26644
0.084974997 0.033778999 0.26865
0.085582003 0.035450999 0.26885
0.080909997 0.034685999 0.27217999
0.078934997 0.034363002 0.27329999
0.068259999 0.033016 0.27728999
0.082060002 0.034878001 0.27140999
0.080863997 0.034534 0.27134001
0.077558003 0.035574999 0.27256
0.072975002 0.033619002 0.27592999
0.073103003 0.032446999 0.27601001
0.071606003 0.035151001 0.27614999
0.089504004 0.034855999 0.26758999
0.077973999 0.035386998 0.2726
0.073123001 0.033810999 0.27566001
0.074569002 0.034497 0.27408001
0.074543998 0.033403002 0.27559
0.072306 0.034635998 0.27616999
0.071989 0.034155998 0.27621001
0.071716003 0.034146 0.2764
0.071128003 0.03424 0.27614
0.071226999 0.034428 0.27588999
0.069361001 0.0337 0.27711001
0.068846002 0.033803999 0.27700999
0.06972 0.033365 0.27867001
0.078498997 0.035778999 0.27243
0.076263003 0.035992 0.27416
0.078236997 0.035907999 0.27429
0.075795002 0.035822999 0.27329001
0.069642998 0.03545 0.27732
0.13889 0.035896 0.24236
0.070708998 0.036003001 0.27662
0.080241002 0.036407001 0.27160999
0.071672998 0.036185 0.27535999
0.077864997 0.036003999 0.27335
0.075874999 0.036392 0.27429
0.071759 0.035723001 0.27608001
0.072806999 0.036555 0.27469
0.13677999 0.036853001 0.24179
0.13489 0.036192 0.24302
0.080750003 0.036663 0.27248001
0.078705996 0.036006 0.27210999
0.079034999 0.036024 0.27315
0.075989999 0.035704002 0.27329999
0.073564999 0.036743 0.27513
0.073660001 0.035046 0.27546
0.073974997 0.036169 0.27519
0.073377997 0.036683999 0.2757
0.081124999 0.035757001 0.27147001
0.079182997 0.036906 0.27158999
0.076934002 0.035999 0.27296001
0.075175002 0.036511999 0.27502999
0.075654998 0.037066001 0.27373001
0.075346 0.036619999 0.27366999
0.076875001 0.037654001 0.27351999
0.078451 0.037227999 0.27296001
0.1356 0.039142001 0.24443001
0.12988999 0.039568 0.24592
0.12941 0.038770001 0.24571
0.13454001 0.041078001 0.24405999
0.13432001 0.038984999 0.243
0.12891001 0.041728001 0.24625
0.12910999 0.041136 0.24602
0.12921 0.042245999 0.24590001
0.13000999 0.042452998 0.24590001
0.12965 0.044119 0.24677999
0.12991001 0.043505002 0.24694
0.12906 0.044716001 0.24725001
0.12898 0.044018 0.24680001
0.12796 0.046925001 0.24710999
0.12775999 0.045175001 0.24703
0.12668 0.046218999 0.24656001
0.12858 0.047865 0.24732
0.12849 0.047525 0.24725001
0.1287 0.048512001 0.24620999
0.12841 0.050510999 0.24713001
0.12964 0.049052998 0.2472
0.12845001 0.050349001 0.24731
0.12761 0.051249001 0.24788
0.12664001 0.049768999 0.24807
0.12818 0.051392 0.24559
0.12669 0.051731002 0.24733999
0.12773 0.051553 0.24790999
0.1283 0.052937001 0.2484
0.12935001 0.052784 0.24673
0.12864999 0.053955998 0.24579
0.12939 0.052423999 0.24657001
0.12849 0.052724998 0.24714001
0.12797999 0.054065 0.24643999
0.12955 0.055452999 0.24684
0.12953 0.055511001 0.24733
0.12935001 0.056809001 0.24688999
0.13016 0.057482999 0.24471
0.13101999 0.056217998 0.24553999
0.13247 0.059051 0.24384999
0.13416 0.058118001 0.2447
0.13213 0.060238998 0.24484
0.13105001 0.061351001 0.24450999
0.13174 0.062408999 0.24482
0.13293 0.064336002 0.24496999
0.13212 0.065164 0.24566001
0.13097 0.065504998 0.24552999
0.17346001 0.067768 0.22445001
0.17436001 0.068107001 0.2251
0.13384999 0.068117 0.24421
0.13497999 0.068770997 0.24252
0.13286 0.068295002 0.24534
0.13358 0.067041002 0.24436
0.133 0.066186003 0.24381
0.13183001 0.068099998 0.24465001
0.13082001 0.068049997 0.24528
0.13054 0.067570001 0.24642
0.13510001 0.070056997 0.24251001
0.13530999 0.069574997 0.24314
0.13565999 0.069640003 0.24377
0.13482 0.068966001 0.24391
0.13687 0.070854001 0.24285001
0.13832 0.070707001 0.24318001
0.13589001 0.071291998 0.24231
0.1383 0.070775002 0.24225999
0.17768 0.071523003 0.22116999
0.1473 0.070317 0.23603
0.13862 0.071745001 0.24199
0.17802 0.071618997 0.22184999
0.16487999 0.070528001 0.2282
0.16582 0.070598997 0.22830001
0.15904 0.071089998 0.23106
0.14958 0.070730999 0.23617999
0.13823 0.071850002 0.242
0.13785 0.070712999 0.24118
0.17707001 0.072053999 0.22134
0.16372 0.071695 0.229
0.16389 0.071539998 0.22908001
0.1603 0.071363002 0.22996999
0.16023999 0.072022997 0.22993
0.15981001 0.070100002 0.23026
0.15685 0.070753999 0.23306
0.15102001 0.070938997 0.23616
0.15053 0.071262002 0.23512
0.13665 0.071855001 0.24239001
0.13567001 0.071856998 0.24239001
0.13663 0.072264999 0.24379
0.15263 0.072082996 0.23384
0.1525 0.071436003 0.23481999
0.17957 0.072067 0.22093
0.17929 0.073142998 0.22078
0.13654999 0.072953001 0.24347
0.13663 0.074675001 0.24269
0.13549 0.073397003 0.24395999
0.045944002 -0.053172 0.28939
0.045343 -0.052560002 0.28898999
0.044895001 -0.051290002 0.28823999
0.043818001 -0.052407999 0.28983
0.044300999 -0.054087002 0.28856
0.044307001 -0.053396001 0.28964999
0.043473002 -0.052666999 0.29039001
0.043081 -0.053459 0.29107001
0.040569998 -0.049311999 0.29179999
0.041903999 -0.050427001 0.29242
0.040628001 -0.050069999 0.29186001
0.040143002 -0.047908999 0.29172
0.039648 -0.046565 0.29177001
0.039315999 -0.045743998 0.29146001
0.038578998 -0.046617001 0.29245999
0.039120998 -0.045370001 0.29244
0.039930999 -0.042913001 0.29124001
0.037974998 -0.044296 0.29253
0.040027 -0.043563001 0.29207
0.11709 -0.044473 0.25237
0.11434 -0.041972 0.25393
0.11364 -0.041544002 0.25453001
0.039655 -0.042456999 0.29234001
0.039448999 -0.039875001 0.29243001
0.11167 -0.039377999 0.25518
0.040927999 -0.039163999 0.29124999
0.040282998 -0.039115001 0.29073
0.11174 -0.036768001 0.25560001
0.11142 -0.037659999 0.25465
0.11133 -0.036251001 0.25650999
0.069779001 -0.025172999 0.27575001
0.072613001 -0.023807 0.27553001
0.071857996 -0.024199 0.27548
0.084508002 -0.023165001 0.26899999
0.082511999 -0.02293 0.26909
0.082106002 -0.021289 0.26958001
0.082211003 -0.020138999 0.27002001
0.073693998 -0.021259001 0.27395999
0.072531998 -0.021435 0.27408999
0.082422003 -0.019038999 0.27081001
0.079650998 -0.020014999 0.27195999
0.077988997 -0.019539 0.27142
0.078642003 -0.019453 0.27182999
0.076849997 -0.019419 0.27221
0.077064998 -0.018298 0.27368999
0.038249001 -0.018941 0.29222
0.039547998 -0.019374 0.29300001
0.080452003 -0.019369001 0.27138001
0.076916002 -0.017767999 0.27254999
0.075382002 -0.019408001 0.27393001
0.039186999 -0.018399 0.29293001
0.077339001 -0.018479999 0.27342999
0.072201997 -0.017441001 0.27568001
0.073092997 -0.016860001 0.27531001
0.10549 -0.016612001 0.25777999
0.10563 -0.015519 0.25889999
0.10468 -0.015319 0.25852001
0.033466 -0.013784 0.29477
0.032063 -0.012948 0.29609999
0.14084999 -0.01209 0.23994
0.13985001 -0.0132 0.24022999
0.105 -0.012835 0.2588
0.14458001 -0.011269 0.23846
0.14447001 -0.010504 0.23844001
0.031475998 -0.010749 0.29563999
0.14629 -0.0087126996 0.23796999
0.031628001 -0.0084555997 0.29527
0.10298 -0.0092655998 0.2597
0.10393 -0.0085047996 0.25885999
0.14628001 -0.0085298996 0.23676001
0.14591999 -0.0058077001 0.23720001
0.071427003 -0.0065151001 0.27654999
0.14696001 -0.0063848002 0.23822001
0.071303003 -0.0053790002 0.27673
0.071216002 -0.0057644001 0.27651
0.071717001 -0.0059111998 0.27452999
0.072494999 -0.0047460999 0.27539
0.10339 -0.0050585 0.2595
0.10319 -0.0056459 0.25953999
0.0319 -0.0030364001 0.29567999
0.030257 -0.0058045001 0.29589
0.073988996 -0.0036424999 0.27568999
0.071787998 -0.0044772001 0.27603999
0.069545999 -0.0044098999 0.27720001
0.069429003 -0.0049926001 0.27717999
0.102 -0.0034622999 0.25869
0.072343998 -0.0039269999 0.27574
0.073073998 -0.0024804999 0.27517
0.071704999 -0.0034808 0.27614999
0.070142999 -0.0039992002 0.27652001
0.068213999 -0.0027528 0.27748001
0.067474 -0.0034598999 0.27744001
0.10303 -0.0011074001 0.25948
0.071847998 -0.0034314999 0.27561
0.068567 -0.0037862 0.27688
0.071124002 -0.0028849 0.27584001
0.071075 -0.0018308 0.27548999
0.071167998 -0.0014131 0.27598
0.1035 -0.0019465 0.25951001
0.10305 -0.00091981998 0.25876999
0.067380004 -0.0014431 0.27849001
0.066834003 -0.00057799998 0.27728
0.066854998 0.00041576999 0.27781001
0.12443 -0.0013015 0.24772
0.12408 -0.00034289999 0.24945
0.12553 -0.00058886001 0.24821
0.12286 -0.00018926999 0.24828
0.12295 -0.00053924002 0.24832
0.1032 -0.0018611 0.26065999
0.10179 -0.00050750002 0.26073
0.071663 -0.00055361999 0.27612001
0.065240003 -0.00087028998 0.27970999
0.031810001 -0.0013796 0.29565999
0.072875001 -0.00062727003 0.27493
0.065407999 -0.00059299002 0.27875
0.0726 -0.00012359 0.27485001
0.10203 9.8067001e-05 0.25948
0.065723002 0.00036971999 0.27950001
0.064388998 0.0013836999 0.27855
0.032570999 0.0014807 0.29558
0.10186 0.0016146 0.25940999
0.10122 0.0026608 0.26089999
0.072929002 0.0012884 0.27452999
0.072235003 0.00037023 0.27474999
0.070854001 0.0018881999 0.27592
0.033562999 0.001725 0.29642001
0.033636 0.0023505001 0.29552001
0.064052999 0.0030219001 0.27875
0.14469001 0.003092 0.2376
0.071647003 0.0016596999 0.27502
0.064621001 0.0023586 0.27972999
0.032655999 0.0027176 0.29422
0.12263 0.0030686001 0.25029999
0.12141 0.0023705999 0.24867
0.12141 0.0034222 0.24896
0.10077 0.0044825999 0.26058
0.072284997 0.0047726999 0.27551001
0.062070001 0.0042281998 0.2807
0.14387999 0.0035671999 0.23751
0.12248 0.0039821998 0.25084999
0.1227 0.0042764 0.25091001
0.063826002 0.0036088 0.27915999
0.063637003 0.0051640002 0.28040999
0.031660002 0.0031752 0.29434001
0.033271998 0.0034264 0.29548001
0.071667999 0.0048147002 0.27500001
0.062438998 0.0051302998 0.28007001
0.07141 0.0036094999 0.27542001
0.071114004 0.0043520001 0.27489999
0.070226997 0.0052201999 0.27603999
0.034405999 0.0051905001 0.29587999
0.033709001 0.0049442998 0.29462999
0.033725999 0.0053571002 0.29383001
0.14478999 0.0052232998 0.23947001
0.12014 0.0046732002 0.25084999
0.072135001 0.0062429002 0.27559
0.032471001 0.0045507001 0.29304999
0.14441 0.0075106001 0.23765001
0.14361 0.0053233998 0.23792
0.099485002 0.0042654001 0.26072001
0.10136 0.0060524 0.26058999
0.10073 0.0066636 0.26001
0.072304003 0.0062541999 0.27472001
0.061964002 0.0067917001 0.28015
0.11864 0.0068751001 0.25097999
0.11877 0.0073397001 0.25134999
0.11906 0.0088806003 0.25163999
0.099729002 0.0086730998 0.26061001
0.060219999 0.0068875998 0.28099
0.071849003 0.0068494999 0.27590999
0.036401 0.0071951998 0.29236999
0.099564001 0.0094009005 0.26133001
0.06106 0.0081161 0.28106001
0.060513001 0.0084062004 0.28216001
0.071328998 0.0097955 0.27595001
0.071488 0.0084250001 0.27552
0.061012 0.010155 0.28117001
0.14252 0.01074 0.23820999
0.12011 0.0089721996 0.25170001
0.10027 0.0099566001 0.26137
0.060453001 0.010763 0.28305
0.060927998 0.0099580996 0.28127
0.070555001 0.01017 0.27500001
0.070171997 0.010223 0.27616999
0.11713 0.010016 0.25237
0.071094997 0.011217 0.27559999
0.060017999 0.010888 0.28224999
0.043024998 0.010294 0.29126999
0.040070001 0.0097824996 0.29159999
0.099799 0.010094 0.26080999
0.099115998 0.011987 0.26254001
0.1 0.012542 0.26036
0.070386998 0.012323 0.27654999
0.060486998 0.012044 0.28143001
0.099322997 0.011877 0.26165
0.099988997 0.013406 0.26072001
0.098912001 0.015015 0.26137999
0.098677002 0.014689 0.26107001
0.11686 0.013576 0.25329
0.11412 0.014276 0.25257999
0.070744 0.014264 0.27658999
0.070432 0.013977 0.27616
0.060261998 0.014663 0.28244001
0.071225002 0.014093 0.27537999
0.061046001 0.014444 0.28106001
0.11437 0.013964 0.25516999
0.14131001 0.016443999 0.23941
0.13963 0.017565001 0.23973
0.13979 0.015860001 0.24186
0.11368 0.017399 0.25492999
0.070214003 0.016805001 0.27625999
0.059055001 0.016308 0.28187999
0.097685002 0.017214 0.26216999
0.097351998 0.016414 0.26157999
0.11467 0.017362 0.25391999
0.13921 0.016987 0.24031
0.13905001 0.018379999 0.24083
0.060819 0.017571 0.28057
0.061567999 0.017654 0.28077
0.11216 0.019188 0.25435999
0.070589997 0.019315001 0.27689001
0.11279 0.018152 0.25494999
0.097319998 0.019944999 0.26199999
0.060353 0.020691 0.2823
0.061151002 0.019686 0.28224
0.11128 0.019828999 0.25516
0.070139997 0.018879 0.27660999
0.070128001 0.019741001 0.27682
0.069458999 0.020936999 0.27726001
0.13845 0.020346001 0.24115001
0.14018001 0.019946 0.24111
0.096478999 0.021244001 0.26315001
0.070157997 0.02115 0.27645999
0.11101 0.0222 0.25597
0.061826002 0.020359 0.28132001
0.071326002 0.021221999 0.27651
0.16076 0.021922 0.22945
0.1604 0.022299999 0.23026
0.16176 0.02104 0.22951999
0.11056 0.021468 0.25587001
0.10981 0.020311 0.25634
0.10954 0.021818001 0.25569001
0.095539004 0.022399999 0.26431
0.071557999 0.021309 0.27671999
0.070274003 0.021736 0.27597001
0.063383996 0.021576 0.28099999
0.16052 0.021260001 0.23038
0.10863 0.023063 0.25733
0.070076004 0.022454999 0.27566001
0.10979 0.022005999 0.25623
0.096359 0.023034999 0.26236999
0.094659001 0.022372 0.26462999
0.069753997 0.023179 0.27630001
0.069766 0.023647999 0.27717999
0.059771001 0.022722 0.27963999
0.071404003 0.023066999 0.27603
0.070679002 0.023925001 0.27667999
0.061666001 0.022717001 0.2814
0.10919 0.023009 0.25698999
0.071580999 0.023781 0.2764
0.069242999 0.024146 0.27621001
0.15903001 0.023535 0.23163
0.15724 0.022839 0.2313
0.10797 0.024443001 0.25635001
0.10763 0.022592001 0.25683999
0.094814003 0.022910999 0.26370001
0.093232997 0.024715001 0.26459
0.062523 0.023004999 0.28004
0.063340001 0.023452999 0.28114
0.060903002 0.024625 0.28151
0.070653997 0.025562 0.27566999
0.070096001 0.025116 0.27713001
0.062866002 0.025646999 0.28088
0.061558001 0.025009001 0.28185999
0.15648 0.024313999 0.23326001
0.095110998 0.025049999 0.26357999
0.071176998 0.024377 0.27612001
0.071653001 0.025276 0.27568001
0.062990002 0.022929 0.27987
0.13745999 0.024906 0.24074
0.064459004 0.026715999 0.28001001
0.063070998 0.025413999 0.28027999
0.063671 0.027291 0.27937001
0.062261 0.024994999 0.27989
0.15554 0.026074 0.23288999
0.15536 0.025748 0.23258001
0.10623 0.024759 0.25749001
0.094691999 0.025590001 0.26343
0.093422003 0.026162 0.26429999
0.070546001 0.026116 0.27480999
0.071778998 0.025335001 0.27568001
0.071319997 0.025703 0.27555999
0.063588001 0.024571 0.28031999
0.10669 0.026504001 0.25720999
0.093749002 0.026959 0.2649
0.073219001 0.026915999 0.27587
0.15413 0.026117999 0.23322999
0.13858999 0.026376 0.24155
0.092467003 0.026665 0.26479
0.072590001 0.026226001 0.27551001
0.1375 0.026803 0.24276
0.093528003 0.027396999 0.26445001
0.065939002 0.026017999 0.27789
0.15454 0.027225001 0.23434
0.1532 0.025916999 0.23463
0.065404996 0.025474001 0.27846
0.10588 0.026528999 0.25977001
0.10528 0.026341001 0.25870001
0.073360004 0.027249999 0.27511001
0.091851003 0.026432 0.26528001
0.063585997 0.028004 0.28053001
0.063763 0.028209001 0.28001001
0.13729 0.027462 0.24197
0.13679001 0.025977001 0.24166
0.10508 0.027494 0.25867
0.10401 0.027148999 0.25892001
0.10385 0.027790001 0.25997999
0.073288999 0.027117001 0.27429
0.073990002 0.028782001 0.27410999
0.15157001 0.028348999 0.23421
0.10257 0.029738 0.26008001
0.073595002 0.029067 0.2755
0.073343001 0.029632 0.27430001
0.13785 0.028462 0.24134
0.13845 0.029477 0.24157999
0.10229 0.027705999 0.25948
0.099889003 0.028326999 0.26019001
0.10016 0.029336 0.26179001
0.098646 0.028883001 0.26242
0.10015 0.028178001 0.26051
0.099425003 0.028523 0.26122999
0.065387003 0.028515 0.27790001
0.096486002 0.029301001 0.26337001
0.093594 0.028375 0.2638
0.093943998 0.029402001 0.26322001
0.092219003 0.027462 0.26532999
0.092542 0.029722 0.26628
0.10113 0.029577 0.26109001
0.097763002 0.030396 0.26267001
0.097970001 0.029894 0.26227
0.097562999 0.029695 0.26267999
0.096266001 0.029534999 0.26219001
0.096383996 0.029624 0.26278001
0.094371997 0.030572999 0.26552001
0.093764998 0.030195 0.2642
0.093712002 0.028825 0.26447999
0.072457001 0.030764 0.27507001
0.072943002 0.029302999 0.27508
0.065385997 0.029412 0.27906999
0.065139003 0.030366 0.27880999
0.15024 0.030495999 0.23509
0.098338 0.030169999 0.26198
0.092078999 0.030324999 0.26512
0.066294 0.030634001 0.27853999
0.065384999 0.030444 0.27908
0.068034001 0.03022 0.27792001
0.13860001 0.031741001 0.24128
0.096900001 0.030453 0.26372001
0.094621003 0.030148 0.26458001
0.093076997 0.030856 0.26521999
0.088820003 0.031314 0.26561999
0.089570001 0.031362001 0.26640999
0.067676999 0.030977 0.27746999
0.066696003 0.029942 0.27735999
0.067259997 0.029665999 0.27790999
0.097415999 0.030994 0.26267001
0.075661004 0.030702 0.27355
0.088563003 0.031592999 0.26699001
0.075318001 0.030665001 0.27313
0.076866999 0.032118 0.27384001
0.14837 0.030785 0.23454
0.14830001 0.031603999 0.23678
0.13845 0.031380001 0.24072
0.13844 0.031257998 0.2423
0.093663 0.032001 0.2651
0.092191003 0.032455001 0.26479
0.090824001 0.030865001 0.26671001
0.090420999 0.031613 0.26675001
0.077019997 0.032421999 0.27430001
0.074947 0.032396998 0.27412999
0.13778999 0.032880001 0.24124999
0.089544997 0.033386 0.26675999
0.090391003 0.033659 0.2669
0.075280003 0.032559998 0.27342001
0.074690998 0.03104 0.27529001
0.073361002 0.031194 0.27469
0.14836 0.032212999 0.23692
0.090260997 0.033541001 0.26603001
0.088878997 0.032396 0.26811999
0.075854003 0.032676 0.27395001
0.075535998 0.033528 0.27414
0.075130999 0.032568 0.27414
0.073108003 0.032504 0.27497
0.071647003 0.031461 0.27513999
0.073275998 0.032446999 0.2753
0.073931001 0.032731 0.27508
0.072953999 0.032056998 0.27535
0.069334 0.032737002 0.27699
0.075473003 0.034375999 0.27397001
0.067769997 0.034460001 0.27735999
0.14673001 0.033735 0.23718999
0.13918 0.033682 0.24158999
0.076127 0.033934999 0.27366999
0.071650997 0.032926001 0.27573001
0.076780997 0.033787999 0.27263999
0.069992997 0.032299999 0.27581
0.069398999 0.034878999 0.27671
0.069983996 0.032715999 0.27656001
0.14695001 0.032076001 0.23695
0.14593001 0.033307001 0.23755001
0.13818 0.034681 0.24152
0.1393 0.034844998 0.24042
0.074573003 0.034354001 0.27348
0.076026998 0.033532999 0.27235001
0.13777 0.036031 0.24089
0.074335001 0.036382999 0.27485999
0.075387001 0.036203999 0.27432001
0.13631999 0.035416 0.24248999
0.13434 0.036890998 0.24343
0.13476001 0.036667001 0.24252
0.13507 0.038593002 0.24302
0.13079999 0.039368 0.24512
0.13157 0.039491002 0.24518999
0.13265 0.039269999 0.24456
0.13179 0.038739 0.24346
0.13536 0.039177001 0.24292
0.13358 0.039898001 0.24349999
0.12916 0.038945999 0.24680001
0.12980001 0.040096998 0.24594
0.13214 0.041816998 0.24579
0.13057999 0.041777998 0.24583
0.13093001 0.043505002 0.24494
0.13093001 0.042709 0.24621999
0.13009 0.043554999 0.24604
0.12954 0.044174999 0.24563
0.13070001 0.045000002 0.24541999
0.12879001 0.045118 0.24585
0.12751 0.046627 0.24604
0.12943 0.048633002 0.2455
0.12876999 0.050308999 0.24598999
0.12901001 0.050976001 0.24666999
0.12727 0.053029999 0.24761
0.12970001 0.051121999 0.24617
0.13006 0.052549001 0.24571
0.12966 0.053178001 0.24612001
0.12959 0.053970002 0.24449
0.12994 0.056380998 0.24604
0.13093001 0.056573 0.24522001
0.13219 0.058122002 0.2446
0.13128 0.056891002 0.24508999
0.13338 0.057691999 0.24324
0.13282999 0.060566001 0.24424
0.13365 0.060185 0.24476001
0.13259 0.060846999 0.24376
0.13175 0.061271001 0.2447
0.13234 0.061425999 0.24446
0.13183001 0.062407002 0.24517
0.13267 0.063184999 0.24425
0.13194001 0.062795997 0.24338999
0.13166 0.062674001 0.24472
0.13015001 0.066480003 0.2455
0.13052 0.066928998 0.24621999
0.13074 0.067307003 0.24541
0.13129 0.066316001 0.24542999
0.1309 0.066915996 0.24645001
0.17393 0.068299003 0.22375
0.17284 0.068218 0.22459
0.17269 0.067016996 0.22259
0.17155001 0.067588001 0.22441
0.17137 0.066854 0.22510999
0.13194001 0.067267999 0.24501
0.17439 0.066743001 0.22256
0.1744 0.068567999 0.223
0.13484 0.068083003 0.24329001
0.13458 0.066437997 0.24405
0.13330001 0.067285001 0.24218
0.13610999 0.067103997 0.24323
0.13607 0.067645997 0.24176
0.17501999 0.068848997 0.22254001
0.17553 0.067904003 0.22274999
0.13743 0.068407997 0.24144
0.13692001 0.068833999 0.24149001
0.13686 0.069360003 0.24330001
0.17575 0.068763003 0.22205
0.17665 0.070083998 0.22267
0.13878 0.069421999 0.24171001
0.13818 0.068738997 0.24096
0.14067 0.070632003 0.24119
0.13846 0.069744997 0.24201
0.13805 0.070056997 0.24137001
0.1767 0.069329999 0.22143
0.13879 0.071588002 0.24177
0.13864 0.070104003 0.24218
0.16562 0.070987001 0.22759999
0.16629 0.070509002 0.22736999
0.16534001 0.071252003 0.22789
0.16474999 0.071598999 0.22781999
0.1584 0.070560001 0.23112001
0.15737 0.071094997 0.23147
0.15704 0.071690001 0.23133001
0.14842001 0.070946001 0.23524
0.14902 0.071175002 0.23557
0.17686 0.071745001 0.22105999
0.16676 0.070591003 0.22672001
0.16802999 0.071780004 0.22614001
0.16320001 0.070759997 0.22781999
0.16080999 0.072586 0.22984
0.16063 0.070805997 0.23056
0.15921 0.071482003 0.23171
0.15493999 0.072765999 0.23214
0.15557 0.071819998 0.23304
0.13837001 0.072944 0.24137001
0.17818999 0.072008997 0.22172
0.15535 0.071021996 0.23391999
0.15198 0.071625002 0.23501
0.15097 0.072563 0.23436999
0.17889 0.072691999 0.22053
0.17930999 0.072423004 0.22024
0.13771001 0.073007002 0.24277
0.13639 0.073560998 0.24208
0.17827 0.073094003 0.22149999
0.13676 0.073757999 0.24197
0.1364 0.075390004 0.24302
0.13539 0.075383 0.24329001
0.13429999 0.075646996 0.24416
0.13539 0.076153003 0.24391
0.13429999 0.075917996 0.24335
0.1331 0.076140001 0.24318001
0.13288 0.076963 0.24409001
0.13314 0.078547999 0.24424
0.13384999 0.078248002 0.24393
0.13328999 0.078612998 0.24468
0.13486999 0.078101002 0.24330001
0.04284 -0.052294999 0.29010999
0.042596001 -0.051529001 0.28873
0.041044999 -0.0484 0.28808999
0.041143 -0.049116001 0.28858
0.040431999 -0.049377002 0.2895
0.042009 -0.049523 0.28999001
0.039306998 -0.047715999 0.29154
0.039062001 -0.043616001 0.29086
0.11731 -0.045713 0.25277999
0.11633 -0.045892999 0.25343999
0.11539 -0.043232001 0.25395
0.11549 -0.041584998 0.25257
0.11441 -0.042158999 0.25229999
0.039523002 -0.038810998 0.29065001
0.11074 -0.035296999 0.25619
0.10846 -0.030885 0.25601
0.10899 -0.030404 0.25606
0.10914 -0.031164 0.25564
0.071601003 -0.025022 0.27461001
0.070763998 -0.024869001 0.27585
0.071603999 -0.025105 0.27531001
0.071452998 -0.025017999 0.27478999
0.070076004 -0.024719 0.27519
0.10671 -0.023866 0.25670999
0.10863 -0.023193 0.25577
0.10723 -0.023881 0.25716001
0.10708 -0.022133 0.25835001
0.10748 -0.022360999 0.2572
0.10722 -0.022879001 0.25602001
0.084247999 -0.020616001 0.26993999
0.083356999 -0.021433 0.27004999
0.073780999 -0.022360001 0.27456999
0.082792997 -0.022135001 0.26839
0.074573003 -0.020299001 0.27451
0.075143002 -0.021671001 0.27395999
0.081881002 -0.020904999 0.27021
0.081565 -0.020277999 0.27200001
0.080594003 -0.02193 0.27044001
0.080306001 -0.019432999 0.27144
0.077586003 -0.020811999 0.27103999
0.074849002 -0.020186 0.27366999
0.077048004 -0.019703001 0.27175999
0.077500001 -0.020256 0.2719
0.1048 -0.019097 0.25900999
0.10607 -0.018857 0.25779
0.10546 -0.019158 0.25685999
0.10543 -0.016971 0.25830999
0.10596 -0.018071 0.25786999
0.10624 -0.017963 0.25777
0.1061 -0.016675999 0.25773999
0.10532 -0.015133 0.25738001
0.10543 -0.01407 0.25905001
0.10522 -0.013117 0.25905001
0.1044 -0.012813 0.2577
0.1054 -0.012241 0.25815001
0.10409 -0.012731 0.25731999
0.032264002 -0.011239 0.29543
0.14249 -0.012156 0.23805
0.14182 -0.012919 0.23875999
0.14381 -0.011189 0.23827
0.14639001 -0.0095296996 0.23724
0.10401 -0.010026 0.25885999
0.031667002 -0.0082232002 0.29585001
0.10396 -0.0083833998 0.25977001
0.032083001 -0.0073000998 0.29594001
0.12721001 -0.0069026998 0.24778
0.12713 -0.0075456998 0.24631999
0.12740999 -0.0064058001 0.24686
0.10286 -0.0043845 0.25876999
0.070963003 -0.0031874999 0.27535999
0.10306 -0.0054239999 0.25920001
0.069509998 -0.0032625 0.27643001
0.069572002 -0.0013425 0.27585
0.071033001 -0.0018288 0.27555001
0.070759997 0.00032819001 0.27596
0.069173999 -0.00047922001 0.27671999
0.069401003 4.06e-05 0.27693999
0.071052 -0.0024409001 0.27596
0.070385002 -0.00065321999 0.27709001
0.068859003 -0.0013883 0.27577999
0.068161003 -0.00056401 0.27741
0.12389 -0.00092227 0.24958999
0.07068 0.00085910998 0.27610001
0.069577999 -0.00044864 0.27665001
0.067460001 0.00034455 0.27746999
0.070708998 0.0010969 0.27647999
0.068494998 0.00052841002 0.27691999
0.068437003 0.0014135001 0.27700001
0.067276999 0.00040212 0.27724001
0.067965999 0.0018162 0.27656001
0.065321997 0.00084420003 0.27912
0.067859001 0.0011422 0.27739999
0.065776996 0.0013856 0.27825999
0.070432 0.0020595 0.27616
0.067988999 0.0014792 0.27764001
0.066013999 0.001145 0.27864
0.067890003 0.00281 0.27776
0.031711001 0.0017029 0.29433
0.14515001 0.00095427001 0.23537999
0.071687996 0.0028289999 0.27489999
0.1009 0.0026757 0.25974
0.10068 0.0011379 0.25915
0.065226004 0.0012054 0.27926999
0.064516999 0.0019191999 0.27873001
0.034515999 0.0039651999 0.2956
0.12104 0.0025216001 0.24997
0.070731997 0.0037344999 0.27642
0.063144997 0.0045959 0.27976
0.064242996 0.0041777999 0.27906999
0.064888 0.0039039999 0.27919
0.10111 0.0061935 0.26016
0.1204 0.0047050002 0.24902999
0.12025 0.0045360001 0.24914999
0.034676999 0.0040467 0.29308999
0.11964 0.0060333 0.25035
0.10234 0.0059507 0.25992
0.070799001 0.0058944998 0.27590999
0.070380002 0.0044994 0.27590001
0.063615002 0.0056599001 0.27901
0.062978998 0.0054760999 0.28022999
0.062137999 0.0061272001 0.28097999
0.062309001 0.0055010002 0.28011999
0.064144 0.0067428998 0.27957001
0.06346 0.0089319004 0.27994001
0.11916 0.0059544002 0.25172001
0.11773 0.0065740999 0.25016001
0.071152002 0.0075991 0.27588001
0.069891997 0.0063844998 0.27506
0.070414998 0.0063681002 0.27541
0.062164001 0.0079183998 0.27976999
0.10117 0.0085426997 0.26023
0.11842 0.0067802998 0.25088999
0.070125997 0.0085893003 0.27667001
0.061680999 0.0081296004 0.27974999
0.037815001 0.0074803 0.29350001
0.03638 0.0073226001 0.29319
0.036940001 0.0086629 0.29229
0.14406 0.0082614999 0.23815
0.14314 0.0093342001 0.2384
0.061914001 0.009385 0.28082001
0.10056 0.0085838996 0.26061001
0.044114001 0.0092185 0.29067999
0.038010001 0.0077860001 0.29249001
0.14285 0.0093746996 0.23907
0.11774 0.0085767005 0.25114
0.11818 0.0098681003 0.25224
0.061597001 0.010362 0.28077
0.062102001 0.0096522002 0.27967
0.060895 0.010142 0.28051999
0.14189 0.010408 0.23898999
0.099463001 0.0099269999 0.26113001
0.069838002 0.0091449004 0.27676001
0.069459997 0.0084964996 0.27695
0.043290999 0.010264 0.28935
0.039969999 0.010769 0.29144999
0.061003 0.011165 0.28027001
0.060839001 0.012019 0.28026
0.099652 0.010444 0.26159999
0.11802 0.0099809002 0.25130001
0.069008999 0.011339 0.27630001
0.062213 0.011621 0.28027001
0.070455 0.013329 0.27675
0.11657 0.011409 0.25242001
0.11695 0.010251 0.25141001
0.099766001 0.01265 0.26001
0.061331 0.011778 0.28040999
0.061264999 0.01257 0.27948001
0.11634 0.011709 0.25314
0.11573 0.011342 0.25233999
0.069470003 0.012895 0.27689001
0.059944 0.012052 0.28159001
0.061188001 0.012191 0.28075999
0.14108001 0.012964 0.23974
0.11479 0.012068 0.25244999
0.069975004 0.012258 0.27631
0.068865001 0.012725 0.27642
0.061393 0.0134 0.28051001
0.11467 0.013424 0.25292
0.11472 0.013887 0.25382
0.11569 0.013013 0.25251001
0.070192002 0.014439 0.27680001
0.069508001 0.013866 0.27713999
0.11399 0.016556 0.25457999
0.11381 0.014799 0.25325
0.098622002 0.014767 0.26028001
0.061065 0.014901 0.28088999
0.098585002 0.01613 0.26050001
0.099105 0.015737999 0.26137
0.069054 0.014566 0.27756
0.061852999 0.014982 0.28049001
0.060513999 0.01588 0.28106999
0.14078 0.015251 0.23998
0.098041996 0.015997 0.26142001
0.069741003 0.016142 0.27658999
0.069256999 0.014992 0.27663001
0.068763003 0.014453 0.27761999
0.061255001 0.017097 0.28112999
0.061032999 0.016408 0.2814
0.062734 0.01718 0.28064001
0.097404003 0.017788 0.26210001
0.114 0.016868001 0.2536
0.11326 0.018131001 0.25487
0.070648 0.017178001 0.27647999
0.062221002 0.017859001 0.28108001
0.070274003 0.019196 0.27660999
0.097613998 0.018182 0.26225001
0.061772998 0.01925 0.28058001
0.061988998 0.017666001 0.27957001
0.11195 0.01774 0.25453001
0.13926999 0.017734 0.23969001
0.097640999 0.01921 0.26245999
0.061453 0.018575 0.28029001
0.11001 0.019114999 0.25512001
0.061891999 0.021252999 0.28151
0.097620003 0.019215999 0.26188999
0.096762002 0.021925 0.26264
0.063426003 0.020093 0.27959999
0.097135998 0.020608 0.26126
0.13832 0.021831 0.24034999
0.10879 0.021190999 0.25670001
0.069580004 0.020827999 0.27638999
0.10821 0.020566 0.25677001
0.10879 0.022143001 0.25709
0.096291997 0.021916 0.26345
0.061147999 0.022208 0.27985001
0.097423002 0.022751 0.26120999
0.095570996 0.023099 0.26328
0.15875 0.022275999 0.23153999
0.10733 0.02225 0.25742
0.10659 0.022867 0.25718001
0.062056001 0.022309 0.27968001
0.062985003 0.023165001 0.27968001
0.064185999 0.022487 0.28016001
0.064149 0.022983 0.27851
0.094593003 0.023469999 0.26341999
0.068419002 0.022661 0.27706
0.068526 0.023856999 0.27654001
0.067648001 0.022329001 0.27691999
0.13824999 0.022623001 0.24115001
0.10642 0.022848999 0.25639001
0.063832 0.02399 0.27919
0.064156003 0.022708001 0.2798
0.096102998 0.023097999 0.26326999
0.10599 0.024681 0.25819001
0.13776 0.024316 0.23991001
0.096612997 0.025286 0.26208001
0.094921999 0.024891 0.26352999
0.068755001 0.024675 0.27713999
0.065370999 0.023527 0.28022999
0.064521998 0.02407 0.27943999
0.065298997 0.023828 0.27856001
0.096270002 0.023099 0.26174
0.15417001 0.025648 0.23206
0.10573 0.026062001 0.25733
0.10528 0.025237 0.25795999
0.15357 0.024119999 0.23297
0.098630004 0.025738001 0.26190001
0.098012 0.026292 0.26183
0.097594999 0.025572 0.26183999
0.094356 0.025719 0.26405001
0.069229998 0.026977999 0.27755001
0.071134999 0.026464 0.27629
0.068628997 0.025645999 0.27575999
0.068478003 0.025728 0.27744001
0.10535 0.026140001 0.25863999
0.104 0.025469 0.25849
0.10387 0.024907 0.25913
0.10358 0.025826 0.25939
0.096150003 0.025339 0.26271001
0.094172999 0.026535001 0.26468
0.095973 0.027539 0.2631
0.071973003 0.026885999 0.27590001
0.068304002 0.026372001 0.27664
0.067449003 0.026301 0.27689001
0.13756999 0.026843 0.24127001
0.10318 0.026032999 0.26019001
0.098568 0.027274 0.2613
0.097833999 0.026934 0.26133001
0.098365001 0.025803 0.26183999
0.069582 0.027433001 0.27573001
0.071653001 0.028573001 0.27573001
0.098089002 0.026844 0.26177999
0.096211001 0.026932999 0.26225999
0.094478004 0.027705999 0.26368001
0.093038999 0.027203999 0.26399001
0.068487003 0.026488001 0.27783999
0.15404999 0.026349001 0.23366
0.13958 0.027088 0.24018
0.13911 0.026641 0.24071001
0.10293 0.026571 0.25931001
0.098696999 0.027722999 0.26188001
0.094926998 0.026788 0.26320001
0.092324004 0.026791999 0.26438999
0.071505003 0.027301 0.27552
0.067762002 0.026676999 0.27724001
0.067491002 0.026977999 0.27785
0.10231 0.027929001 0.25931001
0.10149 0.027088 0.25903001
0.10149 0.02736 0.25973001
0.10115 0.027555 0.26074001
0.10088 0.027262 0.25975001
0.098737001 0.027817 0.26183999
0.098185003 0.027641 0.26269001
0.068403997 0.02805 0.27743
0.066857003 0.028201001 0.27787
0.066460997 0.027066 0.27833
0.065847002 0.026573 0.27891999
0.065123998 0.026760999 0.27860001
0.097886004 0.027874 0.26256999
0.096941002 0.028458999 0.26144999
0.097220004 0.027960001 0.26205999
0.096061997 0.028542999 0.26300001
0.095283002 0.029058 0.26337999
0.068017997 0.029515 0.27774
0.068920001 0.02685 0.27763
0.065828003 0.028741 0.27691001
0.066950999 0.028694 0.27840999
0.064907998 0.028159 0.27880999
0.066151001 0.028945001 0.27871999
0.15284 0.026071001 0.23371001
0.094144002 0.028785 0.26343
0.15074 0.028627999 0.23435
0.070321999 0.030160001 0.27568001
0.069265001 0.028852001 0.27680001
0.066800997 0.028658001 0.27818
0.071001001 0.030371999 0.27566001
0.067345999 0.029062999 0.27821001
0.15061 0.0283 0.23512
0.15121 0.028688001 0.23528001
0.070867002 0.029655 0.27627999
0.069224998 0.030024 0.27608001
0.068405002 0.029911 0.27662
0.073202997 0.030201999 0.27504
0.073302001 0.031475 0.27489999
0.069477998 0.030237 0.27649
0.069449998 0.031767 0.27645001
0.13845 0.030196 0.24049
0.13875 0.030890999 0.24105
0.071239002 0.031096 0.27509001
0.070758998 0.031773001 0.27684
0.069436997 0.028856 0.27691999
0.068861999 0.032322999 0.27638
0.070482001 0.031567998 0.27573001
0.069944002 0.031759001 0.27621001
0.070276998 0.031746998 0.27529001
0.14873999 0.032037999 0.23638999
0.13979 0.030823 0.23999999
0.070150003 0.031674001 0.27603999
0.14714999 0.031183001 0.2367
0.14645 0.031762 0.23656
0.141 0.033551998 0.24000999
0.13963 0.032586001 0.24109
0.13984001 0.034069002 0.24043
0.13259 0.040155001 0.24513
0.13176 0.040323 0.24409001
0.13086 0.039611001 0.24483
0.13313 0.040291999 0.24420001
0.13333 0.039228 0.24281
0.13015001 0.040697001 0.24395999
0.13158 0.043115001 0.24439999
0.1318 0.044613 0.24508999
0.13269 0.044829 0.24417999
0.12858 0.045049001 0.24597
0.12712 0.045956001 0.24646001
0.13004 0.046530001 0.24621999
0.12876999 0.046413001 0.24632999
0.12747 0.047651999 0.24596
0.13125999 0.048847999 0.24564999
0.12952 0.048799001 0.24439999
0.13053 0.049637999 0.24467
0.13061 0.050319001 0.24516
0.13034 0.049242999 0.24434
0.12915 0.050453 0.24608
0.12912001 0.052382 0.24665
0.12983 0.053874001 0.24609999
0.13027 0.054198001 0.24527
0.13112 0.055112001 0.24439999
0.13084 0.056961 0.24564999
0.13134 0.056058999 0.24456
0.13162 0.056903999 0.24496999
0.13291 0.057452999 0.24439
0.13275 0.059611 0.24413
0.13245 0.061528001 0.24311
0.13260999 0.063298002 0.24374001
0.13359 0.064749002 0.24339999
0.13368 0.064278997 0.24409001
0.1321 0.065406002 0.24383999
0.13248 0.064461 0.24428
0.13055 0.065021999 0.24458
0.13405 0.064910002 0.24349999
0.13285001 0.066316999 0.24356
0.13151 0.067001 0.24439
0.13198 0.067749001 0.24518
0.17041001 0.067263998 0.22318
0.17227 0.067016996 0.22398999
0.17093 0.065957002 0.22333001
0.17482001 0.067243002 0.22166
0.13583 0.068324 0.24142
0.13970999 0.069851004 0.24048001
0.13937999 0.068089999 0.24047001
0.17573 0.070373997 0.22093
0.14722 0.070822001 0.23643
0.14754 0.070349999 0.23575
0.16364001 0.071634002 0.22721
0.16282 0.071344003 0.22629
0.16246 0.071840003 0.22930001
0.15756001 0.070936002 0.23067001
0.16317999 0.070565999 0.22845
0.16202 0.070772 0.22971
0.14924 0.071387999 0.23476
0.1512 0.071837001 0.23489
0.15275 0.071507998 0.23251
0.15288 0.072875001 0.23322
0.15102001 0.072016999 0.23356999
0.17851999 0.072740003 0.22001
0.1392 0.075071998 0.2397
0.14018001 0.073940001 0.24244
0.14112 0.074187003 0.24073
0.13583 0.076531 0.24086
0.13454001 0.076595001 0.24225
0.13665 0.075616002 0.24195001
0.045632999 -0.051842 0.28751999
0.047161002 -0.053118002 0.28823
0.046434999 -0.053514998 0.28832
0.043997999 -0.052207001 0.28808999
0.049127001 -0.052080002 0.28722
0.048463002 -0.053167 0.28786999
0.048473001 -0.052583002 0.28644001
0.046289001 -0.052301999 0.28836
0.043182999 -0.052173998 0.28913999
0.042601999 -0.050174002 0.28898001
0.042087 -0.050866999 0.29038
0.042497002 -0.049592 0.29049999
0.039427001 -0.046976 0.29003999
0.039813999 -0.045260999 0.29043001
0.038350001 -0.045407001 0.29073
0.11671 -0.045575999 0.25321999
0.11663 -0.044925001 0.25128001
0.11662 -0.046039999 0.25167
0.11606 -0.044757001 0.25027001
0.11388 -0.043705001 0.25205001
0.039551001 -0.043522 0.29104
0.11415 -0.039639 0.25299999
0.038594998 -0.041832 0.29271999
0.039668001 -0.040674001 0.29091999
0.11294 -0.041099001 0.25277001
0.039515998 -0.04087 0.29124999
0.11232 -0.039023999 0.25316
0.11229 -0.038795002 0.25363001
0.11262 -0.038191002 0.25297999
0.11312 -0.038706001 0.25373
0.11252 -0.037296999 0.25408
0.1118 -0.036493 0.25415
0.1108 -0.036063001 0.25457999
0.11061 -0.033787999 0.25749999
0.10979 -0.034977 0.2552
0.1108 -0.033022001 0.25665
0.1088 -0.033089999 0.25615999
0.10972 -0.032889999 0.25569001
0.10896 -0.03229 0.25626999
0.10835 -0.028446 0.25619999
0.10917 -0.030365 0.25667
0.10815 -0.028620999 0.25619999
0.10911 -0.027388001 0.25595
0.10883 -0.027574001 0.25593999
0.10891 -0.027709 0.25748
0.10865 -0.026582001 0.25657001
0.10868 -0.026761999 0.25549999
0.10802 -0.025849 0.25612
0.10788 -0.025991 0.25694001
0.10701 -0.025237 0.25735
0.10812 -0.024356 0.25569999
0.10825 -0.024979001 0.25692999
0.073418997 -0.024083 0.27382001
0.071854003 -0.023149 0.27430999
0.072838001 -0.022422001 0.27362999
0.034667 -0.0232 0.29293001
0.036052 -0.022767 0.29297999
0.035332002 -0.022155 0.29229999
0.082906999 -0.022915 0.26765999
0.082088001 -0.023107 0.26784
0.073974997 -0.021787001 0.27355999
0.034529001 -0.021627 0.29245999
0.081390999 -0.021878 0.26921001
0.080769002 -0.021330999 0.27035001
0.074697003 -0.020920999 0.27463001
0.073564999 -0.022754 0.27338001
0.075889997 -0.021374 0.27254
0.034906 -0.021172 0.29387
0.034577001 -0.020470001 0.29286999
0.079292998 -0.021082001 0.27116001
0.080727004 -0.021462999 0.27033001
0.077846996 -0.020718001 0.27125001
0.078381002 -0.021353001 0.27123001
0.076100998 -0.020595999 0.27261001
0.10665 -0.021617001 0.25681001
0.10647 -0.020457 0.25837001
0.10542 -0.016651001 0.25760999
0.1061 -0.01486 0.25705001
0.033495001 -0.013492 0.29571
0.032403 -0.015837001 0.29506001
0.10453 -0.01326 0.25725999
0.13741 -0.01349 0.23977999
0.13652 -0.013308 0.24112
0.13715 -0.01305 0.24070001
0.031171 -0.013579 0.29545
0.033186 -0.01381 0.29426
0.13943 -0.012286 0.24037001
0.13947 -0.013259 0.23946001
0.14373 -0.011138 0.23759
0.031207999 -0.011627 0.29492
0.14431 -0.012386 0.23638
0.10503 -0.010547 0.25898001
0.030470001 -0.010271 0.29528001
0.14526001 -0.010087 0.2369
0.10506 -0.0098609002 0.25751999
0.14589 -0.0093750004 0.23568
0.10343 -0.0090987002 0.25751999
0.14605001 -0.0078723999 0.23643
0.12762 -0.0079103997 0.24615
0.12737 -0.0076953 0.24611001
0.12853 -0.0072419001 0.24663
0.10342 -0.0079667997 0.2586
0.032016002 -0.0063319001 0.29541999
0.031810001 -0.0070214001 0.29438001
0.10365 -0.0074922 0.25881001
0.10422 -0.005715 0.25847
0.10281 -0.0054074 0.25777999
0.030766999 -0.005227 0.29356
0.031275999 -0.0041757999 0.29449001
0.030792 -0.0038619 0.29442
0.10241 -0.0038302999 0.25799999
0.14670999 -0.0032631001 0.23506001
0.030042 -0.0038477001 0.29328001
0.030794 -0.0035786 0.29403999
0.12429 -0.0024578001 0.24799
0.12424 -0.0039078998 0.24877
0.12417 -0.0026253001 0.24751
0.031628001 -0.0021094 0.29581001
0.12356 -0.0022142001 0.24726
0.1235 -0.0023443 0.24869999
0.10361 -0.0022776001 0.25819999
0.12245 -0.00058176997 0.24763
0.032605998 0.00020821 0.29532
0.030869 -0.0011613 0.29587999
0.14650001 -0.00043042001 0.23802
0.10298 0.00068535999 0.25981
0.10208 0.00044624999 0.25762001
0.031261001 0.00028499 0.29502001
0.069582999 0.00096840999 0.27584001
0.10217 0.00039177999 0.25959
0.069022 0.0014864 0.27656999
0.070175 0.0015612 0.27605999
0.14659999 0.00094340998 0.23616
0.10153 0.0011278 0.25816
0.070349999 0.0010964 0.27660999
0.14500999 0.0029086999 0.23791
0.10239 0.0026658 0.25839001
0.10172 0.0031105001 0.25961
0.068595998 0.0027832 0.27618
0.068659998 0.0036319999 0.27634999
0.068931997 0.0026306999 0.27484
0.067511 0.0033839999 0.27728
0.067685999 0.0028112 0.27715999
0.066472001 0.0033662 0.27822
0.069514997 0.0040207999 0.27638
0.067310996 0.0032611999 0.27682
0.068361998 0.0046855998 0.27638
0.067300998 0.0030507001 0.27765
0.065678 0.0044513 0.27917999
0.10167 0.0041653998 0.25891
0.069748998 0.0040611001 0.27531001
0.064699002 0.0047975001 0.27753001
0.14454 0.0048754001 0.23752999
0.070240997 0.0050752 0.27658999
0.066904001 0.0040245 0.27873001
0.068094999 0.0046017999 0.27713001
0.065054998 0.0056416001 0.27799001
0.066845998 0.0051000998 0.27781999
0.069499999 0.0048702001 0.27509001
0.11955 0.0040350999 0.25
0.069017999 0.0055466001 0.27654999
0.069692999 0.0067576999 0.27577001
0.066096 0.0054577999 0.27733001
0.067272 0.0049959002 0.27700999
0.066094004 0.0064145001 0.27788001
0.068942003 0.0066332999 0.27619001
0.065718003 0.0056832 0.27878001
0.064616002 0.0062575 0.27811
0.062327001 0.0060402998 0.27963999
0.034542002 0.0055550002 0.29350999
0.11899 0.0061273002 0.25042
0.10181 0.0059924 0.25979
0.067345001 0.0064249998 0.27687001
0.067465998 0.0066340999 0.27728
0.066892996 0.0054727001 0.27746001
0.065707996 0.0069758999 0.27790001
0.10149 0.006362 0.25974
0.06859 0.0059906999 0.27662
0.065669999 0.0063207 0.27796
0.1433 0.0065941 0.23747
0.11888 0.0067516002 0.25128999
0.068856001 0.0066722999 0.27581999
0.069427997 0.0064902999 0.27594
0.067143999 0.0063968999 0.27649999
0.067357004 0.007737 0.27722999
0.064099997 0.0066130999 0.27824
0.14308999 0.0074054999 0.23842999
0.035032999 0.0062429998 0.29444
0.034889001 0.0063918 0.29297999
0.067975 0.0075173001 0.27677
0.063561998 0.0074131 0.27974999
0.10098 0.0082713002 0.25916001
0.068567 0.0072647999 0.27660999
0.068504997 0.008161 0.27746001
0.065601997 0.0073579 0.27858999
0.065289997 0.0068779001 0.27886999
0.062692001 0.0085640997 0.28016001
0.045756999 0.0071991999 0.28832
0.043807998 0.0070968 0.28884
0.046363 0.0069269999 0.28933999
0.043625001 0.0080166003 0.28907001
0.10032 0.0084260004 0.26028001
0.066699997 0.0085501 0.27702001
0.064966999 0.0085279997 0.27803999
0.063354 0.0086120004 0.28018001
0.037255999 0.0081443004 0.29332
0.10017 0.0098772999 0.26001999
0.043430999 0.0086150998 0.28805
0.038621999 0.0090220002 0.29082999
0.038594998 0.0076902001 0.29093999
0.14255001 0.0093715005 0.23791
0.11739 0.0086468998 0.25088999
0.041884001 0.0089910999 0.28997999
0.067822002 0.0094394004 0.27704999
0.064986996 0.0093409996 0.27948999
0.10031 0.0096976003 0.25966999
0.062931001 0.0094469003 0.27869999
0.039108001 0.010105 0.29080001
0.039191 0.010213 0.29023999
0.11587 0.01025 0.25148001
0.10131 0.010634 0.26025
0.062514998 0.011155 0.27904001
0.063559003 0.011822 0.27899
0.063271999 0.0099652 0.28057
0.041609999 0.0091693001 0.29038
0.040155999 0.0091089997 0.29025999
0.040217001 0.011675 0.29023001
0.14218 0.010922 0.23881
0.067155004 0.011068 0.27614999
0.067932002 0.010333 0.27700001
0.069115996 0.012098 0.27627999
0.063019 0.011207 0.27823001
0.099533997 0.01101 0.25906
0.10116 0.012535 0.26119
0.069007002 0.011407 0.27614
0.11545 0.010658 0.25165999
0.10082 0.0099235997 0.25959
0.069126002 0.012473 0.27653
0.069078997 0.012546 0.27715999
0.068249002 0.011755 0.27761999
0.063174002 0.012166 0.27941
0.062794 0.011975 0.27923
0.14144 0.01269 0.23943999
0.14071 0.012241 0.23932
0.067873001 0.012202 0.27715999
0.1407 0.012439 0.23875
0.067362003 0.011336 0.27658999
0.066774003 0.01165 0.27713001
0.065545 0.013482 0.27803001
0.067235 0.012466 0.27803001
0.062725998 0.013264 0.27958
0.062555 0.014419 0.27976999
0.10015 0.014445 0.26071
0.067253999 0.0122 0.27726001
0.067997999 0.01449 0.27754
0.066818997 0.014132 0.27783
0.066857003 0.013744 0.27700999
0.066528998 0.013273 0.27835
0.066290997 0.013944 0.27785999
