# .PCD v0.7 - Point Cloud Data file format
VERSION 0.7
FIELDS x y z
SIZE 4 4 4
TYPE F F F
COUNT 1 1 1
WIDTH 1553
HEIGHT 1
VIEWPOINT 0 0 0 1 0 0 0
POINTS 1553
DATA ascii
0.042188998 0.095586002 0.2904
0.041684002 0.097831003 0.28948
0.041637 0.098357998 0.29100999
0.041591 0.10076 0.29030001
0.042369001 0.10069 0.29023001
0.041809998 0.10296 0.29076999
0.039714999 0.10504 0.29100001
0.039949998 0.10579 0.29179999
0.039354999 0.10679 0.29166999
0.039441999 0.10822 0.29174
0.038874 0.11012 0.29161999
0.039985001 0.11121 0.29203001
0.039608002 0.11376 0.29205999
0.038821999 0.11359 0.29100999
0.040626001 0.11637 0.29163
0.041386999 0.11648 0.29100999
0.041609999 0.11877 0.29082
0.042087998 0.11954 0.29006001
0.042854998 0.12168 0.28972
0.043652002 0.12261 0.28926
0.044307001 0.12378 0.2888
0.044833999 0.12536 0.28865999
0.045008 0.12631001 0.28865999
0.046792001 0.12804 0.28760999
0.048027001 0.12946001 0.28621
0.047499001 0.13088 0.28676999
0.049819998 0.13267 0.28549999
0.039645001 0.056524999 0.30926001
0.039305001 0.056049 0.30913001
0.042707998 0.087164998 0.32249001
0.041820999 0.088601999 0.32306001
0.046425998 0.097152002 0.32811999
0.068916999 0.13855 0.3251
0.079268001 0.19066 0.26873001
0.080256999 0.19256 0.26772001
0.1056 0.20390999 0.27359
0.10451 0.2044 0.27362001
0.10479 0.20293 0.27416
0.069182001 0.14517 0.30112001
0.046312001 0.069135003 0.28929999
0.045903999 0.071023002 0.28939
0.045728002 0.070990004 0.28854999
0.045419 0.072550997 0.28889
0.045766 0.074945003 0.28977001
0.045148998 0.075502001 0.28968999
0.044913001 0.077639997 0.29071999
0.044725001 0.078907996 0.29014
0.044532999 0.080078997 0.29023001
0.044707 0.080819003 0.2906
0.043529999 0.082048997 0.29100999
0.043538999 0.084239997 0.29139999
0.043265 0.086181998 0.29071
0.044233002 0.087089002 0.29067001
0.043715999 0.089137003 0.29042
0.043189999 0.090255998 0.29095
0.043005999 0.091151997 0.29161999
0.043033 0.093098 0.29089001
0.042443998 0.095069997 0.29177999
0.043680999 0.096012004 0.29126999
0.042783 0.097032003 0.29122001
0.042321999 0.098412 0.29115999
0.042617001 0.10007 0.29137
0.042636 0.10133 0.29157999
0.041409999 0.10307 0.29176
0.040741 0.1041 0.29223001
0.039909001 0.10532 0.29225999
0.040660001 0.10698 0.29308
0.039884999 0.10824 0.29251999
0.040341001 0.11009 0.29205999
0.039875001 0.11171 0.29279
0.039590999 0.1135 0.29297
0.039864 0.11369 0.29267001
0.040890001 0.11534 0.29244
0.041161999 0.11751 0.29205999
0.040911999 0.11852 0.29133001
0.042780999 0.11938 0.29181999
0.043396 0.12105 0.29148999
0.043187 0.12292 0.29064
0.044557001 0.12417 0.29006001
0.045246001 0.12519 0.28896999
0.045733999 0.12695 0.28981
0.046735 0.12729 0.28859001
0.047869999 0.12969001 0.28803
0.048473999 0.13128 0.28753999
0.049552001 0.13239001 0.28703001
0.050967999 0.13366 0.28694999
0.061212 0.1249 0.32325
0.050225001 0.11008 0.32946
0.05009 0.097255997 0.33217999
0.099420004 0.20367 0.27340999
0.097583003 0.20306 0.27274001
0.060991 0.12083 0.32927999
0.079645999 0.18867999 0.26795
0.081050001 0.19131 0.26942
0.082520001 0.19407 0.26925001
0.083183996 0.19544999 0.26916
0.067157999 0.14054 0.31758001
0.068092003 0.14506 0.30061001
0.0473 0.071790002 0.28999001
0.046730001 0.069980003 0.29034999
0.047079999 0.073702 0.29027
0.046360001 0.073413 0.2902
0.046494 0.075979002 0.29032001
0.046146002 0.077855997 0.28952
0.045589 0.078667998 0.29001001
0.045786001 0.079998001 0.29007
0.045710001 0.082227997 0.29030001
0.044721 0.083233997 0.29039001
0.044581998 0.084302999 0.29137
0.044775002 0.085744001 0.29054999
0.044222999 0.087669 0.29155001
0.043722998 0.088444002 0.29159999
0.043974999 0.090168998 0.29091999
0.043131001 0.091725998 0.29164001
0.043625999 0.093033999 0.29144999
0.043200999 0.094361998 0.29190999
0.044388 0.096414 0.29203999
0.043494999 0.097303003 0.29157999
0.042527001 0.097851001 0.29214999
0.042835999 0.099820003 0.29190001
0.042920999 0.10142 0.29262999
0.042621002 0.10307 0.29189
0.041111 0.10448 0.29352999
0.040546998 0.10602 0.29374999
0.040961001 0.1076 0.29273
0.040837999 0.10856 0.29378
0.040909 0.11027 0.2929
0.040651999 0.11115 0.29313999
0.040169001 0.11247 0.2938
0.040957998 0.11431 0.29251
0.040564001 0.11589 0.29383001
0.041887 0.11647 0.29249999
0.041859001 0.11797 0.29275
0.043324001 0.11997 0.29286999
0.042399999 0.12108 0.29236999
0.044050001 0.12219 0.29082
0.044764999 0.12349 0.29124001
0.045294002 0.12537999 0.28986999
0.046255998 0.12647 0.29021999
0.047455002 0.12858 0.28986001
0.047853 0.12988 0.28821999
0.049226999 0.13037001 0.28838
0.050229002 0.13183001 0.28751999
0.050689999 0.13338999 0.28766999
0.056552 0.087134004 0.33803999
0.057585001 0.087596998 0.33671999
0.057011999 0.087837003 0.33835
0.044465002 0.059863999 0.25882
0.045281999 0.060013998 0.25935
0.036938 0.16677 0.22753
0.081717998 0.19117001 0.26870999
0.081455 0.19213 0.26868999
0.083658002 0.19449 0.26971
0.084228002 0.1962 0.26914999
0.069564998 0.14480001 0.29398999
0.067929998 0.1445 0.29401001
0.046928 0.071128003 0.29041001
0.04744 0.072701998 0.28996
0.047035001 0.073600002 0.29051
0.047329001 0.076710001 0.29080001
0.046521001 0.077133998 0.29045999
0.047346 0.078666002 0.29148
0.046682999 0.079948999 0.29168999
0.045446999 0.081609003 0.29096001
0.046204999 0.083520003 0.29106
0.045262001 0.084027 0.29168999
0.046071999 0.084959 0.29201001
0.045612998 0.087033004 0.29179999
0.044989999 0.08856 0.29190001
0.044319998 0.089979 0.29255
0.044362999 0.091658004 0.29190001
0.043476 0.093324997 0.29301
0.043510001 0.093788996 0.29323
0.043566 0.095693998 0.29275
0.042909998 0.097176999 0.29345
0.04253 0.098141 0.29271001
0.042103 0.10022 0.29319999
0.04208 0.10083 0.29352999
0.042038001 0.10291 0.29475999
0.042101 0.10505 0.29436001
0.041423999 0.10609 0.29497999
0.041567001 0.10769 0.29447001
0.041062001 0.10877 0.29394999
0.041487001 0.1101 0.29464999
0.040948 0.11196 0.29506999
0.040654998 0.1128 0.29493999
0.041467 0.11447 0.29383999
0.04183 0.11578 0.29348001
0.041954 0.11718 0.29264
0.042614002 0.11832 0.29363
0.042378001 0.12002 0.29324999
0.043814 0.12119 0.29304001
0.044181999 0.12222 0.29268
0.045426 0.12407 0.29187
0.045643002 0.12494 0.29111001
0.046769999 0.12696999 0.29108
0.047802001 0.12793 0.29078001
0.049047999 0.12978999 0.29073
0.049936 0.13059001 0.28961
0.050588001 0.13203999 0.28907999
0.053211998 0.13459 0.28762999
0.056037001 0.11865 0.31990999
0.043783002 0.060258001 0.31167001
0.063607 0.11898 0.33614999
0.042571999 0.10402 0.32091999
0.042410001 0.10475 0.32080999
0.059188999 0.13928001 0.30192
0.043324001 0.099575996 0.32242
0.042704001 0.098370999 0.32324001
0.082748003 0.19216 0.26958001
0.066353999 0.14374 0.29308999
0.084605999 0.14848 0.31186
0.088444002 0.14793 0.31257999
0.047961 0.069514997 0.29052001
0.04786 0.069660001 0.29065001
0.048018999 0.072578996 0.29100999
0.048423 0.071941003 0.29104999
0.048965 0.07429 0.29139999
0.048232 0.075722001 0.29128999
0.047598001 0.076820999 0.29144001
0.047026999 0.078694999 0.29198
0.046730999 0.080016002 0.29192001
0.047465 0.081779003 0.29260999
0.046762999 0.083028004 0.29198
0.045508001 0.083852001 0.29234001
0.046422001 0.084980004 0.29258001
0.045568001 0.087618999 0.29262999
0.04642 0.088165 0.29238999
0.046055999 0.090405002 0.29345
0.044971 0.091426 0.29311001
0.043846 0.093346 0.29372999
0.043993 0.11456 0.31272
0.042785998 0.11299 0.31244999
0.041623998 0.097245 0.29519001
0.042649001 0.096095003 0.29462001
0.041471999 0.099349 0.29427001
0.041087002 0.099786997 0.29570001
0.041393999 0.10151 0.29543999
0.041763 0.10351 0.29486999
0.022328001 0.10992 0.25628999
0.041421 0.10599 0.29495999
0.041598 0.10415 0.29510999
0.041090999 0.10712 0.29440001
0.042608 0.10889 0.29554
0.041264001 0.11005 0.29508001
0.041754998 0.11174 0.29598001
0.041021999 0.11239 0.29475999
0.041644 0.11388 0.29497999
0.042691 0.11543 0.29516
0.042659 0.11717 0.29449001
0.043246999 0.11808 0.29413
0.043405998 0.12055 0.2938
0.045299999 0.12119 0.29350001
0.045224998 0.12242 0.29392999
0.045069002 0.12338 0.29271999
0.046613 0.12541001 0.29265001
0.047127999 0.12639 0.29143
0.048264001 0.12873 0.29099
0.048721001 0.12955999 0.29078001
0.050214998 0.13079 0.29049
0.051435001 0.13116001 0.28992
0.036637999 0.10926 0.22809
0.036226001 0.10886 0.22887
0.036726002 0.10933 0.22769
0.064208999 0.13083 0.32508999
0.063648999 0.13195001 0.32506999
0.062940001 0.13056 0.32363001
0.043745998 0.094907999 0.29358
0.062982999 0.12992001 0.32481
0.083586998 0.1928 0.27059001
0.083362997 0.19145 0.26944
0.084859997 0.19394 0.27008
0.032868002 0.15333 0.23018999
0.043845002 0.092969 0.29383001
0.037317999 0.062329002 0.29778999
0.036290001 0.063074999 0.2983
0.036061998 0.061308 0.29773
0.036148001 0.062679 0.29705
0.037615001 0.064126998 0.29929
0.045733001 0.061246 0.26119
0.046362001 0.061216 0.26109999
0.085446998 0.14872 0.31259999
0.087058999 0.1479 0.31253001
0.049672998 0.074138999 0.29144999
0.048948001 0.072889 0.29251
0.048861001 0.075328 0.29225001
0.048271999 0.077117004 0.29223001
0.048039 0.078874998 0.29291999
0.046677999 0.080099002 0.29295999
0.047927 0.080643997 0.29242
0.047028001 0.083365001 0.29352999
0.046950001 0.084109001 0.29350999
0.045908999 0.085853003 0.29282001
0.046560999 0.087142996 0.29385
0.046631999 0.088659003 0.29471999
0.044583999 0.089948997 0.29420999
0.044934001 0.091374002 0.29341999
0.066753998 0.14144 0.31600001
0.065199003 0.14066 0.31516001
0.065495998 0.1407 0.31709999
0.066766001 0.14139999 0.31713
0.033792 0.17159 0.23779
0.032561999 0.17047 0.23812
0.04002 0.11125 0.31112
0.039872002 0.11046 0.30961001
0.03819 0.10905 0.31075999
0.041423 0.10728 0.29642999
0.037402999 0.093282998 0.30579001
0.036036 0.095386997 0.30586001
0.037138999 0.093906 0.30548999
0.041735001 0.10931 0.29596001
0.041855 0.10935 0.29651001
0.041855 0.11124 0.29677001
0.041878998 0.11289 0.29598001
0.042337 0.11426 0.29663
0.043012001 0.11521 0.29502001
0.042183999 0.11671 0.29521
0.043499 0.1186 0.29495999
0.044433001 0.11929 0.29486001
0.044128001 0.12058 0.29484999
0.045134999 0.1217 0.29381999
0.046114001 0.12395 0.29525
0.046682 0.125 0.29284999
0.047341 0.12662999 0.29265001
0.048243999 0.12772 0.29168999
0.049116001 0.12916 0.29222
0.050402999 0.13075 0.29183999
0.052003 0.13133 0.29087999
0.054097999 0.13465001 0.28911
0.054333001 0.13462 0.2906
0.046107002 0.061126001 0.26176
0.047924999 0.061414 0.26269999
0.034035999 0.12155 0.23267999
0.062964998 0.11519 0.33640999
0.062107 0.1172 0.33723
0.071107 0.12935001 0.33239999
0.069948003 0.12883 0.33269
0.057103999 0.055259001 0.32466999
0.056290999 0.05669 0.32519001
0.056542002 0.056844 0.32403001
0.086525001 0.19744 0.2701
0.087123998 0.19764 0.27070001
0.087690003 0.19897 0.26982
0.086441003 0.1971 0.26896
0.037404999 0.062527999 0.29975
0.035755999 0.060979001 0.29995
0.036520001 0.061806001 0.29993999
0.042068999 0.066453002 0.29868001
0.040447999 0.065403998 0.29789001
0.057356 0.074104004 0.25588
0.045945 0.17247 0.23692
0.049029998 0.072562002 0.29387
0.048595998 0.074493997 0.29311001
0.048914 0.075297996 0.29299
0.048432 0.077150002 0.2933
0.047757 0.0788 0.29433
0.048067 0.080444001 0.29374
0.048385002 0.081138998 0.29328999
0.047738001 0.083067998 0.29445001
0.047361001 0.084261 0.29434001
0.046432 0.085355997 0.29532
0.045389 0.087306 0.29453999
0.046069998 0.082392998 0.29714999
0.045426 0.085038997 0.29660001
0.046337001 0.084873997 0.29615
0.045773 0.088661 0.29565001
0.077688001 0.14738999 0.31604999
0.076238997 0.14731 0.31683999
0.076223999 0.14647 0.31786001
0.078068003 0.14654 0.31759
0.072497003 0.14455999 0.31794
0.072412997 0.14465 0.31707001
0.071451001 0.14402001 0.31823
0.072102003 0.14387999 0.31702
0.031638 0.17031001 0.23882
0.041783001 0.10821 0.29668999
0.042803001 0.1097 0.29743001
0.041965999 0.11135 0.29723999
0.042757001 0.1128 0.29679
0.043042 0.11414 0.29618999
0.043694001 0.11612 0.29671001
0.042993002 0.11629 0.29642999
0.043078002 0.11886 0.29662001
0.044266999 0.1198 0.29563999
0.045444999 0.12067 0.29609001
0.045728002 0.12318 0.29516
0.046147998 0.12356 0.29438001
0.047072001 0.12594 0.29434001
0.048175 0.12687001 0.29414999
0.049435999 0.12751999 0.29368001
0.04981 0.12925 0.29275
0.050296001 0.13065 0.29232001
0.051116999 0.13269 0.29223999
0.052446 0.13441999 0.29194
0.053667001 0.1348 0.29161
0.059098002 0.058148 0.32804
0.056111999 0.1241 0.31841999
0.055415999 0.12461 0.31823999
0.056318998 0.12373 0.31941
0.073638998 0.13334 0.33316001
0.073172003 0.13458 0.33054999
0.031966001 0.16888 0.26208001
0.038125999 0.061981998 0.30133
0.036231 0.059795 0.30096999
0.037882 0.062711999 0.30083001
0.038382001 0.064170003 0.30004001
0.039955001 0.064404003 0.30101001
0.042615999 0.067649998 0.29723001
0.044433001 0.067643002 0.29688001
0.088532001 0.14811 0.31149
0.043072999 0.17185999 0.23759
0.047883999 0.074826002 0.29402
0.047770001 0.076279998 0.29392001
0.047812 0.077280998 0.29455
0.047311001 0.076899998 0.29545
0.047589999 0.082942002 0.29570001
0.046261001 0.082758002 0.29615
0.043136999 0.17323001 0.24527
0.071494997 0.14368001 0.31586999
0.07079 0.14406 0.31525999
0.069972001 0.14269 0.31630999
0.068919003 0.14349 0.31578001
0.067064002 0.14236 0.31575999
0.068017997 0.14284 0.31601
0.085248999 0.14706001 0.31553
0.084150001 0.14727999 0.31544
0.083883002 0.14769 0.31615001
0.083673 0.14842001 0.31454
0.013102 0.13754 0.23803
0.013249 0.13684 0.23733
0.014082 0.13635001 0.23751
0.047543999 0.062569 0.26348001
0.048604 0.062822998 0.26399001
0.075737998 0.14653 0.31779
0.074874997 0.14627001 0.31657001
0.013123 0.13974001 0.23827
0.068719998 0.14249 0.31838
0.068651997 0.14226 0.31650001
0.069406003 0.14275999 0.31652001
0.070072003 0.14297 0.31803
0.073250003 0.14545 0.31698
0.041088 0.1692 0.22855
0.040073998 0.16791999 0.22809
0.040989999 0.16918001 0.22855
0.043065 0.11169 0.29855999
0.042741999 0.11053 0.29798999
0.043628 0.11274 0.29723001
0.043765001 0.11465 0.29727
0.042714 0.1159 0.29703999
0.043116 0.11674 0.29706001
0.044356 0.11845 0.29688001
0.044589002 0.11927 0.29675001
0.045377001 0.12068 0.29637
0.045731999 0.12208 0.2965
0.046269 0.12381 0.29539001
0.046615999 0.12527999 0.29523
0.047947001 0.12669 0.29491001
0.048696999 0.12818 0.29449001
0.050032001 0.1296 0.29394999
0.050466999 0.13129 0.29315999
0.05302 0.13286 0.29216
0.053773001 0.13312 0.29137
0.047995999 0.063634001 0.26552999
0.048990998 0.064501002 0.26343
0.058517002 0.13259999 0.31729999
0.060102999 0.13368 0.31759
0.050732002 0.10753 0.331
0.091679998 0.1988 0.26999
0.091135003 0.19881 0.27096999
0.089984 0.19950999 0.271
0.036874998 0.060143001 0.30254999
0.035142999 0.059735 0.30074999
0.035964001 0.059560001 0.30214
0.037184998 0.062955998 0.30243
0.037801001 0.061477002 0.30276999
0.038702998 0.064124003 0.30088001
0.03971 0.066064999 0.30063999
0.041664001 0.066673003 0.29997
0.044519 0.068182997 0.29821
0.034988001 0.059493002 0.30333999
0.035898998 0.060563002 0.30278999
0.032094002 0.16705 0.2297
0.033071999 0.16786 0.23007999
0.033677001 0.16778 0.22945
0.064818002 0.14089 0.31459999
0.075055003 0.14597 0.31580001
0.073473997 0.14568 0.31521001
0.071482003 0.1452 0.31553
0.078787997 0.14681999 0.31509
0.082447 0.14793999 0.31610999
0.079855002 0.14698 0.31485999
0.059337001 0.074686997 0.25244999
0.060676999 0.072802998 0.25259
0.058883999 0.072917998 0.25373
0.041423999 0.17230999 0.23797999
0.039804 0.17265999 0.23738
0.059965 0.1759 0.25591999
0.073624 0.14617001 0.31696999
0.072664 0.14483 0.31610999
0.07739 0.14745 0.31544
0.081165999 0.14704999 0.31654999
0.088876002 0.19604 0.26736999
0.046100002 0.11479 0.31887999
0.046170998 0.115 0.31878999
0.046743002 0.11633 0.31854001
0.074524 0.14577 0.31816
0.047733001 0.065165997 0.26462001
0.047878999 0.066928998 0.26508
0.040137 0.17395 0.24411
0.039657999 0.17268001 0.24299
0.038056001 0.17271 0.24427
0.042231001 0.10991 0.29854
0.04166 0.10817 0.29866999
0.024147 0.10736 0.26135999
0.043877002 0.11628 0.29877999
0.044549 0.11653 0.29885
0.044817001 0.11923 0.29901999
0.045047 0.12031 0.29815999
0.045083001 0.12106 0.29708999
0.045596998 0.12221 0.29745999
0.047028001 0.12352 0.29660001
0.047394998 0.12471 0.29613999
0.047865 0.12691 0.29552001
0.048719998 0.12751 0.29530001
0.050144002 0.13 0.29503
0.051433001 0.13022999 0.29440999
0.052361 0.13128 0.29326999
0.053599998 0.13415 0.29332
0.053957 0.13447 0.29207999
0.092547998 0.19848 0.27239999
0.090859003 0.19766 0.27191001
0.032632001 0.15651999 0.22948
0.063773997 0.12729999 0.32539999
0.089648999 0.19698 0.27188
0.088265002 0.1982 0.27079999
0.063216999 0.12853999 0.32475999
0.091801003 0.20048 0.27173001
0.092221998 0.20087001 0.27191001
0.076376997 0.18877 0.26186001
0.077427 0.18945999 0.26069
0.073985003 0.18813001 0.25913
0.037131999 0.061673 0.30381
0.038536001 0.063156001 0.30401999
0.038129002 0.064428002 0.30289
0.039829001 0.065560997 0.30204999
0.04214 0.066334002 0.30081001
0.046050999 0.068158001 0.29899001
0.046695001 0.068731003 0.29828
0.046478 0.068937004 0.29879999
0.046037 0.070992999 0.29863
0.047185998 0.070107996 0.29782999
0.044137001 0.17295 0.23761
0.086441003 0.14827 0.31301001
0.084835999 0.14884999 0.3136
0.042482998 0.089174002 0.23526999
0.027386 0.16518 0.26019999
0.075707003 0.14657 0.31478
0.081476003 0.14701 0.31555
0.031562001 0.16428 0.2295
0.030949 0.16311 0.22909001
0.075367004 0.14541 0.31812999
0.081832998 0.14708 0.31828001
0.082319997 0.14724 0.31650001
0.080678001 0.14668 0.31737
0.028514 0.12669 0.24226999
0.028866 0.12582999 0.24278
0.027356001 0.12599 0.24270999
0.043816999 0.11073 0.29876
0.043926999 0.11678 0.29933
0.043458998 0.11621 0.30063999
0.044371001 0.11878 0.30019
0.044875 0.11922 0.29960001
0.04535 0.12083 0.29888999
0.046452999 0.12258 0.29883999
0.046918999 0.12379 0.29745001
0.047586001 0.12588 0.29732999
0.048581999 0.12619001 0.29721001
0.048716001 0.12849 0.29671001
0.050471999 0.13011999 0.29605001
0.051798999 0.13079 0.29484001
0.052345999 0.13276 0.29445001
0.053998001 0.13469 0.29352999
0.054441001 0.13529 0.29341
0.055321001 0.13653 0.29332
0.013831 0.13734999 0.23756
0.014285 0.13924 0.23693
0.047504999 0.066919997 0.26514
0.049589999 0.066533998 0.26508999
0.054474 0.12228 0.31906
0.074390002 0.13562 0.33069
0.074533999 0.13495 0.33188999
0.074785002 0.1366 0.33201
0.047672998 0.068718001 0.26613
0.049617998 0.068277001 0.26510999
0.064273 0.13891 0.31692001
0.089959003 0.19558001 0.27215999
0.037730001 0.061701 0.30445001
0.036169998 0.059700001 0.30399001
0.037535001 0.063314997 0.30447999
0.038137 0.063680001 0.30423999
0.041017 0.066186003 0.30281001
0.041807 0.066595003 0.30136999
0.045396 0.067791 0.29890999
0.049456 0.119 0.30763999
0.048962999 0.11775 0.30838999
0.050379999 0.11754 0.30946001
0.036997002 0.17061 0.25962999
0.036809001 0.17136 0.25854999
0.035505999 0.17 0.25964001
0.084567003 0.14813 0.31419
0.070922002 0.14026999 0.32426
0.070720002 0.14004999 0.32523
0.072090998 0.14044 0.32580999
0.071209997 0.13839 0.32641
0.072828002 0.13912 0.32730001
0.041131001 0.088689998 0.23596001
0.066627003 0.14182 0.31406999
0.045767002 0.17302001 0.24335
0.043935999 0.17242 0.24422
0.044020001 0.1737 0.24567001
0.060346998 0.070533998 0.25310001
0.079402 0.14650001 0.31546
0.040808 0.17339 0.24394
0.040934999 0.17298999 0.24281
0.081368998 0.14781 0.31714001
0.079352997 0.14653 0.31729999
0.079792 0.14622 0.31786001
0.084890001 0.14668 0.31671
0.083628997 0.14752001 0.31687
0.083596997 0.14712 0.31748
0.042592 0.17373 0.24288
0.022279 0.15764999 0.2376
0.080352999 0.14647 0.31865001
0.10325 0.20367 0.27434
0.044367999 0.1154 0.30008
0.044794001 0.11676 0.29973999
0.044941999 0.11925 0.30048001
0.045409001 0.11994 0.30050001
0.045678999 0.12125 0.29932001
0.047555 0.12311 0.29933
0.047594 0.12423 0.29916999
0.047320999 0.12544 0.29881001
0.048099998 0.12665001 0.29819
0.050106999 0.12795 0.29723999
0.049625002 0.13000999 0.29701999
0.051057 0.13089 0.29583001
0.052145999 0.13165 0.29595
0.052680001 0.13336 0.29469001
0.053490002 0.13551 0.29475001
0.056001998 0.13589001 0.294
0.057053 0.13758001 0.29315001
0.010426 0.1332 0.24455
0.011931 0.13132 0.24364001
0.010938 0.13192999 0.24478
0.051313002 0.083949998 0.33364001
0.061328001 0.17145 0.26111001
0.054396 0.075851999 0.33318001
0.066708997 0.13806 0.32179999
0.036791001 0.060187001 0.30588001
0.037763 0.06171 0.30518001
0.036869001 0.059255 0.30452999
0.036352001 0.060608 0.30487999
0.038970999 0.063442998 0.30570999
0.039724998 0.064781003 0.30508
0.040592998 0.066372998 0.30454001
0.043110002 0.066832997 0.30235001
0.045694001 0.067599997 0.30065
0.045627002 0.069330998 0.30105999
0.045681 0.070721999 0.30035001
0.044902999 0.071079999 0.30228999
0.044546999 0.072058 0.3017
0.046107002 0.070713997 0.29945999
0.047915999 0.070352003 0.26515999
0.083834998 0.14782 0.31393
0.043166 0.17307 0.24408001
0.021423001 0.15196 0.23673999
0.020339999 0.15166 0.23766001
0.021633999 0.15321 0.237
0.034045 0.16921 0.23052999
0.081491999 0.18471999 0.25611001
0.024347 0.15064999 0.23503999
0.023260999 0.15109999 0.23602
0.025220999 0.15209 0.23525
0.030356999 0.17107999 0.24584
0.029461 0.16940001 0.24510001
0.029242 0.17016 0.24692
0.030239001 0.17035 0.24389
0.029480999 0.17032 0.24263
0.028716 0.16941001 0.24393
0.039707001 0.065755002 0.26785001
0.041733999 0.067166001 0.26876
0.048207998 0.071117997 0.26464999
0.092101 0.20013 0.27309
0.079319 0.14632 0.31913999
0.059218999 0.070883997 0.25525001
0.058378 0.073319003 0.25496
0.044690002 0.11643 0.30182001
0.045488 0.11721 0.30142999
0.044566002 0.11762 0.30153999
0.046386 0.11966 0.30114999
0.046751998 0.12158 0.30109999
0.046579 0.12281 0.29991999
0.047846999 0.12392 0.2999
0.048064001 0.12523 0.29949999
0.049566999 0.12729 0.30002001
0.049630001 0.12763999 0.29905999
0.050131001 0.12994 0.29826999
0.051511001 0.13045 0.29787001
0.052226 0.1319 0.2967
0.053849999 0.13315 0.29679
0.054225001 0.13497999 0.29592001
0.055585999 0.13651 0.29561001
0.057064001 0.13765 0.29468
0.058628 0.13922 0.29289001
0.031473 0.15955 0.22905
0.031168999 0.16146 0.22984999
0.052124001 0.12197 0.31369999
0.072779 0.12478 0.33741
0.052271001 0.11525 0.32688999
0.038334001 0.063143 0.30636001
0.039749 0.064584002 0.30557001
0.042541001 0.065825999 0.30465999
0.044068001 0.066349998 0.30351999
0.045692999 0.068466 0.30239999
0.045696001 0.068944 0.30241999
0.044875 0.072633997 0.30294001
0.046696 0.17242999 0.24421
0.023117 0.16285001 0.23863
0.024242001 0.16173001 0.23697001
0.022384999 0.1609 0.2379
0.031179 0.16551 0.22826999
0.045651998 0.17302001 0.24506
0.078468002 0.14681 0.31869999
0.076445997 0.14597 0.31874001
0.074945003 0.13897 0.32870001
0.073077999 0.13976 0.32754001
0.069282003 0.14256001 0.31806001
0.078377999 0.14689 0.31834
0.0239 0.15163 0.23661999
0.046174001 0.11774 0.30186999
0.046861999 0.1189 0.30179
0.046478 0.12124 0.30164999
0.047522999 0.12186 0.30083999
0.048602 0.12424 0.30142
0.047820002 0.12579 0.30112001
0.048363 0.12683 0.29980999
0.049403999 0.12785999 0.30057999
0.050246999 0.12928 0.29953
0.051972002 0.13105001 0.29859
0.052638002 0.13188 0.29844999
0.053513002 0.13397001 0.29775
0.053778999 0.13567001 0.29736999
0.056042001 0.13624001 0.29651001
0.052940998 0.084265999 0.33318999
0.051853001 0.082689002 0.33320001
0.035078 0.16291 0.22761001
0.035641 0.16452999 0.22663
0.036166001 0.16455001 0.22697
0.058465999 0.063822001 0.33078
0.037873 0.062228002 0.30717
0.039659001 0.063157998 0.30629
0.052058998 0.11516 0.32638001
0.040839002 0.064009003 0.30673
0.042381998 0.065366 0.30520001
0.04417 0.066555001 0.30405
0.044872999 0.068274997 0.30362001
0.045279 0.070074998 0.30399999
0.044833999 0.072497003 0.30467001
0.043497 0.071061 0.30368
0.044016998 0.072325997 0.30452999
0.031610999 0.16931 0.2613
0.03009 0.16700999 0.26117
0.026869001 0.12078 0.2454
0.027519999 0.12342 0.24592
0.033204999 0.16576999 0.22781999
0.040853001 0.090239003 0.23645
0.037601002 0.17323001 0.24665
0.036083002 0.17272 0.24736001
0.038754001 0.065063998 0.26609001
0.076995999 0.14646 0.31959999
0.076944999 0.14577 0.31928
0.074340001 0.14451 0.31942999
0.046459999 0.11876 0.30304
0.046750002 0.1198 0.30241999
0.047634002 0.12158 0.30274001
0.047993999 0.1218 0.30173001
0.047885999 0.12362 0.30271
0.049066 0.12601 0.30151001
0.049155999 0.12506001 0.30094001
0.049943998 0.12836 0.30024001
0.050476 0.12922999 0.2999
0.052104 0.13072 0.29947999
0.052685 0.13271999 0.29956999
0.053596999 0.13421001 0.29843
0.054007001 0.13420001 0.29807001
0.056446001 0.13654 0.29738
0.056163002 0.13773 0.29592001
0.058745999 0.070799001 0.25652
0.058148 0.069183998 0.25703999
0.058432002 0.070563003 0.25758001
0.068705 0.13545001 0.32644999
0.040038999 0.062932998 0.30748999
0.040516 0.064359002 0.30673999
0.042957 0.065854996 0.30642
0.044932999 0.067322999 0.30509001
0.044516999 0.068001002 0.30465001
0.043816999 0.069761001 0.30576
0.04332 0.070885003 0.30587
0.043489002 0.071413003 0.30733001
0.044004999 0.071870998 0.30627999
0.042100001 0.17416 0.24461
0.039368998 0.17287999 0.24469
0.085817002 0.14742 0.31468001
0.037105002 0.17149 0.23796
0.035815999 0.17082 0.23769
0.037813999 0.093511999 0.30937999
0.036920998 0.095371999 0.30991
0.036681 0.095999002 0.3091
0.035813998 0.097299002 0.31049001
0.035363998 0.097074002 0.30875999
0.02853 0.053952999 0.26170999
0.029068001 0.052689001 0.26007
0.029298 0.051525999 0.26062
0.035309002 0.098405004 0.30956
0.035804 0.098861001 0.30982
0.035813998 0.10168 0.30923
0.035238001 0.099532001 0.30899999
0.035220001 0.10127 0.31042999
0.036387 0.1027 0.30904999
0.035939001 0.10311 0.30943
0.036279 0.099898003 0.31007001
0.039190002 0.060169 0.30791
0.039558999 0.060796998 0.30842
0.053052999 0.1196 0.31452999
0.036286 0.10409 0.30989999
0.036988001 0.10506 0.30928999
0.038125999 0.10665 0.31099001
0.037432 0.10647 0.30845001
0.070996001 0.14305 0.31896999
0.073582999 0.14353 0.31979999
0.045423999 0.17342 0.24378
0.046703 0.17366 0.24352001
0.026079001 0.16835 0.24222
0.046627 0.11569 0.31064001
0.046422999 0.11567 0.31000999
0.045802999 0.11536 0.31061
0.028091 0.17028999 0.24333
0.047623001 0.11814 0.30412
0.047545001 0.11991 0.30320999
0.047928002 0.12185 0.30366999
0.048000999 0.12295 0.30289
0.048030999 0.12421 0.30254999
0.049545001 0.12576 0.30265999
0.049954001 0.12594999 0.30271
0.050207 0.12762 0.30175
0.050983001 0.12993 0.30151001
0.051447999 0.13046999 0.30087
0.052530002 0.13184001 0.30070999
0.054721002 0.13435 0.30004999
0.054395001 0.13536 0.29911
0.055403002 0.13541 0.29804
0.062233999 0.11149 0.33682999
0.061857998 0.11151 0.33568999
0.060922999 0.11055 0.33691001
0.048935998 0.098586999 0.33144999
0.035583001 0.10373 0.30803001
0.037138 0.10411 0.30901
0.053358 0.11812 0.31571999
0.051915001 0.11753 0.31446001
0.051566999 0.11806 0.31507
0.10317 0.20423999 0.27339
0.10286 0.20401999 0.27274001
0.10157 0.20444 0.27394
0.041317999 0.061849002 0.30860999
0.041588001 0.064370997 0.30737001
0.044025 0.064952999 0.30597001
0.044753999 0.067282997 0.30601001
0.044255 0.067629002 0.30603001
0.043889001 0.069738999 0.30699
0.042594001 0.071603 0.30763999
0.043595999 0.072439 0.30858999
0.038555 0.17204 0.23751999
0.068469003 0.18375 0.25995001
0.069320999 0.18524 0.25931999
0.069820002 0.18561 0.25915
0.017284 0.13572 0.23609
0.017178999 0.13679001 0.23537999
0.017879 0.13677999 0.23536
0.037492 0.17306 0.24293
0.037289001 0.092160001 0.31004
0.037305001 0.094006002 0.30913001
0.036430001 0.095650002 0.31116
0.036600001 0.096750997 0.31090999
0.03596 0.098365001 0.31118
0.035645999 0.099928997 0.31233001
0.035928 0.101 0.31115001
0.036781002 0.10251 0.31139001
0.036819 0.10391 0.31145
0.036906 0.10543 0.31011
0.037200999 0.1065 0.31084999
0.037385002 0.10758 0.31084001
0.037962999 0.10738 0.31016999
0.081308998 0.14616001 0.32007
0.047302999 0.11726 0.30419001
0.047644999 0.11788 0.30382001
0.025892001 0.093801998 0.25953001
0.024855999 0.09578 0.25988001
0.026389999 0.094287999 0.2588
0.048592001 0.1197 0.30493999
0.047667 0.1224 0.30357999
0.048524 0.12282 0.30458
0.049337 0.1245 0.30373001
0.049164999 0.12564 0.30351001
0.050792001 0.12577 0.30348
0.051600002 0.12847 0.30226001
0.050565999 0.12952 0.30232999
0.052290998 0.13091999 0.30140999
0.053316999 0.13254 0.30230001
0.053683002 0.13368 0.301
0.054365002 0.13526 0.29984999
0.056022 0.1366 0.29955
0.057875998 0.13799 0.29868001
0.054676998 0.058772001 0.32170999
0.053130001 0.058051001 0.32113999
0.032065999 0.10146 0.23535
0.031589001 0.10285 0.23498
0.032391999 0.10205 0.23477
0.048524 0.099726997 0.33210999
0.047832999 0.099362999 0.33105001
0.079833001 0.19058999 0.26109999
0.041549001 0.063224003 0.30957001
0.043448001 0.064342 0.30906001
0.044711001 0.065742001 0.30794999
0.045639999 0.066312 0.30666
0.045729998 0.068177 0.30699
0.043582 0.069801003 0.308
0.043178 0.070891 0.30985001
0.043490998 0.069776997 0.30902001
0.015907999 0.14619 0.23925
0.015643001 0.14759 0.23918
0.016129 0.14844 0.23941
0.025401 0.16835999 0.24646001
0.024181999 0.16867 0.24596
0.048170999 0.17297 0.24324
0.03819 0.089272 0.31104001
0.038222998 0.090813003 0.31119001
0.038217999 0.092673004 0.31132999
0.037491001 0.093654998 0.31108001
0.037066001 0.095752999 0.31156
0.036024999 0.097227998 0.31194001
0.036215 0.098485999 0.31257999
0.035937 0.099797003 0.31197
0.036054 0.10086 0.31251001
0.036479 0.1024 0.31198999
0.036761001 0.1038 0.31186
0.037641 0.10517 0.31151
0.037165001 0.1064 0.31156
0.038523 0.10963 0.31031999
0.038201999 0.10925 0.31149
0.047662999 0.12012 0.30524001
0.049236 0.12137 0.30434999
0.049667999 0.12282 0.3044
0.049284998 0.12294 0.30421001
0.050604001 0.12585001 0.30429
0.050264001 0.12669 0.30451
0.051295001 0.12819 0.30377999
0.052149002 0.12943 0.30340001
0.052331001 0.13108 0.30337
0.053707998 0.13323 0.30287001
0.054225001 0.13335 0.30131
0.055172998 0.13497999 0.30087
0.056186002 0.13619 0.30037999
0.043513998 0.11407 0.3105
0.044689 0.11432 0.30917999
0.060614001 0.059296001 0.32879999
0.061106 0.060098 0.33050001
0.060752001 0.061050002 0.32877001
0.048248 0.10092 0.33094999
0.043168999 0.10294 0.32091999
0.041783001 0.06222 0.31011999
0.043501999 0.063220002 0.30991
0.043885 0.064268999 0.30869001
0.045777999 0.065379001 0.30818999
0.046016 0.067212 0.30750999
0.044537 0.068512 0.30809
0.042390998 0.073636003 0.30974999
0.042943001 0.072907999 0.30869001
0.0085249003 0.14386 0.25407001
0.029951001 0.16768 0.2606
0.03951 0.085606001 0.31073001
0.039669 0.086181998 0.30996001
0.027828 0.053468999 0.27511999
0.026892999 0.054180998 0.27495
0.02685 0.053365 0.27441999
0.039184999 0.085628003 0.31169999
0.038938001 0.086836003 0.31178001
0.038963001 0.088234 0.31180999
0.038596999 0.088702001 0.31066999
0.039097998 0.089961 0.31189999
0.038800001 0.091188997 0.31231001
0.038017999 0.093121 0.31200999
0.037689 0.094559997 0.31248
0.037967 0.095492996 0.31312999
0.036812998 0.097263999 0.31395
0.036883999 0.098080002 0.31279001
0.036591001 0.099922001 0.31353
0.037246998 0.10089 0.31305999
0.036660001 0.10283 0.31347001
0.037850998 0.10311 0.31237999
0.037673999 0.10495 0.31198999
0.037912998 0.10582 0.31222001
0.038380001 0.1084 0.31277001
0.040752001 0.11054 0.31209999
0.040153999 0.11115 0.31252
0.049003001 0.11654 0.30576
0.047952 0.11699 0.30434999
0.049247999 0.12011 0.30654001
0.049332 0.12119 0.30475
0.050574999 0.12229 0.30533001
0.050776999 0.12383 0.30526
0.050021 0.12444 0.30487999
0.051061999 0.12664001 0.30506
0.051614001 0.12814 0.3048
0.052368 0.12915 0.30401
0.052641999 0.13163 0.30359
0.053243998 0.1328 0.30311999
0.055091999 0.13372999 0.30298999
0.055066999 0.13511001 0.30193999
0.056143999 0.13691001 0.30208999
0.057162002 0.13782001 0.30092999
0.065056004 0.1207 0.33680999
0.063070998 0.11005 0.33791
0.042645 0.061838999 0.31005001
0.043281998 0.062399998 0.30959001
0.044909 0.064097002 0.30943999
0.045811001 0.065030999 0.30877
0.045605 0.067670003 0.30963999
0.044757001 0.068618 0.30932
0.043908 0.06972 0.31011999
0.043379001 0.071419001 0.31025001
0.043823998 0.073120996 0.31105
0.042376999 0.074106999 0.31115001
0.041994002 0.074337997 0.30959001
0.041000001 0.075081997 0.31060001
0.041742001 0.075144999 0.30851999
0.042091001 0.074925996 0.31059
0.041090999 0.076210998 0.31167999
0.041894 0.076976001 0.31103
0.040410999 0.078319997 0.31226999
0.040353999 0.077862002 0.31057999
0.041271999 0.080705002 0.31132999
0.041026998 0.079934001 0.31178999
0.040978 0.081248 0.31237
0.041361999 0.081721999 0.31125
0.040199 0.082672998 0.30985001
0.041046999 0.080559999 0.31
0.040504001 0.082897998 0.31167999
0.040917002 0.083550997 0.31077999
0.040422 0.084724002 0.31117001
0.040766001 0.084876999 0.31182
0.04039 0.084430002 0.30941999
0.03974 0.085864 0.31288001
0.039983999 0.086577997 0.31265
0.039011002 0.089028999 0.31273001
0.039625 0.089351997 0.31321001
0.038961999 0.091340996 0.31373999
0.038979001 0.092315003 0.31263
0.037868001 0.094347998 0.31319001
0.038288999 0.096238002 0.31378999
0.038150001 0.097111002 0.31323001
0.037445001 0.098522 0.3134
0.038433999 0.099693999 0.31421
0.037758999 0.10143 0.31297001
0.037338 0.10316 0.31389001
0.038272999 0.10486 0.31327999
0.037613999 0.10525 0.31355
0.038445 0.10643 0.31363001
0.038431 0.10789 0.31331
0.039538 0.11016 0.31299999
0.041900001 0.11315 0.31099001
0.042293001 0.11329 0.31121001
0.042252 0.1131 0.31
0.049516 0.11854 0.30688
0.048772998 0.11984 0.30715999
0.049552001 0.12094 0.30678001
0.050225999 0.12318 0.30616999
0.050154999 0.12384 0.30645999
0.050957002 0.12596001 0.30555999
0.05133 0.12734 0.30634999
0.052492999 0.12725 0.30478001
0.053034998 0.13011999 0.30561
0.052274 0.1313 0.30456001
0.054382998 0.13229001 0.30412999
0.054714002 0.13334 0.30403
0.055078 0.13524 0.30366999
0.057014 0.13591 0.30263001
0.057084002 0.13819 0.30177999
0.063617997 0.13252001 0.32354
0.044171002 0.061278 0.31121001
0.043471001 0.062467001 0.31077999
0.046277002 0.063780002 0.31051001
0.045584999 0.065073997 0.31003001
0.045591999 0.067473002 0.30954999
0.044787999 0.067730002 0.31057999
0.043692 0.070377 0.31081
0.043937001 0.070955999 0.31185001
0.044310998 0.072768003 0.31118
0.043033998 0.074509002 0.31279999
0.043368999 0.076017 0.31198001
0.041740999 0.082494996 0.31329
0.041763 0.081949003 0.31253001
0.040910002 0.083889 0.3134
0.04047 0.085414998 0.31281
0.039666999 0.086836003 0.31319001
0.039721999 0.087638997 0.31375
0.040107001 0.089639001 0.31363001
0.039604999 0.091628 0.31479999
0.038192999 0.093207002 0.31398001
0.039154999 0.093585998 0.31448001
0.038616002 0.095192999 0.31457999
0.038584001 0.096777998 0.31343001
0.038686 0.098926999 0.31477001
0.038157001 0.10025 0.31474999
0.037834 0.10125 0.31435001
0.038035002 0.10229 0.31466001
0.038741 0.10454 0.31375
0.038592 0.10528 0.31395
0.039002001 0.10631 0.31472999
0.039262 0.10745 0.31488001
0.039092001 0.10875 0.31342
0.040569998 0.11105 0.31290999
0.041258 0.1117 0.31270999
0.041104998 0.11199 0.31217
0.046165999 0.11467 0.30926999
0.049137 0.11621 0.30770001
0.048978999 0.11618 0.30961001
0.050112002 0.12105 0.30812001
0.050487999 0.12321 0.30783999
0.051056001 0.12348 0.30789
0.050898999 0.12497 0.30783001
0.051187001 0.12638 0.30739
0.051968999 0.12864999 0.30684
0.052588001 0.13023999 0.30610999
0.053828001 0.13119 0.30581999
0.054028999 0.13312 0.30572
0.054187 0.13337 0.30520999
0.055991001 0.13499001 0.30452001
0.056637 0.13686 0.30489001
0.057308 0.13773 0.30285001
0.058998 0.13871001 0.30283999
0.074271001 0.12357 0.33924001
0.073692001 0.12506001 0.33783001
0.074754998 0.12564 0.33902001
0.10385 0.20147 0.27452001
0.1046 0.20139 0.27443001
0.044727001 0.061682999 0.31198001
0.043134 0.060058001 0.31086001
0.042934 0.060027 0.31215
0.045892 0.063175 0.31152999
0.046907999 0.063910998 0.31068999
0.046066999 0.064871997 0.31130001
0.045162998 0.067530997 0.31219
0.044438999 0.068273 0.31266999
0.044443998 0.06978 0.31187999
0.044020001 0.071759999 0.31290001
0.043214999 0.072452001 0.31265
0.095716 0.17983 0.28094
0.097744003 0.17799 0.28031
0.096501999 0.18085 0.27943999
0.017193999 0.14819001 0.23932999
0.042486999 0.081653997 0.31312999
0.041951999 0.083021998 0.31349
0.041326001 0.08422 0.31344
0.041273002 0.085767001 0.31428999
0.04115 0.087330997 0.315
0.040810999 0.088643998 0.31470999
0.039384998 0.089768998 0.31466001
0.039905 0.091696002 0.31433001
0.038764998 0.092692003 0.31573999
0.038621001 0.094507001 0.31525001
0.039585002 0.095146999 0.31589001
0.038667999 0.097102001 0.31595001
0.038803 0.098982997 0.31547001
0.038924001 0.099660002 0.31560999
0.038183998 0.10141 0.31551999
0.038199 0.10257 0.31586
0.038263999 0.10442 0.31592
0.039004002 0.10575 0.31540999
0.03889 0.10624 0.31527001
0.039035998 0.10827 0.31490999
0.039556 0.10961 0.31529999
0.041441999 0.11152 0.31446999
0.044794001 0.11435 0.31363001
0.050097 0.12246 0.308
0.050616998 0.12375 0.30858001
0.050386 0.12648 0.30788001
0.050995 0.12711 0.30728
0.052033 0.12837 0.30765
0.053284999 0.12951 0.30720001
0.053757001 0.13117 0.30653
0.055034 0.13293 0.30680001
0.054749999 0.13342001 0.30605999
0.055865999 0.13483 0.30528
0.05731 0.13666999 0.30559
0.057636999 0.13762 0.30408001
0.059310999 0.13891999 0.30313
0.061370999 0.14034 0.30375001
0.066602997 0.13837001 0.32192001
0.067607999 0.13952 0.32225001
0.062477 0.12768 0.32559001
0.045853 0.061978001 0.31281999
0.043271001 0.058729 0.31187999
0.046833001 0.062210999 0.31255001
0.047736 0.064188004 0.31174999
0.046475001 0.065287001 0.31213
0.045260999 0.067253999 0.31235999
0.044992 0.069146 0.31325999
0.044546001 0.069909997 0.31314
0.043995 0.071911 0.31442001
0.043478999 0.073357999 0.31375
0.087200001 0.19625001 0.2712
0.087243997 0.19611999 0.27121001
0.041561 0.079824001 0.31477001
0.040846001 0.078939997 0.31338999
0.041044001 0.078373 0.31535
0.041501999 0.081997998 0.31409001
0.041175999 0.083030999 0.31490999
0.041627999 0.083883002 0.31512001
0.041283999 0.085377 0.31499001
0.041758999 0.086625002 0.31531
0.041290998 0.089388996 0.31626001
0.040064 0.089656003 0.31573001
0.039446998 0.091790996 0.31615999
0.039639 0.092786998 0.31635001
0.039574001 0.094783001 0.31716001
0.038153 0.095251001 0.31698999
0.038417 0.097299002 0.31698
0.038554002 0.098291002 0.31641999
0.038995001 0.099910997 0.31671
0.038913 0.10177 0.31600001
0.039461002 0.10205 0.31626001
0.039276998 0.10441 0.31683999
0.039728001 0.10478 0.31595999
0.039324999 0.10634 0.31604999
0.040029 0.10761 0.31555
0.040451001 0.10929 0.31571001
0.040566999 0.11087 0.31512001
0.04383 0.11381 0.31468999
0.051793002 0.12122 0.31031999
0.051272999 0.12275 0.30976999
0.050748002 0.12231 0.30827999
0.051883001 0.12383 0.30895999
0.052042998 0.12594 0.30945
0.051585 0.12704 0.30836999
0.052593999 0.12892 0.30878001
0.052625 0.12948 0.30860001
0.054143999 0.13135 0.30699
0.055024002 0.13208 0.30730999
0.055222001 0.13388 0.30763999
0.05556 0.13598 0.30566001
0.056113001 0.13646001 0.30566001
0.057948001 0.13816001 0.30629
0.059291001 0.13947999 0.30463001
0.060337 0.13968 0.30495
0.061613001 0.055734999 0.33116001
0.062072001 0.057668 0.33149999
0.061657 0.057500001 0.32929999
0.061342999 0.14032 0.30598
0.063465998 0.14196999 0.30704001
0.04538 0.059806 0.31365001
0.045511 0.061083999 0.31299001
0.046998002 0.062985003 0.31329
0.047922999 0.064033002 0.31246999
0.046165001 0.065649003 0.31253001
0.045692001 0.066955 0.31371
0.044746 0.068501003 0.31399
0.045341998 0.069982 0.31398001
0.044539001 0.071434997 0.31514999
0.043981001 0.074211001 0.31503001
0.043528002 0.072967 0.31435999
0.043938 0.073219001 0.31457001
0.042408001 0.077297002 0.31529999
0.041965999 0.077230997 0.31556001
0.042915002 0.075104997 0.31395
0.041497 0.077137001 0.31356999
0.040752999 0.078901 0.31615999
0.041253999 0.080150999 0.31693
0.041627999 0.080114998 0.31455001
0.041905001 0.080646001 0.31406999
0.041776001 0.082946002 0.31626999
0.039547 0.081332996 0.31467
0.041618999 0.081306003 0.31602001
0.042151 0.084587999 0.3154
0.040968999 0.084821001 0.31626999
0.041007999 0.087780997 0.31659001
0.041195001 0.088276997 0.31661001
0.039926 0.089683004 0.31696001
0.040585 0.091063999 0.31669
0.040305998 0.092752002 0.31716001
0.039756 0.093667001 0.31764001
0.039914001 0.095383003 0.31801
0.038256001 0.097099997 0.31737
0.038991001 0.097413003 0.31766999
0.038957998 0.10007 0.31718001
0.039485998 0.10121 0.317
0.040057 0.10177 0.31777999
0.039517999 0.10314 0.31687999
0.039687 0.10446 0.31744999
0.040640999 0.10674 0.31648999
0.040011998 0.10814 0.31658
0.040924001 0.10939 0.31663001
0.040743999 0.11045 0.31696001
0.043154001 0.11212 0.31525999
0.045311 0.11386 0.31463
0.043901999 0.11258 0.31700999
0.044672001 0.11403 0.31687
0.051598001 0.12027 0.31095999
0.051185999 0.11931 0.31038001
0.051178001 0.11875 0.31057999
0.050891999 0.12097 0.30857
0.051847 0.12157 0.31071001
0.051063001 0.1228 0.31028
0.052324001 0.12399 0.31035
0.052037001 0.12571 0.31031999
0.051794 0.12695 0.30939001
0.052655999 0.12751999 0.30893001
0.053907 0.12997 0.30899999
0.054324999 0.13076 0.30840001
0.054329999 0.13226999 0.30868
0.055605002 0.13406 0.30781999
0.056568999 0.13558 0.3075
0.057027999 0.13595 0.30724999
0.057946 0.138 0.30638
0.059234001 0.13936999 0.30568001
0.04693 0.059797999 0.31428999
0.046792001 0.060911 0.31446001
0.047717001 0.062639996 0.31420001
0.048071999 0.064291999 0.3127
0.047081999 0.066353001 0.31373999
0.046941001 0.067257002 0.31459999
0.045028001 0.068641998 0.31560999
0.044762999 0.070874996 0.31562001
0.044188999 0.071814999 0.31584999
0.044248998 0.073687002 0.31562999
0.043561999 0.074859999 0.31621999
0.059413001 0.17411999 0.23333
0.061953999 0.17519 0.23266999
0.060935002 0.17381001 0.23196
0.042633001 0.078833997 0.31788999
0.042302001 0.081124999 0.31720999
0.041359998 0.081482001 0.31777999
0.042270999 0.083616003 0.31736001
0.041751999 0.084294997 0.31663999
0.041926999 0.086048998 0.31691
0.041673999 0.087552004 0.31685999
0.041492999 0.089037001 0.31685999
0.040495001 0.089818001 0.31771001
0.040176 0.091257997 0.31803
0.03977 0.092841998 0.31832001
0.039806999 0.094692998 0.31834999
0.039895002 0.09527 0.31806999
0.039292 0.097062998 0.31922999
0.038798001 0.099166997 0.31827
0.039128002 0.099354997 0.31854999
0.039767001 0.10102 0.31850001
0.040538002 0.10281 0.31805
0.040690001 0.10539 0.31755999
0.040920999 0.10475 0.31771001
0.040741 0.10678 0.31795001
0.040584002 0.10846 0.31825
0.041427001 0.10874 0.31768
0.041641001 0.11107 0.31704
0.041960001 0.11198 0.31669
0.051243 0.11787 0.31149
0.050386999 0.11755 0.31103
0.050206002 0.11739 0.31173
0.051893 0.12039 0.31099999
0.051660001 0.12078 0.31112
0.051638 0.1233 0.31156999
0.052165002 0.12343 0.31110001
0.052788001 0.12538999 0.31066999
0.052967999 0.12665001 0.31119001
0.052560002 0.12737 0.31101999
0.054214999 0.12948 0.31031999
0.053989001 0.13124999 0.30985999
0.055193 0.13252001 0.30892
0.055516999 0.13342001 0.30869001
0.056129001 0.13508999 0.30820999
0.057898 0.13628 0.30823001
0.057622001 0.13772 0.30851999
0.059641 0.13867 0.30647999
0.018454 0.15733001 0.23895
0.047270998 0.059457 0.31518999
0.047584999 0.061333999 0.31536999
0.045839 0.059230998 0.31477001
0.047056999 0.059122998 0.31533
0.048647001 0.062098 0.31468999
0.048558 0.063600004 0.31393
0.047265999 0.065234996 0.31470001
0.046829998 0.067190997 0.31573001
0.045582 0.068100996 0.31637999
0.045047 0.069551997 0.31643
0.044640999 0.071276002 0.31685999
0.044346001 0.073400997 0.31727999
0.043880001 0.074804999 0.31661001
0.041979 0.076875001 0.31819999
0.035955001 0.06594 0.26899001
0.042008001 0.079222001 0.31826001
0.041781001 0.080712996 0.31766
0.041928001 0.081845 0.31843001
0.041452002 0.083352 0.31823999
0.042413998 0.084772997 0.31865001
0.042114999 0.086464003 0.31777999
0.041625999 0.086939998 0.31816
0.040660001 0.088496998 0.31887001
0.040146001 0.089847997 0.31882
0.041248001 0.091238998 0.31964999
0.041492999 0.092731997 0.31898999
0.040385 0.094162002 0.31902
0.040206999 0.095677003 0.31946999
0.04005 0.096901998 0.31953999
0.038869999 0.098242 0.31948999
0.039820999 0.099712998 0.32008001
0.039237998 0.10088 0.31973001
0.040711999 0.10326 0.31867999
0.040281001 0.1045 0.31928
0.040741999 0.1048 0.31841001
0.040796999 0.1072 0.31961
0.04118 0.10854 0.31913999
0.041887 0.10914 0.31830999
0.041937999 0.11124 0.31782001
0.042993002 0.11214 0.3175
0.043701999 0.11341 0.31661999
0.050935 0.11844 0.31259
0.051755 0.11954 0.31152001
0.052375998 0.12096 0.31154999
0.052299 0.12354 0.31117001
0.052563999 0.12442 0.31207001
0.052708998 0.12582 0.31215999
0.053121999 0.12657 0.31191999
0.053681999 0.12797 0.31171
0.053948998 0.12919 0.31086001
0.055002 0.13078 0.31009001
0.055353001 0.13253 0.30998999
0.056550998 0.13444 0.31037
0.056756001 0.13575999 0.30985999
0.058233999 0.13665 0.30950999
0.059094001 0.13668001 0.30801001
0.059863999 0.13937999 0.30759999
0.061418999 0.14029001 0.30687001
0.036316 0.15763 0.22724
0.034182999 0.15785 0.22689
0.035342 0.15897 0.22781
0.047653001 0.060759 0.31490001
0.048997 0.060578 0.31525001
0.049465001 0.062907003 0.31531
0.048826002 0.064064004 0.31433001
0.047118999 0.065912001 0.31634
0.046495002 0.066876002 0.31650999
0.045981001 0.069045998 0.31665
0.044985 0.069851004 0.31777999
0.044941001 0.072237998 0.31733999
0.04496 0.073247001 0.31816
0.043246999 0.075166002 0.3186
0.042603001 0.076375 0.31907001
0.042070001 0.077069998 0.31919
0.042220999 0.079456002 0.31990999
0.041965999 0.079563998 0.31896001
0.042474002 0.081735998 0.31895
0.043490998 0.082869001 0.31937999
0.042888999 0.083929002 0.31933001
0.041988 0.085818 0.31889001
0.041648 0.087081 0.31944999
0.041501001 0.088808998 0.32006001
0.040061001 0.090273 0.32032999
0.041157998 0.091643997 0.31968001
0.040360998 0.092573002 0.31968001
0.041154999 0.094489001 0.31970999
0.040355001 0.094968997 0.31970999
0.040529002 0.097011998 0.32085001
0.040725999 0.098525003 0.32056999
0.039919998 0.099880002 0.32060999
0.041012999 0.10132 0.32038999
0.040934999 0.10217 0.32034999
0.040798999 0.10465 0.31951001
0.041335002 0.10524 0.32042
0.0407 0.10658 0.31900999
0.041703001 0.10822 0.31922001
0.041444998 0.10984 0.31851
0.042350002 0.11038 0.31883001
0.043979 0.11292 0.31816
0.044654999 0.11368 0.31810999
0.045968 0.11374 0.31707001
0.047132 0.11512 0.31738999
0.090972997 0.19242001 0.26267001
0.051899001 0.11932 0.31266999
0.052308999 0.12031 0.31241
0.052990999 0.12184 0.3136
0.052611001 0.12442 0.31303999
0.05339 0.12526 0.31275001
0.052871998 0.12710001 0.31244999
0.053408001 0.12888999 0.31259
0.054527 0.13031 0.31156999
0.055571999 0.13098 0.31209001
0.055819999 0.13257 0.31075999
0.056559999 0.13429999 0.31099999
0.057472002 0.13607 0.31031999
0.057534002 0.13629 0.30958
0.059144001 0.13773 0.30915999
0.060433999 0.13902999 0.30925
0.036791001 0.16897 0.22898
0.046870999 0.058757 0.31378999
0.050324999 0.062477998 0.31580999
0.049511999 0.063720003 0.31604001
0.047726002 0.066094004 0.31731999
0.047301002 0.066821001 0.31713
0.046197001 0.068997003 0.31812999
0.045368999 0.070196003 0.31786001
0.045563001 0.072072998 0.31827
0.044886999 0.072779 0.31887001
0.044188 0.074395999 0.31957999
0.043381002 0.076667003 0.31942999
0.043182999 0.077570997 0.31951001
0.04236 0.078993998 0.31961
0.041926 0.079943001 0.32078999
0.041503001 0.082006 0.32001999
0.042982999 0.083644003 0.3204
0.043175001 0.084197998 0.32051
0.042072002 0.085557997 0.32025999
0.041496001 0.087396003 0.32069999
0.041466001 0.089309998 0.32113001
0.040814999 0.090416998 0.32054999
0.040357001 0.090870999 0.32021999
0.041526001 0.093189001 0.32170001
0.041887 0.094465002 0.32087001
0.041409001 0.096399002 0.32133001
0.041228998 0.097131997 0.32100999
0.041262001 0.098853 0.32172
0.041744001 0.099541001 0.32084
0.041471001 0.1004 0.32113001
0.041903999 0.10309 0.32093
0.042438 0.10412 0.32089001
0.041820999 0.10509 0.31999001
0.041457999 0.10658 0.32077
0.042456999 0.10766 0.32012999
0.042954002 0.11036 0.32032999
0.043327 0.11093 0.32082999
0.044312999 0.11207 0.31964999
0.045157999 0.11297 0.31913999
0.053598002 0.11866 0.31435999
0.052767999 0.12269 0.31386
0.053451002 0.12433 0.31380999
0.052935001 0.12602 0.31367001
