# .PCD v0.7 - Point Cloud Data file format
VERSION 0.7
FIELDS x y z
SIZE 4 4 4
TYPE F F F
COUNT 1 1 1
WIDTH 1634
HEIGHT 1
VIEWPOINT 0 0 0 1 0 0 0
POINTS 1634
DATA ascii
0.082107 0.19232 0.26122001
0.081843004 0.19159999 0.26304001
0.10085 0.19527 0.20734
0.099905998 0.19609 0.21032999
0.099858001 0.19594 0.20833001
0.10092 0.19694 0.20893
0.036486998 0.14862999 0.22447
0.036775999 0.15011001 0.22699
0.038107999 0.14917 0.22612
0.033959001 0.14923 0.2288
0.033886999 0.15164 0.22868
0.034696002 0.15154 0.229
0.090109996 0.19547001 0.26611999
0.089304 0.19691999 0.26879001
0.089782 0.19774 0.26783001
0.080842003 0.052168 0.24879999
0.082392998 0.051991001 0.24887
0.080314003 0.050291002 0.24817
0.10068 0.19605 0.21229
0.10185 0.19574 0.21195
0.10342 0.19677 0.2119
0.099621996 0.20220999 0.27338001
0.10105 0.20465 0.27366
0.1001 0.2034 0.27331999
0.035897002 0.16655 0.22731
0.035119999 0.167 0.2291
0.035971001 0.16754 0.22693001
0.042938001 0.097026996 0.22915
0.041806001 0.097103998 0.22939999
0.042433999 0.099229001 0.22908001
0.078725003 0.19073001 0.26177999
0.076857999 0.18929 0.26381999
0.077747002 0.19108 0.26271999
0.041159999 0.10906 0.22619
0.041611999 0.10972 0.22615001
0.040716 0.10873 0.22741
0.066444002 0.14421999 0.27737001
0.067796998 0.14252999 0.27711999
0.06859 0.14331 0.27849001
0.11079 0.19724 0.21257
0.093114004 0.19176 0.21358
0.090856999 0.19002999 0.21349999
0.090187997 0.191 0.2131
0.069390997 0.14185999 0.27682
0.067612998 0.14398 0.27645001
0.069600999 0.14345001 0.27781999
0.098796003 0.19549 0.20874999
0.098569997 0.19474 0.20931
0.037025999 0.11868 0.22802
0.037053999 0.12038 0.22944
0.037505999 0.1181 0.22885001
0.037048999 0.11491 0.22838999
0.036841001 0.11696 0.22786
0.037735999 0.11532 0.22735
0.035645999 0.13497999 0.22529
0.036828998 0.13581 0.22461
0.036357999 0.13575 0.22553
0.036102001 0.14703 0.22424001
0.038428001 0.14717001 0.22515
0.037390999 0.14617001 0.22434001
0.036630001 0.14634 0.22458
0.10071 0.11258 0.26054001
0.10102 0.11345 0.26065999
0.10015 0.11289 0.26120999
0.098348998 0.16951001 0.21464001
0.099946 0.16841 0.21427
0.098384999 0.16929001 0.21559
0.10582 0.1974 0.21121
0.10607 0.19834 0.21077
0.10546 0.19632 0.21178
0.040052 0.10823 0.22663
0.077485003 0.059579998 0.25023001
0.077226996 0.061516002 0.25119999
0.077992 0.059877999 0.25068
0.041967001 0.15186 0.22545999
0.059312999 0.051453002 0.23569
0.059565999 0.05398 0.2367
0.063244 0.052411001 0.23661
0.084149003 0.192 0.26295
0.080885999 0.19022 0.25959
0.099352002 0.11329 0.25986999
0.10014 0.11477 0.25917
0.099523 0.11349 0.26010999
0.040913001 0.1163 0.22632
0.042367999 0.11585 0.22676
0.040467001 0.11546 0.22645
0.099425003 0.11779 0.26043999
0.098502003 0.11731 0.26120999
0.099970996 0.11783 0.26251
0.040348001 0.11525 0.22608
0.087107003 0.063633002 0.25698999
0.087070003 0.065041997 0.25832
0.086487003 0.064485997 0.25863001
0.036516 0.13248 0.22503
0.036410999 0.13388 0.22493
0.031337 0.14405 0.22649001
0.031964999 0.1426 0.22701
0.033273999 0.14234 0.22600999
0.068077996 0.13304 0.23536
0.068446003 0.13441999 0.23474
0.069302 0.13387001 0.23558
0.031705 0.14056 0.22622
0.032012001 0.14327 0.22644
0.031780999 0.14117 0.22562
0.037827998 0.1206 0.22897001
0.039028 0.12126 0.22971
0.038773999 0.15456 0.2271
0.037648 0.15542001 0.22685
0.039469998 0.15479 0.22752
0.037121002 0.15761 0.22713999
0.039774999 0.15897 0.22813
0.039887 0.15542001 0.22728001
0.040674999 0.10804 0.22622
0.041923001 0.1073 0.22706001
0.036966 0.14575 0.22442
0.037252001 0.14490999 0.22375999
0.036578 0.13355 0.22455999
0.040249001 0.099528998 0.22969
0.070997998 0.16396999 0.25914001
0.07209 0.16294 0.25821999
0.074695997 0.16435 0.25955999
0.11138 0.18514 0.27764001
0.10972 0.18573999 0.27961999
0.10949 0.18463001 0.27818999
0.031578001 0.13849001 0.22579999
0.032046001 0.14003 0.22583
0.032101002 0.14054 0.22513001
0.075202003 0.18907 0.26298001
0.075113997 0.1893 0.26578
0.076424003 0.18846001 0.26413
0.032233 0.14374 0.22809
0.032322999 0.14658 0.22527
0.032919001 0.14560001 0.22604001
0.076582 0.16494 0.26120999
0.076007999 0.16452 0.26201999
0.10035 0.11735 0.26245001
0.10057 0.11474 0.26036999
0.10096 0.11419 0.25931001
0.042821001 0.11443 0.22619
0.039466001 0.11386 0.22705001
0.11201 0.18626 0.27908
0.11186 0.18635 0.27653
0.096876003 0.19508 0.21064
0.096934997 0.1929 0.21217
0.094961002 0.19408999 0.2113
0.057599001 0.051272999 0.23672999
0.058798999 0.052276999 0.23556
0.11066 0.17794999 0.21261001
0.11118 0.1761 0.21411
0.10991 0.17624 0.21213999
0.043799002 0.097675003 0.22826
0.043481998 0.096554004 0.22784001
0.045914002 0.098986 0.22934
0.030382 0.13733999 0.22542
0.031729002 0.14 0.22575
0.11692 0.18618 0.21464001
0.11508 0.18753999 0.21543001
0.11565 0.18803 0.21627
0.099151 0.11922 0.26036999
0.042716999 0.10419 0.22633
0.045060001 0.10444 0.22499
0.044233002 0.10353 0.22565
0.10083 0.1131 0.26155001
0.041239001 0.11934 0.22843
0.040950999 0.12098 0.22717001
0.042079002 0.12116 0.22701
0.11336 0.10067 0.33978
0.11634 0.10042 0.33873999
0.11507 0.099990003 0.33932999
0.083053999 0.17028999 0.26394001
0.084770001 0.17123 0.26280001
0.082920998 0.16982 0.26446
0.088882998 0.17381001 0.26491001
0.091319002 0.17591999 0.26574001
0.089364998 0.17519 0.26572001
0.11544 0.19047 0.27498999
0.11504 0.1938 0.27519
0.11538 0.19336 0.27518001
0.037601002 0.15298 0.22641
0.038284 0.15268999 0.22739001
0.047040001 0.15934999 0.22745
0.047816001 0.15902001 0.22727001
0.046743002 0.15899999 0.22637001
0.04597 0.15966 0.22778
0.045065999 0.14952999 0.22411001
0.044881999 0.15044001 0.22391
0.046289001 0.15148 0.22420999
0.046229001 0.15662999 0.22592001
0.10576 0.1937 0.2157
0.10453 0.19316 0.21545
0.107 0.19220001 0.21611001
0.10332 0.19853 0.20644
0.10313 0.19784001 0.20789
0.10425 0.19831 0.20817
0.043735001 0.14941999 0.22439
0.045488 0.14920001 0.22355001
0.042706002 0.099078998 0.22675
0.091365002 0.17904 0.26330999
0.092660002 0.18085 0.26423001
0.090833999 0.17931999 0.2642
0.037590999 0.15194 0.22686
0.038541999 0.15121 0.22665
0.046588998 0.15926 0.2277
0.036196001 0.12970001 0.22699
0.035937 0.1312 0.22476999
0.035668999 0.13218001 0.22547001
0.040890001 0.11182 0.22666
0.077844001 0.12061 0.23517001
0.076187 0.12189 0.23461001
0.078690998 0.12122 0.2351
0.11709 0.099666998 0.33724001
0.11632 0.10149 0.33847001
0.11458 0.10185 0.33842999
0.096864 0.19433001 0.20828
0.11227 0.17888001 0.21435
0.11432 0.17981 0.21323
0.1131 0.17963 0.21371999
0.097887002 0.19391 0.20765001
0.066413 0.14324 0.27851999
0.070247002 0.1416 0.27858999
0.065228 0.061822999 0.24392
0.067083001 0.062747002 0.24638
0.067397997 0.059700001 0.24387001
0.046211001 0.15729 0.22759999
0.086326003 0.074312001 0.26113001
0.085900001 0.075424999 0.26071
0.087283 0.075149 0.26179999
0.12175 0.10389 0.27035999
0.12314 0.10413 0.27129999
0.12366 0.10221 0.27090001
0.040679 0.11866 0.22667
0.042867001 0.1196 0.22569001
0.098544002 0.12179 0.26019001
0.097383 0.1216 0.26038
0.096486002 0.12308 0.26143
0.11014 0.056104001 0.32505
0.11066 0.054694999 0.32582
0.11229 0.053946 0.32686999
0.058026001 0.055589002 0.23858
0.059284002 0.054033998 0.23726
0.059686001 0.056329001 0.23739
0.074166998 0.16559 0.25672001
0.073473997 0.16474 0.25861999
0.073655002 0.16314 0.25723001
0.069808997 0.054940999 0.23827
0.071029 0.054166999 0.24141
0.071714997 0.052375998 0.23952
0.075354002 0.16627 0.25553
0.073912002 0.16675 0.25569999
0.073628999 0.16596 0.25617
0.045086 0.12552001 0.22795001
0.043931 0.12423 0.22733
0.044923 0.12303 0.22569001
0.10482 0.19864 0.20758
0.10364 0.19733 0.20908999
0.038545001 0.11472 0.22754
0.038694002 0.11278 0.2282
0.038876999 0.11449 0.22819
0.10503 0.19691999 0.20906
0.11531 0.10296 0.33816001
0.11437 0.10155 0.33882999
0.032396998 0.16017 0.22949
0.032696001 0.16202 0.229
0.032272 0.16132 0.22971
0.032627001 0.16233 0.22732
0.032931 0.15970001 0.22763
0.045150001 0.12974 0.22463
0.044236999 0.12972 0.22392
0.043687999 0.13021 0.22349
0.072958 0.16604 0.25531
0.072334997 0.16193999 0.25619999
0.037253998 0.10866 0.22668
0.03641 0.11083 0.22948
0.037307002 0.11046 0.22792999
0.042137001 0.12373 0.22894999
0.037370998 0.13094001 0.22586
0.036504 0.14297999 0.22369
0.037420001 0.14382 0.22397999
0.037505001 0.14348 0.2246
0.082773 0.089441001 0.24511001
0.080412999 0.089016996 0.24286
0.082850002 0.090774 0.24525
0.077145003 0.11018 0.23152
0.076238997 0.11009 0.23071
0.076782003 0.11336 0.23291001
0.068213001 0.14667 0.23594999
0.068263002 0.14657 0.23541
0.070312999 0.14587 0.23604
0.074412003 0.090839997 0.23371001
0.073688999 0.092018999 0.23328
0.074034996 0.090341002 0.23398
0.093466997 0.18173 0.26192999
0.091926001 0.18287 0.26312
0.091821998 0.18059 0.26271001
0.11459 0.082346 0.35699999
0.11382 0.084293 0.35549
0.11266 0.085603997 0.35710999
0.11646 0.10366 0.33853
0.11508 0.1044 0.33901
0.033278 0.15816 0.22765
0.031888001 0.15874 0.22903
0.097615004 0.11379 0.25696999
0.087761998 0.066970997 0.26466
0.087367997 0.068173997 0.26445001
0.076975003 0.11816 0.23469999
0.076095 0.11897 0.23356999
0.043343 0.1497 0.22484
0.042451002 0.15085 0.2237
0.071446002 0.10401 0.22745
0.070174001 0.10606 0.22815999
0.071363002 0.10344 0.22745
0.088266 0.18161 0.25836
0.087292999 0.18364 0.25961
0.089169003 0.18353 0.25852999
0.082626998 0.091072999 0.24256
0.083016001 0.092000999 0.24177
0.083636001 0.092390001 0.24338999
0.068136998 0.14856 0.23569
0.085479997 0.10482 0.23767
0.084657997 0.10653 0.23645
0.084227003 0.1051 0.23756
0.086456001 0.17314 0.26348999
0.088039003 0.17442 0.26330999
0.087673001 0.17474 0.26502001
0.077615999 0.10529 0.23143999
0.077005997 0.10496 0.23106
0.077226996 0.10712 0.23229
0.116 0.10643 0.33877
0.11621 0.10464 0.33835
0.11539 0.10701 0.33924001
0.11619 0.10674 0.33744001
0.11454 0.10869 0.338
0.11663 0.1092 0.33666
0.11497 0.11098 0.33673999
0.1151 0.11115 0.338
0.11546 0.10956 0.33662999
0.043931998 0.16853 0.22905
0.044859 0.16813 0.22827999
0.033270001 0.062591001 0.26091
0.033312999 0.061572 0.26115999
0.032912999 0.061239999 0.26210999
0.045247 0.095648997 0.22919001
0.033626001 0.15361001 0.22812
0.034708001 0.15451001 0.2287
0.077597998 0.16665 0.26396999
0.077707998 0.16721 0.26514
0.076774999 0.16522001 0.2633
0.037082002 0.10904 0.22829001
0.11289 0.17989001 0.21325
0.11339 0.17997999 0.21232
0.11362 0.17966001 0.21266
0.042454001 0.14560001 0.22401001
0.041538998 0.14774001 0.2237
0.042454001 0.14659999 0.22425
0.042913001 0.10973 0.22657
0.043325 0.11023 0.22509
0.044259001 0.10725 0.22513001
0.10389 0.19588 0.20755
0.10149 0.19715001 0.20768
0.031608 0.14825 0.22773001
0.032007001 0.14662001 0.22679999
0.074148998 0.14263 0.28330001
0.071708001 0.14404 0.28466001
0.072451003 0.14395 0.28512999
0.077910997 0.10685 0.23187999
0.077780999 0.10719 0.23271
0.089708 0.18288 0.25972
0.077027 0.097034 0.23181
0.077418998 0.099901997 0.23111001
0.077019997 0.096763 0.23264
0.055892002 0.13772 0.22645
0.058449998 0.13822 0.22597
0.055996001 0.13530999 0.22634999
0.11549 0.10837 0.33748001
0.11499 0.11058 0.33893001
0.11573 0.10695 0.33802
0.11702 0.1095 0.33774999
0.069362998 0.14324 0.28314999
0.071635 0.14278001 0.28674001
0.092327997 0.093434997 0.25534001
0.093382001 0.093102001 0.25742
0.093851 0.091040999 0.25747001
0.044093002 0.15304001 0.22645999
0.043595001 0.15459 0.22642
0.038194999 0.16166 0.22641
0.040107001 0.16328 0.22764
0.055050001 0.13021 0.22915
0.053199999 0.1284 0.22748999
0.054150999 0.12964 0.22835
0.11635 0.18773 0.21535
0.11502 0.11295 0.33695999
0.11498 0.1122 0.33744001
0.1175 0.10606 0.33750999
0.049318001 0.089652002 0.23122001
0.050264001 0.090856001 0.23066001
0.049679 0.090576001 0.23165999
0.099174 0.11531 0.25957
0.099145003 0.11694 0.25781
0.099310003 0.1166 0.25975001
0.042234998 0.15594999 0.22691999
0.040096 0.13723999 0.22226
0.038183 0.13729 0.22330999
0.038481001 0.13907 0.22285999
0.041703999 0.1303 0.22432999
0.040084001 0.13098 0.2254
0.043101002 0.10789 0.22663
0.043781999 0.10677 0.22521999
0.039317001 0.1312 0.22464
0.041533001 0.12767 0.22832
0.041756999 0.12967999 0.22708
0.043271001 0.12913001 0.22759999
0.072149999 0.12794 0.23474
0.073366001 0.1294 0.235
0.073939003 0.12982 0.23754001
0.097428001 0.10374 0.25646001
0.097216003 0.10559 0.25470999
0.098536998 0.10769 0.2563
0.064094998 0.11731 0.22492
0.064746998 0.11841 0.22727001
0.065169998 0.11792 0.22653
0.064106002 0.15098 0.23048
0.064421996 0.15047 0.23054001
0.064272001 0.15262 0.23280001
0.070490003 0.10712 0.22708
0.073567003 0.10674 0.22719
0.065366 0.12277 0.22882
0.064591996 0.12504999 0.22950999
0.065385997 0.12457 0.2295
0.063979998 0.15288 0.23159
0.063726999 0.15243 0.23044001
0.063537002 0.15318 0.23319
0.074258998 0.092958003 0.2322
0.073972002 0.090572 0.23147
0.055571999 0.13634001 0.22431999
0.038447998 0.12555 0.229
0.077160999 0.12174 0.2348
0.077340998 0.12189 0.23439001
0.077348001 0.12437 0.23624
0.072511002 0.1244 0.23229
0.070909001 0.12354 0.23307
0.073944002 0.12523 0.23360001
0.055413999 0.14196999 0.22326
0.057872001 0.14162999 0.22562
0.057310998 0.13976 0.22499
0.056756999 0.13823999 0.22531
0.057433002 0.13812999 0.22639
0.048066001 0.16838001 0.22843
0.049947999 0.16994999 0.23122001
0.050882999 0.16911 0.22928999
0.11372 0.11106 0.33871999
0.11669 0.1048 0.33846
0.10153 0.065663002 0.26219001
0.10064 0.069394 0.26137
0.099606998 0.067391999 0.26129001
0.12129 0.10299 0.26829001
0.12182 0.10578 0.26877001
0.12201 0.1019 0.26841
0.10663 0.18449 0.27379
0.10764 0.1857 0.27368
0.10823 0.18639 0.27449
0.11697 0.10385 0.33827999
0.11607 0.10079 0.33813
0.11558 0.10185 0.33704001
0.038437001 0.11737 0.22713999
0.045616999 0.096987002 0.22834
0.041423 0.14885999 0.22348
0.042160999 0.14938 0.22391
0.043543998 0.14817999 0.22347
0.092756003 0.17868 0.26574001
0.093781002 0.17737 0.26675001
0.092891 0.17779 0.26639
0.092078999 0.18702 0.26287001
0.090746999 0.19011 0.26190001
0.092984997 0.18993001 0.26315001
0.043961 0.15716 0.22679999
0.046227999 0.15813001 0.22905
0.044863999 0.15644 0.22608
0.072586 0.13125999 0.23731001
0.072426997 0.13274001 0.23824
0.072196998 0.13034 0.2359
0.085911997 0.072199002 0.26324999
0.086616002 0.072494999 0.26144001
0.085883997 0.074274004 0.26273999
0.086267002 0.072627001 0.26214999
0.086034 0.066198997 0.25960001
0.085307002 0.068396002 0.26113001
0.085193999 0.067895003 0.26115
0.076672003 0.10384 0.23179001
0.077333003 0.10404 0.23188999
0.098563999 0.10413 0.25698999
0.085694999 0.079631999 0.25639999
0.085487999 0.081162997 0.25569001
0.085965998 0.081246004 0.25601
0.076592997 0.099854 0.23202001
0.079494998 0.10034 0.23249
0.098536998 0.1075 0.25652999
0.098710001 0.10393 0.25565001
0.056464002 0.14013 0.22342999
0.082973003 0.1688 0.26006001
0.082999997 0.17039999 0.26135001
0.082093 0.17025 0.26265001
0.11359 0.11317 0.33717
0.091420002 0.16659001 0.21641
0.090686999 0.16572 0.21597999
0.091944002 0.16670001 0.21642999
0.087157004 0.066261001 0.26082999
0.046691999 0.12057 0.22773001
0.045892 0.12095 0.22769
0.046866 0.11727 0.22668999
0.10934 0.051729001 0.31213999
0.10784 0.053466 0.31426001
0.10737 0.050891999 0.31362
0.079286002 0.19001999 0.26541001
0.076374002 0.19016001 0.26486999
0.077186003 0.19024 0.26642001
0.033746999 0.15058 0.22846
0.040022001 0.13842 0.22435001
0.042353 0.14506 0.22257
0.045531999 0.14782 0.22401001
0.043127 0.14794999 0.22234
0.044658002 0.1499 0.22357
0.042771999 0.10617 0.22425
0.042463001 0.10572 0.22621
0.046275999 0.16245 0.22737999
0.045862999 0.16383 0.22789
0.046505999 0.16482 0.22787
0.11602 0.18757001 0.21461
0.11614 0.18928 0.21278
0.091914997 0.19186001 0.26413
0.093493998 0.19063 0.26291999
0.091813996 0.19097 0.26256001
0.084817998 0.069109999 0.26190001
0.085378997 0.068611003 0.26109999
0.085992001 0.070303001 0.26076001
0.085676998 0.070349999 0.26225999
0.062463999 0.12568 0.22772001
0.061960999 0.1239 0.22860999
0.060292002 0.12476 0.22758999
0.088983998 0.1803 0.26039001
0.076361001 0.10233 0.23093
0.077391997 0.1011 0.23119999
0.077413 0.099780001 0.23209
0.068356998 0.11077 0.22657
0.069914997 0.11156 0.22708
0.071097001 0.11162 0.22832
0.097526997 0.10381 0.25507
0.097308002 0.10228 0.25691
0.097658001 0.10341 0.25566
0.043811999 0.10938 0.22673
0.046873 0.15644 0.22567999
0.091054 0.17905 0.26493001
0.093258999 0.17907999 0.26495999
0.034239002 0.13424 0.22569001
0.090246998 0.17405 0.26839
0.090003997 0.17436001 0.27006999
0.087103002 0.17278001 0.26980001
0.040768001 0.15998 0.22840001
0.041313 0.16097 0.2279
0.04149 0.15885 0.22861999
0.11692 0.18853 0.2142
0.11672 0.18982001 0.21445
0.038536999 0.11968 0.22938
0.043740001 0.111 0.22558001
0.041754998 0.14431 0.22395
0.11298 0.18154 0.21449
0.1141 0.18149 0.21241
0.11394 0.18155 0.21343
0.11 0.056812 0.31966999
0.1104 0.054940999 0.3202
0.10749 0.052574001 0.31898999
0.091839999 0.17687 0.26524001
0.091567002 0.17761999 0.26447001
0.11197 0.17933001 0.21186
0.084719002 0.071227998 0.26076999
0.085164003 0.072985001 0.26003999
0.087050997 0.18024001 0.25953001
0.076925002 0.084238999 0.24691001
0.077894002 0.084555998 0.24457
0.076812997 0.083448999 0.24716
0.088781998 0.17629001 0.26062
0.08822 0.17488 0.26258999
0.086415 0.17290001 0.26179001
0.084317997 0.18591 0.25762999
0.082079999 0.18329 0.25755
0.082436003 0.18522 0.25724
0.11794 0.1111 0.33565
0.11771 0.11149 0.33548
0.11792 0.1142 0.33572999
0.091672003 0.16606 0.21536
0.036564 0.11783 0.22854
0.037136 0.11886 0.22871
0.036564998 0.12041 0.23
0.11457 0.19529 0.2748
0.11443 0.19427 0.27638999
0.11503 0.19528 0.27406001
0.040964998 0.16125999 0.22691999
0.042633999 0.16227999 0.22618
0.039965998 0.15990999 0.22804999
0.089364 0.17406 0.26714
0.088376001 0.17274 0.26859
0.042270999 0.10846 0.22585
0.090621002 0.087337002 0.25797001
0.091370001 0.087591 0.25843999
0.090589002 0.086746998 0.25806999
0.039088 0.14097001 0.22373
0.040275 0.14252999 0.22326
0.040585998 0.14030001 0.22220001
0.051727001 0.084721997 0.23522
0.050469998 0.083714999 0.23535
0.051504999 0.085799001 0.23489
0.09928 0.10786 0.25729999
0.098604999 0.10835 0.25791001
0.046146002 0.16113 0.22824
0.096859001 0.18994001 0.26515999
0.097516 0.19114 0.26537001
0.098546997 0.19085 0.26635
0.085786998 0.17387 0.26227999
0.086286001 0.17483 0.26254001
0.086841002 0.17261 0.26388001
0.085061997 0.075111002 0.26172
0.096888997 0.11501 0.25621
0.096043997 0.11718 0.25762999
0.097429998 0.11651 0.25777999
0.098266996 0.10449 0.25747001
0.084412999 0.092478998 0.24071001
0.083241001 0.093207002 0.23946001
0.084085003 0.093850002 0.24068999
0.079997003 0.086883999 0.24563999
0.080926999 0.084592 0.2466
0.11712 0.077163003 0.35563001
0.11775 0.077661999 0.35508999
0.11585 0.076912999 0.35501999
0.11742 0.079594001 0.35675001
0.11566 0.079026997 0.35510999
0.117 0.077264003 0.3563
0.11244 0.1111 0.34066001
0.10986 0.1098 0.34083
0.11107 0.10977 0.34171
0.11459 0.10716 0.33992001
0.11377 0.1066 0.34002
0.11303 0.10697 0.34007999
0.11355 0.10667 0.33948001
0.075052999 0.16439 0.25986001
0.090194002 0.17431 0.27129
0.092233002 0.17595001 0.27235001
0.089983001 0.17416 0.27271
0.088918999 0.074157998 0.26339
0.088149004 0.073996 0.26295
0.090598002 0.074983999 0.26350001
0.080692001 0.1929 0.2626
0.10632 0.20114 0.27401
0.044293001 0.15879001 0.22724999
0.087397002 0.076572999 0.26041001
0.085812002 0.075870998 0.26129001
0.089083001 0.18081 0.26023999
0.088638 0.1797 0.26225999
0.089249998 0.17902 0.26141
0.093231 0.17798001 0.26567
0.092621997 0.17673001 0.26793
0.10959 0.18701001 0.27469
0.1119 0.1892 0.27609
0.11077 0.18655001 0.27584001
0.0491 0.16123 0.22859
0.048819002 0.16208 0.22872999
0.048300002 0.16342001 0.22746
0.048029002 0.16236 0.22757
0.076068997 0.10794 0.23113
0.076912999 0.11044 0.23138
0.077954002 0.11008 0.23214
0.084824003 0.096138999 0.23928
0.084971003 0.097686 0.2388
0.070210002 0.078555003 0.24774
0.072267003 0.076102003 0.2475
0.069712996 0.078032002 0.24758001
0.11386 0.1895 0.27506
0.11385 0.19108 0.27541
0.11417 0.10378 0.33921
0.11192 0.10481 0.34049001
0.11752 0.18932 0.21454
0.11727 0.18945 0.21246
0.10964 0.17575 0.21381
0.11205 0.17653 0.21540999
0.11015 0.17730001 0.21443
0.11065 0.11116 0.34145999
0.11464 0.11025 0.33891001
0.11255 0.10867 0.34009001
0.04727 0.15288 0.22510999
0.047851 0.15301999 0.22490001
0.048521001 0.15311 0.22441
0.11725 0.11264 0.27098
0.11777 0.11123 0.27026999
0.11735 0.11105 0.26932999
0.10956 0.10442 0.34265
0.11105 0.10396 0.34185001
0.11106 0.1067 0.34147999
0.11413 0.098491997 0.34011
0.1142 0.099707998 0.33952999
0.11412 0.098321997 0.34132001
0.095774002 0.121 0.25560001
0.094759002 0.12338 0.25694999
0.092763998 0.1245 0.25681999
0.079111002 0.19039001 0.26229
0.045418002 0.097557999 0.22814
0.048482001 0.12354 0.22660001
0.064701997 0.14369 0.27700999
0.065931998 0.1427 0.27833
0.097484 0.11499 0.25979999
0.11234 0.18151 0.21202999
0.086956002 0.07339 0.26236999
0.086502999 0.076802999 0.26199001
0.087852001 0.073973998 0.26433
0.11764 0.18504 0.21280999
0.11619 0.18564001 0.2165
0.11688 0.1846 0.21373001
0.089426003 0.1205 0.24770001
0.088607997 0.12069 0.24564999
0.087498002 0.12217 0.24731
0.11121 0.10178 0.34189001
0.11172 0.10271 0.34191999
0.11268 0.10634 0.34248
0.11507 0.099349998 0.34003001
0.11359 0.099710003 0.34074
0.070609003 0.13033 0.23332
0.069927998 0.13155 0.23485
0.069389001 0.13288 0.23578
0.037113 0.10867 0.22728001
0.11235 0.18922 0.27785
0.11377 0.18953 0.27614
0.11388 0.18953 0.27643001
0.11048 0.10952 0.34248
0.1099 0.17624 0.21746001
0.10964 0.17795999 0.21681
0.033649001 0.14157 0.2245
0.076435 0.16498999 0.26236001
0.078731999 0.16616 0.26346999
0.075355001 0.16514 0.25838
0.11182 0.10769 0.34243
0.041042 0.1035 0.22786
0.040544 0.10495 0.22721
0.04177 0.10635 0.22658999
0.042957 0.10494 0.22725999
0.085933998 0.19491 0.26319
0.085698001 0.19272999 0.26201001
0.084948003 0.19512001 0.26411
0.11584 0.18672 0.21427999
0.049369998 0.088514 0.23227
0.04721 0.089351997 0.23084
0.11772 0.078427002 0.35589001
0.11961 0.078713 0.35473001
0.11835 0.080227003 0.35464999
0.089077003 0.17353 0.27234
0.090058997 0.17421 0.27451
0.070129 0.16339999 0.26084
0.071128003 0.16257 0.25962999
0.069395997 0.16294999 0.26187
0.11254 0.10797 0.34130999
0.11157 0.10702 0.34150001
0.11623 0.079609998 0.35641
0.11658 0.082758002 0.35648
0.11548 0.081529997 0.35736001
0.1109 0.1786 0.21661
0.11104 0.17704999 0.21499
0.11074 0.18052 0.21641999
0.1111 0.10701 0.34099999
0.11653 0.071062997 0.35324001
0.11567 0.072499 0.35446
0.11371 0.070775002 0.35453001
0.093327999 0.16715001 0.21712001
0.094154 0.16822 0.21571
0.093943 0.16672 0.21518999
0.079351999 0.16744 0.26067999
0.079363003 0.16768 0.26289001
0.079178996 0.16829 0.26299
0.11714 0.18314999 0.21549
0.11495 0.18433 0.21634001
0.085024998 0.17298 0.26183
0.085490003 0.17157 0.26306
0.082946002 0.17117 0.26280001
0.032021001 0.16031 0.22869
0.11715 0.10942 0.33679
0.11795 0.11072 0.33572999
0.11687 0.1093 0.33636999
0.12214 0.076357998 0.34992999
0.11999 0.075882003 0.35027
0.12016 0.074270003 0.35106999
0.071857996 0.14353999 0.28367001
0.069122002 0.14466999 0.28279999
0.03796 0.14527 0.22404
0.039939001 0.14490999 0.22375
0.039363001 0.14399 0.22318999
0.11513 0.19503 0.27709001
0.02963 0.060791001 0.26356
0.030846 0.062137 0.26405999
0.032246999 0.062923998 0.26480001
0.11172 0.18915001 0.27377999
0.11303 0.19061001 0.27296999
0.086328 0.096226998 0.24039
0.10098 0.17072999 0.21399
0.10008 0.1696 0.2159
0.11938 0.10273 0.33658999
0.11961 0.10391 0.336
0.11988 0.10283 0.33588001
0.1191 0.10189 0.33555999
0.11919 0.10415 0.33502001
0.11988 0.10355 0.33633
0.12052 0.10594 0.33486
0.11894 0.10535 0.33576
0.090057001 0.1875 0.26993999
0.089268997 0.18883 0.27118999
0.087971002 0.18889 0.26951
0.085702002 0.17168 0.26747
0.085731998 0.1725 0.26627001
0.084406003 0.17047 0.26846001
0.1134 0.18474001 0.21097
0.11164 0.18520001 0.21154
0.11206 0.18578 0.212
0.074350998 0.055261001 0.24453001
0.076282002 0.053532001 0.24434
0.075657003 0.055397 0.24474999
0.11235 0.058022 0.31733
0.11251 0.059377 0.31582999
0.11435 0.060458999 0.31766999
0.086538002 0.17396 0.26348999
0.11787 0.10658 0.33550999
0.11798 0.10766 0.33625001
0.11976 0.10774 0.33412001
0.11853 0.10938 0.33608001
0.088910997 0.1864 0.26901999
0.089897998 0.18878999 0.26936001
0.088113002 0.18907 0.26934001
0.089877002 0.19039001 0.26914001
0.088866003 0.1909 0.26969001
0.088588998 0.19273999 0.2701
0.088407002 0.19325 0.27000001
0.063000999 0.13869999 0.22786
0.063634999 0.13989 0.22956
0.062298 0.13796 0.22819
0.058251001 0.13867 0.22642
0.056715 0.13583 0.22705001
0.096506 0.19012 0.26363
0.085522003 0.097557001 0.23943999
0.10704 0.18948001 0.27168
0.11295 0.17935 0.21634001
0.087931998 0.19408 0.27147999
0.086787 0.1952 0.27149999
0.088000998 0.19445001 0.27083999
0.093171999 0.095715001 0.25716999
0.094131999 0.095546998 0.25587001
0.093943998 0.093382001 0.25775
0.092579998 0.18348999 0.26277
0.092430003 0.1832 0.26323
0.069629997 0.14233001 0.27677
0.070955001 0.14305 0.27897
0.038647 0.15052 0.22575
0.061245002 0.13783 0.2274
0.069986001 0.13895001 0.23757
0.069518998 0.14056 0.23741999
0.071595997 0.14057 0.23789001
0.095720999 0.17905 0.26984999
0.096170001 0.17878 0.26846001
0.095730998 0.17907999 0.26905
0.11264 0.10916 0.34031001
0.11328 0.10588 0.33985001
0.11288 0.10723 0.34193999
0.11596 0.055385001 0.30882999
0.11534 0.057824001 0.30936
0.11369 0.055695001 0.30971
0.040828999 0.13555001 0.22217999
0.040100999 0.13523 0.22279
0.035137001 0.1548 0.22874001
0.03198 0.15583 0.22752
0.039282002 0.11618 0.22727001
0.05906 0.064465001 0.24687999
0.060927998 0.065719001 0.24969999
0.059953 0.063634001 0.25007001
0.030592 0.15708999 0.23133001
0.029642999 0.15706 0.23072
0.030584 0.15612 0.23187
0.094221003 0.18159001 0.26370001
0.095067002 0.182 0.26484001
0.094089001 0.1797 0.26572999
0.11141 0.054884002 0.31955999
0.068287998 0.14232001 0.23745
0.069963999 0.14058 0.23881
0.062100999 0.14403 0.22752
0.062631004 0.14511 0.22737999
0.064052001 0.14381 0.22954001
0.1117 0.050754 0.30882001
0.11162 0.051151 0.31038001
0.11237 0.052627999 0.30957001
0.065343998 0.079777002 0.24102999
0.065668002 0.078267001 0.24307001
0.063750997 0.077853002 0.24339999
0.081262 0.13032 0.24019
0.080577999 0.12882 0.23987
0.079071 0.12955999 0.24213
0.10356 0.054853 0.25494999
0.10433 0.056977998 0.25490001
0.10494 0.055509999 0.25516999
0.088321 0.17366999 0.26611
0.10025 0.11007 0.26006001
0.10131 0.10969 0.25957
0.10073 0.11165 0.26075
0.093198001 0.18520001 0.26304999
0.094686002 0.1839 0.26339
0.095339999 0.18418001 0.26436001
0.064482003 0.12282 0.22765
0.062148001 0.1229 0.22841001
0.063644998 0.12508 0.22844
0.090995997 0.12648 0.25279
0.090920001 0.12446 0.25345001
0.090094 0.12556 0.25224
0.094429001 0.1823 0.26574999
0.10624 0.18629 0.27316001
0.069057003 0.16118 0.25935999
0.071023002 0.16261999 0.25988001
0.062084999 0.14249 0.22702
0.063391 0.14324 0.22818001
0.096602 0.19119 0.26416001
0.093448997 0.19103999 0.26469001
0.094466999 0.19382 0.26503
0.064976998 0.083012998 0.23867001
0.067199998 0.085330002 0.23712
0.066877 0.083313003 0.2387
0.11116 0.18967 0.21208
0.11305 0.18821999 0.21059
0.1106 0.18691 0.21177
0.091986999 0.093787 0.25470999
0.091168001 0.095262997 0.25264999
0.090267003 0.095053002 0.25435001
0.096000999 0.18471 0.26574999
0.095317997 0.18508001 0.26449999
0.063092999 0.14703 0.22854
0.11234 0.18142 0.21069001
0.11792 0.080288999 0.35429001
0.11308 0.19912 0.2744
0.11277 0.19958 0.27362001
0.11322 0.20079 0.27351999
0.10838 0.18505999 0.27588999
0.10971 0.18508001 0.27700999
0.10904 0.18493 0.27631
0.11481 0.1069 0.33897001
0.11209 0.18822999 0.27844
0.11181 0.18737 0.27792999
0.113 0.18606 0.27737001
0.071611002 0.14342999 0.28152001
0.069383003 0.1426 0.28193
0.068375997 0.14156 0.28220001
0.068028003 0.14311001 0.2823
0.063146003 0.148 0.22922
0.063389003 0.15019999 0.22943
0.063653998 0.14856 0.23041999
0.066192999 0.056207001 0.23829
0.065576002 0.054056998 0.23722
0.066846997 0.056451 0.23751
0.065883003 0.080752 0.24006
0.061685 0.13476001 0.22994
0.065333001 0.11861 0.22719
0.063394003 0.12065 0.22736
0.065315999 0.12054 0.22701
0.057631999 0.14583001 0.22553
0.056568999 0.14629 0.22480001
0.058380999 0.14743 0.22658999
0.12126 0.10708 0.27605999
0.12215 0.1065 0.27303001
0.12022 0.10846 0.27373001
0.095082 0.18722001 0.26451001
0.095803 0.1881 0.26587
0.096046999 0.18702 0.26642999
0.095942996 0.18675999 0.26548001
0.063456997 0.14266001 0.22933
0.10978 0.18427999 0.27715999
0.12071 0.074776001 0.34883001
0.086648002 0.17388 0.26058
0.088340998 0.17613 0.26084
0.074855 0.10398 0.2307
0.074565001 0.10538 0.23045
0.075447001 0.10588 0.23139
0.064539999 0.081703998 0.23955999
0.065683 0.12673999 0.22898
0.064023003 0.12524 0.22954001
0.065499 0.12785 0.23074
0.075484999 0.10841 0.23114
0.073507003 0.057843 0.24299
0.072765999 0.057399999 0.24372
0.071958996 0.059032999 0.24456
0.10518 0.056272 0.25641999
0.1052 0.056644998 0.25591999
0.10544 0.053199001 0.25545999
0.056834001 0.14906 0.22646999
0.05528 0.14899001 0.22567999
0.057746001 0.1505 0.22785001
0.062510997 0.13314 0.22896001
0.062238999 0.13318001 0.22927
0.061712999 0.13183001 0.23016
0.058088999 0.14323001 0.22521
0.055992 0.14462 0.22519
0.058115002 0.14478999 0.22698
0.093401998 0.18906 0.26517001
0.096391 0.19221 0.26427001
0.078483 0.16616 0.26016
0.079581998 0.16883001 0.26244
0.078662999 0.17084999 0.25742999
0.078400001 0.16959 0.25576001
0.078236997 0.17230999 0.25507
0.039360002 0.11798 0.22747999
0.039645001 0.11652 0.22638001
0.086140998 0.078881003 0.2581
0.086879 0.078025997 0.26052999
0.099408001 0.16964 0.21454
0.10184 0.16997001 0.21340001
0.11176 0.091737002 0.2568
0.1123 0.091562003 0.25646001
0.11274 0.090485997 0.25598001
0.079395004 0.19179 0.26267999
0.086358003 0.19474 0.26631999
0.084284998 0.19526 0.26578999
0.084431998 0.19472 0.26758999
0.099473998 0.11949 0.26089001
0.097594 0.11934 0.26023
0.099275999 0.12002 0.26124001
0.084468 0.071223997 0.25694999
0.083578996 0.073376998 0.25637999
0.084646001 0.074175 0.25714999
0.098068997 0.12095 0.25902
0.10262 0.10486 0.25714999
0.099519998 0.10626 0.25674999
0.1017 0.10621 0.25911999
0.063069999 0.15665001 0.2305
0.063882001 0.15414999 0.23074999
0.064171001 0.15721001 0.2322
0.054979999 0.15085 0.22496
0.055116002 0.15242 0.2264
0.056726001 0.1517 0.22639
0.069665998 0.14373 0.23851
0.059016999 0.14405 0.22487999
0.095473997 0.093983002 0.25837001
0.085868001 0.074239001 0.26334
0.086497001 0.073811002 0.26427999
0.068658002 0.11429 0.22786
0.068530999 0.11576 0.22808
0.068695001 0.11512 0.2273
0.10927 0.18479 0.27598
0.066515997 0.053971998 0.23706999
0.067551002 0.055087999 0.23819
0.10022 0.1115 0.25887001
0.065226004 0.11714 0.22668999
0.066366002 0.11936 0.22679
0.093782999 0.18844999 0.26293999
0.064364001 0.14793999 0.23147
0.057172 0.14801 0.22609
0.087232001 0.079331003 0.25982001
0.087554 0.078441001 0.26065001
0.056465 0.064035997 0.24424
0.059640002 0.063813999 0.24785
0.068021998 0.086529002 0.23485
0.067679003 0.083550997 0.23754001
0.068129003 0.057989001 0.23796
0.094720997 0.18844999 0.26391
0.071225002 0.085758001 0.23489
0.072747998 0.086962998 0.23551001
0.070635997 0.086121 0.23581
0.060637001 0.15067001 0.22768
0.060492001 0.15151 0.2277
0.062703997 0.1494 0.23018
0.073547997 0.12402 0.23416001
0.073615998 0.12308 0.23329
0.072397001 0.12527999 0.23413
0.061124001 0.14746 0.22867
0.095206 0.18316001 0.26589
0.095958002 0.18228 0.26778001
0.095972002 0.18053 0.26844001
0.1059 0.057974 0.25782001
0.10574 0.059978001 0.259
0.10612 0.060570002 0.25971001
0.10414 0.060132999 0.25836
0.10628 0.057514999 0.25929001
0.063490003 0.077744998 0.24435
0.063390002 0.079136997 0.24191999
0.086446002 0.1771 0.2572
0.088413 0.17738 0.26050001
0.092115998 0.086107999 0.25953001
0.093239002 0.088555001 0.25920001
0.094466001 0.085744999 0.25869
0.093664996 0.1772 0.26973999
0.092349999 0.17607 0.27006
0.091975003 0.17490999 0.27118999
0.093314998 0.062765002 0.25374001
0.095008001 0.063754998 0.25328001
0.093887001 0.061852999 0.25130999
0.08726 0.080808997 0.25793001
0.087301999 0.080053002 0.26056999
0.10108 0.19437 0.21363001
0.098702997 0.1945 0.21246
0.10075 0.19358 0.21313
0.059794001 0.15196 0.22925
0.061126001 0.15262 0.22983
0.055713002 0.13262001 0.22683001
0.056099001 0.1322 0.22627001
0.054758001 0.12922999 0.22609
0.062438998 0.15433 0.23073
0.056949999 0.13349 0.2261
0.057324 0.13440999 0.22735
0.083575003 0.17051999 0.26682001
0.1155 0.074331 0.35666999
0.1162 0.074648999 0.35591
0.11435 0.072375 0.35662001
0.034644 0.13655999 0.22538
0.11411 0.18915001 0.27573001
0.094382003 0.18031 0.26495001
0.060431 0.15508001 0.22914
0.062429 0.15440001 0.22903
0.062977001 0.14210001 0.22841001
0.06357 0.14089 0.23040999
0.061698999 0.15372001 0.22927999
0.062298 0.1472 0.22892
0.063732997 0.14820001 0.2295
0.079392001 0.055775002 0.24929
0.079806998 0.056123 0.2485
0.0788 0.058084998 0.24951001
0.073637001 0.067064002 0.24991
0.073767997 0.066696003 0.24823
0.073155999 0.067181997 0.24986
0.085980996 0.071489997 0.26434001
0.086441003 0.072378002 0.26425999
0.085902996 0.070362002 0.26486999
0.11498 0.067631997 0.35161999
0.11665 0.068637997 0.35295001
0.11368 0.067818999 0.35291001
0.11155 0.18914001 0.21657
0.1108 0.19123 0.21559
0.1108 0.18994001 0.21754
0.036719002 0.061333999 0.25887999
0.039365999 0.062321 0.26038
0.037172001 0.061411001 0.25959
0.10549 0.063355997 0.26085001
0.1045 0.062987998 0.26087999
0.10343 0.065931 0.26154
0.057076 0.13440999 0.22708
0.056092001 0.13437 0.22626001
0.11488 0.19325 0.21156
0.11453 0.19152001 0.21100999
0.11471 0.19418 0.2119
0.052875999 0.14055 0.22255
0.053901002 0.14142001 0.22369
0.052611999 0.13878 0.22156
0.079893 0.055612002 0.24947999
0.079645 0.055034999 0.24747001
0.083155997 0.17308 0.25832
0.083498999 0.17629001 0.25718001
0.082773998 0.17427 0.25749001
0.075175002 0.16527 0.25714999
0.074294999 0.16374999 0.25883001
0.079962999 0.16862001 0.2651
0.080661997 0.16757999 0.26598999
0.082217 0.16933 0.26769999
0.060725 0.15601 0.22940999
0.059735 0.15727 0.22984999
0.062047999 0.15744001 0.23026
0.052205998 0.13032 0.22572
0.054683998 0.13186 0.22606
0.078258 0.081551999 0.24842
0.10492 0.057654001 0.26071
0.10614 0.058430001 0.26069
0.091250002 0.080641001 0.26172
0.090966001 0.081251003 0.26212001
0.089951999 0.081959002 0.25988999
0.078002997 0.052751001 0.24823
0.078100003 0.054313999 0.24823
0.088532001 0.10666 0.24258
0.088278003 0.10865 0.2427
0.088409998 0.10829 0.24456
0.086053997 0.12726 0.24609999
0.086594999 0.12703 0.24735001
0.086074002 0.12449 0.24668001
0.083686002 0.17523 0.25882
0.083035998 0.17757 0.25872999
0.085539997 0.17416 0.25931001
0.10683 0.051754002 0.31676999
0.10737 0.053514998 0.31687
0.10784 0.054172002 0.31648999
0.1126 0.053890001 0.32411999
0.088004 0.082092002 0.25957
0.087967999 0.082501002 0.25896001
0.075585999 0.082218997 0.24797
0.069355004 0.059404001 0.24104001
0.069049001 0.058674999 0.24104001
0.070651002 0.05827 0.24135
0.080576003 0.089129001 0.24048001
0.079443999 0.089495003 0.23957001
0.080969997 0.090248004 0.24145
0.10055 0.11455 0.26183
0.10118 0.11675 0.26300001
0.10226 0.11559 0.26241001
0.091876 0.084394 0.26021999
0.091605999 0.084448002 0.26012
0.10217 0.11755 0.26381999
0.11753 0.077307999 0.35381001
0.11696 0.075310998 0.35433999
0.11681 0.075974002 0.35464001
0.11711 0.18337999 0.21434
0.11576 0.18287 0.21307001
0.11465 0.053523 0.30706
0.1136 0.052246001 0.30926001
0.11094 0.053649001 0.32387999
0.076072998 0.1647 0.25804999
0.075695999 0.16606 0.25999999
0.085225001 0.17166001 0.27101001
0.087991998 0.17200001 0.27178001
0.087439001 0.17310999 0.27149999
0.11168 0.095826998 0.25525001
0.11252 0.095841996 0.25707999
0.11262 0.094626002 0.25621
0.11168 0.09804 0.25666001
0.076894999 0.16625001 0.25902
0.077877998 0.16601001 0.26023
0.061857998 0.17316 0.26113001
0.063492998 0.17549001 0.26140001
0.060876999 0.1767 0.25850999
0.1095 0.18995 0.21636
0.1086 0.19007 0.21774
0.10687 0.1821 0.27884999
0.10706 0.18335 0.28031999
0.1075 0.18272001 0.27873001
0.032257002 0.16319001 0.22926
0.033209998 0.16255 0.22819
0.089204997 0.090733998 0.25349
0.089781001 0.092000999 0.25336
0.090759002 0.092908002 0.25446999
0.10439 0.055824 0.25477999
0.10395 0.058357999 0.25492001
0.10466 0.057742 0.25529999
0.10744 0.17629001 0.21596
0.10836 0.17459001 0.2165
0.068619996 0.14387 0.23612
0.070052996 0.14675 0.23721001
0.088762999 0.080844998 0.25865
0.11599 0.19775 0.27476999
0.11519 0.19597 0.27412
0.11417 0.19823 0.27412
0.081423 0.17016 0.26956999
0.082019001 0.16971 0.2701
0.083963998 0.17140999 0.26988
0.079609998 0.16867 0.25955999
0.082258999 0.17116 0.26034001
0.081987001 0.16935 0.26014
0.11173 0.18681 0.27551001
0.11043 0.18595999 0.27595001
0.1055 0.056473002 0.25608
0.037376001 0.16585 0.22654
0.039517999 0.16531999 0.22657999
0.038238 0.16415 0.22689
0.10297 0.1709 0.21281999
0.10561 0.17211001 0.21601
0.10332 0.17027 0.21461999
0.11732 0.072912 0.35429999
0.11777 0.074919999 0.35484001
0.1179 0.073083997 0.35396001
0.039584 0.16780999 0.22724999
0.040477999 0.16387001 0.22694001
0.091144003 0.12720001 0.25339001
0.090481997 0.12664001 0.25334001
0.057069 0.12966999 0.22838999
0.057693999 0.12859 0.22999001
0.088270001 0.17257001 0.26964
0.108 0.18741 0.27485001
0.10913 0.18718 0.27506
0.11817 0.071425997 0.35194001
0.11976 0.074110001 0.35163999
0.11855 0.073473997 0.35249001
0.038686998 0.16773 0.22663
0.039659001 0.16731 0.22747999
0.039902002 0.16234 0.22693001
0.046606999 0.15216 0.22441
0.065916002 0.178 0.26418999
0.066936001 0.17761 0.26190999
0.066950001 0.17851999 0.26197001
0.10473 0.19971 0.27397001
0.10679 0.20028999 0.2744
0.032947 0.16529 0.22859
0.032894 0.16358 0.22719
0.11128 0.099215001 0.34248999
0.11275 0.098793998 0.34180999
0.112 0.099868998 0.34130001
0.11254 0.099983998 0.34233001
0.11194 0.10169 0.34119999
0.11103 0.10215 0.34202999
0.11717 0.077041999 0.35346001
0.11876 0.077739 0.35370001
0.10796 0.099033996 0.34404001
0.10929 0.099881001 0.34371001
0.10866 0.099269003 0.34502
0.065848 0.17820001 0.26334
0.066997997 0.17789 0.26282999
0.067661002 0.17981 0.26269001
0.11303 0.17997 0.21629
0.070009999 0.16207001 0.25711
0.11149 0.057043001 0.31628001
0.11136 0.098297 0.34215
0.11265 0.097892001 0.34081
0.10096 0.057328999 0.25306001
0.10037 0.055376001 0.25182
0.10043 0.058510002 0.25218001
0.070717998 0.17793 0.26241001
0.066790998 0.17812 0.26383001
0.069485001 0.17631 0.26236001
0.040555999 0.15673 0.22806001
0.042185001 0.15864 0.22837
0.041684002 0.15764999 0.22764
0.066620998 0.058572002 0.23910999
0.066614002 0.057720002 0.23913001
0.067405 0.058745999 0.24143
0.03277 0.062775999 0.26363
0.032790001 0.064171001 0.26449001
0.11561 0.19132 0.21285
0.11674 0.18999 0.21495999
0.11966 0.085161999 0.35194001
0.1197 0.085299 0.35235
0.12117 0.083704002 0.35122001
0.042961001 0.16754 0.2298
0.043218002 0.16759001 0.22885001
0.042470999 0.16779999 0.22856
0.077336997 0.16746999 0.26104
0.078443997 0.16666 0.26061001
0.050142001 0.16068999 0.22776
0.11191 0.096858002 0.34044999
0.11137 0.096495003 0.34154001
0.10906 0.10079 0.34301001
0.10973 0.10168 0.34314001
0.10745 0.10074 0.34502
0.10918 0.052597001 0.32688999
0.10924 0.054168999 0.32730001
0.084542997 0.17216 0.26789999
0.10886 0.18361001 0.27958
0.035270002 0.1688 0.23246001
0.035941999 0.16908 0.2313
0.034251999 0.16866 0.23097999
0.11486 0.074501999 0.35597
0.071024001 0.16204999 0.25773001
0.073122002 0.16359 0.25670001
0.038187999 0.10644 0.22721
0.11362 0.19049001 0.27630001
0.11967 0.078599997 0.35389999
0.11856 0.078346997 0.35420999
0.081693999 0.1684 0.26284999
0.080496997 0.16790999 0.26288
0.10818 0.19220001 0.21515
0.10523 0.19267 0.21595
0.086845003 0.17342 0.26411
0.085381001 0.17200001 0.26600999
0.11342 0.10102 0.34006
0.11336 0.10222 0.34118
0.11318 0.10084 0.34114
0.11418 0.056924999 0.31016001
0.1057 0.051350001 0.31665999
0.10765 0.051824 0.31459999
0.086769 0.19106001 0.26168001
0.088968001 0.19001999 0.26052001
0.086507998 0.19089 0.26142001
0.11276 0.097259998 0.34208
0.11414 0.10939 0.34011
0.11318 0.11173 0.33932999
0.11399 0.1117 0.33853
0.1126 0.11259 0.33835
0.070744999 0.062587 0.24652
0.072575003 0.059903 0.24597
0.070821002 0.061733 0.24681
0.10847 0.052699 0.32045001
0.10735 0.053695999 0.31933001
0.11681 0.067925997 0.35139
0.11773 0.067571998 0.35128
0.11236 0.099096999 0.33998001
0.11482 0.10993 0.33992001
0.11287 0.11256 0.33820999
0.114 0.10128 0.34028
0.10856 0.11269 0.34125999
0.042148001 0.11213 0.22639
0.041554999 0.15812001 0.22822
0.073055997 0.16342001 0.25564
0.11601 0.18431 0.21551
0.11336 0.10282 0.33941999
0.11412 0.065954 0.35156
0.093851998 0.20192 0.27335
0.095253997 0.19994999 0.27500999
0.095508002 0.19995999 0.27478001
0.044945002 0.11957 0.22584
0.045111999 0.12826 0.22799
0.044124 0.12827 0.22666
0.044829 0.12853 0.22626001
0.080546997 0.16965 0.26600999
0.080848001 0.16925 0.26879999
0.087760001 0.17426001 0.2678
0.086580001 0.17214 0.26851001
0.044814002 0.15516999 0.22496
0.10701 0.20299999 0.27381
0.104 0.20354 0.27421999
0.10498 0.20195 0.27415001
0.10994 0.10475 0.34283999
0.10861 0.10611 0.34437001
0.11766 0.099940002 0.33668
0.11794 0.10127 0.33704001
0.11724 0.10081 0.33763999
0.077619001 0.16723 0.25749001
0.096037 0.16974001 0.21445
0.080231003 0.17057 0.25898001
0.080375999 0.17102 0.25758001
0.080335997 0.17015 0.25795001
0.091057003 0.17431 0.26952001
0.090452999 0.17609 0.26945999
0.089951999 0.17399 0.26991999
0.10937 0.10937 0.34185001
0.10897 0.11169 0.34240001
0.11004 0.10765 0.34178001
0.109 0.10859 0.34255999
0.087945998 0.075361997 0.26306
0.039191999 0.16812 0.22721
0.077884004 0.16717 0.25850001
0.078194 0.16683 0.25889
0.10925 0.053157002 0.31549001
0.10864 0.053514998 0.31501999
0.11889 0.087667003 0.34937999
0.11674 0.087151997 0.35009
0.11902 0.087422997 0.35066
0.11526 0.18649 0.21404999
0.11679 0.1874 0.21359
0.11489 0.080004998 0.35769001
0.11624 0.080861002 0.35677999
0.114 0.081253 0.35769001
0.12094 0.082190998 0.35132
0.12106 0.079706997 0.35025001
0.12181 0.081499003 0.35095
0.10911 0.17412999 0.21308
0.10832 0.17323001 0.21365
0.10802 0.17399 0.21445
0.12232 0.082305998 0.35055
0.11968 0.082955003 0.35021001
0.12204 0.082254998 0.34962001
0.036235999 0.10974 0.22848
0.11475 0.18751 0.21369
0.11593 0.18753 0.21324
0.11463 0.18516 0.2129
0.089709997 0.083949 0.25929999
0.089735001 0.083677001 0.25895
0.032566 0.15281001 0.2295
0.038116001 0.108 0.22721
0.10686 0.18522 0.28047001
0.10711 0.18599001 0.28084001
0.10578 0.1858 0.27970001
0.11944 0.078488 0.35242999
0.11883 0.079797 0.35310999
0.11975 0.077211 0.35334
0.12214 0.076814003 0.35185999
0.093764 0.12096 0.25518
0.12229 0.062574998 0.30217001
0.12399 0.062456999 0.30423
0.12474 0.062729001 0.30197001
0.11871 0.10275 0.33662999
0.11302 0.18095 0.21613
0.11406 0.18106 0.21537
0.11058 0.17659999 0.21287
0.046337999 0.14475 0.2243
0.045499999 0.14657 0.22344001
0.032517001 0.14473 0.22594
0.033558998 0.14142001 0.22693001
0.033516999 0.15068001 0.22758999
0.035737999 0.15263 0.22736999
0.10175 0.17012 0.21499
0.1191 0.080539003 0.35236999
0.11953 0.080058999 0.35372999
0.11581 0.072535999 0.35527
0.1061 0.18694 0.27840999
0.10751 0.18761 0.27893999
0.10697 0.19001999 0.27853999
0.075616002 0.16773 0.25549001
0.076495998 0.16856 0.25602001
0.077045999 0.16568001 0.25687999
0.087375998 0.17264 0.27603999
0.088491999 0.17436001 0.27495
0.088124998 0.17481001 0.27485999
0.042268001 0.13906001 0.22169
0.040964 0.1408 0.22235
0.041861001 0.14026 0.22348
0.041003998 0.16932 0.22796001
0.039374001 0.16757999 0.22921
0.039930999 0.16687 0.22802
0.079148002 0.16723999 0.25896999
0.079314001 0.16776 0.26021999
0.091294996 0.18393999 0.26003
0.091201 0.18423 0.26067999
0.091655001 0.18432 0.26157999
0.091825001 0.20023 0.27221999
0.091185004 0.19898 0.2705
0.089652002 0.19949 0.27035001
0.091949001 0.090744004 0.25768
0.092635997 0.089612998 0.25696
0.092001997 0.088042997 0.25813001
0.038345002 0.13902999 0.22284
0.089133002 0.084174998 0.25894001
0.091048002 0.084821001 0.25734001
0.032540999 0.16784 0.23055001
0.032053001 0.16875 0.23029
0.033248998 0.16646001 0.22882999
0.043565001 0.1128 0.22528
0.053892002 0.15064999 0.22421999
0.053642999 0.14786001 0.22529
0.051823001 0.15146001 0.22416
0.038509 0.1425 0.22367001
0.040391002 0.14291 0.22384
0.087347001 0.19656999 0.26622
0.092575997 0.19719 0.27228001
0.092538998 0.19825999 0.27322
0.089645997 0.19859 0.27215001
0.11721 0.083568998 0.35418999
0.11871 0.082203001 0.35317999
0.11781 0.084871002 0.35319
0.11796 0.084725 0.35372999
0.11867 0.085243002 0.3511
0.11723 0.086315997 0.35268
0.032352999 0.15648 0.2304
0.088868998 0.19727001 0.27157
0.089665003 0.1979 0.27114999
0.091127001 0.20163999 0.27296001
0.092936002 0.20006 0.27102
0.075407997 0.19053 0.26151001
0.076352 0.18955 0.25997001
0.074840002 0.1869 0.26063001
0.092380002 0.18138 0.26425999
0.041310001 0.14005999 0.22352999
0.041301999 0.14129999 0.22205999
0.040592 0.14339 0.22154
0.042043999 0.14315 0.22335
0.041768 0.14283 0.22164001
0.047945999 0.092046998 0.22981
0.091511004 0.19791999 0.27127999
0.045249999 0.15417001 0.22503
0.097442001 0.10788 0.25689
0.087428004 0.17893 0.26172999
0.089221999 0.1772 0.26188999
0.072227001 0.14262 0.27619001
0.072296001 0.14293 0.27680001
0.074124001 0.14304 0.27682999
0.037243001 0.13221 0.22506
0.11565 0.081435002 0.35363001
0.093410999 0.10146 0.25235
0.093964003 0.10088 0.25218999
0.091475002 0.099316999 0.25341001
0.042550001 0.11516 0.22561
0.043427002 0.11296 0.22378001
0.11604 0.051934998 0.30346
0.11821 0.052510999 0.30362001
0.11706 0.052432999 0.30412999
0.04659 0.093792997 0.22658999
0.045600999 0.093728997 0.2286
0.045479 0.096075997 0.2286
0.046705998 0.15705 0.22634
0.092854001 0.17715 0.26892999
0.091023996 0.1759 0.26859999
0.046128999 0.15301 0.22544999
0.041170001 0.12439 0.22851001
0.041001 0.12587 0.22949
0.10372 0.20388 0.27447999
0.11263 0.10319 0.33981001
0.096675001 0.11975 0.25894001
0.096919 0.11996 0.25848001
0.097046003 0.12144 0.25793999
0.032788001 0.16732 0.22937
0.038084999 0.10723 0.22687
0.040624 0.10613 0.22727001
0.040484998 0.10623 0.22778
0.10284 0.11155 0.26328
0.10419 0.11128 0.26109999
0.10115 0.11082 0.26017001
0.080746002 0.18498001 0.25626001
0.090949997 0.17569 0.26661
0.090260997 0.17479999 0.26873001
0.11586 0.084896997 0.35530999
0.1184 0.084224001 0.35556
0.1161 0.085649997 0.35517001
0.093429998 0.20066001 0.27193001
0.092670001 0.18602 0.26199001
0.090733998 0.087268002 0.25694001
0.11815 0.10797 0.33655
0.030858001 0.15964 0.22894999
0.030596999 0.1605 0.22943
0.031314 0.16181 0.2289
0.085256003 0.17125 0.27215001
0.084797002 0.17171 0.27182999
0.083571002 0.17213 0.27315
0.10923 0.18787999 0.27379
0.031858001 0.16712999 0.22938
0.072795004 0.14196999 0.27963999
0.070926003 0.14219999 0.28053001
0.071336001 0.14283 0.28066999
0.04036 0.11899 0.22878
0.041260999 0.12173 0.22865
0.1094 0.19439 0.21536
0.10961 0.19283 0.21484999
0.11915 0.10479 0.33662
0.03571 0.16367 0.22844
0.035861 0.16429 0.22766
0.037062 0.16439 0.22611
0.033013001 0.16531 0.22825
0.046498999 0.1559 0.22506
0.047281001 0.15415999 0.22552
0.042743001 0.12322 0.22896001
0.043933999 0.15030999 0.22442999
0.11556 0.078298002 0.35652
0.11473 0.076389 0.35659
0.072924003 0.16437 0.26045999
0.075191997 0.16680001 0.2613
0.11281 0.18797 0.27625
0.040410999 0.12059 0.22795001
0.039482001 0.11805 0.22705001
0.11707 0.10425 0.33679
0.10059 0.057232998 0.25117001
0.12084 0.077944003 0.35044
0.121 0.079686001 0.34878999
0.12191 0.080702998 0.34872001
0.091165997 0.086287998 0.25753
0.078929 0.10923 0.23338
0.076888002 0.11026 0.23305
0.079268001 0.11109 0.23304
0.038812999 0.10995 0.22743
0.039586 0.10992 0.22766
0.039053001 0.10896 0.22592001
0.072431996 0.14379001 0.28132001
0.11354 0.19361 0.27327001
0.070726 0.14345001 0.27677
0.073325999 0.14113 0.27735001
0.11582 0.080160998 0.35745999
0.079783998 0.16977 0.25764999
0.078130998 0.16938999 0.25751999
0.040814999 0.12522 0.22926
0.03937 0.12606999 0.22859
