# .PCD v0.7 - Point Cloud Data file format
VERSION 0.7
FIELDS x y z
SIZE 4 4 4
TYPE F F F
COUNT 1 1 1
WIDTH 1570
HEIGHT 1
VIEWPOINT 0 0 0 1 0 0 0
POINTS 1570
DATA ascii
0.070262 0.035558 0.27755001
0.069099002 0.035969999 0.27816001
0.069475003 0.03638 0.27812001
0.089080997 0.036805999 0.26741001
0.089061998 0.035475999 0.26727
0.088951997 0.036970001 0.26786
0.072591998 0.036143001 0.27629
0.071916997 0.037218001 0.27691001
0.071446002 0.036990002 0.27618
0.19494 0.038298 0.21318001
0.19403 0.040481001 0.21363001
0.19344001 0.040617999 0.21367
0.19103 0.043533001 0.21442001
0.19027001 0.044123001 0.21515
0.17501 0.044404998 0.22313
0.16576 0.046808001 0.22826999
0.16271999 0.04693 0.229
0.16 0.048025999 0.23181
0.15594999 0.048530001 0.23331
0.15489 0.048393998 0.23319
0.15452 0.049201 0.23322999
0.15317 0.050266001 0.23417
0.15204 0.050537001 0.23442
0.15173 0.051057 0.23455
0.15166999 0.051564999 0.23560999
0.15217 0.053304002 0.23541
0.16835 0.057310998 0.22748999
0.17411 0.058329999 0.22409
0.17367999 0.058502 0.22503
0.17208 0.057890002 0.22488999
0.17259 0.057606 0.22483
0.18549 0.06047 0.21766999
0.18698999 0.059790999 0.21755999
0.19239999 0.064490996 0.21435
0.19063 0.065157004 0.21467
0.19201 0.064975001 0.21494
0.19464 0.065729998 0.21365
0.19227999 0.069996998 0.21491
0.18528 0.071617998 0.21834999
0.15090001 0.071528003 0.23740999
0.15171 0.071906999 0.23665
0.15033001 0.071249999 0.23645
0.18381999 0.074001998 0.21865
0.18277 0.073684998 0.22014999
0.18212999 0.073458999 0.21963
0.13440999 0.076275997 0.24528
0.13477001 0.076846004 0.24451999
0.13417 0.075603999 0.24424
0.17502999 -0.046817001 0.22294
0.17705999 -0.045503002 0.22139999
0.17789 -0.043646 0.22171
0.1814 -0.034469001 0.21928
0.18148001 -0.033876002 0.21876
0.18370999 -0.030648001 0.21826001
0.18268999 -0.030401999 0.21799999
0.18319 -0.026768001 0.21935
0.18346 -0.026946001 0.21898
0.18377 -0.024521001 0.21836001
0.18366 -0.019768 0.21833999
0.040493 -0.017573999 0.29170999
0.039246999 -0.018632 0.29256001
0.040578 -0.019291 0.29172999
0.039133001 -0.018673001 0.29291001
0.040403999 -0.018371001 0.29082999
0.18266 -0.017238 0.21876
0.18317001 -0.017945999 0.21832
0.040261 -0.0174 0.29212999
0.18334 -0.015951 0.21815
0.042211998 -0.015209 0.29047999
0.043402001 -0.013738 0.29039001
0.074188001 -0.011403 0.27498999
0.047672 -0.010523 0.2881
0.047538999 -0.010931 0.28830999
0.047439002 -0.011093 0.28858
0.18093 -0.01055 0.21912999
0.18167999 -0.010618 0.2191
0.073146001 -0.010276 0.27575999
0.073926002 -0.010409 0.27531999
0.071823999 -0.0097839003 0.27621999
0.071606003 -0.010565 0.27612999
0.070937999 -0.0095667001 0.27660999
0.073581003 -0.0097038001 0.27476999
0.072228 -0.0089563001 0.27489001
0.071424 -0.0087633003 0.27652001
0.074653998 -0.0085982 0.27484
0.071204998 -0.0084755998 0.27619001
0.072016001 -0.0078686001 0.27627999
0.18137001 -0.0077924998 0.21955
0.074871004 -0.0078231003 0.27508
0.073045999 -0.0084638 0.27529001
0.073864996 -0.0059162001 0.27539
0.072176002 -0.0074244002 0.27575999
0.072030999 -0.0067647002 0.27587
0.071071997 -0.0075759999 0.27614
0.047632001 -0.0080559999 0.28834
0.18137001 -0.0067975 0.21935999
0.070871003 -0.0069320998 0.27698001
0.073126003 -0.0059004002 0.27502999
0.046849001 -0.0051310998 0.28802001
0.074680001 -0.0039082998 0.27494001
0.074427001 -0.0048444001 0.27463999
0.074583001 -0.0038101999 0.27443999
0.17953999 -0.0039277002 0.22026999
0.072655 -0.0023727 0.27531999
0.073160999 -0.0033710999 0.27520999
0.074473999 -0.0025702999 0.27559
0.073142998 -0.0014677 0.27540001
0.072245002 -0.0020097999 0.27590001
0.046425998 -0.0015419 0.28859001
0.046567 -0.0019721 0.28828001
0.046794999 -0.0017776 0.28863001
0.073661998 -0.00066914002 0.27456
0.073487997 -7.9967998e-05 0.27531001
0.074608997 0.00086481002 0.27511001
0.17986999 0.00038385001 0.22131
0.046604998 0.00092512002 0.28898999
0.046101999 0.0023423 0.28797001
0.073763996 0.0016289999 0.27552
0.073642001 0.0026563001 0.27557999
0.17609 0.0036497 0.22158
0.17584001 0.0043298001 0.22243001
0.072503999 0.0061456002 0.27577001
0.17461 0.0073034 0.22248
0.071483001 0.0075935 0.2757
0.17485 0.0073408 0.22305
0.071708001 0.0082788002 0.27581999
0.071948998 0.0090680998 0.2757
0.17302001 0.0092425002 0.22400001
0.071500003 0.011308 0.27590999
0.071386002 0.0099571999 0.27579001
0.071525 0.010928 0.27653
0.071618997 0.010786 0.27596
0.17039999 0.011616 0.2251
0.1646 0.018286999 0.22785001
0.16433001 0.017317999 0.22762001
0.11508 0.017529 0.25437999
0.1151 0.017579 0.25455999
0.11409 0.017912 0.25413999
0.11317 0.018298 0.25398999
0.16213 0.020657999 0.2289
0.15875 0.021775 0.23073
0.15736 0.023579 0.23092
0.15774 0.023233 0.23173
0.1568 0.023922 0.2321
0.15583 0.024846001 0.23259
0.1559 0.026145 0.23307
0.076729998 0.029689001 0.27414
0.077124 0.031434 0.27404001
0.075378999 0.029162001 0.27434999
0.079245001 0.031417999 0.27315
0.079662003 0.030549999 0.27243999
0.078445002 0.029851001 0.27307001
0.075630002 0.030781001 0.27403
0.075570002 0.031404998 0.27358001
0.077643998 0.031204 0.27329999
0.075188003 0.030567 0.27397999
0.082080998 0.031869002 0.27160001
0.080831997 0.031227 0.27166
0.081219003 0.031665999 0.27158999
0.080605999 0.03112 0.27228001
0.080473997 0.030939 0.27223
0.081859 0.030802 0.27070999
0.079278 0.032435 0.27177
0.077095002 0.031305999 0.27325001
0.084076002 0.033684999 0.27055001
0.082427002 0.033032 0.27109
0.079507001 0.032375 0.27200001
0.079304002 0.032000002 0.27203
0.077243999 0.031796999 0.27250999
0.084156998 0.032040998 0.26980999
0.085304998 0.033059999 0.26914999
0.085156001 0.032136001 0.26885
0.081316002 0.033363 0.27136999
0.080495 0.032396998 0.27254
0.078593999 0.033236999 0.27225
0.077826999 0.033328 0.27265999
0.086548999 0.033341002 0.26841
0.084544003 0.034026001 0.26965001
0.084200002 0.034093998 0.26953
0.081846997 0.034194 0.27076
0.079360999 0.033815 0.27201
0.19503 0.033837002 0.21245
0.089060001 0.032655999 0.26730001
0.089345999 0.033583 0.26679
0.089098997 0.033436999 0.26710999
0.088644996 0.034136001 0.26716
0.086039998 0.034226 0.26857001
0.081418 0.034271002 0.27156001
0.080507003 0.033881001 0.27186
0.078625999 0.033282001 0.27186
0.078736 0.034192 0.27302
0.089775003 0.033638 0.26629999
0.089433998 0.033526 0.26646
0.089772999 0.034820002 0.26732001
0.086479001 0.035039 0.26905999
0.085167997 0.034288 0.2694
0.080379002 0.034320001 0.27155
0.079448 0.034782998 0.27265999
0.19209 0.034081001 0.21502
0.19219001 0.034882002 0.21431001
0.19264001 0.033787999 0.21464001
0.082097001 0.034713 0.27068999
0.081311002 0.035094999 0.27131
0.078005001 0.034736998 0.27309
0.073077001 0.033764001 0.27529001
0.072426997 0.033872001 0.27548999
0.071846999 0.034366 0.27603
0.19171 0.034327 0.21515
0.089441001 0.035158999 0.26739001
0.091394998 0.034189001 0.26604
0.085853003 0.035687 0.26931
0.08653 0.034391999 0.26927
0.086598001 0.034049001 0.26819
0.078382 0.035000999 0.27335
0.072780997 0.034171999 0.27621999
0.074914999 0.034254 0.27447999
0.073642999 0.033537999 0.27487001
0.071920998 0.035091002 0.2757
0.071037002 0.034339 0.27654001
0.072105996 0.035845999 0.27636999
0.070951 0.034382001 0.27704
0.071347997 0.034187999 0.27711999
0.068579003 0.035145 0.27790001
0.069208004 0.034717999 0.27728999
0.069412999 0.033606 0.27742001
0.079423003 0.034970999 0.27316999
0.077431999 0.035468001 0.27316001
0.077513002 0.035234001 0.27353001
0.076649003 0.034951001 0.27406001
0.069512002 0.034325998 0.27737001
0.069954999 0.034864999 0.27682999
0.089685 0.036428001 0.26787999
0.083019003 0.034885 0.27122
0.081757002 0.035826001 0.27067
0.071151003 0.036288999 0.2764
0.086396001 0.036176 0.26921999
0.085552 0.035792001 0.26960999
0.079962 0.035937 0.27184999
0.072093002 0.035675999 0.27653
0.072435997 0.036453001 0.27581
0.073651001 0.035783999 0.27552
0.19845 0.037172999 0.21091001
0.19783001 0.036288001 0.21174
0.074623004 0.035863999 0.27430001
0.074979998 0.035381 0.27497
0.073778003 0.035893999 0.27566999
0.074514002 0.037085999 0.27395999
0.074353002 0.036233999 0.27452001
0.19654 0.036982 0.21163
0.19657999 0.038332 0.21128
0.19565 0.038665999 0.21188
0.19536 0.037999 0.21312
0.19434001 0.039618 0.21286
0.19487 0.038926002 0.21280999
0.19251999 0.04152 0.21382
0.19305 0.041754998 0.21351001
0.19216 0.042357001 0.21428999
0.19222 0.043005999 0.21402
0.18964 0.044068001 0.215
0.18905 0.043180998 0.2156
0.19112 0.044413 0.21448
0.19085 0.044441 0.21494
0.19036999 0.044318002 0.21419001
0.19093999 0.044268001 0.21468
0.17477 0.044287 0.22223
0.17384 0.044472001 0.22267
0.16870999 0.046068002 0.22679
0.16742 0.046103999 0.22676
0.16591001 0.046496999 0.2271
0.16463 0.046096999 0.22803999
0.16367 0.046985999 0.2287
0.16278 0.046438999 0.22886001
0.16113999 0.048076 0.22995999
0.15907 0.047967002 0.23051
0.15538 0.049205001 0.23284
0.15380999 0.049043 0.23345999
0.15591 0.048253998 0.2323
0.15358 0.048585001 0.23356
0.15346 0.049249999 0.23413999
0.15276 0.049672 0.23428001
0.15233999 0.049417 0.23445
0.15167999 0.050361998 0.23551001
0.15143 0.05026 0.23528001
0.15099999 0.050996002 0.23429
0.15098999 0.051979002 0.2349
0.16748001 0.056269001 0.22590999
0.18765 0.059005 0.21630999
0.18752 0.059439 0.21696
0.18759 0.05934 0.21618
0.18691 0.059918001 0.21664
0.19152001 0.064157002 0.21427999
0.19306999 0.065352 0.2131
0.19394 0.064916998 0.21328001
0.19382 0.066868998 0.21362001
0.19306999 0.065867998 0.21291
0.1944 0.068712004 0.21261001
0.19220001 0.071214996 0.21394999
0.19154 0.070795 0.21501
0.19160999 0.071144998 0.21486001
0.19101 0.070665002 0.2148
0.19131 0.071546003 0.21352001
0.15354 0.071585 0.23413
0.15107 0.072765999 0.23573001
0.18466 0.073155999 0.21811
0.18377 0.074208997 0.21782
0.18343 0.073780999 0.21855
0.14157 0.073106997 0.24002001
0.18234 0.074267 0.21924999
0.14012 0.074327998 0.2397
0.14145 0.073743001 0.24015
0.13832 0.075364001 0.24112
0.13935 0.074872002 0.24141
0.13816001 0.075774997 0.24155
0.13677 0.076554 0.24233
0.13406 0.077478997 0.24417
0.16823 -0.052643001 0.22565
0.16608 -0.053098999 0.22606
0.16997001 -0.051557001 0.22555999
0.17 -0.050937001 0.22475
0.17071 -0.050636001 0.22556999
0.17199001 -0.049805 0.22374
0.17156 -0.050232001 0.22463
0.17313001 -0.049968001 0.22366001
0.1733 -0.048811998 0.22238
0.17460001 -0.047290999 0.22288001
0.17509 -0.046909001 0.22272
0.17495 -0.047226001 0.22238
0.17580999 -0.046278 0.22182
0.17595001 -0.045506999 0.22127999
0.17488 -0.046510998 0.22214
0.17772 -0.043620002 0.22104
0.17737 -0.044544999 0.22160999
0.17765 -0.043871 0.22056
0.17806999 -0.043150999 0.22046
0.17873999 -0.041311 0.22158
0.18047 -0.038617998 0.21960001
0.18091001 -0.038447 0.22052
0.18154 -0.033323001 0.21882001
0.18231 -0.032795999 0.21836001
0.18203001 -0.032722998 0.21878999
0.18339001 -0.026581001 0.21901999
0.18331 -0.025525 0.2185
0.18336 -0.023391999 0.21856
0.038998999 -0.019222001 0.29229
0.039872002 -0.019889001 0.29201999
0.041037001 -0.017324001 0.29071999
0.041745 -0.015712 0.29120001
0.042179 -0.014906 0.29108
0.18311 -0.015267 0.21861
0.042337999 -0.014869 0.29047999
0.18205 -0.014021 0.21798
0.046652 -0.012285 0.28823999
0.18246 -0.0083005996 0.21913999
0.1813 -0.0095333997 0.21868999
0.18115 -0.0088572996 0.21839
0.18213999 -0.0096773002 0.21975
0.048551001 -0.0087972004 0.28762999
0.048532002 -0.0078180004 0.28793001
0.071438 -0.0069172001 0.27623999
0.047876 -0.0069907 0.28729001
0.18133 -0.0082064001 0.21962
0.18031999 -0.0060100998 0.21939
0.070900001 -0.0056340001 0.27680001
0.047618002 -0.0062473002 0.28803
0.071080998 -0.0049637998 0.27563
0.071562 -0.0056465999 0.27603
0.17934 -0.005289 0.21919
0.18043 -0.0045161 0.21928
0.18018 -0.005746 0.219
0.072099 -0.0048691998 0.27559
0.072072998 -0.0051636002 0.27575001
0.046895999 -0.0052943002 0.28773001
0.047121 -0.0058503998 0.28758001
0.17964999 -0.0044058999 0.22029001
0.073146999 -0.0048634 0.27520999
0.074394003 -0.0048906002 0.27467
0.071714997 -0.0038544999 0.27537999
0.073239997 -0.0033164001 0.27541
0.071722999 -0.0036895999 0.27524
0.069245003 -0.0046703001 0.27717
0.069995999 -0.0041720001 0.27667001
0.069677003 -0.0034854 0.27674001
0.046943001 -0.0044598002 0.28821
0.17925 -0.0034626999 0.22081
0.071239002 -0.0036662 0.27631
0.069153003 -0.0033209999 0.27735001
0.068108 -0.0025045001 0.27754
0.047132 -0.0035905 0.28850001
0.070813999 -0.0020411001 0.27570999
0.071754001 -0.0020210999 0.27575999
0.17916 -0.0012706 0.22051001
0.070354 -0.0021589999 0.27588999
0.072402 -0.00090022001 0.27641001
0.071769997 0.00040048 0.27561
0.046493001 -0.00020684001 0.28845
0.17907 -0.00011665 0.22076
0.072635002 0.00026979001 0.27540001
0.065274999 0.00087028003 0.27833
0.064122997 0.00025489999 0.27996999
0.065039001 0.0015267 0.27923
0.046487998 0.0004707 0.28865999
0.17856 0.0014651 0.22109
0.072447002 0.00093417999 0.27509001
0.071932003 0.0012285 0.27572
0.17847 0.0014237 0.22152001
0.072144002 0.0023966001 0.27553999
0.17662001 0.0029744999 0.22177
0.072120003 0.0025764999 0.27557999
0.046149001 0.0030274 0.28782001
0.046723999 0.0033648 0.28870001
0.072122999 0.0035776 0.27555999
0.045793001 0.0039837998 0.28867
0.045979999 0.0049379999 0.28871
0.072466001 0.0048646 0.27544999
0.17643 0.0044888002 0.22254001
0.071197003 0.0041511999 0.27577999
0.071762003 0.0048996001 0.27572
0.071454003 0.0055849999 0.27618
0.176 0.0059606 0.22234
0.071764998 0.0052407999 0.27614999
0.17434999 0.0061301999 0.22144
0.071898997 0.0069861999 0.27614999
0.071731001 0.0068426002 0.27541
0.17363 0.0082866997 0.22334
0.17295 0.0089165997 0.22307999
0.071659997 0.0095514003 0.27555999
0.071415998 0.0085893003 0.27588001
0.17193 0.0095322002 0.22366001
0.070405997 0.010191 0.27631
0.071134001 0.010032 0.27636999
0.17178001 0.0096971001 0.22405
0.069884002 0.011438 0.27599999
0.17115 0.010717 0.22446001
0.17098001 0.011766 0.22418
0.17067 0.012454 0.22368
0.16975001 0.01357 0.22509
0.16887 0.014332 0.22555999
0.16895001 0.013879 0.22544999
0.16846 0.013915 0.22605
0.16807 0.01448 0.22487999
0.16734 0.014124 0.22517
0.16809 0.014749 0.22566
0.11401 0.015988 0.25409999
0.11532 0.016062001 0.25342
0.11494 0.015369 0.25382
0.16616 0.016943 0.22761001
0.1143 0.016489999 0.25470999
0.1153 0.016550001 0.25437
0.16565999 0.017973 0.22702999
0.1638 0.018734001 0.22868
0.16332 0.018812001 0.22866
0.16282 0.019399 0.22888
0.11198 0.018654 0.25514001
0.11235 0.018321 0.25483
0.11283 0.019171 0.25527
0.11176 0.018931 0.25523999
0.1617 0.022035999 0.22908001
0.16111 0.020811001 0.22913
0.16136 0.021798 0.22935
0.15971 0.021431999 0.23015
0.15623 0.024839001 0.23270001
0.15487 0.024971999 0.23243
0.15441 0.025645001 0.23248
0.15397 0.026671 0.23355
0.15327001 0.027582999 0.23382001
0.15384001 0.026386 0.23396
0.072805002 0.028777 0.27502
0.073735997 0.029158 0.27472001
0.073457003 0.027094999 0.27509001
0.064772002 0.027547 0.2793
0.063823 0.028135 0.28077999
0.063963003 0.027836001 0.27974999
0.073427998 0.029989 0.27428001
0.074940003 0.028601 0.27406001
0.065309003 0.028347 0.27969
0.074951001 0.028377 0.27522001
0.074184999 0.029973 0.27474001
0.073197998 0.02912 0.27487999
0.066074997 0.029537 0.2789
0.065545999 0.029829999 0.27899
0.066653997 0.029431 0.27856001
0.065774001 0.030683 0.27880001
0.064962998 0.030325999 0.27952
0.075098999 0.031552002 0.27421999
0.075535998 0.031830002 0.27388999
0.076880999 0.032168999 0.27291
0.075735003 0.031683002 0.27351999
0.075255997 0.031911999 0.27447
0.075144 0.032671999 0.27418
0.073788002 0.031410001 0.27478001
0.073812999 0.031429 0.27465001
0.076474003 0.032536 0.27318999
0.076347001 0.033195 0.27316001
0.074359 0.032802999 0.27502
0.073664002 0.031874999 0.27498999
0.072199002 0.032051001 0.27520999
0.071938999 0.032963 0.27552
0.073289998 0.032889999 0.27491999
0.073446997 0.032416001 0.27520999
0.088726997 0.032419 0.26719999
0.089046001 0.03204 0.26697999
0.076222003 0.033824001 0.27410999
0.19566999 0.033555001 0.21168999
0.075236 0.033962999 0.27379999
0.071200997 0.032616999 0.27592999
0.069542997 0.033130001 0.27674001
0.068548001 0.033780001 0.27761
0.19614001 0.034646001 0.21127
0.077023998 0.035071999 0.27339
0.070523001 0.033433001 0.27608001
0.069790997 0.034425002 0.27649999
0.069569997 0.033050001 0.27673
0.19732 0.034850001 0.21086
0.075882003 0.035059001 0.27342001
0.076196998 0.034788001 0.2737
0.076559998 0.03579 0.27340001
0.074612997 0.035787001 0.27489999
0.19707 0.035726 0.21129
0.076605998 0.036318 0.27331001
0.075506002 0.035831001 0.27366
0.075561002 0.036332998 0.27405
0.19704001 0.036658 0.21067999
0.19766 0.036908001 0.2105
0.19757 0.037562001 0.21111
0.19785 0.037588999 0.20958
0.19675 0.038444001 0.21061
0.19489001 0.039122999 0.21314
0.1952 0.040011998 0.21253
0.19416 0.040564001 0.21351001
0.19306 0.041331001 0.21333
0.19257 0.043485999 0.21382999
0.19231001 0.043450002 0.21416
0.17575 0.044000998 0.2225
0.17238 0.044936001 0.22262
0.17309 0.043765999 0.22375999
0.17226 0.045017999 0.22411001
0.17138 0.044631999 0.22464
0.16942 0.045550998 0.22590999
0.16743 0.045867 0.22582
0.16379 0.046562999 0.22866
0.16621 0.046624999 0.2269
0.16162001 0.04741 0.22935
0.16034999 0.048372999 0.22981
0.16042 0.047276001 0.23100001
0.15909 0.047697999 0.23067001
0.15813001 0.048149999 0.23153
0.15765999 0.048324998 0.23175
0.15673 0.047944002 0.23153999
0.15617999 0.047768999 0.23156001
0.15658 0.047917001 0.23197
0.15125 0.049830999 0.23445
0.16859999 0.056756001 0.22589
0.17067 0.057626002 0.2256
0.18882 0.058400001 0.21600001
0.18885 0.058536001 0.21571
0.17309 0.058522999 0.2235
0.17332999 0.058664002 0.22374
0.18859001 0.059292 0.21602
0.18795 0.059317999 0.21586999
0.17393 0.058963999 0.22336
0.17498 0.057939999 0.2234
0.18931 0.059636999 0.21533
0.17526001 0.059505001 0.22229999
0.18965 0.060072001 0.21436
0.18686999 0.059602 0.21562
0.18603 0.060509998 0.21674
0.18949001 0.061507002 0.21565001
0.18953 0.061484002 0.21568
0.18987 0.063032001 0.21513
0.19045 0.064379998 0.21435
0.19211 0.064862996 0.21425
0.19259 0.065186001 0.21343
0.19264001 0.066261001 0.21267
0.19382 0.067286998 0.21314999
0.19478001 0.067511 0.21247999
0.19362999 0.067840002 0.21255
0.19392 0.068575002 0.21301
0.19388001 0.069922 0.21253
0.19382 0.070730999 0.21367
0.19362 0.070896 0.21351001
0.19148999 0.071571 0.2141
0.14402001 0.072258003 0.23839
0.14432 0.071208 0.23815
0.18485001 0.071667999 0.21782
0.18421 0.070973001 0.2177
0.15464 0.072053 0.23243
0.15494999 0.071952 0.23271
0.15184 0.071025997 0.23498
0.15110999 0.071690999 0.23425999
0.15053 0.072033003 0.23553
0.14293 0.072075002 0.23915
0.18437 0.071722001 0.21762
0.14272 0.072375998 0.23964
0.14251 0.072921 0.23999999
0.18200999 0.074015997 0.21933
0.13996001 0.074161999 0.24043
0.13395999 0.075998001 0.24338999
0.13465001 0.075966999 0.24399
0.13440999 0.076114997 0.24326
0.13692001 0.076944001 0.24217001
0.13316999 0.076291002 0.24333
0.13574 0.076834001 0.24258
0.13392 0.077016003 0.24372
0.13372999 0.076569997 0.2447
0.13500001 0.077812999 0.24289
0.13405 0.077749997 0.24342
0.13322 0.077904999 0.24394
0.13298 0.078130998 0.24472
0.16798 -0.051911 0.22538
0.16799 -0.051589999 0.22529
0.17046 -0.050301 0.22416
0.16986001 -0.050864 0.22463
0.17217 -0.049683001 0.22304
0.17612 -0.045852002 0.22191
0.17674001 -0.044140998 0.22036999
0.17654 -0.045324001 0.22130001
0.17849 -0.042622998 0.22099
0.17833 -0.041553002 0.22014999
0.17856 -0.041065 0.21995001
0.17773999 -0.041173 0.22018
0.17953999 -0.041034002 0.21885
0.1796 -0.038734999 0.2186
0.18048 -0.039641 0.21913999
0.18108 -0.038729001 0.21964
0.18228 -0.032923002 0.21832
0.18292999 -0.028596999 0.21861
0.18253 -0.026954001 0.21833
0.18188 -0.025598001 0.21749
0.18321 -0.025495 0.21831
0.18279 -0.024203001 0.21772
0.18288 -0.022298999 0.21839
0.18308 -0.023542 0.21754999
0.18299 -0.021429 0.21804
0.18342 -0.020093 0.21836001
0.038111001 -0.020448999 0.29265001
0.038924001 -0.020568 0.29177999
0.040036 -0.018686 0.29142001
0.040952999 -0.018692 0.29069
0.18282001 -0.016580001 0.21775
0.041600998 -0.017392 0.29058
0.041901 -0.017062001 0.28975999
0.042151 -0.017193999 0.29045001
0.18302999 -0.015555 0.2177
0.042525999 -0.015259 0.28955999
0.18252 -0.013587 0.21823999
0.18249001 -0.013577 0.21821
0.18211 -0.012359 0.2184
0.047136001 -0.012531 0.28755999
0.048186 -0.010067 0.28821
0.048275001 -0.011015 0.28641
0.071346998 -0.0040775002 0.27588999
0.070283003 -0.0040575 0.27645001
0.046833999 -0.0044684 0.28749001
0.070629001 -0.0033962999 0.27658999
0.068833001 -0.0017789 0.27671999
0.046126999 -0.0033599001 0.28718999
0.070560999 -0.0027475001 0.27631
0.067884997 -0.0023304 0.27755001
0.17879 -0.0025875999 0.22008
0.069433004 -0.00045475 0.27632999
0.070139997 -0.0010431 0.27612999
0.069104999 -0.001059 0.27610001
0.070064001 -0.0015082 0.27574
0.067209996 -0.0028973001 0.27798
0.066852003 -0.0011178 0.27792999
0.17857 -0.0012087 0.22057
0.17897999 6.1482999e-05 0.2203
0.070750996 -0.00068529998 0.27599999
0.068207003 -0.0013156 0.27702001
0.068223 -0.00049753999 0.27783
0.071131997 0.00050937 0.27581
0.069636002 -8.8788001e-05 0.27680999
0.066941999 -0.00025923 0.27803999
0.17866001 0.00020297 0.22039001
0.069959 0.00055015 0.27614
0.069541998 0.00065096002 0.27688
0.066563003 0.0012551 0.27871001
0.066331998 0.0013657 0.27757999
0.066233002 6.1223996e-05 0.27821001
0.065784 -0.00056910003 0.27897
0.046282001 0.0012433 0.28742
0.17742001 0.001881 0.22133
0.17709 0.0017761 0.22077
0.070069 0.001627 0.27595001
0.071245998 0.0021943999 0.27535
0.069917999 0.0034876 0.27601001
0.04569 0.0040700999 0.28836
0.070262 0.0062849 0.27575999
0.069669001 0.0045991 0.27627999
0.071409002 0.0075592999 0.27587
0.070550002 0.0080717001 0.27577001
0.070534997 0.0069185998 0.27577001
0.17485 0.0074243001 0.22198001
0.070238002 0.0085937995 0.27563
0.17274 0.0085771 0.22276001
0.069692999 0.010137 0.27658001
0.069788001 0.0095191002 0.27634999
0.17094 0.011144 0.22366001
0.17053001 0.012537 0.22496
0.11527 0.013598 0.25343999
0.11524 0.012804 0.25301
0.11487 0.013659 0.25334999
0.11379 0.015489 0.25325999
0.11399 0.015292 0.25409999
0.11483 0.014572 0.25334999
0.16771001 0.015143 0.22597
0.16649 0.015278 0.22522999
0.16582 0.016620001 0.22639
0.11313 0.016952001 0.25345001
0.11268 0.017464001 0.25435001
0.16337 0.018166 0.2277
0.11181 0.017335 0.25437999
0.16267 0.018820999 0.22751001
0.16243 0.018804001 0.22901
0.11173 0.0197 0.2552
0.16240001 0.018905001 0.22863001
0.16146 0.020071 0.22848
0.16129 0.019707 0.22896001
0.15872 0.022384999 0.23097
0.15502 0.024635 0.23232999
0.15448999 0.024571 0.23243
0.069227003 0.027047001 0.27643001
0.068958998 0.025793999 0.27717999
0.068824999 0.026232 0.27728999
0.067965999 0.026977001 0.27750999
0.070104003 0.027362 0.27557999
0.071386002 0.027619001 0.27566999
0.070690997 0.026835 0.2755
0.064553998 0.026745001 0.27899
0.063957997 0.027055001 0.27948999
0.069626004 0.026626 0.27669999
0.066325001 0.027853999 0.27858001
0.066955 0.026310001 0.27783
0.066486999 0.026373001 0.27779001
0.065908 0.027209001 0.2784
0.065733999 0.025889 0.27871999
0.065498002 0.028069999 0.27862999
0.066324003 0.028524 0.27801001
0.071658999 0.028106 0.27529001
0.069735996 0.029327 0.27618
0.071988001 0.029495001 0.27634001
0.069709003 0.030049 0.2762
0.069085002 0.029857 0.27666
0.068907 0.029439 0.27686
0.068241 0.029856 0.27748999
0.073225997 0.030247999 0.27505001
0.072649002 0.030711001 0.27500001
0.068981998 0.029486001 0.27706
0.069132 0.031151 0.27631
0.071610004 0.030812999 0.27597001
0.071717001 0.030954 0.27590001
0.069870003 0.030507 0.27671
0.070366003 0.030998999 0.27557999
0.069704004 0.032609001 0.27643999
0.071390003 0.031633999 0.27575001
0.071145996 0.032065 0.27577999
0.068668999 0.031034 0.27680999
0.19634999 0.034488998 0.21078999
0.19735999 0.035319 0.21004
0.19757999 0.035541002 0.2104
0.19503 0.039151002 0.21182001
0.19396999 0.041607998 0.21349999
0.19425 0.040739 0.21236999
0.19258 0.042560998 0.21367
0.19115999 0.044472001 0.21279
0.17217 0.044918001 0.22291
0.17107999 0.045529999 0.22296999
0.17114 0.045187 0.22445001
0.16649 0.045944002 0.22561
0.16328999 0.046867002 0.22766
0.16337 0.046735 0.22847
0.16204 0.046987999 0.22784001
0.16285001 0.047254998 0.22798
0.15617 0.048027001 0.23172
0.16154 0.046829998 0.22848
0.15759 0.047488999 0.23071
0.15823001 0.047998 0.23047
0.15335999 0.048893999 0.23236001
0.15324999 0.049343999 0.23300999
0.15161 0.049548998 0.23395
0.15068001 0.050531 0.23404001
0.15076999 0.049761001 0.23419
0.1507 0.050510999 0.23495001
0.15064 0.051270001 0.23489
0.15003 0.051762 0.23513
0.16451 0.056497 0.22658999
0.16565 0.055652998 0.22737999
0.16389 0.055741001 0.22653
0.16592 0.056830999 0.22617
0.16777 0.057057001 0.22541
0.1736 0.059023999 0.22178
0.17418 0.059043001 0.22257
0.18822999 0.059466001 0.21506
0.18861 0.060931999 0.21556
0.18873 0.060780998 0.2155
0.18754999 0.061092 0.21675
0.18968 0.063401997 0.21409
0.19017 0.064740002 0.21376
0.19176 0.064727999 0.21392
0.19189 0.064567 0.2139
0.15289 0.071299002 0.23258001
0.1514 0.072109997 0.23258001
0.15087999 0.072209001 0.23422
0.14259 0.072361 0.23740999
0.18426999 0.072884001 0.21668001
0.14166 0.072746001 0.23873
0.13789999 0.075365998 0.24146999
0.13729 0.076238997 0.24155
0.13639 0.076614998 0.24131
0.13583 0.076863997 0.24244
0.16957 -0.051410999 0.22464
0.16948999 -0.050480999 0.22317
0.17113 -0.050292 0.22387999
0.17276999 -0.049054999 0.22243001
0.17378999 -0.048802 0.22296999
0.17272 -0.047173999 0.22138
0.17341 -0.047773998 0.22267
0.17168 -0.048616 0.22169
0.17403001 -0.047403 0.22296999
0.17501999 -0.046482999 0.22146
0.17685001 -0.044518001 0.22104
0.17738999 -0.042614002 0.22050001
0.17744 -0.041887 0.22022
0.18061 -0.038295001 0.21958999
0.18108 -0.037406001 0.21874
0.18148001 -0.034386002 0.21827
0.18063 -0.034364 0.21848001
0.18104 -0.034019999 0.21833999
0.18149 -0.033162002 0.21839
0.18258999 -0.0296 0.21825001
0.03912 -0.025134001 0.29109001
0.037912 -0.024775 0.29218
0.038052 -0.026520001 0.29223001
0.036878001 -0.026102001 0.29279
0.18265 -0.024909001 0.21783
0.037385002 -0.024590001 0.29258999
0.038628001 -0.024188999 0.29135001
0.038648002 -0.024068 0.29194999
0.037170999 -0.023684001 0.29291001
0.037983999 -0.023678999 0.29212001
0.036598999 -0.023886999 0.29313001
0.036589999 -0.023177 0.29332
0.037156999 -0.02273 0.2929
0.036437001 -0.023116 0.29330999
0.037337001 -0.022109 0.29240999
0.18379 -0.022389 0.21787
0.037856001 -0.02122 0.29273
0.039120998 -0.021810001 0.29164001
0.038054001 -0.020538 0.29231
0.039145 -0.021034 0.29133999
0.039687999 -0.020404 0.29139
0.040810999 -0.019947 0.29043999
0.041039001 -0.018989 0.29018
0.18207 -0.019193999 0.21805
0.18228 -0.017845999 0.21828
0.041685 -0.017825 0.2899
0.042954002 -0.016098 0.28939
0.18285 -0.01523 0.21681
0.18246 -0.014534 0.21799999
0.044094 -0.013471 0.28948
0.046831001 -0.012458 0.28849
0.046314999 -0.01313 0.28766
0.046092 -0.012881 0.28716999
0.047320001 -0.012432 0.28764001
0.1815 -0.011925 0.21758001
0.18212 -0.012838 0.21777999
0.047849 -0.011613 0.28726
0.04721 -0.012318 0.28709999
0.18145999 -0.011305 0.21807
0.18089999 -0.011163 0.21827
0.047731999 -0.0087748999 0.28674001
0.047832999 -0.0086578 0.28733
0.047860999 -0.0086025996 0.28685999
0.18017 -0.0076474999 0.21924999
0.18126 -0.0077853999 0.21892001
0.047929998 -0.0077149002 0.28689
0.18082 -0.0062998999 0.2193
0.046473999 -0.0064686998 0.28715
0.17946 -0.0044300999 0.21973
0.17818999 -0.0039494 0.21984001
0.17847 -0.0029776001 0.22
0.046124998 -0.0024051999 0.28791001
0.17839999 -0.00051006 0.21949001
0.046071999 -0.0015104 0.28794
0.045899998 -0.00062692002 0.28766
0.17873999 -0.00062432 0.21992999
0.17823 8.0947997e-05 0.2201
0.069500998 0.0013272 0.27671999
0.068687998 0.00089153001 0.27742001
0.068668 0.0020570999 0.27656999
0.17834 0.00058081001 0.22012
0.071044996 0.0021369001 0.27581
0.068108 0.0013374001 0.27768999
0.045487002 0.0017263 0.28771999
0.069518998 0.0021355001 0.27708
0.069193996 0.0022749 0.27603999
0.069709003 0.0031287 0.27629
0.069105998 0.0028884001 0.27700999
0.17682999 0.0023367 0.22092
0.17728999 0.0024728 0.22037999
0.068365999 0.0031669 0.27660999
0.17562 0.0038586999 0.22136
0.067901999 0.0018942 0.27739999
0.067358002 0.0030336999 0.27781001
0.066703998 0.0026414001 0.278
0.066110998 0.0031377 0.27728999
0.069760002 0.0042384998 0.27662
0.068401001 0.0036734 0.27678001
0.068696 0.0037390999 0.27616999
0.067463003 0.0034727999 0.27746999
0.17523 0.0037036999 0.22111
0.069801003 0.0046713999 0.27561
0.069164 0.0047717998 0.27631
0.066441 0.0040325001 0.27744001
0.067258 0.0045273998 0.27732
0.065523997 0.0055792001 0.27770999
0.066256002 0.005812 0.27765
0.065511003 0.0043000998 0.27886999
0.068832003 0.0044701002 0.27651
0.065706998 0.0042019999 0.27807999
0.175 0.0056062001 0.22116999
0.068903998 0.0058105001 0.27568001
0.070276998 0.0063315998 0.27555001
0.066725001 0.0050595002 0.27700999
0.066960998 0.0054787002 0.27711001
0.066165999 0.0050666998 0.27840999
0.067904003 0.0063657002 0.27658001
0.065043002 0.0058817999 0.278
0.064708002 0.0053412998 0.27847001
0.065053999 0.0058082999 0.27856001
0.063331999 0.0069340998 0.27899
0.063409001 0.0056798002 0.27895999
0.063302003 0.0057726 0.27899
0.066758998 0.0069987001 0.27776
0.067544997 0.0065168999 0.27785
0.068167999 0.0051756999 0.27627
0.065621004 0.0067535001 0.27836001
0.17484 0.0056904 0.22112
0.068207003 0.0070981998 0.27704
0.065715 0.0061523998 0.27816999
0.063098997 0.0071316999 0.27954999
0.062829003 0.0063234 0.27968001
0.069650002 0.0072610001 0.27546999
0.070099004 0.0069281999 0.27599001
0.068025 0.0080701998 0.27684999
0.066650003 0.0066781002 0.27774999
0.064944997 0.0067644999 0.27778
0.17441 0.0072241998 0.22239999
0.068193004 0.0074705998 0.27607
0.064071 0.0074171 0.27858999
0.069643997 0.0074999002 0.27621999
0.069277003 0.0080778003 0.27645001
0.065699004 0.0072887 0.27772999
0.064337999 0.0076641999 0.27871999
0.067189001 0.008831 0.27783999
0.066395 0.0087353997 0.27787
0.063902996 0.0086888997 0.27902001
0.062830999 0.0081697004 0.27987999
0.17237 0.0086495001 0.2225
0.067896001 0.0094531002 0.27630001
0.17144001 0.0097161997 0.22383
0.17149 0.0094247004 0.22334
0.067805 0.010375 0.2773
0.067934997 0.010809 0.27781001
0.16997001 0.012649 0.22494
0.16879 0.0129 0.22424001
0.16755 0.014994 0.22622
0.11541 0.012584 0.25341001
0.11402 0.013688 0.25286999
0.16719 0.014822 0.22513001
0.16526 0.016883001 0.22691999
0.11279 0.016342999 0.25389001
0.11261 0.017410999 0.25409001
0.16434 0.017391 0.22764
0.11195 0.018146999 0.25472
0.11185 0.018154001 0.255
0.16373 0.018021001 0.22713999
0.111 0.018511999 0.25437
0.16176 0.018808 0.22795001
0.11042 0.019357 0.25519001
0.16126999 0.020144001 0.22876
0.1608 0.020261999 0.22916
0.16089 0.021373 0.22945
0.15943 0.021669 0.22939999
0.1596 0.021885 0.23021001
0.15829 0.021500999 0.2304
0.15765999 0.022187 0.23009001
0.15673999 0.021785 0.23061
0.15756001 0.022623001 0.23128
0.1557 0.023616999 0.2308
0.15541001 0.024091 0.23193
0.15523 0.02434 0.23186
0.15435 0.025077 0.23198
0.065823004 0.025433 0.27843001
0.066795997 0.024673 0.27719
0.065682001 0.024456 0.27811
0.065693997 0.02479 0.27816001
0.066266 0.026217001 0.27752
0.066209003 0.025776999 0.27790999
0.066930003 0.025772 0.27763
0.065580003 0.02568 0.27868
0.064415 0.025661999 0.27941
0.1538 0.025669999 0.23257001
0.15286 0.025628 0.23242
0.15319 0.026422 0.23328
0.15265 0.026634 0.23359001
0.066463999 0.025711 0.27743
0.069062002 0.027256001 0.27656999
0.068161003 0.028309001 0.27632999
0.069310002 0.028031999 0.27643001
0.19555999 0.034318 0.21109
0.19594 0.034866001 0.21009
0.19784001 0.036485001 0.21019
0.19671001 0.038384002 0.21093
0.19633 0.038973 0.21122999
0.19516 0.039407 0.21142
0.19468001 0.039942998 0.21107
0.19536 0.041191999 0.21129
0.1946 0.041111 0.21222
0.19485 0.040715002 0.21168999
0.19330999 0.041995 0.21208
0.19330999 0.041871998 0.21296
0.19429 0.042089999 0.21166
0.19287001 0.041731 0.21281999
0.19259 0.042539999 0.21340001
0.19107001 0.043331001 0.21447
0.19045 0.044066999 0.21362001
0.19008 0.045024 0.21360999
0.17391001 0.044734001 0.22220001
0.17509 0.044720002 0.22184999
0.16615 0.046202 0.22617
0.16452 0.046365999 0.22666
0.15875 0.047171 0.23036
0.15628999 0.047849 0.23062
0.15917 0.047327999 0.22971
0.15958001 0.047231998 0.23048
0.15891001 0.046886001 0.23023
0.15538999 0.048253 0.23176999
0.15553001 0.046929002 0.23131
0.15415999 0.0482 0.23179001
0.1548 0.048091002 0.23071
0.15226001 0.049174 0.23319
0.15177999 0.050051998 0.23311
0.14951 0.050533999 0.23409
0.14916 0.052122001 0.23474
0.16680001 0.056520998 0.22612999
0.16653 0.056637999 0.22514001
0.16531999 0.056423001 0.22500999
0.17310999 0.057959002 0.22271
0.17395 0.058439001 0.22248
0.17513999 0.059450001 0.22163001
0.18798999 0.061492 0.21501
0.18888 0.061399002 0.21407001
0.18781 0.061604999 0.21527
0.18821999 0.06174 0.21387
0.18573999 0.062075999 0.2159
0.18648 0.061730001 0.21596
0.18938001 0.061944 0.21411
0.18546 0.061953001 0.21732999
0.18928 0.063101999 0.21378
0.18994001 0.064193003 0.21415
0.19053 0.065702997 0.21333
0.19156 0.065688998 0.21342
0.19205999 0.066500999 0.21209
0.19225 0.066188 0.21325
0.19202 0.066785999 0.21242
0.19339 0.067643002 0.21207
0.19305 0.068094999 0.21272001
0.19347 0.068755999 0.21258
0.19271 0.070468001 0.2122
0.19340999 0.070799001 0.21211
0.19242001 0.070563003 0.21234
0.19137 0.070946999 0.21298
0.18984 0.071640998 0.21433
0.18968999 0.070428997 0.21461999
0.18921 0.071757004 0.21467
0.15402 0.071448997 0.23225001
0.18508001 0.073037997 0.21619999
0.18472999 0.072213002 0.21685
0.18430001 0.074188001 0.21651
0.18438999 0.073515996 0.21689001
0.18332 0.074064001 0.21796
0.18226001 0.074252002 0.21793
0.18196 0.074464999 0.21752
0.1401 0.073230997 0.23962
0.13564 0.074654996 0.2429
0.1363 0.073728003 0.24174
0.13604 0.073939003 0.24267
0.18141 0.073674001 0.21889
0.13530999 0.075177997 0.24197
0.14012 0.073849998 0.23975
0.13812999 0.075237997 0.24076
0.13484 0.075521 0.24247999
0.13546 0.075096004 0.24253
0.13481 0.075644001 0.24256
0.13736001 0.075621001 0.24053
0.13414 0.076718003 0.24198
0.13337 0.077256002 0.24235
0.13402 0.077845998 0.24299
0.13296001 0.076434001 0.24382
0.16694 -0.052559 0.22544999
0.16566999 -0.052733999 0.22644
0.16633999 -0.052859001 0.22454999
0.17244001 -0.048810001 0.22315
0.17652 -0.043589 0.22017001
0.17967001 -0.038162999 0.21867
0.18014 -0.036035001 0.21852
0.18076999 -0.036265999 0.21889
0.18265 -0.031128 0.2175
0.18246 -0.030750001 0.21735001
0.18231 -0.029369 0.21742
0.038934 -0.028166 0.29102001
0.039802998 -0.028448001 0.29133001
0.040295999 -0.028274 0.29014
0.038784999 -0.028472999 0.29177999
0.039432 -0.026629001 0.2911
0.038713999 -0.026186001 0.29187
0.039786998 -0.026095999 0.29133999
0.038231 -0.025475999 0.29192001
0.037875 -0.026962999 0.29198
0.038701002 -0.025188999 0.29080001
0.038477 -0.023876 0.29139999
0.038601998 -0.021516001 0.29144999
0.18181001 -0.023530001 0.21631999
0.18246 -0.022608001 0.21731
0.038086999 -0.020963 0.29234999
0.039593998 -0.021455999 0.29045001
0.040700998 -0.020133 0.28999001
0.041506998 -0.020016 0.29032001
0.18267 -0.018817 0.21771
0.041328002 -0.019115999 0.29054001
0.042156 -0.019493001 0.28918999
0.041283999 -0.017818 0.29039001
0.18235999 -0.01414 0.2168
0.18126 -0.011806 0.21773
0.18029 -0.010034 0.21813001
0.17991 -0.010543 0.21871001
0.047398999 -0.0073205 0.28723001
0.047369 -0.0073015001 0.28672001
0.045740001 -0.0017947 0.28744999
0.177 0.0017105 0.22082999
0.045889001 0.0049514002 0.28826001
0.044396002 0.0032798001 0.28737
0.045113999 0.0040199999 0.28769001
0.17361 0.0068657999 0.22067
0.067837 0.0083312998 0.27660999
0.064577997 0.0086182002 0.27847001
0.17359 0.0078656999 0.22268
0.068127997 0.0095921997 0.27700999
0.065286003 0.0090648998 0.27774999
0.064943999 0.0084760999 0.27790999
0.066836998 0.0092847003 0.27711001
0.17116 0.0093922 0.22267
0.1159 0.011632 0.25231999
0.11391 0.01183 0.25207001
0.1154 0.01165 0.25297999
0.11385 0.012443 0.25261
0.16835999 0.013282 0.22454999
0.11303 0.014209 0.25281999
0.11278 0.01455 0.25389999
0.11266 0.015733 0.25389999
0.11192 0.016000001 0.25375
0.16632 0.016357999 0.22538
0.16525 0.016847 0.22555999
0.11166 0.016481999 0.25437
0.11055 0.017329 0.25444001
0.11108 0.017579 0.25358
0.16358 0.017417001 0.22641
0.10987 0.017979 0.25545001
0.10999 0.019196 0.25503999
0.10902 0.019832 0.25523001
0.15525 0.024201 0.2315
0.15206 0.02657 0.23377
0.15129 0.027076 0.23373
0.15162 0.025726 0.23253
0.15053999 0.025929 0.23346999
0.19734 0.037983999 0.21025001
0.18856999 0.043565001 0.21438999
0.16693 0.046007998 0.22504
0.16867 0.045433 0.22488999
0.16893999 0.045812 0.22462
0.16534001 0.045915 0.22504
0.164 0.046874002 0.22709
0.16102 0.047433998 0.22861999
0.15415999 0.04792 0.23168001
0.14816999 0.051904999 0.23467
0.14913 0.051617999 0.23405001
0.16464999 0.056026001 0.2256
0.16497999 0.056577001 0.22575
0.16448 0.056209002 0.22629
0.16974001 0.057599001 0.22529
0.17297 0.058453001 0.22245
0.17575 0.059987999 0.22122
0.17646 0.059847001 0.22146
0.17588 0.059663001 0.2209
0.18523 0.061893001 0.21661
0.19019 0.065403 0.21332
0.19056 0.071772002 0.21287
0.1912 0.071157999 0.21224999
0.19053 0.071884997 0.21269999
0.14331999 0.071166001 0.23762999
0.1432 0.070877999 0.23713
0.14489 0.070781998 0.23842999
0.14377999 0.070940003 0.23749
0.18914001 0.071702003 0.21409
0.19017 0.072036996 0.21366
0.15457 0.071304001 0.23205
0.18505 0.072210997 0.21586999
0.14054 0.073677003 0.23904
0.141 0.073076002 0.23872
0.18386 0.074598998 0.21668001
0.13844 0.074754 0.23934001
0.13862 0.075069003 0.23873
0.13731 0.075824 0.24115001
0.1661 -0.053057 0.22575
0.16684 -0.052145999 0.22439
0.17046 -0.05046 0.22277001
0.17138 -0.049346 0.22217999
0.17416 -0.046284001 0.22167
0.17391001 -0.047060002 0.22156
0.17463 -0.046216998 0.22042
0.17411999 -0.046151001 0.22104999
0.17518 -0.045804001 0.22091
0.17755 -0.042569999 0.21928
0.17914 -0.039808001 0.21912
0.18064 -0.034899998 0.21771
0.18213999 -0.032364 0.21659
0.040222999 -0.027105 0.29054999
0.040325001 -0.026582999 0.28939
0.039484002 -0.026921 0.28995001
0.040374 -0.025877999 0.28933999
0.18237001 -0.025574001 0.21771
0.038314998 -0.023531999 0.29096001
0.038663998 -0.023959 0.29108
0.18181001 -0.02403 0.21613
0.039124999 -0.023234 0.29104999
0.18221 -0.020835999 0.21778999
0.18241 -0.02141 0.21674
0.040959001 -0.020957001 0.29017001
0.040821001 -0.020483 0.28964001
0.040901002 -0.020195 0.28964001
0.042436 -0.020289 0.28937
0.041067 -0.020694001 0.28854001
0.042238001 -0.019251 0.289
0.042279001 -0.018214 0.28896001
0.18133999 -0.016585 0.21732999
0.18199 -0.015575 0.21668001
0.047176 -0.013186 0.28687
0.047249999 -0.013229 0.28665
0.047339 -0.011693 0.28685001
0.18076999 -0.011472 0.21804
0.18013 -0.010037 0.21803001
0.18104 -0.0079573998 0.21845999
0.18055999 -0.0078141997 0.21798
0.046519 -0.0069650002 0.28709999
0.046519998 -0.0062410999 0.28733999
0.17919999 -0.0043719001 0.21863
0.046291001 -0.0043931999 0.28753999
0.17716999 -0.0037829001 0.21934
0.17798001 -0.0021817 0.21965
0.17857 -0.0015397 0.21870001
0.045286 -0.00054755999 0.28711
0.045306001 0.00024724001 0.28762001
0.1768 0.001438 0.21941
0.17609 0.0017446 0.21994001
0.17629001 0.0020603 0.21988
0.044771001 0.0029450001 0.28694001
0.17411999 0.0056623998 0.22064
0.17316 0.0081420001 0.22220001
0.17218 0.0082259998 0.22183
0.17073999 0.010149 0.22288001
0.1145 0.010642 0.25154999
0.11381 0.0095891003 0.25206
0.11441 0.01071 0.25233001
0.17057 0.011094 0.22317
0.17043 0.011349 0.22287001
0.16953 0.012684 0.22373
0.16873001 0.012545 0.22352
0.16897 0.012826 0.22348
0.11317 0.012774 0.25358999
0.11249 0.013071 0.25297999
0.16588999 0.014902 0.22518
0.1125 0.01489 0.2534
0.16496 0.015631 0.22493
0.16541 0.01688 0.22588
0.11139 0.015545 0.25389999
0.11003 0.015911 0.25382
0.11032 0.016590999 0.25465
0.10981 0.017297 0.25512999
0.1094 0.015355 0.25487
0.10939 0.016435999 0.25492001
0.16392 0.016983001 0.22616
0.10861 0.017735999 0.25540999
0.1083 0.018127 0.25576001
0.16219001 0.017865 0.22695
0.10784 0.018849 0.25623
0.10813 0.018645 0.25584999
0.10736 0.018588001 0.25589001
0.16145 0.018402999 0.22755
0.10544 0.018384 0.25685999
0.1061 0.019538 0.25639999
0.10637 0.018115001 0.25597
0.10764 0.020045999 0.25608999
0.1613 0.019396 0.22793999
0.16013999 0.020264 0.22882
0.15952 0.02108 0.22961
0.15628 0.023567 0.23073
0.15521 0.023469999 0.23141
0.15331 0.023213999 0.23206
0.15417001 0.024329999 0.23094
0.15238 0.025517 0.23248
0.15352 0.024396 0.23190001
0.15277 0.025630999 0.23319
0.15192001 0.024859 0.2324
0.15104 0.026125001 0.23322999
0.15091 0.027098 0.23363
0.19510999 0.034628 0.21006
0.19762 0.035502002 0.20984
0.19749001 0.036127999 0.20919999
0.19751 0.037244 0.20889001
0.19603001 0.038858 0.21018
0.19386999 0.042502001 0.21101999
0.19295 0.042580999 0.21196
0.19212 0.044002999 0.21216001
0.19399001 0.042954002 0.21134999
0.19171999 0.044764999 0.21236999
0.19080999 0.045333002 0.21309
0.19141001 0.044900998 0.2129
0.1759 0.044148002 0.21964
0.17609 0.044495001 0.22129001
0.17617001 0.044323001 0.22055
0.17457999 0.044117 0.22058
0.16628 0.0458 0.22559001
0.16641 0.046204001 0.22461
0.16766 0.046448998 0.22451
0.16501001 0.046417002 0.22544
0.16411 0.046496999 0.22624999
0.15643001 0.047118999 0.23019999
0.15721001 0.046946 0.22987001
0.16292 0.046227999 0.22696
0.16240001 0.047042001 0.2272
0.1578 0.047079999 0.22887
0.15910999 0.046289001 0.22782999
0.15601 0.046765 0.23030999
0.15526 0.046780001 0.23097999
0.15301999 0.048781998 0.23212001
0.15315001 0.048140001 0.23224001
0.15211999 0.048985001 0.23210999
0.15195 0.049594998 0.23237
0.15191001 0.049637001 0.233
0.15065999 0.049651001 0.23315001
0.14997999 0.049828 0.23377
0.14963 0.050905 0.23336001
0.15007 0.050253 0.23387
0.14876001 0.050515 0.23395
0.16764 0.056929 0.22496
0.16580001 0.056648999 0.22571
0.16897 0.057085 0.22451
0.17486 0.059050001 0.22056
0.17575 0.060524002 0.22042
0.17570999 0.059971999 0.22036999
0.17722 0.060353 0.22077
0.18872 0.062221002 0.21347
0.18911 0.063764997 0.21393
0.18911999 0.064887002 0.21343
0.18900999 0.065128997 0.21362001
0.18944 0.065805003 0.21326999
0.18942 0.065274 0.21319
0.18999 0.065757997 0.21359
0.19075 0.065967999 0.21268
0.19123 0.067433998 0.21208
0.19217999 0.067497998 0.21254
0.19303 0.067887999 0.21186
0.19314 0.067396 0.21186
0.19283 0.070616998 0.21163
0.14358 0.070244998 0.23664001
0.14404 0.071314998 0.2368
0.14433999 0.070715003 0.23698001
0.14338 0.070546001 0.23721001
0.15324999 0.071801998 0.23219
0.14241 0.071401998 0.23776001
0.19228999 0.071468003 0.21245
0.15499 0.071521997 0.23195
0.15437999 0.071106002 0.23137
0.14962 0.071342997 0.23457
0.15023001 0.071424 0.23323999
0.18934999 0.072043002 0.2133
0.18993001 0.072517999 0.21356
0.14176001 0.072471 0.23864
0.14082 0.072456002 0.23819
0.18424 0.073657997 0.2159
0.13510001 0.074768998 0.24101
0.13496 0.074795999 0.24118
0.18084 0.074529 0.21755999
0.18199 0.074492998 0.21603
0.13696 0.075364999 0.24014001
0.13542999 0.075522996 0.23897
0.13538 0.076967999 0.24166
0.13413 0.076935001 0.242
0.16609 -0.052515998 0.22526
0.16814999 -0.050597001 0.22397999
0.16832 -0.051307 0.22339
0.16937999 -0.050143 0.22318
0.17233001 -0.048439 0.22256
0.17037 -0.049396999 0.22248
0.17613 -0.044824999 0.21994001
0.17547999 -0.044859 0.21997
0.1753 -0.044197999 0.2194
0.17572001 -0.044932999 0.21967
0.17712 -0.042851999 0.21882001
0.17839 -0.041317999 0.21894
0.17845 -0.040628999 0.21915001
0.17906 -0.039728999 0.21915001
0.18010999 -0.038952999 0.21788999
0.17975999 -0.036669001 0.21777
0.18023001 -0.036132999 0.21736
0.1807 -0.034258999 0.21721999
0.18119 -0.033301 0.21732
0.18170001 -0.032545999 0.21715
0.040966999 -0.027601 0.28906
0.040286001 -0.026427999 0.28909001
0.18208 -0.027310001 0.21715
0.18213999 -0.026022 0.21714
0.18238001 -0.025237 0.21704
0.1824 -0.024602 0.21672
0.039299998 -0.024598001 0.29014999
0.040550999 -0.025149001 0.2895
0.039714001 -0.022892 0.29043999
0.039188001 -0.02273 0.29115
0.039891999 -0.022968 0.29031
0.039553002 -0.022574 0.29096001
0.039946999 -0.022019001 0.28999001
0.040660001 -0.021824 0.28997999
0.040941 -0.022666 0.28920001
0.041577999 -0.020733001 0.28911
0.18287 -0.021539999 0.21685
0.041722 -0.021105001 0.28913999
0.042560998 -0.020745 0.28751001
0.18161 -0.018511999 0.21703
0.18194 -0.017942 0.21699999
0.18299 -0.017975001 0.21717
0.18201999 -0.015498 0.21651
0.045332 -0.0135 0.28782001
0.046135001 -0.01404 0.28758001
0.045147002 -0.014215 0.28753999
0.18092 -0.012968 0.21793
0.18122 -0.013784 0.21665999
0.046941999 -0.011373 0.28555
0.047315001 -0.010202 0.28632
0.18024001 -0.010902 0.21746001
0.18058001 -0.0099496003 0.21784
0.046502002 -0.0095944004 0.28635001
0.1803 -0.0085062999 0.21787
0.17935 -0.0094152 0.21794
0.047191001 -0.0088191004 0.28602001
0.047070999 -0.0078082001 0.28661001
0.18006 -0.0070178998 0.21781
0.17885 -0.0058507998 0.21834999
0.17862 -0.0055753998 0.21865
0.17907 -0.0038379 0.21909
0.045857999 -0.0039007 0.28621
0.17801 -0.0046994998 0.21863
0.17848 -0.0032126999 0.21878999
0.045485001 -0.0033942999 0.28670001
0.17745 -0.003269 0.21874
0.17766 -0.0035282001 0.21852
0.17681 -0.0024255 0.21883
0.17787001 -0.001532 0.22014999
0.17793 -0.00056870998 0.21908
0.17693999 8.7911998e-05 0.21894
0.044983 7.0535003e-05 0.28698999
0.045623001 0.00099590002 0.28676
0.045265 0.0021291 0.28665999
0.17442 0.0040453002 0.22081
0.044493001 0.0049223001 0.28828001
0.17204 0.0079843001 0.22218999
0.11522 0.0093187001 0.25123999
0.11419 0.0097494004 0.25138
0.11364 0.012002 0.25272
0.11347 0.011354 0.25224
0.11239 0.012066 0.25244001
0.11222 0.014129 0.25307
0.11146 0.014254 0.25343999
0.1666 0.01418 0.22423001
0.11143 0.014134 0.25356999
0.11074 0.014459 0.25419
0.11002 0.013894 0.25364
0.10966 0.015149 0.25468999
0.10924 0.013298 0.25424999
0.10909 0.014848 0.25455999
0.10736 0.016161 0.2554
0.10902 0.015473 0.25536001
0.1018 0.016367 0.25848001
0.1014 0.017062999 0.25816
0.10166 0.017429 0.25828001
0.10647 0.017027 0.25624999
0.10537 0.017240001 0.25613999
0.1056 0.016082 0.25578001
0.10512 0.015904 0.25626001
0.1055 0.017153 0.25687999
0.16505 0.016697999 0.22588
0.108 0.015493 0.25459999
0.10503 0.01729 0.25577
0.16408999 0.017479001 0.22555999
0.10476 0.017339 0.25666001
0.10372 0.017755 0.25753
0.10148 0.017459 0.25819999
0.10669 0.017764 0.25560999
0.10706 0.018028 0.25553
0.10252 0.017452 0.25753999
0.10246 0.018573999 0.25782999
0.10134 0.018756 0.25845
0.10478 0.018911 0.25722
0.10332 0.018921999 0.25760001
0.10202 0.018872 0.25878
0.16078 0.019335 0.22806001
0.10442 0.019169001 0.25771001
0.16086 0.020035001 0.22867
0.1584 0.02115 0.22915
0.15882 0.021485001 0.22908001
0.15807 0.021635 0.22943
0.15805 0.021643 0.22887
0.15705 0.021203 0.22888
0.15677001 0.021134 0.22902
0.15707 0.021621 0.22954001
0.1557 0.022305001 0.2298
0.1564 0.022682 0.23040999
0.15436 0.022554999 0.23024
0.15543 0.023033001 0.23134001
0.15194 0.024006 0.23201001
0.15108 0.025864 0.23284
0.15076999 0.025457 0.23329
0.14915 0.026831999 0.23393001
0.14974999 0.026988 0.23357999
0.19549 0.034414001 0.21038
0.19566999 0.034552 0.20999999
0.19445001 0.035284001 0.21098
0.19674 0.035296001 0.20859
0.19732 0.035165999 0.2095
0.19822 0.036017001 0.20919999
0.19812 0.037145998 0.20893
0.19801 0.037946001 0.20867001
0.1978 0.037856001 0.20900001
0.1981 0.038256001 0.20969
0.19752 0.038038999 0.20901
0.19583 0.039331 0.20927
0.19686 0.038979001 0.20892
0.19622 0.039345998 0.21049
0.19503 0.040358 0.21026
0.19524001 0.040874999 0.21028
0.19446 0.041381001 0.21017
0.19442999 0.042098999 0.21014
0.19339 0.042792998 0.21091001
0.19272 0.042121999 0.21134999
0.19207001 0.044229999 0.21197
0.18914001 0.044236999 0.21322
0.19148 0.04501 0.21235999
0.18844 0.043697 0.2132
0.18960001 0.044365998 0.21286
0.17516001 0.044583999 0.22085001
0.17422999 0.045386001 0.22160999
0.1728 0.045079 0.22167
0.17103 0.045217 0.22254001
0.19044 0.045554999 0.21253
0.19065 0.045694999 0.21177
0.17092 0.045347001 0.22353999
0.16901 0.045582 0.22305
0.16895001 0.045109 0.22349
0.16662 0.046140999 0.22511999
0.16577999 0.045835 0.22480001
