# .PCD v0.7 - Point Cloud Data file format
VERSION 0.7
FIELDS x y z
SIZE 4 4 4
TYPE F F F
COUNT 1 1 1
WIDTH 1653
HEIGHT 1
VIEWPOINT 0 0 0 1 0 0 0
POINTS 1653
DATA ascii
0.25531 0.17643 0.20588
0.25483 0.091316998 0.20093
0.26611999 0.10462 0.22905
0.23867001 0.051998999 0.20068
0.25968999 0.18630999 0.21667001
0.264 0.15972 0.20592999
0.26075 0.1363 0.21201999
0.26170999 0.078677997 0.20052999
0.2498 0.19336 0.23602
0.23573001 0.15535 0.18343
0.25053 0.16328 0.19628
0.264 0.11284 0.22457001
0.27388999 0.17428 0.23357999
0.24906 0.13733999 0.21098
0.25569001 0.094825998 0.2031
0.21031 0.16929001 0.22054
0.26863 0.14557999 0.24538
0.26964 0.145 0.24519999
0.26888999 0.14361 0.24391
0.26337999 0.076502003 0.20385
0.21447 0.19642 0.24765
0.21199 0.19678 0.24908
0.24534 0.13364001 0.21135999
0.24448 0.1487 0.20046
0.22841001 0.18788999 0.22516
0.21478 0.18816 0.21303999
0.23267999 0.17901 0.21392
0.21298 0.19767 0.21089999
0.25229999 0.089189 0.1983
0.25696999 0.11197 0.20077001
0.2149 0.16851 0.21807
0.2111 0.19181 0.24221
0.25589001 0.087389 0.20881
0.25729999 0.087365001 0.20945001
0.26269999 0.11025 0.24953
0.20251 0.17288999 0.22302
0.20292 0.17404 0.22441
0.2483 0.060346998 0.25918001
0.2438 0.14235 0.20976
0.23649999 0.087977998 0.20482001
0.23621 0.1247 0.22073001
0.2288 0.17671999 0.18059
0.23601 0.054370001 0.204
0.23578 0.089752004 0.20321999
0.25406 0.15626 0.20361
0.23134001 0.15002 0.19001
0.22874001 0.15115 0.18905
0.25079 0.11132 0.19574
0.24558 0.17407 0.20397
0.26021999 0.11414 0.26113999
0.25985 0.11283 0.2595
0.26712 0.12903 0.22587
0.23714 0.093124002 0.25617
0.23786999 0.0933 0.25771999
0.26345 0.18714 0.23657
0.23368999 0.13425 0.22015999
0.27042001 0.16789 0.21386001
0.24284001 0.050932001 0.26179001
0.20886999 0.16316999 0.17632
0.23182 0.19279 0.23528001
0.22967 0.19357 0.23462
0.23005 0.19309001 0.23756
0.24951001 0.18468 0.21306001
0.25852001 0.1042 0.21376
0.22373 0.15854999 0.17122
0.26021001 0.10953 0.21616
0.23399 0.1417 0.21374001
0.20773 0.18822999 0.21954
0.26133999 0.062688999 0.20313001
0.24276 0.16491 0.18888
0.26467001 0.12005 0.24191
0.21438 0.19372 0.20939
0.25143 0.072081 0.19732
0.26473999 0.10635 0.23143999
0.26567999 0.10536 0.23146001
0.28003001 0.099770002 0.23463
0.21856999 0.16112 0.17229
0.21585999 0.16096 0.17211001
0.2013 0.19028001 0.17584001
0.20398 0.17975 0.17783999
0.25242999 0.1256 0.20878001
0.26407999 0.1142 0.24807
0.26072001 0.085795999 0.20208
0.24311 0.073538996 0.20042001
0.28733 0.097317003 0.23509
0.26942 0.13721 0.22741
0.21086 0.20012 0.20836
0.2739 0.15079001 0.23236001
0.21318001 0.15967999 0.17558999
0.25233001 0.050321002 0.20269001
0.21917 0.18919 0.23208
0.27142 0.10877 0.22712
0.22723 0.14134 0.2159
0.25284001 0.19192 0.22799
0.29381999 0.097193003 0.23397
0.27428001 0.15742999 0.22234
0.27601001 0.15568 0.22342999
0.22019 0.18946999 0.23732001
0.26391 0.070606001 0.21292999
0.23411 0.16733 0.18921
0.24337 0.056214999 0.26172999
0.24122 0.17989001 0.21052
0.26831999 0.13055 0.24225999
0.25046 0.097646996 0.24459
0.22687 0.17392001 0.17055
0.21295001 0.19004001 0.17881
0.20953999 0.19566 0.21377
0.27006999 0.13572 0.22202
0.25784001 0.078753002 0.25707
0.23109999 0.17066 0.18555
0.20608 0.17231999 0.16937999
0.2608 0.18773 0.22149
0.24538 0.054637 0.1899
0.24039 0.15057001 0.19302
0.24127001 0.076226003 0.19995999
0.23676001 0.088871002 0.206
0.23735 0.089298002 0.20563
0.28376001 0.098637998 0.23047
0.26203999 0.10832 0.23197
0.25940999 0.10956 0.22950999
0.20249 0.17011 0.22406
0.21575999 0.18346 0.22018
0.26041001 0.1196 0.24946
0.25490999 0.193 0.2348
0.25479999 0.19203 0.23433
0.19791999 0.17467999 0.17168
0.24569 0.067867003 0.25540999
0.2353 0.092151001 0.20419
0.23621 0.091278002 0.20406
0.22859 0.16778 0.16888
0.2895 0.099590003 0.23479
0.22285999 0.16245 0.16923
0.25615999 0.095301002 0.25619
0.26464 0.075438999 0.21249001
0.26262 0.18803 0.23997
0.25049999 0.19393 0.23271
0.28024 0.10575 0.23036
0.2396 0.080572002 0.25536001
0.23961 0.081350997 0.25562999
0.27063 0.13699 0.23375
0.25858 0.15083 0.20597
0.24217001 0.055346999 0.19734
0.24493 0.060568001 0.26098999
0.2449 0.14963 0.20246001
0.23116 0.16339999 0.17096999
0.26258999 0.12311 0.21777
0.23848 0.14042 0.21281999
0.26106 0.15143 0.20801
0.28360999 0.097603001 0.23288999
0.28220999 0.098167002 0.23503
0.26712999 0.10417 0.23243
0.22927 0.17873999 0.21674
0.24571 0.099512003 0.19476999
0.25059 0.059895001 0.20065001
0.24925999 0.10532 0.19513001
0.23989999 0.15324999 0.18686999
0.20280001 0.19261999 0.18053
0.27138001 0.15222 0.22964001
0.24861 0.13236 0.20961
0.21002001 0.16698 0.17023
0.28685001 0.10163 0.23402999
0.21115001 0.17291 0.21947999
0.26773 0.13446 0.23778
0.26550999 0.12388 0.23841999
0.21651 0.19283 0.21146999
0.21619999 0.19438 0.21258
0.23345 0.12864 0.2229
0.28365999 0.10203 0.23461001
0.28505 0.10024 0.23608001
0.24885 0.062982999 0.25448999
0.21354 0.19286001 0.24777
0.21464001 0.19472 0.24726
0.20333 0.18485001 0.17209999
0.25108999 0.059101999 0.25514001
0.25889999 0.077128999 0.25378999
0.20601 0.18354 0.17132001
0.22743 0.17608 0.18237001
0.25711 0.11704 0.20857
0.20817 0.17622 0.22302
0.25691 0.11049 0.20221999
0.24451999 0.17606001 0.20652001
0.26297 0.10985 0.24861
0.24132 0.074835002 0.25527999
0.28391001 0.096556999 0.23117
0.25231999 0.075751998 0.25055
0.26435 0.073011003 0.20872
0.26945001 0.14458001 0.22317
0.24007 0.093424 0.25558999
0.26302999 0.075586997 0.20035
0.2183 0.17579 0.1715
0.24605 0.077996001 0.19671001
0.25231999 0.14091 0.20834
0.27847999 0.10639 0.22936
0.24664 0.050083999 0.19569001
0.24284001 0.053978 0.25972
0.26012999 0.10663 0.26058999
0.25150999 0.11278 0.19825
0.23184 0.17688 0.21399
0.23045 0.18866 0.21826001
0.25764999 0.082268998 0.19711
0.25816 0.12892 0.21333
0.23002 0.17231999 0.18655001
0.26106 0.13789 0.21399
0.26154 0.18099999 0.21049
0.24589001 0.072889999 0.19973999
0.21311 0.16745999 0.22184999
0.23592 0.16677 0.20085
0.23644 0.16796 0.20011
0.26019999 0.062364999 0.20089
0.24861 0.051371999 0.26006001
0.20844001 0.19521999 0.24414
0.20811 0.1954 0.24409001
0.21323 0.18639 0.17294
0.22571 0.18880001 0.22538
0.24214 0.1886 0.21683
0.23616 0.12876 0.22253001
0.26183 0.11859 0.21378
0.23138 0.13606 0.22177
0.22265001 0.18960001 0.23264
0.25490001 0.094866 0.25522
0.21917 0.17129999 0.21622001
0.21571 0.18975 0.22228
0.25378001 0.051277 0.20264
0.23456 0.16903 0.18384001
0.25786999 0.054944001 0.20072
0.27217999 0.15042 0.24339999
0.24191 0.13275 0.21439999
0.26137 0.11123 0.22375999
0.19411001 0.17968 0.17228
0.26346999 0.050829001 0.21468
0.25810999 0.082528003 0.26883
0.27022001 0.14538001 0.24267
0.27331999 0.16169 0.24123999
0.21759 0.15962 0.17331
0.27452999 0.17009 0.23055001
0.20976 0.19424 0.21430001
0.24467 0.058749001 0.20606001
0.27465999 0.16214 0.24316999
0.26089001 0.11776 0.25167
0.25051999 0.19344001 0.23783
0.25312999 0.097979002 0.2474
0.26824999 0.052558001 0.21078999
0.23654 0.13647 0.21665999
0.28527001 0.10051 0.23589
0.28083 0.10382 0.23062
0.26341999 0.11249 0.23555
0.26266 0.11193 0.23691
0.26222 0.11315 0.2353
0.27129 0.14514001 0.23172
0.23594999 0.12447 0.21939
0.24469 0.080728002 0.19731
0.2493 0.088878997 0.19699
0.26018 0.056685001 0.20156001
0.24709 0.077361003 0.19765
0.21739 0.18882 0.23376
0.25226 0.057468001 0.19794001
0.25698 0.087370001 0.21159001
0.24314 0.11673 0.20106
0.21289 0.19689 0.24123
0.26949999 0.11272 0.23238
0.21365 0.19822 0.2471
0.2438 0.14985999 0.20209
0.24263 0.15334 0.19126999
0.25312999 0.090187997 0.26100001
0.22648001 0.1666 0.20900001
0.24223 0.056961 0.20144001
0.21627 0.16234 0.22397
0.26008001 0.066486001 0.26627001
0.25977999 0.065954998 0.26563001
0.25871 0.11889 0.25793001
0.25927001 0.10707 0.21923999
0.20276999 0.18858001 0.17917
0.27902001 0.10043 0.23359001
0.20909999 0.19033 0.24298
0.25871 0.081914 0.25534001
0.24326999 0.051399 0.19248
0.23565 0.051220998 0.19844
0.22409 0.17873999 0.18239
0.26343 0.11709 0.22554
0.23715 0.053231999 0.19352999
0.25497001 0.097608998 0.24804001
0.27037001 0.17817999 0.24011999
0.21634001 0.19149999 0.22034
0.2256 0.16739 0.21032
0.22669999 0.16629 0.21072
0.25725001 0.066368997 0.19884001
0.25413999 0.11753 0.20265999
0.21423 0.19618 0.24848001
0.28931001 0.10078 0.23068
0.25892001 0.055769999 0.25246999
0.26065001 0.11189 0.25881001
0.23306 0.16604 0.19009
0.23740999 0.1125 0.20448001
0.24255 0.14805 0.20113
0.24255 0.14831001 0.19845
0.26115999 0.1038 0.25667
0.24199 0.17547999 0.20725
0.27333999 0.16236 0.24055
0.27371001 0.16291 0.24039
0.22709 0.16693 0.20655
0.27482 0.10204 0.23594999
0.27186999 0.18023001 0.23284
0.25332999 0.12568 0.20958
0.2622 0.14845 0.20972
0.25685999 0.086466998 0.21067999
0.21325 0.20009001 0.24933
0.23424999 0.095345996 0.20095
0.25437 0.091991 0.20118999
0.2427 0.18587001 0.21414
0.26012999 0.05604 0.25307
0.21239001 0.18759 0.21979
0.26681 0.10573 0.22837999
0.25971001 0.10384 0.26052001
0.26977 0.13781001 0.23592
0.23232 0.19326 0.23466
0.27085 0.18228 0.2344
0.27135 0.18217 0.23362
0.20988999 0.19750001 0.21291
0.26131999 0.1085 0.25852001
0.24589001 0.060013998 0.26039001
0.2455 0.059006002 0.20679
0.26899001 0.17697001 0.21707
0.26710001 0.18701001 0.23344
0.25927001 0.075231999 0.26721001
0.24326999 0.053475 0.19667
0.23776001 0.13798 0.21277
0.27110001 0.14801 0.22008
0.20804 0.18325 0.16988
0.20702 0.1962 0.24621999
0.20265999 0.17393 0.22554
0.25799 0.075410001 0.26765999
0.24152 0.056632001 0.20087001
0.21231 0.1904 0.17852999
0.27274999 0.102 0.23486
0.20125 0.18414 0.17617001
0.23621 0.049816001 0.19638
0.20328 0.18057001 0.16891
0.20717999 0.19965 0.25027001
0.21331 0.17575 0.16955
0.23241 0.13806 0.21969999
0.23887999 0.1023 0.19769
0.27296001 0.15915 0.21568
0.19963001 0.17594001 0.17409
0.20084 0.17752001 0.17504001
0.19773 0.17776 0.17344999
0.20251 0.17162 0.22742
0.25692999 0.1904 0.23981
0.23855001 0.1709 0.20539001
0.23695999 0.096983999 0.19784001
0.25766999 0.051018 0.20862
0.25942001 0.10464 0.25882
0.26811999 0.13782001 0.24073
0.2305 0.17795999 0.21468
0.21279 0.19627 0.21712001
0.24137001 0.072687998 0.25681999
0.20432 0.17163 0.1733
0.26704001 0.14026 0.21951
0.27059999 0.1815 0.22279
0.19286001 0.17928 0.17038999
0.27191001 0.16126999 0.2145
0.2403 0.094898999 0.19621
0.26047999 0.11538 0.20852999
0.26431 0.11528 0.23852
0.21517 0.19577999 0.24710999
0.23228 0.17016 0.18593
0.25940999 0.10903 0.23322
0.26227999 0.108 0.23125
0.26076999 0.11082 0.23370001
0.23726 0.090797 0.259
0.21444 0.16056 0.1724
0.22718 0.14041001 0.21788999
0.21062 0.17022 0.21986
0.26064 0.19134 0.23681
0.25301 0.073817 0.25192001
0.24708 0.060054 0.20581
0.26653001 0.050854001 0.21125001
0.24350999 0.10057 0.24752
0.25972 0.063033998 0.25624001
0.26662001 0.15121 0.21088
0.27452001 0.15757 0.23623
0.24581 0.095431 0.19621
0.24292 0.14816999 0.20482001
0.25685 0.10103 0.24504
0.21707 0.16671 0.22108001
0.22108001 0.15525 0.17865001
0.25150999 0.063887 0.20204
0.26098999 0.10508 0.20615999
0.24089999 0.057225998 0.20637999
0.25856999 0.11927 0.25852999
0.25876999 0.1145 0.2615
0.23073 0.17172 0.17214
0.2447 0.13514 0.21193001
0.25885999 0.072617002 0.26743001
0.26971 0.13916001 0.24154
0.2349 0.088683002 0.20126
0.23511 0.089938 0.20257001
0.21070001 0.18933 0.21844
0.24194001 0.11587 0.2001
0.21234 0.18528999 0.18066999
0.23646 0.086480998 0.20264
0.23740999 0.084489003 0.20261
0.24851 0.17228 0.20262
0.25545001 0.087862998 0.26840001
0.24188 0.074207999 0.25317001
0.20094 0.17378999 0.1681
0.26208001 0.10588 0.25878
0.24566001 0.15605 0.19058
0.28582001 0.10069 0.22943
0.26038 0.075517997 0.25953001
0.26554999 0.054685 0.21545
0.26412001 0.12073 0.24413
0.20848 0.18703 0.21975
0.23661 0.11245 0.20570999
0.2366 0.11309 0.20705
0.23679 0.11396 0.20596001
0.23185 0.12442 0.22578999
0.20203 0.17296 0.22344001
0.25768 0.19019 0.21831
0.24156 0.056871999 0.19766
0.25924 0.11515 0.26144999
0.25799 0.10582 0.21584
0.24369 0.051470999 0.19516
0.21048 0.19936 0.21375
0.20982 0.19893 0.21392
0.27283999 0.15502 0.24462999
0.26129001 0.11414 0.20974
0.21424 0.16312 0.223
0.22883999 0.18446 0.22096001
0.27037001 0.15132999 0.21644001
0.27364999 0.17126 0.23910999
0.23393001 0.19231001 0.22481
0.27052999 0.14362 0.22469001
0.23119999 0.16618 0.1961
0.24000999 0.16606 0.19113
0.23622 0.088564001 0.19933
0.27314001 0.17241 0.23938
0.27756 0.097014003 0.22937
0.27230999 0.15792 0.24845
0.21078999 0.19994999 0.24259999
0.22879 0.14308 0.21383999
0.26207 0.050790001 0.26225001
0.24905001 0.060577001 0.20612
0.24726 0.099823996 0.24445
0.29100999 0.1001 0.23537
0.26666999 0.13112999 0.24321
0.22224 0.17749999 0.17286
0.27147999 0.16755 0.24753
0.21318001 0.19661 0.21205001
0.23834001 0.11648 0.20552
0.21125001 0.19401 0.24695
0.23853999 0.13478 0.2139
0.21087 0.16291 0.17387
0.23569 0.15717 0.182
0.23203 0.19377001 0.23634
0.2316 0.14692 0.20882
0.27816001 0.10498 0.23384
0.23408 0.17298999 0.21032999
0.2198 0.17945001 0.18133999
0.27081999 0.14587 0.24412
0.22601999 0.18900999 0.22479001
0.22661 0.18802001 0.22658999
0.26987001 0.1469 0.22621
0.27371001 0.16340999 0.24126001
0.23163 0.13070001 0.22391
0.26003 0.14624999 0.20837
0.19335 0.18524 0.17782
0.26541999 0.11514 0.23898999
0.25084999 0.077174999 0.19557001
0.25944999 0.17013 0.20555
0.24273001 0.058242999 0.20112
0.24435 0.10277 0.24496
0.21822999 0.16675 0.22263999
0.21766999 0.16638 0.22064
0.24051 0.059670001 0.26697001
0.25637001 0.18674 0.21691
0.23182 0.16987 0.18813001
0.24081001 0.098503999 0.25138
0.21788999 0.18756001 0.22487
0.21765999 0.18916 0.22273999
0.21427999 0.18613 0.18041
0.19947 0.17381001 0.17387
0.21019 0.19653 0.25159001
0.24538 0.068960004 0.25529
0.26761001 0.12902001 0.24217001
0.27171999 0.18189999 0.2288
0.20429 0.17065001 0.22459
0.24919 0.066661999 0.20473
0.25584999 0.10351 0.24225999
0.26966 0.17511 0.24388
0.26975 0.17501999 0.24440999
0.21176 0.19295999 0.21448
0.21382 0.19135 0.21517
0.23793 0.084693 0.19916999
0.23851 0.056531999 0.20421
0.23723 0.057094 0.20494001
0.23721001 0.056274999 0.20646
0.23548999 0.056085002 0.20437001
0.24368 0.057870999 0.20689
0.25542 0.11918 0.20788001
0.26317999 0.18810999 0.23642001
0.22882999 0.15097 0.18877999
0.2279 0.15126 0.19069999
0.24461 0.052526001 0.19544999
0.2122 0.18607 0.17200001
0.28229001 0.097820997 0.2326
0.28298 0.096459001 0.23176999
0.20439 0.17535 0.22566999
0.26519001 0.18844999 0.23285
0.26216999 0.10834 0.23190001
0.23999 0.080752 0.20190001
0.24890999 0.094943002 0.24865
0.21143 0.19205999 0.21641
0.21109 0.16474 0.22352999
0.25861999 0.12116 0.25141999
0.26091 0.12222 0.25002
0.23446 0.14915 0.19400001
0.2194 0.18899 0.24054
0.26433 0.11966 0.24409001
0.24157 0.05895 0.20595001
0.21574999 0.15701 0.17966001
0.21645001 0.15694 0.17966001
0.22826 0.15132 0.18701001
0.2404 0.059186 0.26793
0.21704 0.18133 0.17981
0.20619 0.17877001 0.17605001
0.20539001 0.18038 0.17598
0.26993999 0.10489 0.23405001
0.20946001 0.18935999 0.21826001
0.23345999 0.16723 0.20419
0.23641001 0.086727999 0.2017
0.24483 0.058286 0.20247
0.24086 0.19403 0.23257001
0.24860001 0.19525 0.23409
0.19504 0.18797 0.17569
0.20807 0.19078 0.21922
0.23066001 0.13546 0.22256
0.23655 0.11066 0.20328
0.20136 0.18948001 0.17893
0.21738 0.18713 0.22112
0.26312 0.062247999 0.2131
0.19753 0.17682 0.1728
0.21941 0.18790001 0.22274999
0.20557 0.19475 0.24662
0.23954 0.11206 0.20283
0.26873001 0.13984001 0.24208
0.25159001 0.10518 0.23823
0.27109 0.14815 0.24489
0.26313001 0.061050002 0.21337999
0.26874 0.17983 0.24293999
0.24247 0.078298002 0.20018999
0.27131999 0.099932998 0.2297
0.22582 0.16598 0.21213999
0.27368999 0.16886 0.24014001
0.26605999 0.12361 0.24075
0.24772 0.057909999 0.19704001
0.26427001 0.18667001 0.24025001
0.20908 0.17349 0.17689
0.20868 0.17328 0.17595001
0.2093 0.17307 0.17783
0.24455 0.059514001 0.26212999
0.28725001 0.097484 0.23334999
0.27168 0.15197 0.24473999
0.23844001 0.056294002 0.20634
0.23485 0.11083 0.20427001
0.24239001 0.071246997 0.25659001
0.032166 0.14937 0.22672001
0.032724999 0.14839999 0.22624999
0.033883002 0.14843 0.22679
0.037702002 0.12234 0.23033001
0.036894001 0.1227 0.23017
0.038649 0.12298 0.22886001
0.038196001 0.12075 0.22894999
0.090637997 0.069588996 0.26416999
0.088606 0.067979999 0.26344001
0.090644002 0.069509 0.26501
0.039797999 0.15868001 0.22869
0.036924999 0.15908 0.22725999
0.039900001 0.16121 0.22702999
0.094063997 0.12207 0.25788
0.095729999 0.12266 0.25821999
0.096174002 0.12232 0.25832999
0.099078998 0.10975 0.25740001
0.097799003 0.10968 0.25740001
0.098743998 0.1115 0.25694999
0.041301001 0.12671 0.22995
0.042667001 0.12506001 0.22973
0.043347999 0.12446 0.22837999
0.041673001 0.1232 0.22922
0.042128999 0.12247 0.22764
0.041556999 0.12218 0.22764
0.043172002 0.16458 0.22737999
0.045088999 0.16557001 0.22903
0.04589 0.16537 0.22793999
0.043405998 0.16475999 0.22863001
0.082225002 0.14532 0.28601
0.081748001 0.14518 0.28639999
0.084048003 0.14489999 0.28712001
0.084181003 0.14603999 0.28874001
0.085083999 0.14458001 0.28715
0.081505999 0.14493001 0.28481999
0.081502996 0.1453 0.28608999
0.080251001 0.14629 0.28931001
0.079021998 0.14585 0.29168001
0.077808999 0.14674 0.29299
0.077656001 0.14607 0.29210001
0.075735003 0.14543 0.29245001
0.076834001 0.14646 0.29306999
0.080049001 0.14582001 0.29185
0.081710003 0.14689 0.29247999
0.081694998 0.14597 0.29161999
0.078367002 0.14708 0.29448
0.080066003 0.14436001 0.28632
0.079729997 0.14489 0.28771999
0.083783999 0.14609 0.29234001
0.078423999 0.1459 0.28698999
0.077499002 0.14526001 0.28670001
0.076325998 0.14516 0.28558001
0.077356003 0.14517 0.28689
0.075507 0.14372 0.28562999
0.075856999 0.14506 0.28906
0.074727997 0.14421999 0.28709999
0.074391998 0.14485 0.28951001
0.071971998 0.14352 0.28663999
0.072191998 0.14506 0.28773999
0.089287996 0.1461 0.28953001
0.087777004 0.14548001 0.29225999
0.089915 0.14683001 0.29245999
0.085840002 0.14526001 0.29054001
0.083476998 0.14565 0.29027
0.085532002 0.14719 0.29148999
0.034465 0.17106 0.23919
0.032623999 0.17128 0.23971
0.032582998 0.17151999 0.24079999
0.083531998 0.14669 0.29179001
0.040387001 0.17275999 0.23856001
0.037478998 0.17163 0.23903
0.039682999 0.1714 0.24041
0.084123001 0.14715999 0.29166001
0.072682999 0.14316 0.28617001
0.072994001 0.14484 0.28881001
0.039698001 0.13283999 0.22362
0.038334001 0.13504 0.22396
0.039928 0.13455001 0.22342999
0.069983996 0.14284 0.2872
0.069004998 0.14377999 0.28913999
0.067877002 0.14343999 0.28760001
0.068066999 0.14431 0.28715
0.066482998 0.1416 0.28744999
0.067289002 0.14133 0.28836
0.030908 0.11628 0.23359001
0.031535 0.11865 0.23307
0.031585 0.1182 0.23327
0.097696997 0.10371 0.25521001
0.097575001 0.1036 0.25475001
0.097180001 0.10394 0.25463
0.048287001 0.17287999 0.23856001
0.045068 0.17244001 0.23781
0.048478998 0.17298999 0.23965999
0.091089003 0.14654 0.29646999
0.091903999 0.14708 0.29870999
0.092565998 0.14734 0.29758
0.046107002 0.091223001 0.23103
0.046289999 0.093006998 0.23036
0.048760001 0.090392999 0.23115
0.043393001 0.10414 0.22724
0.042897001 0.10347 0.22538
0.044422999 0.10312 0.22655
0.12559 0.10893 0.30296999
0.1261 0.11029 0.30406001
0.12565 0.10841 0.30325001
0.042753998 0.10947 0.22653
0.041069999 0.11177 0.22728001
0.042576998 0.11294 0.22682001
0.036894999 0.17395 0.24082001
0.036818001 0.17135 0.23833001
0.036818001 0.17259 0.23977999
0.099292003 0.19474 0.21343
0.099012002 0.19402 0.21452001
0.10137 0.19464 0.21356
0.041361999 0.13253 0.22341999
0.049157999 0.17227 0.23835
0.048493002 0.17220999 0.23801
0.040747002 0.093268 0.23232999
0.039113 0.096493997 0.22947
0.041035 0.095797002 0.22925
0.042204 0.094465002 0.23241
0.041243002 0.093091004 0.23266
0.043072999 0.095454 0.23242
0.042473 0.15419 0.22621
0.043880001 0.15385 0.22559001
0.043848 0.15112001 0.22499999
0.088289998 0.14556 0.28881001
0.037066001 0.10719 0.22901
0.038245 0.10653 0.22772001
0.037909999 0.10574 0.22773001
0.070372 0.16027001 0.234
0.070373997 0.16061001 0.23412
0.072957002 0.15907 0.23386
0.078649998 0.1647 0.2246
0.079733998 0.16315 0.22498
0.077133 0.16413 0.22301
0.10005 0.17921001 0.27529001
0.10095 0.17916 0.27737999
0.097084999 0.17801 0.27595001
0.047541 0.12578 0.22604001
0.048439 0.12552001 0.22816999
0.048158001 0.12473 0.227
0.037983999 0.11172 0.22686
0.037383001 0.11058 0.22779
0.039492998 0.11339 0.22695
0.032524999 0.11694 0.2317
0.069127999 0.14488 0.29604
0.068124004 0.14488 0.29628
0.069104999 0.14441 0.29721001
0.031647999 0.15509 0.22984
0.032848001 0.15509 0.23
0.032591999 0.15443 0.22882
0.033817001 0.096272998 0.23563001
0.034499001 0.098346002 0.23522
0.035000999 0.097439997 0.23368999
0.03136 0.11919 0.23543
0.032237999 0.11851 0.23249
0.073904 0.14696001 0.30283999
0.075364999 0.14762001 0.30153
0.075053997 0.14642 0.30307999
0.045538999 0.16015001 0.23040999
0.044174001 0.15966 0.22702
0.045022 0.16145 0.22757
0.042677 0.094098002 0.22966
0.041972999 0.095615998 0.23052999
0.044155002 0.16151001 0.22846
0.044746 0.16154 0.22747
0.04589 0.16255 0.22735
0.043494001 0.12689 0.22849999
0.10715 0.20115 0.27318001
0.1077 0.20291001 0.27339
0.10561 0.20204 0.27318999
0.038911998 0.087681003 0.23668
0.037822999 0.088841997 0.23749
0.040539 0.087761 0.23735
0.03819 0.064962 0.26251999
0.039726999 0.064494997 0.26482001
0.038837999 0.063441999 0.26418999
0.031822 0.12058 0.23476
0.032687001 0.12112 0.23388
0.10849 0.1944 0.21596999
0.1086 0.19193 0.21626
0.10942 0.19107001 0.21599001
0.046239 0.17215 0.24244
0.045421999 0.17354999 0.24126001
0.048707999 0.17257001 0.24253
0.040848002 0.12928 0.22729
0.039297 0.12962 0.22676
0.039866999 0.13043 0.22524001
0.078573003 0.14734 0.29661
0.078163996 0.14769 0.29565001
0.079594001 0.14658999 0.29567999
0.080361001 0.14748999 0.29716
0.080886997 0.14163999 0.27631
0.079977997 0.14083999 0.27621001
0.077738002 0.14166 0.27474999
0.098406002 0.16654 0.21775
0.098062001 0.16867 0.21608
0.1 0.16935 0.21805
0.038033001 0.10733 0.22778
0.052062001 0.17298999 0.23609
0.050574001 0.17335001 0.2375
0.050489999 0.17261 0.23876999
0.033066001 0.15579 0.22908001
0.032496002 0.15789001 0.22792
0.033516999 0.15759 0.22761001
0.034350999 0.15681 0.22869
0.039919 0.16903 0.2291
0.038801 0.16850001 0.22944
0.036968 0.16751 0.22755
0.088170998 0.1964 0.26873001
0.086999997 0.19598 0.26662999
0.086048998 0.19614001 0.26783001
0.031736001 0.12169 0.23487
0.03345 0.12261 0.23492999
0.11074 0.19641 0.21125001
0.10916 0.19845 0.21205001
0.11172 0.19728 0.21161
0.034508001 0.099289 0.23536
0.034786999 0.099912003 0.23382001
0.10065 0.11922 0.26172
0.10065 0.12237 0.26251
0.10163 0.12156 0.26390001
0.10267 0.11756 0.26372999
0.101 0.11817 0.26236999
0.10086 0.1197 0.26335001
0.037503999 0.12551001 0.2317
0.038688 0.12605 0.23191001
0.037372999 0.15999 0.22816999
0.037714001 0.16153 0.22795001
0.038525 0.16152 0.22622
0.03551 0.14177001 0.22418
0.036072001 0.14268 0.22475
0.037774999 0.14061999 0.22497
0.098516002 0.11188 0.25692999
0.098185003 0.11327 0.25827
0.099642999 0.11477 0.25832999
0.098343 0.11061 0.25734001
0.041795 0.12161 0.22774
0.042385001 0.12041 0.22621
0.044773001 0.16518 0.22948
0.046037 0.16831 0.22915
0.082405001 0.19272999 0.26306
0.082607999 0.19136 0.26223001
0.079714999 0.19272999 0.26370001
0.066248 0.14503001 0.29493001
0.066307999 0.14493001 0.29776999
0.069977999 0.14497 0.29832
0.070970997 0.14670999 0.30309001
0.070513003 0.14551 0.30214
0.070896 0.14613999 0.30406001
0.073461004 0.14639001 0.30210999
0.072777003 0.14695001 0.30129999
0.073771998 0.14652 0.30318001
0.047607999 0.091342002 0.23063
0.047713999 0.092101 0.22993
0.044549 0.092863999 0.23172
0.044594999 0.092251003 0.23125
0.031987 0.12202 0.23722
0.034095999 0.12315 0.23552001
0.10202 0.19749001 0.20739999
0.099861003 0.19683 0.2075
0.098972 0.19602001 0.20873
0.10159 0.19802999 0.20885
0.037517998 0.14816999 0.22504
0.037781999 0.15008 0.22661
0.038545001 0.15008 0.22564
0.049247999 0.17242 0.23729999
0.050041001 0.1725 0.23818
0.033293001 0.15131 0.22949
0.03382 0.15185 0.22853
0.033526 0.15132999 0.22772001
0.0462 0.17284 0.23938
0.090567 0.19845 0.26695001
0.089336999 0.19701 0.26815
0.090112001 0.19925 0.26826999
0.080548003 0.052173 0.24849001
0.082915001 0.051422998 0.2489
0.079283997 0.051004 0.24759001
0.10106 0.19568001 0.21024001
0.10248 0.19566999 0.21118
0.10323 0.19525 0.21161
0.099780999 0.20056 0.27351999
0.10037 0.20208 0.27423
0.099321 0.20259 0.27294999
0.082386002 0.14421999 0.28470001
0.083925001 0.14449 0.28584
0.044156998 0.1003 0.22792999
0.043731999 0.10053 0.22843
0.043377999 0.10241 0.227
0.081491001 0.14554 0.28422001
0.082406998 0.14353 0.28353
0.079588003 0.14289001 0.28634
0.077367999 0.14693999 0.29424
0.077431001 0.14751001 0.29690999
0.050572 0.067514002 0.26493001
0.049690001 0.068787999 0.26431999
0.050985001 0.068519004 0.26392001
0.078699 0.14414001 0.28569999
0.036747001 0.16639 0.22821
0.035851002 0.16817001 0.22822
0.036931001 0.16621999 0.22624999
0.084127001 0.14632 0.29721001
0.082419001 0.14642 0.30006999
0.082337998 0.14916 0.29876
0.042066999 0.098347001 0.22875001
0.042495999 0.098102003 0.22973
0.040796001 0.098885 0.22953001
0.042029001 0.10949 0.22718
0.042123001 0.10955 0.22503
0.041785002 0.10922 0.22563
0.036132 0.094343998 0.23556
0.035252001 0.095848002 0.23559
0.036603 0.095100999 0.23327
0.10994 0.19763 0.21195
0.076353997 0.14343999 0.28433001
0.075708002 0.1454 0.28621
0.073376998 0.14432999 0.28626999
0.091661997 0.14788 0.30081001
0.092485003 0.14685 0.30112001
0.095385 0.14766 0.30282
0.045155 0.089336 0.23138
0.088510998 0.14798 0.30482
0.086910002 0.14821 0.3066
0.089792997 0.14864001 0.30680001
0.037128001 0.11857 0.22919001
0.037271999 0.12018 0.22973999
0.038826 0.11799 0.228
0.032058999 0.12512 0.23631001
0.031985 0.12373 0.23619001
0.037861999 0.11418 0.22915
0.037280999 0.1167 0.22962999
0.037496001 0.11566 0.22724999
0.031992 0.13494 0.22742
0.032382 0.13542999 0.2263
0.032364 0.13313 0.22576
0.031112 0.13476001 0.22724999
0.034979999 0.1018 0.23390999
0.080035999 0.16297001 0.22583
0.034724999 0.134 0.2252
0.034898002 0.13535 0.22345001
0.035332002 0.13501 0.22403
0.037595 0.10425 0.22860999
0.038182002 0.1042 0.22830001
0.038885999 0.10223 0.22953001
0.03816 0.14822 0.22600999
0.038079999 0.14875001 0.22479001
0.038716 0.14552 0.22487999
0.037314001 0.14771999 0.22600999
0.086632997 0.14760999 0.29444
0.084514 0.14663 0.29348001
0.085709997 0.14652 0.29571
0.041680001 0.099448003 0.22877
0.041095 0.10046 0.22826
0.041370999 0.10182 0.22770999
0.031851999 0.12492 0.23593999
0.033043001 0.12684 0.23574001
0.083591998 0.14597 0.29519999
0.083342999 0.14582001 0.29583001
0.085271999 0.14814 0.29639
0.10057 0.112 0.26058
0.10059 0.11273 0.25986999
0.10097 0.11241 0.26065001
0.080154002 0.16327 0.22851001
0.076646 0.16313 0.22736
0.080231003 0.16238999 0.22743
0.074643999 0.14609 0.29537001
0.075414002 0.14809 0.29644001
0.089749999 0.14766 0.29466
0.089640997 0.148 0.29657
0.090387002 0.14582001 0.29642001
0.041744001 0.098926 0.22954001
0.040798999 0.10048 0.22746
0.080959 0.1479 0.30162999
0.080412999 0.14808001 0.30304
0.078666002 0.14813 0.30303001
0.08941 0.14740001 0.29732999
0.088136002 0.14681999 0.29789001
0.091224 0.14816 0.29866001
0.072187997 0.14346001 0.28615001
0.071010001 0.14329 0.28479999
0.068401001 0.14385 0.28593999
0.098275997 0.16780999 0.21482
0.10028 0.17028999 0.21592
0.097057 0.16932 0.21586999
0.032772001 0.13197 0.22781999
0.074716002 0.16192999 0.22517
0.077396996 0.16345 0.22368
0.077735998 0.16283 0.22582
0.089163996 0.14643 0.29258001
0.089891002 0.14621 0.29304999
0.080971003 0.14677 0.29787999
0.078463003 0.14736 0.29936001
0.038869999 0.10894 0.22607
0.092611998 0.14557 0.29530999
0.078158997 0.058115002 0.24885
0.077342004 0.060869999 0.25102001
0.078465998 0.060575001 0.25169
0.042123999 0.15081 0.22585
0.087142996 0.14612 0.29418001
0.088184997 0.14699 0.29596999
0.072826996 0.1459 0.29534999
0.071401998 0.14658 0.29587001
0.0722 0.14508 0.29756999
0.072380997 0.14703999 0.29758
0.060348999 0.052517999 0.23672
0.060674001 0.053049002 0.23607001
0.063013002 0.052914001 0.23593
0.068255998 0.14331 0.28569999
0.066385001 0.14256001 0.28652
0.095528997 0.14602 0.31650001
0.094965003 0.14719 0.31584001
0.096078999 0.14471 0.31657001
0.099964 0.1116 0.25907999
0.097153001 0.11332 0.26012999
0.10003 0.11282 0.25977999
0.10061 0.14481001 0.31483001
0.098356001 0.14601 0.31578001
0.098821998 0.14475 0.31722
0.022055 0.13381 0.23468
0.021328 0.13665999 0.23316
0.022568 0.13575 0.23508
0.086263001 0.14894 0.30557999
0.033826001 0.094945997 0.23563001
0.090516999 0.1494 0.30467999
0.085924998 0.14832 0.30605
0.085593 0.14834 0.30375001
0.085247003 0.14944001 0.30641001
0.041878 0.17251 0.24819
0.041255001 0.17220999 0.24611001
0.040125001 0.17316 0.24733999
0.099633999 0.18109 0.27265999
0.098814003 0.18099 0.27375001
0.097433001 0.18065 0.27248001
0.10339 0.18047 0.27919999
0.10557 0.18144 0.27954
0.10583 0.18175 0.27860999
0.075627998 0.14241 0.27722001
0.0735 0.14147 0.27856001
0.074826002 0.14364 0.27996999
0.083604999 0.14553 0.29725999
0.085561998 0.14628001 0.29549
0.081611998 0.14768 0.29521
0.080853 0.14699 0.29539999
0.082061 0.14816999 0.29618999
0.087807998 0.14648999 0.29627001
0.082735002 0.14647 0.29541999
0.074446 0.14663 0.29604
0.074822001 0.14782999 0.29798001
0.033909999 0.13178 0.22774
0.090167999 0.14760999 0.2999
0.091751002 0.14808001 0.303
0.082365997 0.14759 0.30164999
0.082286 0.14740001 0.30019999
0.080867 0.14926 0.30311999
0.11073 0.18479 0.21836001
0.11027 0.18625 0.21692
0.11144 0.18703 0.21788999
0.035629001 0.17223001 0.24108
0.039912 0.1166 0.22719
0.041057002 0.11633 0.22645
0.043102998 0.1148 0.22542
0.099541999 0.11776 0.26135001
0.099200003 0.11694 0.25983
0.099863 0.11738 0.26188999
0.039767999 0.11473 0.22554
0.086437002 0.065499 0.25731
0.086877003 0.064248003 0.25792
0.087017 0.065139003 0.25867999
0.076559 0.14737999 0.2987
0.081256002 0.14683001 0.29787001
0.10395 0.19715001 0.20967001
0.10249 0.19654 0.21026
0.10218 0.19656999 0.21207
0.082673997 0.14718001 0.29699999
0.035014 0.13233 0.22571
0.036079001 0.13350999 0.22448
0.037321001 0.17306 0.24666999
0.035225999 0.17208 0.2455
0.036339998 0.17253999 0.24597
0.045673002 0.17165001 0.23876999
0.04403 0.17307 0.23919
0.10309 0.14475 0.31481999
0.10135 0.14531 0.31523001
0.10149 0.14522 0.31646001
0.076877996 0.14207999 0.27461001
0.077855997 0.14151999 0.27482
0.036747999 0.11259 0.22866
0.037402999 0.11384 0.22685
0.037994001 0.11422 0.22708
0.036642 0.11096 0.22744
0.037741002 0.11266 0.22774
0.083778001 0.14899001 0.30544001
0.085908003 0.14816999 0.30706
0.083714001 0.14843 0.30610001
0.082341999 0.14827999 0.30524001
0.080741003 0.14777 0.30630001
0.081531003 0.14813 0.30700001
0.031670999 0.14507 0.22686
0.032579999 0.14407 0.22517
0.032731 0.1424 0.22521
0.037926 0.12949 0.22774
0.038410999 0.12892 0.22703999
0.037450999 0.13078 0.22666
0.070191003 0.13219 0.23513
0.068568997 0.13315 0.23552001
0.069177002 0.13434 0.23514999
0.030971 0.14108001 0.22507
0.031803999 0.1416 0.22548001
0.031186 0.14060999 0.22544999
0.037565 0.1203 0.22967
0.038621999 0.1201 0.22747999
0.037636001 0.15493999 0.22813
0.037374999 0.15591 0.22741
0.039964002 0.15351 0.22641
0.037822001 0.15790001 0.22695
0.039094999 0.15855999 0.22834
0.039824001 0.15618999 0.22775
0.042048 0.090254001 0.23391999
0.04524 0.091303997 0.23315001
0.088032 0.14845 0.30122
0.087013997 0.14838 0.30103001
0.089414999 0.14782999 0.30131999
0.043416001 0.090061001 0.23360001
0.087922998 0.14823 0.29819
0.088901997 0.14707001 0.30070001
0.040488001 0.10771 0.2264
0.042103998 0.1063 0.22635999
0.036269002 0.14447001 0.22404
0.038268 0.14425001 0.22476
0.092081003 0.14691 0.29671001
0.036334999 0.1331 0.22583
0.078869998 0.14667 0.30258
0.027386 0.16794001 0.23923001
0.0274 0.16972999 0.23883
0.028170001 0.16723999 0.23755001
0.069931 0.14546999 0.30291
0.073178001 0.14722 0.30500999
0.095068999 0.1469 0.30276
0.073665999 0.14782999 0.30454999
0.074914999 0.14656 0.30476999
0.079126 0.14859 0.30383
0.076857001 0.14662001 0.30461001
0.075345002 0.14765 0.30610001
0.045977 0.095322996 0.23006999
0.04479 0.093874 0.22969
0.091059998 0.14704999 0.29791
0.093980998 0.14708 0.29938
0.11154 0.18658 0.27838001
0.10922 0.18623 0.27956
0.1105 0.1859 0.27917001
0.089947999 0.14748 0.29797
0.089841999 0.149 0.29809999
0.090791002 0.14737999 0.30160999
0.033078 0.13671 0.22559001
0.031567998 0.13964 0.22582
0.033496998 0.13835999 0.22454999
0.037365001 0.17228 0.24038
0.099845 0.14482 0.31654
0.031358998 0.14471 0.22686
0.032799002 0.14673001 0.22655
0.033043001 0.14445999 0.22658999
0.032683 0.13753 0.22583
0.030485 0.13806 0.22674
0.073518001 0.16474 0.26087999
0.076374002 0.16497 0.26091
0.076145001 0.1652 0.26001999
0.10148 0.11665 0.26196
0.067111999 0.15503 0.25307
0.068493001 0.1542 0.25325
0.068130001 0.15414999 0.25288001
0.099005997 0.11639 0.2613
0.10017 0.11572 0.2597
0.079797 0.14782 0.3087
0.080661997 0.14771 0.30713001
0.079136997 0.14781 0.30634999
0.078666002 0.14782999 0.30774
0.082111001 0.14856 0.30366999
0.081905 0.14904 0.30414
0.087232001 0.14841001 0.30157
0.083315 0.14820001 0.30012
0.086615004 0.14831001 0.30103001
0.083477996 0.14869 0.30349001
0.083192997 0.14622 0.30243999
0.084623002 0.14681 0.30159
0.078437001 0.14839 0.30215999
0.077307001 0.14776 0.30208001
0.077579997 0.14737999 0.30289
0.090469003 0.14872999 0.30219001
0.067693003 0.15547 0.25268
0.068251997 0.15499 0.25477999
0.095601998 0.20183 0.27133
0.093420997 0.19963001 0.27311999
0.09381 0.20200001 0.27303001
0.075406 0.14210001 0.27489999
0.074973002 0.14297 0.27610999
0.076398 0.1408 0.27557999
0.041000001 0.11316 0.22758
0.041125 0.11484 0.22652
0.079301 0.14516 0.30377001
0.11066 0.18683 0.27792001
0.11103 0.18599001 0.27732
0.068086997 0.14275999 0.28922999
0.069123 0.14438 0.29019001
0.11003 0.19259 0.21513
0.11079 0.19407 0.21517999
0.10945 0.19293 0.21455
0.10972 0.19244 0.21642999
0.070083998 0.14356001 0.28960001
0.034805998 0.17149 0.24638
0.034864001 0.1714 0.24794
0.039046001 0.10633 0.22672001
0.029797999 0.16943 0.23773
0.029355999 0.1691 0.23977
0.058504 0.052273002 0.2367
0.058109999 0.052855998 0.2361
0.097424999 0.18043 0.27282
0.097479001 0.18031999 0.27223
0.077404998 0.14406 0.27666
0.076481998 0.14191 0.27616999
0.077215999 0.14695001 0.30713999
0.076621003 0.14831001 0.30669001
0.076136999 0.14698 0.30766001
0.078736 0.14691 0.30767
0.075343996 0.1471 0.30702999
0.075438 0.14812 0.30849999
0.083472997 0.14888 0.30410999
0.084280998 0.14861 0.30281001
0.087289996 0.1498 0.30412
0.088152997 0.14734 0.30276
0.089745998 0.14699 0.30239001
0.071206003 0.14489 0.29038
0.066509001 0.14109001 0.28924
0.043531999 0.17364 0.23898
0.043416999 0.17354 0.23857
0.041514002 0.17249 0.23958001
0.039834 0.17292 0.24039
0.11186 0.17824 0.21206
0.11104 0.17772999 0.21244
0.11137 0.17663001 0.21199
0.045506001 0.089199997 0.23399
0.043724 0.087903 0.23462
0.043115001 0.090948999 0.23236001
0.043992002 0.092947997 0.23141
0.046335999 0.098197997 0.22985999
0.044332001 0.097887002 0.22775
0.044034 0.098338 0.22752
0.032446001 0.13745999 0.22691999
0.031539999 0.14025 0.227
0.11661 0.18717 0.21601
0.11756 0.18862 0.21533
0.11543 0.18898 0.21608999
0.073477 0.14442 0.29078999
0.074325003 0.14518 0.28933001
0.099560998 0.11935 0.26177001
0.073633 0.14325 0.28013
0.071680002 0.14315 0.28025001
0.073439002 0.14358 0.28219
0.044812001 0.10291 0.22634999
0.044488002 0.10204 0.22571
0.045575999 0.10073 0.22748999
0.044550002 0.10073 0.22645999
0.058965001 0.070840999 0.25542
0.061151002 0.074183002 0.25481001
0.059739999 0.072200999 0.25364
0.099744998 0.11246 0.25962999
0.052026998 0.17152999 0.23424999
0.051585998 0.17078 0.23411
0.090602003 0.14778 0.30526999
0.090501003 0.14877 0.30452999
0.091518998 0.14853001 0.30458
0.092968002 0.14688 0.30484
0.093378998 0.14816 0.30493
0.091862001 0.14719 0.30351999
0.040504999 0.11975 0.22653
0.041556001 0.12061 0.22803
0.04335 0.11929 0.22797
0.051681001 0.083727002 0.23823
0.051911999 0.081502996 0.2375
0.051835001 0.084127001 0.23537999
0.084034003 0.16966 0.26265001
0.084519997 0.17233001 0.26416999
0.083022997 0.16940001 0.26459
0.079457 0.14555 0.29006001
0.076953001 0.14532 0.28847
0.075223997 0.1453 0.29008001
0.050903998 0.17262 0.23702
0.029115999 0.063672997 0.27074
0.029584 0.064847 0.27006999
0.030709 0.064112 0.26918
0.088532999 0.17414001 0.26396
0.089271002 0.1751 0.26492
0.087654002 0.17485 0.26552001
0.1134 0.19057 0.27430999
0.11408 0.19242001 0.27180001
0.11434 0.19289 0.27553999
0.031335 0.16997001 0.24017
0.030536 0.16993 0.23901001
0.028504999 0.16812 0.24029
0.037829001 0.15357 0.22886001
0.039019998 0.15307 0.22686
0.029526999 0.13429999 0.22947
0.029599 0.13434 0.22942001
0.029325999 0.13327999 0.22832
0.046004999 0.15998 0.22867
0.046461999 0.15945999 0.22728001
0.047453001 0.15846001 0.22761001
0.047022998 0.089153998 0.23208
0.047534999 0.089299999 0.23024
0.045897 0.15783 0.22743
0.044130001 0.15085 0.22363999
0.046220001 0.15155999 0.22454
0.047166001 0.15019999 0.22462
0.093901001 0.14946 0.30375001
0.12132 0.11471 0.29885
0.12269 0.11417 0.29747
0.1213 0.11394 0.29657999
0.029899999 0.096983001 0.24066
0.029457999 0.10027 0.23964
0.027210001 0.099987999 0.23968001
0.094925001 0.14755 0.30285999
0.047339998 0.15765999 0.22813
0.069615997 0.14572001 0.29842001
0.068809003 0.14517 0.29837999
0.068773001 0.14579 0.30026999
0.068599001 0.14579999 0.30030999
0.080003001 0.14531 0.28885001
0.091784999 0.17474 0.27570999
0.091279998 0.17579 0.27421001
0.092949003 0.17574 0.27603999
0.078300998 0.14119001 0.27451
0.10496 0.19235 0.21574999
0.10477 0.19259 0.21738
0.10756 0.19265001 0.21742
0.1026 0.19284 0.2168
0.10152 0.19122 0.21543001
0.10452 0.19135 0.2158
0.10374 0.19728 0.20711
0.10282 0.19632 0.20861
0.10389 0.19732 0.20744
0.044064 0.1499 0.22405
0.044089001 0.14857 0.22276001
0.043000001 0.098183997 0.22824
0.090737 0.18077999 0.26306999
0.091617003 0.18058001 0.26212001
0.091305003 0.17811 0.26407
0.037597001 0.057944998 0.25725001
0.038479 0.059985999 0.25815001
0.038327001 0.057929002 0.25639001
0.037712999 0.15226001 0.22645999
0.037859 0.1523 0.22611
0.045102999 0.15888999 0.22812
0.035882 0.13026001 0.22609
0.03545 0.13106 0.22626001
0.036602002 0.13135999 0.22525001
0.040371999 0.11235 0.22664
0.078156002 0.11931 0.23404001
0.076442003 0.12048 0.23469999
0.078233004 0.12208 0.23548999
0.037656002 0.12579 0.22988001
0.038398001 0.12630001 0.23023
0.12876999 0.10189 0.31851
0.12820999 0.10119 0.32087001
0.12728 0.099168003 0.31942001
0.029759999 0.13361999 0.23007999
0.1136 0.17863999 0.21437
0.11366 0.18017 0.21524
0.11437 0.18158001 0.21601
0.028116999 0.13516 0.22789
0.02881 0.13524 0.22732
0.10349 0.19802 0.2101
0.10239 0.19764 0.20881
0.066687003 0.060701001 0.24226999
0.068768002 0.062997997 0.24405
0.067001998 0.061889 0.24322
0.046960998 0.15795 0.22737999
0.049532 0.17310999 0.24174
0.050202999 0.17284 0.24357
0.051580999 0.17341 0.24232
0.071576998 0.14771999 0.29879001
0.070743002 0.14676 0.29833001
0.070969 0.14576 0.30054
0.071469001 0.14677 0.29894
0.028132999 0.13700999 0.22882999
0.029100001 0.13860001 0.22797
0.083062001 0.14611 0.28755
0.028029 0.13835999 0.22792999
0.028564001 0.13922 0.22727001
0.085759997 0.074524999 0.26216999
0.085451998 0.074238002 0.26115
0.086741 0.075698003 0.26165
0.085045002 0.14593001 0.28867999
0.085697003 0.14521 0.28749001
0.12291 0.10312 0.27052
0.12222 0.10381 0.27078
0.12257 0.10313 0.27164999
0.039014 0.12721001 0.23062
0.038619999 0.12783 0.23111001
0.041039001 0.11735 0.22635999
0.041379999 0.11811 0.22735
0.098627999 0.12082 0.26054001
0.096729003 0.12174 0.26067999
0.098415002 0.12138 0.26017001
0.067659996 0.17474 0.2236
0.067100003 0.17454 0.22481
0.068268001 0.17653 0.22524001
0.11133 0.053117 0.32633999
0.11213 0.055964001 0.32600999
0.11243 0.054850001 0.3258
0.059640002 0.056853998 0.23627999
0.059248999 0.055682 0.23813
0.058148 0.056302 0.23612
0.12546 0.1119 0.30261999
0.12512 0.11226 0.30175999
0.12373 0.11118 0.30276
0.07006 0.053649001 0.23966999
0.071021996 0.053970002 0.24075
0.071217999 0.051764999 0.23986
0.027427001 0.14082 0.22769
0.027967 0.14049999 0.22713999
0.097580001 0.19246 0.21506
0.096268997 0.19294 0.21311
0.095643997 0.19295999 0.21493
0.054241002 0.17213 0.23735
0.043598998 0.1245 0.22795001
0.044045001 0.12529001 0.22758
0.044429999 0.12367 0.22648001
0.10474 0.19709 0.20687
0.039228 0.11378 0.22682001
0.038796 0.11452 0.22696
0.10547 0.19923 0.20994
0.031966001 0.16058999 0.22818001
0.032173 0.16128001 0.22877
0.033107001 0.16163 0.22782999
0.035386 0.1621 0.22852001
0.033202998 0.16001999 0.22821
0.033419002 0.13146 0.22646999
0.033381 0.1295 0.22693001
0.080086 0.14392 0.28895
0.045568999 0.12977999 0.22663
0.042587001 0.12949 0.22628
0.042707 0.1303 0.22395
0.082868002 0.14966001 0.31169
0.082299002 0.14838 0.30957001
0.081299998 0.14796001 0.31152001
0.084562004 0.14914 0.31011999
0.089993 0.14856 0.30755001
0.091248997 0.14961 0.30879
0.092444003 0.149 0.3087
0.092522003 0.14932001 0.30702999
0.037634999 0.11092 0.2272
0.037904002 0.11011 0.22824
0.093925998 0.14703 0.30270001
0.086189002 0.14117999 0.27548999
0.088830002 0.13880999 0.27557001
0.087659001 0.13957 0.27515
0.038105 0.10506 0.22757
0.040484998 0.066363998 0.26690999
0.0425 0.067158997 0.26729
0.041545998 0.065095 0.26427001
0.041919999 0.12483 0.22848
0.037285 0.1437 0.22526
0.036919001 0.14426 0.22296999
0.036196001 0.14345001 0.22437
0.082630999 0.090861 0.24408001
0.080957003 0.089222997 0.2437
0.083149001 0.090327002 0.24454001
0.076792002 0.11052 0.23251
0.076745003 0.11198 0.23191001
0.077154003 0.11264 0.23277999
0.068145998 0.14654 0.23513
0.068751998 0.14636 0.23598
0.069531001 0.14516 0.23556
0.066853002 0.14593001 0.26407
0.067684002 0.1453 0.26482001
0.069911003 0.14644 0.26359999
0.073492996 0.090085 0.23348001
0.075245999 0.092763998 0.23168001
0.075273 0.091347001 0.23450001
0.029343 0.13948999 0.22652
0.029744999 0.14191 0.22812
0.090635002 0.18263 0.26241001
0.093415998 0.18197 0.26323
0.092083 0.17997999 0.26427001
0.034254 0.15847 0.22756
0.031122001 0.15831 0.22791
0.039473999 0.098342001 0.23114
0.037535999 0.099579997 0.23082
0.039620999 0.10105 0.22881
0.097668 0.11284 0.25702
0.087407 0.068272002 0.2638
0.087936997 0.068230003 0.26548001
0.078547999 0.11784 0.23286
0.076679997 0.11977 0.23534
0.046534002 0.088101 0.2348
0.045511998 0.087021001 0.23583999
0.087817997 0.14799 0.30915999
0.087883003 0.14811 0.30892
0.088009 0.14813 0.30919999
0.084207997 0.14723 0.30961001
0.084418997 0.1481 0.31033999
0.085960999 0.14896999 0.3114
0.080286004 0.14884999 0.30925
0.027038001 0.14315 0.22747
0.029536 0.1415 0.22768
0.093171999 0.14772999 0.30684999
0.093239002 0.14906999 0.308
0.042564001 0.091233 0.23439001
0.091571003 0.14771999 0.30318999
0.075552002 0.14808001 0.29841
0.074901 0.14685 0.29763001
0.074215002 0.14623 0.30037001
0.073872 0.14567 0.29971001
0.039678998 0.096464999 0.22921
0.042431001 0.15109 0.22357
0.042971998 0.14999001 0.22384
0.042553999 0.10286 0.22774
0.040835999 0.10193 0.2281
0.042525999 0.10357 0.22708
0.071110003 0.10248 0.22865
0.070739999 0.10433 0.22767
0.072132997 0.10416 0.22786
0.088873997 0.18105 0.25997999
0.087871999 0.18269999 0.26032001
0.088707998 0.18277 0.26054999
0.082696997 0.091383003 0.24357
0.083502002 0.093248002 0.24247999
0.084631003 0.092542 0.24372
0.069012001 0.15366 0.23980001
0.068373002 0.15173 0.24067
0.070491001 0.15061 0.24007
0.069117002 0.14864001 0.23748
0.083659999 0.10504 0.23683
0.084169 0.10586 0.23815
0.086052001 0.10475 0.23848
0.086970001 0.14821 0.30844
0.086685002 0.14861 0.30976999
0.042426001 0.091779001 0.23446
0.065998003 0.17347001 0.22588
0.066581003 0.17422999 0.22565
0.066113003 0.17363 0.226
0.088106997 0.17444 0.26343
0.088963002 0.17447001 0.26330999
0.086972997 0.17245001 0.26499
0.077422999 0.10578 0.23298
0.076196 0.10448 0.23254
0.07739 0.1061 0.23177999
0.049309 0.17256001 0.23695
0.038272999 0.10013 0.23088001
0.039675001 0.097152002 0.22951999
0.043926001 0.16825999 0.22762001
0.045717999 0.16642 0.22859
0.044936001 0.10332 0.22551
0.080779999 0.14426 0.28273001
0.08123 0.14380001 0.28242001
0.082475998 0.14426 0.28457001
0.083353996 0.14394 0.2841
0.079095997 0.14424001 0.28431001
0.076670997 0.14364 0.28342
0.077143997 0.14444999 0.28257999
0.074428998 0.14372 0.28485
0.039834999 0.10075 0.22954001
0.041297 0.10089 0.23026
0.073291004 0.14401001 0.28514999
0.028473999 0.14483 0.22807001
0.029516 0.14364 0.2277
0.030873001 0.13609 0.22638001
0.031686999 0.13573 0.22643
0.029524 0.11677 0.23498
0.030967001 0.11805 0.23431
0.038063001 0.10225 0.23001
0.033213001 0.061815999 0.25988001
0.032381002 0.061794002 0.26165
0.035441 0.063980997 0.26183
0.05579 0.17125 0.23549999
0.054228 0.17202 0.23497
0.043361001 0.095666997 0.22793999
0.08828 0.14793999 0.3089
0.037650999 0.1074 0.22698
0.038782999 0.10616 0.22585
0.039687999 0.10457 0.22742
0.034788001 0.15318 0.22869
0.034341 0.155 0.22832
0.041492 0.094090998 0.2349
0.040927 0.092543997 0.23389
0.042036999 0.091188997 0.23386
0.07903 0.16718 0.26491001
0.076410003 0.16598 0.26320001
0.077049002 0.16559 0.26197001
0.11897 0.11644 0.29390001
0.1164 0.11767 0.29293001
0.11632 0.1187 0.29473999
0.11285 0.17904 0.21486001
0.11369 0.18167 0.2123
0.11336 0.18008 0.21325999
0.042523 0.14559001 0.22407
0.042677 0.14799 0.2237
0.042688999 0.14598 0.22338
0.042941999 0.10997 0.22529
0.044353999 0.1106 0.22583
0.044002 0.10814 0.22519
0.093938999 0.14851999 0.3098
0.093363002 0.14867 0.30741999
0.10474 0.197 0.20703
0.10328 0.19667999 0.20705
0.067383997 0.15871 0.25323001
0.067704998 0.15918 0.25479999
0.067479998 0.15798 0.25440001
0.089729004 0.14849 0.30337
0.070110999 0.15897 0.23594999
0.071635999 0.15992001 0.23574001
0.072944 0.15955999 0.23678
0.029198 0.14657 0.22976001
0.028851001 0.14471 0.22789
0.075857997 0.14791 0.29973999
0.076540999 0.14708 0.29854
0.088078 0.14741001 0.29385999
0.084531002 0.14606 0.29383999
0.031353999 0.14837 0.22792999
0.032412998 0.14634 0.22618
0.072292998 0.14386 0.28477001
0.076343998 0.10741 0.23081
0.077815004 0.10706 0.23208
0.038648002 0.098356001 0.23187999
0.039855 0.096699998 0.23003
0.039425999 0.095573999 0.23097999
0.068820998 0.14878 0.23534
0.068441004 0.14927 0.23511
0.067661002 0.15112001 0.23585001
0.089411996 0.18278 0.25938001
0.077780999 0.097640999 0.23308
0.076847002 0.099297002 0.23218
0.077771001 0.099459998 0.23174
0.057158999 0.13706 0.22431
0.057978 0.1383 0.22597
0.056102 0.13632999 0.22484
0.069647998 0.14311001 0.28542
0.092794001 0.092885002 0.25586
0.093374997 0.093226001 0.25690001
0.093246996 0.092526004 0.25885999
0.042672001 0.15603 0.22485
0.043120999 0.15455 0.2254
0.037971999 0.16343001 0.22837999
0.039094001 0.16333 0.22667
0.055335 0.12813 0.22824
0.053564999 0.12800001 0.22823
0.054811999 0.13067 0.22745
0.069767997 0.14322001 0.28288001
0.11724 0.18776999 0.21511
0.027721999 0.14614999 0.22897001
0.028135 0.14606 0.22770999
0.067890003 0.14297999 0.28529
0.085065998 0.14667 0.29308999
0.076673999 0.14749999 0.29846999
0.079207003 0.14714999 0.29908001
0.048739001 0.090147004 0.23045
0.051332001 0.090163998 0.22978
0.051173002 0.089391999 0.23198999
0.099725999 0.11523 0.25904
0.098256998 0.11577 0.25951999
0.099090002 0.11744 0.25973001
0.044259999 0.15601 0.22589999
0.040472999 0.13684 0.2244
0.039228 0.13691001 0.22323
0.039133999 0.13914999 0.22267
0.039962001 0.13039 0.22543
0.040520001 0.13150001 0.22541
0.048843 0.17200001 0.23514
0.047804002 0.17178001 0.2358
0.093089998 0.14798 0.31013
0.088647999 0.14782999 0.30935001
0.093484998 0.14737 0.31044
0.084904999 0.1485 0.29890001
0.083167002 0.14624 0.29872
0.082845002 0.149 0.30032
0.10267 0.18175 0.27427
0.10198 0.18201999 0.27513999
0.10236 0.18099999 0.27410001
0.043662 0.10828 0.22576
0.044089001 0.10609 0.22586
0.068830997 0.15202001 0.23625
0.066724002 0.15255 0.23598
0.096409 0.14571001 0.30667999
0.094866998 0.14812 0.30636001
0.096982002 0.14733 0.30682999
0.096295998 0.14628001 0.30871001
0.038989 0.13028 0.22429
0.040897999 0.12604 0.22926
