# .PCD v0.7 - Point Cloud Data file format
VERSION 0.7
FIELDS x y z
SIZE 4 4 4
TYPE F F F
COUNT 1 1 1
WIDTH 1482
HEIGHT 1
VIEWPOINT 0 0 0 1 0 0 0
POINTS 1482
DATA ascii
0.11328 0.081928998 -0.033656999
0.11313 0.081770003 -0.034309998
0.15087999 0.035057999 0.0075789001
0.15242 0.040578 -0.0056607001
0.10468 0.061230998 -0.0044121998
0.045441002 0.078070998 0.078286998
0.045262001 0.079507001 0.077238999
0.045827001 0.078626998 0.077473998
0.049920999 0.044204 0.049290001
0.049038999 0.043272 0.051546998
0.047869999 0.044489998 0.049566999
0.025559001 0.041652001 0.051504001
0.025707999 0.039779998 0.050551001
0.067841001 0.082928002 0.043712001
0.1076 0.035103001 -0.026032001
0.10853 0.034993 -0.026494
0.096304998 0.045021001 0.00058356998
0.095900998 0.044472001 -0.00060967001
0.15301 0.041645002 -0.0068915002
0.11622 0.065663002 -0.025327999
0.060525 0.076906003 0.034136001
0.084656999 0.088209003 0.030525001
0.13648 0.10165 -0.063704997
0.13609999 0.10189 -0.062591001
0.10584 0.079728 -0.016949
0.10564 0.080259003 -0.017676
0.087274998 0.064323999 0.028387999
0.09702 0.044576999 -0.0093339998
0.097152002 0.043651 -0.0097482
0.031022999 0.054338001 0.058279999
0.030440999 0.051162001 0.056042999
0.031182 0.051564999 0.055813
0.10615 0.066078 -0.0036472001
0.10536 0.065070003 -0.0038433999
0.079135999 0.076194003 0.022135001
0.079894997 0.075754002 0.021482
0.040293999 0.084986001 0.086934
0.039478999 0.085010998 0.087986998
0.12085 0.077702999 -0.054786999
0.12074 0.077872999 -0.053440001
0.11048 0.082098 -0.028976001
0.11147 0.082529001 -0.02768
0.14681 0.037360001 0.022182001
0.14605001 0.037423 0.022670999
0.14783999 0.037418999 0.022053
0.068391003 0.091908999 0.039032999
0.061023001 0.046762001 0.042408999
0.059020001 0.046305999 0.042417999
0.05926 0.047035001 0.041673001
0.062091999 0.047548998 0.042481001
0.060800999 0.047593001 0.041531
0.01901 0.033617001 0.051885001
0.10784 0.10148 -0.010456
0.11124 0.070514001 -0.022062
0.11416 0.083015002 -0.037726998
0.11382 0.082215004 -0.037386
0.064873002 0.073986001 0.028674001
0.10928 0.098587997 -0.021098001
0.094645001 0.055581 -0.0010995
0.095783003 0.055707999 -0.0011812
0.096247002 0.055764001 -0.0010595
0.032356001 0.044275001 0.042660002
0.041081 0.11742 0.10411
0.089997001 0.037645001 -0.027401
0.089481004 0.092028998 0.032297
0.10333 0.10817 -0.0077959001
0.12244 0.10305 -0.043037999
0.12192 0.10204 -0.042475998
0.12274 0.10347 -0.041824002
0.093649 0.059831999 0.0024848999
0.099494003 0.074043997 0.019716
0.10727 0.075340003 -0.0040437002
0.11226 0.095338002 -0.016331
0.042491999 0.067642003 0.078769997
0.042032 0.066624999 0.078726001
0.15846001 0.043790001 0.0037110001
0.15855999 0.043834999 0.0019797999
0.15872 0.043945 0.0039025999
0.054402001 0.073935002 0.041437
0.082006 0.084973 0.026027
0.081667997 0.083889 0.024994999
0.10967 0.073133998 -0.021769
0.10971 0.072584003 -0.02179
0.039554998 0.041639999 0.026019
0.040739998 0.040552001 0.026647
0.089511998 0.042943999 -0.0046323999
0.10766 0.098582998 -0.017485
0.10769 0.098706 -0.015848
0.10685 0.099927999 -0.016158
0.046517 0.062570997 0.064938001
0.046411 0.062360998 0.065145999
0.095826998 0.091101997 0.036591999
0.15593 0.043790001 0.0069408999
0.15425999 0.045414001 0.0066200998
0.15396 0.044945002 0.0082863998
0.11175 0.082053997 -0.028406
0.111 0.082782 -0.029376
0.12872 0.11542 -0.043845002
0.12846 0.11542 -0.043026
0.12899999 0.11523 -0.043540001
0.11389 0.11944 -0.028553
0.11319 0.11801 -0.028058
0.12781 0.051911 -0.010918
0.12696999 0.051103 -0.011967
0.11883 0.11145 -0.040452
0.11765 0.11133 -0.039213002
0.13556001 0.096626997 -0.064631
0.096648 0.077797003 0.020785
0.096729003 0.077413 0.021313
0.11656 0.084454 -0.039296001
0.048760001 0.066050999 0.041007999
0.047038 0.083605997 0.079516001
0.040006001 0.10372 0.10215
0.039639 0.10322 0.10013
0.079700999 0.078759998 0.022604
0.11078 0.050604999 -0.0039074998
0.11057 0.050326999 -0.0044804001
0.1081 0.070216998 -0.018765001
0.067130998 0.059645001 0.030252
0.067272 0.060557999 0.0298
0.16993999 0.038127001 -0.011864
0.16937 0.037797999 -0.012773
0.11411 0.11104 -0.038686998
0.11568 0.10931 -0.038995001
0.068043999 0.058354001 0.030766999
0.068888001 0.058929 0.031762
0.081929997 0.062965997 0.0033443
0.082549997 0.062785998 0.0039150999
0.12839 0.092010997 -0.042282999
0.12899999 0.091280997 -0.042153999
0.081853002 0.063694999 0.033151001
0.043425001 0.049343001 0.045297001
0.044688001 0.048326999 0.045676999
0.15652999 0.040282998 -0.016914001
0.065774001 0.093947001 0.042633999
0.096965 0.087360002 0.026889
0.097007997 0.087719999 0.026641
0.11599 0.087718002 -0.040132001
0.11707 0.087829001 -0.040732998
0.040119998 0.081101999 0.091353998
0.039949 0.081862003 0.089176998
0.030265 0.046167001 0.049013
0.029363999 0.046555001 0.048119999
0.028375 0.046379998 0.049164001
0.12759 0.080852002 -0.059324998
0.065026999 0.055798002 0.03215
0.12277 0.048923999 -0.0083389003
0.12212 0.048822999 -0.0083986996
0.15159 0.045378 0.0084849
0.094371997 0.061586998 0.031316001
0.095348001 0.062167998 0.030618999
0.094917998 0.061207 0.031831998
0.12384 0.064917997 -0.026755
0.060033001 0.052313998 0.035402
0.10988 0.075117998 -0.022856001
0.11074 0.064710997 -0.019659
0.054189 0.069016002 0.076837003
0.054811001 0.069429003 0.077895999
0.098144002 0.043407999 -0.012605
0.10204 0.10732 -0.0097524999
0.10287 0.10684 -0.010983
0.085588001 0.041754 0.057213999
0.085510999 0.043400999 0.058125
0.12219 0.079296 -0.050811
0.12187 0.072567999 -0.060676999
0.089147002 0.041214 0.050829001
0.089905001 0.039912999 0.049856
0.11515 0.072353996 -0.04073
0.052634999 0.044769 0.047775999
0.051656 0.046083 0.047894001
0.12049 0.073462002 -0.056736
0.1207 0.073788002 -0.056474
0.12097 0.074253999 -0.058240999
0.041712001 0.1081 0.099301003
0.043102998 0.10841 0.098829001
0.024708999 0.039303999 0.044378001
0.12247 0.11559 -0.050278999
0.10723 0.098585002 -0.018607
0.10805 0.10016 -0.020284001
0.1285 0.051183 -0.0084597003
0.12797999 0.051587 -0.0088371998
0.039581001 0.050425 0.048374001
0.041219 0.048317 0.048277002
0.039765 0.048409 0.048007999
0.079722002 0.066862002 0.024901999
0.079227999 0.066689998 0.024862001
0.0502 0.046112001 0.047285002
0.092849001 0.041981 0.062061999
0.092623003 0.042362999 0.062829003
0.057202999 0.076838002 0.039884999
0.057337001 0.076080002 0.039570998
0.055358 0.076355003 0.040782001
0.060823999 0.054005999 0.033353999
0.060989 0.054572001 0.03297
0.03672 0.086126998 0.093335003
0.039595999 0.049991 0.048156999
0.039391 0.048992999 0.047334
0.038952 0.049743 0.048955001
0.11258 0.089708999 -0.031916998
0.12001 0.10439 -0.05579
0.11954 0.10386 -0.055893
0.093469001 0.062162001 0.0037110001
0.095462002 0.061457999 0.0030223001
0.11522 0.062424999 -0.021139
0.12612 0.091160998 -0.047782999
0.12497 0.090885997 -0.046280999
0.049507 0.060279001 0.039340001
0.10991 0.086392 -0.0077025001
0.11173 0.085901 -0.0069996002
0.11177 0.086887002 -0.0080644004
0.089321002 0.041857999 0.051631998
0.087109998 0.041072 0.050489001
0.088316999 0.042011999 0.050485998
0.059106 0.083534002 0.042810999
0.12499 0.086741 -0.045472998
0.12491 0.085680999 -0.046514001
0.047141999 0.060325999 0.043283001
0.046689998 0.060440999 0.043705001
0.046842001 0.060573999 0.044328999
0.10759 0.1203 -0.0088847
0.10814 0.12171 -0.0099298004
0.08439 0.033386 0.00044209001
0.11984 0.10108 -0.059117001
0.11953 0.10243 -0.059409
0.11984 0.10098 -0.060008001
0.11952 0.096381001 -0.047632001
0.15215001 0.040736999 -0.0034504
0.032003 0.052283999 0.061087999
0.031171 0.052733 0.060811002
0.11267 0.12041 -0.029097
0.1158 0.049451999 -0.0061786999
0.13905001 0.11428 0.00042451001
0.028279001 0.043855 0.042571999
0.026931001 0.04321 0.044394001
0.10418 0.081595004 0.022103
0.097891003 0.061138 0.0020681999
0.097127996 0.060256001 0.0013672
0.037822001 0.10232 0.10238
0.11043 0.10551 -0.022856001
0.111 0.10359 -0.023046
0.093043998 0.062786996 0.033007
0.091916002 0.062537998 0.033617001
0.093301997 0.062675998 0.032205001
0.024901999 0.039556 0.042121001
0.037850998 0.086645998 0.093984999
0.083039999 0.089502998 0.033504002
0.083636001 0.090278998 0.033047002
0.089491002 0.039471 0.050174002
0.046209 0.064712003 0.067117997
0.066007003 0.054016002 0.034359999
0.089791 0.089892998 0.031191001
0.089954004 0.089240998 0.030871
0.049555998 0.065426998 0.038121998
0.11125 0.087621003 -0.019688999
0.099556997 0.063216999 0.0023955
0.10807 0.087554999 -0.021459
0.084559001 0.09234 0.035365
0.051993001 0.075494997 0.082929
0.051498 0.076283999 0.081173003
0.050871 0.076545 0.082909003
0.049265001 0.046282001 0.047364999
0.049596 0.043086 0.052792002
0.048554 0.042452998 0.053261001
0.059597 0.049963001 0.037808001
0.088509001 0.039636001 -0.010388
0.039797999 0.050577998 0.049164001
0.040467001 0.051429 0.048576001
0.055523999 0.066128001 0.031451002
0.12047 0.071622998 -0.06594
0.11289 0.055658001 -0.014217
0.11499 0.056136001 -0.013365
0.11388 0.05641 -0.012778
0.095289998 0.058178 0.011404
0.11461 0.086177997 -0.041120999
0.11477 0.078682996 -0.036143001
0.087272003 0.081773996 0.02169
0.086649999 0.079103999 0.022708001
0.071284004 0.036968 0.083394997
0.10238 0.039421 -0.020943001
0.13294999 0.099944003 -0.063546002
0.059553001 0.066788003 0.028298
0.058648001 0.068731003 0.029811
0.10704 0.037438001 -0.019151
0.10695 0.038725 -0.018789999
0.086310998 0.042424001 0.058354001
0.1337 0.081189997 -0.043838002
0.13336 0.081178002 -0.044774
0.13462 0.092359997 -0.042642001
0.13510001 0.092807002 -0.043152001
0.031061999 0.044257 0.040286001
0.032274 0.044041999 0.041322999
0.043843001 0.11214 0.097452
0.043065999 0.11294 0.098701
0.12138 0.1088 -0.058387998
0.10861 0.047887001 0.0079568001
0.10851 0.047610998 0.0060668001
0.040314 0.11643 0.1028
0.12519 0.064902 -0.026675001
0.10618 0.063762002 -0.017553
0.089234002 0.055004001 0.0053027002
0.089015 0.055108 0.0039043999
0.031626001 0.043093 0.030412
0.031296 0.042794 0.028968999
0.12531 0.1064 -0.042552002
0.12419 0.10696 -0.041765001
0.12617999 0.10663 -0.041072998
0.11512 0.10167 -0.017212
0.11402 0.10049 -0.01647
0.11484 0.10043 -0.016899999
0.10912 0.055429999 -0.0090095
0.088381998 0.039623 -0.0097289002
0.11165 0.070662998 -0.025374001
0.022403 0.036702 0.045906
0.021849001 0.036747999 0.045791
0.065077998 0.051263001 0.038966
0.063877001 0.049957 0.038504001
0.063672997 0.051185999 0.038070001
0.10855 0.091499001 -0.012757
0.10754 0.091550998 -0.01114
0.10896 0.090994999 -0.012588
0.080436997 0.037578002 0.062479999
0.080761001 0.037475001 0.061827
0.11681 0.046579 -0.00013202
0.11013 0.059052002 -0.01368
0.10961 0.059425 -0.01298
0.12225 0.097672999 -0.065578997
0.12154 0.099133 -0.064924002
0.12179 0.099505 -0.065324999
0.14556 0.044718001 0.011996
0.14673001 0.044206001 0.010338
0.097716004 0.086301997 0.023118
0.14884 0.035758 0.012139
0.14861999 0.036968 0.011239
0.044388 0.057282001 0.048563
0.086331002 0.045372002 -0.00048834999
0.086522996 0.046509001 -0.0015097
0.086972997 0.045857999 -0.0023179001
0.091394998 0.042137999 -0.013269
0.12416 0.087428004 -0.045499999
0.12359 0.088519998 -0.044622
0.10947 0.092762001 -0.023762999
0.071250997 0.093406998 0.040729001
0.098654002 0.061335001 0.0021587
0.099133 0.061744001 0.0022682999
0.10566 0.035222001 -0.026597001
0.10671 0.034874 -0.026198
0.10501 0.034798998 -0.025311001
0.10999 0.083765998 0.018839
0.11022 0.082576998 0.01935
0.10922 0.082676001 0.020377001
0.044806998 0.056963999 0.043432999
0.093731999 0.042985 0.059585001
0.11126 0.047667999 -0.0028225
0.1115 0.049465999 -0.0049724998
0.077376999 0.060162999 0.036773
0.038674001 0.052141 0.050085999
0.041600998 0.067975998 0.083003998
0.032747 0.035890002 0.018708
0.12497 0.063130997 -0.026201
0.094697997 0.069072999 0.019478001
0.096418999 0.069187 0.019618001
0.13138001 0.057631999 -0.016240001
0.1301 0.057243001 -0.016744999
0.072368003 0.085741997 0.033054002
0.095045 0.054609001 -0.0011824
0.071093 0.057776 0.034710001
0.10459 0.092468001 -0.013459
0.10629 0.093580998 -0.015062
0.090360001 0.049474001 -0.0021716999
0.096472003 0.056940999 -0.00070173998
0.097329997 0.056988001 -0.0010189
0.095879003 0.043547001 -0.016396999
0.096542999 0.043012999 0.06134
0.038575999 0.034977999 0.017357999
0.025571 0.041483998 0.049713999
0.11701 0.071119003 -0.030127
0.10799 0.056770999 -0.010927
0.1092 0.057824999 -0.010959
0.036713 0.044452999 0.048757002
0.11279 0.062550001 -0.022562999
0.11824 0.079484999 -0.035386
0.11763 0.079409003 -0.036192998
0.13178 0.11424 -0.056719001
0.030586001 0.048158001 0.049392
0.030359 0.048822999 0.048824001
0.1005 0.086654998 0.023613
0.093225002 0.079374 0.022291999
0.093791999 0.081886999 0.022152999
0.085734002 0.042883001 0.059115998
0.026689 0.040358 0.040591002
0.13007 0.082399003 -0.058805998
0.12914 0.081130996 -0.059092
0.13022 0.082681999 -0.059982002
0.047001 0.091679998 0.079705998
0.046992 0.092848003 0.080858998
0.072811998 0.034435999 0.077981003
0.074904002 0.034961998 0.077731997
0.074143998 0.034223001 0.078160003
0.097277001 0.060469002 0.023182999
0.070382997 0.071200997 0.025698001
0.042505 0.078203 0.080073997
0.11209 0.054225001 -0.0087238997
0.11073 0.054166999 -0.0090758
0.074432001 0.03946 0.072586
0.073528998 0.040169999 0.072414003
0.16007 0.040943999 -0.012716
0.15970001 0.038922999 -0.012326
0.087353997 0.036357 0.046305001
0.087424003 0.037377998 0.046698
0.13101 0.071703002 -0.058963999
0.13136999 0.070536003 -0.060456
0.046471 0.088601999 0.074720003
0.091531001 0.089409001 0.040849
0.091402002 0.089435004 0.040353999
0.10899 0.076936997 0.017101999
0.10905 0.077872001 0.017407
0.12181 0.075494997 -0.055984002
0.11905 0.083472997 -0.046964999
0.10282 0.050000001 0.0018992
0.10312 0.050903 0.0025863999
0.055952001 0.079081997 0.046608001
0.1109 0.077923 -0.024298999
0.11064 0.078296997 -0.026136
0.12972 0.056682002 -0.015636001
0.12999 0.056777999 -0.015486
0.12899999 0.055976 -0.016643001
0.040385 0.074542999 0.082748003
0.041081 0.072511002 0.083893999
0.027633 0.034421001 0.023603
0.027651999 0.035512 0.023305001
0.080999002 0.040610999 0.063832998
0.074932002 0.087347999 0.035642002
0.026218999 0.040008001 0.042164002
0.11314 0.059340999 -0.016408
0.11123 0.061133001 -0.017341999
0.11216 0.060352001 -0.017511001
0.054556999 0.044543002 0.051208999
0.076816998 0.059672002 0.0381
0.075227 0.058958001 0.037248999
0.040483002 0.097736999 0.08862
0.04025 0.096694998 0.089054003
0.086508997 0.044206001 -0.0028287
0.085896999 0.042523999 -0.0010004001
0.10897 0.071249999 -0.019219
0.12352 0.11471 -0.051041
0.050035 0.067365997 0.04885
0.097423002 0.084913 0.024946
0.049371999 0.086057 0.083558001
0.050494999 0.086655997 0.082983002
0.049688 0.087370001 0.082548
0.15183 0.040739 -0.01292
0.1521 0.039496999 -0.012699
0.090140998 0.043113001 0.058176
0.033052001 0.036687002 0.022740999
0.094636001 0.044369001 -0.0095063997
0.14781 0.035953999 0.016508
0.1267 0.072039001 -0.059136
0.074405998 0.040220998 0.070014998
0.11643 0.092915997 -0.043099999
0.11708 0.094639003 -0.042598002
0.11939 0.067308001 -0.02775
0.082887001 0.043384999 0.064025
0.040256001 0.093169004 0.088077001
0.039675999 0.092534997 0.088609003
0.1142 0.048689999 -0.0042873998
0.089645997 0.042208001 -0.019574
0.090651996 0.042270001 -0.018616
0.10205 0.11018 -0.0084907003
0.098727003 0.058178 -0.00055802002
0.097129002 0.058380999 7.9402002e-05
0.097813003 0.058525998 0.00053073
0.043421999 0.060105 0.067101002
0.10467 0.1029 -0.015779
0.10511 0.10296 -0.015347
0.10509 0.037075002 -0.018102
0.10589 0.038426999 -0.018567
0.10347 0.065915003 0.0066427998
0.041928999 0.057821002 0.070271
0.039868001 0.10497 0.10648
0.11536 0.11598 -0.031676002
0.052079 0.068644002 0.039545
0.050248999 0.068256997 0.039469998
0.051150002 0.067538999 0.03861
0.1463 0.040188 0.0089969998
0.14688 0.041862998 0.0098551
0.10859 0.055909999 -0.0071735
0.10784 0.054961 -0.0063159
0.11353 0.087291002 -0.041432001
0.1141 0.088988997 -0.040259
0.11407 0.088009 -0.040978
0.032460999 0.042045999 0.029274
0.10888 0.075747997 0.016189
0.10497 0.068945996 0.01138
0.13224 0.11449 -0.055881999
0.12162 0.098587997 -0.066753998
0.087471001 0.035248999 -0.00052189
0.1172 0.079740003 -0.045867
0.029890001 0.051541001 0.056214999
0.051755 0.064997002 0.035078999
0.050742999 0.064538002 0.035712998
0.10669 0.069170997 0.0040477002
0.092295997 0.036805999 0.043180998
0.091219001 0.036933001 0.042895999
0.082377002 0.043191001 0.065904997
0.10998 0.078138001 -0.021774
0.088510998 0.035468999 -0.0095448
0.087724999 0.036697999 -0.0090416996
0.13097 0.11012 -0.061071001
0.12843999 0.10972 -0.060869999
0.12749 0.11417 -0.051677
0.12729 0.11539 -0.053196002
0.11165 0.047141001 0.0020532
0.11103 0.047284 0.0015574
0.15260001 0.039299998 -0.0045326999
0.035718001 0.049972001 0.049936999
0.038879 0.10103 0.10314
0.10274 0.036575001 -0.029994
0.10347 0.036389001 -0.029335
0.075622998 0.034210999 0.075709999
0.075286001 0.033507999 0.076030999
0.092785001 0.070694998 0.020230001
0.10444 0.11574 -0.011138
0.15329 0.046482999 0.014478
0.036348 0.10371 0.10966
0.1028 0.078051999 0.019281
0.088618003 0.094745003 0.035142001
0.090627998 0.094247997 0.03461
0.076557003 0.090424001 0.036019001
0.13215999 0.072385997 -0.065200001
0.13252001 0.073232003 -0.064751998
0.053746 0.073340997 0.045449
0.049435001 0.034956999 0.023083
0.050106 0.035665002 0.023783
0.13223 0.10097 -0.065550998
0.057755001 0.05345 0.035592001
0.055535 0.053583 0.035491999
0.059374001 0.066537999 0.030036001
0.11109 0.046275001 0.0036084999
0.1054 0.091320001 0.028659999
0.064958997 0.050907001 0.039700001
0.064309999 0.050607 0.039322
0.10608 0.079268001 -0.016132999
0.096942 0.064285003 0.02142
0.051589001 0.075328998 0.077333003
0.050976999 0.074279003 0.076880001
0.086285003 0.039011002 -0.0035409001
0.085773997 0.038913 -0.0024661
0.059845999 0.059351001 0.031643
0.058467999 0.060871001 0.031330001
0.059432 0.060497001 0.031567998
0.066781998 0.080929004 0.03218
0.066114999 0.080536 0.031571001
0.065742001 0.080505997 0.033004001
0.11723 0.11196 -0.037618998
0.14688 0.038288999 0.011448
0.089741997 0.052042 -0.00050138001
0.092113003 0.053043 -0.00068375003
0.039928999 0.091279998 0.086292997
0.11556 0.074582003 -0.044100001
0.11724 0.075625002 -0.043850001
0.10166 0.034497 -0.027781
0.14762001 0.036812 0.0088504003
0.066947997 0.088026002 0.041489001
0.07237 0.034809999 0.077767
0.11681 0.071207002 -0.040828001
0.081977002 0.083733998 0.024681
0.083867997 0.044232 0.070345998
0.082428001 0.045026001 0.069118001
0.098118 0.088119999 0.027566999
0.098350003 0.088127002 0.028557001
0.10112 0.088969998 0.027999001
0.12257 0.098594002 -0.068449996
0.057755999 0.078341998 0.047426
0.058346 0.080076002 0.046914998
0.11615 0.088900998 -0.038307
0.083587997 0.041104998 0.060063001
0.11102 0.098529004 -0.024271
0.047745001 0.087548003 0.075135998
0.1214 0.081378996 -0.050595
0.11338 0.10813 -0.021907
0.097216003 0.066444002 0.020466
0.096073002 0.0656 0.021207999
0.15109999 0.040344 -0.00017167001
0.12015 0.11198 -0.042011
0.16982999 0.039901 -0.00097887998
0.038577002 0.042495999 0.034364998
0.036518998 0.042998001 0.034697998
0.037085 0.043327 0.036393002
0.14834 0.043389 0.0058900001
0.14843 0.042304002 0.0072396002
0.057700001 0.066830002 0.029521
0.058401 0.066987 0.030035
0.1164 0.10509 -0.031603999
0.11662 0.1052 -0.033133
0.11818 0.10458 -0.033824999
0.040268 0.10127 0.094489001
0.070208997 0.09093 0.041361
0.069131002 0.090887003 0.040311001
0.069261 0.090464003 0.041588999
0.10921 0.081166998 -0.025297999
0.11078 0.080695003 -0.025804
0.097152002 0.043099001 -0.018593
0.096715003 0.042539999 -0.018355999
0.055103 0.052104 0.037354998
0.10678 0.064829998 -0.013906
0.041898001 0.040167999 0.034446999
0.044732001 0.058476999 0.048287999
0.045127999 0.085059002 0.078116
0.044411 0.082933001 0.078515001
0.044652998 0.083259001 0.078171998
0.068063997 0.092555001 0.038879
0.04417 0.10385 0.088118002
0.12288 0.080812998 -0.048556
0.040082 0.098116003 0.090475
0.040072002 0.098187 0.089937001
0.13869999 0.12008 -0.00161
0.13876 0.11885 -0.0015488
0.13917001 0.11978 -0.0020162
0.12937 0.058208 -0.018172
0.10233 0.087793 0.026577
0.086246997 0.042856999 0.065656997
0.047747001 0.074577004 0.073968001
0.15628999 0.039055999 -0.018561
0.078533001 0.03929 0.064782001
0.11522 0.10426 -0.031177999
0.038513001 0.083757997 0.088745996
0.03867 0.085229002 0.089341
0.038513999 0.084572002 0.089130998
0.1178 0.072508998 -0.049603
0.096162997 0.064818002 0.020253001
0.097010002 0.065729 0.021433
0.10472 0.11201 -0.0068223001
0.10401 0.11105 -0.0066513
0.10276 0.036084998 -0.030754
0.047469001 0.084241003 0.075649999
0.095064998 0.080182999 0.022523999
0.096353002 0.079328001 0.021979
0.095954001 0.053787999 -0.0024705001
0.096987002 0.05435 -0.0015525999
0.1086 0.087383002 -0.025629999
0.038927 0.094740003 0.091620997
0.039321002 0.094091997 0.092107996
0.046870001 0.066950999 0.069022998
0.12479 0.077918001 -0.053626999
0.12728 0.077150002 -0.054334
0.041271001 0.095518 0.10154
0.13353001 0.072105996 -0.055326
0.12415 0.070220999 -0.061597001
0.12293 0.071925998 -0.062553003
0.087752998 0.075257003 0.02163
0.10505 0.069426 0.013364
0.11405 0.10951 -0.020014999
0.11971 0.075645 -0.034644
0.11943 0.074671 -0.033640999
0.046636999 0.043857001 0.049660999
0.080444999 0.087986 0.033140998
0.043021999 0.056984 0.065407
0.043570999 0.057263002 0.067394003
0.058885001 0.078546003 0.038102999
0.16881999 0.038697001 -0.012295
0.16895001 0.037748002 -0.01364
0.044208001 0.058555 0.065255001
0.12448 0.088799998 -0.048911002
0.12599 0.088936999 -0.050212
0.11203 0.059501 -0.015860001
0.11207 0.060192 -0.016628001
0.1066 0.11156 -0.01211
0.084639996 0.075250998 0.021566
0.084867999 0.075861998 0.021877
0.076260999 0.085382998 0.031422999
0.075416997 0.084923998 0.029708
0.063483998 0.077715002 0.030484
0.089606002 0.052960999 -0.00013594
0.12896 0.066923998 -0.060502999
0.12986 0.068186998 -0.060676999
0.11122 0.097200997 -0.022683
0.10193 0.092202 0.031159
0.093557 0.093502 0.032558002
0.093607001 0.093459003 0.034145001
0.10618 0.052737001 -0.0025104
0.039597999 0.10612 0.09448
0.039866 0.10595 0.094800003
0.031151 0.047911 0.049754001
0.082093999 0.043779001 0.066174001
0.069147997 0.085082002 0.043299001
0.068777002 0.086526997 0.042304002
0.067501001 0.086482003 0.042654999
0.018645 0.033094998 0.053040002
0.13327999 0.10858 -0.058775
0.093350001 0.078074001 0.02114
0.092848003 0.078093998 0.020888999
0.066996999 0.073049001 0.025937
0.045108002 0.055034 0.042566001
0.055029001 0.063368998 0.032715
0.042815998 0.049931999 0.046459999
0.062740996 0.075470001 0.031583998
0.060529999 0.072337002 0.031059001
0.088768996 0.033392001 -0.028070999
0.087508 0.034035999 -0.028769
0.047332 0.061877999 0.057406001
0.047711998 0.063482001 0.056779001
0.12540001 0.075608 -0.052251
0.12497 0.074499004 -0.053025
0.095697999 0.057730999 0.00034999999
0.095412999 0.058584001 0.0010866
0.066908002 0.054928001 0.034212999
0.056894999 0.069458 0.033066001
0.049658999 0.086080998 0.082396999
0.12017 0.049571 -0.0093748998
0.052340001 0.063249998 0.033812001
0.047944002 0.051591001 0.043437
0.046383001 0.051290002 0.044691
0.046505 0.052848998 0.044091001
0.1049 0.039606001 -0.023731999
0.10379 0.0381 -0.023464
0.10437 0.039069999 -0.02373
0.1046 0.078634001 0.019406
0.15974 0.043832999 -0.0026705
0.067372002 0.093640998 0.03898
0.11327 0.093622997 -0.030239999
0.11209 0.093937002 -0.028791999
0.11256 0.094269 -0.029558999
0.12219 0.092114002 -0.042885002
0.093360998 0.061058 0.0029925001
0.093560003 0.061436001 0.0037628999
0.078428999 0.092474997 0.039462999
0.12279 0.096202999 -0.051314998
0.12183 0.096758001 -0.051932
0.12177 0.096151002 -0.051150002
0.1168 0.095238999 -0.045129001
0.12244 0.051226001 -0.011167
0.04273 0.048886001 0.048184998
0.086742997 0.043056998 0.062194001
0.12384 0.10601 -0.042433999
0.070628002 0.036623999 0.077710003
0.10488 0.051956002 0.00029585001
0.1043 0.052958999 -0.00036134999
0.11892 0.11135 -0.048486002
0.12031 0.11067 -0.048955999
0.10725 0.063362002 -0.017015001
0.10925 0.059225 -0.012533
0.048452001 0.067734003 0.066743001
0.15163 0.038221002 -0.012529
0.15169001 0.038329002 -0.014262
0.04476 0.036958002 0.024737
0.045380998 0.038559999 0.026249999
0.050108999 0.066776998 0.038968001
0.049881998 0.067658 0.040344
0.066555001 0.088615 0.041207001
0.067768998 0.088349 0.041414998
0.10453 0.072339997 0.016442001
0.063832998 0.086292997 0.043565001
0.17312001 0.037284002 -0.0051183002
0.11529 0.095321998 -0.041329999
0.11455 0.093547001 -0.040575001
0.10436 0.091168001 -0.010726
0.12292 0.11222 -0.051676001
0.080417 0.03545 0.0088739004
0.093020998 0.077062003 0.020664001
0.044332001 0.061962001 0.069550999
0.044985 0.061960999 0.069476999
0.11117 0.085582003 -0.029391
0.089801997 0.056616001 0.0075959
0.085022002 0.040747002 0.055829
0.085496001 0.041001 0.054156002
0.050767999 0.076122001 0.083621003
0.10969 0.057854999 -0.012708
0.081832998 0.074041001 0.021491
0.091192998 0.047006998 -0.0027792
0.12716 0.055404 -0.015844001
0.12668 0.054271001 -0.015169
0.12657 0.054922 -0.016008001
0.029201001 0.038458999 0.033647999
0.026911 0.037868999 0.034711
0.064290002 0.054000001 0.032944001
0.065288998 0.055027001 0.033376001
0.030045999 0.041140001 0.03105
0.093952 0.067766003 0.02139
0.096106 0.068102002 0.019856
0.080089003 0.045299999 0.069992997
0.080149002 0.044969998 0.070468001
0.12643 0.082395002 -0.052579001
0.12603 0.080661997 -0.054053999
0.10946 0.083890997 0.020331001
0.10845 0.083866 0.020316999
0.041102 0.041761 0.029291
0.16413 0.037905 -0.012672
0.11095 0.10698 -0.014793
0.067299999 0.082676999 0.032929
0.16003001 0.036584001 -0.0097906003
0.13571 0.10831 -0.056759998
0.1356 0.10795 -0.055838998
0.10921 0.072566003 0.0036102
0.10779 0.071703002 0.0039066998
0.022144999 0.033583 0.045453999
0.022872999 0.033968002 0.045357
0.046704002 0.088146001 0.073427998
0.041085999 0.076856002 0.085426003
0.042257 0.076160997 0.086437002
0.10138 0.053846002 -8.0332997e-05
0.1001 0.052568998 -0.00039475999
0.10011 0.053311002 -0.00089462003
0.047577001 0.10833 0.086448997
0.047375001 0.10007 0.087087996
0.047855999 0.099320002 0.087980002
0.1029 0.036945 -0.031456001
0.10164 0.035792001 -0.031474002
0.10223 0.035004001 -0.032641001
0.13202 0.10937 -0.058494002
0.088097997 0.057610001 0.0043497998
0.064502999 0.063862003 0.028046999
0.047463998 0.11255 0.080992997
0.048657998 0.071750998 0.069403
0.048489999 0.071359001 0.068779998
0.046744 0.10294 0.088643
0.046378002 0.10164 0.088596001
0.096460998 0.044268001 -0.010072
0.098187998 0.040288001 -0.022429001
0.13361999 0.098030999 -0.063031003
0.11243 0.10911 -0.019664001
0.11318 0.10849 -0.018820001
0.060755 0.078336999 0.046450999
0.060267001 0.079497002 0.04603
0.058658 0.077799998 0.046220999
0.12605 0.11571 -0.054731999
0.12712 0.11506 -0.055470001
0.12579 0.11484 -0.055275001
0.032155 0.038741998 0.023879999
0.031571001 0.038727 0.022933001
0.13366 0.10813 -0.057571001
0.10252 0.10544 -0.010449
0.10323 0.10666 -0.012271
0.079746999 0.088891998 0.034869
0.078256004 0.087897003 0.033893999
0.043802999 0.068542004 0.075195998
0.12619001 0.065936998 -0.056035999
0.12738 0.065820001 -0.057016999
0.12755001 0.066064999 -0.055840001
0.047274999 0.065112002 0.065300003
0.099368997 0.09245 0.032125
0.077211998 0.074442998 0.023505
0.16500001 0.036749002 -0.01096
0.11047 0.066143997 -0.019905001
0.10982 0.066836998 -0.020143
0.1156 0.046914 -0.0017465
0.096391998 0.058414999 0.00017258
0.04978 0.050296001 0.042056002
0.049853999 0.049623001 0.041864999
0.039799999 0.036224999 0.017828999
0.038654 0.036433 0.016045
0.039512001 0.036095999 0.016466999
0.057459999 0.076366 0.037478998
0.12044 0.090884998 -0.043088999
0.061896998 0.07339 0.029297
0.065149002 0.050836001 0.039214
0.10137 0.053973 -0.001168
0.10356 0.054226998 -0.0011687001
0.10285 0.052370999 -0.0001025
0.094336003 0.052501999 -0.0011695999
0.13304 0.096625999 -0.055725999
0.029165 0.051812999 0.055953
0.040863998 0.087259002 0.085533999
0.13614 0.10092 -0.063390002
0.1365 0.099528 -0.062249999
0.13677999 0.099601999 -0.063849002
0.10619 0.11504 -0.0098491004
0.17821001 0.035971001 -0.0066244002
0.043037001 0.055562001 0.048797
0.042192001 0.054065 0.047945
0.11706 0.083310999 -0.041859999
0.10903 0.089440003 -0.014388
0.10919 0.067345999 -0.018666999
0.067491002 0.083297998 0.033500999
0.043054 0.041965 0.050641999
0.094584003 0.063279003 0.028805001
0.093745999 0.063249998 0.028728999
0.094883002 0.063578002 0.027762
0.15173 0.045598999 0.0057679
0.15110999 0.044489 0.0034729999
0.12384 0.10669 -0.062735997
0.060729001 0.058416001 0.031075001
0.059881002 0.057844002 0.032104999
0.09025 0.034837 -0.020556999
0.089771003 0.035324998 -0.020612
0.091209002 0.034772001 -0.021980001
0.10696 0.077881001 -0.0023539001
0.044833001 0.058718 0.050044999
0.044555999 0.057666998 0.049237002
0.11353 0.078602999 -0.033454999
0.11274 0.078896001 -0.032864001
0.02746 0.050483 0.057429999
0.027858 0.048531 0.058026001
0.045391999 0.05782 0.059673
0.044543002 0.058451001 0.057806
0.030197 0.034354001 0.043915
0.029128 0.034499999 0.045051001
0.027956 0.035746999 0.043896001
0.085832998 0.033904999 0.0026092001
0.046980001 0.064631999 0.065132
0.11125 0.070270002 -0.026225001
0.10056 0.092537001 0.030439001
0.11204 0.078363001 -0.028795
0.10521 0.062284 -0.0047096
0.10518 0.061336 -0.0044109998
0.11906 0.10372 -0.040970001
0.041978002 0.11194 0.10133
0.041873001 0.11145 0.10246
0.065035 0.060651999 0.029343
0.079894997 0.063396998 0.032772001
0.11606 0.11208 -0.033688001
0.11528 0.11215 -0.032221001
0.11417 0.11207 -0.033266999
0.052122999 0.069747001 0.048872001
0.051015999 0.068567999 0.049336001
0.10441 0.058013 -0.0021746
0.047313001 0.050282001 0.044103999
0.048110999 0.091728002 0.080623999
0.047199 0.092565998 0.081431001
0.1192 0.10094 -0.055404998
0.11956 0.10259 -0.055470999
0.11893 0.10213 -0.056954
0.16467001 0.041726001 -0.0047342
0.087387003 0.090374999 0.032901999
0.092924997 0.043776002 -0.0056423
0.094424002 0.043806002 -0.0045925998
0.094286002 0.044027001 -0.0065803002
0.14595 0.037289999 0.018578
0.14587 0.035794001 0.021049
0.024986999 0.034049999 0.053378999
0.024084 0.034961 0.053305998
0.024134001 0.033054002 0.053302001
0.10787 0.073862001 -0.0024963
0.10596 0.074499004 -0.00064195
0.10706 0.074492 -0.00090054999
0.12857001 0.11212 -0.048808999
0.048861001 0.064755 0.040158998
0.049892001 0.06357 0.039172001
0.17366 0.038899999 -0.0031240999
0.089166999 0.038651001 -0.025505999
0.027178001 0.037827998 0.036405001
0.12614 0.065558001 -0.058052
0.084338002 0.034982 0.064704001
0.047975998 0.11143 0.083131999
0.0995 0.063690998 0.014033
0.099582002 0.064236 0.014836
0.094838001 0.044268999 -0.0065191002
0.095348001 0.043582998 -0.0047395001
0.11816 0.048202001 -0.0050289002
0.11926 0.087967999 -0.043423001
0.11851 0.086291999 -0.044298001
0.049168002 0.095399998 0.085212
0.049212001 0.095068999 0.085924998
0.1116 0.071199 -0.025472
0.087343 0.042730998 -0.0039575999
0.086754002 0.042374998 -0.0034795001
0.1309 0.055870999 -0.014272
0.030060999 0.034607001 0.033911999
0.10381 0.10597 -0.0088721002
0.10552 0.066398002 -0.016959
0.037551001 0.087682001 0.090940997
0.037911002 0.086579002 0.089732997
0.037289001 0.086786002 0.091164
0.073191002 0.063910998 0.027314
0.072033003 0.062527001 0.027008999
0.069794998 0.034386002 0.078546003
0.063527003 0.066757999 0.027721001
0.064113997 0.066483997 0.027672
0.051796 0.068347 0.038566999
0.10545 0.073518001 0.017138001
0.1065 0.074608997 0.016731
0.064861998 0.074248001 0.026541
0.065162003 0.075070001 0.027906001
0.106 0.055153001 -0.0032374
0.10612 0.055392001 -0.0048690001
0.047844 0.052926999 0.042217001
0.072530001 0.070736997 0.025359999
0.11093 0.088601001 -0.028786
0.056092001 0.078217998 0.047031999
0.071052998 0.088172004 0.036920998
0.071326002 0.088001996 0.035886999
0.092033997 0.092969 0.032908
0.15659 0.044810999 -0.0025472001
0.1576 0.044923 -0.0011144
0.11408 0.11085 -0.020248
0.040720999 0.10402 0.097445004
0.044139002 0.044899002 0.047922
0.039379999 0.035681002 0.01455
0.11659 0.10087 -0.017186999
0.12049 0.074750997 -0.046089001
0.086728998 0.072493002 0.021193
0.052103002 0.071512997 0.052738
0.044537 0.068034999 0.074680999
0.065039001 0.081546001 0.034223001
0.064980999 0.081198998 0.034837
0.11284 0.08258 -0.030981001
0.11045 0.085248001 -0.0068492
0.1106 0.084955998 -0.0062317001
0.11046 0.085878998 -0.0076385001
0.10826 0.083702996 -0.0072165998
0.12037 0.063772999 -0.026377
0.10451 0.074693002 -0.018141
0.11101 0.080921002 0.017924
0.10469 0.070626996 -0.015732
0.10454 0.070349999 -0.017282
0.093653001 0.042835001 0.061448
0.049284998 0.035546001 0.025466001
0.048525002 0.034708001 0.025717
0.10684 0.11162 -0.016019
0.094825 0.092866004 0.031645
0.12397 0.10777 -0.062608004
0.086005002 0.036059 -0.028820001
0.053955998 0.066436999 0.033863001
0.1164 0.065899 -0.025785999
0.11512 0.06752 -0.026663
0.044406999 0.098015003 0.082788996
0.044321999 0.098805003 0.082734004
0.096175998 0.083265997 0.023102
0.094607003 0.083094001 0.024598001
0.034125999 0.038164001 0.022105001
0.033946998 0.038334001 0.022980999
0.022236001 0.037957001 0.047022
0.12167 0.071220003 -0.065637998
0.042376999 0.065442003 0.075788997
0.055546999 0.071589001 0.054885998
0.055973999 0.072442003 0.054051001
0.054384999 0.071834996 0.053991999
0.12234 0.095642999 -0.069081999
0.020778 0.033698 0.045511
0.11774 0.072117999 -0.051215
0.11818 0.074029997 -0.050965
0.094701 0.034536999 -0.021228001
0.094881997 0.034313001 -0.020732
0.094379999 0.034967002 -0.021552
0.10742 0.10442 -0.017028
0.10829 0.10413 -0.018580999
0.1101 0.085813999 -0.0078208996
0.10865 0.084688 -0.0086837998
0.12179 0.094531998 -0.046337999
0.1219 0.093661003 -0.045773
0.10435 0.10704 -0.013854
0.11947 0.076255001 -0.042966999
0.12249 0.088871002 -0.043540001
0.031507999 0.04408 0.041414998
0.029665001 0.042803999 0.041287001
0.062633999 0.050760999 0.037301999
0.060793001 0.05043 0.037424002
0.062199 0.050852999 0.036353
0.11888 0.1021 -0.054311998
0.1184 0.10374 -0.055596001
0.045620002 0.042504001 0.050740998
0.084458001 0.035530999 0.057387002
0.038288999 0.037462998 0.016274
0.048881002 0.085063003 0.078648999
0.048292 0.085478 0.076733999
0.056745999 0.080104999 0.043349002
0.056113001 0.079173997 0.043691002
0.046184 0.076741003 0.075603999
0.046500999 0.078429997 0.076205
0.10859 0.086153999 -0.025934
0.075939998 0.067547001 0.02452
0.076246999 0.067116 0.025041001
0.1071 0.076578997 1.0332e-05
0.10662 0.076181002 0.00093658001
0.10606 0.062348999 -0.0057588001
0.027713999 0.034185 0.038001999
0.091559 0.044158999 -0.0050106002
0.10648 0.034479 -0.022459
0.10722 0.034419999 -0.022645
0.10952 0.058796 -0.012881
0.14471 0.042378001 0.016401
0.14309999 0.04298 0.017736999
0.14342 0.042969 0.017137
0.11431 0.11021 -0.037742
0.078116 0.037372999 0.068070002
0.10182 0.034154002 -0.023286
0.10121 0.034790002 -0.024040001
0.10271 0.034251001 -0.023557
0.10451 0.073822998 0.016882
0.10322 0.07333 0.017301001
0.10878 0.036899999 -0.028005
0.10974 0.035562001 -0.027105
0.11725 0.093382001 -0.043915998
0.12522 0.066783004 -0.02791
0.123 0.065756001 -0.027802
0.081468001 0.084325001 0.025677999
0.11516 0.10181 -0.031638999
0.049993001 0.064988002 0.053451002
0.049357001 0.064727999 0.050492998
0.049373001 0.064635001 0.052606001
0.032449 0.042697001 0.029223001
0.033404998 0.042429999 0.029595001
0.032721002 0.042959001 0.02925
0.10806 0.073152997 0.0026654999
0.10783 0.073198996 0.0028462999
0.11515 0.082809001 0.015919
0.11516 0.083641 0.01523
0.045975 0.062042002 0.053784002
0.12785999 0.11521 -0.056871001
0.079020001 0.084693998 0.028076001
0.079448998 0.084329002 0.026498999
0.077968001 0.083871 0.026928
0.058414999 0.045150999 0.047136001
0.058782 0.045437001 0.048128001
0.056499999 0.044280998 0.046645999
0.035223 0.046735 0.048206002
0.12971 0.099430002 -0.066628002
0.13152 0.099898003 -0.065560997
0.074450999 0.037859 0.076573998
0.11675 0.096534997 -0.040539
0.048245002 0.096129999 0.088178001
0.048211999 0.097144999 0.088281997
0.15302999 0.045253001 0.0072316998
0.074219003 0.066866003 0.025739999
0.039103001 0.048317 0.047369
0.037735 0.048131999 0.048363999
0.10805 0.091440998 -0.014696
0.10142 0.079760998 0.021708
0.099165 0.079533003 0.021328
0.046932999 0.068850003 0.088992998
0.046675999 0.067235999 0.088482998
0.047076002 0.068060003 0.088890001
0.092779003 0.083901003 0.023466
0.12824 0.051378999 -0.010098
0.086286001 0.038282 0.0051299999
0.084980004 0.038655002 0.0054127998
0.086315997 0.037124 0.0063980999
0.12556 0.049646001 -0.0074975998
0.12387 0.049178999 -0.0075878999
0.047566999 0.061345998 0.057243999
0.10571 0.053746998 -0.0034276999
0.085738003 0.038919002 0.053743001
0.080159001 0.045315001 0.068806
0.15504999 0.040752001 -0.018238001
0.15528999 0.041221 -0.017085001
0.051667999 0.069076002 0.042603999
0.050900999 0.068901002 0.04174
0.034713998 0.043465 0.036226001
0.14692999 0.036734998 0.023530999
0.14559001 0.035558 0.023204001
0.11815 0.053142998 -0.011716
0.042987 0.095798001 0.084715001
0.033705 0.042319998 0.02709
0.13411 0.089726001 -0.039917
0.042233001 0.058061 0.077362001
0.041508 0.058676001 0.076590002
0.12168 0.098559 -0.067858003
0.089367002 0.041193001 -0.020295
0.10476 0.067739002 -0.017777
0.10478 0.068446003 -0.016922001
0.043705001 0.059094001 0.069256999
0.044695001 0.061616998 0.070248
0.11138 0.058752 -0.014768
0.019068001 0.035856001 0.053892002
0.083786003 0.062835 0.0027305
0.10322 0.10656 -0.013021
0.10409 0.10651 -0.013831
0.1035 0.10585 -0.012945
0.053206999 0.060253002 0.033675
0.044720002 0.054694001 0.046023998
0.12535 0.063564003 -0.052638002
0.12502 0.063887998 -0.053489
0.11507 0.090222001 -0.042578999
0.11637 0.091564998 -0.042436
0.13036001 0.070615001 -0.061749998
0.13056 0.066453002 -0.056386001
0.11483 0.085427999 -0.034145001
0.11384 0.086295001 -0.032315001
0.11431 0.086207002 -0.034125999
0.10785 0.049913999 -0.0018260001
0.10074 0.056304999 -0.0020669
0.10173 0.055424999 -0.00093967997
0.026768999 0.038904998 0.037227999
0.046725001 0.061675001 0.055148002
0.046889 0.062148001 0.054520998
0.046737 0.061514001 0.054662
0.043892998 0.11702 0.10188
0.047896001 0.093075998 0.080821
0.12789001 0.088477999 -0.051252998
0.10807 0.094994001 -0.015318
0.10916 0.095255002 -0.014624
0.15851 0.042149998 -0.0081856996
0.15899999 0.042973001 -0.0081687998
0.048886999 0.097841002 0.083430998
0.10602 0.093677998 -0.015782
0.046890002 0.10082 0.084169999
0.11838 0.10587 -0.039202999
0.11897 0.10621 -0.038663998
0.11913 0.1065 -0.039944001
0.044126999 0.12012 0.10251
0.041896999 0.11954 0.10221
0.10479 0.070090003 -0.017893
0.10576 0.068939999 -0.018823
0.10576 0.068272002 -0.017795
0.12369 0.098826997 -0.062706999
0.11925 0.047534999 -0.0017015
0.025 0.044346001 0.051716998
0.050483 0.068428002 0.046967
0.070046999 0.034878999 0.085422002
0.069954999 0.036711998 0.085093997
0.11329 0.082483001 -0.036874
0.033964001 0.052406002 0.052880999
0.030769 0.052166998 0.052607998
0.12892 0.083181001 -0.046831999
0.12917 0.085270002 -0.046015002
0.066209003 0.086648002 0.041719001
0.048528999 0.056859002 0.040693
0.10568 0.064962 -0.01756
0.10773 0.065793999 -0.01699
0.10778 0.067387 -0.018908
0.095058002 0.036742002 -0.030152
0.096501 0.037048999 -0.029003
0.1082 0.095430002 -0.015162
0.028561 0.053628001 0.061577
0.068102002 0.065660998 0.026547
0.12626 0.11077 -0.060784999
0.12571 0.10974 -0.060242999
0.04228 0.062275 0.074767999
0.054954 0.074596003 0.039719
0.05491 0.075425997 0.040569
0.1171 0.098246999 -0.043258
0.064152002 0.064903997 0.028177001
0.053528 0.075240999 0.047501002
0.047947001 0.054823 0.041437998
0.086223997 0.052331999 0.0069021001
0.086043999 0.050918002 0.0083162999
0.086046003 0.052085999 0.0085918996
0.1243 0.061756998 -0.047029998
0.12366 0.063170001 -0.046937998
0.11419 0.1058 -0.017704001
0.11385 0.10582 -0.017673999
0.11386 0.10587 -0.016604999
0.057594001 0.072866999 0.032919999
0.057854 0.072402 0.031953
0.057369001 0.071383998 0.032042
0.15081 0.040552001 0.0012036
0.081588 0.062793002 0.036681999
0.036368001 0.042381 0.030230001
0.045377001 0.055987999 0.043187
0.084555998 0.087774999 0.030096
0.044585001 0.040979002 0.054357
0.043837 0.041234002 0.053238999
0.10218 0.057898998 -0.00090291002
0.11227 0.052118 -0.0072311
0.12226 0.084645003 -0.045060001
0.12371 0.085955001 -0.045232002
0.11159 0.092945002 -0.029105
0.16606 0.039834999 -0.0026427
0.16606 0.040929001 -0.0013352
0.12426 0.056169 -0.048128001
0.12805 0.067331001 -0.061291002
0.10734 0.11886 -0.0076470999
0.10738 0.11734 -0.0094390996
0.10772 0.11872 -0.0088187
0.11289 0.11803 -0.030311
0.13381 0.091767997 -0.041761
0.13369 0.092730001 -0.042043999
0.13411 0.093358003 -0.043191999
0.025776001 0.041793998 0.048163999
0.025343999 0.040931001 0.048675999
0.11159 0.095195003 -0.028517
0.063877001 0.057213001 0.03167
0.16696 0.039905 -0.0031782
0.12086 0.10752 -0.059083
0.047097001 0.10827 0.08461
0.046560999 0.10835 0.083655
0.047564 0.10934 0.084957004
0.061629999 0.048197001 0.040415999
0.061319001 0.049067002 0.040298
0.076996997 0.067725003 0.0241
0.076261997 0.067782 0.023703
0.12133 0.11064 -0.045008998
0.12179 0.11011 -0.045579001
0.040669002 0.052530002 0.048735999
0.13014001 0.075257003 -0.053061999
0.12878001 0.074311003 -0.053789999
0.12838 0.074882999 -0.053752001
0.038144 0.10409 0.10811
0.087901004 0.054492999 0.0050125001
0.10764 0.073090002 -0.00062365999
0.095564 0.043977998 -0.0073881
0.095339999 0.044775002 -0.0080640996
0.086170003 0.071322002 0.022585999
0.036467999 0.051782001 0.051716998
0.036494002 0.052211002 0.051054999
0.094727002 0.037154 -0.028764
0.12506001 0.081579 -0.049171999
0.12433 0.082652003 -0.050044
0.064842001 0.053073999 0.034789
0.063060999 0.052926 0.034347001
0.10729 0.094048999 -0.01761
0.082144998 0.080898002 0.023254
0.075401001 0.033953 0.078428999
0.12633 0.11112 -0.059354998
0.090861 0.042089999 0.058685001
0.092712 0.042241 0.059386
0.1101 0.072734997 -0.024016
0.077779002 0.091909997 0.03596
0.077734001 0.091122001 0.036373001
0.067409001 0.092272997 0.042158
0.066624001 0.091844998 0.041255001
0.11435 0.089896999 -0.04053
0.11384 0.091899998 -0.040332001
0.095625997 0.039639998 0.053978998
0.11068 0.089546002 -0.020558
0.11086 0.089583002 -0.020967999
0.079099 0.063008003 0.032189
0.078611001 0.062861003 0.032698002
0.10613 0.079945996 -0.020506
0.10601 0.080807 -0.020221001
0.11686 0.097002 -0.038028002
0.11781 0.097631998 -0.039248999
0.11542 0.084949002 -0.034322999
0.093381003 0.037337001 -0.027172999
0.11623 0.079273999 -0.043313
0.11611 0.081712 -0.041119002
0.11635 0.081231996 -0.042698
0.11452 0.091595002 -0.036424998
0.1146 0.092537001 -0.036109999
0.11587 0.091906004 -0.037416
0.13149001 0.11526 -0.053761002
0.091992997 0.070239 0.022502
0.041533999 0.12073 0.10167
0.11067 0.10837 -0.014144
0.11092 0.10914 -0.014408
0.11029 0.10808 -0.014191
0.11986 0.10267 -0.058239002
0.1189 0.10429 -0.059751
0.048073001 0.092473999 0.087183997
0.048062999 0.093385004 0.087461002
0.047355998 0.094122 0.087517001
0.10591 0.039000001 -0.024688
0.10612 0.038883001 -0.024077
0.11302 0.062268 -0.020501001
0.062613003 0.078363001 0.032563999
0.049389001 0.075281002 0.075406
0.10462 0.10374 -0.015838001
0.042718999 0.053973999 0.071941003
0.042383 0.053918999 0.070409998
0.042128 0.053867999 0.071154997
0.10369 0.053789001 -0.00080913003
0.15514 0.045161001 0.0053654001
0.15311 0.045182999 0.0059515
0.046849001 0.11149 0.085529
0.044433001 0.11181 0.085427001
0.095299996 0.066316001 0.022128001
0.095495999 0.067287996 0.022124
0.12522 0.090545997 -0.049006
0.12527999 0.090880997 -0.048317999
0.1274 0.090829998 -0.049137998
0.067938 0.035371002 0.084932998
0.058851998 0.074752003 0.035757001
0.081681997 0.044766001 0.071038999
0.12028 0.11245 -0.044537999
0.11091 0.086209998 -0.0068762
0.069700003 0.083959997 0.043526001
0.086592004 0.034109998 -0.0025851999
0.086254001 0.034641001 -0.00041558
0.11994 0.084698997 -0.047989
0.10573 0.11845 -0.0072690002
0.10706 0.11743 -0.0079955002
0.033624001 0.048781 0.049516
0.12172 0.056118 -0.017205
0.1214 0.055466 -0.016835
0.084862001 0.061168 0.0057247002
0.10026 0.083127998 0.023545001
0.099808998 0.085344002 0.023457
0.10105 0.085363999 0.023666
0.11916 0.072613001 -0.054972
0.041822001 0.078523003 0.087384
0.040240001 0.079540998 0.086244002
0.077289999 0.065266997 0.028255999
0.12883 0.084771998 -0.049787
0.10995 0.086634003 -0.011204
0.11046 0.085810997 -0.0124
0.10927 0.084834002 -0.010925
0.026947999 0.054203998 0.058970999
0.026760001 0.050944999 0.060162999
0.026371 0.052012 0.061721001
0.025681 0.051647 0.061181001
0.13586999 0.099339999 -0.065116003
0.063014999 0.048512001 0.040785
0.11889 0.070191003 -0.049617998
0.11834 0.071198002 -0.050271999
0.11908 0.070625998 -0.050622001
0.10395 0.10476 -0.014572
0.15034001 0.041676998 0.00075742003
0.070523001 0.056465998 0.035186999
0.12318 0.060488001 -0.050106
0.094651997 0.042838 -0.014703
0.043616999 0.055209 0.046585001
0.044241 0.10084 0.083255999
0.083410002 0.091834001 0.035868
0.12354 0.11134 -0.049516
0.069395997 0.035379 0.080407001
0.069766 0.035719 0.079765998
0.070592999 0.078946002 0.025611
0.11876 0.098227002 -0.052916002
0.11917 0.098094001 -0.054820001
0.11914 0.097680002 -0.052384
0.093641996 0.062698998 0.029967999
0.092635997 0.063490003 0.027466999
0.13146999 0.067009002 -0.055847
0.15628 0.043276001 -0.0074419999
0.11215 0.048921999 -0.0024635
0.11717 0.086356997 -0.041058
0.11797 0.086262003 -0.042679001
0.10924 0.10255 -0.020656999
0.057052001 0.077055998 0.048043001
0.058478002 0.077045001 0.047274999
0.029382 0.039407 0.029336
0.029144 0.038063001 0.029848
0.064695999 0.081477001 0.036175001
0.049044002 0.076454997 0.076242
0.046969 0.11397 0.081707999
0.047175001 0.1144 0.082750998
0.032090999 0.051266 0.056106001
0.042495999 0.1194 0.10326
0.042489 0.119 0.10428
0.099453002 0.043363001 -0.015138
0.1002 0.043241002 -0.015554
0.11509 0.090613 -0.037567001
0.13143 0.11448 -0.053281002
0.097883001 0.082386002 0.023665
0.098151997 0.065220997 0.020571001
0.027868999 0.042362999 0.040874999
0.026509 0.041002002 0.041754
0.086478002 0.062591001 0.037351001
0.087006003 0.062776998 0.036226001
0.087176003 0.062542997 0.036068998
0.047515001 0.094199002 0.080724001
0.11941 0.099179 -0.042181998
0.11765 0.1004 -0.044071
0.082483001 0.036934 0.0084873
0.081855997 0.037326999 0.010183
0.10474 0.068373002 0.011507
0.096620999 0.088809997 0.027969001
0.098177001 0.089156002 0.028343
0.080289997 0.042272002 0.064480998
0.081014998 0.041728001 0.064029999
0.12184 0.11327 -0.05466
0.12094 0.11248 -0.054595999
0.12322 0.10637 -0.041129999
0.12254 0.10644 -0.041765001
0.14754 0.034676999 0.020540001
0.14650001 0.034139998 0.021303
0.14844 0.034533001 0.019879
0.11875 0.075439997 -0.033746999
0.043963999 0.041770998 0.058442
0.063534997 0.054873999 0.032109998
0.063987002 0.056125998 0.032613002
0.055808999 0.048930999 0.041435
0.039338998 0.096313998 0.10262
0.12627 0.080228999 -0.056389999
0.13032 0.070361003 -0.061664999
0.041994002 0.055326998 0.07057
0.042688001 0.055114999 0.06927
0.11221 0.057399999 -0.015179
0.16717 0.038871001 -0.0082764002
0.16508 0.040034998 -0.0084314998
0.16881 0.037041001 -0.013449
0.17 0.036602002 -0.01355
0.041409001 0.061900001 0.079548001
0.041122999 0.042936999 0.049493
0.048471998 0.094705999 0.082355
0.12058 0.092532001 -0.044273
0.093460001 0.062858999 0.030118
0.093360998 0.062601 0.031133
0.12552001 0.072177 -0.057291999
0.096933 0.033758 -0.028734
0.13181999 0.072998002 -0.056382
0.036832001 0.040006001 0.025536999
0.087761 0.034947999 -0.0019656001
0.087220997 0.034485001 -0.00060750998
0.094058 0.034111999 -0.022876
0.075534001 0.039099 0.076347001
0.075181 0.040532999 0.077256002
0.090857998 0.041395999 -0.017666999
0.091360003 0.041758999 -0.017795
0.088970996 0.046845999 -0.0032827
0.090682998 0.04733 -0.0027417
0.046055999 0.091283001 0.093176
0.047393002 0.091649003 0.092331998
