# .PCD v0.7 - Point Cloud Data file format
VERSION 0.7
FIELDS x y z
SIZE 4 4 4
TYPE F F F
COUNT 1 1 1
WIDTH 1633
HEIGHT 1
VIEWPOINT 0 0 0 1 0 0 0
POINTS 1633
DATA ascii
0.20412 0.025115 0.11176
0.20446 0.024775 0.11078
0.11909 -0.040132001 0.17061999
0.1184 -0.040284999 0.16932
0.11966 -0.041303001 0.17027999
0.17005999 -0.0026366999 0.16479
0.17208 -0.0031051 0.16415
0.17005999 -0.0035816999 0.16411
0.17756 -0.052567001 0.12893
0.17649999 -0.052413002 0.12965
0.17642 -0.052209999 0.12883
0.18333 -0.048457 0.12126
0.18437 -0.047559001 0.12051
0.21589001 -0.016173 0.15482999
0.21469 -0.01564 0.15453
0.20263 -0.0042944001 0.15711001
0.22215 -0.037013002 0.13941
0.23124 0.024284 0.073151
0.23034 0.023664 0.073789001
0.23103 0.023429001 0.073572002
0.18993001 -0.047405999 0.1217
0.18846001 -0.048248 0.12155
0.21086 0.021524001 0.10481
0.2115 0.022671999 0.10282
0.24022 -0.040837001 0.14629
0.12328 -0.039953001 0.17411999
0.21084 -0.023502 0.15724
0.21058001 -0.022947 0.15733001
0.12858 0.029871 0.21689001
0.12948 0.031109 0.2155
0.20002 -0.049674001 0.10526
0.19998001 -0.047835 0.10537
0.16057 -0.015308 0.16665
0.15994 -0.014448 0.16641
0.15984 -0.015291 0.16692001
0.20895 -0.036603 0.15048
0.20138 0.016635999 0.10773
0.20046 0.017278999 0.10731
0.20082 0.017232999 0.10703
0.18177 -0.015595 0.16607
0.18005 -0.016457999 0.16593
0.23181 0.019340999 0.069798999
0.23247001 0.019252 0.068224996
0.23101 0.019525999 0.068905003
0.21314999 0.0030411 0.10881
0.21362001 0.0014788 0.10875
0.22535001 -0.016671 0.12994
0.22571 -0.017856 0.13082001
0.1344 -0.040668 0.17783999
0.13399 -0.041102 0.17730001
0.17467999 0.0052013998 0.15351
0.17346001 0.0052223001 0.15429001
0.19462 -0.011565 0.16622999
0.17914 -0.050965 0.11886
0.18025 -0.05235 0.11661
0.17936 -0.051437002 0.11813
0.22956 -0.032324001 0.13903999
0.18460999 -0.0026173 0.1652
0.18474001 -0.0023302 0.16448
0.18357 -0.0028762999 0.16520999
0.1654 0.0029334 0.15496001
0.1288 -0.0031663999 0.20269001
0.12743001 -0.0054051001 0.20361
0.12774 -0.0037306999 0.20311999
0.21719 -0.040702999 0.13691001
0.2191 -0.039032001 0.13709
0.2185 -0.039363999 0.1384
0.25233999 -0.043434002 0.13151
0.25251001 -0.042941999 0.12881
0.25187001 -0.042851001 0.13079999
0.17014 -0.0082136001 0.16658001
0.15948001 -0.0047136 0.15181001
0.15859 -0.0037998999 0.15188999
0.22429 -0.022976 0.14187001
0.23074999 -0.020777 0.12969001
0.23022 -0.019523 0.12849
0.22916 -0.019574 0.12941
0.22113 0.0062092999 0.10935
0.22108001 0.0044288998 0.1099
0.14382 -0.020614 0.20023
0.14427 -0.022705 0.20097999
0.22425 -0.015706999 0.12687001
0.2238 -0.015222 0.12647
0.23653001 0.016344 0.11573
0.16082001 -0.040908001 0.19249
0.24756999 -0.036486 0.14429
0.24738 -0.036995001 0.14453
0.24843 -0.036555 0.14402001
0.12162 -0.034410998 0.17005
0.12216 -0.034212999 0.17123
0.23393001 -0.0075539001 0.11062
0.23345 -0.0060775001 0.11006
0.23365 -0.0061519002 0.11002
0.17826 -0.043591999 0.18209
0.23425999 -0.029044 0.13978
0.23273 -0.029818 0.13975
0.13248 -0.045031 0.17251
0.13322 -0.046627 0.17156
0.24089 -0.053573001 0.14782999
0.24121 -0.051472999 0.14732
0.17194 -0.040360998 0.19031
0.19277 -0.052462 0.18194
0.19275001 -0.052227002 0.18133
0.21214999 -0.0081396 0.14351
0.20754001 0.010832 0.10417
0.20886 0.010375 0.10366
0.24946 -0.041783001 0.13695
0.24891999 -0.040665999 0.13664
0.25404999 -0.043345001 0.11874
0.25466999 -0.04369 0.11907
0.25411999 -0.043657001 0.11711
0.19056 0.0041979002 0.14871
0.19033 0.0048576999 0.14918
0.19011 0.0050698002 0.14975999
0.20378 -0.0020796 0.098425001
0.20486 -0.0022745 0.099274002
0.18145999 -0.0080851996 0.16761
0.18129 -0.0085119996 0.16665
0.19008 -0.047054999 0.18138
0.18819 -0.046698999 0.18221
0.13847999 0.015103 0.20076001
0.1389 0.01503 0.20118999
0.13850001 0.015463 0.19926
0.2071 -0.0071441 0.15694
0.20769 -0.0063065002 0.15659
0.16760001 -0.018691 0.16821
0.21977 0.024807001 0.077955
0.21989 0.023512 0.078506
0.22053 0.023637 0.076894
0.11456 -0.050321002 0.16311
0.11534 -0.050338 0.16491
0.11596 -0.050280999 0.16381
0.25095001 -0.043706998 0.13874
0.23212001 0.029485 0.095274001
0.23187999 0.029056 0.095487997
0.23117 0.0309 0.096240997
0.19727001 -0.044915002 0.10865
0.19594 -0.045189999 0.10962
0.15022001 -0.015701 0.16743
0.14937 -0.01602 0.16754
0.19915999 -0.032046001 0.15279
0.13596 0.0085215 0.20767
0.11819 -0.03438 0.17483
0.11908 -0.033785999 0.17575
0.23441 -0.015083 0.10648
0.23483001 -0.015476 0.10552
0.23429 -0.013976 0.10534
0.19675 -0.0011794 0.15866999
0.25400999 -0.051506002 0.13462999
0.25303 -0.050949998 0.13544001
0.25137001 -0.05218 0.13522001
0.15629999 -0.038869999 0.18595999
0.1567 -0.038385 0.18697
0.17541 0.0014312 0.1602
0.18647 -0.0017997 0.16339
0.18579 -0.0030165999 0.16475999
0.18601 -0.0030867001 0.16471
0.21871001 -0.014543 0.14881
0.19433001 -0.0092666 0.16591001
0.19309001 -0.0091642002 0.16569
0.18562999 -0.0018213 0.16407999
0.23536 0.030166 0.11941
0.21540999 -0.017200001 0.1551
0.15951 -0.040681001 0.19140001
0.23386 -0.021609001 0.12158
0.23470999 -0.021948 0.12119
0.15892 -0.028111 0.18471
0.15713 -0.029064 0.18386
0.2032 -0.013914 0.16258
0.26113999 -0.045164 0.12571999
0.26203999 -0.045212001 0.12498
0.25955001 -0.045058001 0.12478
0.20502 -0.0039336002 0.15343
0.1515 -0.042132001 0.17660999
0.17422 -0.019400001 0.16614
0.21683 0.021020999 0.094153002
0.20282 0.016934 0.10696
0.20036 0.017237 0.10688
0.20203 0.017108999 0.10613
0.24775 -0.037165001 0.14564
0.24627 -0.038022999 0.14658999
0.22033 0.01408 0.10698
0.21935 -0.033220999 0.14681999
0.20681 -0.038860999 0.14519
0.11797 -0.050384998 0.16248
0.18149 -0.01201 0.16597
0.18029 -0.012699 0.16674
0.18136001 -0.012648 0.16637
0.22376999 0.0093117999 0.10779
0.22302 0.0091305003 0.10765
0.22434001 0.0081609003 0.10835
0.14943001 -0.042001002 0.17975999
0.20698 -0.00046531999 0.13526
0.16685 0.003642 0.15462001
0.16644999 0.0041208998 0.15488
0.16748001 0.0050013 0.15396
0.19396999 -0.036362998 0.12970001
0.19645 -0.036628999 0.13
0.19571 -0.036125999 0.1302
0.12279 -0.036316998 0.17426001
0.15463001 -0.020538 0.17098001
0.17496 -0.0052548 0.16619
0.17546999 -0.0039708 0.16571
0.22852001 0.021336 0.075235002
0.11798 -0.054242 0.16288
0.11636 -0.054350998 0.16274001
0.11645 -0.053975001 0.16169
0.18221 -0.040217001 0.12768
0.21867 0.016969001 0.10959
0.12571999 -0.033466998 0.17145
0.12655 -0.033771001 0.17222001
0.20598 0.012817 0.10731
0.205 0.013281 0.10794
0.20514999 0.012803 0.10747
0.21620999 -0.040963002 0.13677
0.21614 -0.041894998 0.13728
0.21522 -0.041035999 0.13623001
0.22243001 0.014201 0.10678
0.22246 0.013184 0.10665
0.21738 0.024042999 0.083594002
0.19092999 -0.049586002 0.18328001
0.18982001 -0.049162 0.1829
0.23282 0.023809999 0.12235
0.24021 -0.051945999 0.14374
0.24076 -0.052774999 0.14476
0.2403 -0.051460002 0.14503001
0.21126001 -0.0067901001 0.14500999
0.23109999 0.020655001 0.085957997
0.23128 0.021201 0.084903002
0.22759999 -0.014867 0.1232
0.16417 -0.025002999 0.19111
0.16316999 -0.02619 0.18968
0.16392 -0.025299 0.19251999
0.22938 -0.017247999 0.12534
0.23052999 -0.016961001 0.1239
0.22846 -0.016682001 0.12396
0.22607 -0.011314 0.12079
0.22021 0.016964 0.1085
0.22085001 0.016744001 0.10724
0.24270999 -0.033921 0.14666
0.24168 -0.033858001 0.14614999
0.16774 -0.044312 0.19489001
0.16814999 -0.045378 0.19481
0.17163 -0.027045 0.15983
0.1709 -0.026815001 0.16143
0.17034 -0.027561 0.16022
0.17897999 -0.054118 0.12166
0.17994 -0.052685998 0.12283
0.16297001 -0.026582999 0.19267
0.16222 -0.025855999 0.19183999
0.16241001 -0.027085001 0.19259
0.21515 -0.0059425002 0.12049
0.21472999 -0.0055833999 0.12233
0.21456 -0.0058116 0.12236
0.18143 -0.048615001 0.12181
0.18137001 -0.049504001 0.12019
0.13861001 -0.0079380004 0.2033
0.22871999 0.025873 0.075778998
0.22689 0.024829 0.073849998
0.22682001 0.024805 0.076041996
0.16586 0.0039873002 0.1547
0.22277001 3.0897001e-05 0.11753
0.23267999 -0.021241 0.12349
0.20423 0.0064297998 0.10636
0.20327 0.0067158998 0.10554
0.20337 0.006846 0.10616
0.21654999 -0.026211999 0.15424
0.23125 0.017821999 0.11371
0.23174 0.019735999 0.113
0.23027 0.019525001 0.11347
0.13643 0.014721 0.20465
0.14128 -0.039039001 0.19021
0.13974001 -0.038683001 0.18949001
0.2342 0.015445 0.11919
0.13519999 -0.036176998 0.18574999
0.13423 -0.036747001 0.18595999
0.13352001 -0.035774 0.18533
0.20608 -0.034062002 0.15085
0.18200999 -0.012937 0.16753
0.18292999 -0.011773 0.16723
0.22768 0.026145 0.069544002
0.22674 0.027845001 0.068792
0.23176 -0.0017494 0.10991
0.23318 -0.0017432 0.10932
0.23187999 -0.0014013 0.11005
0.19983999 -0.026736001 0.15897
0.19949999 -0.027633 0.15773
0.13582 0.016316 0.20528001
0.1363 0.016858 0.20692
0.16231 -0.049913999 0.19812
0.16281 -0.049603999 0.19745
0.23776001 -0.042566001 0.14165001
0.24118 -0.048285 0.14235
0.22724999 -0.021026 0.13293999
0.22867 -0.022179 0.13293999
0.17619 -0.050425 0.12826
0.12867001 0.02764 0.21277
0.12915 0.026569 0.21160001
0.18283001 -0.038175002 0.11695
0.18200999 -0.040353999 0.11715
0.18189999 -0.038343001 0.11789
0.17226 0.0012908 0.15172
0.16768999 -0.033989999 0.19111
0.18188 0.0052915998 0.15183
0.13586999 -0.015527 0.19028001
0.13562 -0.01503 0.19036999
0.13646001 -0.01443 0.18962
0.18810999 -0.0088026999 0.16695
0.23416001 0.021632999 0.11671
0.20697001 0.025981 0.1036
0.14916 -0.036375001 0.19005001
0.14835 -0.037358999 0.18874
0.14985 -0.035716001 0.18798999
0.20489 -0.051153999 0.10159
0.22549 -0.033333 0.14221001
0.2255 -0.032393999 0.14161
0.23630001 -0.025558 0.13865
0.13977 -0.041173 0.18539999
0.13998 -0.041517999 0.18545
0.21044999 -0.0082104001 0.152
0.21218 -0.0081484998 0.15071
0.21094 -0.0074923998 0.14966001
0.15928 -0.032237999 0.19213
0.15931 -0.031707 0.19192
0.14663 -0.019686 0.19253001
0.14611 -0.019324001 0.19250999
0.15583 -0.0033851 0.15535
0.15679 -0.0033386 0.15412
0.12705 -0.047692001 0.17211001
0.18076999 -0.0217 0.16233
0.18237001 -0.022071 0.16213
0.21401 0.022295 0.10112
0.22642 0.022116 0.090788998
0.22698 0.021102 0.091261998
0.21843 0.017167 0.098338999
0.21785 0.015974 0.098647997
0.21826001 0.017022001 0.098039001
0.20832001 -0.0019064 0.1383
0.20862 -0.0029714 0.13873
0.18113001 -0.049157001 0.18748
0.18080001 -0.048726 0.18797
0.22079 0.017860999 0.097328
0.21366 -0.0020663999 0.11065
0.22750001 -0.0073317001 0.11356
0.22668999 -0.006304 0.11459
0.12642001 0.017206 0.21918
0.12676001 0.01654 0.21983001
0.24461 -0.028128 0.14285
0.24541 -0.026938001 0.14415
0.24489 -0.027333001 0.14452
0.15836 -0.036474001 0.19258
0.15825 -0.034931999 0.19215
0.15688001 -0.034878999 0.19209
0.12839 -0.045805 0.17412999
0.21456 -0.0060892999 0.12223
0.21546 -0.015942 0.15356
0.18537 -0.041416999 0.12886
0.19653 -0.044376999 0.10877
0.19679999 -0.043931998 0.10949
0.19984999 0.026552999 0.11016
0.19925 0.025443999 0.1096
0.1485 -0.033691999 0.19142
0.17900001 -0.0035732 0.16469
0.16507 -0.02843 0.16474
0.164 -0.028144 0.16563
0.19888 -0.012008 0.16500001
0.20043001 -0.010299 0.16452999
0.20027 -0.010736 0.16542999
0.19776 -0.048695002 0.11096
0.19691999 -0.047975998 0.11306
0.13529 0.023455 0.19682001
0.20393001 0.00012991 0.14229
0.18009 0.0019456 0.15926
0.17823 0.0020687999 0.15888999
0.17945001 0.0016567 0.16001
0.16080999 -0.023125 0.17129999
0.19563 0.0032021001 0.15185
0.19439 -0.020985 0.16263001
0.19298001 -0.02172 0.16319001
0.19122 -0.036291 0.13059001
0.23541 -0.023804 0.12373
0.23551001 -0.023163 0.12319
0.23417 -0.022802999 0.12433
0.24142 -0.029437 0.1432
0.17041001 -0.039005999 0.19016001
0.16908 -0.038417999 0.19080999
0.16988 -0.03757 0.19126999
0.19842 -0.045416001 0.10812
0.18941 -0.0077709998 0.16670001
0.21035001 -0.0066656 0.15266
0.21096 -0.0068931002 0.15174
0.18669 -0.023266001 0.16112
0.21236999 0.017043 0.10339
0.21142 0.018270999 0.10407
0.21097 0.016859001 0.104
0.21527 0.026459999 0.084866002
0.15620001 -0.034462001 0.1867
0.15628999 -0.035749 0.18753999
0.23297 0.025630999 0.091674
0.23162 0.026404001 0.093454003
0.20714 0.024582 0.10612
0.16511001 -0.023243001 0.16838001
0.16479 -0.025603 0.16981
0.16467001 -0.024718 0.16960999
0.14844 -0.024893001 0.18248001
0.14871 -0.024536001 0.18242
0.14815 -0.023526 0.18142
0.1433 -0.016930999 0.19757999
0.22554 -0.025388001 0.14173
0.18267 -0.0061093001 0.1664
0.21317001 -0.01643 0.1559
0.24147999 -0.049488999 0.14437
0.24176 -0.049263 0.14393
0.22288001 0.014765 0.10636
0.22536001 -0.023159999 0.14034
0.22582 -0.0244 0.1418
0.2291 0.012182 0.11102
0.2286 0.012503 0.11167
0.26280999 -0.048982002 0.12757
0.16145 -0.049704999 0.19627
0.22893 -0.013822 0.12016
0.22815999 -0.015232 0.12151
0.14358 -0.019539 0.20175999
0.14405 -0.017817 0.20103
0.1432 -0.018524 0.20130999
0.23748 -0.0050638001 0.10207
0.23659 -0.0039822999 0.10177
0.23604999 -0.0034302 0.10216
0.14058 -0.043051999 0.17852999
0.15948001 -0.012668 0.16618
0.15949 -0.011968 0.1656
0.22295 -0.0048457999 0.12125
0.13821 -0.011219 0.20536999
0.13821 -0.010314 0.2057
0.15749 -0.03348 0.19064
0.1577 -0.033360999 0.19059999
0.20258 0.024063 0.10761
0.20142999 0.024590001 0.10722
0.20968001 -0.022260001 0.15997
0.20998 -0.024146 0.15852
0.1665 -0.032554999 0.19323
0.18898 -0.025545999 0.15437999
0.18993001 -0.025376 0.15414999
0.24422 -0.047019001 0.14162
0.1674 -0.0020403001 0.16174001
0.13372 -0.0077999001 0.20551001
0.14889 -0.023542 0.19375999
0.14938 -0.02441 0.19306999
0.1479 -0.024339 0.19212
0.17783999 -0.010345 0.16689999
0.17678 -0.010339 0.16700999
0.17227 -0.0094970996 0.16738001
0.12997 -0.046689998 0.17239
0.23122001 -0.020857001 0.12951
0.23049 -0.020474 0.12910999
0.23051 -0.021856001 0.13074
0.17979001 -0.052016001 0.18743999
0.17978001 -0.052719999 0.18528
0.16852 -0.034175001 0.19301
0.16855 -0.033413999 0.19246
0.22227 0.018657999 0.095965996
0.22192 0.019874001 0.095547996
0.19615 0.0017999 0.15485001
0.19664 0.0012978 0.15448
0.16887 -0.00080848997 0.16086
0.16777 -3.5637e-05 0.16037001
0.14353 -0.015641 0.19577
0.14266001 -0.013674 0.19525
0.23578 0.030121 0.12205
0.23416001 0.031122999 0.12123
0.21823999 -0.020271 0.15008999
0.21788999 -0.018254001 0.15138
0.15597001 -0.022661 0.17216
0.15572 -0.023032 0.17244001
0.18125001 -0.043922 0.12232
0.18069001 -0.044844002 0.12071
0.13979 0.0096600996 0.19959
0.1397 0.01115 0.19847
0.22851001 -0.018515 0.12740999
0.23622 -0.027121 0.13988
0.2344 -0.028423 0.13954
0.23624 -0.028240001 0.13996001
0.20627999 -0.023676001 0.1592
0.20581999 -0.025153 0.15929
0.12345 -0.049148001 0.17091
0.12197 -0.048494 0.16998
0.16133 -0.025830001 0.18529999
0.15961 -0.027011 0.1849
0.20439 -0.038320001 0.14207999
0.16914 -0.040015001 0.19689
0.14048 -0.012305 0.20295
0.14048 -0.012795 0.20209
0.22533999 -0.019335 0.13401
0.22516 -0.018883999 0.13293
0.16383 -0.011473 0.16705
0.16441 -0.012848 0.16638
0.15260001 -0.0057204999 0.15727
0.15222 -0.0047009001 0.15823001
0.15279 -0.0046994998 0.15679
0.2323 -0.021228001 0.12910999
0.23252 -0.022328001 0.12705
0.23413 -0.018166 0.11745
0.23678 -0.040943 0.14111
0.23576 -0.040856998 0.14216
0.14774001 -0.041708 0.18054
0.15444 -0.036518998 0.18546
0.13366 -0.013659 0.20403001
0.13255 -0.012625 0.20374
0.13361999 0.011817 0.21176
0.22345001 0.0012063 0.11629
0.22392 0.00020598 0.11651
0.20541 -0.035459999 0.15029
0.20645 -0.035356 0.15007
0.26153001 -0.047532 0.12756
0.26249 -0.046348002 0.12732001
0.11128 -0.053264 0.16602001
0.11122 -0.05381 0.16609
0.11188 -0.053897999 0.1671
0.11294 -0.052955002 0.1674
0.11334 -0.052737001 0.16700999
0.15734001 -0.0048838998 0.16028
0.15668 -0.0052291001 0.1605
0.15116 -0.018332001 0.16953
0.2016 -0.024557 0.15977
0.15994 -0.049791001 0.19984999
0.15864 -0.049984001 0.20093
0.15917 -0.049963001 0.20153999
0.21534 -0.0048635998 0.11903
0.20805 -0.0042952001 0.15002
0.2089 -0.0058761002 0.15053
0.20435999 -0.0040500001 0.15553001
0.2032 -0.0029621001 0.15504
0.24109 -0.030878 0.13951001
0.24059001 -0.031025 0.13965
0.22093999 -0.014395 0.12676001
0.11985 -0.037928 0.17369001
0.13011 0.016457999 0.21861
0.13043 0.017098 0.21749
0.1619 0.0037421 0.15552001
0.16249 0.0037135 0.15487
0.20130999 0.03111 0.11166
0.23029999 0.019994 0.089305997
0.22537 0.026164001 0.070210002
0.22476999 0.024598001 0.068719
0.13293999 -0.0048851999 0.20717999
0.18537 -0.043347999 0.12601
0.18630999 -0.044445001 0.12624
0.2036 -0.027466999 0.15815
0.20407 -0.027473999 0.15703
0.18703 -0.053475998 0.11814
0.186 -0.052724998 0.11665
0.18598001 -0.051963001 0.11689
0.22881 0.013035 0.1095
0.12698001 0.015834 0.22519
0.12711 0.015444 0.22473
0.1812 -0.023438999 0.15933999
0.22396 0.021941001 0.097358003
0.22302 0.022072 0.097096004
0.22234 0.010208 0.10672
0.22778 0.027913 0.078984
0.22891 0.026152 0.078295
0.16967 0.0066844998 0.15627
0.17084 0.0055652 0.15543
0.17095999 0.0057156999 0.1549
0.211 0.022581 0.10236
0.21111999 0.024018999 0.10224
0.19819 -0.044270001 0.10385
0.19834 -0.044599999 0.10478
0.19903 -0.04527 0.10387
0.15861 -0.029359 0.18806
0.22634 -0.035275999 0.13861001
0.20338 -0.010319 0.16226999
0.20096999 -0.051398002 0.18014
0.12980001 -0.043200999 0.17460001
0.13038 -0.042748999 0.17451
0.18009 -0.018955 0.16514
0.12299 -0.049139 0.17136
0.21488 -0.041012 0.1371
0.21453001 -0.040624 0.13772
0.21245 -0.041430999 0.13761
0.16065 -0.051295001 0.19891
0.13529 -0.041000001 0.17964
0.22363 0.021655001 0.087472998
0.11978 -0.035420001 0.17022
0.23468 0.025553999 0.092855997
0.22009 -0.0033485999 0.11751
0.21995001 -0.0031018001 0.11796
0.19676 -0.022909001 0.16204999
0.19754 -0.023587 0.16147999
0.16427 0.0063415002 0.15621001
0.16385999 0.0063033998 0.15644
0.18889999 -0.047455002 0.18206
0.18952 -0.045680001 0.18034001
0.18996 -0.045899998 0.18155
0.22356001 -0.0145 0.12503999
0.22382 -0.014618 0.12559
0.21652 0.0060549998 0.10603
0.13350999 -0.0030811001 0.20756
0.13397001 -0.0020003 0.20687
0.19868 -0.050849002 0.10902
0.19812 -0.050310001 0.11055
0.19696 -0.051837999 0.11002
0.13575 -0.00056846999 0.20513
0.17046 -0.016852999 0.16733
0.17172 -0.017285001 0.16749001
0.18605 -0.049888998 0.12134
0.15955999 -0.0098583 0.16378
0.23288999 0.021072 0.085960999
0.22992 -0.016347 0.12334
0.18437 -0.049392998 0.12118
0.22282 0.0012300001 0.11503
0.13366 -0.029934 0.19415
0.21295001 0.030657999 0.088921003
0.23217 -0.01785 0.12003
0.23702 0.026766 0.071850002
0.23615 0.026616 0.070724003
0.14049999 -0.021057 0.20227
0.13516 0.010802 0.2093
0.25319001 -0.042939998 0.12766001
0.25345999 -0.043349002 0.12664001
0.25255999 -0.042344999 0.12604
0.18793 -0.010453 0.16723
0.23051 0.021238999 0.086850002
0.22935 0.020186 0.087457001
0.13196 0.024875 0.21144
0.13183001 0.025904 0.21024001
0.13203 0.025783001 0.2114
0.23853999 -0.022709999 0.13674
0.23826 -0.023142001 0.13764
0.23793 -0.023418 0.13755
0.17005 -0.027631 0.16226999
0.17008001 -0.02761 0.16269
0.20633 0.0022305001 0.10698
0.20564 0.0016971 0.10754
0.16769999 -0.047329001 0.19473
0.20437001 0.035709001 0.11046
0.21799 0.0078763003 0.10442
0.16166 0.0069595999 0.15508001
0.16216999 0.0058104 0.15549999
0.22194999 -0.0060067 0.1222
0.22036999 -0.0069145001 0.12376
0.19156 -0.022748999 0.16321
0.15716 -0.0067099002 0.16043
0.21886 0.024169 0.081210002
0.2176 0.024917001 0.083278
0.25442001 -0.046773002 0.13482
0.25398999 -0.045832001 0.13410001
0.25360999 -0.046528 0.13407999
0.25435001 -0.041894 0.11796
0.25303999 -0.042808 0.1162
0.25202999 -0.04276 0.11749
0.19812 -0.0020816 0.15714
0.19746 -0.00069338997 0.15831
0.22274999 0.017834 0.098038003
0.22284 0.017467 0.097650997
0.23413999 -0.020116 0.12069
0.20817 -0.051275998 0.097437002
0.20630001 0.020197 0.10742
0.20728999 0.019776 0.10676
0.20593999 0.020819001 0.10597
0.13687 -0.043568 0.18007
0.23389 -0.034894999 0.14538001
0.23372 -0.034207001 0.14406
0.23528001 -0.034869999 0.14395
0.21782 -0.014713 0.14888
0.2103 -0.015763 0.15887
0.20976 -0.014925 0.15977
0.11723 -0.033682998 0.17220999
0.24177 -0.029352 0.13827001
0.2429 -0.030884 0.13937999
0.23282 -0.012127 0.11328
0.23254 -0.011191 0.11183
0.25169 -0.051267002 0.13669001
0.13666999 -0.029408 0.19855
0.18072 -0.019219 0.16398001
0.18224999 -0.020072 0.1639
0.18233 -0.019474 0.16392
0.14687 -0.013036 0.16355
0.14602999 -0.012387 0.16218001
0.14565 -0.014173 0.16312
0.16987 -0.044089999 0.18550999
0.13940001 -0.0068851998 0.20296
0.22542 0.021517999 0.087820999
0.22517 0.021997999 0.087449998
0.22619 0.0018089 0.11441
0.21051 -0.027996 0.15607999
0.22127999 -0.017890001 0.1432
0.16629 -0.026695 0.19273999
0.1673 -0.025821 0.19392
0.16760001 -0.027248001 0.19326
0.19606 -0.023853 0.16064
0.19403 -0.023476999 0.16125999
0.23977 -0.026180999 0.14205
0.19566 -0.0015639 0.16101
0.19706 -0.001306 0.16032
0.23098999 -0.038093999 0.13646001
0.22503 -0.036991999 0.13636
0.22416 -0.037204999 0.13758001
0.22334 -0.037078999 0.13763
0.20994 -0.0080543002 0.15502
0.21212 0.028682999 0.091013998
0.17310999 -0.025769999 0.16203
0.20498 -0.0039432002 0.097029001
0.20474 -0.0034411 0.097966
0.20489 -0.0038679 0.095987998
0.17351 -0.022453999 0.16385999
0.22518 -0.027034 0.14322001
0.22464 -0.026334001 0.14439
0.22490001 -0.027938001 0.14501999
0.12927 -0.034564 0.17022
0.13095 -0.03393 0.17020001
0.22509 -0.029491 0.1432
0.22481 -0.028522 0.14424001
0.20415001 -0.0015456 0.1504
0.20317 -0.0011935 0.14964999
0.22142 -0.017377 0.14335001
0.23074 0.0065675001 0.10686
0.23063999 0.0071231001 0.10702
0.20768 -0.051516999 0.094419003
0.20725 -0.0030429 0.1129
0.20761999 -0.0037320999 0.11465
0.20787001 -0.0030412001 0.11483
0.16320001 -0.048886001 0.19489001
0.16448 -0.047913 0.19515
0.12894 0.028656 0.21195
0.24226999 -0.032088999 0.1415
0.13432001 -0.051943999 0.15143
0.12643 -0.00031736001 0.20736
0.12675001 -0.0024524999 0.20703
0.16219001 -0.039039001 0.19520999
0.18268 0.0026074999 0.15662999
0.14138 -0.041758001 0.18378
0.1401 -0.041416999 0.18433
0.13195001 -0.0057776999 0.20660999
0.13134 -0.0057068998 0.20573001
0.18219 -0.050778002 0.18657
0.18222 -0.051498 0.18685
0.18323 -0.051105 0.18652999
0.23518001 0.017467 0.11981
0.17555 -0.017681999 0.16676
0.16937999 -0.0049778 0.16543999
0.17158 -0.0034248 0.1655
0.2027 -0.011432 0.16301
0.25 -0.038651001 0.14063001
0.19807 0.0038755999 0.14893
0.19831 0.0035661 0.14737999
0.19853 0.0037295001 0.14771
0.16146 -0.015843 0.16771001
0.16259 -0.014988 0.16726001
0.16191 -0.014701 0.16772
0.23030999 -0.0051521999 0.11042
0.22888 -0.0043441998 0.11045
0.20372 0.012955 0.10427
0.13343 -0.044530001 0.17309
0.20352 -0.029874001 0.15522
0.20492999 -0.030909 0.15606
0.20437001 0.018229 0.11005
0.21749 -0.0015491 0.11595
0.24254 -0.050140999 0.14622
0.24162 -0.051135 0.14731
0.19385 -0.049231 0.11804
0.19345 -0.047828 0.11769
0.19359 -0.048455 0.11801
0.14413001 -0.036269002 0.19339
0.15606 -0.024527 0.17555
0.15623 -0.024862001 0.17471001
0.15485001 -0.024196999 0.17465
0.2105 0.02558 0.10301
0.24523 -0.025658 0.14309999
0.15333 -0.030724 0.18743999
0.1543 -0.030022001 0.18549
0.1559 -0.018648 0.16962001
0.237 -0.013135 0.1108
0.12560999 0.015366 0.22592001
0.12736 0.014491 0.22472
0.22734 0.0070826001 0.10854
0.1706 -0.0026952 0.16395999
0.17158 -0.0033594 0.16449
0.12796 0.020785 0.20913
0.17193 -0.040966999 0.19396
0.17031001 -0.041777 0.19405
0.24388 -0.031815 0.13542999
0.21654999 -0.0075988998 0.12081
0.22515 -0.026926 0.14059
0.22619 -0.028235 0.1402
0.23571 0.026376 0.068945996
0.23545 0.025501 0.070320003
0.22222 0.026936 0.071869999
0.22211 0.028210999 0.070298001
0.20099001 -0.010592 0.16373
0.147 -0.019839 0.17715
0.20547 -0.0027656001 0.15138
0.20651001 -0.0035836 0.14999001
0.20234001 0.016083 0.10715
0.21806 -0.039719999 0.13766
0.21604 -0.039788 0.13770001
0.16971 -0.002784 0.16401
0.17938 0.0060247998 0.1547
0.20136 -0.048273001 0.10324
0.16597 -0.032147001 0.19354001
0.18469 -0.040646002 0.12947001
0.16026001 -0.011012 0.16649
0.1217 -0.043460999 0.17388
0.24421 -0.053259999 0.14583001
0.24201 -0.053013001 0.14593001
0.24242 -0.052559 0.1437
0.2006 -0.011476 0.16453999
0.20044 -0.011187 0.16345
0.2013 0.024421001 0.11208
0.20014 0.024467001 0.11129
0.23015 0.00035590999 0.11353
0.22935 0.00039083001 0.11311
0.22965001 -0.0013357 0.11299
0.22315 0.015037 0.10431
0.22143 0.015398 0.10353
0.22079 0.015663 0.10495
0.12986 -0.0056461999 0.20129
0.13491 -0.037393998 0.18457
0.13494 -0.037053999 0.18301
0.19027001 0.0060904999 0.15093
0.22368 -0.037574999 0.13739
0.22358 -0.038534999 0.13651
0.22382 -0.037594002 0.13661
0.1991 -0.050547 0.18085
0.23047 0.017509 0.11619
0.23014 0.016867001 0.11682
0.13407999 -0.00078289001 0.20771
0.13469 -0.0013567 0.20631
0.22201 -0.015562 0.14009
0.22029001 -0.015709 0.14131001
0.22085001 -0.01691 0.14134
0.23469 -0.016541 0.10804
0.23537999 -0.016385 0.10859
0.23616 -0.020446001 0.10881
0.13767 -0.0097247995 0.20532
0.14878 -0.041719001 0.17948
0.23681 0.023062 0.12017
0.20343 -0.0016126001 0.14977001
0.13519999 -0.019483 0.20282
0.13562 -0.020804999 0.20257001
0.11556 -0.053683002 0.15958001
0.15581 -0.016709 0.16783001
0.1547 -0.016549001 0.16757999
0.19033 -0.040410999 0.12835
0.22005001 -0.039953001 0.13513
0.2202 -0.038961999 0.13513
0.1999 -0.0080797002 0.16411
0.19921 -0.0061549 0.16382
0.19888 -0.0067400001 0.16447
0.2098 0.024493 0.10198
0.13844 -0.036410999 0.19228999
0.13744999 -0.035907 0.19152001
0.21848001 0.0047177998 0.10608
0.20448001 0.025723999 0.11026
0.20406 0.025939001 0.10892
0.20475 0.026652999 0.10959
0.23294 -0.037967999 0.13761
0.23062 -0.024736 0.13742
0.19057 -0.041990001 0.12717
0.23252 -0.033969998 0.14223
0.13129 0.02987 0.21419001
0.131 0.030046999 0.21454
0.25854 -0.044937 0.12616999
0.23084 -0.037528001 0.13555001
0.23100001 -0.038330998 0.13590001
0.23445 0.026749 0.11849
0.18339001 -0.017565999 0.16545001
0.18257 -0.016576 0.16621
0.17470001 -0.010179 0.16701999
0.21396001 0.014918 0.10153
0.21456 0.014522 0.1021
0.12876999 0.026311999 0.21134999
0.214 -0.0023035 0.11392
0.13688999 0.020594001 0.2018
0.13684 0.020865001 0.20136
0.19449 -0.029890999 0.14898001
0.25542 -0.044427 0.13157
0.25558001 -0.044539001 0.13031
0.25437999 -0.043924 0.13203
0.24257 -0.049093999 0.14518
0.24207 -0.048858002 0.1446
0.20003 0.0035105001 0.109
0.20101 0.0021701001 0.10903
0.20107999 0.0036349001 0.10995
0.13517 0.0091231996 0.20798001
0.21610001 -0.024460999 0.15255
0.21725 -0.023523999 0.15306
0.23429 0.027070999 0.093979001
0.11795 -0.046122 0.16732
0.25075001 -0.050808001 0.13702001
0.21217 0.010548 0.10452
0.21114001 0.011498 0.10406
0.21224 0.011113 0.10433
0.17527001 -0.015623 0.16712999
0.14830001 -0.012065 0.15772
0.14842001 -0.011652 0.15820999
0.14787 -0.0132 0.15875
0.23026 0.012573 0.11506
0.23069 0.011282 0.11544
0.21471 -0.0097083999 0.12664001
0.21543001 -0.0097385999 0.12569
0.22806001 0.014032 0.10645
0.22793999 0.01427 0.10756
0.16737001 -0.0056973002 0.16537
0.16960999 -0.0059851999 0.16486999
0.16926 -0.0060672001 0.16644999
0.16383 -0.029277001 0.16738001
0.16343001 -0.028312 0.16818
0.23717999 -0.014336 0.10944
0.19538 -0.027463 0.15629999
0.19427 -0.027114 0.15595999
0.17702 0.0046003 0.15725
0.17794 0.0058629001 0.15451001
0.17591999 0.0051195002 0.15613
0.15386 -0.028310001 0.18619999
0.15319 -0.027620999 0.18538
0.2243 0.017444 0.09866
0.22511999 0.017778 0.098041996
0.18838 -0.053601999 0.11637
0.16163 -0.052726001 0.19913
0.15996 -0.052855 0.19977
0.16046 -0.052450001 0.19877
0.16384 -0.022679999 0.1692
0.16495 -0.021892 0.16850001
0.14044 -0.010112 0.19562
0.13925999 -0.0098158997 0.19453999
0.13925 -0.0094809001 0.19396999
0.12949 -0.051633 0.15665001
0.12826 -0.051727001 0.15834001
0.2168 -0.018466 0.15294001
0.17213 -0.027438 0.16357
0.14772999 -0.038449999 0.18853
0.18516 0.0050352998 0.15042999
0.21195 0.012985 0.10364
0.20429 0.013502 0.10643
0.22657999 -0.021427 0.13439
0.22698 -0.019634999 0.13314
0.23916 -0.033735 0.14573
0.14647999 -0.0261 0.19629
0.14602 -0.025141999 0.19760001
0.13319001 0.013812 0.21455
0.13166 0.014925 0.21404
0.11714 -0.049089 0.16117001
0.11657 -0.048824001 0.16032
0.11549 -0.049594 0.16121
0.22819 0.0033117 0.10833
0.22797 0.0035788999 0.10702
0.18267 -0.011131 0.16801
0.23707999 -0.0055016 0.10898
0.23756 -0.0072341999 0.10914
0.18513 -0.014546 0.16653
0.18421 -0.013551 0.16637
0.18427999 -0.014289 0.16636001
0.17907999 -0.053420998 0.12609001
0.17802 -0.052733999 0.1267
0.22172 -0.033588 0.14297
0.22211 -0.033806998 0.14366999
0.22562 -0.012957 0.12181
0.2263 -0.012632 0.12254
0.12749 0.027388999 0.21459
0.23452 -0.018123001 0.10877
0.13338999 -0.025088999 0.19741
0.13203999 -0.023774 0.19752
0.13215999 -0.024109 0.19676
0.17975 -0.017131999 0.16558
0.20219 -0.0014936 0.15327001
0.20123 -0.00051262998 0.15281001
0.20824 0.0076754 0.10412
0.20781 0.0081588002 0.10324
0.15301999 -0.031629 0.18548
0.15319 -0.032311998 0.18554001
0.23149 -0.020235 0.12355
0.23101 -0.018820999 0.12376
0.23009001 -0.018092999 0.12337
0.21723001 0.021632999 0.088274002
0.21671 0.020667 0.086723998
0.23136 -0.033762001 0.13964
0.11354 -0.054196 0.16614
0.11334 -0.054051001 0.16644
0.1705 -0.036076002 0.19385
0.19698 -0.046395 0.11256
0.1971 -0.047637001 0.11317
0.19763 -0.048317 0.11222
0.22067 0.013654 0.10816
0.22562 -0.031090001 0.14193
0.1461 -0.02122 0.1953
0.1468 -0.020473 0.19532
0.14613 -0.019801 0.19674
0.22834 0.013167 0.11413
0.22867 0.012717 0.11434
0.21006 -0.0059234002 0.14756
0.20843001 -0.004379 0.14568999
0.24731 -0.043800998 0.14385
0.24804001 -0.044 0.14219999
0.15268999 -0.037291002 0.18624
0.18681 -0.037048001 0.12957001
0.26908001 -0.049286999 0.12396
0.23564 0.025257999 0.069821
0.23637 0.024467999 0.068054996
0.21907 0.025756 0.072345003
0.19944 -0.03001 0.15502
0.13147999 0.0069464999 0.21392
0.24724001 -0.037255 0.14618
0.16046 -0.028766001 0.19077
0.16017 -0.029620999 0.19138999
0.12381 -0.038681 0.17371
0.20284 -0.034635 0.15104
0.15993001 -0.035606001 0.1944
0.16024999 -0.035626002 0.19526
0.11404 -0.053606998 0.16585
0.23492999 0.028696001 0.11873
0.23495001 0.029716 0.11969
0.19236 -0.052158002 0.18258999
0.19373 -0.051419999 0.18404999
0.18016 -0.044969998 0.18193001
0.17894 -0.043710999 0.18055999
0.21041 -0.0062618 0.14974999
0.21126001 -0.0068839998 0.14835
0.20976999 -0.0059766001 0.14789
0.18253 -0.046083 0.18347
0.18213999 -0.045417 0.18274
0.18124001 -0.045389 0.18369
0.15431 -0.0042872 0.16019
0.15549 -0.0036541 0.15975
0.15308 -0.0041832998 0.16057999
0.1567 -0.00126 0.15629999
0.15598001 -0.00094911002 0.15808
0.11801 -0.04764 0.1592
0.11737 -0.048590001 0.15871
0.11765 -0.048824999 0.16084
0.13985001 -0.0099437004 0.20135
0.22563 0.021593001 0.087797999
0.21131 -0.013792 0.15717
0.21137001 -0.013674 0.15814
0.21145999 -0.014347 0.15838
0.22808 0.011269 0.11209
0.228 0.011001 0.11182
0.13056 -0.044443998 0.1744
0.21541999 -0.014464 0.15358
0.1604 -0.027280999 0.17756
0.12734 0.014611 0.22409
0.12871 0.012896 0.22041
0.1691 -0.053353999 0.19287001
0.17016999 -0.052168 0.19231001
0.18904001 -0.022771001 0.16135
0.19044 -0.022412 0.16249999
0.18900999 -0.021978 0.1626
0.19382 0.0058960998 0.14929999
0.19474 0.0054812999 0.14899001
0.18911999 0.0057072998 0.15353
0.22603001 0.015135 0.10235
0.22357 0.015437 0.10322
0.22567999 0.014893 0.10345
0.22459 0.0044898 0.11235
0.26124999 -0.051980998 0.12487
0.26394001 -0.051589999 0.12434
0.23797999 -0.033868998 0.14493001
0.23808999 -0.033994 0.14497
0.22981 0.017562 0.11082
0.17290001 0.0045051998 0.15685999
0.17411 0.0036394 0.15742999
0.13332 0.0051187002 0.21032
0.13282 0.0061504999 0.21122
0.17784999 0.0012175 0.16053
0.15944999 -0.0032705001 0.15959001
0.26017001 -0.046932001 0.11257
0.17191 -0.025559001 0.16095001
0.20653 0.021103 0.1102
0.20654 0.020256 0.10897
0.20529 0.021573 0.10817
0.17175999 0.0049522999 0.15474001
0.17325 0.0047360002 0.15447
0.17220999 0.0045081 0.15383001
0.2137 0.026218999 0.088365003
0.21556 0.026571 0.088818997
0.21306001 0.026479 0.088849001
0.26662001 -0.046890002 0.12205
0.21992999 0.01012 0.10602
0.21815 0.0082288003 0.10548
0.14805 -0.035967 0.19039001
0.23173 0.013856 0.11846
0.2428 -0.032499999 0.13778
0.24286 -0.032501999 0.13644999
0.1981 -0.044500001 0.10433
0.15327001 -0.042043999 0.17532
0.1523 -0.041965 0.17659999
0.19113 -0.052391 0.17929
0.18968999 -0.051876001 0.17948
0.19033 -0.052846 0.17905
0.20215 -0.03548 0.14836
0.19972999 -0.034389 0.14844
0.22417 -0.01078 0.11868
0.16868 0.0037475999 0.15773
0.16694 0.0032005 0.15815
0.1189 -0.051332001 0.16328
0.1188 -0.052584998 0.16381
0.13747001 -0.043887999 0.17768
0.13488001 -0.043469001 0.1779
0.23093 -0.0079097999 0.11175
0.23047 -0.0077399998 0.11178
0.2156 -0.00083222002 0.11474
0.1873 -0.039173 0.1292
0.15265 -0.030711001 0.18809
0.14967 -0.025965 0.18039
0.15088999 -0.026082 0.1811
0.15091 -0.025977001 0.18048
0.21788999 0.020199999 0.096146002
0.21825001 0.020098001 0.095145002
0.16105001 -0.0061516999 0.1618
0.16469 -0.051688001 0.19852
0.16427 -0.051417999 0.199
0.18448 -0.0044604 0.16603
0.17069 -0.0099052005 0.16692001
0.17161 -0.0079469001 0.1663
0.13221 -0.022999 0.19888
0.18892001 -0.049353 0.18276
0.22267 -0.0077208998 0.12391
0.22283 -0.0071111 0.12412
0.22147 -0.0070805 0.1235
0.22968 0.020478999 0.091444001
0.24727 -0.041841 0.14564
0.24683 -0.039196 0.14593001
0.24739 -0.039921001 0.14594001
0.22752 -0.017631 0.12684999
0.22673 -0.017282 0.12800001
0.2185 0.021131 0.088698
0.18497001 -0.034513999 0.12774999
0.16135 -0.028105 0.1926
0.17913 -0.048781 0.1246
0.17849 -0.050058 0.12382
0.17811 -0.050149001 0.12404
0.22327 0.024932999 0.071246997
0.22237 0.023015 0.071381003
0.22214 0.024110001 0.071066
0.13223 -0.024403 0.19842
0.22547001 -0.028926 0.14057
0.22642 -0.030130001 0.14068
0.16564 0.0030181 0.15835001
0.16599999 0.0047471002 0.15851
0.16107 -0.017348999 0.16824999
0.16329999 -0.030872 0.1947
0.16346 -0.030648001 0.19531
0.16227999 -0.031148 0.19555999
0.19953001 0.028512999 0.11033
0.22465 -0.039018001 0.13111
0.20467 -0.0022183999 0.097599998
0.11657 -0.049573001 0.16337
0.15110999 -0.037992999 0.18629999
0.15963 -0.026319001 0.17436001
0.18249001 -0.00083267997 0.16506
0.16297001 -0.051807001 0.19981
0.16257 -0.053388 0.19969
0.16332 -0.053328998 0.19877
0.23503999 -0.040465999 0.13925999
0.22239 0.016028 0.10219
0.22011 0.016047001 0.10195
0.22225 0.015867 0.10208
0.21487001 -0.0068970001 0.12338
0.21436 -0.0076824999 0.12312
0.16264001 -0.0022948999 0.15102001
0.16155 -0.0027476 0.15099999
0.16113999 -0.0023105999 0.15259001
0.14138 -0.010404 0.19780999
0.14065 -0.0092879003 0.19802
0.17284 0.0023193001 0.15852
0.23468 -0.023242 0.12463
0.21755999 0.025074 0.083853997
0.23006 -0.020292999 0.12701
0.22097 -0.00042706 0.11099
0.22078 0.0016421 0.11058
0.20302001 0.032281 0.1117
0.19840001 0.00013212999 0.15298
0.19727001 0.00041350999 0.15245999
0.17103 -0.040553 0.19424
0.17077 -0.040693 0.19431999
0.21334 0.030582 0.090756997
0.21213999 0.030554 0.091121003
0.21211 0.030327 0.091291003
0.14503001 -0.030324999 0.19717
0.14504001 -0.030509001 0.1972
0.14613 -0.029162001 0.19687
0.22658999 0.015408 0.10082
0.22632 0.01415 0.10335
0.2184 0.023696 0.081312001
0.19453999 0.0053303 0.15164
0.19425 0.0051429998 0.15103
0.19453 0.0055197999 0.15067001
0.2271 -0.027301 0.14064001
0.23174 -0.011894 0.11162
0.23129 -0.012659 0.11301
0.20541 0.0058847 0.10661
0.22488999 0.021706 0.096316002
0.17859 -0.0064745001 0.16655999
0.17910001 -0.0077085001 0.16678999
0.17951 -0.0065262001 0.16669001
0.21205001 -0.0081653995 0.15114
0.13327 -0.037209999 0.17951
0.17917 0.0038145999 0.15701
0.17979001 0.0041360999 0.15509
0.16892 -0.038458001 0.19582
0.15033001 -0.039616 0.18483
0.15098 -0.038775001 0.18503
0.20730001 -0.0061420999 0.15332
0.20682999 -0.0060655 0.15261
0.21054 -0.01196 0.15741
0.21019 -0.012808 0.15924001
0.21075 -0.012519 0.15730999
0.19758999 -0.046831001 0.11105
0.18435 -0.044487 0.17959
0.18422 -0.044176001 0.17951
0.1842 -0.044415001 0.18041
0.12876 0.0078728003 0.21518999
0.12897 0.0089461999 0.21492
0.18058001 -0.050078001 0.11905
0.23474 0.028890001 0.11937
0.1952 -0.051978 0.17665
0.19509 -0.052779 0.17711
0.19503 -0.05229 0.17583001
0.14749999 -0.022712 0.19413
0.15658 -0.01407 0.16605
0.2316 0.0013429 0.11019
0.22564 -0.040015999 0.12993
0.17608 0.0064313998 0.1548
0.22731 0.015813001 0.10106
0.1402 -0.039189 0.18785
0.16847999 0.0015927 0.15324
0.17106999 0.0028271 0.15317
0.22718 0.013059 0.10611
0.20390999 0.028971 0.10954
0.2045 0.030053001 0.10942
0.27103001 -0.05088 0.12292
0.2705 -0.049555998 0.1228
0.20173 0.031939 0.10909
0.20303001 0.031230999 0.10918
0.23694 0.020136001 0.11883
0.22336 0.0072607002 0.10877
0.23054001 0.028374 0.064373001
0.23201001 0.027811 0.063495003
0.23311 -0.036610998 0.14094999
0.20862 0.018177999 0.10601
0.16603 -0.017453 0.16685
0.19552 -0.046459001 0.11494
0.19510999 -0.048248999 0.11499
0.23059 -0.018625 0.12302
0.17001 -0.034733001 0.1918
0.18303999 -0.024985 0.15672
0.11094 -0.053897001 0.16463
0.11005 -0.053734999 0.16509999
0.13357 0.023275999 0.20982
0.13263001 0.021579999 0.21245
0.19035999 -0.018421 0.16594
0.19117001 -0.018130001 0.16596
0.12739 -0.0012723 0.20878001
0.11127 -0.052903999 0.16179
0.11191 -0.05195 0.16136999
0.2176 0.025071001 0.078722998
0.1288 -0.001682 0.20911001
0.17858 0.0049585998 0.15643001
0.17749999 0.0046997 0.15684
0.18627 0.0023781999 0.15804
0.18638 0.0025396999 0.15776999
0.1866 0.003211 0.15767001
0.15817 -0.028323 0.18635
0.15848 -0.027201001 0.18577
0.22595 -0.034807999 0.13866
0.2394 -0.023636 0.13864
0.23853 -0.024522001 0.13781001
0.23757 -0.025064999 0.13877
0.23014 0.0030773999 0.10266
0.23068 0.0050508999 0.10292
0.22939999 0.0044645998 0.1046
0.2274 0.012127 0.10568
0.13236 0.031252999 0.21512
0.16222 -0.043497998 0.19080999
0.1622 -0.044418 0.19152001
0.14407 -0.015508 0.16992
0.22434001 -0.030247999 0.14385
0.22391 -0.030317999 0.14263
0.22345001 0.021300999 0.082722999
0.22159 0.023414999 0.083157003
0.22328 0.022004001 0.084253997
0.14968 -0.022964999 0.17702
0.14932001 -0.01502 0.16714001
0.22859 0.010215 0.10926
0.1314 -0.020509999 0.19698
0.23049 0.029864 0.096422002
0.23056 0.018343 0.11324
0.20735 0.020843999 0.10761
0.13219 0.015086 0.20088001
0.13337 0.014235 0.20242999
0.13217001 0.013681 0.20251
0.16629 -0.053045001 0.19552
0.16688 -0.053160001 0.19527
0.17033 0.0017838 0.15815
0.17143001 0.0032593 0.1577
0.17122 0.0040781 0.15808
0.14889 -0.022632999 0.17679
0.20429 -0.049903002 0.10103
0.20288 -0.05094 0.10151
0.22961 0.013653 0.11605
0.13974001 -0.0084618004 0.19982
0.25062001 -0.045127001 0.13869999
0.13761 0.0068699 0.20175
0.13795 0.0073571 0.20155001
0.13793001 0.0083665997 0.20186999
0.18106 0.0031862 0.15995
0.15792 -0.0040295999 0.15997
0.22289 0.021798 0.095149003
0.24260999 -0.029773001 0.13987
0.24384999 -0.028256999 0.13853
0.20767 -0.018006001 0.16060001
0.23063999 0.021391001 0.072736003
0.19069999 -0.0054001999 0.16647001
0.19348 -0.050836999 0.11609
0.21668001 -0.030169999 0.15198
0.21585 -0.030332999 0.15367
0.22837 0.013084 0.11001
0.146 -0.013112 0.16697
0.14669 -0.013784 0.16892
0.16298001 -0.01004 0.16569
0.16418 -0.0095253 0.16523001
0.23636 -0.0045313002 0.10377
0.23585001 -0.0031158 0.10372
0.21857999 0.015462 0.10275
0.21709999 0.021457 0.091444999
0.21534 0.021137999 0.089378998
0.21578 0.019836999 0.090163
0.12211 -0.032988999 0.17179
0.12298 -0.036015999 0.16897
0.12243 -0.035647999 0.16963001
0.18516999 -0.053072002 0.11904
0.18403 -0.052765001 0.11944
0.18494999 -0.053238999 0.11869
0.22379 0.020501001 0.098801002
0.25957 -0.051091999 0.12864
0.26003 -0.051142 0.12797999
0.21047001 0.012317 0.10462
0.24164 -0.049913999 0.14597
0.22822 -0.026854999 0.14158
0.16966 -0.024413001 0.19554
0.16945 -0.024822 0.19551
0.16235 0.0053387 0.15488
0.24058001 -0.044904999 0.14286999
0.24037001 -0.04456 0.14157
0.11192 -0.053957999 0.16461
0.20567 0.013963 0.10952
0.13429999 -0.037829999 0.18205
0.13410001 -0.037999 0.18144
0.14313 -0.025893001 0.19922
0.19047999 -0.047509 0.17624
0.18994001 -0.047690999 0.17689
0.19114 -0.048524 0.17749
0.14486 -0.018436 0.19472
0.14569999 -0.017819 0.19568001
0.14005999 -0.0074284002 0.20062999
0.12980001 0.030328 0.21754
0.22867 -0.0074108001 0.11288
0.23025 -0.0075213001 0.11153
0.16665 -0.00081846002 0.16086
0.16605 -0.0011154 0.16178
0.18384001 0.0048324 0.14996
0.17656 -0.049759001 0.1908
0.20065001 0.021531999 0.11057
0.19497 -0.0042287 0.16478001
0.19441999 -0.0057931002 0.16577999
0.21811 0.024809999 0.075552002
0.25527999 -0.042986002 0.12605999
0.23097 -0.0010907 0.11134
0.23176 -0.0026686999 0.11261
0.23073 -0.0015883 0.11392
0.16821 -0.0075114998 0.1652
0.18885 0.0030942 0.15501
0.23545 -0.023273 0.12601
0.25486001 -0.050918002 0.13361
0.25468001 -0.052149002 0.13298
0.22869 0.029201999 0.078478999
0.23010001 0.028379001 0.078208998
0.22904 0.027900999 0.078204997
0.17957 0.00088374998 0.15977
0.21332 0.032774001 0.092436001
0.21234 0.031598002 0.092187002
0.19557001 -0.046084002 0.11322
0.19606 -0.047527 0.11419
0.18172 -0.020178 0.16373999
0.23499 0.00078643998 0.10897
0.23327 0.0014963 0.10904
0.18956 -0.0041266 0.16628
0.18962 -0.0036138999 0.16504
0.2186 0.024511 0.079871997
0.21857999 0.024604 0.081537999
0.24181999 -0.041336 0.14681999
0.24000999 -0.041441999 0.14668
0.18824001 -0.0037636 0.16627
0.24536 -0.036796 0.14787
0.17501 -0.0021126 0.16346
0.20544 -0.0019018 0.14667
0.20587 -0.0021257 0.14666
0.1901 -0.052905999 0.1771
0.18989 -0.052560002 0.17817999
0.19032 -0.052044999 0.17656
0.26710001 -0.048595998 0.11139
0.26708001 -0.048788 0.11157
0.22942001 0.01857 0.10325
0.23624 -0.0046732998 0.1089
0.23587 -0.0062724999 0.10889
0.18588001 -0.048523001 0.12063
0.22269 -0.017312 0.13845
0.2233 -0.017607 0.13759001
0.22076 -0.0073853 0.12515999
0.2198 -0.0087535996 0.12488
0.19383 -0.047804002 0.17827
0.24293 -0.053196002 0.14709
0.24284001 -0.052889999 0.14706001
0.26942 -0.050655 0.12449
0.15898 0.0059692999 0.1565
0.15818 0.0070576998 0.15798999
0.12981001 -0.0061316001 0.20482001
0.12921 -0.0057918001 0.20403001
0.15139 -0.017503999 0.16847
0.19029 -0.00076671998 0.16087
0.24721 -0.035890002 0.14037
0.24643999 -0.037188001 0.13875
0.20897999 0.00033332 0.11173
0.20953 0.001272 0.11039
0.15375 -0.025931001 0.17781
0.13289 0.013153 0.21378
0.13244 0.013684 0.21492
0.15953 -0.026387 0.17468999
0.11744 -0.043159999 0.16904999
0.21004 -0.037018999 0.14774001
0.1498 -0.036508001 0.18783
0.14996 -0.037448999 0.18748
0.19903 -0.030716 0.15358
0.15691 -0.039726999 0.18488
0.22976001 -0.014125 0.11892
0.19953001 0.019629 0.10998
0.19972999 0.019312 0.10838
0.22709 -0.01064 0.11839
0.22645999 -0.011379 0.11887
0.21762 -0.0048431 0.11924
0.13067999 0.020772001 0.21288
0.13141 0.021290001 0.21333
0.16359 -0.025114 0.16942
0.16421001 -0.025849 0.16982999
0.22367001 0.029069001 0.070293002
0.1278 0.014016 0.22375
0.12786999 0.014702 0.22405
0.17815 -0.053288002 0.12424
0.15153 -0.037795998 0.18505
0.23537 0.020260001 0.12068
0.2353 0.017728999 0.12118
0.23413999 -0.029871 0.1409
0.13445 0.0068963999 0.20699
0.23405001 -0.039615002 0.13685
0.23349001 -0.039655998 0.13653
0.18076999 -0.020281 0.16305999
0.18312 -0.051229998 0.18553001
0.22397999 0.015333 0.10436
0.22318999 0.015594 0.10573
0.22333001 0.013661 0.10555
0.23252 0.019846 0.090989001
0.1373 0.0033352 0.20348001
0.18370999 -0.044826001 0.18076
0.20971 0.020846 0.10546
0.19949 -0.0093922 0.1649
0.19832 -0.0075846999 0.16511001
0.19817001 -0.0092364 0.16493
0.1267 -0.00026184 0.20527001
0.13801 0.0041200998 0.20359001
0.21774 -0.011213 0.14561
0.21818 -0.012661 0.14563
0.20782 -0.00053244998 0.11153
0.20776001 -0.00080322998 0.11176
0.20920999 0.00026114 0.11182
0.18968999 -0.053188 0.11469
0.19042 -0.052963 0.11367
0.2158 -0.0078630997 0.12413
0.21647 -0.0078515997 0.12269
0.24481 -0.048781 0.14325
0.18933 -0.046312001 0.12253
0.18736 -0.046788 0.12295
0.15223999 -0.0038892999 0.15837
0.22646999 -0.038654 0.13231
0.22648001 -0.038582001 0.13091999
0.22821 -0.038582999 0.13151
0.16393 -0.014148 0.16715001
0.16459 -0.013113 0.16621999
0.20406 0.033604 0.10999
0.20513 0.034019001 0.10967
0.22093999 -0.0011404 0.11591
0.22093 -0.00063010002 0.11468
0.22063001 -0.0025946 0.11478
0.19831 -0.019034 0.16549
0.12377 -0.035009 0.17449
0.12349 -0.033771001 0.17422
0.16174001 -0.029928001 0.19462
0.21183001 0.033135999 0.092331998
0.18988 -0.052281 0.18134999
0.16752 -0.034603 0.19509999
0.23467 0.026579 0.12213
0.18655001 -0.05178 0.18231
0.13978 -0.0062910002 0.20079
0.2306 0.015599 0.11037
0.22751001 0.011476 0.10787
0.22733 0.010147 0.10829
0.12653001 -0.00073487998 0.20773
0.15546 -0.015861001 0.16701999
0.1566 -0.016178999 0.16684
0.1389 -0.027729001 0.19841
0.13952 -0.036502 0.19371
0.13888 -0.035059001 0.19245
0.21918 0.011486 0.1041
0.23995 -0.046050001 0.13858999
0.23903 -0.047118999 0.13692001
0.14228 -0.041786999 0.18414
0.20846 -0.038778 0.14401001
0.20779 -0.038470998 0.14377999
0.20231999 -0.0081422003 0.16161001
0.19083001 -0.052655 0.11433
0.20194 -0.038426001 0.13693
0.18020999 -0.012205 0.16525
0.23034 0.0151 0.11611
0.18697999 -0.0026875001 0.16518
0.18718 -0.0040438999 0.16598
0.18013 0.0050118002 0.15205
0.16123 -0.036906999 0.19531
0.14131001 -0.010637 0.1963
0.14742 -0.023228001 0.19212
0.14735 -0.023722 0.19296999
0.19676 -0.045458 0.10744
0.22028001 -0.029345 0.14727999
0.20942999 -0.025163 0.15772
0.21243 -0.039076999 0.14341
0.18397 -0.047329001 0.12039
0.25172001 -0.044319 0.1364
0.25163001 -0.044270001 0.13745999
0.25521001 -0.044397999 0.12964
0.25435999 -0.043536 0.12906
0.23586001 -0.030678 0.14122
0.22863001 0.0088980999 0.10814
0.24815001 -0.052216001 0.139
0.16575 -0.0029706999 0.16250999
0.21077999 0.01716 0.10506
0.21077 0.018046999 0.10485
0.14415 -0.036490999 0.19225
0.14413001 -0.036164001 0.19275001
0.18719999 -0.023426 0.16016001
0.18810999 -0.023104999 0.16076
0.14811 -0.040708002 0.18391
0.14775001 -0.041620001 0.18426999
0.2139 -0.0095370002 0.14872
0.21264 -0.0089557003 0.14973
0.16136 -0.050717998 0.19927
0.18763 -0.017281 0.16602001
0.18907 -0.017889 0.16463999
0.17329 -0.019413 0.16737001
0.17439 -0.018378001 0.16677
0.20603999 -0.0061617 0.15674999
0.16082001 -0.0078002 0.16254
0.23085 -0.0048723998 0.10787
0.23593999 0.024274001 0.12156
0.19546001 -0.045843001 0.11403
0.1955 -0.045449 0.11478
0.22138 0.019623 0.094231002
0.22153001 0.020625001 0.094360001
0.16382 -0.028116001 0.16951001
0.16364001 -0.028255999 0.16808
0.16331001 -0.027420999 0.16958
0.13297001 0.024543 0.21151
0.13145 0.025800001 0.21268
0.21825001 -0.012963 0.14723
0.21799999 -0.014413 0.14745
0.18544 -0.00011738 0.16279
0.22231001 -0.017726 0.14307
0.15899999 -0.031707 0.19365001
0.13151 0.0034779999 0.21160001
0.12976 0.0035738 0.21278
0.19904 -0.033727001 0.14827999
0.17612 -0.045442998 0.18894
0.17759 -0.046310998 0.19001
0.12974 0.016931999 0.21962
0.22084001 -0.0092018005 0.12627999
0.22201 -0.0087847002 0.12503
0.20984 -0.0053893002 0.13991
0.20841999 -0.0037189 0.14171
0.13471 -0.013527 0.20452
0.21313 0.014249 0.10295
0.21208 0.014804 0.10342
0.21325999 0.013341 0.10312
0.116 -0.049637001 0.15821999
0.11508 -0.050700001 0.15757
0.11468 -0.050434999 0.15943
0.2068 0.0046493998 0.1074
0.20595001 0.0045967 0.10786
0.22966 0.021833001 0.074247003
0.13373999 0.0072677 0.20873
0.23147 -0.020397 0.12221
0.23207 -0.019909 0.12144
0.23163 -0.018254001 0.12376
0.1608 -0.021066001 0.16997001
0.21878 -0.015404 0.14721
0.20751999 -0.025587 0.15809
0.21092001 -0.02678 0.15617999
0.21182001 -0.026968 0.15606999
0.22013 -0.033048999 0.14665
0.16384999 0.0063780998 0.1574
0.20458999 -0.052597001 0.093493998
0.20513 -0.052124999 0.093534
0.20317 -0.051943999 0.094045997
0.17612 -0.023372 0.16191
0.21600001 0.0073008002 0.10559
0.23695999 -0.013145 0.10857
0.23706 -0.011906 0.10808
0.23778 -0.011456 0.10768
0.18585999 -0.044532001 0.17749999
0.15612 -0.015267 0.16707
0.15454 -0.015321 0.16581
0.20582999 0.022244999 0.11069
0.20502 0.021509999 0.10951
0.13143 -0.019719999 0.19654
0.23359001 0.018519999 0.12086
0.16648 -0.0011011 0.14974
0.23101 -0.033720002 0.14098001
0.23147 -0.031980999 0.14233001
0.23098999 -0.031773999 0.14117999
0.20309 0.0055457 0.10571
0.20479 0.0054012998 0.10485
0.18746001 -0.037859 0.11626
0.18233 -0.049663 0.12337
0.18885 -0.045118 0.18020999
0.18238001 -0.049153998 0.18593
0.21967 -0.00082279998 0.11327
0.22019 0.0061245002 0.1082
