# .PCD v0.7 - Point Cloud Data file format
VERSION 0.7
FIELDS x y z
SIZE 4 4 4
TYPE F F F
COUNT 1 1 1
WIDTH 1483
HEIGHT 1
VIEWPOINT 0 0 0 1 0 0 0
POINTS 1483
DATA ascii
0.076169997 0.0063429 0.079357997
0.077459 0.0074379998 0.079043001
0.078580998 0.0012543 0.082483999
0.078207999 -0.0016246 0.082093999
0.078266002 -0.00068878999 0.082912996
0.078801997 0.0019876 0.085552
0.079599001 0.0014911999 0.085015997
0.079167001 0.0042889998 0.088007003
0.075482003 0.014985 0.089703999
0.075914003 -0.031778999 0.096646003
0.078152001 -0.022167999 0.095476002
0.071905002 -0.041273002 0.08264
0.072228 -0.038899001 0.084027998
0.071979001 -0.040964 0.084716
0.071551003 -0.042314999 0.083316997
0.071392998 -0.043485999 0.084005997
0.072618999 -0.043609999 0.084563002
0.069898002 -0.040741 0.08433
0.030920999 0.038913999 0.14494
0.029089 0.041753002 0.1454
0.028712001 0.041976999 0.1454
0.028804 0.044427998 0.14651
0.028100001 0.046636 0.14436001
0.07987 -0.0068509998 0.085474998
0.071529001 -0.046445999 0.095637001
0.074827 0.011865 0.075282998
0.073284999 -0.041198999 0.084207997
0.072099 -0.040684 0.085138999
0.078671001 -0.025277 0.085497998
0.078065999 -0.024272 0.085345998
0.075053997 -0.031987999 0.052591
0.079460002 -0.015938999 0.10242
0.075193003 -0.030304 0.056311999
0.074844003 -0.033404 0.056260001
0.075698003 -0.032574002 0.056547999
0.078211002 -0.00042920001 0.080344997
0.077519998 -0.012609 0.078789003
0.078373 0.0026034 0.081944004
0.076793 0.0089592999 0.078608997
0.076476999 0.0099895 0.078697003
0.077449001 0.0098235998 0.079585001
0.018425999 -0.0068148002 0.17318
0.019812999 -0.0071045002 0.17273
0.019986 -0.0077344002 0.17293
-0.0024882001 -0.00073108001 0.17174
0.074666999 0.015598 0.079637997
0.073322996 0.016434999 0.079820998
0.071346998 0.017061001 0.079485998
0.075447999 0.014232 0.078197002
0.072645999 0.015339 0.079099
0.072727002 0.01863 0.078383997
0.073137999 0.018564999 0.081050001
0.078275003 -0.0063141999 0.083035
0.072121002 0.019265 0.080283999
0.077606998 0.0053411 0.088377997
0.077742003 0.0098491004 0.089073002
0.0098037999 0.07559 0.10541
0.01182 0.073409997 0.10469
0.0083344998 0.077569999 0.10656
0.078930996 -0.022544 0.095784999
0.069706 -0.043279 0.083447002
0.077650003 -0.012275 0.081242003
0.079236999 -0.0099106003 0.081459001
0.077889003 -0.010416 0.082479
0.029328 0.063337997 0.15885
0.027210999 0.042964 0.14328
0.071681999 -0.049679 0.095293999
0.077307001 0.00010348 0.074345998
0.078208998 0.0001641 0.075216003
0.077708997 -0.00090336002 0.074083999
0.079732999 -0.016294001 0.10256
0.080403998 -0.015107 0.10407
0.072821997 -0.041173 0.087350003
0.00036718001 0.082877003 0.084195003
0.076704003 -0.030025 0.077683002
0.076543003 -0.031238001 0.077138998
0.079062998 -0.010384 0.078772001
0.074219003 -0.031311002 0.075539999
0.074367002 0.010279 0.078892
0.075062998 0.011658 0.079498
0.074511997 -0.021438999 0.071819
0.079230003 -0.018658999 0.099869996
0.032919999 0.033572 0.13255
0.075585999 -0.026136 0.10048
0.076203004 -0.026642 0.10086
-0.003088 -0.021906 0.15607999
-0.00090809999 -0.02166 0.15730999
-0.001793 -0.021273 0.15775
0.079245999 -0.0070111998 0.082948998
0.071222 0.020107999 0.078771003
0.078764997 -0.0099806003 0.081731997
0.078429997 0.0073262001 0.087509997
0.079420999 -0.0043464 0.091066003
0.080008999 -0.0045229001 0.088783003
0.079935998 -0.0029486001 0.087117001
0.079646997 -0.0018725001 0.087888002
0.072167002 -0.044162001 0.094754003
0.079502001 -0.021392999 0.10021
0.077211998 -0.025947001 0.081600003
0.065563001 0.030126 0.080305003
0.067915 0.027652999 0.079852998
0.065393001 0.027642 0.078983001
0.066310003 -0.051245 0.11876
0.064934 -0.049973998 0.1152
0.065026 -0.048011001 0.11748
0.063394003 -0.044133 0.13031
-0.00076227001 0.089645997 0.087384
0.00074387999 0.087647997 0.085129999
0.07643 -0.019785 0.080062002
0.022476001 -0.042236 0.15443
0.021631001 -0.041639999 0.15396
0.021864999 -0.042798001 0.155
-0.0025402999 -0.021684 0.1584
-0.0010303 -0.021988001 0.15710001
0.063251004 -0.024219999 0.12801
0.0054310001 0.086746998 0.10979
0.036855001 0.039009999 0.11512
0.076261997 -0.018464001 0.081942998
0.077729002 -0.020090001 0.081335001
0.068742998 0.022298001 0.075993001
0.0065405001 0.074277997 0.095725
0.0083082002 0.074157998 0.095645003
0.0069551999 0.090112999 0.11016
0.078685001 -0.0075217001 0.077164002
0.077884004 -0.023598 0.10102
0.072307996 -0.042642001 0.096749999
0.070672996 -0.043609001 0.097061999
0.075819999 -0.019321 0.072117999
-0.0026819 0.051968999 0.17441
-0.0041593998 0.052891001 0.17341
0.067050003 0.026566001 0.080375001
0.081537001 -0.0057763001 0.088575996
0.072577998 -0.044638999 0.094760999
0.072943002 -0.044690002 0.089836001
0.071448997 -0.041928001 0.095407002
0.078698002 -0.0017633 0.097020999
0.011481 0.027588001 0.18232
0.0092027998 0.027941 0.18288
0.0090600001 0.029594 0.18073
0.0071764002 0.089561 0.10821
0.0072806999 0.089107998 0.10889
0.030184001 0.058775 0.17079
0.075441003 -0.034437999 0.057962
0.075990997 -0.024183 0.081306003
0.077505998 -0.023759 0.080247
0.074965999 0.014954 0.080513999
0.077747002 0.0046991999 0.10114
0.0090686996 0.064732 0.1185
0.073852003 -0.032664999 0.077430002
0.078330003 -0.0079878001 0.078442998
0.078978002 -0.0062956 0.078511998
0.078252003 -0.0055837999 0.079286002
-0.0055931001 0.014484 0.17212
-0.0053523998 0.014313 0.17167
0.079279996 -0.0047789998 0.10126
0.077588998 -0.023901001 0.094742
0.0064073 0.040746 0.18199
0.068887003 0.024854001 0.080603004
0.076118998 -0.023743 0.083028004
0.077882998 -0.025017999 0.082218997
0.077529997 -0.027091 0.08275
0.072714001 -0.044845998 0.094865002
0.081680998 -0.0061273999 0.089767002
0.079699002 -0.0049645002 0.088877
0.073314004 -0.044167001 0.091159001
0.077606 -0.020772999 0.082387999
0.065801002 0.030397 0.079218
0.071777001 -0.039634001 0.086473003
0.079410002 -0.0068581998 0.10239
0.065339997 -0.044365 0.12594
0.079708003 -0.00036234001 0.10373
0.080807999 0.00066100003 0.10526
0.010733 0.069517002 0.10886
0.0053814002 0.079636998 0.10816
0.0061229998 0.078469001 0.10914
0.075446002 -0.025404001 0.074153997
0.0085385004 0.075474001 0.10874
0.0089154001 0.075345002 0.11007
0.064875998 0.013997 0.10932
0.071603 -0.049451001 0.097704999
0.071865 -0.050887998 0.098039001
0.07903 -0.0052546998 0.078596003
0.078229003 -0.0054102 0.079682
0.071167 -0.046698999 0.09443
0.080298997 -0.012615 0.095158003
0.072518997 0.015945001 0.078331001
0.071378 0.019144 0.078552
0.073509999 0.015085 0.076486997
0.072270997 0.017447 0.078310996
0.051217001 -0.050650999 0.14021
0.051445998 -0.051116001 0.14225
0.051058002 -0.051964 0.14012
0.071824998 0.016401 0.075787
0.0068506999 0.076073997 0.10659
0.0078488002 0.077193998 0.10818
0.075563997 -0.020429 0.074749
0.073900998 -0.039145 0.060911
0.071594998 -0.040587999 0.062279001
0.073738001 -0.038837999 0.060419999
0.070358001 0.021879001 0.079005003
0.070589997 0.023708001 0.079272002
0.070818 0.025114 0.078950003
0.076134004 -0.028723 0.083858997
0.080752999 -0.0083141001 0.089427002
0.079825997 -0.0074506998 0.087644003
0.079227 -0.014464 0.089194
0.079714 -0.011682 0.089121997
0.078153998 -0.013641 0.089688003
0.079181999 -0.011977 0.087325998
0.079329997 -0.011061 0.090241998
0.078163996 -0.013791 0.090037003
0.076958999 -0.02672 0.085689999
0.077260002 -0.021966999 0.082130998
0.078377001 -0.021822 0.084095001
0.077771001 -0.021261999 0.084890999
0.075874001 -0.029015001 0.082978003
0.026405999 -0.0094373003 0.16881999
0.026602 -0.0091645997 0.16856
0.026009001 -0.0073409001 0.16873001
0.077201001 0.0034973 0.073928997
0.010153 0.067767002 0.11256
0.013061 0.069420002 0.11226
0.081765004 -0.0085861003 0.096706003
0.080926999 -0.0098989001 0.095021002
0.072423004 -0.048303999 0.097230002
0.078806996 0.0014599001 0.080623001
-0.042466 0.062794998 0.13064
0.074680999 -0.036068998 0.060812999
0.072355002 0.015298 0.071557
0.077389002 -0.021477999 0.074557997
0.072416998 0.020602999 0.078121997
0.077094004 -0.020583 0.086075
0.077650003 -0.02496 0.089822002
0.076944001 -0.026682001 0.089397997
0.0098310998 0.076358996 0.12491
0.076825999 -0.024011999 0.090721004
0.077270001 -0.022502 0.083071999
0.072536997 -0.039106999 0.083667003
-0.0072734002 0.065126002 0.16342001
0.081256002 -0.0090412004 0.090056002
0.080711 -0.010458 0.090063997
0.011978 0.068515003 0.11424
0.078808002 -0.0054078 0.10462
0.080361001 -0.0031302001 0.10496
0.079750001 0.0017123 0.10291
0.0053508002 0.078720003 0.10885
0.010642 0.055668999 0.18178
0.012378 0.056258 0.18105
0.0096944002 0.057289999 0.18035001
0.080730997 -0.0077926 0.10096
-0.031018 0.077982001 0.14578
-0.028582999 0.078413002 0.14487
-0.02668 0.078573003 0.14489999
0.062803999 -0.044851001 0.1346
0.075084001 -0.035172001 0.060263999
0.040660001 -0.049224999 0.12997
0.042247999 -0.048521999 0.13072
0.040585998 -0.047961999 0.12957001
0.078406997 -0.020684 0.096596003
0.071259998 -0.045327999 0.097740002
0.076627001 -0.027760999 0.086144
-0.00078896002 -0.021287 0.15925001
0.080150999 -0.017661 0.098160997
-0.0083306003 0.027775001 0.17519
0.080104999 -0.012931 0.095486
0.080360003 -0.010946 0.096358001
0.077935003 0.0063529001 0.10002
0.076814003 -0.033399001 0.060548
0.078688003 -0.015718 0.10107
0.0022392999 -0.0066955001 0.17218
0.070271999 0.016756 0.072241001
0.069541 0.017537 0.072379
0.0069676 0.078218997 0.095775999
-0.00036497999 0.089358002 0.088661
0.00015286 0.092623003 0.089015
0.074919999 0.010797 0.078406997
0.074352004 0.011903 0.077918999
0.074112996 0.014151 0.078442998
0.073646002 -0.041958999 0.089622997
-0.0061964002 0.04888 0.17201
0.077037998 -0.027202001 0.096708998
0.078362003 -0.024596 0.097010002
0.076288 -0.028418999 0.082939997
0.075590998 -0.029653 0.084693998
0.079967 -0.0060819001 0.10352
0.0059571001 0.087134004 0.11126
0.0068124998 0.088848002 0.11277
0.0062843999 0.085258 0.11087
0.022226 0.041636001 0.098963998
0.060633 -0.049759999 0.13636
0.061232999 -0.048266999 0.13623001
0.061524 -0.049327999 0.13515
0.063018002 -0.046301 0.13436
0.061937001 -0.048248 0.13456
0.062165 -0.046447001 0.13333
0.063578002 -0.045972999 0.13369
0.076701 -0.020640999 0.082061
0.077347003 -0.01998 0.084259003
0.014429 -0.046030998 0.14815
0.015632 -0.045310002 0.14607
0.080582 -0.0078983996 0.095845997
0.079368003 -0.019664999 0.097125001
0.080150001 -0.019919001 0.098067999
0.0064881002 0.083045997 0.11128
0.0058237999 0.077067003 0.11148
0.012783 0.071834996 0.10566
0.0070198998 0.088032 0.11021
0.067870997 -0.049467999 0.10675
0.067125998 0.022993 0.073117003
0.068233997 0.024928 0.072163999
0.028991001 0.051474001 0.18256
0.029578 0.050967 0.18198
-0.0053723999 -0.020316999 0.15756001
-0.0074291001 -0.01963 0.15545
-0.0065982002 -0.020419 0.15436999
-0.031962998 0.076636001 0.14449
0.041285001 -0.052344002 0.14768
0.040584002 -0.052834999 0.14798
0.039448 -0.051447 0.14567
-0.0011803 -0.0056841001 0.17213
0.011945 0.074138999 0.10594
-0.047439002 0.064746 0.12948
-0.045804001 0.063987002 0.1319
0.0029190001 0.077449001 0.087963998
0.078666002 0.0035778999 0.10014
0.063672997 -0.046723999 0.13282
0.062836997 -0.048634999 0.13481
0.080696002 -0.0034244 0.084201999
0.077555001 -0.024869001 0.094967
0.011763 0.067730002 0.1173
0.075314 -0.028403001 0.057261001
0.076320998 -0.030715 0.057213001
0.072875001 -0.029206 0.047116
0.074428998 -0.028831 0.046879999
0.072185002 -0.030817 0.048386998
0.077981003 0.0067333998 0.081710003
0.074657001 -0.03193 0.058532
0.075337 -0.034885 0.058412001
0.074340999 -0.035641 0.057796001
0.077529997 -0.0067113 0.076811001
0.077036001 -0.0054726 0.077716999
0.077367 0.0057021999 0.077784002
0.076554999 0.0071470002 0.077712998
0.075737 0.0089045996 0.078133002
0.080523998 -0.011698 0.090957999
0.075751998 -0.028709 0.053134002
0.076544002 -0.028145 0.051989
0.078971997 -0.013075 0.081037
0.031067001 -0.037572 0.14995
0.030346001 -0.035884999 0.14846
0.062527001 -0.046282999 0.13108
0.063230999 -0.044597 0.13151
0.055898 0.01514 0.12172
0.065608002 0.029633 0.076451004
0.065451004 0.030323001 0.078428
-0.042874001 0.084241003 0.13992
0.076424003 -0.031633001 0.057246
0.064009003 -0.044413999 0.12737
0.0046147001 0.096294999 0.099964999
0.079746 -0.0066263 0.077464998
-0.00037113999 0.019525999 0.17155001
-0.001741 0.020398 0.17335001
-0.0021603999 0.020745 0.17129
0.013008 0.030409999 0.18540999
0.014084 0.029593 0.18595
0.012747 0.031323001 0.1855
0.076824002 0.0047317999 0.077776998
0.0012093 0.084967002 0.086708002
6.5753004e-05 0.085527003 0.085616
0.0016939 0.088248 0.086208999
0.0082884999 0.075833999 0.095298
0.010102 0.073495999 0.094780996
0.064745001 -0.048291001 0.13001999
0.064494997 -0.046705998 0.1302
0.064438 -0.045359999 0.12982
0.055879001 0.010377 0.12864
0.05579 0.01107 0.12829
0.029162001 0.012396 0.16805001
0.060794 0.035829999 0.093105003
0.063795 -0.050930001 0.13420001
0.073680997 -0.037521999 0.058768999
0.072065003 -0.039753001 0.060175002
0.075085998 -0.036504999 0.059870001
0.076420002 -0.035227001 0.059819002
0.0040826001 0.082571998 0.096459001
0.0035031 0.084083997 0.096697003
0.070671998 0.023190999 0.079806
0.071517996 0.023331 0.081919
0.0082716998 0.080976002 0.1176
-0.0022217 0.074909002 0.12579
-0.0030366001 0.076702997 0.12535
-0.0024633 0.076389998 0.12386
0.078538001 -0.0084916996 0.078535996
0.076724999 -0.016649 0.078613997
0.078119002 -0.012088 0.078436002
0.078639001 -0.010971 0.077267997
-0.0038035 -0.033874001 0.13164
-0.0051190001 -0.034205999 0.13187
-0.0050563999 -0.035673 0.13286
0.0045774998 -0.010318 0.17066
0.012597 0.070785999 0.11035
0.011088 0.069682002 0.11322
0.0097065996 0.068674996 0.11061
0.064168997 -0.051578 0.13112999
0.00045600999 0.085628003 0.12204
0.0011781 0.085709997 0.12141
0.063813001 -0.047318 0.12927
0.065186001 -0.047136001 0.12874
0.063879997 -0.044397999 0.12981001
0.018835001 -0.03923 0.14285
0.018780001 -0.041662 0.14213
0.072448999 -0.041021999 0.064152002
0.078982003 -0.0034014001 0.083717003
0.080018997 -0.0098917 0.097608
0.076415002 0.0029916 0.078084998
0.078447998 0.00074972003 0.077783003
0.078725003 -0.0020647999 0.096077003
0.080585003 -0.0046977 0.097057998
0.077565998 -0.025157001 0.10359
0.0072285002 0.079158999 0.11697
0.064916998 -0.048469 0.12814
0.063158996 -0.045804001 0.12878001
0.063040003 -0.044652998 0.12955999
-0.00036475001 -0.015814999 0.1646
0.0013628 -0.015973 0.16395
-0.0026922999 0.079164997 0.11861
0.060950998 0.014304 0.11524
0.078737997 0.0048762001 0.097801
0.072746001 0.012361 0.073536001
0.071846001 0.013652 0.071805
0.070014 0.026095999 0.078349002
0.067653 0.026694 0.078913003
0.074804999 -0.033232 0.059289001
0.0031667999 0.085020997 0.094287999
0.074988998 -0.037126001 0.092611
0.077358 0.0015322 0.076936997
0.0086518005 0.075204 0.10976
0.011376 0.067120999 0.13594
0.0122 0.065908998 0.13462999
0.01343 0.026252 0.18347
0.013062 0.028000999 0.18268
0.013362 0.026612001 0.18355
0.063082002 -0.048351001 0.12653001
0.064400002 -0.047363002 0.12684
0.064533003 -0.045763001 0.12635
0.063289002 0.032607 0.080342002
0.078270003 -0.023500999 0.096215002
0.077659003 -0.023334 0.096414
0.078777 -0.019633999 0.10082
0.069628999 -0.048616 0.10077
0.069807 -0.050237998 0.098817997
-0.0044940002 0.075995997 0.11457
-0.0038232999 0.076086 0.11546
0.027771 -0.043191999 0.16173001
0.027091 -0.044705998 0.16108
0.026249001 -0.044335999 0.16133
0.072035998 0.022821 0.079819001
0.071328998 0.020648001 0.080366999
0.069959 0.023283999 0.079177
0.077088997 -0.026888 0.076711997
0.076480001 -0.025288999 0.076747
0.076945998 -0.023373 0.078253999
0.075759999 -0.029424001 0.077108003
0.076646 -0.027732 0.077688001
0.075654998 -0.030447001 0.078152999
0.068696998 0.026099 0.076018997
0.067698002 0.023227001 0.075461999
0.075857997 -0.03019 0.059358001
0.074833997 -0.036919001 0.10027
0.076552004 -0.023209 0.074081004
-0.0056631998 -0.017858 0.15899
0.012393 0.065848 0.13367
0.074876003 -0.034329999 0.058970999
0.075925998 -0.032310002 0.058254998
-0.011788 0.039138 0.1696
-0.01174 0.040833998 0.16908
-0.012744 0.039639998 0.16876
0.064095996 -0.048659999 0.12650999
0.063461997 -0.046675999 0.12569
0.065039001 -0.044587001 0.12694
0.074639 -0.035863001 0.057822999
0.079452001 -0.0062039001 0.099077001
0.076682001 0.010157 0.079855002
0.078089997 -0.0046482999 0.083488002
0.076875001 -0.019025 0.078074999
0.014758 0.027586 0.18557
0.014592 0.029650999 0.18614
0.014942 0.027748 0.18561
0.074657001 -0.031849001 0.078083001
0.056768999 0.012826 0.12628999
0.055684999 0.011477 0.12526
0.06402 0.032814998 0.084463999
0.063637003 0.033549 0.085205004
0.077650003 -0.0023939 0.081648998
0.0073548998 0.076622002 0.094272003
0.013317 0.067754 0.13304999
0.011967 0.068227001 0.13281
0.0039553 0.0065727001 0.17744
0.0038425 0.0040130001 0.17564
0.063946001 -0.049024999 0.12456
0.063421004 -0.048147 0.12502
0.063799001 -0.049166001 0.12747
0.064773999 -0.047391001 0.12574001
0.080610998 -0.020168999 0.10003
0.078529 -0.017449001 0.10071
0.077881999 -0.0023992001 0.078809001
0.077993996 -0.00099276996 0.077699997
0.077301003 -0.032067999 0.097402997
0.077284999 -0.019773999 0.078216001
0.073546 -0.033190999 0.052792002
0.0067727002 0.080646001 0.11655
0.063230999 0.033771001 0.085902996
0.070716999 -0.045839 0.086497001
0.0042873002 0.0067385002 0.17747
0.0027695999 0.0064511001 0.17567
0.0019956001 0.0048052999 0.17654
0.0040715998 -1.1965e-05 0.17636999
0.0030381 -0.00097618002 0.17494
0.0053141001 0.0021051001 0.17654
0.0041692001 0.0012242 0.17673001
0.0043159002 0.0012608001 0.17623
0.01139 0.066698 0.13128
0.011891 0.067800999 0.13241
0.0099860998 0.069334999 0.13170999
-0.012687 0.042759001 0.16795
-0.010279 0.054111999 0.16467001
-0.010536 0.053653002 0.16448
-0.011552 0.053162999 0.16548
-0.014752 0.066826999 0.15353
-0.013848 0.066398002 0.15309
-0.01451 0.067662999 0.15243
0.064255998 -0.048930999 0.1248
0.065113001 -0.048172001 0.12503999
0.063683003 -0.050345998 0.12702
0.064416997 -0.046209 0.12442
0.011474 -0.0078817001 0.17196
0.010838 -0.0082914997 0.17515001
0.01009 -0.0080281002 0.17346001
0.074887 -0.037367001 0.059597999
-0.0033674999 0.026292 0.17532
-0.0034900999 0.025418 0.17456999
0.078538999 -0.0028784999 0.077375002
0.017561 -0.036846001 0.14122
-0.0053961999 0.051794 0.17061
-0.0073719998 0.049538001 0.17091
0.010752 0.073095001 0.11749
0.0062564998 -0.0092420997 0.17114
0.0045520002 -0.0091057997 0.17235
0.011698 0.068012998 0.13083
0.011508 0.067025997 0.12915
0.010974 0.069527 0.13011
0.012018 0.070487 0.13075
0.064740002 -0.050528001 0.12376
0.063077003 -0.049839001 0.1232
0.066106997 -0.048516002 0.12268
0.064915001 -0.047021002 0.12352
0.00019265 -0.003821 0.17292
0.070981003 -0.038601998 0.079225004
0.077725001 0.0071067 0.087269001
-0.0055104 0.01031 0.17217
0.0011118 0.082944997 0.086246997
0.01041 0.066941001 0.12973
0.012028 0.064769998 0.13085
0.011267 0.068795003 0.12988
0.010603 0.071993999 0.12939
0.080031998 -0.011482 0.097333997
0.0089234002 0.076297 0.119
0.00079707999 0.099137999 0.094664
0.080911003 -0.0089122001 0.095219001
0.0037895001 0.025558 0.17475
0.0017054999 0.025257001 0.17506
0.0031007 0.024216 0.17497
-0.056212999 0.073661998 0.11654
0.065135002 -0.047118999 0.12199
0.064698003 -0.046854999 0.12287
0.080348998 -0.0060267001 0.096276999
0.080509998 -0.0054977001 0.094875999
0.076169997 -0.021667 0.077324003
0.078002997 -0.022027001 0.077518001
0.071359999 -0.038375001 0.077953003
0.078496002 -0.015992001 0.10131
0.012132 0.066120997 0.12874
0.01183 0.066367 0.12892
0.0097805997 0.069995001 0.1278
0.0093131 0.070990004 0.12916
-0.055249002 0.075181 0.1151
0.071114004 0.017215 0.071571
0.064575002 -0.049371999 0.12059
0.063986003 -0.048689 0.12188
0.064874001 -0.048999999 0.12244
0.065176003 -0.046847999 0.1217
0.0022523 0.097952999 0.099780001
0.071555004 0.013905 0.071857996
0.0025169 0.090053 0.092355996
0.080647998 -0.0091289002 0.088685997
0.078837 -0.027729999 0.088804998
0.0073772999 -0.0083657 0.17047
0.0063987002 -0.0093908003 0.17129999
0.071023002 0.013384 0.071525
0.0176 -0.037144002 0.14069
0.019707 -0.036208998 0.14068
0.011979 0.066834003 0.12659
0.012569 0.067900002 0.12626
0.012041 0.069580004 0.12804
0.0093825003 0.070249997 0.12816
0.0093005998 0.073723003 0.12782
0.066160999 -0.050406002 0.12122
0.0647 -0.048849002 0.11861
0.065324001 -0.048636001 0.12077
0.064239003 -0.046078999 0.12015
0.0030139 0.087922998 0.095702998
0.081184998 -0.0087895999 0.088198997
0.079558 -0.011469 0.088699996
0.077546 -0.029459 0.091352001
-0.0037676999 0.053213999 0.17437001
-0.0056204 -0.040637001 0.13019
-0.0045562 -0.041087002 0.1301
-0.0050289002 -0.039655998 0.13023999
0.0057186 -0.0094977003 0.16946
0.072148003 -0.040502001 0.066307999
0.00038692 0.08681 0.085409001
0.06267 0.013981 0.11293
0.078708999 -0.017645 0.088991001
0.012654 0.067516997 0.12773
0.011905 0.066551 0.12498
0.012285 0.069366001 0.12755001
0.010024 0.071768001 0.12639999
0.010317 0.071005002 0.12642001
0.010134 0.073748 0.12574001
0.065113001 -0.04778 0.11967
0.065752998 -0.046758998 0.1199
0.0024524999 0.085789002 0.094315998
-0.0082321996 0.064438 0.16023999
0.078337997 -0.016581999 0.089552
0.070827998 -0.042847 0.090777002
0.078906 -0.031230999 0.088838004
0.0067921998 -0.0066519999 0.17341
-0.0014881 0.061565001 0.17599
-0.0014068 0.062677003 0.17533
-0.0043520001 0.061404999 0.17598
0.076947004 -0.0029114999 0.075021997
0.01166 0.067289002 0.12497
0.011724 0.064925 0.12706999
0.012707 0.065150999 0.12537999
0.012264 0.067322999 0.12625
0.010876 0.069798 0.1258
0.010231 0.071147002 0.1268
0.0085135996 0.072824001 0.12659
0.0095988996 0.073662996 0.12530001
0.0094573004 0.074979998 0.12552001
-0.00095921999 -0.050855 0.15533
0.00011071 -0.051775999 0.15379
0.0007726 -0.049734 0.15436999
-0.0058594998 -0.038888 0.13061
-0.0045600999 -0.038683999 0.13076
0.065967999 -0.048530001 0.11869
0.067061 -0.046737999 0.11878
0.067345001 0.029513 0.078188002
0.066848002 0.028525 0.078689002
0.076779 -0.022134 0.090418003
0.073898003 -0.037939999 0.090227999
0.076301001 -0.034263 0.090513997
0.072527997 -0.040514 0.091049999
0.072232999 -0.03915 0.09093
0.076516002 -0.030052001 0.089587003
0.010627 0.064345002 0.12423
0.01183 0.065015003 0.12452
0.010941 0.068340003 0.12384
0.013051 0.068636 0.12357
0.011728 0.070344999 0.12409
0.010266 0.071746998 0.12504999
0.0090551004 0.073390998 0.12506001
0.0086037004 0.075246997 0.12458
0.065408997 -0.048053 0.11572
0.065728001 -0.048471998 0.119
0.064930998 -0.046649002 0.11691
0.059262998 0.036727998 0.095234998
-0.016935 0.039733 0.16334
-0.016028 0.039816 0.1637
-0.017543999 0.040243 0.16135
0.076250002 -0.032138001 0.090603001
0.075778 -0.034612998 0.089994997
0.080008 -0.0087409001 0.090627998
0.080884002 -0.013641 0.090759002
0.079818003 -0.01314 0.087466002
0.011278 0.064333998 0.12262
0.011204 0.066459998 0.12347
0.011455 0.067642003 0.12244
0.012201 0.068425 0.12246
0.012784 0.070272997 0.12333
0.0095317001 0.071001001 0.12395
0.0083672004 0.073820002 0.12424
0.0093452996 0.075892001 0.12352
0.0098408004 0.076213002 0.1242
-0.035092998 0.081588 0.14045
-0.036596999 0.081478998 0.14163999
-0.036672 0.079613999 0.14338
0.064471997 -0.048882 0.11447
0.065250002 -0.046245001 0.11573
0.066230997 -0.04623 0.11609
0.0019803999 0.087209001 0.097217999
0.0032722999 0.085174002 0.095535003
0.0097246999 0.073133998 0.096119002
-0.0026976001 0.0060717999 0.17383
0.011533 -0.032441001 0.13989
0.010511 0.066605002 0.12237
0.012033 0.065337002 0.12199
0.01245 0.069136001 0.12185
0.010851 0.069167003 0.12182
0.011393 0.070664003 0.12195
0.0090517998 0.072213002 0.12263
0.0099831996 0.073011003 0.12344
0.0087791001 0.075584002 0.12295
0.0080506001 0.076552004 0.12356
0.065761998 -0.049203001 0.11548
0.065747999 -0.047355998 0.11491
0.066262998 -0.046061002 0.11425
0.075231999 -0.025485 0.072692998
0.011784 0.066133 0.11998
0.010626 0.065181002 0.12196
0.011728 0.067037001 0.12155
0.012163 0.068975002 0.12155
0.013363 0.070490003 0.12106
0.01099 0.071727 0.122
0.0085960999 0.072965004 0.12191
0.0079607004 0.075571999 0.12198
0.0072152 0.076278001 0.12287
0.0085995002 0.078034997 0.12294
-0.032005999 0.081563003 0.14216
-0.031289 0.080555998 0.14323001
0.065794997 -0.048834 0.11343
0.066449001 -0.048305999 0.11493
0.067515999 -0.045322001 0.11472
-0.030258 0.076935001 0.14551
0.076264001 -0.026984001 0.074465998
0.01231 0.066229999 0.12022
0.010233 0.065310001 0.11918
0.011223 0.067528002 0.12101
0.012002 0.068754002 0.11969
0.010766 0.070423998 0.12034
0.011557 0.072035998 0.1201
0.0081027998 0.072405003 0.1207
0.0085266 0.075989 0.12151
0.0079618003 0.077653997 0.12138
0.0089715002 0.077716999 0.1211
-0.0020083 0.011729 0.17362
-0.008436 -0.0079132998 0.16608
-0.010642 -0.0080549 0.16481
0.065425999 -0.047734 0.11297
0.066068001 -0.047681 0.11362
-0.043338999 0.086103 0.13643999
0.066642001 -0.046895999 0.11132
-0.027927 0.060543001 0.14223
0.075534999 -0.030229 0.051771
0.066321 -0.025893999 0.12521
0.0088215005 0.076660998 0.093851
0.010287 0.067073002 0.11861
0.0097316997 0.068126999 0.11887
0.012946 0.068264998 0.11976
0.014362 0.071856 0.12036
0.011232 0.072577998 0.11855
0.0086430004 0.073976003 0.11898
0.0074347998 0.073954999 0.11935
0.0073604002 0.077964 0.11929
0.0082144001 0.078676 0.11933
-0.054264002 0.071909003 0.12359
-0.053757001 0.070197001 0.12304
-0.053312 0.069746003 0.1231
0.067727998 -0.048891999 0.11125
0.067038 -0.047187001 0.11271
0.066813998 -0.047003001 0.11242
0.020811999 0.061205 0.17667
-0.011916 -0.052083001 0.14365999
-0.011701 -0.052606001 0.14184999
0.010293 0.064845003 0.12066
0.012556 0.068371996 0.12043
0.011206 0.070237003 0.11828
0.013442 0.071644001 0.11745
0.012745 0.071195997 0.11801
0.0089368997 0.074352004 0.11894
0.0067818002 0.074157 0.11855
0.0074959002 0.078437999 0.11847
0.00667 0.078566 0.11897
0.0076819002 0.081955001 0.11973
0.067218997 -0.048386 0.11142
0.066896997 -0.047125001 0.11082
0.06605 -0.050453998 0.11521
0.038601998 -0.020354999 0.14798
0.040070999 -0.018926 0.14821
0.016013 0.05407 0.184
0.015592 0.054129999 0.18312
0.01622 0.053135999 0.18325
0.074831001 -0.018181 0.074114002
0.011331 -0.010192 0.17295
0.010564 -0.0090273004 0.17314
-0.029452 0.072552003 0.12839
-0.029236 0.073119998 0.12828
-0.029035 0.075047001 0.12768
-0.0051984 0.033123001 0.17763001
-0.0033791 0.033411998 0.17892
-0.0052374001 0.034820002 0.17777
-0.0014715 0.042897001 0.1805
0.0065560001 -0.0051123998 0.17383
0.0054286998 -0.0035474 0.17325
0.0065941 -0.0028663999 0.17534
0.0054819002 0.0018858 0.17586
0.0020812 0.085541002 0.12188
0.001315 0.083223 0.12578
0.0050836001 0.0053323 0.17601
0.0035798999 0.0053659002 0.17723
-0.00033194001 0.043148 0.17846
-0.0011488 0.045306001 0.17821001
-0.0025104999 0.0033378999 0.1737
-0.001485 0.00077768997 0.17213
-0.0025615001 0.0010715 0.17501
-0.0022026999 0.011902 0.17494
-0.0021335001 0.014533 0.17357001
-0.0011153 0.013941 0.17428
-0.00087026 0.015892001 0.17429
0.00012152 0.017727001 0.17343
-0.001104 0.0039176 0.17563
-0.0014165 0.010773 0.17566
-0.0010332 0.0085083004 0.17512999
-0.0016452 0.0094694002 0.17456999
-0.0025507 0.04042 0.17913
-0.0018523 0.036825001 0.1798
-0.001817 0.037461001 0.17945001
-0.0057664998 0.066209003 0.16632
-0.0065640002 0.066768996 0.16506
0.019866001 0.047722999 0.18549
0.019824 0.047283001 0.18505
0.02218 0.049029998 0.18549
0.058508001 -0.052223999 0.1389
0.059335001 -0.051686 0.13694
-0.00094654999 0.020785 0.17259
-0.0012944 0.020883 0.17117
0.0033358999 -0.041809998 0.14847
0.0045810998 -0.044463001 0.14972
0.0056631002 -0.043239001 0.15003
0.010551 0.041903 0.18342
0.00076631998 0.020074001 0.17245001
0.0031425001 0.01764 0.17299999
0.0011244999 0.01881 0.17265999
-0.030160001 0.074187003 0.1275
-0.029223001 0.074510001 0.12739
-0.0022241001 0.026225001 0.17382
-0.0027315 0.024551 0.17521
-2.5154999e-05 0.025587 0.17501999
0.0075971 0.039253999 0.18289
0.0046065999 0.0081195002 0.17726
0.0025084 0.0095582996 0.17640001
0.013497 0.033046 0.18574999
0.012752 0.031417001 0.18523
0.011834 0.031684998 0.18569
-0.0055280998 0.048434999 0.17219999
-0.0081586996 0.048466001 0.1725
0.0086703002 0.056591999 0.18129
0.0075502 0.056619 0.18248001
0.0077101998 0.054719999 0.18083
-0.0013977 0.036286999 0.18061
0.0066775 0.019332999 0.17186999
0.0082486002 0.020060999 0.17321999
0.0068862 -0.0017283 0.17494
0.0079268003 -0.00027384999 0.17505001
0.024645001 -0.041561998 0.15530001
0.034265 0.029843999 0.18166
0.034304999 0.029248999 0.18159001
0.034844998 0.030444 0.18019
-0.0014598001 0.034441002 0.18013
-0.0019566 0.032083999 0.18096
-0.00063503999 0.031971999 0.17987999
0.00022243999 0.029121 0.17907
-0.00097858999 0.031238999 0.178
-0.0012034 0.027611 0.17882
-0.0075041 0.047010999 0.17204
-0.0086318003 0.046445001 0.17126
-0.0079383999 0.045451999 0.17269
-0.0075007002 0.048289999 0.1723
-0.0081796004 0.045673002 0.17398
-0.0082659004 0.048555002 0.17144001
0.00073231 0.086695999 0.11667
0.0022638999 0.022568 0.17328
0.0014746001 0.024381001 0.17603
0.0061126999 0.014772 0.17523
0.0024749001 0.021954 0.17248
0.0020528999 0.022016 0.17182
0.0023405 0.020609001 0.17445999
0.034975 -0.049472999 0.16394
0.034763999 -0.048856001 0.16243
0.032733001 -0.050092999 0.16338
0.027749 -0.030027 0.1472
0.025858 -0.028582999 0.14782
0.024994001 -0.029487999 0.14598
0.0039821998 0.064962998 0.17629001
0.0066761998 0.064649999 0.17564
0.0040541999 0.065854996 0.17574
0.039007001 -0.051468998 0.16091
0.039475001 -0.051001001 0.16069999
0.039546002 -0.050723001 0.16201
0.0055097998 0.016387001 0.17557999
0.0052260999 0.018537 0.17398
-0.006519 0.0074391998 0.17126
-0.0049860999 0.038219001 0.17806999
-0.0046760999 0.037306 0.17872
-0.0060699 0.037450999 0.17716999
-0.0055443002 0.035376001 0.1769
-0.0086267004 0.045938998 0.17385
-0.0042467001 0.040778 0.17823
-0.0039416002 0.040211 0.17741001
-0.0054615 0.039310999 0.17591
-0.0070908 0.037795998 0.17724
-0.0011275 -0.0062950999 0.17123
0.00087152002 0.0030689 0.17546
0.0013979001 0.0059827999 0.17606001
6.9733003e-05 0.0031564001 0.17562
-0.0016862 0.0041248999 0.17502999
0.0021146999 0.015178 0.17456999
0.0049971999 -0.0082882 0.17282
-0.010949 -0.047924999 0.14139999
-0.0020017 0.064580001 0.17496
0.0066340999 0.018529 0.17291
0.0062714 0.019231999 0.17352
0.0061006998 0.021219 0.17275999
0.0057905 0.022678001 0.17396
0.01501 0.026992001 0.1847
0.01517 0.026636001 0.18302999
0.0027421 0.031064 0.18064
0.0023633 0.029579001 0.18095
0.0018135 0.033172999 0.1823
0.026364001 0.042482 0.088587001
0.025366999 0.042289998 0.087904997
0.015516 0.035340998 0.18827
0.0015339 0.034575 0.18167999
0.0019642001 0.034857001 0.18189
0.0018305 0.037586 0.18253
0.0020687 -0.040360998 0.14456999
-0.0069729001 0.062944002 0.16982
-9.2490998e-05 -0.0092465002 0.17016999
0.0020006001 0.037556 0.18076999
0.0018 0.039423998 0.18288
0.0011912 0.040532999 0.18097
-0.049715001 0.084813997 0.13755
-0.048726 0.084086001 0.13762
0.0023332001 0.04315 0.18066999
0.0027552999 0.044202998 0.18093
0.0027594001 0.044229999 0.18015
0.049929 -0.052058 0.13753
0.051054001 -0.050374001 0.13874
0.048967998 -0.052310999 0.13853
0.0034660001 0.048110999 0.17856
0.0044241999 0.047864001 0.17879
0.013876 0.046043001 0.18177
0.0011668 0.010225 0.17617001
-0.00013651 0.010811 0.17719001
0.00016739 0.0085989004 0.17507
0.00058688002 0.01292 0.17611
0.0012487 0.0093651004 0.17673001
0.00097843003 0.01093 0.17467999
0.00080430001 0.0079715997 0.17558999
-0.0035892001 0.030582 0.17839999
-0.0044268002 0.030014001 0.17896
-0.031645998 0.076889999 0.14564
-0.030879 0.078281999 0.14451
0.0044155 0.048202001 0.17805
0.0046108002 0.049915999 0.1767
0.0052502998 0.050406002 0.17771
0.0039173998 0.054023001 0.17776
0.0033507999 0.055061001 0.17957
0.0036269 0.056022 0.17893
0.0033729 0.057601001 0.17866001
0.0034029 0.058486 0.17844
0.0037891001 0.060125999 0.17847
-0.0076859002 0.043365002 0.17395
-0.0087697003 0.025505001 0.17207
-0.010059 0.028134 0.1708
0.0043540001 0.061896 0.17927
-0.0096931998 0.026943 0.17105
-0.0097851995 0.028999001 0.17146
-0.0099876998 0.030246999 0.17106999
0.024391999 -0.042546 0.15881
0.024913 -0.042571999 0.15893
-0.0074091 0.043221001 0.17432
-0.0064607002 -0.0070793 0.16845
0.0053788 0.063878 0.17688
-0.011401 0.031309001 0.17118999
-0.010842 0.032621998 0.17007001
-0.011527 0.031536002 0.16992
-0.011143 0.034839001 0.17183
-0.011939 0.034734 0.16968
-0.011985 0.032818999 0.16924
-0.0068391999 0.033829998 0.17577
-0.0074069998 0.033810999 0.1761
0.0010685 0.012928 0.17569999
0.0036802001 0.064613998 0.17549001
0.018564999 0.030864 0.18799999
0.017297 0.047809001 0.18523
0.017819 0.050308 0.18526
0.0046930001 0.0088526998 0.17640001
0.0049675 0.010465 0.17704
0.018872 0.040047999 0.18896
0.020352 0.041305002 0.18719999
0.018191 -0.049353 0.15462001
0.017405 -0.047001 0.15448
-0.0058129998 0.066542998 0.1681
0.0096693998 0.054411002 0.18063
0.0094154999 0.052313 0.18097
-0.0021858001 0.045054 0.17738999
-0.0034666001 0.043579001 0.17597
-0.011484 0.031230999 0.17037
-0.0080570001 0.043471999 0.17442
0.010916 0.051670998 0.18145999
0.01826 -0.045219 0.15429001
0.018549999 -0.044953998 0.15372001
0.020013001 -0.042714 0.15025
-0.0078461999 0.040477 0.17425001
-0.0087286998 0.041726999 0.17452
-0.0068163001 0.062075999 0.17014
0.021136999 -0.040585 0.14851999
0.019386999 0.040500998 0.097676001
0.020237001 0.041420002 0.097861998
0.017529 0.040483002 0.098512001
0.00092227 0.00074599998 0.17359
0.00074117002 0.0016059 0.17443
0.0010646 4.1243999e-05 0.17465
0.00039067 0.029555 0.18107
0.021330001 -0.041266002 0.14833
-0.011388 0.049844999 0.16764
-0.0069836001 0.051282998 0.16929001
-0.0059822001 0.053293001 0.16903
-0.010715 0.0029285999 0.16772
-0.010161 0.0058263 0.16821
-0.011582 0.0038028001 0.1665
0.066937998 -0.051052 0.111
0.066744998 -0.050831001 0.11106
0.066754997 -0.051121999 0.11185
0.023898 -0.044737998 0.15958001
0.066802002 -0.052553002 0.10995
0.0024832 0.081235997 0.085239001
0.0025003999 0.081689999 0.085161999
0.0029515 0.081897996 0.085940003
0.021837 -0.039391 0.14509
-0.010603 0.030571001 0.17038
-0.0095560001 0.062570997 0.16573
-0.0098684002 0.063736998 0.1644
-0.0096840998 0.062739998 0.16456001
0.0081393998 0.031693999 0.18221
0.0083886003 0.031484999 0.1821
-0.0064459001 0.043382999 0.17496
0.023209 -0.038798001 0.14638001
0.0038846999 -0.0012381 0.17377
0.0016934 -0.0019989 0.17325
0.0218 -0.035882 0.14709
0.023172 -0.036336999 0.14512999
0.022528 -0.034416001 0.14545999
0.0010574 0.012987 0.17475
0.00089720002 0.013755 0.17565
0.00082784001 0.015155 0.17489
0.023189999 -0.032235 0.14545
-0.0074789999 0.012928 0.17067
-0.0068331002 0.049695 0.17033
-0.0070178001 0.050179999 0.16958
-0.0053693 0.06095 0.17366999
0.0045456002 0.001433 0.17655
-0.0090105999 0.019326 0.1673
-0.0080124 0.020207001 0.16576999
-0.0098853996 0.01921 0.16553999
-0.0082157003 0.022799 0.1663
0.017385 0.054219 0.18233
0.017433001 0.053665999 0.18239
-0.00031087 0.088180996 0.085115999
-0.0015306 0.089539997 0.085800998
-0.0077415998 0.023870001 0.16921
0.017434999 -0.034143001 0.13936
0.018501 -0.034022 0.1398
0.016101001 -0.032912999 0.13965
0.014437 0.031273998 0.18715
0.0072388998 0.016028 0.17426001
0.0078950999 0.01678 0.17414001
0.011592 0.037466999 0.18402
0.011109 0.037758 0.18356
0.0094831996 0.038539 0.18426
0.012118 0.049869001 0.18221
0.0061305999 0.078230001 0.088868
0.0030179999 0.083878003 0.086278997
-0.0072875 0.017399 0.16862001
-0.0076393001 0.015976001 0.16769999
-0.0080235004 0.017269 0.16806
-0.010749 0.061859999 0.16266
0.00031154 0.00072588999 0.17477
-0.0022908 0.085375004 0.083898
-0.0014248 0.087077998 0.083299004
-0.00059658999 0.086071 0.083471
-0.0017122 0.088962004 0.083618999
-0.00095073 0.086292997 0.084909
0.015298 0.042525999 0.18445
0.003606 0.01156 0.17670999
0.0052503999 0.010852 0.17624
0.014481 0.054687999 0.18268999
0.014211 0.056331001 0.18284
0.01351 0.056364998 0.18082
-0.0069844001 0.033516001 0.17851
-0.0053547998 0.033718001 0.17749999
0.0014201 0.097020999 0.10051
0.0028136 0.095980003 0.1033
-0.037574999 0.062240001 0.13673
-0.037760999 0.062657997 0.13653
-0.036424998 0.062238 0.13574
0.01926 0.039012 0.19019
0.038229998 -0.014351 0.15263
0.038238999 -0.014965 0.15081
-0.0017614 0.062508002 0.17577
-0.0022467 0.064663999 0.17512
-0.051562998 0.067153998 0.12433
-0.050294999 0.067394003 0.12557
-0.0098788003 -0.0011585 0.16836999
-0.01064 -0.00037038 0.16867
-0.0095658004 0.00055186998 0.16734
0.0027153001 0.077812001 0.1331
0.0035661999 0.076774999 0.13461
0.0033386999 0.078102 0.13181999
0.030079 -0.039760001 0.15791
0.02737 -0.031830002 0.1472
0.025832999 -0.030789001 0.14648999
0.025628 -0.034017 0.14605001
-0.019832 0.071964003 0.15042999
-0.021088 0.069320999 0.15056001
-0.033064 0.059661999 0.13809
-0.034228999 0.061423 0.13952
-0.034510002 0.061843999 0.13867
0.030792 -0.023497 0.14959
0.028981 -0.02585 0.14872
-0.0040159998 0.044238999 0.1771
-0.0045611002 0.042493001 0.17643
-0.010897 0.0018659 0.16863
-0.01095 0.0018872001 0.16791999
-0.01258 0.00060739001 0.16774
-0.0097561004 0.01186 0.16749001
-0.0090410998 0.01228 0.16851
-0.010493 0.011519 0.1693
0.052476998 -0.050471 0.14215
0.050624002 -0.049238 0.14193
-0.012589 0.031546 0.16852
-0.00020367 0.083705001 0.084408
0.0087588998 -0.0088146003 0.17242
0.0075784 -0.0094478 0.17043
0.0075634001 -0.0067345998 0.17246
0.0082013002 -0.0059397002 0.17436001
-0.010413 0.010725 0.16923
-0.010404 0.010952 0.16848999
-0.0072356001 0.062143002 0.17041001
-0.0072756 0.059360001 0.1705
-0.010504 0.0016109 0.16983999
-0.0092634 0.0049043 0.16734999
0.0025702999 0.071373001 0.14114
0.0033419 0.072407 0.14015
0.001837 0.072195001 0.14024
-0.0084977997 0.059992 0.16852
0.0083002998 -0.0048135999 0.17398
0.0066435998 -0.0023568999 0.17603
0.021203 -0.0068227001 0.17159
-0.0074017001 0.023355 0.1679
-0.0029358999 0.055677 0.17344999
-0.0037165 0.055128999 0.17381001
-0.011742 0.037232 0.17195
-0.010369 0.031684998 0.17297
0.017782999 -0.030005001 0.14477
0.0174 -0.030092999 0.14613
0.017882001 -0.030675 0.14371
0.029766001 -0.03779 0.15061
0.01282 0.032706 0.18629
0.0055411998 0.0030835001 0.17579
0.023716001 0.042617001 0.091688
-0.040204 0.082883 0.1406
-0.041327 0.081583999 0.14225
-0.040463999 0.080587 0.14117999
0.057257999 -0.052937001 0.13604
0.020165 0.050246 0.18361001
0.019319 0.053477 0.18521
0.018314 0.050041001 0.18574999
0.017827 0.040672 0.18772
-0.0089795003 0.0095678996 0.16836999
-0.0099219996 0.010079 0.16813999
0.017805001 0.037618998 0.18882
0.017157 0.037308998 0.18786
-0.0079253996 0.058307 0.16948999
-0.0070254998 0.058221001 0.17196999
-0.0036321001 -0.017270001 0.15903001
-0.010671 -0.0066983001 0.16407
-0.0091348998 -0.0066820001 0.16574
-0.0096862996 -0.0055561 0.16402
0.026777999 -0.036474999 0.14798
0.028334999 -0.036922999 0.14678
0.026876001 -0.034685001 0.14715999
-0.0082874997 0.013476 0.16914
-0.0089560002 0.015985999 0.16874
-0.0091754999 0.013581 0.16951001
0.01434 0.039687999 0.18700001
0.016339 0.042128 0.18604
-0.0083427001 0.022894001 0.16695
-0.0096163005 0.022806 0.16487999
0.0044265999 -0.041575 0.14894
0.0018533 -0.040920999 0.14703999
-0.032226998 0.079066999 0.14447001
0.0080094002 0.062613003 0.17787001
0.0083060004 0.065661997 0.17586
0.0078501003 0.062821001 0.17859
0.015772 0.045855999 0.18403
0.015115 0.044778001 0.18399
-0.0084597999 0.011265 0.17044
-0.0072730002 0.012624 0.16983999
-0.010671 0.0077049001 0.16718
-0.010768 0.00954 0.16695
-0.0091738002 -0.0054271002 0.16542
-0.011873 0.0081495997 0.16689999
0.0056294999 0.074663997 0.097903997
-0.0079097003 0.041104 0.17403001
-0.010181 0.039177001 0.17290001
0.02451 -0.040557001 0.15284
0.014712 -0.041639999 0.14167
0.015057 -0.041995 0.14294
0.01326 -0.040079001 0.14168
0.010677 0.028024999 0.18404999
0.010426 0.030959001 0.18278
-0.0015510001 0.059080001 0.17641
0.016708 0.031548001 0.18735
-0.0030994001 0.058284 0.17676
-0.0037674 0.056862999 0.17459001
0.016155001 0.038736999 0.18571
0.017322 0.037864 0.18844999
0.016244 0.040064 0.1869
0.02778 -0.035209 0.14725
0.028697999 -0.033944 0.14765
0.026422 -0.034616001 0.14609
0.0082259998 0.045173999 0.18099999
0.0078531001 0.046112999 0.18102001
0.026082 -0.038128 0.1488
0.0051882002 0.037588999 0.1831
0.0075665 0.035565 0.18318
0.015830001 -0.039030999 0.13977
0.013872 -0.038325001 0.14126
0.014956 -0.038977001 0.14145
-0.0034702001 0.041618999 0.17893
-0.0081909001 0.064328 0.16525
-0.0095263002 0.064432003 0.16365001
0.0096298 0.031429 0.1832
0.010261 0.031970002 0.18493
-0.011372 0.026644001 0.16773
-0.011212 0.026378 0.16846
-0.012843 0.027128 0.16765
0.017131999 -0.033386 0.14055
0.018626001 -0.032687999 0.14136
0.018453 -0.030762 0.14346001
-0.0014475 0.065752998 0.17077
-0.0047669001 0.066862002 0.16553999
-0.0094961999 0.029789001 0.17310999
-0.010913 0.032430999 0.17219999
0.00035096999 -0.040562999 0.14748
-0.010538 -0.0037070001 0.16656999
-0.0093997 0.0057195001 0.16757999
-0.011257 0.0063156998 0.16749001
-0.0079862997 0.032627001 0.17513999
-0.0065974002 0.033091001 0.17601
-0.0067420001 0.029835001 0.17698
-0.0072292001 0.029835001 0.17581999
-0.008014 0.031690001 0.17558999
-0.0057827998 0.027719 0.17459001
-0.007671 0.030183 0.17569
-0.0059465002 0.028845999 0.17541
-0.0073754 0.037866 0.1743
0.017651999 0.052476 0.18399
0.017626001 0.051989999 0.18497001
0.018111 0.053015999 0.18335
-0.011131 0.011265 0.16697
-0.010172 0.0075031999 0.1684
0.017037001 -0.031270999 0.14138
0.016515 -0.032805 0.13937999
0.011679 0.029196 0.18483999
-0.0023880999 0.026498999 0.17652
-0.00029601 0.025927 0.17541
0.0078264 0.033936001 0.18178
0.0065104002 0.034419999 0.18212999
0.0082932999 0.017006001 0.17618001
0.0023777999 0.095324002 0.10641
0.0064294999 0.0011806 0.17569
0.0050345999 0.0031858 0.17806
0.0065115001 0.017857 0.17386
-0.011408 0.012238 0.16749001
-0.003602 0.040936999 0.17814
0.016611001 -0.04332 0.14393
0.015763 0.044147 0.18433
-0.0058284998 -0.043232001 0.13878
-0.0063171 -0.041912999 0.13798
-0.0081257001 0.044425 0.17441
-0.048700999 0.083984002 0.13726
-0.0064698001 -0.017200001 0.15834001
-0.0071077999 0.019235 0.16865
-0.012058 0.029267 0.1684
-0.013995 0.029695 0.17027
-0.011411 0.024871999 0.16709
-0.010857 0.032919999 0.17141999
-0.01102 0.035863999 0.17157
-0.0038311 -0.045226 0.15092
-0.0052260002 -0.046073001 0.14974
-0.0041733999 -0.045588002 0.15113001
-0.0095902998 0.033721998 0.17208999
-0.0099186003 0.033776999 0.17287
0.007129 0.019252 0.17324001
0.020664001 0.039698999 0.10222
0.0084336 0.021483 0.17308
-0.010819 0.023684001 0.16537
-0.010117 0.026304999 0.16497
-0.011201 0.0025036 0.16812
0.013677 -0.043691002 0.1424
0.01219 -0.041168001 0.14278001
0.013183 -0.041489001 0.14380001
-0.0069114999 0.048845001 0.17129999
0.018079 -0.038407002 0.14162999
0.0085412003 0.023071 0.17516001
0.0071378001 0.025038 0.17512999
0.0071847001 0.024047 0.17648
0.0073763998 0.023956999 0.17599
-0.012792 0.03331 0.17003
-0.0040397998 0.060153 0.17607
0.072679996 -0.046799999 0.087379999
0.02743 -0.039491002 0.15417001
0.027872 -0.038470998 0.15452
0.0060441 -0.03506 0.14181
-0.010867 0.0059373998 0.16721
0.0033905001 0.032646999 0.18065999
0.018497 0.030548001 0.18779001
0.019532001 0.030595999 0.18794
0.018074 0.031643 0.18866999
-0.051445 0.068333998 0.12226
0.029217999 -0.042970002 0.16007
0.029942 -0.042980999 0.16151001
0.0035677999 0.028444 0.18075
0.0044323001 0.033403002 0.18243
-0.0045973998 0.041664001 0.17605001
-0.0074319001 0.056272998 0.16847
-0.0072542001 0.034428 0.17623
0.017123001 0.035367001 0.18911
0.020109 -0.032512002 0.14466
0.019502001 -0.030776 0.14316
0.019536 -0.031097 0.14311001
0.028184 -0.029787 0.14851999
0.025869999 -0.029324999 0.14634
-0.0098441998 0.026091 0.16744
-0.015773 -0.044008002 0.10821
-0.013757 -0.041166998 0.10942
-0.015758 -0.043166 0.10802
0.0015849 0.03441 0.18175
0.017995 -0.036688 0.14022
0.039686002 -0.051665001 0.16103999
0.039921001 -0.051135998 0.16017
0.0071486002 0.075139999 0.091727003
0.0069495002 0.075230002 0.092653997
0.014027 0.041441999 0.18553001
0.013944 0.042870998 0.18520001
0.017054999 0.042854998 0.18547
0.0035196 0.035618 0.18222
0.069918998 -0.050758999 0.088872999
0.071294002 -0.048893999 0.087918997
-0.0063121002 0.044581 0.17584001
-0.012862 0.048912 0.162
-0.014195 0.046184 0.16136
-0.013604 0.047279 0.16137999
0.010798 -0.053605001 0.1515
0.011908 -0.053743001 0.15103
0.011028 -0.053059001 0.15095
-0.0081853997 0.015012 0.16944
-0.00021948 0.052590001 0.17765
0.014761 0.031388 0.18697999
-0.0032862001 0.060857002 0.17524999
-0.0099421004 0.029052 0.17163
0.0050015999 0.057661001 0.18038
0.0050328001 0.057466 0.17985
0.0044693998 0.058915999 0.18029
0.01346 -0.050166 0.15076999
0.013154 -0.051068999 0.15257999
0.013426 -0.048989002 0.15229
0.020295 0.019215999 0.17295
0.019535 0.020234 0.17294
0.019634999 0.019548999 0.17339
0.011925 0.055493001 0.18285
0.014022 0.030153001 0.18624
0.0012242 0.082840003 0.085216999
-0.0096298996 0.0053758998 0.16869
0.0065637999 -0.012787 0.16863
0.047010999 -0.051187001 0.14124
0.045678001 -0.052698001 0.14249
0.044922002 -0.052698001 0.14091
0.014773 -0.044640999 0.14563
0.01385 -0.045355 0.14760999
-0.0099761998 -0.0048896 0.16487999
-0.011066 -0.050030001 0.14296
-0.011692 0.041719001 0.17087001
-0.0072718002 0.022174001 0.16838001
0.0010812 -0.0067437999 0.17249
-0.030687001 0.07638 0.14508
-0.0067139999 0.057158001 0.16966
-0.0097791003 0.01059 0.16977
0.016155001 0.027825 0.18465
0.016571 0.027899001 0.18578
0.00045215999 0.084457003 0.084320001
-0.0013136 0.031350002 0.17930999
-0.012685 0.051279999 0.16538
-0.010949 0.054014001 0.16677999
-0.011343 0.052471999 0.16511001
0.0026169999 0.037884001 0.18211
0.002663 -0.0028103001 0.17377
0.0015929 -0.0017244 0.17298999
0.00083520001 0.084096998 0.084856004
0.00064478 -0.0053353002 0.17172
0.0026376999 0.038228001 0.18189999
-0.010657 0.013317 0.16700999
-0.046172 0.084211998 0.14124
-0.044032 0.082097001 0.14003
-0.044736002 0.083208002 0.14102
-0.0010627999 -0.042594001 0.14774001
-0.0083255004 0.060671002 0.16569
0.013909 0.029467 0.18337999
-0.012144 0.038855001 0.16999
-0.0080252998 0.017715 0.16789
0.071981996 -0.048955999 0.092166997
0.0027151001 -0.0039377999 0.17146
0.033895001 -0.015045 0.15775
0.014838 -0.037930001 0.14026999
0.040052999 -0.051436 0.15963
0.040064 -0.051125001 0.16096
0.016713001 -0.034543 0.14015
0.015069 -0.033955999 0.13924
0.044714 -0.052864 0.13982999
-0.0080519002 -0.0039011999 0.16766
0.048469 -0.053833999 0.14004
0.049504001 -0.053268999 0.13911
0.048037998 -0.052267998 0.13868999
0.010623 0.023531999 0.17460001
0.012448 0.02403 0.17460001
0.011413 0.023483001 0.17429
0.046744 -0.051573001 0.14256001
0.0018223 0.039267 0.18167
0.014679 0.038382001 0.18752
0.012196 0.044054002 0.18379
0.015819 -0.042876001 0.14643
0.015089 -0.042845 0.14233001
-0.0080295997 0.016574999 0.16865
-0.011813 0.043242 0.16998
0.0098243998 0.051833 0.18133
0.010836 0.043212 0.18308
0.0093882997 0.044629999 0.18170001
-0.010237 0.039476998 0.17004
0.018533001 -0.036047999 0.14041001
0.015148 -0.033735 0.13946
-0.0030553001 0.053916 0.17538001
-0.0026692001 0.056573 0.17595001
0.0037150001 0.039700001 0.18178
0.002291 0.042516001 0.18117
-0.0069535999 0.059935 0.17064001
0.065407999 -0.0046549998 0.1339
0.064557999 -0.0063691 0.13209
0.019724 0.049086001 0.18415999
-0.0057327002 -0.019595999 0.15700001
0.0014704 0.070814997 0.14081
0.0022356 0.070704997 0.14177001
0.0036005999 0.069619998 0.14244001
-0.0071345 0.020948 0.16661
0.0038302001 0.043340001 0.18053
0.043666001 -0.051615998 0.14293
0.0044896998 -0.037558001 0.14259
0.018239999 -0.047734 0.15808
0.021486999 -0.047437001 0.1594
0.018314 -0.047888 0.15693
-0.0079469997 -0.0036277999 0.16795
-0.0095590996 0.033289 0.17314
-0.0064502 -0.0053596999 0.16756999
0.013894 0.028695 0.18556
0.006848 0.00049488002 0.17631
0.016447 0.051056001 0.1829
-0.040824998 0.06146 0.13426
-0.041411001 0.064937003 0.13437
-0.042803999 0.064499997 0.13565999
-0.010613 0.039985999 0.17082
0.0040769 0.046525002 0.18055999
