# .PCD v0.7 - Point Cloud Data file format
VERSION 0.7
FIELDS x y z
SIZE 4 4 4
TYPE F F F
COUNT 1 1 1
WIDTH 1665
HEIGHT 1
VIEWPOINT 0 0 0 1 0 0 0
POINTS 1665
DATA ascii
0.19427 0.14035 0.24749
0.17417 0.15955 0.27592
0.16325 0.24608999 0.25784999
0.16351999 0.24631 0.25731999
0.15893 0.13033 0.26453
0.15849 0.12999 0.26315001
0.1626 0.22050001 0.26723999
0.17817999 0.094848 0.2798
0.1859 0.15775999 0.27603999
0.18577 0.18982001 0.26930001
0.19532999 0.11046 0.26120999
0.18773 0.15275 0.27057999
0.13440999 0.060988002 0.25369
0.15654001 0.19611 0.25749999
0.18303999 0.086686 0.30337
0.18279999 0.084233999 0.30329999
0.21269999 0.057806998 0.27608001
0.19684 0.083814003 0.29492
0.18234999 0.14969 0.28670001
0.16672 0.081215002 0.28742999
0.1778 0.16599 0.27232
0.17734 0.16605 0.27265
0.16226999 0.24651 0.25683999
0.15786999 0.12265 0.26688001
0.16825999 0.11549 0.27366
0.1846 0.073316999 0.30245
0.16511001 0.081932001 0.28619
0.17124 0.17298999 0.27122
0.17196999 0.17406 0.27046999
0.17178001 0.17315 0.27122
0.1539 0.084539004 0.27221
0.15354 0.083970003 0.27329999
0.16694 0.064686 0.28952
0.1839 0.17873999 0.26925999
0.15132 0.057335 0.28560999
0.15231 0.057751998 0.28472999
0.18082 0.093105003 0.28171
0.18348999 0.059544999 0.31549001
0.17871 0.22916 0.27065
0.15333 0.18307 0.26102
0.18533 0.23602 0.26194
0.15859 0.052067999 0.29791999
0.15829 0.053668998 0.29736999
0.18348999 0.094380997 0.27873999
0.16313 0.21286 0.27638999
0.22426 0.05565 0.22786
0.14769 0.15541001 0.26141
0.14636 0.15458 0.26111999
0.15377 0.15137 0.26707
0.19893999 0.066960998 0.28400999
0.19879 0.067734003 0.28481001
0.15917 0.21524 0.25964999
0.1561 0.24457 0.25760999
0.16571 0.15651 0.27925
0.17059 0.084335998 0.29523
0.20969 0.075722001 0.24868
0.15880001 0.13101999 0.26319
0.18054 0.12915 0.28149
0.17215 0.16694 0.27311999
0.2087 0.060825001 0.26554999
0.15968999 0.20636 0.25178999
0.15672 0.12658 0.26743999
0.14619 0.13417 0.25600001
0.19251999 0.083136998 0.29778001
0.19255 0.083296999 0.29629001
0.20179 0.074699998 0.26012999
0.20152999 0.074456997 0.25985
0.14519 0.088678002 0.25843
0.1505 0.13263001 0.25961
0.15460999 0.094600998 0.25900999
0.15090001 0.18775 0.25964001
0.17865001 0.24594 0.25119999
0.17899001 0.24491 0.25071999
0.15981001 0.14768 0.27708
0.19425 0.10072 0.26082
0.17848 0.22504 0.27476001
0.15597001 0.056267999 0.29326999
0.18028 0.11787 0.27342001
0.15465 0.055270001 0.2915
0.21786 0.059957001 0.23469
0.21696 0.059064999 0.23537
0.17663001 0.10279 0.27917001
0.15127 0.14683001 0.26530999
0.15215001 0.14732 0.26521
0.16802999 0.2181 0.27779999
0.18875 0.12853999 0.26064
0.15356 0.19807 0.2642
0.17086001 0.22239999 0.27912
0.15977 0.21277 0.25303
0.14371 0.053488001 0.28353
0.14371 0.052916002 0.28393
0.1435 0.052060999 0.28424999
0.15538999 0.17952999 0.25791001
0.18928 0.060130998 0.30596
0.18952 0.060399 0.30579999
0.19536 0.11282 0.25845
0.14677 0.15002 0.26133001
0.15428001 0.23528001 0.25766
0.18827 0.22705001 0.25981
0.17635 0.18234999 0.28268
0.15968999 0.13044 0.26227
0.14598 0.063133001 0.2762
0.17689 0.097439997 0.28238001
0.17036 0.071032003 0.2922
0.18613 0.18415 0.26758
0.15324999 0.21069001 0.26010001
0.16564 0.13612001 0.27390999
0.1551 0.095619 0.25939
0.19009 0.16088 0.25615999
0.18941 0.15971 0.25661001
0.18827 0.14359 0.27072999
0.19179 0.19208001 0.25492999
0.15193 0.072058998 0.27034
0.2146 0.063054003 0.2395
0.21454 0.062785998 0.23845001
0.18511 0.15162 0.28511
0.17288999 0.11992 0.27722999
0.20669 0.067349002 0.24845
0.18623 0.15573999 0.28151
0.17428 0.12214 0.27658999
0.17264999 0.24344 0.27583
0.12366 0.058809001 0.25402001
0.18701001 0.13496 0.26809999
0.17678 0.18675999 0.27877
0.19231001 0.071645997 0.29409999
0.19278 0.071911998 0.29416999
0.16881 0.20156001 0.27516001
0.18418001 0.21428999 0.27193001
0.1838 0.21252 0.27118
0.15257999 0.18409 0.26021001
0.15592 0.10609 0.25850001
0.16483 0.21212 0.27160999
0.16576 0.21289 0.27116001
0.17048 0.1347 0.27619001
0.16114999 0.20200001 0.27178001
0.19296999 0.13286 0.24376
0.16639 0.084679 0.28712001
0.12441 0.052173 0.26258001
0.16181999 0.17165001 0.2581
0.16016001 0.17224 0.25830001
0.16053 0.078529 0.28172001
0.16718 0.16547 0.27250999
0.19017 0.087563999 0.30605
0.17333999 0.23977999 0.28220999
0.15767001 0.21393 0.25231001
0.15807 0.21379 0.25314999
0.17125 0.21152 0.28048
0.15825 0.20001 0.27171001
0.18686 0.081129998 0.30807999
0.18593 0.13721 0.28060001
0.15887 0.12739 0.26715001
0.15813001 0.10486 0.26993001
0.17054 0.17445 0.2739
0.19317999 0.1107 0.27162001
0.15567 0.056439999 0.29302001
0.18254 0.056033999 0.31821001
0.17962 0.18877 0.28633001
0.19712999 0.14766 0.24648
0.19073001 0.20031001 0.25791001
0.20682 0.087471999 0.24818
0.18898 0.13698 0.26176
0.1566 0.091509998 0.26886001
0.19239999 0.13026001 0.24665
0.18951 0.071765997 0.30464
0.17757 0.18375 0.28459999
0.19093999 0.14402001 0.25896001
0.17987999 0.13620999 0.27423999
0.17971 0.13734999 0.27524999
0.16329999 0.17913 0.26659
0.20570999 0.068086997 0.25149
0.17139 0.22488999 0.27213001
0.1864 0.20558 0.26058
0.15431 0.22321001 0.25927001
0.16908 0.19665 0.2816
0.17431 0.10233 0.28049999
0.22562 0.054074001 0.23435
0.15324999 0.2041 0.26337999
0.15798999 0.23727 0.26594999
0.19182 0.23968001 0.25367001
0.19089 0.24061 0.25376001
0.18020999 0.24462999 0.26106
0.17304 0.077941999 0.30202001
0.17366 0.076963 0.30202001
0.17563 0.076816998 0.30342999
0.19375999 0.14580999 0.25193
0.15198 0.23943999 0.25231001
0.15999 0.10087 0.27408001
0.16072001 0.10253 0.27474001
0.16155 0.17387 0.25281
0.16147999 0.17331 0.25328001
0.1876 0.22502001 0.26255
0.16096 0.076816 0.28325
0.18553001 0.12512 0.27904001
0.18666001 0.1261 0.27903
0.18601 0.12511 0.27943
0.11722 0.050767999 0.25299999
0.18345 0.16029 0.27592
0.17945001 0.22465 0.27217999
0.18419001 0.23903 0.26295
0.18954 0.19142 0.26416001
0.18934 0.19134 0.26469001
0.18763 0.18587001 0.25716001
0.18725 0.18337999 0.25646001
0.18867999 0.15056001 0.27162999
0.19330999 0.083453998 0.29769999
0.18686 0.13365 0.27314001
0.21377 0.0583 0.26548001
0.17868 0.24595 0.26019001
0.17166001 0.15693 0.27445999
0.17916 0.18524 0.28608999
0.14363 0.060143001 0.27134001
0.14313 0.06089 0.27083999
0.17145 0.093989998 0.28055999
0.1996 0.077628002 0.30318999
0.16981 0.17784999 0.27526999
0.17016 0.17653 0.27540001
0.14712 0.15263 0.26003999
0.18911999 0.095186003 0.27248999
0.13564999 0.084876001 0.24447
0.13680001 0.084500998 0.24577001
0.14169 0.073829003 0.26041999
0.19033 0.20452 0.25413999
0.16236 0.055953 0.29609001
0.18031999 0.19267 0.28380001
0.19467001 0.066977002 0.30368999
0.18076 0.18407001 0.28492999
0.16346 0.22931001 0.26712999
0.19728 0.083058998 0.30458999
0.18263 0.15253 0.28652999
0.19829001 0.069328003 0.30206001
0.18291 0.20714 0.27687001
0.20204 0.069020003 0.27722999
0.20151 0.069661997 0.27761999
0.18077999 0.18139 0.26984
0.16709 0.063412003 0.28924
0.16908 0.13387001 0.27507001
0.16833 0.13393 0.27443001
0.13052 0.085672997 0.24941
0.13026001 0.087049998 0.24933
0.13172001 0.08602 0.2472
0.19660001 0.14947 0.24657001
0.17545 0.089386001 0.29642999
0.1754 0.088999003 0.29668
0.15056001 0.054508001 0.28543001
0.16067 0.1631 0.25665
0.20221999 0.086117998 0.24807
0.17332 0.10759 0.27976999
0.17562 0.13157 0.27504
0.16012 0.22669999 0.26798001
0.18442 0.059060998 0.31657001
0.1847 0.058607001 0.31729999
0.1558 0.19445001 0.25666001
0.15417001 0.2221 0.25819999
0.16609 0.18221 0.27217001
0.17640001 0.092597999 0.28136
0.18629999 0.20845 0.24676999
0.17591999 0.10986 0.28180999
0.20386 0.058207002 0.28705001
0.18153 0.15221 0.28575999
0.20014 0.088283002 0.24541
0.19595 0.082539 0.29192001
0.15462001 0.083807997 0.27261001
0.15349001 0.083636999 0.27193999
0.18985 0.1319 0.23992001
0.16610999 0.10781 0.27737999
0.1542 0.23231 0.25268999
0.15474001 0.23194 0.25437
0.15671 0.11134 0.26892999
0.15561999 0.080105998 0.27524999
0.13719 0.085712001 0.24899
0.1561 0.11051 0.26725999
0.12153 0.052053999 0.26241001
0.18634 0.13747001 0.26624
0.18674 0.13926999 0.26796001
0.16895001 0.13152 0.27489999
0.15572999 0.11272 0.26157999
0.14455 0.058001 0.27867001
0.1622 0.18585999 0.27157
0.18049 0.05824 0.31127
0.18027 0.059314001 0.30996001
0.19561 0.15391 0.25044999
0.19536 0.1523 0.25165001
0.16933 0.20830999 0.27392
0.18218 0.20661999 0.27528
0.21252 0.050078001 0.28354001
0.15882 0.1733 0.25876001
0.15715 0.10454 0.25861001
0.19482 0.095680997 0.26363999
0.14138 0.072999999 0.26091
0.1848 0.21823999 0.24501
0.18612 0.21955 0.24544001
0.18485001 0.21841 0.2463
0.17648 0.23242 0.27489999
0.18809 0.18894 0.26299
0.16429999 0.17439 0.27011001
0.19931 0.079048999 0.26561999
0.17505001 0.14188001 0.28670001
0.18525 0.19464999 0.2658
0.11668 0.049869001 0.25753
0.18323 0.081965998 0.30947
0.19498 0.15475 0.25075999
0.18377 0.085129 0.30746001
0.17412999 0.23029 0.28161001
0.16293 0.11112 0.27735999
0.18916 0.19142 0.2651
0.18493 0.21303 0.25656
0.17573 0.23401999 0.28093001
0.17601 0.23626 0.28195
0.17449 0.23469 0.28183001
0.13939001 0.050487999 0.28080001
0.13953 0.051371999 0.27954999
0.18716 0.077568002 0.30720001
0.17846 0.1794 0.28237
0.1936 0.057867002 0.31531999
0.20973 0.078474998 0.24613
0.18769 0.2332 0.26381999
0.16045 0.16515 0.25771999
0.16197 0.16469 0.2572
0.16162001 0.16670001 0.25709
0.16478001 0.2212 0.27048001
0.20097999 0.070869997 0.25942001
0.18647 0.063143 0.30443999
0.14731 0.15626 0.26187
0.18647 0.17839999 0.26583999
0.15895 0.085153997 0.27015999
0.15803 0.086338997 0.26982999
0.17578 0.22036999 0.28049001
0.19405 0.054035999 0.31968999
0.13598 0.050168 0.26133001
0.19286001 0.14471 0.26605001
0.1304 0.087369002 0.24914999
0.16404 0.078296997 0.28459999
0.21581 0.051259998 0.26963001
0.1345 0.071898997 0.25599
0.15685999 0.19520999 0.26925001
0.13929 0.067025997 0.25995001
0.16712999 0.23198 0.27022001
0.18723001 0.15761 0.27364999
0.18419001 0.24202 0.26539999
0.17930999 0.17226 0.27055001
0.19784001 0.057918999 0.31777
0.15561 0.15614 0.27066001
0.19561 0.061925001 0.30946001
0.16170999 0.22693001 0.26458001
0.15809 0.23523 0.26570001
0.15786 0.2339 0.26488
0.18141 0.17045 0.26036999
0.2045 0.071198002 0.25929999
0.20469999 0.070156001 0.25887001
0.16838001 0.12436 0.27156001
0.17151 0.15742999 0.27392
0.18727 0.19439 0.26971
0.17524 0.17116 0.27469999
0.17084 0.24324 0.27504
0.21377 0.049989998 0.28424999
0.19912 0.081611 0.26863
0.18289 0.19007 0.28071001
0.21101999 0.072319999 0.24209
0.18832999 0.20638999 0.24812999
0.18795 0.20577 0.24857999
0.14602 0.13699999 0.25584
0.1611 0.12751 0.26029
0.17635 0.22842 0.27695
0.16498999 0.20963 0.27632999
0.20507 0.064997002 0.27836999
0.18708 0.17573 0.26242
0.18644001 0.17069 0.25525001
0.18573999 0.092384003 0.27658999
0.15407 0.21856 0.26155001
0.13177 0.07147 0.25779
0.16423 0.24608999 0.26888999
0.19419999 0.15408 0.25253999
0.19453999 0.15365 0.25299999
0.19475 0.1542 0.25184
0.14861 0.13775 0.26192001
0.14828999 0.13891 0.26278001
0.20609 0.083342999 0.24347
0.13647 0.066850998 0.26124999
0.13790999 0.067080997 0.26117
0.18411 0.18619999 0.26188001
0.18325 0.18636 0.26197001
0.17095 0.17643 0.27917999
0.18069001 0.17555 0.27753001
0.16943 0.11155 0.28099
0.18234999 0.083593003 0.30506
0.20139 0.073384002 0.26001999
0.18946999 0.1051 0.27116001
0.15874 0.15924001 0.26251
0.15916 0.15966 0.26266
0.19442999 0.15524 0.26824
0.21247999 0.057055999 0.26435
0.17235 0.17396 0.27219999
0.16805001 0.21686999 0.27709001
0.16737001 0.21799999 0.27790001
0.18844 0.23192 0.26326999
0.17981 0.059517 0.31015
0.18802001 0.1886 0.27004001
0.13334 0.075963996 0.25431001
0.15922 0.23917 0.26072001
0.16017 0.23981 0.26007
0.16005 0.14227 0.27089
0.17296 0.11684 0.27706
0.18627 0.14929 0.2755
0.14746 0.13901 0.26036999
0.17563 0.1364 0.27744001
0.15773 0.22421999 0.25613001
0.17447001 0.20027 0.28325
0.18763 0.13846 0.26925999
0.12439 0.059190001 0.25455001
0.18668 0.082126997 0.30906999
0.19051 0.15715 0.25986001
0.19864 0.060129002 0.3145
0.21383999 0.054179002 0.28195
0.17843001 0.17287 0.27112001
0.18844999 0.1085 0.27498001
0.16452999 0.16513 0.26378
0.14452 0.064787 0.27186
0.20810001 0.083338998 0.24846999
0.18788999 0.10478 0.27643999
0.15527 0.12173 0.25917
0.1635 0.16261999 0.26298001
0.15276 0.092044003 0.25760001
0.15360001 0.091463 0.25828999
0.15527 0.094479002 0.26312
0.15504 0.093658 0.26249
0.15757 0.094171003 0.26907
0.15755001 0.093516998 0.26859999
0.18476 0.13157 0.28382
0.20885 0.069362 0.2405
0.15485001 0.082075 0.2714
0.15945999 0.15256999 0.27864999
0.15581 0.085864 0.26036
0.15543 0.085245997 0.26096001
0.18815 0.22482 0.25406
0.20805 0.072163001 0.24829
0.16146 0.16229001 0.26627001
0.16144 0.16141 0.26644
0.16575 0.11477 0.26905
0.1761 0.24595 0.26980001
0.18864 0.15888999 0.25395
0.18900999 0.15916 0.25522
0.16407 0.16884001 0.26412001
0.18922 0.21414 0.25027001
0.1953 0.082218997 0.29453
0.15915 0.22979 0.26396
0.21209 0.057034001 0.24359
0.17749 0.18378 0.27465001
0.17674001 0.18494999 0.27485001
0.17767 0.18386 0.27507001
0.18925001 0.089013003 0.29108
0.14940999 0.075979002 0.26532999
0.15306 0.23788001 0.25744
0.17459001 0.062027 0.29300001
0.17489 0.061462 0.29279
0.16125999 0.22683001 0.26754999
0.14859 0.050786 0.28817001
0.14918999 0.051534999 0.28812
0.18783 0.17468999 0.25619999
0.18978 0.20961 0.25483999
0.15783 0.11914 0.26695001
0.19981 0.061416999 0.30451
0.16152 0.11891 0.26161
0.16392 0.21170001 0.26815
0.15019999 0.089823999 0.25881001
0.17544 0.052067999 0.29464
0.18558 0.089902997 0.29104
0.18154 0.19605 0.27397999
0.20945001 0.072105996 0.24514
0.22115 0.057781 0.23525999
0.16096 0.22203 0.26482999
0.1823 0.16249999 0.27667999
0.16734999 0.12561999 0.26732001
0.16733 0.12508 0.26831001
0.18975 0.2323 0.25053
0.1648 0.081720002 0.28459001
0.17941999 0.23865999 0.25404
0.18506999 0.16136999 0.27158999
0.17087001 0.086626001 0.29093
0.19750001 0.087347001 0.24946
0.15910999 0.15186 0.27230999
0.15865999 0.15196 0.27355
0.15881 0.15297 0.273
0.18197 0.084531002 0.30869001
0.16898 0.23824 0.27717999
0.16195001 0.091568001 0.27193999
0.15331 0.062130999 0.2841
0.2052 0.066471003 0.27353999
0.20268001 0.054590002 0.28771999
0.15756001 0.17918999 0.25227001
0.15828 0.17808001 0.25336
0.18773 0.11367 0.25382999
0.18546 0.15775 0.27934
0.14693999 0.055117998 0.28364
0.17071 0.10891 0.27982
0.18627 0.22383 0.26096001
0.17961 0.082434997 0.30430999
0.15738 0.24382 0.26372999
0.18289 0.084302999 0.29967999
0.13966 0.052971002 0.27652001
0.16452999 0.2088 0.27287
0.16449 0.20857 0.27388999
0.2049 0.05435 0.31036001
0.14223 0.051998001 0.28130001
0.17831001 0.082206003 0.30381
0.16277 0.18413 0.26618999
0.1362 0.084303997 0.24694
0.17951 0.087197997 0.29701
0.16886 0.23100001 0.27166
0.15989 0.052418999 0.29833001
0.15794 0.17728999 0.25202
0.15975 0.17155001 0.26262999
0.19182999 0.085162997 0.30504
0.15954 0.13031 0.26747
0.19031 0.2369 0.25461999
0.18695 0.14580999 0.27289
0.17426001 0.23196 0.28123999
0.17515001 0.23075999 0.28180999
0.15778001 0.13535 0.25415
0.18679 0.23108 0.26212001
0.17657 0.17438 0.27500001
0.19788 0.082695 0.3019
0.16311 0.22756 0.26655
0.17983 0.18058001 0.28341001
0.17936 0.18063 0.28461
0.18876 0.082915999 0.30706
0.19657999 0.073769003 0.29976001
0.1846 0.2008 0.26914999
0.17016999 0.14930999 0.28077999
0.21367 0.050184 0.27903
0.21357 0.050127 0.28314
0.19408 0.09065 0.25554001
0.19405 0.090175003 0.25511
0.22586 0.054556999 0.22837
0.16682 0.22424001 0.27039999
0.18291 0.15068001 0.28569999
0.17786001 0.096316002 0.28235
0.17637999 0.18149 0.28077
0.15211 0.066664003 0.27875999
0.19865 0.065210998 0.30399001
0.18753 0.22905 0.26532999
0.18513 0.11372 0.27915999
0.18354 0.11314 0.27888
0.18601 0.18629999 0.26359001
0.18824001 0.15356 0.27099001
0.1838 0.23247001 0.25996
0.18476 0.23207 0.26025
0.20740999 0.060021002 0.27078
0.20643 0.059698001 0.26993001
0.17394 0.099867001 0.27968001
0.18531001 0.054680001 0.32104
0.17557 0.18431 0.27867001
0.17613 0.18373001 0.28018999
0.19013 0.075529002 0.30428001
0.18796 0.1014 0.27278
0.14939 0.15368 0.26493999
0.16772 0.097681001 0.27790001
0.14746 0.066179 0.27583
0.18272001 0.20626999 0.27919999
0.15889999 0.18583 0.25696
0.13141 0.084592998 0.25075999
0.16862001 0.17113 0.27054
0.21174 0.053307999 0.28641
0.18672 0.23322 0.26813999
0.14793 0.069849998 0.27083999
0.18456 0.19834 0.26427001
0.20833001 0.084992997 0.24896
0.18584 0.13448 0.28428999
0.15439001 0.19671001 0.25711
0.15306 0.19538 0.25832999
0.15243 0.19574 0.25948
0.15936001 0.18761 0.26894999
0.17339 0.24561 0.27243999
0.17456999 0.23963 0.27342999
0.16527 0.17885999 0.27125999
0.2026 0.084815003 0.2377
0.15989 0.068071999 0.28817001
0.17992 0.060722001 0.30724999
0.1816 0.17916 0.26890999
0.14441 0.059606001 0.27362001
0.17677 0.11419 0.27447
0.18171 0.10205 0.27937001
0.15291999 0.071707003 0.27184999
0.16412 0.16936 0.26772001
0.15539999 0.096017003 0.25731
0.18921 0.087480001 0.29214999
0.15644 0.14119001 0.26434001
0.15752 0.14117 0.26503
0.16410001 0.082280003 0.28400001
0.16188 0.10944 0.27427
0.15826 0.22881 0.25725999
0.16752 0.11413 0.27055001
0.19901 0.082368001 0.30252999
0.15425999 0.060387 0.28345001
0.17894 0.18248001 0.27936
0.17732 0.14647999 0.28817001
0.15810999 0.21483999 0.25283
0.18957999 0.19077 0.25117999
0.18974 0.19133 0.252
0.19216999 0.11352 0.26019999
0.13201 0.078093 0.25536001
0.16941001 0.22923 0.27268001
0.16796 0.22994 0.27110001
0.19543 0.084234998 0.26697001
0.19425 0.084674999 0.26725
0.18497001 0.16543999 0.25988001
0.18450999 0.16387001 0.26072001
0.18492 0.16426 0.25904
0.16553999 0.11135 0.2784
0.16847999 0.056540001 0.29135001
0.16780999 0.055093002 0.29067001
0.16433001 0.074147001 0.28523001
0.1608 0.24338999 0.26519001
0.1707 0.24326999 0.28169
0.16641 0.086811997 0.27844
0.15463001 0.24504 0.25283
0.16162001 0.054313999 0.29708001
0.17641 0.15776999 0.27805999
0.20895 0.073871002 0.2499
0.14305 0.057971999 0.26982999
0.18256 0.19058 0.28082001
0.18426999 0.10825 0.27634999
0.13798 0.053649999 0.27704999
0.17998999 0.064232998 0.30208001
0.13119 0.075177997 0.26102
0.16718 0.070404001 0.28794
0.17046 0.20602 0.28011999
0.15966 0.13741 0.27092999
0.16723999 0.19573 0.27151
0.20063999 0.087255999 0.25266999
0.13146 0.072013997 0.25536001
0.1734 0.088968001 0.29366001
0.17256001 0.088982999 0.29244
0.20837 0.059532002 0.23338
0.20922001 0.061028 0.23348001
0.16767 0.23919 0.27114001
0.19674 0.078998998 0.27535999
0.1701 0.23941 0.27522999
0.18257 0.23627999 0.26877999
0.17594001 0.15810999 0.27886999
0.21592 0.053969 0.24214
0.15432 0.054770999 0.29262
0.16576 0.20796999 0.27043
0.16181 0.083397999 0.27821001
0.16043 0.084184997 0.27888
0.19904 0.089096002 0.24259999
0.21435 0.076237001 0.24119
0.17086001 0.18618999 0.27695
0.1902 0.11628 0.25522
0.18889999 0.11728 0.25498
0.19235 0.18745001 0.26493999
0.21523 0.072612002 0.24016
0.18863 0.18435 0.25174001
0.13338 0.085819997 0.24721
0.15451001 0.076246001 0.27070001
0.15736 0.14594001 0.26554999
0.17038 0.087870002 0.29284
0.19372 0.10071 0.26102999
0.18343 0.24523 0.25753
0.18234999 0.14740001 0.28656
0.15301999 0.087158002 0.26862001
0.18336999 0.21946999 0.26067001
0.13246 0.084426999 0.25192001
0.17207 0.097411998 0.27911001
0.19021 0.13014001 0.24034999
0.15910999 0.15178999 0.27847001
0.13733 0.051169999 0.27768001
0.14136 0.055868998 0.27844
0.16843 0.23429 0.27087
0.18195 0.20927 0.26668
0.18219 0.20825 0.26598001
0.18232 0.20948 0.26434001
0.16644999 0.23093 0.26866001
0.15809 0.20176999 0.26585999
0.1752 0.052632 0.29821
0.16011 0.18652999 0.27081001
0.15918 0.084866002 0.27535999
0.18280999 0.12205 0.27147999
0.1824 0.12122 0.27200001
0.16783001 0.081433997 0.28637999
0.16779 0.077353001 0.28928
0.18698999 0.050214 0.32280001
0.15674999 0.24602 0.25863001
0.15295 0.15744001 0.26497
0.15200999 0.057323001 0.28468999
0.18835001 0.12389 0.25793999
0.19254 0.10257 0.26214001
0.16614 0.091839999 0.27746001
0.19 0.087480001 0.27522001
0.21391 0.066225998 0.23513
0.21329001 0.065952003 0.23433
0.18901999 0.2385 0.24783
0.19039001 0.23965 0.24815001
0.18629999 0.13607 0.28358001
0.17073999 0.14218 0.27834001
0.15974 0.17033 0.25498
0.16013999 0.094463997 0.26945999
0.14203 0.055812001 0.26100001
0.18026 0.24532001 0.25071001
0.14605001 0.066977002 0.26460001
0.16213 0.17845 0.27072999
0.19463 0.11383 0.26783001
0.20611 0.086377002 0.25026
0.14153001 0.086570002 0.26287001
0.17294 0.23138 0.2814
0.13057999 0.057456002 0.25042
0.13042 0.057969 0.25086999
0.16591001 0.11962 0.26660001
0.16243 0.14323001 0.27610999
0.1719 0.15757 0.27454999
0.21428999 0.052669998 0.27873001
0.18340001 0.16049001 0.27333
0.2023 0.070831001 0.26238
0.15724 0.092308 0.26495001
0.17161 0.11922 0.27746999
0.21819 0.058938999 0.23835
0.20715 0.080412 0.25119001
0.15584999 0.052724 0.29721999
0.13876 0.082475998 0.24547
0.13710999 0.082447 0.24507
0.18467 0.21332 0.27254999
0.14670999 0.14903 0.25995001
0.14612 0.14958 0.25999999
0.22624999 0.052242 0.22589999
0.21311 0.081637003 0.22944
0.1362 0.077403001 0.26295999
0.17149 0.17776 0.27173999
0.18031999 0.22283 0.27202001
0.1787 0.18118 0.27395001
0.21658 0.053334001 0.26425999
0.22316 0.057112001 0.22821
0.16741 0.091518998 0.27875999
0.18125001 0.10511 0.27807999
0.15460999 0.12184 0.26324001
0.18636 0.059663001 0.31498
0.18932 0.15904 0.25742999
0.1893 0.15727 0.25874999
0.18630999 0.13896 0.26605001
0.18337999 0.20739 0.27838001
0.18178999 0.20654 0.27886
0.18287 0.11775 0.27314001
0.19226 0.059154999 0.31273001
0.19769999 0.071402997 0.30210999
0.19828001 0.072244003 0.30263999
0.15001 0.073192 0.26971999
0.18354 0.15998 0.27660999
0.20339 0.08608 0.23614
0.15683 0.096899003 0.26841
0.19611 0.093154997 0.25757
0.13422 0.058288999 0.25066
0.21853 0.053629 0.23964
0.19079 0.089025997 0.29122999
0.17648999 0.089253001 0.29565001
0.18962 0.12473 0.25759
0.15996 0.13714001 0.27204999
0.16979 0.083690003 0.29361999
0.17072999 0.085812002 0.29339999
0.16975001 0.084623002 0.29271001
0.19697 0.086119004 0.25398999
0.16748001 0.12121 0.26923001
0.18513 0.056173999 0.31819999
0.16112 0.14300001 0.27642
0.19947 0.070047997 0.27843001
0.17077 0.086468004 0.2807
0.16408999 0.083572 0.28341001
0.19546001 0.062808998 0.30583999
0.18616 0.075622 0.30737001
0.18526 0.19193 0.26392001
0.18593 0.19171 0.26381001
0.16971 0.1793 0.27616
0.13628 0.077894002 0.26366001
0.19877 0.070134997 0.28159001
0.17024 0.19098 0.28233999
0.16417 0.060931999 0.29154
0.15613 0.13852 0.24995001
0.18803 0.13311 0.27333999
0.18316001 0.058665 0.31663001
0.1655 0.20841999 0.27267
0.16609 0.20843001 0.27362999
0.16719 0.24493 0.25051999
0.18797 0.11492 0.26207
0.19148999 0.11413 0.25883999
0.15966 0.090746 0.27234
0.17666 0.078211002 0.30939999
0.1344 0.068905003 0.2615
0.13563 0.068418004 0.26144001
0.16527 0.054644 0.29396999
0.15274 0.086073004 0.26440999
0.15971 0.19027001 0.2744
0.15674999 0.2315 0.25828001
0.15716 0.23117 0.25501999
0.15738 0.23114 0.25658
0.18629 0.11564 0.26692
0.15623 0.086145997 0.26405001
0.17343 0.081252001 0.29934001
0.16336 0.23387 0.25518
0.16627 0.23342 0.25433001
0.16513 0.23195 0.25512001
0.16257 0.2177 0.27032
0.15803 0.20331 0.26963001
0.15522 0.15208 0.26826
0.15597001 0.15163 0.26769999
0.19286001 0.094476998 0.26330999
0.18674 0.11432 0.25479999
0.18724 0.11376 0.25534999
0.16824999 0.12740999 0.26976001
0.14963 0.15692 0.2561
0.16055 0.24307001 0.26361999
0.19391 0.082486004 0.30318001
0.16709 0.056804001 0.29197001
0.16102 0.18618 0.27068999
0.14442 0.058536999 0.27796999
0.16528 0.15744001 0.27847999
0.12955999 0.068070002 0.26111001
0.17702 0.12977 0.27156001
0.18036 0.20813 0.27982
0.17281 0.24647 0.25729001
0.18209 0.19493 0.27522001
0.17967001 0.15851 0.27849999
0.17506 0.054327998 0.29278001
0.13770001 0.060897999 0.25872999
0.15301 0.12336 0.25722
0.16467001 0.086001001 0.27831
0.16080999 0.078571998 0.28244999
0.18323 0.19783001 0.27788001
0.15412 0.063506 0.28220999
0.15838 0.071014002 0.27706999
0.16362999 0.20671999 0.26618999
0.17642 0.23438001 0.28112
0.16277 0.16967 0.26304999
0.16257 0.17075001 0.26339
0.20078 0.075787 0.25815001
0.19066 0.20563 0.25720999
0.19063 0.20438001 0.25637999
0.13108 0.050089002 0.26234999
0.13089 0.070083 0.25239
0.13099 0.068686999 0.25211
0.18984 0.23393001 0.25202
0.14964999 0.087410003 0.26447999
0.15008999 0.087879002 0.26571
0.16347 0.090672001 0.27717
0.1857 0.16144 0.27000001
0.15643001 0.15541001 0.2744
0.15756001 0.064980999 0.28716999
0.15831 0.065128997 0.28782001
0.17949 0.082097001 0.30720001
0.16899 0.064497001 0.28887999
0.19372 0.084409997 0.30179
0.17945001 0.19551 0.28329
0.16428 0.18206 0.26732001
0.18914001 0.21797 0.25496
0.15446 0.24561 0.25285
0.20982 0.059381999 0.28049999
0.20852 0.062903002 0.24214999
0.15290999 0.20527001 0.26324001
0.19582 0.15606 0.24769001
0.13488001 0.084951997 0.25734001
0.21401 0.065938003 0.23537
0.19007 0.24099 0.26506999
0.17646 0.059250999 0.29486999
0.19318999 0.057613 0.31696001
0.17839999 0.091683 0.28764999
0.15756001 0.15967999 0.26232001
0.17184 0.087682001 0.29718
0.15733001 0.11291 0.26091
0.18398 0.21227001 0.27384999
0.15762 0.10929 0.27070999
0.20009001 0.070556 0.27294999
0.18638 0.13968 0.27059999
0.15503 0.22347 0.25397
0.15448 0.22322001 0.25498
0.18695 0.17182 0.25512999
0.18616 0.17242999 0.25431001
0.17125 0.078699999 0.29714999
0.16508 0.13959999 0.27006
0.15917 0.073834002 0.27976
0.16909 0.23015 0.27213001
0.18233 0.20660999 0.27833
0.16982999 0.10814 0.27994001
0.16157 0.21692 0.26826
0.20871 0.060159001 0.24313
0.18898 0.060054 0.31062999
0.20418 0.053828001 0.31097999
0.134 0.071702003 0.25755
0.16762 0.14741001 0.27945
0.15843999 0.22683001 0.25984001
0.19456001 0.089373 0.25582001
0.17524999 0.074484996 0.29866999
0.16448 0.069963001 0.28834
0.13822 0.061314002 0.25865
0.16143 0.16633999 0.25996
0.15839 0.094852 0.26741001
0.22233 0.056793999 0.22545999
0.19375999 0.073022 0.29683
0.16671 0.10476 0.27926999
0.16105001 0.24602 0.25472
0.20882 0.060986001 0.26045999
0.20907 0.061138 0.25935999
0.20927 0.062263999 0.25966999
0.19073001 0.23583999 0.25323001
0.21365 0.072824001 0.24137001
0.21279 0.073076002 0.24199
0.15611 0.24265 0.25808999
0.19825 0.078942999 0.27318999
0.19757 0.079694003 0.27410999
0.19734 0.078378998 0.27372
0.19712 0.080769002 0.29054001
0.15494999 0.083525002 0.27417001
0.1596 0.17411999 0.25779
0.16495 0.13745999 0.27561
0.15917 0.22159 0.26332
0.16355 0.13855 0.26984999
0.22527 0.054627001 0.22939999
0.18057001 0.085922003 0.29609001
0.14776 0.14839999 0.25672999
0.18692 0.22967 0.26251999
0.18333 0.1626 0.27155
0.18556 0.18546 0.26084
0.19433001 0.1575 0.2633
0.18901999 0.11166 0.27609
0.17214 0.16741 0.27482
0.19179 0.13357 0.24786
0.20217 0.085274003 0.23614
0.20275 0.086442001 0.23588
0.19694 0.062063001 0.29995999
0.19393 0.14940999 0.26714
0.15426999 0.22246 0.26319
0.13440999 0.083814003 0.25782001
0.16979 0.23269001 0.28128999
0.18700001 0.18388 0.25668001
0.21012001 0.062238999 0.23446999
0.21041 0.060954001 0.23337001
0.21021999 0.060428999 0.23469
0.12283 0.058697 0.25584
0.15800001 0.11897 0.26752999
0.15514 0.13789999 0.26405001
0.19287001 0.11204 0.25193
0.19244 0.11316 0.25001001
0.20235001 0.086332001 0.25415
0.17569999 0.15829 0.27709001
0.1561 0.18711001 0.25821999
0.15594 0.18887 0.25804001
0.18535 0.21483 0.25766
0.204 0.084253997 0.25468001
0.14045 0.061170001 0.25933
0.11684 0.051490001 0.25637001
0.11699 0.053015001 0.25746
0.14879 0.063734002 0.27948999
0.14727999 0.063908003 0.27781001
0.15893 0.12417 0.26363999
0.1838 0.14401001 0.28727999
0.15779001 0.20732 0.26576
0.21058001 0.072001003 0.24237999
0.1517 0.091466002 0.25718001
0.16164 0.16022 0.27103999
0.14785001 0.13468 0.26109999
0.19836999 0.073959 0.27116999
0.19924 0.073793001 0.27020001
0.19372 0.10084 0.26611999
0.18407001 0.19520999 0.26455
0.18318 0.19694 0.26236001
0.18957999 0.068264998 0.30709001
0.1859 0.088890001 0.30592
0.16959 0.20052999 0.27981001
0.18430001 0.056168001 0.31972
0.15451001 0.081274003 0.27138001
0.19808 0.084964 0.25566
0.19836999 0.086583003 0.25501001
0.17515001 0.064172998 0.29552999
0.17750999 0.064511999 0.29714
0.18539999 0.19781999 0.26965001
0.15669 0.10602 0.26210001
0.15311 0.13185 0.25426999
0.21322 0.055162001 0.2782
0.18652999 0.11918 0.25630999
0.16148999 0.20145001 0.26679
0.16876 0.083334997 0.29065999
0.19174001 0.091875002 0.26690999
0.19631 0.052096002 0.31909999
0.19662 0.051256999 0.31944001
0.20874999 0.083566003 0.24767999
0.17936 0.23752999 0.26881999
0.18717 0.15263 0.28051999
0.18870001 0.095936999 0.27261001
0.13128 0.082001999 0.24869999
0.13109 0.083136998 0.24998
0.13259999 0.082695998 0.24827
0.18483999 0.20663001 0.27070999
0.20138 0.076278999 0.26161
0.18314999 0.16421001 0.27329999
0.19011 0.15739 0.25646001
0.19273999 0.058554001 0.31755999
0.18682 0.14556 0.27658999
0.18406001 0.086507 0.29795
0.19351999 0.077913001 0.30566999
0.16264001 0.18082 0.26513001
0.15238 0.15682 0.26442
0.18245 0.12682 0.28305
0.19594 0.087158002 0.28859001
0.20841999 0.085124001 0.24648
0.21462999 0.053815 0.27660999
0.18316001 0.15823001 0.28066999
0.14572001 0.064262003 0.26743001
0.15515999 0.18912999 0.25432
0.18295 0.24463999 0.26701999
0.18393999 0.24395999 0.26673001
0.16722 0.16395999 0.27239001
0.20396 0.066747002 0.27658001
0.17746 0.055877 0.31279001
0.21015 0.06543 0.24714001
0.18351001 0.21596 0.27136999
0.19988 0.084844001 0.26447001
0.16245 0.21596999 0.27116001
0.15861 0.18370999 0.25677001
0.16588999 0.23052999 0.26833001
0.15381999 0.11991 0.26561001
0.18765999 0.083097003 0.30866
0.17465 0.095288999 0.28222001
0.16357 0.2448 0.25999999
0.19062001 0.19028001 0.25437999
0.13821 0.060224999 0.25985
0.17756 0.15849 0.27445999
0.18829 0.14819001 0.27092999
0.15722001 0.20949 0.25338
0.15290999 0.19402 0.25823
0.21253 0.067552 0.23201001
0.21323 0.067695998 0.23243
0.21212 0.060088001 0.26172
0.21043 0.060807999 0.26084
0.17702 0.18661 0.28314999
0.17592999 0.11425 0.27339
0.19716001 0.076534003 0.30298001
0.19834 0.078235 0.30221999
0.18371999 0.11413 0.27451
0.1561 0.1886 0.26312
0.15713 0.18876 0.26278001
0.15715 0.23322 0.26293001
0.18133 0.12691 0.27979001
0.22802 0.051543999 0.23086999
0.19528 0.065889999 0.29984
0.16796 0.087168999 0.28652999
0.16043 0.068581 0.28826001
0.15366 0.11126 0.26018
0.19328 0.089224003 0.28698
0.19444001 0.087816998 0.28797999
0.18748 0.16039 0.26144999
0.15522 0.093624003 0.26565999
0.17049 0.21286 0.27533999
0.20254 0.068410002 0.26921999
0.15703 0.10195 0.27004001
0.18991999 0.24225 0.25350001
0.19028001 0.24112 0.25323999
0.1617 0.23002 0.26510999
0.18443 0.12164 0.27057001
0.18582 0.12271 0.26934001
0.20867001 0.071212001 0.2463
0.15118 0.088238001 0.26071
0.19153 0.15873 0.25088
0.18059 0.22759999 0.26925999
0.21407001 0.083015002 0.23108999
0.20397 0.084822997 0.25415
0.16046999 0.24086 0.26398
0.21039 0.071088001 0.24405
0.17553 0.18425 0.28145999
0.15146001 0.19250999 0.25996
0.18972 0.12484 0.24415
0.14213 0.057395 0.26128
0.16723 0.21232 0.27700999
0.19603001 0.050857 0.31955001
0.17568 0.22975001 0.27634001
0.17743 0.13375001 0.28362
0.15149 0.12807 0.25986999
0.1762 0.074569002 0.30118001
0.14968 0.091256 0.25071001
0.16218001 0.10496 0.27272001
0.20385 0.081271999 0.25483
0.19462 0.084305003 0.25347999
0.15588 0.24558 0.25323999
0.20550001 0.054827999 0.31615001
0.20651001 0.067671001 0.25163999
0.15191001 0.13042 0.25900999
0.18048 0.22244 0.27197999
0.17963 0.22161999 0.27011001
0.15816 0.14325 0.26565
0.16795 0.20203 0.27853999
0.12695999 0.051986001 0.26255
0.17030001 0.21356 0.27928999
0.13912 0.06095 0.26008001
0.18197 0.061648998 0.30770001
0.15558 0.087168001 0.26058999
0.20364 0.058888 0.31330001
0.18933 0.16023 0.25488001
0.17834 0.17048 0.27522999
0.18918 0.15998 0.26054001
0.17631 0.21168999 0.28145999
0.16001 0.23371001 0.25984001
0.18652999 0.19784001 0.24902999
0.16328999 0.21823999 0.26769999
0.18735 0.11468 0.26826
0.1821 0.21259999 0.26829001
0.18283001 0.21295001 0.26657
0.18369 0.22055 0.27265
0.13404 0.084778003 0.25499001
0.1778 0.074152 0.30546999
0.17805 0.074127004 0.30645001
0.15499 0.089079998 0.26203001
0.17579 0.097865 0.28151
0.16921 0.24090999 0.28106999
0.18440001 0.050441999 0.32315999
0.18287 0.15684 0.2832
0.17685001 0.11231 0.28161001
0.17179 0.069109 0.29422
0.16761 0.12614 0.27294001
0.16794001 0.12481 0.27313
0.1859 0.14234 0.27641001
0.18585999 0.14285 0.27630001
0.1613 0.12890001 0.26006001
0.17310999 0.1086 0.27945
0.18657 0.067110002 0.30487999
0.15137 0.18464001 0.25788
0.15556 0.21007 0.25275001
0.15794 0.17759 0.25830001
0.20958 0.058421001 0.28417999
0.1805 0.16594 0.27274999
0.16034999 0.22877 0.25924999
0.20409 0.085671 0.23765001
0.20491 0.085291997 0.23722
0.18064 0.11374 0.27421999
0.15541001 0.057751998 0.29186001
0.15809999 0.13880999 0.26407999
0.17892 0.2455 0.26188001
0.20390999 0.050822999 0.30724999
0.16250999 0.13606 0.2696
0.21082 0.062807001 0.23609
0.16944 0.18742999 0.27965
0.16923 0.11896 0.27575001
0.18016 0.19449 0.28369001
0.15807 0.18173 0.2572
0.15588 0.076860003 0.27298999
0.19098 0.20936 0.25696
0.20044 0.071938999 0.26319
0.12669 0.056988999 0.24991
0.12634 0.057468001 0.24875
0.18539 0.21843 0.24696
0.15559 0.23084 0.25294
0.19109 0.21901999 0.25257
0.19232 0.13669001 0.2413
0.13234 0.066921003 0.25584
0.17595001 0.11436 0.27656999
0.18839 0.23286 0.26495999
0.17623 0.17777 0.27946001
0.17845 0.18995 0.27441999
0.17912 0.19061001 0.27320999
0.18209 0.17051999 0.26003
0.18314999 0.17089 0.25960001
0.1954 0.091216996 0.25988999
0.16739 0.13072 0.26916
0.17357001 0.10695 0.28015
0.19121 0.14227 0.25896999
0.19080999 0.14368001 0.25997001
0.17744 0.22504 0.27122
0.19128001 0.20329 0.25587001
0.17659 0.18103001 0.28288999
0.19099 0.096387997 0.27274001
0.19583 0.11013 0.26166999
0.19546001 0.10989 0.25957
0.17155001 0.18889999 0.27471
0.18061 0.099807002 0.28042999
0.17939 0.1002 0.28112999
0.13304 0.073732004 0.25198001
0.1556 0.10235 0.25982001
0.18350001 0.11752 0.27320999
0.15689 0.10413 0.26666999
0.19 0.10916 0.27339
0.18025 0.092933998 0.27897
0.16189 0.21782 0.26714
0.16501001 0.085692003 0.27948999
0.16494 0.085121997 0.28002
0.16489001 0.084691003 0.28024
0.15994 0.14165001 0.27333999
0.18463001 0.16892999 0.25602999
0.17647 0.16259 0.27151999
0.19918001 0.084307998 0.2369
0.18363 0.054441001 0.32196
0.16135 0.16538 0.26104
0.17545 0.11463 0.27720001
0.16885 0.087566003 0.28650001
0.16847 0.11956 0.27217001
0.1691 0.11833 0.27406001
0.14074001 0.054937001 0.27666
0.16487999 0.11321 0.26927
0.21881001 0.076874003 0.23630001
0.15990999 0.13688999 0.26988
0.18319 0.16339 0.25929001
0.18269999 0.16235 0.25843
0.18284 0.16326 0.25819999
0.17903 0.15445 0.28646001
0.20564 0.053399 0.28786001
0.19433001 0.089454003 0.25786
0.19431999 0.089394003 0.25769001
0.19464 0.088598996 0.25650001
0.18621001 0.089091003 0.28705999
0.20200001 0.069153003 0.26795
0.15823001 0.098779999 0.26367
0.1313 0.082137004 0.25861001
0.17417 0.15712 0.28433001
0.17343 0.15582 0.28659999
0.14691 0.055156 0.28622001
0.13009 0.075543001 0.25955999
0.16142 0.22643 0.27111
0.18432 0.15972 0.2746
0.21296 0.078626998 0.23836
0.20119999 0.086271003 0.25810999
0.21328001 0.076016001 0.24073
0.21358 0.076531 0.24175
0.16201 0.099422 0.27609
0.19271 0.1514 0.25918999
0.14821 0.14523999 0.26328999
0.18346 0.16988 0.26262999
0.1848 0.16884001 0.26264
0.19113 0.13902 0.26247999
0.15783 0.13458 0.25611001
0.15782 0.13331001 0.25455001
0.17453 0.088030003 0.28850001
0.1901 0.060033001 0.30647001
0.14391001 0.060633 0.26747999
0.17201 0.070358001 0.29640999
0.19439 0.091811001 0.25698
0.19400001 0.091651 0.25793999
0.16763 0.11278 0.27770999
0.16626 0.11937 0.26730999
0.18433 0.055707 0.32065001
0.17488 0.068219997 0.29875001
0.15926 0.087157004 0.27085
0.18143 0.24225999 0.27121001
0.16797 0.13077 0.26813
0.18668 0.11625 0.27072999
0.15141 0.15764999 0.25218999
0.18539 0.19074 0.26466
0.19743 0.077949002 0.29857999
0.19678999 0.079042003 0.29892999
0.19787 0.077793002 0.29905999
0.13736001 0.073391996 0.25917
0.14047 0.084942997 0.25393
0.14067 0.085465997 0.25465
0.20730001 0.086937003 0.25001001
0.17363 0.21232 0.28198001
0.18324 0.18076 0.26183
0.13208 0.082833998 0.25141001
0.15383001 0.12245 0.25769001
0.16707 0.087408997 0.28639001
0.17818999 0.17891 0.28112999
0.13149001 0.057957999 0.26041001
0.15044001 0.071702003 0.27092999
0.18385001 0.18005 0.26054999
0.16011 0.13595 0.26743001
0.17944001 0.064774998 0.30875999
0.21424 0.082592003 0.23239
0.19033 0.13129 0.25871
0.19124 0.088927001 0.29268
0.12964 0.085068002 0.25060999
0.17464 0.22961999 0.28171
0.13691001 0.050889 0.27403
0.18351001 0.23108999 0.25781
0.18295 0.23171 0.25839001
0.18796 0.20055 0.25143999
0.18757001 0.20076001 0.25084999
0.15464 0.083292998 0.27173001
0.16723999 0.083264999 0.28681999
0.15998 0.15433 0.27285999
0.17346001 0.16464999 0.2753
0.15575001 0.14867 0.26789999
0.15573999 0.14754 0.26710001
0.21236999 0.077549003 0.24053
0.15705 0.069430001 0.28005999
0.15741 0.068345003 0.28151
0.16008 0.15895 0.26348001
0.16365001 0.1716 0.26600999
0.1558 0.11011 0.25681001
0.18819 0.11867 0.26005
0.16762 0.12303 0.27037001
0.15883 0.1188 0.26297
0.17093 0.18516999 0.27662
0.17561001 0.088131003 0.29739001
0.18675999 0.14202 0.27783
0.17219 0.23038 0.27204001
0.18527 0.12633 0.27331999
0.18633001 0.12577 0.27388999
0.17662001 0.21047001 0.28286999
0.16091999 0.080683999 0.28229001
0.16125 0.079281002 0.28263
0.18437999 0.18551999 0.25751001
0.16158 0.16579001 0.25727999
0.1831 0.073261 0.30377001
0.17765 0.069288 0.30551001
0.19518 0.14506 0.24586
0.20039 0.079337001 0.26914999
0.15567 0.19715001 0.26525
0.19069999 0.19284 0.25731
0.19316 0.13821 0.24101999
0.19348 0.13713001 0.24149001
0.16016001 0.10775 0.27039999
0.1613 0.10776 0.27157
0.16071001 0.10898 0.27127001
0.18779001 0.20234001 0.26036999
0.20171 0.086465999 0.25371
0.16717 0.17244001 0.26993999
0.15764 0.18215001 0.26233
0.17564 0.069518 0.29896
0.17013 0.23585001 0.28207999
0.1979 0.083021 0.27248001
0.18618 0.074271001 0.30368
0.18689001 0.15627 0.27360001
0.18076999 0.17151 0.25832
0.18246 0.17271 0.25819999
0.18177 0.1718 0.25909001
0.15739 0.18009 0.25746
0.16430999 0.11403 0.27691999
0.14565 0.15124001 0.26005
0.19035999 0.23983 0.25463
0.18574999 0.17737 0.26205
0.18634 0.12948 0.26980001
0.19751 0.051970001 0.31885001
0.15491 0.090645 0.25938001
0.17649999 0.12881 0.27316999
0.19614001 0.14884999 0.24444
0.19632 0.14963 0.24440999
0.19471 0.14989001 0.24485999
0.20186999 0.075363003 0.25893
0.18701001 0.12778001 0.27735999
0.21444 0.074616 0.23239
0.18274 0.13758001 0.28850999
0.20581999 0.071124002 0.24984001
0.16139001 0.15714 0.27936
0.19181 0.21946 0.25183001
0.16956 0.084729001 0.29227
0.19372 0.14033 0.24722999
0.17546 0.19851001 0.28266001
0.16359 0.081513003 0.28367001
0.17236 0.056901999 0.28771999
0.18625 0.12907 0.27017
0.19347 0.092193 0.25635001
0.19406 0.091479003 0.25617
0.21659 0.077068999 0.23913001
0.1644 0.24577001 0.26051
0.1946 0.071712002 0.30048001
0.19588999 0.072856002 0.29925999
0.18329 0.089909002 0.29319999
0.21394999 0.070040002 0.23525
0.18258999 0.072844997 0.30559999
0.16350999 0.088237002 0.27638
0.16475999 0.087899998 0.27669999
0.17378999 0.24524 0.27836001
0.15531 0.12257 0.26958001
0.18002 0.21494 0.27476001
0.15791 0.22587 0.25745001
0.17398 0.24004 0.27373999
0.17294 0.11748 0.27704999
0.19033 0.23478 0.25014001
0.14577 0.088999003 0.25235999
0.15268999 0.072175004 0.27090999
0.18779001 0.087578997 0.30138999
0.18858001 0.085888997 0.30274001
0.15858001 0.23226 0.25729999
0.14501999 0.060176 0.27511001
0.16719 0.059211001 0.29099
0.16487999 0.16802 0.26449001
0.15209 0.058233999 0.28064001
0.14436001 0.088680997 0.25242001
0.17162 0.13908 0.28461999
0.16844 0.11479 0.27392
0.15376 0.19372 0.25788
0.18238001 0.19949999 0.27425
0.14159 0.054212 0.28062001
0.21258999 0.061374001 0.23485
0.19243 0.1454 0.25813001
0.19686 0.084279999 0.27502999
0.19751 0.083770998 0.27379999
0.18183 0.10908 0.27875
0.18749 0.2378 0.26752999
0.19713999 0.062510997 0.31309
0.17026 0.086850002 0.2942
0.14218999 0.083300002 0.26352999
0.16886 0.11723 0.27403
0.12095 0.057523001 0.25317001
0.19878 0.058428001 0.3152
0.17572001 0.073435999 0.30024999
0.15696 0.11973 0.26396999
0.15378 0.18877999 0.25758001
0.15264 0.1873 0.2577
0.17317 0.13934 0.28053999
0.20941 0.065435 0.24439
0.1654 0.17369001 0.26745
0.14753 0.15053 0.25290999
0.19486 0.1531 0.25229999
0.21285 0.055167001 0.27212
0.18222 0.16252001 0.27171999
0.18415999 0.1186 0.26363
0.18355 0.12002 0.26385
0.18469 0.11907 0.26273
0.17693 0.19226 0.28327
0.13339999 0.087379999 0.25391999
0.15632001 0.15037 0.26694
0.16689999 0.21013001 0.27496001
0.18021999 0.13154 0.28782001
0.17669 0.057983 0.30004001
0.15802 0.24541 0.26291999
0.17385 0.185 0.28196001
0.1744 0.18456 0.28158
0.17461 0.16975001 0.27423999
0.21509001 0.057626002 0.26664999
0.16334 0.085277997 0.28112
0.16103999 0.20058 0.26618999
0.18432 0.13923 0.27884001
0.16021 0.15863 0.26649001
0.15606999 0.19064 0.26381999
0.2024 0.086750999 0.25176999
0.17648 0.076426998 0.30438
0.15699001 0.15821999 0.26049
0.1885 0.11123 0.27643001
0.19992 0.076447003 0.26598001
0.19080999 0.16 0.255
0.14544 0.058784001 0.27756
0.15798 0.13281 0.25687
0.16226 0.12716 0.2685
0.18371999 0.17357001 0.26348999
0.18034001 0.19574 0.27232999
0.17722 0.23385 0.28016001
0.13018 0.079971999 0.25218999
0.13043 0.081079997 0.25209001
0.17736 0.23581 0.27733999
0.16192999 0.21799999 0.26688999
0.17730001 0.14755 0.28755999
0.18465 0.24489 0.26313999
0.15465 0.22347 0.25885999
0.1344 0.066372 0.26084
0.16326 0.17777 0.26859999
0.17004 0.19261 0.27390999
0.18797 0.080504 0.30851001
0.18534 0.16373999 0.25979999
0.18506999 0.16285001 0.26008001
0.18415 0.21009 0.27066001
0.18494 0.1322 0.28648999
0.18404 0.13142 0.28791001
0.19373 0.062945001 0.29821
0.19456001 0.15684 0.26335001
0.20246001 0.086764999 0.25003999
0.16827001 0.087148003 0.27856001
0.18397 0.16855 0.26495001
0.16874 0.18032999 0.27471
0.19667999 0.075949997 0.30043
0.19678 0.077514 0.30164
0.21046001 0.060031001 0.27487001
0.14489 0.088390999 0.25576001
0.15147001 0.12158 0.26032999
0.16601001 0.13638 0.27315
0.20905 0.072457001 0.23417
0.20881 0.072047003 0.23304
0.20877001 0.072624996 0.23367
0.16046 0.071464002 0.28334999
0.15507001 0.21133 0.26098999
0.17471001 0.061190002 0.29137999
0.16866 0.23649999 0.27224001
0.1684 0.23457 0.27272999
0.14566 0.15222999 0.25595
0.17022 0.086998999 0.29144001
0.17023 0.086282 0.29262
0.15317 0.19209 0.26326999
0.19317999 0.070773996 0.29543
0.20573001 0.050384 0.28852001
0.19108 0.090231001 0.27079001
0.19609 0.082762003 0.29499999
0.19113 0.14332999 0.25635999
0.1777 0.23286 0.27947
0.19621 0.079410002 0.27715999
0.19657999 0.080472998 0.27792001
0.21087 0.060591001 0.23210999
0.14188001 0.067744002 0.26052001
0.14572001 0.068999998 0.26877001
0.18613 0.18898 0.2581
0.19104999 0.076929003 0.30564001
0.17055 0.18303999 0.27564999
0.14041001 0.086940996 0.25301
0.2124 0.071168996 0.23721001
0.2138 0.070968002 0.23688
0.19719 0.063164003 0.30237001
0.15143 0.057397999 0.28327
0.17839999 0.18583 0.28632
0.21441001 0.052427001 0.27767
0.18773 0.17670999 0.25576001
0.19374999 0.14984 0.26607001
0.16402 0.098518997 0.27726001
0.18109 0.22355001 0.273
0.17934 0.22341 0.27224001
0.15721001 0.10399 0.26475
0.15460999 0.23526999 0.25242001
0.19396999 0.088604003 0.27958
0.1795 0.10125 0.28094
0.20927 0.065416001 0.24393
0.15620001 0.21968 0.25591001
0.16327 0.13638 0.26885
0.12885 0.063716002 0.26023999
0.15651 0.092500001 0.26719001
0.18477 0.16631 0.25466001
0.18504 0.16775 0.25560999
0.15955999 0.22143 0.26633999
0.20097999 0.087563999 0.25580999
0.1558 0.15789001 0.25815001
0.17278001 0.14635 0.28692001
0.18062 0.10982 0.28007999
0.21694 0.072616003 0.23925
0.16233 0.15487 0.2762
0.16144 0.1552 0.27675
0.15794 0.21918 0.26330999
0.16259 0.18162 0.26780999
0.17922001 0.13573 0.28887999
0.15029 0.13291 0.26102999
0.17072999 0.18353 0.27671
0.15753999 0.094595999 0.26445001
0.15665001 0.094930001 0.26339999
0.19368 0.064332999 0.30238
0.17722 0.053574 0.30983001
0.22482 0.056221001 0.23401
0.15744001 0.17579 0.26267001
0.17156 0.075251997 0.29666999
0.19870999 0.052746002 0.31919
0.19251999 0.14676 0.26155999
0.15376 0.1795 0.26142001
0.15719 0.069174998 0.28156
0.15816 0.15958001 0.26258999
0.15978999 0.067681998 0.28658
0.20288 0.066682003 0.26943001
0.17212 0.17813 0.27932999
0.15922 0.14361 0.27181
0.15947001 0.14298999 0.27406001
0.17434999 0.058414001 0.28985
0.13395 0.089524999 0.25194001
0.18147001 0.091788001 0.27967
0.15751 0.1921 0.26894999
0.16937 0.15919 0.27241999
0.15751 0.19993 0.26877999
0.17293 0.16371 0.27158001
0.18568 0.14119001 0.27647001
0.18375 0.1419 0.27511001
0.17802 0.18366 0.28611001
0.17797001 0.059548002 0.29773
0.20612 0.060812999 0.27026999
0.20644 0.062456001 0.26951
0.16139001 0.062481001 0.29148999
0.19527 0.097117998 0.26111001
0.17062999 0.090239003 0.28038999
0.20284 0.078042001 0.25604999
0.17902 0.059808001 0.30191001
0.16948 0.23523 0.27458
0.1541 0.096942 0.26085001
0.15996 0.24493 0.25369999
0.15955 0.24439 0.25229001
0.17591 0.18533 0.28213
0.21351001 0.076898001 0.23300999
0.19156 0.094681002 0.27072999
0.15771 0.18000001 0.26330999
0.18648 0.22955 0.26165
0.18695 0.22874001 0.26047
0.16250999 0.21657 0.26600999
0.19739 0.068746001 0.29692999
0.17665 0.071855001 0.29633
0.17885999 0.18335 0.27844
0.16114999 0.15724 0.27832001
0.17997 0.18892001 0.27333
0.17011 0.24434 0.27491
0.16985001 0.24511001 0.27430001
0.19577999 0.057541002 0.31876001
0.15689 0.23636 0.26504999
0.16092999 0.23528001 0.25196999
0.16023 0.23523 0.25249001
0.15973 0.23515999 0.25283
0.19532999 0.098282002 0.26238999
0.19126999 0.084048003 0.30227
0.19063 0.088820003 0.27197
0.16337 0.17862999 0.26547
0.19029 0.15774 0.26477
0.18415999 0.16306999 0.26875001
0.18368 0.16285001 0.27070999
0.1723 0.20059 0.28141999
0.17632 0.18526 0.28128999
0.18244 0.091458999 0.29175001
0.18584999 0.13212 0.26570001
0.2148 0.055819999 0.25968999
0.19544999 0.083287001 0.27430001
0.19061001 0.086978003 0.29352
0.18413 0.18401 0.25729999
0.14737 0.15617999 0.25961
0.14841001 0.15654001 0.25929001
0.1841 0.086372003 0.30579001
0.18497001 0.24248999 0.26107001
0.16013999 0.080167003 0.28073999
0.19363999 0.1512 0.25121999
0.17992 0.21868999 0.28314999
0.15181001 0.057803001 0.28650001
0.18767001 0.24355 0.25601
0.19219001 0.074900001 0.30324
0.18841 0.22098 0.24867
0.19269 0.11195 0.27123001
0.18136001 0.16242 0.27111
0.1816 0.16276 0.27076
0.18122 0.17817 0.27057001
0.20432 0.071151003 0.25856999
0.15828 0.23974 0.2656
0.19181 0.061066002 0.30783001
0.20781 0.085003003 0.2492
0.18592 0.23023 0.26124001
0.19172999 0.24058001 0.25334001
0.17852999 0.19341999 0.28397
0.15927 0.086213998 0.27070999
0.19336 0.14977001 0.26168999
0.22024 0.057374001 0.23749
0.17321999 0.11144 0.28148001
0.14862999 0.088790998 0.25801
0.13531999 0.073988996 0.25961
0.15538 0.098921001 0.25909001
0.15225001 0.057201002 0.28222001
0.16809 0.19426 0.271
0.16889 0.19337 0.27042001
0.17036 0.1939 0.27215001
0.15917 0.24055 0.26072001
0.16027001 0.13755 0.27254
0.15025 0.057156 0.28349999
0.20169 0.086373001 0.24922
0.20857 0.082970001 0.24707
0.21173 0.078961 0.23003
0.21187 0.078239001 0.23117
0.21196 0.077269003 0.22977
0.18666001 0.1893 0.26932001
0.18979999 0.19099 0.25729001
0.18904001 0.19141001 0.25937
0.16446 0.12365 0.25676
0.20355 0.060989 0.28503001
0.18591 0.089406997 0.30250001
0.22222 0.050907999 0.23578
0.16743 0.19814 0.26993001
0.15296 0.19713999 0.25911999
0.16993 0.18278 0.27851
0.19485 0.11326 0.2534
0.21511 0.051949002 0.26029
0.21695 0.050643001 0.26096001
0.21601 0.052423999 0.26016
0.16895001 0.13008 0.27528
0.18356 0.17662001 0.26817
0.19098 0.24252 0.25042
0.17489 0.079143003 0.30285999
0.15302999 0.19935 0.26100001
0.17699 0.070024997 0.29921001
0.1785 0.070799999 0.29995999
0.20095 0.073216997 0.26065001
0.18497001 0.20367 0.26565
0.18401 0.20261 0.26578
0.18432 0.20135 0.26583999
0.19261 0.14224 0.2516
0.19078 0.080334 0.3082
0.14358 0.061896 0.26899999
0.18335 0.085068002 0.29807001
0.19608 0.061928999 0.30776
0.15839 0.15295 0.26988
0.18630999 0.089377001 0.28534001
0.18686999 0.089546002 0.28665
0.17852999 0.24563999 0.25325
