# .PCD v0.7 - Point Cloud Data file format
VERSION 0.7
FIELDS x y z
SIZE 4 4 4
TYPE F F F
COUNT 1 1 1
WIDTH 1529
HEIGHT 1
VIEWPOINT 0 0 0 1 0 0 0
POINTS 1529
DATA ascii
0.049458001 0.065545999 0.16345
0.062316999 0.070194997 0.18321
0.050524998 0.072259001 0.16584
0.050634 0.072829001 0.16644
0.060672 0.073294997 0.18108
0.054168999 0.078387 0.17276999
0.054937001 0.078693002 0.17366999
0.036111999 -0.039565999 0.14329
0.036307 -0.038499001 0.1435
0.04061 -0.03881 0.15095
0.042158999 -0.038394999 0.15097
0.041000001 -0.038516998 0.15191001
0.068079002 -0.037684999 0.19310001
0.041806001 -0.037997 0.15295
0.042426001 -0.037402999 0.15418001
0.066882998 -0.036830001 0.19201
0.066569999 -0.036724001 0.19092
0.036692999 -0.035687 0.14419
0.036362998 -0.036178999 0.1434
0.062669002 -0.035615001 0.18573999
0.036871001 -0.035052001 0.14578
0.066785999 -0.035250001 0.19219001
0.037675999 -0.034053002 0.14695001
0.037905 -0.034008 0.146
0.037836 -0.03246 0.14719
0.066009 -0.032664999 0.19024999
0.066416003 -0.031202 0.19230001
0.037117999 -0.031321 0.14553
0.037521001 -0.031668 0.14519
0.036733001 -0.030625001 0.1446
0.045271002 -0.029865 0.15789001
0.046004001 -0.029782001 0.15714
0.045667998 -0.030043 0.15905
0.057992999 -0.029725 0.17855
0.059037 -0.030042 0.17937
0.035905998 -0.029031999 0.14308999
0.035654999 -0.027638 0.14235
0.068129003 -0.027026 0.19461
0.069372997 -0.024909001 0.19498
0.069225997 -0.022849999 0.19486
0.069283001 -0.023761 0.19479001
0.068985999 -0.022345001 0.19448
0.035585001 -0.021253999 0.14251
0.035546001 -0.021213001 0.14349
0.067387998 -0.020938 0.19347
0.03613 -0.020076999 0.14324
0.066811003 -0.019368 0.19228999
0.067561999 -0.018684 0.19179
0.037466999 -0.018502999 0.14564
0.037834 -0.017932 0.14683001
0.065504998 -0.015422 0.18952
0.038493 -0.015172 0.14830001
0.066284999 -0.014692 0.19069
0.038244002 -0.014117 0.1462
0.037627 -0.013602 0.1462
0.066950999 -0.013287 0.19146
0.066983998 -0.012327 0.19143
0.066459 -0.011241 0.19050001
0.062946998 -0.01119 0.18404999
0.065082997 -0.011158 0.18982001
0.058954 0.055914 0.17948
0.052413002 0.057163998 0.1688
0.051435001 0.05807 0.16671
0.061390001 0.057748999 0.1822
0.050717998 0.060143001 0.16541
0.062077001 0.059881002 0.18343
0.050696999 0.059861999 0.16637
0.050294001 0.061370999 0.16531
0.063097998 0.061009001 0.18465
0.062274002 0.061285999 0.18433
0.050115999 0.062222 0.16449
0.062291 0.062674001 0.18440001
0.050184999 0.063234001 0.16516
0.050055999 0.064067997 0.16438
0.050147999 0.065867998 0.16523001
0.062058002 0.065802 0.18457
0.049254999 0.066466004 0.16364001
0.062243 0.066951998 0.18416999
0.049004 0.067359999 0.16383
0.049499001 0.068525001 0.16524
0.050193001 0.069214001 0.16452999
0.050042 0.069692001 0.1653
0.062164001 0.068167001 0.18402
0.050259002 0.070170999 0.16646001
0.050758999 0.071584001 0.16551
0.050650001 0.071551003 0.16648
0.061014 0.070992999 0.18153
0.060001001 0.071493 0.18107
0.059840001 0.072792999 0.18093
0.059870999 0.074046001 0.18057001
0.059138 0.074244 0.17959
0.059918001 0.074983001 0.17975999
0.051984001 0.075594999 0.16768999
0.051851999 0.077044003 0.16777
0.052336 0.077007003 0.17001
0.053367 0.077395 0.171
0.05816 0.077483997 0.17845
0.057287 0.07756 0.17753001
0.057140999 0.077783003 0.17625999
0.058763001 0.077260002 0.17931999
0.051856998 0.077082001 0.16869
0.055654 0.078711003 0.17504001
0.039034002 -0.039882999 0.1464
0.037765 -0.040004 0.14696001
0.039852001 -0.039122999 0.14995
0.039218001 -0.039443001 0.14952999
0.036005002 -0.036571998 0.14463
0.064384997 -0.036199 0.18682
0.063143998 -0.035730999 0.18713
0.064211003 -0.035950001 0.18791001
0.067616999 -0.035510998 0.19239999
0.065792002 -0.034816001 0.19140001
0.065747999 -0.034237001 0.19072001
0.037719999 -0.032058001 0.14602
0.036061 -0.029937999 0.14454
0.067079 -0.029689001 0.19340999
0.068634003 -0.029341999 0.19366001
0.035422999 -0.027942 0.14338
0.068294004 -0.028396999 0.19408999
0.069127001 -0.026572 0.19464999
0.035223 -0.026657 0.14237
0.068327002 -0.023801999 0.19512001
0.068728998 -0.022712 0.19448
0.035154998 -0.022789 0.14236
0.035248999 -0.022051999 0.14328
0.068117999 -0.021403 0.19415
0.067418002 -0.019965 0.19278
0.036736999 -0.019092999 0.14565
0.064966999 -0.017728001 0.18967
0.065788001 -0.018433001 0.19049001
0.065240003 -0.017052 0.18919
0.038038 -0.014538 0.1471
0.065985002 -0.012217 0.19099
0.04871 -0.011428 0.16413
0.049486998 -0.011196 0.16496
0.050689999 -0.01111 0.16636001
0.052586 -0.011331 0.17004
0.054899 -0.010941 0.17357001
0.055753998 -0.011348 0.17468999
0.063176997 -0.010832 0.18556
0.057813 0.054409001 0.17713
0.058285002 0.054620001 0.17802
0.057092 0.054821 0.1763
0.05517 0.055374999 0.17364
0.054276999 0.055783 0.17248
0.058378998 0.055712 0.17852999
0.054072998 0.055982001 0.17120001
0.051566999 0.057826001 0.16771001
0.060713999 0.058564998 0.18239
0.061590999 0.059082001 0.18273
0.061584 0.06013 0.18321
0.062096 0.064281002 0.18445
0.049841002 0.064655997 0.16514
0.049203001 0.068066999 0.16395
0.061028 0.068512999 0.18348999
0.061703 0.069936 0.18279999
0.060509 0.069982998 0.18206
0.050772 0.074294001 0.16637
0.059067 0.076104999 0.17906
0.056366999 0.078318 0.17599
0.036166999 -0.038690999 0.14477
0.067057997 -0.030398 0.1927
0.057174001 -0.029503999 0.17749999
0.051972002 -0.029386001 0.16942
0.034855999 -0.026945001 0.14341
0.068666004 -0.025776999 0.19512001
0.035050001 -0.023881 0.14251
0.038508002 -0.016756 0.14837
0.037528999 -0.01362 0.14688
0.038440999 -0.010984 0.14820001
0.037608001 -0.011535 0.14904
0.041956 -0.010968 0.15299
0.043726001 -0.01109 0.15550999
0.044516999 -0.011272 0.15674999
0.052168 -0.011241 0.16859999
0.051020999 -0.011074 0.16807
0.05895 -0.011058 0.17979001
0.061213002 -0.011512 0.18366
0.064392999 -0.011267 0.18799999
0.056538001 0.054618999 0.17481001
0.057455 0.055179 0.17734
0.056322999 0.055356 0.17578
0.052685998 0.056940999 0.17002
0.058791 0.057110999 0.18016
0.051642001 0.058501001 0.16909
0.051332001 0.058865 0.16765
0.060467999 0.059976999 0.18212999
0.050423 0.061671998 0.16644999
0.050996002 0.061285 0.16765
0.061501998 0.061367001 0.18351001
0.050283 0.062677003 0.16644999
0.050166 0.064032003 0.16565
0.049247 0.067162 0.16506
0.060943998 0.067178003 0.184
0.060309999 0.069063999 0.18251
0.059611 0.070101999 0.18131
0.051205002 0.074451998 0.16751
0.057875998 0.076099999 0.17883
0.057870001 0.074607998 0.17857
0.051543001 0.076070003 0.16883001
0.053381 0.078184001 0.17193
0.035861999 -0.037105002 0.14549001
0.065548003 -0.031479999 0.19142
0.044723999 -0.031132 0.15796
0.034790002 -0.026844 0.14409
0.038348 -0.017542999 0.14841001
0.037284002 -0.017952999 0.14906999
0.037204999 -0.012598 0.14712
0.046022002 -0.01119 0.16086
0.047323 -0.011293 0.16168
0.048207 -0.011209 0.16294
0.05311 -0.011376 0.17135
0.057909001 -0.011343 0.17761999
0.058120999 -0.011034 0.17859
0.060173001 -0.010981 0.18134999
0.055427998 0.055706002 0.17478
0.053601 0.057055 0.17151999
0.052248001 0.058308002 0.17003
0.059487 0.058472998 0.18121
0.051125001 0.059941001 0.16754
0.060345002 0.061522 0.18285
0.050289001 0.065723002 0.16632999
0.058727 0.071822003 0.17996
0.059002999 0.073210001 0.17971
0.058338001 0.072893001 0.17863999
0.051667001 0.074615002 0.16923
0.039540999 -0.037932001 0.15279
0.065163001 -0.036407001 0.19131
0.064512998 -0.036134999 0.18966
0.061257999 -0.035475999 0.18324
0.061721001 -0.035533 0.185
0.065104 -0.032568999 0.19017
0.064501002 -0.033562999 0.18993001
0.059193 -0.030944999 0.18000001
0.049139 -0.029635999 0.16554999
0.049116999 -0.029532 0.16719
0.034701001 -0.024681 0.14292
0.034646999 -0.023693001 0.14315
0.045430999 -0.011108 0.15954
0.053784002 -0.011324 0.17246
0.056329999 -0.011155 0.17606001
0.060479999 -0.011192 0.18291
0.057652 0.056931999 0.17915
0.053853001 0.057193998 0.17281
0.051433999 0.060107999 0.16918001
0.059183002 0.061122999 0.18151
0.061255001 0.062475 0.18331
0.060511 0.062987 0.18266
0.061133999 0.064268999 0.18333
0.060548 0.064365998 0.18222
0.060229 0.065894999 0.18234999
0.060860001 0.066201001 0.18357
0.049947001 0.067316003 0.16666999
0.049623001 0.068354003 0.16666999
0.050832 0.071574003 0.16763
0.051727001 0.070262 0.16924
0.051918 0.071484998 0.16898
0.050623 0.069826998 0.168
0.056892 0.070234999 0.1778
0.058037002 0.070180997 0.17885999
0.058017001 0.071708001 0.17863999
0.058488 0.070234001 0.18015
0.057167999 0.071928002 0.17743
0.051043998 0.072988003 0.1679
0.051805001 0.072853997 0.1688
0.052731 0.071562998 0.17025
0.052437 0.072982997 0.17024
0.057146002 0.073252 0.17757
0.052220002 0.074179001 0.17020001
0.057122 0.073949002 0.17778
0.036787 -0.039778002 0.1477
0.040521 -0.037677001 0.1534
0.040801998 -0.037425999 0.15449999
0.063208997 -0.035565 0.18914001
0.062421001 -0.035289001 0.18805
0.064801 -0.035383999 0.19165
0.037190001 -0.034008998 0.1489
0.03748 -0.032407001 0.14922
0.037069999 -0.031548999 0.14689
0.058766 -0.032912999 0.17986
0.057797 -0.031316001 0.17930999
0.035904001 -0.030468 0.14684001
0.036253002 -0.031171 0.1477
0.062775001 -0.031137999 0.19128001
0.064338997 -0.031138999 0.1917
0.063795 -0.030503999 0.19181
0.035659 -0.029941 0.14624999
0.066546001 -0.030166 0.19289
0.067322999 -0.028174 0.19403
0.034559 -0.025025001 0.14312001
0.067224003 -0.02489 0.19486
0.067149997 -0.023611 0.19465999
0.067318 -0.022593999 0.19442999
0.064704001 -0.019423001 0.19194999
0.064939 -0.018661 0.19083001
0.063695997 -0.018312 0.19028001
0.064277999 -0.017204 0.18922
0.064094 -0.015016 0.18968
0.064319 -0.01549 0.18912999
0.037824001 -0.014399 0.14803
0.064692996 -0.013409 0.19103999
0.040459 -0.011051 0.15177
0.042222001 -0.010984 0.15464
0.043995 -0.011142 0.15858001
0.061652001 -0.011195 0.18457
0.063716002 -0.011435 0.18996
0.062913999 -0.011108 0.18927
0.054637 0.057115 0.17403001
0.055868998 0.056223001 0.17637999
0.057176001 0.056327999 0.17788
0.052770998 0.058656 0.17111
0.058594 0.058458 0.1804
0.059432 0.060295999 0.18144
0.050787002 0.062835 0.16755
0.059367999 0.064124003 0.18133
0.050367001 0.064649001 0.16723
0.059362002 0.065866999 0.18127
0.050558001 0.066789001 0.16791999
0.058541998 0.067178003 0.18023001
0.059335999 0.067277998 0.18132
0.060279999 0.067033 0.18248001
0.05054 0.068351001 0.16798
0.059565 0.068328001 0.18248001
0.051387001 0.068692997 0.16942
0.056674998 0.068531998 0.17788
0.057863001 0.069041997 0.17908999
0.052328002 0.069799997 0.17028999
0.056357998 0.071629003 0.17674001
0.056340002 0.069968 0.17705999
0.052641999 0.070630997 0.17095
0.052715 0.071489997 0.17110001
0.052625999 0.073141001 0.17118999
0.055339999 0.073119998 0.17686
0.056201 0.077197 0.17799
0.035711002 -0.039799001 0.14656
0.038853999 -0.038763002 0.15131
0.063754998 -0.034194 0.19028001
0.057969 -0.033774 0.17928
0.057140999 -0.032616001 0.17885999
0.057881001 -0.033048999 0.17921001
0.056552999 -0.034161001 0.17934
0.047587 -0.029686 0.16486
0.047867998 -0.029593 0.16299
0.048546001 -0.029436 0.16407999
0.067166001 -0.028427999 0.19394
0.066473 -0.028046001 0.19393
0.035126999 -0.027894 0.14401001
0.067103997 -0.026994999 0.19464999
0.034487002 -0.025402 0.14405
0.035128001 -0.021183999 0.14538001
0.065396003 -0.019854 0.19256
0.036878999 -0.018467 0.1477
0.063386999 -0.016775001 0.18877999
0.038300999 -0.015919 0.14922
0.038058002 -0.015189 0.15017
0.063056998 -0.015361 0.18931
0.038406 -0.015375 0.14922
0.037246 -0.012475 0.14782
0.064897999 -0.012104 0.19088
0.038137 -0.011151 0.14993
0.039530002 -0.011186 0.15073
0.063078001 -0.011176 0.18719999
0.055514 0.056577999 0.17550001
0.053780001 0.057739001 0.17318
0.055098999 0.057078999 0.17542
0.052866999 0.058731001 0.17204
0.058460001 0.059921 0.18049
0.052071001 0.060127001 0.17028999
0.052159999 0.059958 0.17075001
0.051814001 0.060823999 0.16996001
0.058113001 0.061175 0.18058001
0.051394999 0.061384 0.16914
0.059126999 0.063176997 0.18138
0.058347002 0.062608004 0.18046001
0.058742002 0.064744003 0.18043999
0.051279999 0.063895002 0.16937999
0.050740998 0.064268999 0.16868
0.057291999 0.065315999 0.17896999
0.057261001 0.064254999 0.17902
0.058010999 0.065913998 0.18007
0.051001001 0.065591 0.16875
0.059797 0.067491002 0.18279999
0.051245 0.067244999 0.16867
0.056501001 0.065793 0.17817999
0.057960998 0.066721 0.17944001
0.057452999 0.067477003 0.17893
0.051860001 0.065117002 0.17026
0.052055001 0.066853002 0.17079
0.058570001 0.068726003 0.18009999
0.05875 0.068112001 0.18105
0.058906998 0.068544 0.18161
0.056917999 0.067798004 0.17837
0.049426999 0.068616003 0.16671
0.055668999 0.068787999 0.17631
0.056024 0.069008 0.17681
0.055116002 0.070138 0.17675
0.051837999 0.068433002 0.17009
0.052407999 0.068759002 0.17069
0.052340999 0.069219999 0.17109001
0.052841999 0.070187002 0.17224
0.058393002 0.069642998 0.18093
0.058832999 0.069580004 0.18153
0.052536 0.071439996 0.17224
0.052209001 0.073005997 0.17218
0.052118 0.074628003 0.17202
0.055526 0.074258 0.17701
0.056593001 0.075965002 0.17827
0.051697999 0.076035 0.17083
0.052928999 0.078408003 0.17341
0.055505998 0.078477003 0.17670999
0.037360001 -0.039439 0.14904
0.038596999 -0.039528999 0.14823
0.038139999 -0.038929 0.15054999
0.065672003 -0.03599 0.19215
0.035744 -0.036874998 0.14673001
0.036214001 -0.036058001 0.14631
0.065750003 -0.035634998 0.1925
0.061698001 -0.035186999 0.1868
0.036222 -0.035124 0.14769
0.037388001 -0.034044001 0.14797001
0.064524002 -0.034538999 0.1908
0.037243001 -0.031977002 0.14812
0.056917999 -0.0317 0.17878
0.056646001 -0.030069999 0.178
0.056457002 -0.030968999 0.17809001
0.065301999 -0.029881001 0.19261999
0.051373001 -0.029578 0.17095999
0.066423997 -0.029518999 0.19356
0.034616001 -0.022918999 0.14437
0.035055 -0.021841001 0.14476
0.035870001 -0.019932 0.14646
0.062919997 -0.017703 0.18897
0.038261 -0.016783001 0.15013
0.037292 -0.014276 0.149
0.037815001 -0.014994 0.14895999
0.063851997 -0.013766 0.19038001
0.037344001 -0.013579 0.14816999
0.036936 -0.012146 0.14873999
0.053017002 -0.011108 0.17252
0.059526 -0.01123 0.18268
0.058752 -0.011291 0.18177
0.061896 -0.011035 0.18656
0.055663999 0.057764001 0.17673001
0.056545999 0.057730999 0.17811
0.057565998 0.057758 0.17922001
0.05689 0.05861 0.17894
0.053969 0.05827 0.17436001
0.053591002 0.058874 0.17324001
0.057836998 0.059034001 0.17989001
0.057138 0.059919 0.17941
0.052749999 0.059898 0.17202
0.05195 0.061060999 0.1707
0.051472001 0.062421001 0.17005
0.051438 0.062399 0.16937999
0.058001 0.064170003 0.18014
0.057195 0.062937997 0.17930999
0.051764999 0.064420998 0.17075001
0.055608999 0.065613002 0.17697001
0.056047998 0.066474997 0.17731
0.055693001 0.066941001 0.17655
0.052836001 0.068437003 0.17185999
0.055466998 0.071333997 0.17714
0.052074 0.074813999 0.17062999
0.056024 0.074809998 0.17783
0.051941 0.077033997 0.17114
0.052363999 0.078088999 0.1723
0.055009998 0.077803999 0.17742001
0.035461001 -0.039359 0.14582001
0.037597001 -0.039115001 0.14991
0.035703 -0.038511001 0.14636
0.035983998 -0.038879 0.14579
0.041099999 -0.036917001 0.15499
0.063984998 -0.035748001 0.19050001
0.060678001 -0.035073001 0.18242
0.059356 -0.034791 0.18347
0.059649002 -0.034694999 0.18122
0.059817001 -0.034947 0.18434
0.063147999 -0.032880001 0.18934
0.063864999 -0.032168001 0.19024999
0.065507002 -0.03039 0.19239999
0.035735 -0.029524 0.14545999
0.034912001 -0.028179999 0.14553
0.066289999 -0.026923999 0.19422001
0.066150002 -0.025681 0.19461
0.034513 -0.023775 0.14447001
0.066317998 -0.021284999 0.19394
0.066018 -0.02252 0.19426
0.036079999 -0.019183001 0.14742
0.038006999 -0.017720999 0.15025
0.063971996 -0.012192 0.19031
0.043455001 -0.011246 0.1574
0.045297001 -0.011016 0.16082001
0.046583999 -0.011088 0.16333
0.051043 -0.011242 0.16967
0.056598999 -0.011369 0.17802
0.056212001 0.058472998 0.1778
0.054848999 0.058414999 0.17550001
0.053043999 0.059983 0.17339
0.056992002 0.061186999 0.17952
0.052531 0.060988002 0.1718
0.052218001 0.062597997 0.17209999
0.056154002 0.062808 0.17834
0.056035001 0.061375 0.17822
0.052278001 0.063947998 0.17200001
0.056345999 0.064393997 0.17812
0.055255 0.064507999 0.17692
0.052375 0.065844998 0.17207
0.054421999 0.066033997 0.17622
0.054492 0.067391999 0.17562
0.052354001 0.067829996 0.17175999
0.053009 0.068591997 0.17380001
0.053057 0.066988997 0.17366
0.054650001 0.068681002 0.17598
0.052467 0.069559999 0.17306
0.051796999 0.077592 0.17214
0.053748 0.078891002 0.17464
0.054381002 0.078612 0.17591999
0.060484 -0.034770001 0.18531001
0.058704 -0.034768 0.18156999
0.062972002 -0.033647999 0.18986
0.037420001 -0.032675002 0.15002
0.056242 -0.032574002 0.17815
0.063528001 -0.031704001 0.19098
0.036965001 -0.031660002 0.14877
0.048239 -0.029741 0.16632999
0.034348 -0.026829001 0.14549001
0.034504998 -0.022826999 0.14511
0.065309003 -0.021149 0.19334
0.063993998 -0.018712999 0.19091
0.062538996 -0.016624 0.18832
0.039262 -0.010844 0.153
0.042477001 -0.011032 0.15655001
0.041214999 -0.010921 0.15578
0.040305 -0.010949 0.15409
0.053539 -0.011168 0.17439
0.057477999 -0.011142 0.17978001
0.060587 -0.011066 0.18561999
0.062313002 -0.011361 0.18842
0.055268999 0.058793001 0.17712
0.053805999 0.05993 0.17432
0.054552998 0.059852 0.17615999
0.056225002 0.059974 0.17835
0.053061001 0.061280001 0.17339
0.055085 0.062812001 0.17704999
0.052871998 0.064531997 0.17352
0.052650001 0.065913998 0.17326
0.041593999 -0.036692999 0.15652999
0.042443998 -0.036052998 0.15692
0.043072 -0.035999 0.15747
0.036522001 -0.035032999 0.14893
0.045341998 -0.034343001 0.16077
0.044881001 -0.032745 0.16119
0.045662999 -0.034063999 0.16244
0.066110998 -0.023934999 0.19461
0.034961 -0.020605 0.14662001
0.063643999 -0.019846 0.19212
0.038093999 -0.016512999 0.15136001
0.038267002 -0.015651001 0.15146001
0.062105998 -0.015478 0.18839
0.036885001 -0.013157 0.15009999
0.045529 -0.01103 0.16222
0.048850998 -0.011207 0.16783001
0.051658999 -0.011163 0.17124
0.054051001 -0.011254 0.17603999
0.057879999 -0.011053 0.18127
0.060180999 -0.01134 0.18453
0.05514 0.059386 0.17701
0.054147001 0.061454002 0.17544
0.053633999 0.061469998 0.17481001
0.054800998 0.061733998 0.17681
0.053481001 0.062671997 0.17479999
0.052917998 0.063017003 0.17385
0.054345999 0.062904999 0.17621
0.054120999 0.063965999 0.17619
0.054389 0.069476001 0.17663001
0.055075001 0.075635001 0.17745
0.051693998 0.076301001 0.17194
0.040759001 -0.036233999 0.15667
0.040004 -0.03647 0.15577
0.035944998 -0.035625 0.1488
0.058800001 -0.034432001 0.18512
0.057567999 -0.034453001 0.18037
0.057849001 -0.034341998 0.18167999
0.037457 -0.033785 0.1504
0.046845999 -0.033020001 0.16477001
0.046399999 -0.03379 0.16368
0.046195 -0.033259001 0.16385999
0.046792001 -0.033574998 0.16473
0.037147 -0.033991002 0.15088999
0.037089001 -0.032366998 0.15078001
0.064981997 -0.028646 0.19346
0.064125001 -0.027956 0.19351999
0.03444 -0.021147 0.14746
0.062647998 -0.0196 0.19132
0.061949 -0.017306 0.18875
0.037992001 -0.015119 0.15219
0.038259 -0.010969 0.15144999
0.044126999 -0.011125 0.16013999
0.048195001 -0.011094 0.16648
0.053098001 0.063936003 0.17486
0.053704999 0.064528003 0.1763
0.053241 0.066192001 0.17408
0.052919 0.067302004 0.17428
0.052696001 0.068007998 0.17434999
0.054483999 0.074157998 0.17674001
0.035643999 -0.039196 0.14859
0.035209998 -0.038345002 0.14869
0.035305999 -0.038242999 0.14747
0.062109999 -0.034933999 0.18962
0.035989001 -0.03548 0.14995
0.060633998 -0.034812 0.18724
0.058518 -0.034304 0.18318
0.058194999 -0.034278002 0.18381
0.063060001 -0.035073999 0.19065
0.046448998 -0.034124002 0.16545001
0.046459999 -0.032517999 0.16551
0.061997999 -0.033877 0.18987
0.036123998 -0.031124 0.14966001
0.054588001 -0.029603001 0.17584001
0.054104 -0.030833 0.17625999
0.053204 -0.030339999 0.17490999
0.063855998 -0.029859001 0.19254
0.035294 -0.030146001 0.14759
0.034384999 -0.027760999 0.14724
0.064419001 -0.02936 0.19301
0.034463 -0.027654 0.14616001
0.065126002 -0.026657 0.19430999
0.0341 -0.025601 0.14518
0.033953 -0.025624 0.14614999
0.033904001 -0.023639999 0.14588
0.065073997 -0.023886001 0.19428
0.034120001 -0.022569001 0.14617001
0.064420998 -0.021469999 0.19336
0.035376001 -0.019724 0.1485
0.061577 -0.018354001 0.18986
0.061168 -0.018084001 0.18875
0.037323002 -0.017574999 0.15192001
0.061427999 -0.016765 0.18828
0.061983999 -0.01384 0.18964
0.062374 -0.014644 0.18925001
0.036800001 -0.0123 0.14985
0.037184 -0.011427 0.15102001
0.037560999 -0.011221 0.15204
0.043232001 -0.010997 0.15934999
0.047428999 -0.010917 0.16576999
0.049518 -0.011294 0.16893999
0.051695 -0.011143 0.17393
0.056031998 -0.011094 0.17956001
0.052751001 0.064612001 0.17498
0.052699 0.065471999 0.17508
0.053378999 0.066840999 0.17603
0.053442001 0.065513998 0.1761
0.052497 0.068745002 0.17556
0.052343 0.069142997 0.17433999
0.053631 0.068781003 0.1762
0.05201 0.070101999 0.17403001
0.051752999 0.071621001 0.17295
0.051617 0.072874002 0.17317
0.051794998 0.073082 0.17384
0.052182999 0.074101001 0.17404
0.052028 0.075818002 0.17397
0.051497001 0.075946003 0.17328
0.054087002 0.075016998 0.17681
0.054455999 0.07598 0.17721
0.051812001 0.077004001 0.17263
0.054563001 0.077134997 0.17699
0.052062999 0.077405997 0.17403001
0.05353 0.077569 0.17642
0.036830001 -0.038513001 0.15112001
0.036602002 -0.039030001 0.14996
0.038642 -0.037845001 0.15321
0.037624002 -0.038258001 0.15231
0.039397001 -0.037152998 0.15454
0.035273999 -0.036552999 0.14875001
0.036876 -0.034366999 0.15001
0.059748001 -0.034561999 0.18678001
0.062761001 -0.034371 0.19057
0.056692999 -0.034364 0.18129
0.045788001 -0.034063999 0.16439
0.046836998 -0.033876002 0.16678999
0.060777999 -0.033734001 0.18917
0.060908999 -0.032614 0.18914001
0.045731001 -0.032722 0.16445
0.062026002 -0.032147001 0.18955
0.052850001 -0.032641999 0.17490999
0.053615998 -0.032276999 0.17623
0.053969 -0.032878 0.17569
0.055004999 -0.032903999 0.17716999
0.053592 -0.031459 0.17613
0.035135999 -0.029720001 0.14859
0.035875 -0.030577 0.14877
0.052763 -0.030949 0.17524
0.046732001 -0.030219 0.16566999
0.046514001 -0.030425999 0.16423
0.047304999 -0.030004 0.16655
0.052074999 -0.030152 0.17404
0.050358001 -0.029922999 0.17140999
0.051098999 -0.029921999 0.17259
0.034168001 -0.026865 0.14648999
0.064869002 -0.025787 0.1944
0.064163998 -0.022574 0.19375999
0.064932004 -0.023033001 0.19406
0.034423999 -0.021571999 0.14647999
0.035202 -0.020321 0.14718001
0.063698001 -0.020509999 0.19251999
0.036637001 -0.018343 0.14988001
0.062392998 -0.018778 0.19072001
0.036791001 -0.018193999 0.15069
0.038226999 -0.016687 0.15225001
0.061195999 -0.014848 0.18855
0.060293999 -0.01667 0.18761
0.036874 -0.013769 0.15075
0.062045 -0.012081 0.18985
0.036619 -0.01226 0.15113001
0.062008999 -0.011571 0.18951
0.061322998 -0.011164 0.18867999
0.041212998 -0.011068 0.15712
0.041809998 -0.011239 0.15816
0.042525999 -0.011064 0.15932
0.044263002 -0.011101 0.16185001
0.046631999 -0.011129 0.16497
0.051240001 -0.011043 0.17342
0.055032998 -0.011036 0.17868
0.058995999 -0.011158 0.18488
0.052552 0.067346998 0.1754
0.053236 0.070271 0.17678
0.054102998 0.071488 0.17707001
0.053419001 0.072939999 0.17636999
0.053529002 0.074401997 0.17615999
0.052785002 0.074418001 0.17516001
0.052514002 0.075984001 0.17541
0.052765999 0.078235999 0.17499
0.052825999 0.077362001 0.17524999
0.038936999 -0.037544001 0.15377
0.041529998 -0.035801999 0.15829
0.061331999 -0.034968 0.18862
0.055835001 -0.034254 0.18015
0.037319999 -0.032428 0.15184
0.061962001 -0.031640999 0.19053
0.046960998 -0.030981001 0.16695
0.051902 -0.030905999 0.17427
0.064030997 -0.02678 0.19401
0.035794999 -0.018926 0.14986999
0.060015999 -0.015342 0.18769
0.045705002 -0.010823 0.16427
0.049486998 -0.011176 0.17043
0.056474999 -0.011076 0.18139
0.057243001 -0.010984 0.18274
0.057948001 -0.011321 0.18332
0.060527999 -0.011007 0.18753
0.053360999 0.075972997 0.1763
0.035897002 -0.038860999 0.15022001
0.042426001 -0.035225999 0.15937001
0.06033 -0.03461 0.18748
0.056832999 -0.034200002 0.18335
0.037078001 -0.033815999 0.15204
0.047672998 -0.033626001 0.16817001
0.047761999 -0.032613002 0.16836999
0.048618 -0.032625001 0.16948999
0.048466001 -0.033578001 0.16933
0.046309002 -0.031575002 0.16547
0.036446001 -0.031521 0.15107
0.050028998 -0.031027 0.17207
0.051112 -0.030968999 0.17321
0.033849999 -0.026835 0.14702
0.064121999 -0.025366999 0.19449
0.064328 -0.023848001 0.19414
0.034031 -0.022465 0.14704999
0.034774002 -0.020346001 0.14843
0.037767999 -0.017338 0.15317
0.060454 -0.017676 0.18804
0.038036 -0.016643001 0.15360001
0.037039001 -0.014045 0.15202001
0.038536999 -0.010967 0.15308
0.039267 -0.011001 0.15486
0.039882999 -0.011086 0.15615
0.042975001 -0.011021 0.16076
0.050533999 -0.010928 0.17204
0.054149002 -0.011411 0.17781
0.059857 -0.011204 0.18628
0.052212998 0.069982998 0.17569
0.051518999 0.071603999 0.17423999
0.053128999 0.071475998 0.17647
0.052418999 0.072665997 0.17550001
0.036460001 -0.034834001 0.15123001
0.057551 -0.033651002 0.18568
0.056965001 -0.033705998 0.18440001
0.045855999 -0.034072999 0.16735999
0.034389 -0.028697999 0.14839
0.063547999 -0.028772 0.19305
0.037994999 -0.015276 0.15366
0.060956001 -0.014259 0.18944
0.036812998 -0.013564 0.1531
0.048597001 -0.011199 0.16935
0.047527999 -0.010924 0.16817001
0.052262001 -0.011082 0.17521
0.053374 -0.011008 0.17636999
0.052023999 0.071687996 0.17531
0.037583001 -0.037652999 0.15357
0.036927 -0.033684 0.1541
0.037117001 -0.032829002 0.15403999
0.03689 -0.032104999 0.15268999
0.051238 -0.032696001 0.17279001
0.050135002 -0.032644 0.17163999
0.035723001 -0.031003 0.15163
0.049098998 -0.032319002 0.1706
0.049091 -0.031179 0.17058
0.047626998 -0.030967999 0.16805001
0.048175 -0.031141 0.16942
0.061817002 -0.030599 0.19137999
0.060690999 -0.030874001 0.19058999
0.061400998 -0.029724 0.19177
0.062613003 -0.029857 0.19221
0.034995001 -0.029834 0.15036
0.034649 -0.029213 0.14939
0.062314 -0.028346 0.19302
0.062102001 -0.02929 0.19250999
0.034074999 -0.023631001 0.14714
0.033824001 -0.022582 0.14839999
0.062507004 -0.021478999 0.19292
0.035176001 -0.01974 0.15071
0.060118999 -0.018691 0.18939
0.060116999 -0.013638 0.18914001
0.060702 -0.011596 0.18953
0.037036002 -0.011187 0.15278
0.037175 -0.011184 0.1542
0.044314001 -0.010832 0.16344
0.046732001 -0.011187 0.16663
0.035004001 -0.037900999 0.15015
0.035654999 -0.038164999 0.15155999
0.037594002 -0.037244 0.15439001
0.038880002 -0.036343999 0.15639
0.038169 -0.036609001 0.15558
0.034926001 -0.036837 0.15048
0.040309001 -0.036122002 0.15748
0.035383999 -0.035739999 0.15067001
0.039466999 -0.035896 0.15776999
0.035672002 -0.035567001 0.15157001
0.040183999 -0.035280999 0.15894
0.042412002 -0.034901001 0.16139001
0.041150998 -0.034949001 0.16042
0.036641002 -0.034481 0.15183
0.036814999 -0.034315001 0.15287
0.045178 -0.034320001 0.16628
0.044604 -0.034534998 0.16527
0.058200002 -0.033902999 0.18702
0.059542 -0.033962 0.18831
0.060245998 -0.034177002 0.18884
0.046955001 -0.033932999 0.16861001
0.047494002 -0.033573002 0.16992
0.059161 -0.032683998 0.18825001
0.060075998 -0.032088 0.1893
0.048035 -0.032065999 0.17005999
0.035663001 -0.031021001 0.15074
0.034359999 -0.028325999 0.14927
0.063051999 -0.026741 0.19384
0.06233 -0.026966 0.19325
0.033519 -0.025179001 0.14811
0.033555001 -0.023917999 0.1481
0.063174002 -0.024041001 0.19374999
0.062899999 -0.025116 0.19373
0.063243002 -0.02256 0.19366001
0.062297001 -0.022498 0.19338
0.034249999 -0.021631001 0.14825
0.034088001 -0.021188 0.14952999
0.034798998 -0.020034 0.14963
0.06171 -0.020001 0.19141001
0.060435001 -0.019193999 0.19054
0.035466999 -0.019235 0.15149
0.036454 -0.018474 0.15183
0.060811002 -0.018607 0.18975
0.036465 -0.018301999 0.15283
0.059521001 -0.017964 0.18839
0.037429001 -0.017813001 0.15434
0.058483001 -0.017678 0.18734001
0.058623999 -0.017028 0.18685
0.037953001 -0.017240999 0.15445
0.058474001 -0.015554 0.18701001
0.038178001 -0.016705999 0.15521
0.059275001 -0.014729 0.18808
0.037827 -0.014914 0.15434
0.037055999 -0.013954 0.15403
0.036688998 -0.012279 0.15302999
0.060155999 -0.012035 0.18933
0.036616001 -0.012468 0.1517
0.059925001 -0.011411 0.18878999
0.059361 -0.011281 0.1883
0.042872 -0.0111 0.16253
0.049802002 -0.011142 0.17365
0.053660002 -0.011009 0.17953999
0.054582998 -0.010856 0.18047
0.036217 -0.037987001 0.15270001
0.036125999 -0.034832999 0.15307
0.059857 -0.031149 0.1901
0.033833001 -0.02672 0.14823
0.062162001 -0.023579 0.19354001
0.034267999 -0.020633999 0.15045001
0.038104001 -0.015162 0.15545
0.049474001 -0.011133 0.17278001
0.05229 -0.011179 0.17686
0.057560001 -0.01111 0.18527
0.058357 -0.01121 0.18695
0.041839 -0.034540001 0.16208
0.043154001 -0.034802999 0.16224
0.042374 -0.034602001 0.16339999
0.055031002 -0.033557002 0.18200999
0.053824998 -0.033886999 0.17765
0.05477 -0.034106001 0.17895
0.054163001 -0.033470001 0.18072
0.036056999 -0.031413998 0.1531
0.033663999 -0.022235001 0.14916
0.059595998 -0.01911 0.18978
0.059037 -0.013947 0.1886
0.038823999 -0.010804 0.15639
0.040426001 -0.010951 0.15843
0.041203 -0.010897 0.16033
0.04448 -0.011127 0.16485
0.043575 -0.011006 0.16408999
0.044973999 -0.011295 0.16635001
0.046808999 -0.010968 0.1689
0.048781998 -0.011238 0.17179
0.051585 -0.01082 0.17611
0.053266 -0.011165 0.17835
0.056974001 -0.011166 0.18449
0.036079001 -0.037381999 0.15367
0.052081 -0.033636998 0.17734
0.052979998 -0.033727001 0.1781
0.056343999 -0.033298001 0.18562999
0.060469002 -0.028154001 0.1925
0.033829 -0.027096 0.14910001
0.033613998 -0.02575 0.14916
0.062121999 -0.025638999 0.19373
0.061032001 -0.020852 0.19213
0.037599999 -0.017619999 0.15576001
0.05728 -0.015672 0.18610001
0.059013002 -0.011834 0.18882
0.036747001 -0.012318 0.15401
0.038093999 -0.010899 0.15546
0.041590001 -0.01097 0.1611
0.045779001 -0.010958 0.16775
0.047731001 -0.011213 0.17032
0.050666999 -0.0111 0.17509
0.054765001 -0.011155 0.18206
0.055943999 -0.011159 0.18367
0.036915001 -0.036419 0.15601
0.038768001 -0.036095999 0.15692
0.039058 -0.035259001 0.15989
0.037087999 -0.032799002 0.15526
0.056111999 -0.03351 0.18431
0.060373999 -0.026962001 0.19247
0.061310999 -0.023558 0.19341999
0.033512998 -0.023535 0.14944001
0.036415 -0.018459 0.15476
0.036961 -0.018115001 0.15635
0.057248998 -0.016723 0.18639
0.056352001 -0.015024 0.18621001
0.039297 -0.011025 0.15806
0.034960002 -0.037000999 0.15193
0.035301 -0.036883999 0.15328
0.036187999 -0.036555 0.15493999
0.035021 -0.036695 0.15246999
0.035599001 -0.035551999 0.15350001
0.039974 -0.034612998 0.16096
0.035727002 -0.035335999 0.15507001
0.041219998 -0.034288 0.16328999
0.043912999 -0.034717999 0.1635
0.042107001 -0.034085002 0.16489001
0.036663 -0.034674998 0.15474001
0.037050001 -0.033955999 0.15527999
0.045171998 -0.033606999 0.16943
0.037014 -0.034168001 0.15626
0.053436998 -0.033466998 0.18010999
0.052315999 -0.033303998 0.1798
0.054021001 -0.032816999 0.18317001
0.053335998 -0.032953002 0.18181001
0.058035001 -0.032823 0.18784
0.036809999 -0.03201 0.15482999
0.036536001 -0.031594001 0.15415999
0.058173001 -0.031226 0.18904001
0.058040999 -0.031874001 0.18864
0.058685999 -0.030903 0.18996
0.035436001 -0.030536 0.15251
0.059528001 -0.029759999 0.19113
0.060118001 -0.030468 0.19067
0.060509 -0.02995 0.19146
0.034168001 -0.029253 0.15155999
0.034903001 -0.029685 0.15143
0.034584999 -0.029549001 0.1523
0.060467999 -0.029332999 0.19189
0.033684 -0.028055999 0.15024
0.034384999 -0.028611001 0.15075
0.033239 -0.025059 0.15011001
0.033061001 -0.024204001 0.15024
0.060600001 -0.021302 0.19222
0.034062002 -0.021149 0.15165
0.034667 -0.019544 0.15237001
0.058768999 -0.019709 0.19031
0.059698001 -0.019719001 0.19106001
0.035181001 -0.019495999 0.15369
0.057130001 -0.018398 0.18748
0.057964999 -0.018606 0.18878999
0.038183 -0.016677 0.15652999
0.038245 -0.015384 0.15695
0.056791998 -0.016755 0.18613
0.037997 -0.015224 0.1573
0.038091999 -0.015246 0.15855999
0.057186998 -0.013711 0.18785
0.057308 -0.014755 0.18735
0.037147 -0.014322 0.15535
0.036582001 -0.013535 0.15482999
0.058116999 -0.012259 0.18844999
0.057976 -0.013351 0.18869001
0.057402 -0.011333 0.18761
0.036773998 -0.011385 0.1551
0.037082002 -0.011244 0.15636
0.037494 -0.035951 0.15734001
0.043731 -0.033783998 0.167
0.042782001 -0.033916999 0.16601001
0.048668999 -0.033275999 0.17342
0.049052998 -0.033789001 0.17247
0.049006999 -0.033312999 0.17427
0.051486 -0.033774 0.17585
0.049952999 -0.033231001 0.1763
0.050779 -0.033700999 0.17472
0.056419 -0.033266 0.18595
0.056136999 -0.032522999 0.18663999
0.057137001 -0.032731999 0.18747
0.037103999 -0.032288998 0.15633
0.033899002 -0.028011 0.15137
0.033696 -0.026744001 0.15115
0.061298002 -0.025114 0.19339
0.033596002 -0.022535 0.15025
0.033124 -0.023646999 0.15141
0.033535998 -0.022414999 0.15098999
0.060261 -0.022521 0.19262999
0.059464999 -0.020889999 0.19149999
0.035882 -0.018851001 0.15418001
0.057980999 -0.019314 0.18917
0.05635 -0.018088 0.18651
0.037503 -0.017568 0.15752
0.037919 -0.016855 0.15752
0.055512 -0.016646 0.18535
0.037505999 -0.014496 0.15620001
0.036743999 -0.013799 0.15627
0.036509998 -0.01231 0.15501
0.037434999 -0.011262 0.15735
0.039398 -0.011088 0.15974
0.050202999 -0.011158 0.17664
0.051557999 -0.010931 0.1793
0.053192999 -0.011023 0.18148001
0.055865001 -0.011093 0.18537
0.056097999 -0.011291 0.18667001
0.038198002 -0.035505001 0.15861
0.040437002 -0.034474999 0.16224
0.044380002 -0.033787999 0.16808
0.046184 -0.033468999 0.17034
0.047318999 -0.033634 0.17182
0.047506999 -0.033287998 0.1736
0.037330002 -0.032714002 0.15738
0.037386999 -0.033732001 0.15734001
0.048944999 -0.033181001 0.17576
0.048648998 -0.033408001 0.17517
0.055695999 -0.032864999 0.18527
0.035799 -0.031330999 0.15488
0.035553999 -0.030789999 0.15357
0.034878001 -0.029908 0.15402
0.059535 -0.028484 0.1919
0.033596002 -0.026895 0.15046
0.060102001 -0.025427001 0.19305
0.060194001 -0.023773 0.19306999
0.037852 -0.017716 0.15849
0.038180999 -0.016725 0.15854
0.055720001 -0.015441 0.18561999
0.056924 -0.012241 0.18783
0.041046001 -0.010964 0.16237999
0.044075999 -0.011197 0.16738001
0.047513999 -0.011002 0.17242
0.047858998 -0.01109 0.17273
0.049293 -0.011295 0.17531
0.051146999 -0.011198 0.17818999
0.036474999 -0.035760999 0.15649
0.046534002 -0.033217002 0.17283
0.045701001 -0.033027001 0.17264
0.051444001 -0.033089001 0.17964999
0.058371998 -0.030030999 0.19036999
0.035441 -0.019236 0.155
0.05528 -0.017821001 0.18571
0.05573 -0.014233 0.18683
0.036557 -0.012119 0.15638
0.040096 -0.011126 0.16073
0.041889001 -0.010936 0.16492
0.04304 -0.010886 0.16611999
0.046806999 -0.011047 0.171
0.045531001 -0.010805 0.16948999
0.054947998 -0.01101 0.18404999
0.036316 -0.035202 0.15715
0.037850998 -0.034047 0.16064
0.038178999 -0.034839001 0.16016001
0.038713999 -0.034446999 0.16179
0.049199 -0.032942001 0.17748
0.050324999 -0.033298001 0.17794999
0.049587999 -0.032577999 0.1789
0.052189998 -0.032976002 0.18069001
0.051561002 -0.032455001 0.18276
0.051472999 -0.032575998 0.18143
0.054467 -0.032772999 0.18516999
0.035753999 -0.030881001 0.15674999
0.033797 -0.021369999 0.15246999
0.034963999 -0.019616 0.15581
0.038435999 -0.015571 0.15972
0.054664999 -0.015537 0.18455
0.054761 -0.016601 0.18460999
0.037131999 -0.014497 0.15756001
0.037868001 -0.011098 0.15882
0.053633001 -0.011229 0.18294001
0.037595998 -0.033007 0.15849
0.037331998 -0.033891 0.15932
0.047051001 -0.032970998 0.17506
0.037354 -0.032551002 0.15891001
0.036931001 -0.031828001 0.15779001
0.034368001 -0.029364999 0.15462001
0.033911001 -0.02837 0.15271001
0.033094998 -0.025014 0.15154999
0.059023999 -0.025233001 0.19258
0.058943 -0.022314999 0.19209
0.033875 -0.021056 0.15428001
0.057659 -0.021046 0.19096
0.056970999 -0.019041 0.18866
0.036545001 -0.018572001 0.15798
0.055151999 -0.018732 0.18719
0.037457999 -0.018184001 0.1595
0.054653 -0.017572001 0.18511
0.038614001 -0.016858 0.15955999
0.055325001 -0.013587 0.18685
0.037831999 -0.011094 0.16072001
0.048305999 -0.010944 0.17457999
0.054662 -0.011103 0.18616
0.039251 -0.034102 0.16314
0.043946002 -0.033633001 0.1692
0.054384999 -0.032148 0.18610001
0.036428999 -0.031736001 0.15666001
0.056869 -0.031461 0.18855999
0.035417002 -0.030915 0.15531
0.03469 -0.029944999 0.15594
0.057863001 -0.029193999 0.19084001
0.057395998 -0.028489999 0.19108
0.033199999 -0.026883001 0.15296
0.058486 -0.027781 0.19162001
0.058525998 -0.02699 0.1921
0.033300001 -0.022824001 0.15199
0.059188999 -0.023651 0.19249
0.058571 -0.022608001 0.19204
0.033516001 -0.021898 0.15242
0.034664001 -0.019915 0.15432
0.056836002 -0.019567 0.18944
0.055856999 -0.019463999 0.1886
0.054393001 -0.018542999 0.18618999
0.053800002 -0.017022001 0.18430001
0.038598001 -0.016819 0.16067
0.054839998 -0.01475 0.18583
0.036881998 -0.013552 0.15817
0.055484001 -0.012271 0.18691
0.036725 -0.012032 0.15785
0.041090999 -0.011025 0.16406
0.051731002 -0.011006 0.18079001
0.053552002 -0.011298 0.18485001
0.036786001 -0.035048001 0.1582
0.037319001 -0.034970999 0.15896
0.036943 -0.03418 0.15796
0.042746998 -0.033544999 0.16772
0.045281 -0.033172 0.17163999
0.037571002 -0.032568999 0.16062
0.048385002 -0.033066999 0.1767
0.055385001 -0.032055002 0.18701001
0.055925999 -0.030897999 0.18867999
0.057167001 -0.030537 0.18945999
0.056667 -0.029665999 0.19013999
0.034056 -0.028205 0.15453
0.033248 -0.025812 0.15206
0.033075999 -0.023994001 0.15229
0.058192998 -0.023963001 0.19223
0.033415001 -0.022454999 0.15329
0.033916999 -0.021144999 0.15351
0.058499999 -0.021714 0.19152001
0.056210998 -0.018764 0.18771
0.055211999 -0.018914999 0.18765
0.05367 -0.01815 0.18538
0.052963 -0.01674 0.18352
0.052655 -0.017929001 0.18406001
0.037562001 -0.017883001 0.16098
0.052809998 -0.015164 0.18374
0.038617 -0.015269 0.16192
0.053698 -0.014922 0.18463001
0.037087001 -0.013703 0.15959001
0.038426001 -0.015116 0.16055
0.037648 -0.014235 0.16084
0.037576001 -0.014685 0.15909
0.054568999 -0.014 0.18626
0.043152001 -0.011109 0.16777
0.043524999 -0.011106 0.1689
0.046098001 -0.011202 0.17283
0.046719 -0.011156 0.17426001
0.049245 -0.010928 0.17788
0.039994001 -0.03376 0.16436
0.040832002 -0.033751 0.16558
0.044293001 -0.032949999 0.17067
0.050430998 -0.032545 0.18026
0.053576 -0.032315999 0.18537
0.054986 -0.031537 0.18748
0.036288001 -0.031447001 0.15827
0.033994 -0.027972 0.1533
0.058453001 -0.025308 0.19213
0.033034999 -0.025589 0.15305001
0.056763001 -0.020779001 0.19052
0.036072999 -0.018658999 0.15725
0.035374001 -0.01915 0.15682
0.039143 -0.016741 0.16193999
0.055309001 -0.011297 0.18674999
0.036805999 -0.01132 0.15834001
0.037160002 -0.011508 0.15932
0.03864 -0.011042 0.16218001
0.039462 -0.011091 0.16324
0.040436 -0.011143 0.16369
0.041924998 -0.010878 0.16641
0.044512998 -0.01099 0.17031001
0.048117001 -0.011021 0.17619
0.052606001 -0.011357 0.18384001
0.041744001 -0.033411 0.16705
0.043157998 -0.033158001 0.16925
0.052935999 -0.032299001 0.1839
0.033032 -0.023905 0.15363
0.055721998 -0.020388 0.18925001
0.038357001 -0.017601 0.16209
0.036871001 -0.012227 0.15924001
0.054444 -0.012231 0.18630999
0.041243002 -0.011105 0.16519
0.044884998 -0.011075 0.17166001
0.042621002 -0.032628998 0.17104
0.047765002 -0.032333001 0.17834
0.050071999 -0.032044999 0.18193001
0.036664002 -0.031659 0.1596
0.055934001 -0.03008 0.18916
0.033898 -0.028620001 0.15572
0.056570001 -0.028756 0.19045
0.033255 -0.027097 0.15449999
0.057167001 -0.027141999 0.19144
0.057133 -0.025234001 0.19175
0.057069998 -0.023541 0.1918
0.057397 -0.022242 0.19132
0.03356 -0.022198001 0.15436999
0.034306999 -0.020695001 0.15594
0.036044002 -0.01891 0.15843
0.05181 -0.016632 0.18295
0.051543001 -0.015567 0.18286
0.038947001 -0.016693 0.16331001
0.039221 -0.015515 0.16305
0.052916002 -0.014541 0.18471
0.053247001 -0.013838 0.18539999
0.050879002 -0.011076 0.18145999
0.038167998 -0.032770999 0.16234
0.041351002 -0.032921001 0.16861001
0.044801001 -0.032489002 0.17380001
0.043922 -0.032494999 0.1726
0.045221999 -0.032478999 0.17481001
0.046317998 -0.032368999 0.17617001
0.049383 -0.032067999 0.18088999
0.054217 -0.031801 0.18674
0.034908 -0.029697999 0.15708999
0.056295998 -0.022627 0.19129001
0.055590998 -0.021066001 0.18994001
0.055024002 -0.020176001 0.18899
0.036371998 -0.018789999 0.16008
0.054134 -0.018944001 0.18693
0.051545002 -0.017457001 0.18305001
0.051029 -0.015792999 0.18196
0.050962999 -0.016411999 0.18199
0.053330999 -0.012137 0.18589
0.038552999 -0.01109 0.16371
0.049743 -0.011018 0.17975
0.050043002 -0.011182 0.1805
0.051686 -0.011082 0.1831
0.038708001 -0.033385001 0.16357
0.037926 -0.032246999 0.16274001
0.039880998 -0.032938 0.16639
0.040559001 -0.033534002 0.16618
0.040591002 -0.032786999 0.1672
0.051867999 -0.031918 0.18459
0.052912001 -0.032202002 0.18551999
0.037255999 -0.032109998 0.16137999
0.036782 -0.031417999 0.1613
0.053187001 -0.031064 0.18694
0.035023 -0.029874001 0.15888
0.036164999 -0.031036001 0.16027001
0.054198999 -0.030649001 0.18793
0.054678001 -0.029584 0.189
0.034768 -0.029735001 0.15798999
0.033996001 -0.028169001 0.15634
0.055796999 -0.028209999 0.19001
0.056269001 -0.026848 0.19115999
0.056207001 -0.025141999 0.19122
0.032997001 -0.025265999 0.155
0.056621 -0.023948999 0.19155
0.032970998 -0.02369 0.15464
0.033303998 -0.022583 0.15566
0.055748999 -0.022384999 0.19068
0.033661 -0.021503 0.15535
0.054781001 -0.021207999 0.18944
0.034127001 -0.020664001 0.15776999
0.053805001 -0.019633001 0.18802001
0.035248999 -0.019654 0.15904
0.035897002 -0.019166 0.16029
0.053410001 -0.019598 0.18726
0.051066998 -0.017867001 0.18319
0.038835 -0.017539 0.16301
0.038543001 -0.017786 0.1636
0.050333001 -0.016938001 0.18141
0.049911 -0.018391 0.18218
0.039623 -0.015828 0.16399001
0.039453998 -0.016617 0.16474
0.050087001 -0.015108 0.18179999
0.039156999 -0.015273 0.16477001
0.050926 -0.014509 0.18294001
0.038532 -0.014361 0.16340999
0.037099 -0.01359 0.16159999
0.037590001 -0.013675 0.16264001
0.052719999 -0.013556 0.18539999
0.052960999 -0.012418 0.18539
0.037287001 -0.012447 0.16118
0.036991 -0.011978 0.16057999
0.041046999 -0.01097 0.16738001
0.042169999 -0.011201 0.16926999
0.043816999 -0.010941 0.17234001
0.047226001 -0.011029 0.1758
0.038283002 -0.033463001 0.16305999
0.039237 -0.033436999 0.16458
0.038449999 -0.032329001 0.16372
0.039014 -0.032926001 0.16487999
0.047061998 -0.032294001 0.17732
0.053631999 -0.029480999 0.18827
0.034325998 -0.028903 0.15696
0.033546999 -0.026908999 0.15689
0.033466998 -0.027036 0.15522
0.055780001 -0.026914001 0.19078
0.033989999 -0.021228001 0.15632001
0.034915999 -0.019894 0.15820999
0.052678999 -0.018839 0.18595
0.037129998 -0.018497 0.16165
0.051631 -0.018565999 0.18445
0.037831001 -0.018197 0.16261999
0.038764 -0.018000999 0.16519
0.039827 -0.015234 0.16610999
0.049373001 -0.016796 0.1806
0.049435999 -0.015469 0.18076
0.051681999 -0.013782 0.18434
0.037965 -0.014051 0.16394
0.037399001 -0.011597 0.16141
0.051970001 -0.011245 0.18432
0.051612001 -0.012201 0.18460999
0.037650999 -0.011377 0.16264001
0.039021 -0.01114 0.16484
0.039733 -0.011144 0.16632
0.048262 -0.010939 0.17973
0.047612 -0.011135 0.17828999
0.049332 -0.011324 0.18081
0.050319999 -0.011442 0.18208
0.050857998 -0.011434 0.18325999
0.048218001 -0.032081001 0.17952
0.05071 -0.032097001 0.18289
0.051146001 -0.031688001 0.18491
0.052129999 -0.031323999 0.186
0.033431999 -0.022434 0.15663999
0.049348 -0.017754 0.18119
0.039399002 -0.017781001 0.16631
0.040087 -0.016919 0.16604
0.050308999 -0.01402 0.18335
0.049954999 -0.014107 0.18228
0.041499998 -0.01089 0.16866
0.042838998 -0.010879 0.17121001
0.046668001 -0.010963 0.17736
0.050671998 -0.031865001 0.18340001
0.037142001 -0.031661 0.16283999
0.033994999 -0.028182 0.15813001
0.054430999 -0.028306 0.18970001
0.054616001 -0.02712 0.19013999
0.055215001 -0.025562 0.19064
0.055601001 -0.02389 0.19085
0.033177 -0.024015 0.15684
0.054660998 -0.022274001 0.19004001
0.053892002 -0.020532999 0.18851
0.036458999 -0.018999999 0.16125
0.052216001 -0.019182 0.18609001
0.047951002 -0.017688001 0.17975
0.048530001 -0.016845999 0.17975999
0.040352002 -0.015283 0.16756
0.047368001 -0.015389 0.17862999
0.040468998 -0.016725 0.1675
0.041181002 -0.015368 0.16876
0.048434 -0.014959 0.1797
0.037622001 -0.012274 0.16275001
0.044427998 -0.011256 0.17358001
0.041735999 -0.032958999 0.16971999
0.035342999 -0.029945999 0.16001999
0.052878 -0.030115001 0.18754999
0.053419001 -0.027741 0.18945
0.033365 -0.025095999 0.15648
0.040410999 -0.017488999 0.16795
0.040966999 -0.017052 0.169
0.047153 -0.016701 0.17852999
0.038484 -0.014228 0.16516
0.038022999 -0.012438 0.16406
0.050172001 -0.012341 0.18354
0.044723 -0.011339 0.17468999
0.045767002 -0.011058 0.17581999
0.046606999 -0.01116 0.17911001
0.039569002 -0.032446001 0.16839001
0.043453999 -0.032117002 0.17434999
0.047274999 -0.031633001 0.18063
0.049644001 -0.031206001 0.18415999
0.049713999 -0.031660002 0.18284
0.036582999 -0.030594001 0.16294999
0.037076999 -0.030898999 0.16452999
0.052189998 -0.029615 0.18747
0.051486999 -0.030649001 0.18630999
0.034878001 -0.029440001 0.16091
0.052983999 -0.029023999 0.18832999
0.053998999 -0.025264001 0.1901
0.053881999 -0.027129 0.18972
0.033746 -0.021933001 0.15798999
0.033544999 -0.022493999 0.15871
0.053231001 -0.021513 0.18852
0.035087999 -0.019997999 0.16056
0.051424 -0.019716 0.18626
0.047290001 -0.018168001 0.18059
0.048154999 -0.018608 0.18167999
0.040773001 -0.017650999 0.16863
0.047488 -0.017515 0.17873
0.045665 -0.015714999 0.17659
0.046280999 -0.017004 0.17772
0.046636999 -0.015667001 0.17782
0.041689001 -0.016744001 0.17020001
0.045843001 -0.016279999 0.17662001
0.041556001 -0.015524 0.16996001
0.045495 -0.014988 0.17682999
0.045974001 -0.014961 0.17794
0.046867002 -0.014902 0.17873999
0.048362002 -0.013732 0.18132
0.038876001 -0.013864 0.16693
0.038295999 -0.013645 0.16542999
0.040433001 -0.01109 0.16935
0.047543 -0.011351 0.18036
0.040796001 -0.032063998 0.17068
0.042769998 -0.032320999 0.17274
0.038369998 -0.031817999 0.16566999
0.038807999 -0.032256 0.16692001
0.043926999 -0.032005001 0.17515001
0.046494 -0.032003 0.17781
0.038042001 -0.031509001 0.16575
0.047912002 -0.031744 0.18186
0.048850998 -0.031146999 0.18275
0.050337002 -0.030764 0.18501
0.035916001 -0.030631 0.16176
0.033952001 -0.028019 0.15939
0.033882 -0.027597001 0.15866999
0.052680999 -0.027907001 0.18884
0.033422999 -0.026655 0.15829
0.033264 -0.025103001 0.15724
0.053603999 -0.023835 0.19001
0.033376001 -0.022744 0.15748
0.033165999 -0.023843 0.15846001
0.053773999 -0.022574 0.18982001
0.034136001 -0.02104 0.15882
0.034182001 -0.020939 0.1596
0.034370001 -0.020687999 0.15922999
0.052134 -0.021105999 0.18781
0.035783999 -0.019706 0.16221
0.036357999 -0.01935 0.16340999
0.050236002 -0.019571999 0.18519001
0.037165999 -0.018859001 0.16350999
0.037418 -0.018687 0.1645
0.049821999 -0.018339001 0.18362001
0.049706001 -0.019443 0.18424
0.037950002 -0.018592 0.16566999
0.049275 -0.01843 0.18268999
0.038725 -0.018304 0.16718
0.039298002 -0.017978 0.16848999
0.046286002 -0.018270999 0.17919999
0.040426001 -0.01798 0.16937
0.040672 -0.017909 0.17039999
0.045733999 -0.018206 0.17813
0.045643002 -0.017415 0.17663001
0.041785002 -0.017185001 0.17091
0.042218 -0.016303999 0.17144001
0.044349 -0.015057 0.17535999
0.044110999 -0.016019 0.1745
0.043747 -0.016905 0.17402001
0.044555999 -0.016904 0.17522
0.045084 -0.016368 0.17575
0.041471999 -0.014894 0.17083
0.042555999 -0.015194 0.17189001
0.042714 -0.016032999 0.17154001
0.042769 -0.016599 0.17196
0.043024 -0.016997 0.1728
0.043030001 -0.015392 0.17267001
0.043696001 -0.015138 0.17418
0.045081999 -0.015556 0.17543
0.042688001 -0.014995 0.17265999
0.039785001 -0.014095 0.16829
0.047398001 -0.014033 0.18054
0.049217001 -0.013593 0.18268999
0.049201999 -0.01227 0.18268
0.038252998 -0.012152 0.16571
0.049192999 -0.011533 0.18208
0.038391002 -0.011486 0.16542
0.048425 -0.011244 0.1811
0.039055999 -0.011113 0.16716
0.039478 -0.011291 0.16825999
0.040991001 -0.011186 0.17082
0.045848001 -0.011133 0.17784999
0.040339001 -0.032039002 0.16956
0.045175001 -0.032217 0.17659
0.035418 -0.029655 0.16225
0.033434 -0.025428001 0.15857001
0.033181001 -0.024063 0.15727
0.052685998 -0.02272 0.18923999
0.041567001 -0.017782001 0.17182
0.044922002 -0.01805 0.17676
0.043474998 -0.017833 0.17441
0.042761002 -0.017844999 0.17314
0.044135001 -0.017991001 0.17580999
