# .PCD v0.7 - Point Cloud Data file format
VERSION 0.7
FIELDS x y z
SIZE 4 4 4
TYPE F F F
COUNT 1 1 1
WIDTH 1654
HEIGHT 1
VIEWPOINT 0 0 0 1 0 0 0
POINTS 1654
DATA ascii
0.18806 0.16023 0.0050912998
0.18791001 0.16076 0.0053769001
0.18712001 0.16336 0.0045524002
0.18741 0.16583 0.0046794
0.18861 0.1672 0.0032817
0.24118 0.16719 -0.018495999
0.24029 0.1708 -0.020027
0.19171 0.17056 0.0037740001
0.19045 0.17039999 0.0041008
0.19192 0.17649999 0.0030878
0.19216 0.18045001 0.0039243
0.19126999 0.17845 0.0032494001
0.19193 0.18018 0.0028068
0.19294 0.18165 0.0019688001
0.19077 0.18107 0.0024798
0.19002999 0.18099 0.0020818
0.1882 0.22634999 0.0058565
0.18738 0.23104 0.0045905001
0.18866999 0.23182 0.0041735
0.18717 0.23122001 0.0058972999
0.19291 0.23202001 0.0027042001
0.19367 0.23088001 0.0029641001
0.19212 0.23112001 0.0028178
0.18844 0.23037 0.0055295001
0.18572 0.23721001 0.0041697002
0.18662 0.23588 0.0059688999
0.18672 0.23757 0.0049724998
0.18679 0.24066 0.0050319
0.18630999 0.15753999 0.0062144999
0.18942 0.16094001 0.0046240999
0.18838 0.1621 0.0061456999
0.19177 0.16659001 0.0045733
0.19129001 0.17366 0.0026861001
0.19230001 0.18269999 0.0012257
0.18849 0.18426 0.0035257
0.18774 0.22664 0.004621
0.18782 0.22913 0.0053153001
0.18843 0.22993 0.0046424
0.23907 0.23094 -0.02011
0.23897 0.23011 -0.020625001
0.23942 0.23282 -0.017864
0.18709999 0.15697999 0.0048080999
0.19203 0.17115 0.0036464999
0.18946999 0.17217 0.0035158
0.24173 0.21526 -0.017952999
0.24205001 0.2128 -0.020595999
0.23944999 0.21510001 -0.020141
0.18844999 0.228 0.0050587002
0.23591 0.23077001 -0.018209999
0.23758 0.23263 -0.017871
0.18640999 0.23394001 0.0053817998
0.18861 0.16847 0.0050110002
0.1874 0.16859999 0.0062803002
0.18795 0.16944 0.0056162002
0.19039001 0.17245001 0.0033994999
0.19261999 0.17746 0.0036243999
0.18659 0.23390999 0.0072901999
0.18674999 0.23548 0.0072538001
0.18785 0.16344 0.0074729002
0.241 0.16690999 -0.01871
0.23925 0.16699 -0.017988
0.19198 0.17286 0.0040334999
0.19238999 0.17226 0.0057374001
0.19423001 0.17856 0.0044188001
0.19338 0.17715999 0.0050280001
0.20361 0.21340001 -0.0018677
0.2067 0.21269999 -0.0020365
0.20512 0.21239001 -0.0030189001
0.23461001 0.22351 -0.016511001
0.23475 0.22229999 -0.017046001
0.23486 0.22393 -0.015531
0.23531 0.22541 -0.016104
0.23578 0.22739001 -0.016456001
0.2358 0.22633 -0.017795
0.18763 0.22604001 0.0057597999
0.18896 0.2317 0.0060502999
0.18678001 0.15823001 0.0072582001
0.18779001 0.15987 0.0075651999
0.18611 0.16078 0.0077264998
0.18691 0.15963 0.0065877
0.24132 0.16599 -0.019564001
0.23957001 0.16483 -0.018789001
0.24101 0.1673 -0.016763
0.18980999 0.16692001 0.0058064
0.19147 0.16901 0.0052107
0.19283 0.16796 0.0039061999
0.23977999 0.16806 -0.018097
0.1885 0.16636001 0.0073120999
0.24095 0.16938999 -0.019213
0.18805 0.16926 0.0070806998
0.18706 0.16988 0.0053818999
0.18855 0.17124 0.0066919001
0.18921 0.17191 0.0064604999
0.18827 0.17542 0.0052157999
0.18878999 0.17378999 0.0057998002
0.18923999 0.18344 0.0036694
0.18952 0.18435 0.0063618999
0.19052 0.18066999 0.0057779001
0.18876 0.18601 0.0047062999
0.19024 0.20328 0.0053564999
0.19039001 0.19851001 0.0068739001
0.18874 0.20197 0.0047344002
0.20362 0.21352001 -0.00027675999
0.23203 0.21969 -0.014408
0.2314 0.22131 -0.015152
0.23037 0.21946999 -0.013982
0.22961999 0.22149 -0.013156
0.23096 0.21991999 -0.0123
0.23418 0.22239999 -0.016246
0.23370001 0.222 -0.013809
0.18932 0.22150999 0.0054346998
0.18911 0.21960001 0.0060214
0.18851 0.2217 0.0070687998
0.20100001 0.22361 0.0011829
0.20174 0.22253001 0.00065320003
0.23458999 0.22179 -0.014773
0.19760001 0.22308999 0.00034960001
0.19688 0.22435001 0.0019028001
0.19926 0.22208001 0.0023940001
0.18912999 0.22376999 0.0046978998
0.1901 0.22413 0.0051042
0.18783 0.22549 0.0068943002
0.18808 0.22554 0.0072291
0.237 0.22745 -0.015690999
0.23712 0.22897001 -0.018854
0.23789001 0.22549 -0.017995
0.18804 0.22778 0.0073425001
0.19543 0.23159 0.0035669
0.19599 0.23004 0.0031023
0.23638 0.2339 -0.017960999
0.23659 0.23255999 -0.016564
0.23774 0.23360001 -0.015645999
0.23547 0.23515999 -0.016101999
0.23607001 0.23605999 -0.017502001
0.18578 0.23596001 0.0079030003
0.18646 0.23748 0.0063029998
0.21436 0.23974 -0.0070131002
0.21535 0.24241 -0.0070471
0.21323 0.24180999 -0.0091354996
0.22490001 0.24484 -0.011277
0.22160999 0.24433 -0.0094517004
0.22371 0.24521001 -0.012054
0.22401001 0.24600001 -0.0094684996
0.18718 0.15594999 0.0061504999
0.1875 0.15752999 0.0070758001
0.18696 0.15533 0.0063780001
0.24205001 0.16463 -0.018857
0.24003001 0.16395999 -0.016635999
0.18644001 0.16673 0.0055295001
0.18584 0.1656 0.0063498998
0.23981 0.17116 -0.01853
0.19306 0.17394 0.0057481001
0.19309001 0.18041 0.0032609999
0.18876 0.20094 0.0053686998
0.18953 0.19837999 0.0039161998
0.18915001 0.19815999 0.0068199998
0.1874 0.20243999 0.0071124998
0.18816 0.20068 0.0063184998
0.18941 0.20226 0.0060823001
0.18988 0.20367 0.0054585999
0.20501 0.21516 -0.001044
0.23351 0.22135 -0.014546
0.19983 0.22206999 0.0011773
0.23453 0.22567999 -0.014223
0.23555 0.2256 -0.016122
0.23723 0.23057 -0.018200999
0.23716 0.23179001 -0.018152
0.23438001 0.23677 -0.016093001
0.21346 0.24019 -0.0058919
0.21517 0.23905 -0.0066653001
0.24155 0.16813999 -0.019090001
0.24202999 0.16682 -0.018059
0.24239001 0.16957 -0.017154001
0.19231001 0.16964 0.0047696
0.19335 0.17241 0.0046827001
0.19212 0.17599 0.0044853999
0.19499999 0.17927 0.0054370998
0.18961 0.19668999 0.0066737002
0.18790001 0.19794001 0.0070058
0.18855 0.19845 0.0061981999
0.18746001 0.20214 0.0072122002
0.18960001 0.20423 0.0067707999
0.18719999 0.20480999 0.0072749001
0.19078 0.20817 0.0065305
0.18982001 0.20595001 0.0054660998
0.18901999 0.2068 0.0064915
0.19041 0.20964999 0.0062811002
0.18960001 0.21967 0.0064349999
0.1885 0.22059 0.0077008
0.20253 0.22234 0.00061546999
0.20241 0.22017001 -0.00023362999
0.20017 0.22168 -0.00045237999
0.19758999 0.22466999 0.0023312001
0.19888 0.22255 0.0022616
0.1943 0.22957 0.0038155001
0.19693001 0.22776 0.0027111999
0.23735 0.22926 -0.016108001
0.23769 0.2308 -0.015543
0.18686999 0.23492 0.0079114996
0.23458999 0.23743001 -0.014666
0.23593 0.2367 -0.015456
0.18581 0.2392 0.0069034002
0.21479 0.24112 -0.0042484002
0.18719999 0.23975 0.0079685999
0.18854 0.23980001 0.0064678998
0.22469001 0.2473 -0.010454
0.22589 0.24462 -0.011537
0.22733 0.24623001 -0.0093905004
0.24173 0.17205 -0.017999999
0.19317999 0.17302001 0.0038570999
0.18855999 0.19566 0.0072439001
0.1899 0.19529 0.0056357998
0.18714 0.20660999 0.0078189997
0.23336001 0.22118001 -0.014234
0.18898 0.22339 0.0068415999
0.23704 0.23153 -0.015251
0.21314 0.23883 -0.0049764002
0.22447 0.24352001 -0.010062
0.18776999 0.16140001 0.0075265998
0.19588 0.17738999 0.0039333999
0.18808 0.19527 0.0075214002
0.18797 0.20651001 0.0083477003
0.23443 0.22445001 -0.014783
0.2149 0.23661 -0.0053980001
0.2158 0.23789001 -0.0065833
0.24504 0.23881 -0.018096
0.24597999 0.2387 -0.018499
0.24371 0.23845001 -0.020306
0.23423 0.23811001 -0.014404
0.23477 0.2388 -0.013603
0.22781 0.24598999 -0.011166
0.22693001 0.24688999 -0.010388
0.18736 0.16403 0.0071510999
0.24313 0.1638 -0.016380001
0.18659 0.16501001 0.0085164001
0.24260999 0.16641 -0.017263999
0.243 0.16417 -0.017103
0.24208 0.16644999 -0.017848
0.1873 0.16666999 0.0072599999
0.24248999 0.16525 -0.01928
0.18880001 0.169 0.0084966002
0.24247 0.16825999 -0.018157
0.24349999 0.16693 -0.017689999
0.19214 0.17123 0.0057279002
0.19433001 0.17738999 0.0047371001
0.19083001 0.19469 0.0062616998
0.18883 0.19426 0.0082502002
0.18790001 0.20581999 0.007706
0.24243 0.21029 -0.019484
0.24334 0.21121 -0.01726
0.24138001 0.20946001 -0.018553
0.20861 0.21084 -0.0011902
0.20591 0.21005 -0.0021383001
0.23467 0.22183 -0.013245
0.20169 0.22236 0.0012243
0.18954 0.22517 0.0075093
0.19642 0.22488999 0.0028770999
0.19728 0.22497 0.0024242001
0.18783 0.23705 0.0087912995
0.21355 0.23813 -0.0047300998
0.19825 0.24379 0.0030578999
0.19751 0.2432 0.0031854999
0.19642 0.24315 0.0035508
0.21698 0.24343 -0.0076270001
0.21788999 0.24544001 -0.0069077001
0.21999 0.24484999 -0.0070358999
0.2198 0.24657001 -0.0060863998
0.21805 0.24534 -0.0060542002
0.22532 0.24708 -0.0098080002
0.22955 0.24584 -0.011707
0.18735 0.16377001 0.0093051
0.18609001 0.1622 0.0083799995
0.18567 0.16789 0.0098706996
0.18615 0.16484 0.0085129002
0.24298 0.16933 -0.017535999
0.18701001 0.17023 0.0094167003
0.18758 0.17084 0.0077546998
0.19361 0.17209999 0.0054617999
0.19436 0.17463 0.0062008998
0.18956 0.17538001 0.0079151001
0.19005001 0.17504001 0.0059747999
0.18829 0.17776 0.0064980998
0.19045 0.17794999 0.0073186001
0.18997 0.17689 0.0082508
0.19154 0.18327001 0.0075352001
0.18954 0.19146 0.0079974998
0.18863 0.19209 0.0063883001
0.18691 0.20445 0.0083053
0.18694 0.2053 0.0068123001
0.18735 0.20703 0.0078384001
0.18998 0.20874999 0.0081612999
0.18906 0.21077999 0.0064233001
0.18949001 0.20894 0.0073914998
0.18758 0.21013001 0.0076679001
0.18923 0.21973 0.0074061002
0.20252 0.21907 0.0011415
0.20234001 0.21913999 -9.7862001e-05
0.20298 0.21946999 0.0018720001
0.2339 0.22213 -0.013473
0.18877 0.22369 0.0074882
0.18904001 0.22205 0.0080883
0.23423 0.22491001 -0.013307
0.19571 0.22675 0.0048998999
0.18732999 0.23553 0.0084488001
0.18711001 0.23755001 0.0083967997
0.21557 0.23693 -0.0046314001
0.21625 0.23878001 -0.0054223998
0.21335 0.23735 -0.0050138999
0.21450999 0.23782 -0.0043842001
0.18761 0.23885 0.0072678002
0.18732999 0.24044 0.0086462004
0.18825001 0.24099 0.0072164
0.20001 0.24462 0.0010605
0.20003 0.24338999 0.0018899
0.19885001 0.24462 0.0011873
0.22753 0.24368 -0.01035
0.22961999 0.24513 -0.0097375996
0.22769 0.24698 -0.010594
0.22784001 0.24715 -0.010602
0.18199 0.12021 0.01092
0.18324 0.11799 0.0095049003
0.18148001 0.11664 0.0097896
0.18776 0.15518001 0.0079062004
0.18714 0.15725 0.0085151996
0.18689001 0.15700001 0.0065098
0.18865 0.15792 0.0071382001
0.18753999 0.16054 0.0088719996
0.18611 0.16045 0.0074526002
0.18646 0.16286001 0.0092316996
0.18704 0.16209 0.0094713001
0.18674999 0.16248 0.0095205
0.18679 0.16542 0.0089432998
0.1865 0.1688 0.009633
0.18679 0.16867 0.0084886001
0.23934001 0.16892999 -0.01654
0.23767 0.16783001 -0.017166
0.23963 0.16994999 -0.01518
0.19453 0.16929001 0.0068488
0.24111 0.17098001 -0.017209999
0.18696 0.17036 0.0095242001
0.19316 0.17135 0.0066796001
0.24331 0.17071 -0.017379001
0.18866 0.17305 0.0065592998
0.18877999 0.17377 0.0076082
0.19438 0.17727 0.0065981001
0.1901 0.17798001 0.0065807998
0.18937001 0.18024001 0.0072883
0.19063 0.18377 0.0061046002
0.1882 0.19602001 0.0082989996
0.18771 0.19812 0.0070527
0.18717 0.20104 0.0093142996
0.18861 0.20708001 0.0088679995
0.18804 0.20804 0.0079469001
0.19016001 0.21111 0.0048467
0.18898 0.21032 0.0095322998
0.18961 0.21115001 0.0061185001
0.18852 0.21193001 0.0085426997
0.20809001 0.21156 -0.0017732
0.20676 0.21066999 -0.00055891997
0.20694999 0.21313 -7.3914001e-05
0.2058 0.21427999 1.1244e-05
0.20503999 0.21647 0.0016312
0.20539001 0.21456 0.00094075
0.20342 0.21533 -0.0010374
0.20567 0.21805 1.9405999e-05
0.20446999 0.21693 -0.00065599999
0.20329 0.21890999 -0.00021796999
0.20356999 0.21826001 0.0010527
0.23196 0.22036999 -0.01161
0.23077001 0.22059999 -0.012247
0.20172 0.22182 0.00032527
0.20074999 0.22195999 0.0013686999
0.2005 0.22059 0.0028790999
0.23413999 0.22251999 -0.012949
0.23518001 0.2251 -0.013726
0.19825 0.22428 0.003978
0.23524 0.22635999 -0.013296
0.18894 0.22609 0.0071433
0.19668999 0.22832 0.0041421
0.23497 0.22675 -0.014699
0.23582999 0.22676 -0.016178001
0.19542 0.23038 0.0033922
0.18752 0.22923 0.0085588004
0.18884 0.22649001 0.0079207001
0.23724 0.22849999 -0.013321
0.23644 0.22933 -0.014862
0.23754001 0.23283 -0.013763
0.23684999 0.23247001 -0.015068
0.18781 0.23333 0.0083023999
0.23724 0.23544 -0.012294
0.23754001 0.23563001 -0.013783
0.2361 0.23695999 -0.013295
0.21506 0.23641001 -0.0052709999
0.23594999 0.23901001 -0.013112
0.23588 0.24026 -0.013312
0.24270999 0.23962 -0.018926
0.24412 0.24089999 -0.017442999
0.2431 0.24005 -0.017572001
0.24377 0.24049 -0.017461
0.24019 0.24168 -0.019252
0.22664 0.24348 -0.0094157001
0.22673 0.24296001 -0.010366
0.22689 0.24473999 -0.010635
0.20082 0.24371 0.0022038
0.20059 0.24448 0.0021873
0.20227 0.24563 0.0016056
0.21995001 0.24453001 -0.0069097001
0.22435001 0.24530999 -0.0096022999
0.22657 0.24705 -0.010006
0.22965001 0.24654 -0.011103
0.18301 0.12078 0.012139
0.18358999 0.12045 0.010824
0.18544 0.15834001 0.0080717001
0.24354 0.1627 -0.017262001
0.24268 0.16207001 -0.019337
0.23985 0.16670001 -0.01567
0.24327999 0.16985001 -0.016728999
0.18877999 0.17433999 0.0069893999
0.19617 0.177 0.0057186
0.18928 0.18277 0.0069523999
0.18889999 0.19126999 0.0078972997
0.18749 0.19145 0.0098412996
0.18970001 0.20303001 0.0080259005
0.18716 0.23384 0.0077308998
0.23514999 0.23871 -0.013258
0.22559001 0.24612001 -0.0085944999
0.20697001 0.24528 -0.00035945
0.20635 0.24590001 -0.0021565
0.20668 0.24766999 -0.00029647999
0.18655001 0.15689 0.0094103003
0.18627 0.16975001 0.0086414004
0.18626 0.16889 0.0099945003
0.18719 0.17363 0.0082807001
0.18938001 0.17513999 0.0084736999
0.19022 0.18340001 0.0071016001
0.23295 0.22109 -0.011898
0.18798 0.23578 0.0098249996
0.22294 0.2447 -0.0068963999
0.18382999 0.11872 0.0098928995
0.18538 0.15761 0.0099576004
0.1873 0.16690999 0.0090461001
0.24155 0.16850001 -0.016102999
0.24237999 0.16790999 -0.017495999
0.24354 0.17103 -0.017308
0.1875 0.17393 0.0078469999
0.19532 0.17676 0.0065053999
0.18765 0.18483999 0.0076422999
0.18785 0.18340001 0.0084341997
0.18858001 0.18556 0.0082780998
0.18808 0.20076001 0.0071907002
0.18809 0.19839001 0.0089328997
0.18754999 0.20802 0.0082032997
0.18953 0.22076 0.0083884001
0.18804 0.23131999 0.0090902001
0.18854 0.23153999 0.0097613996
0.18941 0.24187 0.0090485001
0.18869001 0.24180999 0.0097578997
0.19588 0.24171001 0.0057353
0.19649 0.24316999 0.0061435001
0.18718 0.15886 0.0099438
0.18537 0.15955 0.010024
0.1868 0.16389 0.01026
0.24036001 0.16839001 -0.015533
0.24082001 0.17051999 -0.0148
0.18761 0.16854 0.010822
0.19413 0.17139 0.0083776005
0.1939 0.17403001 0.0078362999
0.18989 0.17461 0.0087414999
0.18859001 0.18276 0.01081
0.18877 0.19016001 0.0084327003
0.18986 0.193 0.0077252002
0.18918 0.19361 0.0095437001
0.18851 0.19702999 0.010151
0.18753999 0.20862 0.0094696004
0.20744 0.21115001 -0.00040513999
0.2066 0.21317001 0.00097321998
0.20576 0.21506999 0.00096234999
0.23185 0.22108001 -0.011383
0.2358 0.22588 -0.012602
0.23722 0.22788 -0.01359
0.23627 0.22859 -0.014969
0.23706 0.23006999 -0.013357
0.1957 0.23304 0.0068188999
0.19473 0.23283 0.0050531002
0.19555999 0.23480999 0.0057339999
0.21875 0.23511 -0.0053726002
0.21698 0.23455 -0.0046728002
0.21864 0.23614 -0.0036543999
0.21595 0.23597001 -0.0050535002
0.21802001 0.23559999 -0.0052896002
0.21968 0.23637 -0.0061333999
0.19475 0.23438001 0.0062742
0.19423001 0.2341 0.0050571999
0.19563 0.23591 0.0065669999
0.23581 0.2368 -0.013175
0.23627999 0.23895 -0.013833
0.20986 0.23948 -0.0014701
0.20769 0.24045999 -0.001156
0.21035001 0.24029 -0.0015223
0.24484999 0.24049 -0.01664
0.19014999 0.24135999 0.0070668999
0.20142999 0.24428999 0.0048635001
0.22904 0.24699 -0.010068
0.18376 0.12342 0.010512
0.18201999 0.12296 0.010633
0.18333 0.12313 0.012006
0.18321 0.12367 0.012139
0.18227001 0.1258 0.010462
0.18356 0.12422 0.0105
0.18272001 0.12449 0.011756
0.18911999 0.14541 0.0080468003
0.18855999 0.14569999 0.0093978001
0.18782 0.14737 0.0080824001
0.18655001 0.15388 0.0087791998
0.18610001 0.15470999 0.0088285003
0.1877 0.15389 0.009598
0.18601 0.15515 0.0089924997
0.1874 0.15629999 0.012249
0.1869 0.16136999 0.010106
0.18773 0.16240001 0.010161
0.24219 0.16237 -0.015294
0.24168999 0.16348 -0.015972
0.18626 0.16664 0.011515
0.23883 0.16762 -0.014231
0.18643001 0.16956 0.0093123997
0.24311 0.16919 -0.016833
0.23928 0.17088 -0.013766
0.23908 0.17117 -0.016754
0.24265 0.17135 -0.016187999
0.18765 0.1719 0.010664
0.18841 0.17205 0.010145
0.2419 0.17220999 -0.016501
0.18741 0.17395 0.0098609999
0.18784 0.17453 0.0094164005
0.18815 0.17419 0.0092842998
0.19063 0.17667 0.0086991005
0.19087 0.17921001 0.0083638001
0.19632 0.1786 0.0043552001
0.19099 0.17935 0.0075157001
0.19746 0.17827 0.0056463
0.19197001 0.18045001 0.0079790996
0.19011 0.18382999 0.0090135001
0.1904 0.18165 0.0083341002
0.18652999 0.18440001 0.0095456997
0.18846001 0.18311 0.0096167
0.18894 0.19001 0.0093505001
0.18897 0.19132 0.0090028998
0.18852 0.19132 0.0073867999
0.18788999 0.19294 0.0093206
0.18796 0.19473 0.011176
0.18939 0.19697 0.010195
0.18949001 0.1979 0.0083988998
0.1899 0.20031001 0.0094357003
0.18925001 0.20147 0.0088398
0.18862 0.20263 0.010163
0.18771 0.20699 0.0099782003
0.18788999 0.20796999 0.0089587001
0.18858001 0.20977999 0.0082665002
0.18927 0.21373001 0.0099309003
0.18979999 0.21457 0.0085346
0.18914001 0.21479 0.0092080003
0.20626 0.21388 0.0016992
0.20528001 0.21448 -0.00052616
0.2049 0.2164 0.0027001
0.20462 0.21689001 0.00098113006
0.20478 0.21766999 0.0013354
0.20219 0.21987 0.0032438
0.20201001 0.2193 0.0012232
0.20284 0.21916001 0.0027413999
0.18861 0.21936999 0.0082507003
0.23002 0.22104 -0.011368
0.23447999 0.22233 -0.011496
0.23511 0.22193 -0.011911
0.20365 0.22007 0.0036061001
0.23379 0.22417 -0.012176
0.23421 0.2226 -0.011779
0.23683 0.22559001 -0.013056
0.23415001 0.22439 -0.012712
0.23723 0.22731 -0.013078
0.19655 0.22866 0.0059759999
0.18956999 0.22861999 0.0090835998
0.18923999 0.23036 0.0091704996
0.19465999 0.23727 0.0048028999
0.21763 0.23536 -0.0027036001
0.23728999 0.23488 -0.013781
0.21198 0.2367 -0.00161
0.21111 0.23748 -0.0010388
0.21080001 0.23649999 -0.0024607
0.21051 0.23835 -0.0029949001
0.2106 0.23735 -0.0015531
0.20923001 0.23905 -0.0023199001
0.24710999 0.23952 -0.015919
0.18753 0.23931 0.0098428
0.21055999 0.23836 -0.0011833
0.21005 0.24146999 -0.00045493001
0.24242 0.24208 -0.015309
0.19219001 0.24085 0.0078328
0.19114999 0.24054 0.0088066999
0.20784 0.24116001 -0.00017052
0.18897 0.24155 0.0095343003
0.18794 0.23982 0.010204
0.20874 0.24303 -0.00045657999
0.20824 0.24214 0.00022883
0.20859 0.24241 0.00090424001
0.18865 0.24224 0.0084745996
0.19493 0.24329001 0.0072793998
0.19850001 0.24488001 0.0038715
0.20208 0.24346 0.0051346999
0.22473 0.24395999 -0.0085044
0.22449 0.2455 -0.0078437999
0.22632 0.24555001 -0.0079490999
0.20399 0.2466 0.0015056001
0.20545 0.24805 0.00090021
0.20387 0.24639 0.0022535999
0.20497 0.24795 0.00087921001
0.20757 0.24601001 0.0016984
0.20512 0.2481 0.0011511
0.22881 0.24811 -0.0090907002
0.22755 0.24763 -0.0083344001
0.22875001 0.24725001 -0.0088338004
0.23051 0.24645001 -0.0097177997
0.18158001 0.12038 0.01164
0.24205001 0.16597 -0.017171999
0.24255 0.16777 -0.018146001
0.24146999 0.16978 -0.015241
0.18881001 0.17464 0.01099
0.18878999 0.17715999 0.0089375004
0.18875 0.19092999 0.0099186003
0.18866 0.20467 0.0094507001
0.24286 0.21466 -0.017246
0.24363001 0.21366 -0.015831999
0.24199 0.21301 -0.016817
0.18869001 0.21647 0.0079205995
0.18909 0.22297999 0.0088823
0.19 0.22401001 0.0095867002
0.19011 0.22764 0.0088318996
0.18681 0.23112001 0.0099871
0.23824 0.23372 -0.013136
0.18814 0.23367 0.0098620998
0.21634001 0.23599 -0.0048012999
0.21314999 0.23542 -0.0016258
0.21315999 0.23565 -0.0030614999
0.21363001 0.23513 -0.0025468001
0.24484 0.23722 -0.016897
0.19092999 0.24006 0.0056484998
0.19145 0.24118 0.0094141001
0.22368 0.24458 -0.0079605002
0.20429 0.24563 0.003694
0.2036 0.24462 0.0014831
0.18244 0.11903 0.01126
0.24242 0.16368 -0.014921
0.24167 0.16477001 -0.015505
0.2413 0.16666 -0.015481
0.24213 0.16927999 -0.017145
0.19283 0.17071 0.0079504
0.24123999 0.17021 -0.015690999
0.18792 0.21191999 0.0094747003
0.20361 0.21799 0.0025130999
0.19085 0.22051001 0.0098847002
0.18929 0.22505 0.0090196002
0.23758 0.22998001 -0.013463
0.2375 0.23190001 -0.013899
0.18801001 0.23421 0.0099603999
0.18765999 0.23819 0.0098670004
0.19614001 0.24338 0.0057127001
0.23713 0.24459 -0.01251
0.2358 0.24341001 -0.012697
0.23601 0.24572 -0.011749
0.23898 0.24504 -0.013256
0.20144001 0.24502 0.0033946
0.23611 0.24696 -0.012424
0.18178999 0.12255 0.012545
0.18422 0.1238 0.013355
0.1864 0.15543 0.011222
0.19316 0.1753 0.0067975
0.19314 0.17488 0.0059926002
0.19185001 0.18042 0.0079389
0.18900999 0.20386 0.010248
0.18801001 0.20787001 0.010249
0.19058 0.20990001 0.0098943999
0.20736 0.21343 0.0019963
0.18984 0.21620999 0.0081241
0.1902 0.21466 0.0086756004
0.18874 0.21664 0.0079600997
0.20189001 0.22166 0.0030934
0.21407001 0.23665 -0.0019105
0.20967001 0.24044999 0.00018459999
0.2098 0.2429 0.00064788002
0.21064 0.24146 0.0010436
0.22176 0.24216001 -0.0072575002
0.22220001 0.24341001 -0.0075262999
0.22239 0.24299 -0.0071039
0.23650999 0.24260999 -0.012315
0.23792 0.24374001 -0.013569
0.23807 0.24187 -0.012744
0.19430999 0.24439999 0.0063507999
0.2274 0.24524 -0.0075228
0.2298 0.24662 -0.0064225001
0.212 0.24721 -0.0010319001
0.21315999 0.24658 -0.0017886
0.21244 0.24514 -0.00051933998
0.23766001 0.24530999 -0.0132
0.23575 0.24632999 -0.012428
0.2057 0.2489 0.0039281999
0.18354 0.12043 0.012939
0.18364 0.12005 0.013428
0.18379 0.12005 0.013069
0.1876 0.16599 0.010202
0.18773 0.17005999 0.010689
0.18797 0.17557 0.012194
0.18938001 0.17769 0.010336
0.1893 0.17554 0.0099608004
0.18976 0.18308 0.0093166996
0.1899 0.19586 0.010422
0.18976 0.19388001 0.011126
0.18832 0.21126001 0.011812
0.20807999 0.21234 0.0025498001
0.23541 0.22181 -0.010269
0.23507001 0.22054 -0.01038
0.23844001 0.23443 -0.012618
0.19797 0.23948 0.0067328
0.19764 0.23954999 0.0073835002
0.19831 0.24074 0.0056304
0.19984999 0.24095 0.0050424999
0.22338 0.23943999 -0.0070269001
0.22428 0.24013001 -0.0075023999
0.22506 0.24112 -0.0060017002
0.24436 0.24131 -0.016016999
0.24298 0.24147999 -0.014185
0.19422001 0.24087 0.0073656002
0.19575 0.24289 0.0072428999
0.19341999 0.24027 0.0063164001
0.19698 0.24446 0.0066582002
0.21211 0.24299 -0.0011198
0.21157999 0.24488001 0.0006504
0.22750001 0.24541 -0.0082892999
0.23118 0.24733 -0.0085164998
0.23024 0.24789 -0.0083328998
0.18434 0.12039 0.01351
0.18672 0.14436001 0.012419
0.18628 0.14537001 0.011689
0.18614 0.1463 0.010975
0.18664999 0.14703999 0.011772
0.18713 0.14771999 0.00966
0.18819 0.15085 0.010277
0.18774 0.15157001 0.0091420999
0.18795 0.14858 0.011086
0.18742 0.15227 0.011862
0.18818 0.15307 0.011103
0.18661 0.15555 0.011486
0.18751 0.15465 0.013545
0.18667001 0.15730999 0.011343
0.18706 0.15761 0.011923
0.1885 0.15789001 0.011662
0.18691 0.16131 0.012349
0.18878999 0.16411 0.011828
0.23874 0.16513 -0.014314
0.24092001 0.16718 -0.01476
0.18759 0.16868 0.010887
0.24081001 0.17269 -0.012941
0.2401 0.17547999 -0.014844
0.1883 0.17146 0.011057
0.24214 0.17304 -0.013423
0.18866999 0.17275 0.012015
0.19442999 0.17365 0.0079418998
0.19373 0.17291 0.0085939998
0.19485 0.17352 0.0084421001
0.18853 0.17422 0.012107
0.19713999 0.17663001 0.0073970002
0.19533999 0.17756 0.0076378002
0.19023 0.17873 0.0099047003
0.19012 0.17734 0.010561
0.18970001 0.17872 0.0093708998
0.19115999 0.17928 0.0081201997
0.19250999 0.1796 0.010577
0.18986 0.18203001 0.0098392004
0.19162001 0.18133 0.0091652004
0.18811999 0.18204001 0.010319
0.18922 0.18378 0.012381
0.19106001 0.18516999 0.0087670004
0.19029 0.18679 0.010243
0.18934 0.18623 0.0097623998
0.18923 0.18816 0.0095098997
0.18866 0.18961 0.011862
0.18776999 0.19103999 0.011469
0.1912 0.19675 0.010502
0.19093999 0.19875 0.0099600004
0.18998 0.20321 0.0089640999
0.19004001 0.20366 0.010138
0.18858001 0.20642 0.012199
0.18953 0.20676 0.010996
0.19027001 0.21047001 0.0099895
0.20692 0.2112 0.0025226001
0.20886999 0.2102 0.00049433002
0.18942 0.2124 0.01067
0.1899 0.21483 0.0097585004
0.20534 0.21242 0.0030644001
0.20672999 0.21383999 0.0023955
0.20596001 0.21331 0.0046680998
0.20562001 0.21665999 0.0040119998
0.19046 0.21676999 0.011234
0.19032 0.21507999 0.011015
0.18919 0.21746001 0.0092644999
0.20698 0.21713001 0.0035729001
0.23363 0.2203 -0.01006
0.23419 0.22096001 -0.0096514001
0.18964 0.22159 0.0095571997
0.23731001 0.22593001 -0.011195
0.23649999 0.22525001 -0.011068
0.23902 0.22934 -0.011592
0.2375 0.2318 -0.012431
0.23822001 0.23277 -0.01204
0.23878001 0.23463 -0.012831
0.19568001 0.23221 0.0080437995
0.19509999 0.23495001 0.0084394999
0.21298 0.23654 -0.0012482
0.21577001 0.23546 -0.0012266
0.21325999 0.23636 -0.00069090998
0.2396 0.23652001 -0.011489
0.24722999 0.23841 -0.015876001
0.21252 0.23852 -0.00074305001
0.21152 0.23910999 -0.00038678999
0.19791 0.23799001 0.0047419998
0.19701999 0.23826 0.0063327001
0.19594 0.23841 0.0065664002
0.21164 0.23958001 0.0014894
0.18889999 0.24017 0.011687
0.21094 0.24016 0.00061251002
0.19899 0.24011 0.0060333
0.23737 0.24191 -0.013308
0.24022999 0.24058001 -0.012853
0.23942 0.24176 -0.01389
0.19338 0.24250001 0.0086623002
0.19160999 0.24173 0.0079688998
0.19410001 0.24208 0.0085650003
0.20811 0.24226999 0.00078290002
0.18898 0.24225 0.0097185997
0.23929 0.24207 -0.012773
0.18805 0.24179 0.011707
0.19122 0.24270999 0.0092676999
0.19508 0.24325 0.0065686
0.19513001 0.24372 0.0086438004
0.23864999 0.24338 -0.013071
0.20468 0.2411 0.0031681999
0.20595001 0.24427 0.0024164
0.20644 0.24353001 0.0036072
0.19657999 0.2441 0.0081681004
0.19925 0.24428999 0.0051972
0.19961999 0.24549 0.0071815001
0.2006 0.24483 0.0050337999
0.23399 0.24472 -0.010448
0.23452 0.24438 -0.011062
0.23573001 0.24223 -0.011346
0.23830999 0.24643999 -0.012855
0.23627 0.24541 -0.011302
0.20215 0.24462999 0.0054315999
0.20373 0.24455 0.0020028001
0.20190001 0.24648 0.0032434999
0.23667 0.24492 -0.010716
0.23826 0.24721999 -0.01264
0.23604 0.24688999 -0.011567
0.23002 0.24603 -0.0076588001
0.20776001 0.24828 0.0030652999
0.18735 0.16242 0.01127
0.18808 0.16877 0.010188
0.19407 0.16969 0.0091137001
0.24138001 0.17342 -0.01435
0.19606 0.17515001 0.0077918
0.19524001 0.17396 0.0089707999
0.18881001 0.17735 0.010192
0.19017 0.18903001 0.009815
0.19056 0.189 0.0087786997
0.18911999 0.19418 0.010137
0.18871 0.19494 0.010887
0.19101 0.19881999 0.010368
0.19063 0.20144001 0.0096142003
0.18899 0.20079 0.0095870998
0.19074 0.20308 0.0092085004
0.20892 0.20927 0.0022624
0.23198 0.21873 -0.0086265001
0.19007 0.21960001 0.010035
0.20329 0.22137 0.0051103998
0.20153999 0.22089 0.0045782998
0.20197 0.22212 0.0056229001
0.23654 0.22411001 -0.011937
0.19057 0.22648001 0.010867
0.23786999 0.22984 -0.012072
0.19073001 0.22928999 0.0087195002
0.18931 0.23602 0.011488
0.23837 0.23549999 -0.012163
0.18899 0.23679 0.011868
0.24526 0.23939 -0.015481
0.19479001 0.24275 0.0088457
0.23380999 0.24395999 -0.0089795999
0.19687 0.24688999 0.0066991998
0.19663 0.24688999 0.0071609998
0.19705001 0.24436 0.0058729001
0.20457 0.24699 0.0050379001
0.20819999 0.24698 0.0025623001
0.18944 0.16629 0.011872
0.18853 0.16696 0.0097931996
0.18906 0.16844 0.01099
0.19050001 0.19773 0.01058
0.20602 0.21452001 0.0029877
0.19086 0.21851 0.0098686004
0.23151 0.21907 -0.0097693997
0.19057 0.22051001 0.0094785998
0.19035999 0.22314 0.010103
0.19011 0.22475 0.010146
0.19794001 0.22566 0.0064006001
0.19694 0.22599 0.0076195998
0.19727001 0.22717001 0.0082746996
0.18976 0.22865 0.0081706997
0.23910999 0.23006 -0.011561
0.1893 0.23094 0.010395
0.18849 0.23147 0.011058
0.18806 0.23398 0.010779
0.19566999 0.2321 0.0065613999
0.18941 0.23525999 0.010945
0.20063999 0.24085 0.0049741999
0.19188 0.24322 0.0089365998
0.18907 0.24250001 0.011915
0.19512001 0.24446 0.0090303998
0.23909 0.24366 -0.011994
0.23999999 0.24469 -0.012182
0.2145 0.24774 -0.0022706999
0.20637999 0.24648 0.0047157002
0.18655001 0.14647 0.011204
0.18675999 0.15445 0.012032
0.18908 0.16314 0.012745
0.19585 0.17705999 0.0086973002
0.18796 0.17887001 0.011379
0.19075 0.20351 0.010996
0.18990999 0.20576 0.011724
0.19036999 0.21183001 0.0098770997
0.23805 0.222 -0.0093575995
0.18939 0.23085999 0.011453
0.21195 0.23691 -6.5567001e-05
0.24221 0.24152 -0.013011
0.23918 0.24196 -0.012075
0.19194999 0.24366 0.010218
0.20185 0.24476001 0.0055815
0.19915 0.2467 0.0064824
0.18758 0.15135001 0.011296
0.18861 0.1707 0.011301
0.18979999 0.17019001 0.013062
0.18964 0.17166001 0.01067
0.18858001 0.18318 0.010368
0.19132 0.19666 0.011296
0.20482001 0.21577001 0.0043151001
0.23915 0.23213001 -0.011665
0.21682 0.23458 -0.0016226
0.21443 0.23379 -0.002105
0.18878999 0.24067 0.010933
0.24417999 0.24168999 -0.014084
0.24467 0.24129 -0.015453
0.22574 0.24354 -0.0053328001
0.18551999 0.11996 0.014162
0.18613 0.14393 0.013306
0.18776999 0.16055 0.013094
0.18928 0.16126999 0.013458
0.19408999 0.17028999 0.010299
0.19514 0.17144001 0.0096407002
0.19475 0.17158 0.0090880999
0.19546001 0.17179 0.0090301
0.1969 0.1749 0.011151
0.19527 0.17544 0.010205
0.19568001 0.17727999 0.0093889004
0.19091 0.18091001 0.010527
0.19013999 0.18718 0.011337
0.18954 0.19175 0.013366
0.18837 0.19183999 0.011296
0.18964 0.2087 0.0115
0.20871 0.2098 0.0037159999
0.207 0.2112 0.0046409001
0.19025999 0.21492 0.010921
0.19117001 0.21285 0.012224
0.20524 0.21276 0.0048131002
0.20223001 0.22229999 0.0074141002
0.23714 0.22612 -0.010468
0.23795 0.22660001 -0.010636
0.23962 0.23006999 -0.010845
0.19058 0.23233999 0.012029
0.18927 0.23204 0.01188
0.21302 0.237 0.0019763999
0.19732 0.23908 0.0091612004
0.19722 0.23758 0.0086816
0.20029999 0.24149001 0.0086444998
0.24697 0.24143 -0.01371
0.24563 0.24260999 -0.013528
0.19407 0.24415 0.0091970004
0.2032 0.24189 0.0048417998
0.20431 0.24330001 0.0036505
0.20441 0.24347 0.0048600999
0.22682001 0.24450999 -0.0056473999
0.22806001 0.24438 -0.0047292998
0.23582 0.2448 -0.0088427998
0.2023 0.24405999 0.0068876999
0.20417 0.2458 0.0049735
0.20273 0.24449 0.0078526
0.24049 0.24406999 -0.011481
0.19924 0.24457 0.0080720996
0.19489001 0.24529999 0.0071981
0.22922 0.24649 -0.0072065
0.23849 0.24704 -0.0098590003
0.23019999 0.2475 -0.00673
0.18817 0.13383999 0.012599
0.18666001 0.13555001 0.012832
0.18543001 0.13468 0.011825
0.18821 0.14151999 0.012385
0.18746001 0.14286999 0.012619
0.18851 0.14179 0.011434
0.18629999 0.15143999 0.013545
0.18572 0.1547 0.013889
0.18686 0.15458 0.01286
0.18783 0.15559 0.012603
0.18707 0.15719 0.012343
0.18853 0.15942 0.013124
0.19034 0.16566999 0.012141
0.19081999 0.16411 0.0119
0.18927 0.16802 0.011871
0.18922 0.1699 0.011331
0.18974 0.17 0.012128
0.19035999 0.17181 0.011478
0.18963 0.17106 0.011376
0.18903001 0.17645 0.012485
0.18796 0.17693 0.013255
0.19850001 0.17769 0.0077527999
0.18686999 0.17962 0.012571
0.18984 0.1806 0.012176
0.19049001 0.18255 0.013285
0.1892 0.18352 0.011575
0.18814 0.18421 0.012623
0.19086 0.18694 0.012981
0.18882 0.18880001 0.010706
0.18985 0.19318999 0.012427
0.18943 0.19406 0.010581
0.18968 0.19558001 0.011653
0.19148999 0.19581001 0.012318
0.19198 0.1943 0.013118
0.19092999 0.19686 0.011625
0.19038001 0.19903 0.013017
0.192 0.2009 0.012429
0.18971001 0.20432 0.010652
0.19069999 0.20613 0.012409
0.18918 0.20536999 0.010415
0.18824001 0.20649 0.01053
0.1904 0.20826 0.011941
0.19255 0.21264 0.011576
0.1901 0.21877 0.011545
0.23301999 0.21918 -0.0084907999
0.23526999 0.22105999 -0.0087328004
0.23511 0.22014 -0.0077875
0.23574001 0.22203 -0.0086391997
0.23766001 0.22653 -0.011505
0.23856001 0.22709 -0.010141
0.19162001 0.228 0.011932
0.24056999 0.22930001 -0.010383
0.19013 0.23105 0.012085
0.19614001 0.23508 0.0094237002
0.21607 0.23264 -0.00019332
0.22142 0.23507001 -0.0043529999
0.22125 0.23479 -0.0022452001
0.21952 0.23368999 -0.0024347999
0.22152001 0.23434 -0.0011255
0.21486001 0.23450001 -0.00016708999
0.2384 0.23405001 -0.01085
0.23766001 0.23635 -0.011865
0.18970001 0.23513 0.012144
0.18917 0.23559 0.013853
0.23757 0.2368 -0.01011
0.21382 0.23636 0.0013313
0.19038001 0.23792 0.013063
0.18888 0.23949 0.012645
0.22504 0.2392 -0.0050432002
0.22464 0.23962 -0.0036313001
0.22435001 0.23874 -0.0035383001
0.24788 0.23916 -0.015357
0.24657001 0.23886 -0.016271001
0.21159001 0.24047001 0.0016683
0.19926 0.23897 0.0077952002
0.20172 0.23988 0.0071534999
0.23864 0.24041 -0.011603
0.24209 0.24063 -0.012032
0.20985 0.24217001 0.0022317001
0.24019 0.24197 -0.01086
0.24637 0.24084 -0.015535
0.1899 0.24256 0.012531
0.18854 0.24168999 0.012711
0.19396999 0.24297 0.010858
0.19369 0.24423 0.010331
0.20863999 0.24223 0.0037141
0.18973 0.24337 0.011523
0.22573 0.24439 -0.0048194001
0.20118 0.24417 0.0071510999
0.21415 0.24462 0.00084475998
0.21204001 0.24437 -2.8614e-05
0.22545999 0.24485999 -0.0059242002
0.23566 0.24515 -0.0097484998
0.2044 0.24512 0.0058366
0.19459 0.24642 0.0078613004
0.19905999 0.24635001 0.0095691001
0.19673 0.24597 0.0086837001
0.23793 0.24659 -0.010655
0.24047001 0.24504 -0.011578
0.21543001 0.24544001 -0.00024925999
0.21385001 0.24788 -0.00041236001
0.22948 0.24651 -0.0059149
0.20674001 0.24654999 0.0049924999
0.21584 0.24615 0.00033097001
0.21781 0.24733999 -0.00026162001
0.21931 0.24749 -0.00052897999
0.21777 0.24839 -0.00076471001
0.18875 0.13256 0.0095063001
0.18899 0.13349999 0.012946
0.18685 0.13508999 0.01401
0.18783 0.15366 0.014414
0.18932 0.16063 0.010992
0.18875 0.164 0.012369
0.19013999 0.16471 0.011207
0.18968 0.16832 0.012105
0.19205999 0.167 0.012118
0.19109 0.16596 0.01131
0.19171999 0.16881999 0.011718
0.19160999 0.1693 0.01204
0.18959001 0.17484 0.012644
0.19083001 0.17268001 0.012548
0.19044 0.18082 0.012344
0.19271 0.17979001 0.011635
0.19055 0.20665 0.012772
0.19018 0.21031 0.012153
0.18852 0.21047001 0.010974
0.18956999 0.21690001 0.011298
0.20404001 0.21629 0.0059497999
0.20411 0.21947999 0.0049255998
0.20288 0.21878999 0.0063442001
0.20344999 0.21775 0.0053043002
0.23622 0.22076 -0.010392
0.19136 0.22386 0.011785
0.23672999 0.22313 -0.0088796997
0.19129001 0.22743 0.011929
0.19050001 0.22634 0.011186
0.24056 0.23142999 -0.010924
0.23957001 0.2323 -0.011108
0.24094 0.23294 -0.011702
0.2397 0.23538999 -0.010725
0.19815999 0.23987 0.0080068996
0.22485 0.23981 -0.0034461
0.22635999 0.24054 -0.0045675999
0.18809 0.24151 0.011539
0.24229001 0.24273001 -0.012315
0.24369 0.24259 -0.012609
0.20917 0.24216001 0.0025750999
0.24115001 0.24427 -0.011835
0.21256 0.24495 0.0017648001
0.19382 0.24583 0.010157
0.20615 0.24569 0.0047559999
0.23636 0.24378 -0.010246
0.21415 0.24577001 0.00029970001
0.20589 0.2473 0.0038745
0.20570999 0.24708 0.0041192002
0.18672 0.14622 0.012321
0.19069999 0.16292 0.011178
0.1899 0.16306999 0.011768
0.19232 0.16434 0.01016
0.19384 0.16795 0.010453
0.19295 0.16735999 0.010399
0.19303 0.17154001 0.011134
0.19193999 0.17235 0.011559
0.19142 0.17438 0.011587
0.19059999 0.19314 0.012627
0.20783 0.21043 0.0035164
0.1909 0.21719 0.01236
0.23386 0.21921 -0.0078736003
0.19192 0.22091 0.012131
0.19044 0.22566999 0.011197
0.19688 0.22554 0.0097636003
0.19909 0.22511999 0.009513
0.19723 0.22867 0.0084543005
0.19033 0.23185 0.012177
0.19575 0.23321 0.0098395003
0.24137001 0.24117 -0.012039
0.2481 0.24082001 -0.013686
0.1918 0.24471 0.010249
0.21342 0.24382 0.0012434
0.19198 0.24350999 0.013184
0.19202 0.24364001 0.011993
0.23006999 0.24467 -0.0051636999
0.19435 0.24621999 0.010513
0.19115999 0.16214 0.013483
0.1935 0.16945 0.010292
0.19404 0.17128 0.011256
0.19299001 0.17318 0.011284
0.19367 0.17375 0.0099403001
0.1899 0.20839 0.012468
0.20658 0.21292999 0.0043401001
0.20387 0.21448 0.0051568998
0.20280001 0.21803001 0.0062464001
0.19005001 0.21946999 0.011543
0.19022 0.22236 0.012032
0.19490001 0.23034 0.0097551998
0.19566 0.23194 0.0092198001
0.19706 0.23067001 0.010111
0.2463 0.23235001 -0.015037
0.24581 0.23297 -0.015527
0.24619 0.23375 -0.014483
0.18963 0.23338 0.012562
0.18988 0.23694 0.012782
0.24773 0.23658 -0.014313
0.21145999 0.24067999 0.0025390999
0.20664001 0.24676999 0.0060148002
0.19294 0.17436001 0.011135
0.19103999 0.18664999 0.011951
0.19092 0.19715001 0.012716
0.19216999 0.20285 0.012362
0.18993001 0.2027 0.011138
0.20785999 0.21078999 0.0054882001
0.1992 0.22338 0.0081832996
0.19893999 0.22445001 0.0093467999
0.1983 0.22658999 0.0098861
0.19728 0.23146001 0.011888
0.24618 0.23145001 -0.013658
0.21669 0.23399 0.00030365001
0.19608 0.23433 0.010666
0.24101999 0.24213 -0.011843
0.21592 0.24741 0.0017973999
0.21472 0.2458 0.0026423
0.21608999 0.24837001 -0.00014196
0.18905 0.12658 0.012934
0.18890999 0.1247 0.011305
0.18949001 0.12587 0.012284
0.18736 0.12561999 0.012943
0.18838 0.12824 0.012376
0.18639 0.14282 0.014357
0.18761 0.14584 0.015073
0.18828 0.15448999 0.01606
0.191 0.16042 0.010836
0.19346 0.17417 0.011343
0.1939 0.17489 0.010646
0.19096 0.17588 0.011829
0.19362999 0.17521 0.011953
0.19056 0.17636 0.012498
0.19769999 0.17589 0.009784
0.18960001 0.17926 0.012769
0.19050001 0.20586 0.011273
0.20691 0.21242 0.0039686002
0.20742001 0.21304999 0.0058399001
0.23457 0.21974 -0.0067786002
0.19201 0.22892 0.01397
0.24862 0.23001 -0.012246
0.24679001 0.22998001 -0.014435
0.24727 0.23322 -0.013729
0.24672 0.23571999 -0.013716
0.22392 0.23706 -0.0039714002
0.24123999 0.24251001 -0.011198
0.21134 0.24202 0.0032492999
0.23267999 0.24157999 -0.0081748003
0.23382001 0.24292 -0.0049983002
0.2309 0.24343 -0.0062247999
0.20419 0.24498001 0.0063582002
0.19273999 0.24679001 0.011129
0.23045 0.24515 -0.0064742998
0.20708001 0.24706 0.0057640001
0.20536999 0.24632999 0.0065231998
0.21865 0.24698 0.00069486001
0.19137999 0.12833001 0.012321
0.19038001 0.12853 0.013003
0.19261999 0.12967999 0.01055
0.19250999 0.12916 0.012878
0.1873 0.15501 0.014703
0.19095001 0.15794 0.013561
0.19084001 0.16005 0.012351
0.19334 0.17566 0.01225
0.19444001 0.17491999 0.010789
0.19457 0.17491999 0.012404
0.19392 0.17580999 0.010289
0.19069 0.17794 0.013154
0.19136 0.18268999 0.014135
0.19111 0.18544 0.014629
0.19038001 0.18705 0.013142
0.1904 0.19095001 0.014144
0.19074 0.18882 0.012879
0.1895 0.19115999 0.015563
0.19238999 0.1936 0.011893
0.19122 0.19633 0.013433
0.19096 0.20995 0.013048
0.19266 0.20869 0.012823
0.19147 0.21077 0.011718
0.1918 0.21269999 0.014088
0.2057 0.21478 0.00606
0.20624 0.21408001 0.0065843002
0.20362 0.21868999 0.0061343
0.19320001 0.21938001 0.013199
0.19194999 0.21859001 0.012607
0.19187 0.21936999 0.012226
0.19176 0.22645999 0.012436
0.23985 0.22661 -0.0092697004
0.19738001 0.22898 0.010126
0.19605 0.23064999 0.0092016002
0.24653 0.2279 -0.014585
0.19593 0.22951999 0.010958
0.19038001 0.23456 0.013296
0.19123 0.23354 0.011996
0.23965 0.2343 -0.011465
0.24003001 0.23503999 -0.0099734999
0.19092999 0.23647 0.013148
0.19510999 0.23599 0.010233
0.19159999 0.23732001 0.014394
0.21493 0.2379 0.0021384
0.21456 0.23632 0.0026551001
0.24662 0.23763999 -0.012701
0.24908 0.23928 -0.013575
0.19034 0.2384 0.013617
0.19897 0.23939 0.010609
0.2243 0.24056999 -0.0038784
0.22529 0.2395 -0.0037777
0.20073 0.24055 0.0091402996
0.21074 0.24124999 0.0043843002
0.18956999 0.24168 0.013694
0.21051 0.24212 0.0051308
0.24625 0.24293999 -0.012877
0.24426 0.24314 -0.011241
0.24658 0.24151 -0.011826
0.24428999 0.24339999 -0.01332
0.23652001 0.24408001 -0.0075479001
0.19114 0.24354 0.012819
0.21426 0.24444 0.0024444
0.20331 0.24422 0.0085704997
0.22857 0.24449 -0.0046919002
0.20058 0.24457 0.0087013002
0.23803 0.24653 -0.0076560001
0.237 0.24417 -0.010153
0.23968001 0.24595 -0.0098652998
0.18734001 0.14444999 0.015072
0.18852 0.15312 0.013515
0.18706 0.15205 0.01502
0.18877 0.15531 0.013112
0.18948001 0.15601 0.014924
0.19056 0.1591 0.013569
0.19686 0.178 0.010743
0.19407 0.17821001 0.011964
0.19264001 0.17635 0.012262
0.19087 0.17748 0.012376
0.20073 0.17670999 0.0070385998
0.19936 0.17666 0.0088787004
0.19678999 0.17635 0.0097551998
0.1913 0.17945001 0.013222
0.19836 0.17883 0.011477
0.19939999 0.1777 0.010294
0.18996 0.17993 0.013574
0.19069 0.18020999 0.013277
0.19137 0.18184 0.014135
0.19283 0.18291 0.012603
0.18880001 0.18444 0.015181
0.19070999 0.19222 0.012549
0.19008 0.19405 0.013091
0.19197001 0.19678999 0.012306
0.19171 0.19732 0.012721
0.19302 0.19998001 0.013608
0.19233 0.20128 0.01271
0.19283 0.20175999 0.01129
0.19196001 0.20381001 0.012595
0.19151001 0.20705999 0.013527
0.19157 0.20795999 0.013135
0.19141001 0.2094 0.01252
0.19288 0.21280999 0.0127
0.19136 0.2133 0.01265
0.18997 0.21391 0.013684
0.19102 0.21761 0.011455
0.19171 0.21638 0.013144
0.20545 0.21912 0.0073018
0.20451 0.21963 0.0073746
0.23469 0.21980999 -0.0069785998
0.23342 0.21913999 -0.0070234002
0.23686001 0.22074001 -0.0078272996
0.23714 0.22169 -0.0097588999
0.24594 0.22119001 -0.012705
0.24484999 0.22208001 -0.013396
0.24444 0.22312 -0.012297
0.19899 0.2234 0.0085626999
0.19950999 0.22363999 0.0072574001
0.20291001 0.22154 0.0082315002
0.23812 0.22277001 -0.010581
0.19140001 0.22368 0.012951
0.23791 0.22325 -0.0087730996
0.23926 0.22451 -0.010343
0.19056 0.22352999 0.013672
0.19126999 0.22583 0.012068
0.19821 0.22539 0.0099056996
0.19660001 0.22882999 0.010609
0.23987 0.22781 -0.0098511996
0.24607 0.22747 -0.011921
0.24590001 0.22736 -0.01358
0.2454 0.22744 -0.013558
0.24647 0.22894 -0.013636
0.24526 0.22634999 -0.014515
0.24711999 0.22955 -0.012356
0.19183999 0.23111001 0.012429
0.24004 0.22920001 -0.010129
0.24048001 0.23179001 -0.01018
0.19035999 0.23185 0.012671
0.19652 0.23255 0.011878
0.22013 0.23380999 -0.0013274
0.22076 0.23272 0.0012621999
0.22014 0.23218 -0.0010962
0.21798 0.23216 -4.3871001e-05
0.21724001 0.23454 0.00025824999
0.24725001 0.2358 -0.012541
0.22129001 0.2358 -0.0037872
0.22168 0.23296 -0.0016772
0.197 0.23625 0.010341
0.23904 0.23695 -0.0093075996
0.24095 0.23535 -0.0096359998
0.24867 0.23725 -0.012842
0.24584 0.23615 -0.013303
0.19665 0.23842999 0.0097655002
0.22386999 0.23833001 -0.0026275001
0.19052 0.23913001 0.012967
0.19860999 0.23994 0.01021
0.18978 0.24240001 0.01298
0.21225999 0.23988 0.0034622001
0.21199 0.2406 0.0034141
0.24677999 0.24226999 -0.013654
0.20017 0.24026 0.0084006004
0.20291001 0.24064 0.0074931001
0.20290001 0.24115001 0.0062695998
0.24304 0.24291 -0.01133
0.20988999 0.24394999 0.0055346
0.23444 0.24168999 -0.0070118001
0.23332 0.24241 -0.0078987004
0.24199 0.24168999 -0.011139
0.24094 0.24431001 -0.010804
0.24332 0.2445 -0.010075
0.24547 0.24177 -0.01183
0.23075999 0.24288 -0.0068621002
0.23089001 0.24354 -0.0055502998
0.20735 0.24456 0.0030582999
0.214 0.24394999 0.0030883001
0.22755 0.24495 -0.0028689001
0.24173 0.24573 -0.011373
0.19351999 0.24583 0.012398
0.20114 0.24519999 0.0087184003
0.2138 0.24499001 0.0027987999
0.19330999 0.24501 0.012592
0.19461 0.24605 0.012055
0.20087001 0.24561 0.0092622004
0.23962 0.24741 -0.0097510004
0.22154 0.24677999 -0.00074239
0.22089 0.24721999 -0.0016596999
0.22060999 0.2471 -0.00072215003
0.21889 0.24815001 -3.5595001e-06
0.22005001 0.24771 0.00039140001
0.19160999 0.17994 0.013627
0.19802 0.17837 0.010497
0.24185 0.17825 -0.010944
0.24442001 0.17981 -0.010817
0.24281 0.18001001 -0.011117
0.19035 0.19123 0.014177
0.19234 0.20408 0.014321
0.19250999 0.20993 0.013047
0.20942 0.2102 0.0044274
0.20608 0.21137001 0.0062706
0.24511001 0.21979 -0.012082
0.24521001 0.22273 -0.012622
0.24688999 0.22402 -0.012186
0.19117001 0.22826999 0.01308
0.19220001 0.22752 0.013599
0.24032 0.22824 -0.0083176
0.19294 0.22926 0.012954
0.19291 0.2305 0.011874
0.19085 0.23665 0.013482
0.23684999 0.24123999 -0.0074704001
0.23781 0.24056999 -0.0086663002
0.23637 0.23825 -0.0074119
0.23682 0.23929 -0.010012
0.22593001 0.23929 -0.0039586001
0.19306 0.24288 0.014103
0.19456001 0.24098 0.011337
0.19408 0.24325 0.012499
0.19301 0.24180999 0.012554
0.20418 0.24403 0.0063626999
0.20442 0.24213 0.0070767002
0.24168999 0.24276 -0.010063
0.22646999 0.24225 -0.0043229
0.23233999 0.24496 -0.0085402001
0.23439001 0.24384999 -0.0062835999
0.23254 0.24389 -0.0094132004
0.24319001 0.24423 -0.010311
0.20521 0.24559 0.0065082
0.19459 0.24703 0.010654
0.23136 0.24664 -0.0049390998
0.198 0.24709 0.011028
0.19966 0.24607 0.0084686996
0.20872 0.24676999 0.0049745999
0.20714 0.24772 0.0055010999
0.19499999 0.17981 0.01035
0.19341999 0.17855 0.012883
0.2059 0.21624 0.0064719999
0.24593 0.21819 -0.012132
0.24707 0.21535 -0.013228
0.24527 0.21795 -0.012354
0.19248 0.22081999 0.012461
0.19322 0.22482 0.012791
0.19159999 0.22668999 0.014492
0.24631 0.23052999 -0.012613
0.24033999 0.23113 -0.010458
0.22133 0.2348 -0.0021686
0.19111 0.23915 0.013644
0.19947 0.24022 0.0088994997
0.19081999 0.24178 0.015096
0.22894999 0.24526 -0.0046310001
0.19602001 0.24724001 0.011816
0.22204 0.2464 -0.0032027999
0.20562001 0.24783 0.0065565999
0.19072001 0.15744001 0.01278
0.19245 0.19391 0.013936
0.19244 0.21653 0.012713
0.20507 0.2163 0.0070018
0.20603999 0.21720999 0.0075623002
0.19281 0.22113 0.013281
0.24542999 0.22067 -0.012622
0.23803 0.22284999 -0.0083627999
0.19927999 0.22535001 0.0099181002
0.23831999 0.22616 -0.0073859999
0.19152001 0.23198999 0.011944
0.2467 0.23252 -0.012457
0.19302 0.23485 0.01294
0.24736001 0.23259 -0.012217
0.22149 0.23196 -0.00097148999
0.22146 0.23292001 -0.00011604
0.19117001 0.23459999 0.012047
0.19315 0.23649 0.013141
0.2472 0.23785999 -0.010465
0.22398999 0.23898 -0.0025624
0.19608 0.24427 0.012465
0.21213999 0.24383999 0.0035761001
0.21343 0.24334 0.0043195002
0.19504 0.24502 0.011788
0.21119 0.24462 0.0044601001
0.20906 0.24468 0.0048449002
0.21051 0.24529 0.0044656
0.1998 0.24479 0.010093
0.20516001 0.24542999 0.0086776
0.20499 0.24512 0.0076385001
0.19848999 0.24699 0.012759
0.21434 0.24699999 0.0027242999
0.18685 0.1521 0.01619
0.19135 0.17772 0.013238
0.19469 0.18092 0.01311
0.18909 0.18528 0.013719
0.23528001 0.21904001 -0.0051257
0.23779 0.2218 -0.0080140997
0.24561 0.22402 -0.013132
0.24572 0.22634999 -0.011475
0.19815999 0.2313 0.010298
0.23993 0.22693001 -0.0085425004
0.22212 0.23232 -0.00055443001
0.24643999 0.23431 -0.010506
0.19165 0.23537999 0.01398
0.20148 0.24089 0.010729
0.21236999 0.23999999 0.0041526002
0.2476 0.23892 -0.010312
0.24841 0.24071001 -0.012607
0.19675 0.24180999 0.011915
0.24732 0.24423 -0.01176
0.21066 0.24356 0.0064709
0.20863 0.24513 0.0063403999
0.2297 0.24225999 -0.0028261
0.22840001 0.24350999 -0.0049922001
0.22916999 0.24295001 -0.0036230001
0.22781999 0.24401 -0.0017917
0.23692 0.24455 -0.0084389001
0.24409001 0.24401 -0.010293
0.2463 0.24428 -0.010214
0.23433 0.24326 -0.004557
0.23244999 0.24496999 -0.0052077998
0.21467 0.24631 0.0021965001
0.21381 0.24615 0.0025205
0.23834001 0.24458 -0.0081415996
0.23687001 0.24445 -0.0072110002
0.19525 0.24704 0.013165
0.18595999 0.13553999 0.016845001
0.18573999 0.13654 0.015162
0.18764 0.13613001 0.015606
0.18792 0.1365 0.016249999
0.18630999 0.14422999 0.016883001
0.18668 0.14123 0.015326
0.18827 0.14229 0.016569
0.18779001 0.14365 0.016542999
0.18937001 0.1486 0.016488999
0.18827 0.14913 0.014649
0.18865 0.14836 0.014451
0.18832999 0.15090001 0.015921
0.18832999 0.1499 0.015730999
0.19004001 0.15332 0.016245
0.19091 0.15481 0.014503
0.20006999 0.17897999 0.011731
0.19444001 0.17806999 0.010418
0.19391 0.17907999 0.013248
0.19404 0.18023001 0.012532
0.19999 0.17913 0.0095667997
0.1929 0.18080001 0.012339
0.19727001 0.18053 0.012344
0.19072001 0.17918999 0.013819
0.19686 0.18001001 0.010871
0.2427 0.18116 -0.010694
0.24250001 0.17953999 -0.0080835996
0.19109 0.18015 0.015015
0.19099 0.18253 0.014871
0.19079 0.18525 0.014433
0.18887 0.1839 0.014944
0.19024 0.18611 0.015862999
0.19014999 0.18852 0.015169
0.18978 0.18994001 0.015271
0.19115999 0.19168 0.014002
0.19075 0.19182999 0.01536
0.19104999 0.19070999 0.013538
0.19171999 0.19577 0.013425
0.19265001 0.19655 0.014761
0.19328 0.197 0.013519
0.19452 0.19878 0.014049
0.19461 0.20046 0.013178
0.19423001 0.20102 0.015018
0.24575 0.20107999 -0.010313
0.24591 0.20224001 -0.010542
0.24573 0.20395 -0.011277
0.19329999 0.20298 0.013951
0.19295 0.20464 0.013529
0.19279 0.20642 0.01238
0.19254 0.20678 0.014081
0.19354001 0.21052 0.013809
0.19213 0.20939 0.013021
0.21029 0.20885 0.0057202
0.20925 0.21043 0.0068914001
0.208 0.21208 0.0079354998
0.19382 0.21247999 0.01323
0.20863 0.21141 0.0074356999
0.19367 0.21317001 0.015089
0.19160999 0.21411 0.01488
0.19138999 0.21541999 0.014089
0.19179 0.21823999 0.012652
0.2052 0.21709999 0.0083264001
0.20501 0.21924999 0.0077533
0.19330999 0.21893001 0.014282
0.23362 0.2191 -0.0052377
0.20483001 0.21753 0.0093638003
0.20353 0.22111 0.0066912002
0.23615 0.21961001 -0.0054001999
0.20421 0.2207 0.0086548002
0.23769 0.21951 -0.0078397999
0.20379999 0.22175001 0.0084539996
0.20381001 0.22021 0.0073588002
0.19277 0.21945 0.011872
0.23650999 0.21965 -0.007098
