# .PCD v0.7 - Point Cloud Data file format
VERSION 0.7
FIELDS x y z
SIZE 4 4 4
TYPE F F F
COUNT 1 1 1
WIDTH 1622
HEIGHT 1
VIEWPOINT 0 0 0 1 0 0 0
POINTS 1622
DATA ascii
0.18437999 0.038423002 0.22605
0.1839 0.039051 0.22587
0.18347 0.039404999 0.22645
0.18280999 0.03937 0.22696
0.18043999 0.0407 0.22813
0.1805 0.040739 0.22778
0.18010999 0.040743999 0.22837999
0.17931999 0.040732 0.22852001
0.17043 0.04394 0.23311999
0.16922 0.045171 0.23387
0.168 0.046227999 0.23447999
0.16472 0.04747 0.23676001
0.16478001 0.047481 0.23582999
0.18426 0.052700002 0.226
0.1851 0.052719001 0.22551
0.18567 0.053160001 0.22521
0.18634 0.053631 0.2253
0.18641999 0.053849 0.22481
0.18708 0.054501001 0.22487999
0.18819 0.055438999 0.22394
0.18885 0.055661999 0.2236
0.18970001 0.056030001 0.22330999
0.18970001 0.056217998 0.22302
0.19050001 0.056469999 0.22282
0.19149999 0.056701999 0.22226
0.19243 0.057071 0.22186001
0.19289 0.057592999 0.22179
0.19336 0.058014002 0.22138999
0.19374 0.058522001 0.22095001
0.19417 0.058858 0.22113
0.19471 0.059339002 0.22077
0.19471 0.060291 0.22082999
0.19467001 0.061005998 0.22062001
0.19429 0.061402999 0.22119001
0.19388001 0.061719 0.22126999
0.19061001 0.063550003 0.22273999
0.19017 0.064131998 0.22317
0.17365 0.066384003 0.23137
0.17343 0.067322001 0.23114
0.17265999 0.069130003 0.23161
0.17326 0.068423003 0.23161
0.17285 0.070276998 0.23191001
0.17241 0.070380002 0.23247001
0.17225 0.070974998 0.23215
0.17132001 0.071117997 0.23247001
0.17016999 0.071836002 0.23348001
0.16791999 0.072701 0.23434
0.16735999 0.072672002 0.23449001
0.16613001 0.073242001 0.23543
0.16094001 0.074031003 0.23819999
0.16034999 0.074111998 0.23841
0.17151999 -0.051769 0.23139
0.17084 -0.052289002 0.23179001
0.17268001 -0.050843999 0.23112001
0.17241 -0.050985999 0.23118
0.17563 -0.049097002 0.23047
0.17576 -0.048834998 0.22961
0.17663001 -0.048051 0.22973999
0.17821001 -0.046548001 0.22904
0.17805 -0.046466 0.22803999
0.17818999 -0.046128001 0.22796001
0.17993 -0.044491 0.22845
0.18189999 -0.04019 0.22609
0.18384001 -0.034986999 0.22606
0.18431 -0.033387002 0.22593001
0.18418001 -0.03235 0.22544999
0.18487 -0.031122999 0.22483
0.18540999 -0.028746 0.22453
0.18532 -0.028554 0.22508
0.18537 -0.027768999 0.22519
0.18612 -0.022383999 0.22386999
0.18606 -0.020555001 0.22454999
0.18625 -0.019843001 0.22476999
0.1856 -0.017899999 0.22511999
0.18537 -0.01788 0.22427
0.18550999 -0.016669 0.22457001
0.18571 -0.015188 0.22451
0.18557 -0.014071 0.22463
0.18516 -0.013302 0.22457001
0.18448 -0.0088483999 0.22497
0.18447 -0.0081847999 0.22551
0.18435 -0.0076925 0.22519
0.18376 -0.0063936999 0.22612999
0.18260001 -0.0042208 0.22617
0.18203001 -0.0015793 0.22617
0.18064 0.0011869 0.22669999
0.17983 0.0023775999 0.22728001
0.17837 0.0059282999 0.22814
0.17808001 0.0065306998 0.22898
0.178 0.0070039998 0.22908001
0.17754 0.0074604 0.22933
0.17611 0.0093582002 0.2296
0.17558999 0.010998 0.23018999
0.17449 0.01227 0.23023
0.17175999 0.015048 0.23131999
0.1706 0.0173 0.2326
0.17093 0.016669 0.23192
0.16861001 0.018587001 0.23311999
0.1671 0.020615 0.23405001
0.16299 0.024714001 0.23668
0.16223 0.025441 0.23716
0.16258 0.024870999 0.23598
0.18488 0.032274 0.22543
0.18648 0.032917 0.22449
0.18743999 0.034006 0.22428
0.18706 0.035608999 0.22426
0.18566 0.037572999 0.22511999
0.18568 0.038097002 0.22494
0.18469 0.03884 0.22535001
0.18246999 0.039847001 0.22655
0.17023 0.044743001 0.23285
0.16937 0.045591999 0.23326001
0.16558 0.047132999 0.23536
0.1582 0.050236002 0.23856001
0.15922 0.049543999 0.23872
0.15888999 0.049286 0.23786999
0.18934 0.055810999 0.22334
0.19027001 0.056922998 0.22234
0.19166 0.056984 0.22182
0.19518 0.061003 0.22011
0.19463 0.061997999 0.22048999
0.19512001 0.061826002 0.21997
0.19284999 0.062646002 0.22118001
0.17096999 0.071312003 0.23261
0.16963001 0.072267003 0.23263
0.16598 0.073279001 0.23421
0.16524 0.073292002 0.23547
0.15236001 0.073565997 0.24226999
0.15155999 0.073173001 0.24147999
0.16227999 0.073835 0.23732001
0.17003 -0.052400999 0.23215
0.16983999 -0.052304 0.23362
0.17173 -0.051550999 0.23105
0.17341 -0.050216999 0.23071
0.17375 -0.049725 0.23066001
0.17431 -0.049563002 0.23056
0.17491999 -0.049327001 0.22982
0.17642 -0.048376001 0.22916999
0.17783999 -0.046730001 0.22881
0.17719001 -0.047602002 0.22865
0.17670999 -0.047944002 0.22904
0.17877001 -0.045557 0.22804999
0.17913 -0.045118 0.22759999
0.17984 -0.044353001 0.22733
0.18043999 -0.043054 0.2269
0.18084 -0.042436 0.22682001
0.18179999 -0.040651001 0.22634
0.18133 -0.041290998 0.2262
0.18231 -0.039698001 0.22608
0.18222 -0.039110001 0.22671001
0.18261001 -0.038655002 0.22594
0.18267 -0.038385998 0.22558001
0.18327001 -0.036860999 0.22554
0.18350001 -0.035838999 0.22537
0.18384001 -0.035239998 0.22513001
0.18403 -0.033259999 0.22537
0.18445 -0.032283001 0.22476999
0.18492 -0.030647 0.22497
0.18525 -0.02496 0.22443999
0.18545 -0.024497001 0.22448
0.18594 -0.023007 0.22403
0.18605 -0.023197001 0.22463
0.18625 -0.021373 0.22448
0.18607 -0.02049 0.22397
0.18601 -0.019640001 0.22409999
0.18557 -0.018573999 0.22445001
0.1857 -0.015815999 0.2245
0.18467 -0.010625 0.22484
0.18454 -0.0080262003 0.22543
0.18418001 -0.0069501 0.22519
0.18342 -0.0060488 0.22537
0.18301 -0.0050824001 0.22564
0.18266 -0.0045897998 0.22528
0.18242 -0.0036013999 0.22585
0.18213999 -0.0021877999 0.22616
0.18164 -0.00034713 0.22632
0.18108 0.00026139 0.22639
0.17982 0.0030208 0.22727001
0.17959 0.0039754999 0.22751001
0.17917 0.0047189002 0.22744
0.17867 0.0055424999 0.22789
0.17766 0.006941 0.22859
0.17771 0.0063808002 0.22844
0.17745 0.0074858 0.22896001
0.17631 0.0084434999 0.22906999
0.17574 0.010406 0.22943
0.17545 0.010981 0.22949
0.1753 0.01136 0.2297
0.17467 0.012059 0.22988001
0.17388 0.012844 0.23039
0.17332 0.013337 0.2306
0.17253 0.013978 0.23119
0.17168 0.015623 0.2314
0.1696 0.017813999 0.23252
0.16801 0.018883999 0.23344
0.16773 0.019357 0.23360001
0.16725001 0.01977 0.23362
0.16647001 0.021312 0.23411
0.16654 0.020780999 0.23378
0.16583 0.021888001 0.23409
0.16564 0.021453001 0.23329
0.16519 0.022174999 0.23478
0.16471 0.022453001 0.23566
0.16422001 0.022629 0.23546
0.16373 0.023019999 0.23568
0.16295999 0.023980999 0.23591
0.16241001 0.025062 0.23654
0.18711001 0.032962002 0.22375
0.18729 0.033675 0.22386
0.18790001 0.034026001 0.22333001
0.18737 0.034846999 0.22393
0.18781 0.034940001 0.22374
0.18794 0.035519999 0.2234
0.18742999 0.035868999 0.22376999
0.18635 0.037508 0.22412001
0.18614 0.037592001 0.22453
0.18703 0.036651 0.2238
0.18604 0.038477998 0.22409999
0.18398 0.039577 0.22547001
0.17138 0.044073001 0.23208
0.17095 0.043697 0.23236001
0.17076001 0.044757001 0.23169
0.17037 0.044744 0.23221999
0.16922 0.045763999 0.23257001
0.16793001 0.04617 0.23326001
0.16748001 0.046473 0.23355
0.16545001 0.047385 0.23492
0.16429999 0.047858998 0.23503
0.16498999 0.048282001 0.23545
0.16377001 0.047890998 0.23558
0.16458 0.047871001 0.23524
0.18477 0.052742999 0.22497
0.18557 0.052588001 0.22462
0.18440001 0.052340001 0.22468001
0.1837 0.052563999 0.22544999
0.18609001 0.053087 0.22381
0.18622001 0.053684998 0.22403
0.1873 0.054728001 0.22390001
0.18784 0.055583999 0.22307999
0.18839 0.055886999 0.22316
0.18866999 0.056219 0.22265001
0.18944 0.056728002 0.22238
0.19142 0.057684999 0.22150999
0.192 0.057417002 0.22148
0.19273999 0.057691999 0.22104999
0.19336 0.058311 0.22044
0.19275001 0.058258999 0.22078
0.19415 0.059161 0.21987
0.19411001 0.058750998 0.22023
0.19491 0.060051002 0.21941
0.19516 0.060398001 0.21985
0.19532999 0.061020002 0.21961001
0.19532999 0.062091999 0.21974
0.19528 0.062711999 0.21989
0.19501001 0.062710002 0.22005001
0.19476999 0.063051 0.22019
0.19363999 0.063111 0.221
0.19420999 0.063676998 0.21992999
0.19519 0.063892998 0.21957
0.19404 0.063294999 0.22044
0.17314 0.068328999 0.23056
0.17292 0.069149002 0.23067001
0.17287 0.070061997 0.23106
0.17215 0.070868 0.2317
0.17233001 0.071084 0.23115
0.17188001 0.071470998 0.23164999
0.17130999 0.071769997 0.23113
0.17101 0.071818002 0.23169
0.16993 0.071961999 0.23221999
0.16913 0.072563998 0.23287
0.16706 0.072714001 0.23393001
0.1675 0.072554998 0.23379999
0.15354 0.073444001 0.24104001
0.16448 0.073633999 0.23546
0.16373 0.073498003 0.23556
0.15866999 0.074079998 0.23806
0.15606 0.073627003 0.24042
0.16168 0.073700003 0.23658
0.16055 0.073904 0.23751
0.15967 0.073930003 0.23771
0.18107 -0.042056002 0.22662
0.18088999 -0.042174999 0.22604001
0.18295 -0.037510999 0.22566
0.18348999 -0.03678 0.2243
0.18391 -0.0337 0.22529
0.18522 -0.030483 0.22437
0.18529999 -0.027556 0.22432999
0.18551999 -0.026839999 0.22447
0.18531001 -0.025735 0.2244
0.18584999 -0.023885 0.22393
0.18577 -0.019242 0.22434001
0.18562999 -0.016564 0.22313
0.18534 -0.017774999 0.22345001
0.18437 -0.0097931996 0.22480001
0.18404 -0.0078777997 0.2246
0.17747 0.0066239 0.22712
0.17730001 0.0068672998 0.22747999
0.17674001 0.0076007 0.22758999
0.17291 0.013658 0.23054001
0.17206 0.014346 0.23098999
0.16196001 0.025432 0.2368
0.16147 0.025776001 0.23677
0.18781 0.032853 0.22288001
0.18847001 0.034967002 0.22302
0.18855999 0.034113999 0.2227
0.18856999 0.035594001 0.22225
0.18718 0.037195999 0.22344001
0.18557 0.039257001 0.22424001
0.18621001 0.039377 0.22391
0.18481 0.039324 0.2253
0.18371999 0.040374 0.22510999
0.18443 0.040339001 0.22461
0.17148 0.043823 0.23148
0.17137 0.044613 0.23103
0.16972999 0.045196 0.23212001
0.16869 0.045942001 0.23318
0.15955999 0.049261 0.23746
0.16053 0.048974998 0.23722
0.15979999 0.048974998 0.23637
0.18512 0.052118 0.22429
0.18656 0.053637002 0.22353999
0.19024999 0.05751 0.22172999
0.19212 0.058148999 0.22064
0.19555999 0.061035998 0.21916001
0.1956 0.061875999 0.21892001
0.19588999 0.062776998 0.219
0.19557001 0.063648999 0.21899
0.19328 0.063896 0.22032
0.16859999 0.072705001 0.23328
0.15270001 0.073025003 0.23996
0.15477 0.073349997 0.24028
0.15178999 0.073251002 0.24168999
0.16302 0.073973 0.23588
0.15573999 0.073629998 0.23992001
0.15727 0.073707998 0.23892
0.16159999 0.073785998 0.23656
0.17055 -0.052209999 0.23078001
0.17005 -0.052467 0.23168001
0.17398 -0.049775999 0.22996999
0.17515001 -0.049217001 0.22871999
0.17942999 -0.044652998 0.22724
0.18118 -0.041533001 0.22565
0.18345 -0.036580998 0.22499999
0.18359999 -0.035087999 0.22461
0.184 -0.032786999 0.22483
0.18426 -0.032308999 0.22406
0.18529999 -0.029498 0.2236
0.18529999 -0.030325999 0.22328
0.18503 -0.026753999 0.22316
0.18539999 -0.024216 0.22307999
0.1859 -0.021403 0.22323
0.18572 -0.016116001 0.22378001
0.18531001 -0.01514 0.22326
0.1849 -0.012868 0.22417
0.18211 -0.0044924999 0.22495
0.18015 0.0018108001 0.22673
0.17966001 0.0020999999 0.22623
0.17945001 0.0029624 0.22646999
0.17958 0.0025992 0.2264
0.17887001 0.0045999 0.22708
0.17927 0.0039432999 0.22637001
0.17043 0.017127 0.23203
0.16773 0.018781001 0.23233999
0.16376001 0.022753 0.23429
0.16266 0.024145 0.23502
0.16218001 0.024652001 0.23509
0.030289 0.028442999 0.30328
0.030342 0.027355 0.30371001
0.029794 0.027581999 0.30408001
0.029844999 0.026552999 0.30443999
0.028817 0.027435999 0.30450001
0.029496999 0.02843 0.30357
0.028631 0.028431 0.30397999
0.18839 0.03317 0.22237
0.18921 0.034104999 0.22204
0.18904001 0.034736 0.22218999
0.18822999 0.036350001 0.22246
0.18779001 0.036919001 0.22269
0.1876 0.037333 0.22276001
0.18684 0.038221002 0.2237
0.18521 0.040119 0.22442
0.16948999 0.045428999 0.23159
0.17035 0.045258 0.2309
0.16797 0.046154998 0.23243
0.16343001 0.047897998 0.2344
0.16312 0.04789 0.23625
0.18414 0.05184 0.22391
0.1865 0.052848998 0.22273999
0.18685 0.053658001 0.22284
0.18737 0.054905999 0.22308999
0.18694 0.054728001 0.22251
0.18855 0.056671999 0.22146
0.18934999 0.056975 0.22184999
0.18905 0.057243999 0.22125
0.19050001 0.057950001 0.22107001
0.18959001 0.057526998 0.22111
0.19378 0.058789 0.21979
0.19498999 0.064646997 0.21923999
0.19412 0.064626999 0.21966
0.19337 0.064562 0.21987
0.19577 0.064507 0.21877
0.19553 0.065457001 0.21892001
0.19519 0.065196998 0.21917
0.19428 0.065196998 0.21935
0.19577999 0.065471001 0.21844999
0.17259 0.070003003 0.23015
0.17287 0.070234001 0.23040999
0.17165001 0.071358003 0.23027
0.16797 0.072759002 0.23243
0.16618 0.072734997 0.23293
0.15232 0.073334999 0.24094
0.15198 0.073083997 0.24107
0.16358 0.073614001 0.23456
0.1622 0.073567003 0.23509
0.15764 0.073654003 0.23825
0.15829 0.073820002 0.23727
0.17137 -0.051803999 0.23041999
0.17191 -0.051498 0.23033001
0.17282 -0.050434001 0.22966
0.1736 -0.050089002 0.22949
0.17464 -0.049596 0.22894999
0.176 -0.0484 0.22786
0.17692 -0.047796998 0.22752
0.1777 -0.046576001 0.22756
0.17839 -0.045841001 0.22691999
0.17917 -0.044732999 0.22644
0.17974 -0.044569001 0.22669999
0.17991 -0.044069 0.22614001
0.18043 -0.042603001 0.22623999
0.18163 -0.040318001 0.22538
0.18198 -0.039788 0.22517
0.18271001 -0.038394999 0.22443999
0.18266 -0.037932999 0.22437
0.18325999 -0.037374001 0.22465999
0.18363 -0.036217999 0.22400001
0.18375 -0.033488002 0.22463
0.18384001 -0.032979999 0.22412001
0.18477 -0.031291001 0.22336
0.18532 -0.028543999 0.22324
0.18528 -0.027679 0.22342999
0.18504 -0.026086999 0.22348
0.18521 -0.025192 0.22337
0.18593 -0.023335001 0.22321001
0.18607 -0.022491001 0.22319999
0.1856 -0.020465 0.22325
0.18543001 -0.018826 0.22344001
0.18542001 -0.016244 0.22362
0.1856 -0.01602 0.2233
0.18479 -0.013135 0.22344001
0.18449999 -0.01204 0.22366001
0.18437 -0.011273 0.22382
0.18429001 -0.010995 0.22386
0.18426999 -0.0089234998 0.22426
0.18339001 -0.0066952999 0.22428
0.18316001 -0.0060522999 0.22458
0.18289 -0.0057494999 0.22442
0.18241 -0.0048281001 0.22493
0.18179999 -0.0038476 0.22452
0.18188 -0.0022931001 0.22513001
0.18175 -0.0016047 0.22519
0.18134999 -0.00038603001 0.22524001
0.18164 -0.00069899001 0.22581001
0.18081 0.00053134997 0.22561
0.18039 0.0013677001 0.22595
0.17885999 0.0039527998 0.22578999
0.17924 0.0029720999 0.2255
0.17826 0.0057917 0.22685
0.17538001 0.0096728001 0.22847
0.17504001 0.011016 0.22852001
0.17445999 0.012129 0.22923
0.17465 0.011771 0.22869
0.17354 0.012935 0.22927
0.17317 0.013342 0.22958
0.17293 0.013906 0.2298
0.17211001 0.013992 0.23057
0.17149 0.014525 0.23012
0.17106999 0.015741 0.23072
0.17051999 0.016721999 0.23114
0.17021 0.017294001 0.23138
0.16965 0.017316001 0.23119999
0.16909 0.017798999 0.23142999
0.1688 0.018261001 0.23186
0.16695 0.019069999 0.23276
0.16672 0.020307999 0.23291001
0.16621999 0.021024 0.23287
0.16558 0.021064 0.23215
0.16568001 0.021624001 0.23337001
0.16487999 0.022400999 0.23404001
0.16319001 0.022787999 0.23459999
0.16305999 0.023364 0.23475
0.16164 0.024798 0.23524
0.028248999 0.027973 0.30441999
0.031932998 0.028426001 0.30241001
0.031459 0.028117999 0.30294001
0.030928999 0.028465999 0.30261999
0.033000998 0.028797001 0.30192
0.033459 0.028679 0.30166
0.032545999 0.02868 0.30195999
0.18912999 0.033496998 0.22172
0.18962 0.033957999 0.22119001
0.18997 0.034892999 0.22098
0.1893 0.035397999 0.2218
0.18927 0.035257 0.22169
0.18838 0.037390999 0.22177
0.18757001 0.038445 0.22266001
0.18659 0.038842998 0.22342999
0.18659 0.039512999 0.22266001
0.18589 0.040279999 0.22335
0.18537 0.041021999 0.22362
0.18495999 0.040920999 0.22405
0.18544 0.041166 0.22374
0.18440001 0.040842 0.22439
0.18321 0.041007001 0.22452
0.18509001 0.041972999 0.22390001
0.18409 0.042061001 0.22411001
0.17219999 0.044119999 0.23025
0.17206 0.043946002 0.23112001
0.17106999 0.044835001 0.23102
0.17193 0.044576999 0.22999001
0.17082 0.044906002 0.23108
0.16923 0.045604002 0.23193
0.16479 0.047357999 0.23423
0.16125999 0.048604 0.23694
0.15843999 0.049277999 0.23704
0.15749 0.049911998 0.23769
0.15718 0.050423 0.23777001
0.15731999 0.050988998 0.23867001
0.15673 0.051043998 0.23794
0.1851 0.051759999 0.22359
0.18587001 0.052005 0.22315
0.18359999 0.052122001 0.22438
0.18593 0.052310001 0.22323
0.18719 0.054285001 0.2228
0.18749 0.055378001 0.22227
0.18787 0.055838 0.22217
0.1884 0.056325 0.22191
0.18976 0.057955999 0.22086
0.19063 0.058189999 0.22054
0.19216999 0.058639001 0.22025
0.19157 0.058541 0.22026999
0.19303 0.059175 0.21955
0.19386999 0.059656002 0.21934
0.19475999 0.060306001 0.21854
0.19509999 0.061076 0.21832
0.19574 0.061928999 0.21807
0.19576 0.062793002 0.21777999
0.19611999 0.063616 0.21818
0.19595 0.064650998 0.21784
0.19385999 0.065527998 0.21927001
0.19309001 0.065596998 0.21924999
0.19255 0.064415999 0.22014
0.19471 0.065595001 0.21889
0.19520999 0.066812001 0.21816
0.1947 0.066669002 0.21874
0.17254999 0.070375003 0.23023
0.17196999 0.071263999 0.22999001
0.17129999 0.071785003 0.23048
0.17039999 0.072107002 0.23083
0.1696 0.072035998 0.23151
0.16925 0.072251998 0.2317
0.16737001 0.072792999 0.233
0.16538 0.073243 0.2335
0.15192001 0.072867997 0.24037001
0.15123001 0.072702996 0.24086
0.15059 0.072469003 0.241
0.16487999 0.073279999 0.23404001
0.16410001 0.073188998 0.23425999
0.15414 0.073338002 0.24011
0.16062 0.073968999 0.23636
0.16024999 0.073838003 0.23671
0.16888 -0.052584 0.23172
0.17129999 -0.051738001 0.23026
0.17788 -0.046142999 0.2269
0.17941999 -0.044278 0.22538
0.18200999 -0.039273001 0.22459
0.18358 -0.033927001 0.22417
0.18369 -0.033449002 0.22317
0.18495999 -0.029831 0.22265001
0.18502 -0.013998 0.22328
0.18422 -0.0097208004 0.22391
0.17585 0.0086267004 0.22816999
0.17519 0.010219 0.22853
0.17151 0.014982 0.23072
0.16744 0.018809 0.23221999
0.16412 0.022778001 0.23407
0.16153 0.025357001 0.23559
0.16072001 0.025896 0.23588
0.032453999 0.03039 0.30160999
0.033628002 0.029697999 0.30153
0.031868 0.029746 0.30219001
0.027793 0.029344 0.30414
0.027084 0.028586 0.30473
0.031304002 0.029580001 0.30232
0.030002 0.029314 0.30265
0.029316001 0.029108001 0.30327001
0.026660001 0.029354 0.30452999
0.026196999 0.028491 0.30507001
0.025206 0.029502001 0.30544999
0.026102001 0.029044 0.30500001
0.024456 0.029245 0.30559
0.025420999 0.028444 0.30566001
0.034479 0.030679001 0.30034
0.033080999 0.030266 0.30149999
0.18979 0.035514999 0.22093999
0.19039001 0.03466 0.22040001
0.18944 0.036843002 0.22097
0.18844 0.036557999 0.22192
0.18881001 0.037145 0.22139999
0.18871 0.036541998 0.22152001
0.18835001 0.038341999 0.22206999
0.18746001 0.039058998 0.22212
0.18648 0.040217999 0.2228
0.18637 0.040984999 0.22242001
0.18674999 0.040754002 0.22216
0.18574999 0.041808002 0.22288001
0.18566 0.042862002 0.22317
0.18506999 0.042890999 0.22369
0.18422 0.042924002 0.22363
0.18629 0.042943999 0.22240999
0.18557 0.043800998 0.22301
0.18483999 0.043779001 0.2233
0.17069 0.045322999 0.23026
0.17023 0.045513999 0.23009001
0.16863 0.045949001 0.23137
0.16407 0.047674999 0.23425999
0.16396999 0.047743 0.23475
0.16216999 0.048103001 0.23488
0.16158 0.048415001 0.23653001
0.16114999 0.048340999 0.23571
0.16055 0.048684999 0.23588
0.15931 0.049187001 0.23633
0.19216 0.059172999 0.21935999
0.19382 0.060013 0.21897
0.19578999 0.062166002 0.21754
0.19633 0.065615997 0.21771
0.19603001 0.066270001 0.21748
0.19372 0.066347003 0.21882001
0.19442999 0.067479998 0.21849
0.19527 0.067037001 0.21774
0.19519 0.067282997 0.21748
0.16832 0.072403997 0.23162
0.16689 0.072715998 0.23202001
0.15341 0.073085003 0.23965
0.16503 0.073178999 0.23362
0.15877999 0.073633999 0.23694
0.15676001 0.073435999 0.23769
0.17192 -0.051103 0.22914
0.17227 -0.050510999 0.22804999
0.17213 -0.050629001 0.22927
0.17411 -0.050076999 0.22872999
0.17565 -0.048911002 0.22796001
0.17431 -0.049844999 0.22821
0.17702 -0.047210999 0.22657999
0.18023001 -0.042578001 0.2254
0.18165 -0.039765 0.22415
0.18296 -0.037753999 0.22349
0.18323 -0.035771001 0.22353999
0.18491 -0.030627999 0.22282
0.18477 -0.025792999 0.22269
0.18481 -0.025168 0.22178
0.18516999 -0.024788 0.22215
0.18561999 -0.023455 0.22218999
0.18494999 -0.018661 0.22258
0.18537 -0.018901 0.22281
0.18533 -0.017839 0.22306
0.18492 -0.014731 0.2227
0.18488 -0.014747 0.22259
0.18384001 -0.010516 0.22284
0.18333 -0.0072650001 0.22315
0.18177 -0.0043199998 0.22409999
0.18184 -0.0036023001 0.22475
0.18155 -0.0033249001 0.22411001
0.18177 -0.0023614001 0.22431999
0.18023001 0.00104 0.22516
0.17921001 0.0022634 0.22570001
0.17873999 0.0046346001 0.22628
0.17838 0.0051465998 0.22583
0.17793 0.0058639999 0.22590999
0.17637999 0.0076278001 0.22687
0.17603 0.0079739001 0.22672001
0.17507 0.0093916999 0.22779
0.17558999 0.0084335003 0.22722
0.17504001 0.010261 0.22788
0.17099001 0.014833 0.22961
0.17139 0.014201 0.22947
0.17065001 0.016204 0.2306
0.17014 0.016759001 0.23027
0.16806 0.018219 0.23094
0.16867 0.017906999 0.23086999
0.16644999 0.019455999 0.23208
0.16654 0.019215999 0.23173
0.16522001 0.021437 0.23236001
0.16505 0.021792 0.23255
0.16448 0.022157 0.23289999
0.16394 0.022521 0.23362
0.16147999 0.024940999 0.23462
0.028450999 0.029452 0.30377001
0.027657 0.030443 0.30397001
0.026993001 0.030398 0.3044
0.030321 0.030161999 0.30274999
0.031872001 0.030392 0.30173001
0.029177001 0.030188 0.30314001
0.028486 0.030428 0.30357
0.026292 0.03032 0.30454001
0.025021 0.030358 0.30520999
0.024633 0.030174 0.30563
0.023486 0.029525001 0.3064
0.036265001 0.030512 0.29993999
0.03664 0.030435 0.29971001
0.035445001 0.029354 0.30059001
0.034812 0.029682999 0.30096999
0.032977 0.031079 0.30098999
0.033410002 0.031557001 0.3008
0.037732001 0.030285999 0.29901999
0.037985001 0.030688999 0.29877999
0.038270999 0.030401001 0.29894999
0.027801 0.031124 0.30371001
0.034944002 0.031215999 0.30012
0.026672 0.031072 0.30414999
0.1937 0.032161001 0.21863
0.1935 0.03173 0.21884
0.19348 0.031583998 0.21875
0.040004 0.031808 0.29795
0.039769001 0.031353999 0.29767999
0.038975 0.031318001 0.29802001
0.19044 0.034125999 0.22044
0.19013 0.035160001 0.22041
0.19038001 0.035643 0.21998
0.18948001 0.037250999 0.22046
0.18874 0.038066 0.22116999
0.18794 0.038701002 0.22199
0.18787999 0.039615002 0.22130001
0.18697999 0.040263999 0.22217999
0.18637 0.042070001 0.22254001
0.026805 0.041793 0.30482
0.026489999 0.041726999 0.30392
0.02599 0.042020001 0.30410999
0.18643001 0.043714002 0.22232001
0.17332999 0.043350998 0.22898
0.17284 0.043944001 0.22937
0.17349 0.042854998 0.22911
0.18367 0.043774001 0.22307
0.18561 0.044858001 0.22239999
0.18555 0.044346001 0.22283
0.18595 0.044647001 0.22192
0.18499 0.044520002 0.22322001
0.18447 0.044950999 0.22291
0.17233001 0.044702999 0.22905
0.17107999 0.045116 0.2296
0.16717 0.04637 0.23222999
0.16599 0.046909001 0.23301999
0.16437 0.047605 0.23341
0.15864 0.049254 0.23619001
0.15931 0.049059998 0.23562001
0.15795 0.049298 0.23665
0.15738 0.049610998 0.23681
0.15583999 0.051479001 0.23744
0.156 0.051878002 0.23825
0.18457 0.051879 0.22259
0.18377 0.051961999 0.22311001
0.18588001 0.052508999 0.22246
0.18623 0.054698002 0.22174001
0.18695 0.054792002 0.22187001
0.18788999 0.055767 0.22105999
0.19114 0.058765002 0.21995001
0.19289 0.059700001 0.21904001
0.19493 0.060892001 0.21785
0.19413 0.067148 0.21865
0.19357 0.067550004 0.21862
0.17118999 0.071465001 0.22934
0.17110001 0.071902998 0.22967
0.16751 0.072783999 0.2314
0.16452 0.073278002 0.23300999
0.15804 0.073638 0.23642001
0.15714 0.073484004 0.23714
0.17096999 -0.051883999 0.22978
0.17391001 -0.049956001 0.22792999
0.17507 -0.049469002 0.22768
0.17552 -0.048597001 0.22723
0.17651001 -0.047731001 0.22691
0.17734 -0.046627 0.22639
0.17806999 -0.045653 0.22589
0.17892 -0.045026999 0.22587
0.17964 -0.044116002 0.22466999
0.17997999 -0.043276001 0.22517
0.18071 -0.042135999 0.22502001
0.18104 -0.04084 0.22465
0.18119 -0.040493 0.22453
0.18201999 -0.039255999 0.22401001
0.1822 -0.038364001 0.22369
0.18253 -0.038144998 0.22383
0.18313999 -0.036605 0.22341
0.18337999 -0.033840999 0.22302
0.18411 -0.032556999 0.22332001
0.18426 -0.032035999 0.22297999
0.18476 -0.031158 0.22268
0.18505 -0.028635999 0.22218999
0.18437 -0.028162001 0.22164001
0.18557 -0.022543 0.22235
0.18514 -0.019440999 0.22236
0.18519001 -0.017787 0.22283
0.18526 -0.016014 0.22246
0.18455 -0.013494 0.22274999
0.18389 -0.011637 0.22279
0.18376 -0.011513 0.22258
0.18425 -0.012001 0.22325
0.18406001 -0.0097601004 0.22292
0.18398 -0.0085993996 0.22308999
0.18317001 -0.0068752002 0.22332001
0.18215001 -0.0050519002 0.22405
0.18142 -0.0041574999 0.22332001
0.18148001 -0.0015195 0.22438
0.18083 0.00031934999 0.22485
0.18119 -0.00059329002 0.22465999
0.17976999 0.0015575 0.22509
0.17947 0.0020284001 0.22532
0.17867 0.0045444998 0.22589
0.17496 0.0089442004 0.22750001
0.17452 0.011057 0.2281
0.17460001 0.011494 0.22806001
0.17313001 0.01279 0.22843
0.17396 0.012322 0.22818001
0.17054 0.015328 0.23003
0.17030001 0.016340001 0.23011
0.16947 0.017188 0.23064999
0.16753 0.018569 0.23142
0.16696 0.018802 0.23175
0.16599 0.020121001 0.23222999
0.1635 0.022604 0.23378
0.16267 0.023017 0.23399
0.16214 0.023211 0.23405001
0.16187 0.023652 0.2342
0.16170999 0.024387 0.23492999
0.16046 0.025528001 0.2352
0.038727 0.031500999 0.29795
0.037974998 0.031543002 0.29841
0.036609001 0.03139 0.29918
0.034694001 0.031670999 0.30001
0.033036001 0.032021001 0.30078
0.19435 0.032063 0.21804
0.19416 0.031160001 0.21766999
0.19482 0.032242998 0.21743999
0.19344001 0.031142 0.21822999
0.038658999 0.032129999 0.29789001
0.037668001 0.032372002 0.2983
0.037250001 0.032086 0.29842001
0.039326999 0.032898001 0.29756999
0.039563 0.032506 0.29775
0.19475999 0.032807998 0.21743
0.19437 0.032915998 0.21794
0.19351 0.032768 0.21825001
0.035668999 0.032490999 0.29936001
0.034781002 0.032088 0.29998001
0.038686998 0.033295002 0.2978
0.19125 0.034878999 0.21944
0.19031 0.035078 0.22012
0.19104999 0.035395999 0.21943
0.1902 0.036816999 0.21980999
0.18968999 0.036786001 0.22008
0.19009 0.037620999 0.21945
0.18867999 0.038522001 0.22121
0.18908 0.038442001 0.2203
0.18979999 0.038389001 0.21974
0.18731999 0.040351 0.2217
0.18759 0.040628001 0.2211
0.18731 0.041097999 0.22171
0.18713 0.042084001 0.22138
0.1866 0.041857 0.22216
0.026822999 0.041664001 0.3037
0.18347999 0.041886002 0.22417
0.183 0.041784 0.22386
0.023933999 0.042055 0.30511999
0.023765 0.041870002 0.30519
0.024586 0.041914001 0.30555999
0.025334001 0.041652001 0.30544999
0.024976 0.042296 0.30478001
0.18652999 0.042950001 0.22206999
0.18682 0.042904999 0.22144
0.17402001 0.042924002 0.22809
0.17338 0.044018999 0.22869
0.18628 0.043864999 0.22177
0.18666001 0.043237999 0.22153001
0.17282 0.044160001 0.22882
0.1717 0.045065999 0.22923
0.18534 0.045313999 0.22211
0.18469 0.045192 0.22245
0.16881999 0.045742001 0.23054001
0.1682 0.046057999 0.23184
0.16367 0.047756001 0.23355
0.16029 0.048774 0.23525
0.15696 0.049911 0.23712
0.1561 0.050468002 0.23710001
0.18522 0.051823001 0.22224
0.18588001 0.052386999 0.22209001
0.18625 0.05291 0.222
0.18639 0.053803999 0.222
0.18697 0.055369001 0.22154
0.18808 0.055904001 0.22050001
0.18853 0.056593999 0.22057
0.18874 0.057032 0.22064
0.18919 0.057521999 0.22025999
0.18963 0.058008999 0.22006001
0.19008 0.058607001 0.22012
0.19033 0.059202999 0.21976
0.19164 0.059627999 0.21946
0.19102 0.059145998 0.21944
0.19182 0.059909001 0.21892001
0.19254 0.060010001 0.21873
0.19363999 0.060502 0.21845999
0.19406 0.061200999 0.21763
0.19340999 0.060722999 0.21787
0.19465999 0.061076 0.21752
0.19512001 0.061832 0.2174
0.19551 0.062233001 0.21738
0.19571 0.062779002 0.21691
0.19614001 0.063698001 0.21681
0.19643 0.064470999 0.21669
0.19632 0.064690001 0.21717
0.19622999 0.065797001 0.21694
0.19641 0.065609999 0.21657
0.19604 0.066339001 0.21656001
0.19244 0.066702001 0.21890999
0.19188 0.066367999 0.21871001
0.19562 0.067295998 0.21703
0.19462 0.067675002 0.21742
0.19426 0.068285003 0.21777999
0.19348 0.068172 0.21813001
0.14431 0.071753003 0.24412
0.14432999 0.071722999 0.24358
0.14353999 0.071560003 0.24435
0.14352 0.072067 0.24398001
0.14301001 0.072663002 0.24446
0.14297999 0.071707003 0.24511001
0.16925 0.072251 0.23072
0.16839001 0.072402999 0.23074999
0.14195 0.072896004 0.24488001
0.14216 0.071952 0.24534
0.14172 0.072547004 0.24533001
0.16526 0.072695002 0.2324
0.16563 0.072901003 0.23235001
0.14134 0.073177002 0.24524
0.15672 0.073251002 0.23672
0.14093 0.073689997 0.24483
0.14167 0.073545001 0.24472
0.16171999 0.073480003 0.23452
0.16178 0.073574997 0.23388
0.16113 0.073605999 0.23454
0.16044 0.073810004 0.23545
0.15988 0.073720999 0.23563001
0.13472 0.076327004 0.24846999
0.13482 0.075292997 0.24871001
0.13542999 0.075557001 0.24806
0.13399 0.076229997 0.24923
0.13383 0.077396996 0.249
0.16921 -0.052563 0.23048
0.16992 -0.052508999 0.23019999
0.17192 -0.050980002 0.22827999
0.17445 -0.049474001 0.22689
0.17675 -0.046682 0.22533
0.17670999 -0.047122002 0.22653
0.17637999 -0.047277998 0.22594
0.17964999 -0.043425001 0.22471
0.18013 -0.042808998 0.22447
0.18035001 -0.042631999 0.22497
0.18246999 -0.038240001 0.22306
0.18337999 -0.033062 0.22225
0.18457 -0.031030999 0.22215
0.18467 -0.026954999 0.22274999
0.18455 -0.027039001 0.22169
0.18528 -0.024453999 0.22245
0.18523 -0.023982 0.22160999
0.18539 -0.023050001 0.22172999
0.18505 -0.016154001 0.2216
0.18481 -0.013928 0.22239999
0.1846 -0.014503 0.22181
0.18437 -0.012417 0.22279
0.18350001 -0.010561 0.22193
0.18263 -0.0057144999 0.2234
0.18179999 -0.0049076001 0.22328
0.18128 -0.0012766999 0.22337
0.18079001 -4.4261e-05 0.22451
0.17902 0.0020794999 0.22432999
0.17879 0.0023690001 0.22465
0.17852999 0.0030523001 0.22468001
0.17827 0.0039674998 0.22495
0.17825 0.0046831002 0.22503
0.17752001 0.0066264002 0.22628
0.17684001 0.0069186999 0.22562
0.17474 0.0093548996 0.22684
0.17278001 0.012759 0.22781
0.17339 0.012217 0.22748999
0.17236 0.013432 0.22874001
0.16701999 0.018627999 0.23047
0.16667999 0.018896 0.23120999
0.16585 0.019365 0.23112001
0.16618 0.019334 0.23108999
0.15900999 0.025698001 0.23454
0.16003001 0.025054 0.23445
0.15971 0.025576999 0.23466
0.15839 0.026041999 0.23521
0.15952 0.026334001 0.23563001
0.19447 0.031321 0.21746001
0.037822999 0.033222999 0.29793999
0.037094999 0.032969002 0.29848999
0.033279002 0.032777 0.3001
0.19551 0.032745 0.21675999
0.032186002 0.031975999 0.30111
0.032412998 0.032543998 0.30090001
0.031463001 0.032225002 0.30136999
0.031571001 0.032777 0.30098
0.036502 0.033229999 0.29859999
0.033753999 0.032974999 0.29982001
0.030486999 0.032868002 0.30138001
0.19410001 0.033918999 0.2177
0.19486 0.033774 0.21734001
0.037987001 0.033514 0.29791999
0.034751002 0.033388 0.29962
0.033831999 0.033695001 0.29967001
0.19336 0.033661 0.21803001
0.19227 0.033082001 0.21854
0.036952998 0.034294002 0.29832
0.036274001 0.033976 0.29850999
0.035468001 0.033743002 0.29911
0.19171999 0.034876999 0.21894
0.19169 0.035604 0.21872
0.19087 0.036479998 0.21946999
0.19087 0.03723 0.21878999
0.18876 0.039438002 0.22019
0.18919 0.039032999 0.22034
0.18821999 0.040252998 0.22006001
0.1874 0.041092999 0.22104999
0.025447 0.041815002 0.30322
0.024602 0.042130001 0.30385
0.17412999 0.043485999 0.22813
0.18396001 0.044472001 0.22262
0.1736 0.044493001 0.22714999
0.17268001 0.044521 0.22784001
0.17299999 0.044433001 0.22830001
0.16411 0.047524001 0.23192
0.16492 0.047153998 0.23246001
0.16193999 0.048181999 0.23428001
0.16240001 0.048179001 0.234
0.16174001 0.048319999 0.23387
0.15601 0.050783999 0.23728
0.15515 0.052044 0.23717
0.15469 0.051986001 0.23686001
0.15453 0.052829001 0.23692
0.15602 0.053470999 0.23819999
0.15640999 0.0528 0.23804
0.15544 0.053020999 0.23766001
0.15545 0.051769 0.23777001
0.18999 0.058970001 0.21901
0.19135 0.059819002 0.2192
0.19618 0.064165004 0.21659
0.19625001 0.066016003 0.21665999
0.19271 0.067456 0.21851
0.19505 0.068069004 0.21603
0.19475 0.068236001 0.21675999
0.17171 0.071134999 0.22933
0.17015 0.072039001 0.22996999
0.16962001 0.072125003 0.22948
0.14335001 0.072480999 0.24354
0.16658001 0.072830997 0.2313
0.16311 0.073574997 0.2335
0.16335 0.073308997 0.23275
0.14233001 0.073366001 0.24428
0.15997 0.073726997 0.23441
0.14011 0.073959999 0.2457
0.14018001 0.074506 0.24527
0.13858999 0.075072996 0.24583
0.13795 0.075127997 0.24654999
0.13875 0.074652001 0.24625
0.13535 0.076356001 0.24772
0.13614 0.076154999 0.24761
0.13502 0.077215001 0.24785
0.13446 0.077473998 0.2481
0.13542999 0.077601999 0.24726
0.13424 0.078431003 0.24727
0.13350999 0.078300998 0.24856
0.13299 0.078126997 0.24909
0.1332 0.077234 0.24936999
0.17041001 -0.051860999 0.22904
0.16962001 -0.052542001 0.22946
0.17145 -0.051208999 0.22865
0.17319 -0.050427999 0.22840001
0.17287999 -0.050425 0.2277
0.17515001 -0.048886001 0.22678
0.17839999 -0.045444999 0.22482
0.17862999 -0.045097999 0.22488999
0.17772 -0.045938998 0.22555999
0.17925 -0.044525001 0.22535001
0.1788 -0.044574 0.22457001
0.18023001 -0.042296998 0.22409
0.18055999 -0.040922001 0.22386
0.18108 -0.040266 0.22356001
0.18118 -0.040107001 0.22373
0.18162 -0.039276 0.22334
0.18218 -0.037958998 0.22258
0.18206 -0.038706001 0.22314
0.18319 -0.034116 0.22258
0.18432 -0.031330999 0.22168
0.18395001 -0.031964999 0.22189
0.18453 -0.030498 0.22191
0.18468 -0.028690999 0.22171
0.18438999 -0.026063001 0.22174001
0.18508001 -0.020269001 0.22168
0.18468 -0.018493 0.22181
0.18459 -0.017697999 0.22137
0.18492 -0.016936 0.22172
0.18373001 -0.012541 0.22198001
0.18353 -0.011783 0.22237
0.18358999 -0.0097348001 0.22198001
0.18348999 -0.0088627003 0.22232001
0.18328001 -0.0076285 0.22257
0.18309 -0.0073301001 0.22254001
0.18251 -0.0061356002 0.22273
0.1813 -0.0023370001 0.22328
0.18147001 -0.0023888 0.22372
0.18088999 -0.00047437 0.22353999
0.18062 -1.3959e-05 0.22407
0.18023001 0.00042594 0.22409
0.17986 0.0016217 0.22446001
0.17795999 0.0047857999 0.22499
0.17773999 0.0057687 0.22508
0.17657 0.0073055001 0.22598
0.17591999 0.0080126999 0.22638001
0.1751 0.0091276998 0.22693001
0.17541 0.0086113 0.22665
0.17422 0.010982 0.22689
0.17207 0.013394 0.22835
0.17084999 0.014327 0.22874001
0.17035 0.015106 0.22905999
0.17016 0.015299 0.22953001
0.16983999 0.015841 0.22916999
0.16935 0.016755 0.22962999
0.16895001 0.017217999 0.22995
0.16784 0.018166 0.23052999
0.16813999 0.017677 0.22998001
0.16485 0.021113999 0.23182
0.16448 0.021712 0.23213001
0.16389 0.021926999 0.2321
0.16334 0.02228 0.23277999
0.16216999 0.022783 0.23307
0.16158 0.023188001 0.23322
0.16125999 0.023491999 0.23351
0.1612 0.024006 0.23394001
0.16044 0.025342001 0.23480999
0.16043 0.024351001 0.23363
0.15992001 0.025937 0.23569
0.19465999 0.031130999 0.21668001
0.19361 0.031134 0.21698
0.19272 0.031311002 0.21732
0.19541 0.032062002 0.21608999
0.19575 0.032776002 0.21608999
0.031904999 0.033555999 0.30048999
0.032671999 0.034109 0.3001
0.030835999 0.033217002 0.30123001
0.1956 0.034008 0.21651
0.19586 0.033620998 0.21686999
0.031335 0.033436 0.30074
0.19492 0.034391999 0.21689001
0.19383 0.034993999 0.21696
0.034348 0.034283001 0.29949999
0.033273 0.034120999 0.29969001
0.033144999 0.034738 0.29984
0.033171002 0.034485999 0.29980999
0.19215 0.035372999 0.21843
0.19262999 0.034848999 0.21837001
0.19303 0.035872001 0.2175
0.19227 0.035744 0.21817
0.19159999 0.036625002 0.21847001
0.19079 0.036747999 0.21888
0.19058999 0.038066 0.21901999
0.18893 0.040125001 0.21979
0.1892 0.039778002 0.21960001
0.027888 0.040707 0.30180001
0.027525 0.040151 0.30107999
0.027055999 0.041069001 0.30243
0.18747 0.041715998 0.22086
0.18752 0.041049998 0.22059999
0.18709999 0.042098999 0.22047
0.026017001 0.041655 0.30304
0.0232 0.041871 0.30476001
0.023798 0.041159 0.30535999
0.18698999 0.042224001 0.22075
0.023722 0.042169999 0.30418
0.1865 0.042947002 0.22088
0.18629999 0.043342002 0.22131
0.17434999 0.043127 0.22737999
0.17437001 0.043752 0.2269
0.18605 0.043790001 0.22119001
0.17377999 0.044128999 0.22723
0.18572 0.044390999 0.22126999
0.18334 0.044277001 0.22216
0.17200001 0.044971999 0.22818001
0.18406001 0.044838998 0.22172999
0.16943 0.045499001 0.22942001
0.17045 0.045279998 0.22882
0.18469 0.045256998 0.22220001
0.16914999 0.045712002 0.23030999
0.16825999 0.045968998 0.23044001
0.16636001 0.046358999 0.23097
0.16723 0.04589 0.23078001
0.16665 0.046523999 0.23187999
0.16585 0.046980001 0.23176
0.16512001 0.046863001 0.23142
0.16074 0.048537999 0.23356999
0.16047999 0.048390001 0.23446
0.16005 0.048705999 0.23424
0.15904 0.049121 0.23502
0.15834001 0.049412999 0.2351
0.15716 0.049261 0.23562001
0.15646 0.049803998 0.23612
0.15594 0.050388999 0.23627999
0.15544 0.050957002 0.2367
0.18430001 0.051890001 0.22197001
0.18499 0.05204 0.22159
0.18561 0.052689001 0.2217
0.18335 0.052478999 0.22305
0.18353 0.052604999 0.22239999
0.18288 0.052870002 0.22358
0.18264 0.053821001 0.22316
0.18249001 0.053817999 0.22342999
0.18537 0.053941999 0.22131
0.18657 0.055186 0.22059999
0.18718 0.055225 0.22037999
0.18582 0.054589 0.22136
0.18826 0.055470999 0.21994001
0.18905 0.057447001 0.21933
0.18937001 0.058006998 0.21962
0.1894 0.058524001 0.21926001
0.19042 0.059512001 0.21862
0.19066 0.060141999 0.21848001
0.19129001 0.060472 0.21842
0.19142 0.061000999 0.21814001
0.19230001 0.061065 0.21789999
0.19305 0.061163001 0.2175
0.19441999 0.062063001 0.21684
0.19373 0.061154999 0.21743
0.19372 0.061779998 0.21697
0.19520999 0.062794998 0.21645001
0.19555999 0.063490003 0.21584
0.19593 0.064221002 0.21582
0.19600999 0.064475998 0.21581
0.19612999 0.065442003 0.21556
0.19616 0.066514999 0.21584
0.19594 0.067388996 0.21574
0.19555999 0.067530997 0.21601
0.19278 0.067768998 0.21803001
0.19214 0.068435997 0.21785
0.19383 0.068616003 0.21726
0.19304 0.068722002 0.21775
0.17109001 0.071496002 0.22894
0.17028999 0.071938999 0.22902
0.14477 0.071566999 0.24312
0.14417 0.072066002 0.24270999
0.16870999 0.072449997 0.22931001
0.14361 0.072453 0.24286
0.16482 0.072788998 0.23199999
0.16571 0.072563 0.2315
0.14286999 0.073013999 0.24361999
0.16394 0.073156998 0.2325
0.15864 0.073429003 0.23497
0.15694 0.073360004 0.23631001
0.14189 0.073835999 0.24367
0.16065 0.073324002 0.23380999
0.15842 0.073645003 0.23599
0.14139 0.074049003 0.24395999
0.14094 0.074089997 0.24450999
0.14056 0.074481003 0.24414
0.14076 0.074111998 0.24478
0.14008 0.074787997 0.24467
0.13940001 0.074495003 0.24592
0.13942 0.075014003 0.24557
0.13911 0.075506002 0.24505
0.13822 0.075806998 0.24569
0.13778999 0.075962 0.24621999
0.13743 0.076459996 0.24587999
0.13685 0.076411001 0.24645001
0.13673 0.075531997 0.24705
0.1366 0.075995997 0.24699
0.13609 0.076624997 0.24698
0.13581 0.077320002 0.24684
0.13391 0.078023002 0.24824999
0.13245 0.078455001 0.24826001
0.13255 0.077216998 0.24833
0.13372999 0.078569002 0.24805
0.13319001 0.078552999 0.24798
0.13293999 0.078798003 0.24823999
0.16835 -0.052746002 0.22871999
0.1681 -0.053004999 0.23051
0.1672 -0.053031001 0.22887
0.17161 -0.050896998 0.22756
0.17072999 -0.051293999 0.22792
0.17349 -0.050104 0.22722
0.17473 -0.049178999 0.22634
0.18260001 -0.037067998 0.22263999
0.18302 -0.034604002 0.22212
0.18460999 -0.029701 0.22155
0.18430001 -0.024897 0.22111
0.18434 -0.025908001 0.22142
0.18498001 -0.022049 0.22082999
0.18475001 -0.022809001 0.22074001
0.18513 -0.021786001 0.22109
0.18472999 -0.019432999 0.22157
0.18393999 -0.013065 0.2216
0.040667001 -0.011566 0.29591
0.04008 -0.012392 0.29602
0.040557999 -0.012325 0.29543999
0.041746002 -0.01125 0.29519001
0.041386001 -0.012212 0.29508999
0.18324 -0.011459 0.22147
0.18303999 -0.010479 0.22142
0.042121999 -0.011425 0.29469001
0.042314999 -0.010669 0.29468
0.041786999 -0.010959 0.29550999
0.18297 -0.0065943999 0.22282
0.18119 -0.0031749001 0.22326
0.17725 0.0062326002 0.22555999
0.17402001 0.010312 0.22658999
0.17404 0.011786 0.2273
0.17351 0.011204 0.22634999
0.1688 0.016852001 0.22961
0.16516 0.020357 0.2315
0.15854999 0.026198 0.23511
0.19490001 0.031300999 0.21596999
0.19600999 0.032844 0.2156
0.19619 0.033783 0.21585
0.030235 0.033698998 0.30114999
0.031500001 0.034883998 0.30019999
0.19496 0.034460001 0.21663
0.02957 0.033916 0.30160001
0.029231999 0.034538001 0.30123001
0.030053001 0.034244001 0.30107
0.028706999 0.034699999 0.30177999
0.19551 0.034880001 0.21608
0.031826999 0.035080001 0.30019
0.032033 0.035702001 0.30015001
0.19349 0.035608001 0.21695
0.19258 0.036495999 0.2172
0.19202 0.036578 0.2175
0.19149999 0.037161998 0.2183
0.19126999 0.038442999 0.21811999
0.19217999 0.037326001 0.2177
0.19049001 0.038906999 0.21884
0.19017 0.039159 0.21881001
0.029735999 0.039499 0.30098
0.029369 0.040047001 0.30140001
0.030339999 0.039085001 0.30085999
0.18977 0.040187001 0.21879999
0.18878999 0.041228 0.21916001
0.18810999 0.041278001 0.21981999
0.028596999 0.040192001 0.30171999
0.028086999 0.040644001 0.30239999
0.027438 0.041250002 0.30315
0.026141001 0.041313998 0.30263999
0.025416 0.041561 0.30256
0.024653001 0.041756999 0.3026
0.17474 0.042823002 0.22765
0.17491999 0.043719999 0.22648001
0.18498001 0.044769 0.22142
0.17157 0.045170002 0.22846
0.18487 0.045068 0.22184999
0.16573 0.046778001 0.23115
0.1592 0.048655 0.23438001
0.15695 0.049281999 0.23586001
0.18387 0.052237 0.22258
0.18503 0.052710999 0.22136
0.18366 0.053799 0.22228999
0.15498 0.053139001 0.23728
0.18407001 0.052863002 0.22143
0.18592 0.055362999 0.22082999
0.18903001 0.056421999 0.21923
0.19316 0.061558999 0.21726
0.19332001 0.068953998 0.21685
0.19310001 0.068890996 0.21719
0.19216 0.069059998 0.21746001
0.18513 0.068613999 0.22165
0.18593 0.069087997 0.22115999
0.18493 0.068939999 0.22191
0.18478 0.070028 0.22145
0.18404 0.070037 0.22172
0.18389 0.069141001 0.2221
0.14560001 0.071457997 0.24175
0.14541 0.071617 0.24178
0.14445999 0.071717001 0.24212
0.16833 0.072332002 0.23019999
0.167 0.072499998 0.23049
0.14314 0.072936997 0.24282999
0.16235 0.073165998 0.23288
0.16152 0.073178999 0.23329
0.15927 0.073174 0.23469999
0.15764 0.073311999 0.23552001
0.1559 0.073218003 0.23646
0.13936 0.075149998 0.24454001
0.13807 0.076209001 0.24521001
0.13649 0.076759003 0.24618
0.13462999 0.078065999 0.24715
0.17003 -0.051948 0.22843
0.17309999 -0.050127 0.22579999
0.17321 -0.050319001 0.22687
0.17209999 -0.050567999 0.22688
0.17165001 -0.050678 0.2262
0.17404 -0.049692001 0.22626001
0.1772 -0.046378002 0.22442
0.17644 -0.046461999 0.22488999
0.17783999 -0.045596998 0.22411001
0.17829999 -0.044968002 0.22423001
0.17986 -0.041579999 0.22278
0.18002 -0.041391999 0.2229
0.18172 -0.038890999 0.22233
0.18294001 -0.034244001 0.22172999
0.18413 -0.032288998 0.22102
0.18423 -0.025719 0.22069
0.18431 -0.019475 0.22088
0.18399 -0.0186 0.22005001
0.18436 -0.018653 0.22081
0.18455 -0.016718 0.22057
0.18475001 -0.014923 0.22133
0.040259 -0.012926 0.29537001
0.041634001 -0.012976 0.29385999
0.041227002 -0.012649 0.29504001
0.040945999 -0.01327 0.29434001
0.042210001 -0.012041 0.29403001
0.04236 -0.0117 0.29413
0.042734999 -0.011613 0.29370999
0.043178 -0.010336 0.294
0.18189 -0.0060937 0.22213
0.18239 -0.0066690999 0.22194
0.18126 -0.0028478999 0.22303
0.17979001 0.0013215001 0.22382
0.1635 0.021477001 0.23159
0.16418999 0.021383001 0.23137
0.16216999 0.022497 0.23213001
0.16027001 0.024003999 0.23305
0.15882 0.025373001 0.23458
0.15772 0.026240001 0.23494001
0.15809 0.025819 0.23424999
0.19554999 0.031856999 0.21568
0.1962 0.034825999 0.21506999
0.19600999 0.034970999 0.21562
0.19551 0.035372999 0.21585
0.19536 0.035913002 0.21552999
0.19397999 0.035982002 0.21633001
0.029918 0.035927001 0.30074
0.029087 0.035445999 0.30105001
0.028338 0.035482001 0.30149999
0.027943 0.034883998 0.30223
0.027477 0.035496999 0.30228999
0.031229001 0.036541 0.30006999
0.03162 0.036605 0.29980001
0.19126 0.038818002 0.21798
0.029053001 0.039297 0.30055001
0.18948001 0.041104998 0.21885
0.028266 0.040855002 0.30315
0.026528001 0.040895 0.30212
0.18872 0.041770998 0.219
0.17565 0.042861 0.22573
0.17583001 0.042934999 0.2253
0.17546999 0.043138999 0.22597
0.17486 0.043745 0.22583
0.1743 0.044128999 0.22623
0.18275 0.043940999 0.22156
0.18213999 0.043595001 0.22187001
0.17346001 0.044493999 0.22637001
0.17202 0.044815 0.22719
0.16833 0.046099 0.22921
0.16753 0.045961998 0.22939
0.16689 0.045917999 0.22989
0.15628999 0.049543001 0.23544
0.18509001 0.0539 0.22123
0.18374 0.053573001 0.22165
0.18849 0.055750001 0.21950001
0.19199 0.061517 0.21759
0.19322 0.062561996 0.21602
0.19316 0.062171001 0.21630999
0.19198 0.061849002 0.21709999
0.19238 0.062022001 0.21696
0.19475 0.062955998 0.21612
0.19517 0.063720003 0.21559
0.19565 0.064715996 0.21532001
0.19549 0.065237001 0.21495999
0.19598 0.066486999 0.21481
0.18564001 0.070042998 0.22033
0.18556 0.069743998 0.22081999
0.14512999 0.071727999 0.24082001
0.15676001 0.072924003 0.23480999
0.16034 0.073089004 0.23341
0.15918 0.073150001 0.23361
0.15889999 0.073152997 0.23405001
0.1578 0.073172003 0.23453
0.13869999 0.076006003 0.24409001
0.13379 0.078748003 0.24753
0.16802 -0.052866999 0.22849
0.16967 -0.051961999 0.22752
0.16953 -0.052489001 0.22871999
0.17509 -0.048386 0.22569001
0.17595001 -0.047129001 0.22521
0.17953999 -0.043244999 0.22302
0.1812 -0.039631002 0.22251999
0.18066999 -0.040550999 0.22261
0.1821 -0.038339 0.22202
0.18237001 -0.037477002 0.22188
0.18246 -0.037255 0.22215
0.18266 -0.035158001 0.22179
0.18314999 -0.033178002 0.22126999
0.18368 -0.031605002 0.22032
0.18432 -0.030947 0.22079
0.18424 -0.03049 0.22126
0.18432 -0.027894 0.22079
0.18407001 -0.027377 0.22063001
0.18368 -0.026934 0.21995001
0.18482 -0.023986001 0.22085001
0.18487 -0.021631001 0.22092
0.18434 -0.017890001 0.22074001
0.18492 -0.016070001 0.22088
0.18356 -0.013239 0.2212
0.18309 -0.011735 0.2209
0.040548999 -0.013407 0.29468
0.042569999 -0.012184 0.29317999
0.043556001 -0.0106 0.29326999
0.043703999 -0.010109 0.29363999
0.044516999 -0.0098085003 0.29266
0.043875001 -0.0097089997 0.29350999
0.18319 -0.0097377999 0.22148
0.044372 -0.0094654001 0.29337001
0.044836 -0.0088616004 0.29330999
0.18289 -0.0091479002 0.22115
0.18147001 -0.0050078998 0.22244
0.18077999 -0.0039979001 0.22244
0.18099999 -0.0041908999 0.22244
0.18089999 -0.0031095 0.22287001
0.18081 -0.0023918999 0.22258
0.18084 -0.0014084 0.22277001
0.18045001 -0.00043685999 0.22266001
0.17991 0.00034822 0.22315
0.17888001 0.0021831 0.22368
0.17799 0.0030116001 0.22409999
0.17771 0.0031024001 0.22339
0.17786001 0.0039435001 0.22443999
0.17767 0.0048036999 0.22441
0.17711 0.0059548002 0.22476999
0.17632 0.0069352002 0.22457001
0.17564 0.0075955 0.22453
0.17543 0.0081409998 0.22514001
0.17431 0.0091714002 0.22594
0.17422 0.0095117996 0.22611
0.17383 0.010469 0.2261
0.17377999 0.01108 0.22634
0.17275999 0.012151 0.22682001
0.17237 0.012812 0.22702999
0.17039999 0.01376 0.22709
0.17037 0.014202 0.22786
0.17132001 0.013556 0.22724999
0.17002 0.013732 0.22619
0.1693 0.014326 0.22624999
0.16957 0.014319 0.2271
0.16971999 0.014758 0.22821
0.16971999 0.014872 0.22837999
0.1692 0.015761999 0.22851001
0.16927999 0.016495001 0.22901
0.16777 0.016658001 0.22788
0.16795 0.017224001 0.22894
0.16772 0.017626001 0.22959
0.16677999 0.018222 0.23005
0.16606 0.018719001 0.23052
0.1653 0.019293001 0.23074999
0.16455001 0.020334 0.23082
0.16498999 0.019859999 0.23098999
0.16378 0.020897999 0.23079
0.16322 0.021190001 0.23063999
0.16272999 0.022126 0.23179001
0.16168 0.022552 0.23236001
0.16118 0.022856001 0.2326
0.15974 0.024749 0.2335
0.15705 0.026467999 0.23475
0.15734001 0.026557 0.23546
0.19393 0.031548999 0.21584
0.19472 0.031490002 0.21584
0.19501001 0.031817 0.21529
0.19554999 0.032451 0.21501
0.19594 0.032880001 0.21472
0.19622999 0.033379 0.21507999
0.1965 0.034152001 0.21461
0.19654 0.034887001 0.21434
0.19600999 0.035870999 0.21488
0.028198 0.035833001 0.30118001
0.19362 0.036860999 0.21639
0.029296 0.036548998 0.30090001
0.028037 0.036683999 0.30133
0.027442001 0.035976 0.30181
0.19397999 0.036660999 0.21586999
0.027423 0.036582001 0.30153999
0.19289 0.037292 0.2167
0.19291 0.03689 0.21691
0.030130999 0.036750998 0.3003
0.030555001 0.037399001 0.29995999
0.031305 0.037407 0.29995999
0.029518999 0.037186999 0.30074
0.19208001 0.037221 0.2173
0.029981 0.037571002 0.30028999
0.192 0.038320001 0.21713001
0.030543 0.038353998 0.30012
0.029746 0.038306002 0.30015001
0.19164 0.039074998 0.21699999
0.19137 0.039221 0.21732999
0.029890999 0.038922001 0.30028999
0.19019 0.040387001 0.21794
0.028043 0.040314998 0.30118001
0.19091 0.040211 0.21736
0.19013 0.040119998 0.2186
0.18946999 0.042056002 0.21828
0.18976 0.041196 0.21822999
0.025878999 0.041343 0.30199999
0.022761 0.041623 0.30406001
0.023337999 0.041983001 0.30329001
0.19001999 0.041907001 0.21766999
0.18967 0.043040998 0.21833
0.1884 0.04301 0.21912
0.024107 0.042059999 0.30307001
0.18769 0.042307999 0.21958999
0.18776999 0.043072 0.219
