# .PCD v0.7 - Point Cloud Data file format
VERSION 0.7
FIELDS x y z
SIZE 4 4 4
TYPE F F F
COUNT 1 1 1
WIDTH 1574
HEIGHT 1
VIEWPOINT 0 0 0 1 0 0 0
POINTS 1574
DATA ascii
0.058683001 0.1197 0.32573
0.10891 0.18611 0.27568999
0.10976 0.18572 0.27687001
0.10752 0.18467 0.27698001
0.11351 0.10476 0.33892
0.050319999 0.064709 0.3188
0.054223999 0.12269 0.31729001
0.045279 0.091891997 0.32859999
0.044263002 0.090682998 0.32743001
0.051901001 0.093790002 0.33504999
0.051587999 0.09302 0.33465001
0.052421998 0.09364 0.33486
0.066441 0.12515 0.33035001
0.062442001 0.17371 0.26194
0.063042998 0.17291 0.26192001
0.064333998 0.17408 0.26251
0.088329002 0.068333 0.35139
0.088388003 0.069358997 0.35108
0.058187 0.056965001 0.32653001
0.060044002 0.057133999 0.32831001
0.059076998 0.057898998 0.32752001
0.075058997 0.14685 0.29359001
0.076844998 0.147 0.30039001
0.068452999 0.15451001 0.25092
0.068186 0.15548 0.25174999
0.085639 0.19546001 0.26640999
0.11147 0.18798 0.27833
0.11155 0.18719 0.27763
0.1122 0.18623 0.27667001
0.062298998 0.17329 0.23704
0.060688 0.17352 0.23717999
0.071327999 0.14293 0.28132001
0.069797002 0.14319 0.28213
0.068324 0.14215 0.28284001
0.058288999 0.17357001 0.23644
0.067590997 0.14211001 0.28235999
0.066243 0.14196999 0.28255001
0.049318001 0.070688002 0.29242
0.049474999 0.071911 0.29405999
0.049107999 0.071312003 0.29247001
0.095076002 0.18808 0.26431999
0.095578998 0.18806 0.26488999
0.096111 0.18614 0.26571
0.094572 0.18674999 0.26458001
0.029479001 0.090493999 0.26807001
0.02939 0.091121003 0.26921001
0.027783999 0.092721999 0.26949999
0.027802 0.095271997 0.2692
0.027553 0.095026001 0.26914999
0.027711 0.097167999 0.26993001
0.027216 0.099413998 0.26899001
0.027414 0.099919997 0.27037999
0.027228 0.10233 0.26973999
0.027872 0.10226 0.26975
0.027207 0.10454 0.27035001
0.025687 0.10654 0.27026001
0.026175 0.10727 0.27089
0.025868 0.10825 0.27059001
0.026161 0.10967 0.27054
0.025922 0.11153 0.27023
0.027701 0.11258 0.27024999
0.027988 0.11511 0.26988
0.027202001 0.11492 0.26887
0.028587 0.11776 0.26969001
0.029002 0.11791 0.26927
0.028935 0.12015 0.26929
0.029352 0.12096 0.26855001
0.030138001 0.12309 0.26820999
0.030928999 0.12402 0.26774001
0.031856 0.12515 0.26714
0.032602999 0.12671 0.26686999
0.032956999 0.12767 0.26675001
0.034389 0.12941 0.26593
0.034474999 0.13085 0.26519999
0.032446999 0.13091999 0.26532999
0.043914001 0.083512001 0.32142001
0.042872 0.084995002 0.32188001
0.10992 0.18514 0.27811
0.049281999 0.10926 0.32909
0.048755001 0.11062 0.32826999
0.048850998 0.094301 0.33017001
0.048491001 0.095333003 0.33105001
0.062215999 0.12361 0.32499999
0.061269999 0.12546 0.32402
0.095972002 0.17781 0.27401999
0.094359003 0.17696001 0.27324
0.046661001 0.10036 0.32936999
0.057252999 0.11764 0.32576999
0.061802 0.13587999 0.31788999
0.10681 0.12294 0.33881
0.045200001 0.072584003 0.32104999
0.061811 0.11945 0.33353001
0.062849 0.12093 0.33311999
0.062876999 0.12186 0.33306
0.052467 0.082351997 0.33443001
0.052437 0.081716001 0.33537
0.042507999 0.091776997 0.32620001
0.047662001 0.085730001 0.32896999
0.043311998 0.089388996 0.32620999
0.045120999 0.077958003 0.32716
0.045281999 0.080099002 0.32745999
0.046032 0.069156997 0.32038
0.046636999 0.070076004 0.32056999
0.047454 0.069340996 0.32299
0.059370998 0.12705 0.32201999
0.062918998 0.1362 0.31935
0.058851 0.062785998 0.32909
0.056940999 0.063464999 0.32960001
0.049167 0.088797003 0.32977
0.047757 0.088376999 0.32888001
0.047575001 0.086960003 0.32864001
0.056143999 0.11598 0.32747999
0.054533001 0.12404 0.3159
0.054014001 0.12574001 0.31567001
0.066097997 0.13624001 0.32257
0.047504 0.1034 0.33069
0.049020998 0.10496 0.33105999
0.047660001 0.10482 0.32969001
0.045793999 0.087228999 0.32596001
0.063313 0.15876 0.25933
0.089073002 0.073063999 0.35321999
0.088688001 0.071865 0.35213
0.055181 0.055121999 0.32232001
0.054375999 0.057117999 0.32170001
0.053211998 0.055603001 0.32119
0.038615 0.063692003 0.29894999
0.039815001 0.065297 0.29943001
0.038231 0.064797997 0.29791999
0.073821999 0.14614999 0.29350999
0.065335996 0.14356001 0.30006999
0.063603997 0.14308999 0.30114001
0.085579999 0.14708 0.29936001
0.062318999 0.14204 0.30017
0.060575999 0.14128 0.29993001
0.037689999 0.082794003 0.27846
0.038415998 0.081345998 0.27899
0.038757 0.081283003 0.27987999
0.036656 0.083044 0.27873001
0.028077999 0.061055999 0.26988
0.028534999 0.062910996 0.27035001
0.029596001 0.063239001 0.27121001
0.059964001 0.17372 0.23762999
0.063606001 0.17429 0.23654
0.064188004 0.14127 0.2818
0.063752003 0.14194 0.28229001
0.057367001 0.17302001 0.23785999
0.061783999 0.14094 0.28281
0.10128 0.17952 0.27754
0.099601001 0.17846 0.27766001
0.095463 0.18983001 0.26447001
0.095651999 0.19093999 0.26552001
0.030458 0.090943001 0.26987001
0.029192001 0.090700001 0.27011999
0.030025 0.090311997 0.26872
0.02884 0.093722999 0.26952001
0.028062001 0.094550997 0.27013999
0.028008999 0.095926002 0.27037999
0.028003 0.098131001 0.27054
0.02727 0.099111997 0.27048999
0.027403001 0.10013 0.27133
0.027811 0.10155 0.27037001
0.027309 0.10348 0.27134001
0.026984001 0.10422 0.27129
0.027194999 0.10592 0.27065
0.026016001 0.10754 0.27153
0.026617 0.10884 0.27127999
0.026515 0.11014 0.27153
0.028119 0.1122 0.27146
0.028065 0.11301 0.27050999
0.028081 0.11349 0.27048999
0.028658999 0.11545 0.2701
0.02908 0.11701 0.27059001
0.029397 0.11863 0.26951
0.029271999 0.11988 0.27032
0.029487001 0.1214 0.27008
0.030804999 0.12294 0.26853999
0.031496 0.12383 0.26912001
0.032536 0.12546 0.26767001
0.033380002 0.12630001 0.26725999
0.033978 0.12754001 0.26729
0.035130002 0.12939 0.2658
0.034439001 0.13101 0.26730001
0.090447001 0.17349 0.2744
0.044828001 0.058455002 0.31330001
0.045595001 0.060245 0.31351
0.043357 0.058805998 0.31297001
0.052074999 0.058912002 0.31874999
0.052048001 0.059367001 0.31937
0.051034 0.059310999 0.31801
0.049281999 0.086958997 0.33133
0.059113 0.12184 0.32240999
0.059179001 0.12172 0.32216001
0.059388999 0.12226 0.32181001
0.041728001 0.092580996 0.32262999
0.059579 0.12255 0.32300001
0.059331 0.12439 0.32234001
0.049695 0.10043 0.33081001
0.050393999 0.097912997 0.33259001
0.050299998 0.099077001 0.33241999
0.064553998 0.13567001 0.32224
0.044583999 0.081445999 0.32677999
0.044900998 0.081743002 0.32499
0.043770999 0.088177003 0.32550001
0.04527 0.087572999 0.32576001
0.064603001 0.12333 0.33281001
0.065755002 0.1239 0.33234
0.065041997 0.12425 0.33160001
0.042994998 0.099448003 0.32516
0.078105003 0.16680001 0.26050001
0.079245001 0.16728 0.26106
0.078629002 0.16663 0.26188999
0.043756001 0.10351 0.32418001
0.046381 0.070332997 0.32415
0.085674003 0.17354999 0.27511001
0.085546002 0.17216 0.27316999
0.08495 0.17245001 0.27243
0.047756001 0.090566002 0.32842001
0.049943998 0.11039 0.32949999
0.060665999 0.13301 0.31823
0.061055999 0.13366 0.31867999
0.043529 0.081572004 0.32172
0.043008 0.085697003 0.32225999
0.064002 0.12278 0.33137
0.064083003 0.12439 0.3308
0.066379003 0.13602 0.32394001
0.094375998 0.077871002 0.35697001
0.093310997 0.077958003 0.35679001
0.093565002 0.076013997 0.35676
0.060465999 0.10362 0.33937001
0.065808997 0.13324 0.32567999
0.066712998 0.13437 0.32508001
0.089114003 0.071355999 0.35398
0.089748003 0.074321002 0.35315001
0.088914998 0.073985003 0.35167
0.072648004 0.14557 0.29392001
0.027832 0.061356001 0.27261999
0.027427001 0.060761999 0.2714
0.027355 0.059746001 0.27197999
0.028935 0.062213 0.27094001
0.079558998 0.19171 0.26198
0.032432001 0.064558998 0.27063
0.029185999 0.063676998 0.27085
0.060472999 0.14057 0.28283
0.058717001 0.13973001 0.28288999
0.051817 0.1336 0.28814
0.10494 0.18433 0.27379999
0.10586 0.18443 0.2753
0.056223001 0.13913999 0.28296
0.055045001 0.13912 0.28345001
0.053750999 0.13796 0.28272
0.094826996 0.17624 0.27770999
0.093833998 0.17543 0.27739
0.095090002 0.17718001 0.27693
0.029649001 0.091729999 0.27015001
0.030694 0.090490997 0.26971
0.029627999 0.093197003 0.27056
0.028902 0.093996003 0.27078
0.028377 0.096116997 0.27246001
0.028367 0.097254001 0.27208
0.027864 0.098844998 0.27285001
0.027381999 0.099785 0.27184999
0.027402001 0.10191 0.27171001
0.028299 0.10318 0.27122
0.028196 0.10403 0.27261999
0.028356999 0.10621 0.2723
0.027375 0.10689 0.27250001
0.026644001 0.10847 0.27223
0.027166 0.11063 0.27221999
0.028413 0.1115 0.27214
0.028566999 0.11288 0.27151
0.028873 0.11391 0.27111
0.028631 0.11576 0.27146
0.028475 0.11707 0.27131999
0.02977 0.11879 0.27168
0.030065 0.11997 0.27046999
0.029610001 0.12073 0.27037001
0.031362999 0.1218 0.27011001
0.031674001 0.12438 0.26947999
0.033608001 0.12483 0.26859
0.034540001 0.12695999 0.26888001
0.034734 0.12797999 0.26787999
0.034793999 0.12988 0.26789999
0.035305999 0.13099 0.26762
0.047587998 0.090966001 0.32894999
0.045703001 0.091315001 0.32881001
0.035943002 0.13107 0.26853001
0.035471 0.12995 0.26772001
0.060433 0.13054 0.32137001
0.061344001 0.092858002 0.34176999
0.062116001 0.093557999 0.34228
0.061423998 0.095528997 0.34139001
0.11346 0.093493 0.3409
0.043853998 0.093069002 0.32716
0.044268999 0.091211997 0.32703999
0.045097999 0.10929 0.32449001
0.047022998 0.11101 0.32539001
0.045818001 0.077437997 0.32602
0.044594001 0.095866002 0.32675001
0.061175998 0.13869999 0.31077999
0.061062001 0.13887 0.31028
0.060619 0.13771001 0.31132999
0.045219999 0.085942 0.32543999
0.046565998 0.11178 0.32347
0.045538001 0.11154 0.32383001
0.11635 0.12185 0.331
0.11657 0.12081 0.33133
0.11509 0.12177 0.32997999
0.054669 0.062786996 0.32387
0.11235 0.080329001 0.35798001
0.11253 0.082718 0.35800999
0.11116 0.082154997 0.35883999
0.047049001 0.071791001 0.32479
0.062827997 0.12031 0.33193001
0.063545004 0.12302 0.33138999
0.068089999 0.13541 0.32565001
0.067576997 0.13747001 0.32510999
0.066967003 0.13608 0.32361999
0.068306997 0.13819 0.32328001
0.054598998 0.11223 0.33205
0.068455003 0.13812 0.32514
0.069316 0.13768999 0.32519001
0.092051998 0.079049997 0.34931001
0.091583997 0.080614999 0.34920001
0.044762999 0.10647 0.3242
0.045444999 0.11124 0.32326001
0.051451001 0.096396998 0.33408001
0.051732 0.096648999 0.33375001
0.040957998 0.092331 0.32297999
0.084329002 0.060786001 0.34028
0.085591003 0.062789001 0.34235999
0.083903 0.062004998 0.34090999
0.090155996 0.074785002 0.35304999
0.090356 0.075115003 0.35104999
0.070932001 0.14534999 0.29416999
0.060732 0.1017 0.33972999
0.026505001 0.058256999 0.27368999
0.025712 0.057218999 0.27355
0.024975 0.057016 0.27439001
0.027562 0.058827002 0.27305999
0.027729001 0.061368998 0.27355
0.029108001 0.061935 0.27268001
0.029839 0.063584998 0.27094001
0.026753001 0.058935001 0.27179
0.052779 0.13752 0.28321001
0.10698 0.18486001 0.2755
0.054876 0.13584 0.28938001
0.094113 0.19165 0.21518999
0.094223 0.19001999 0.26469001
0.030494001 0.089818001 0.26988
0.031158 0.089034997 0.26934001
0.036509 0.052212 0.28419
0.038013998 0.052400999 0.28275001
0.031161999 0.091807 0.27088001
0.030975999 0.089841999 0.27105999
0.029584 0.093080997 0.27202001
0.029397 0.094098002 0.27219999
0.028181 0.096217997 0.27289
0.027902 0.097685002 0.27358001
0.027534001 0.099532001 0.273
0.027702 0.099550001 0.27351001
0.028261 0.10138 0.27346
0.028116001 0.10304 0.27276999
0.028027 0.10445 0.27373999
0.028091 0.10545 0.27247
0.026815001 0.10699 0.27291
0.027759001 0.10889 0.27287999
0.028554 0.1096 0.27285999
0.027995 0.11087 0.273
0.028942 0.11201 0.27201
0.029557999 0.11424 0.27366
0.029397 0.11535 0.27167001
0.029392 0.11702 0.27188
0.029727999 0.11809 0.27125999
0.030177999 0.11953 0.27204001
0.031175001 0.12118 0.27182001
0.032295998 0.12172 0.27114001
0.032722998 0.12371 0.27034
0.033528 0.12504999 0.27035001
0.034021001 0.12578 0.26927999
0.035468001 0.12758 0.26918
0.035064999 0.132 0.26758999
0.048372999 0.075291999 0.3276
0.04445 0.075811997 0.32210001
0.10375 0.10853 0.34516001
0.0484 0.075266004 0.32677999
0.11268 0.095881 0.34103999
0.059957001 0.11986 0.33234999
0.043742001 0.078854002 0.32179001
0.067064002 0.12571999 0.33133
0.071911998 0.13273001 0.33168
0.051883001 0.11573 0.32633999
0.043157 0.1097 0.32091999
0.043428 0.11047 0.32052001
0.050066002 0.088016003 0.33442
0.048858002 0.074768998 0.32745999
0.049578998 0.071396001 0.32675001
0.056952 0.11432 0.33035001
0.096750997 0.08224 0.35709
0.047708001 0.072059996 0.32567999
0.047350001 0.072823003 0.32615
0.063484997 0.11605 0.33768001
0.064223997 0.1168 0.33732
0.063371003 0.11446 0.33783999
0.063522004 0.11466 0.33952001
0.06329 0.11352 0.33813
0.064595997 0.11274 0.33823001
0.094993003 0.079507999 0.35725001
0.063392997 0.11025 0.33829999
0.063499004 0.10987 0.33983999
0.062532999 0.11166 0.33787
0.057041999 0.061964002 0.24488001
0.059172001 0.064260997 0.24654999
0.093400002 0.17657 0.27140999
0.10492 0.1059 0.34562999
0.11241 0.077234 0.35846999
0.11305 0.078529999 0.35822999
0.11128 0.079689004 0.35843
0.058098 0.15561999 0.26328999
0.057619002 0.15528999 0.26341999
0.057720002 0.15421 0.26350001
0.090199001 0.076687001 0.35223001
0.090210997 0.077033997 0.35157001
0.064765997 0.1118 0.33897999
0.027212 0.058290999 0.27548
0.027365001 0.059110999 0.27388
0.028936001 0.060486 0.27426001
0.10815 0.061283998 0.34920001
0.10741 0.061416 0.34963
0.10582 0.059796002 0.34729999
0.089060999 0.18803 0.21958999
0.088747002 0.1895 0.21894
0.088216998 0.18856999 0.21938001
0.088404998 0.18832999 0.21935
0.086710997 0.18918 0.21882001
0.086631 0.18798 0.21949001
0.057711001 0.13853 0.29078001
0.059411999 0.139 0.29141
0.057050999 0.14778 0.26831999
0.056350999 0.14909001 0.26738
0.093878999 0.18793 0.26374
0.094710998 0.18268 0.26716
0.094851002 0.18152 0.26874
0.031456999 0.089992002 0.27219999
0.030941 0.091559999 0.27270001
0.030156 0.093007997 0.27221999
0.029601 0.094958998 0.27311999
0.029198 0.096184999 0.27381
0.029033 0.097243004 0.27458
0.028259 0.098411001 0.27340999
0.028383 0.10065 0.27473
0.029073 0.10209 0.27418
0.028344 0.1027 0.27425
0.028431 0.10433 0.27386001
0.028569 0.1058 0.27331999
0.028905001 0.1062 0.27498999
0.029007999 0.10949 0.27469999
0.028883001 0.10995 0.27351999
0.029554 0.11105 0.27377999
0.028891999 0.11301 0.27346
0.029366 0.11472 0.27239001
0.029522 0.11585 0.27318001
0.030205 0.11666 0.27337
0.030429 0.11847 0.27239001
0.030773999 0.11917 0.27219
0.032242998 0.12117 0.27236
0.031962 0.12211 0.27168
0.032993 0.12399 0.27076
0.034139 0.12504999 0.27081001
0.034639001 0.12638 0.27052
0.036056999 0.12736 0.2701
0.035913002 0.1292 0.27006999
0.036088001 0.13023999 0.26984
0.036754001 0.12958001 0.27035001
0.03726 0.13005 0.27050999
0.042452 0.092894003 0.32424
0.060729001 0.11365 0.33493
0.060791999 0.11498 0.33471
0.059425 0.1143 0.33397001
0.058966 0.11278 0.33491999
0.059647001 0.11253 0.33438
0.043255001 0.098089002 0.32359001
0.042686999 0.097539999 0.32286999
0.05886 0.12693 0.32091999
0.053649001 0.0748 0.33298001
0.056088001 0.12955999 0.31334001
0.083622999 0.066382997 0.34299001
0.083871998 0.067423001 0.34376001
0.069316998 0.13099 0.33026999
0.064235002 0.11124 0.34031001
0.048457999 0.089565001 0.32956001
0.092220001 0.081747003 0.34889999
0.092247002 0.080739997 0.34977999
0.092905998 0.081009999 0.34990999
0.051470999 0.089331001 0.33414
0.067854002 0.12437 0.33412999
0.067677997 0.12413 0.33453
0.068618 0.12499 0.33309999
0.063193999 0.10823 0.33792999
0.062941 0.10833 0.33812001
0.062063001 0.10902 0.33761999
0.055374 0.1278 0.31518
0.054889999 0.12806 0.31356001
0.053872999 0.12684 0.31417
0.061999001 0.10611 0.33884001
0.062187999 0.10761 0.33875
0.061583001 0.10714 0.33866
0.090379998 0.078492999 0.35205999
0.091387004 0.078638002 0.35082999
0.092275001 0.078915 0.3511
0.091991 0.078436002 0.35144001
0.093004003 0.080683 0.35010001
0.093703002 0.082243003 0.35053
0.092923 0.082075998 0.34933001
0.095087998 0.083148003 0.35045001
0.094348997 0.082855999 0.34953001
0.094910003 0.084844999 0.34968001
0.094238997 0.084144004 0.34843001
0.059032001 0.15617 0.26153001
0.020525999 0.16361 0.25187001
0.092843004 0.12574001 0.34268999
0.094653003 0.12559 0.34274
0.092537999 0.12685999 0.34229001
0.065269999 0.11844 0.33761999
0.065476999 0.11882 0.33686
0.064549997 0.12047 0.33590001
0.027703 0.058201998 0.27568999
0.026784001 0.057278 0.27496001
0.02753 0.057068001 0.27513
0.027791999 0.059946999 0.27546
0.028837999 0.061105002 0.27445
0.048009001 0.1159 0.31952
0.046778999 0.11467 0.32054999
0.031502999 0.062945001 0.27279001
0.033004999 0.065444 0.27203
0.095864996 0.086083002 0.34953001
0.045456 0.15029 0.26923999
0.045338001 0.14955001 0.26927
0.05108 0.17278001 0.24082001
0.10835 0.19712999 0.21163
0.10949 0.19726001 0.21373001
0.044470001 0.17253 0.24165
0.10084 0.19484 0.21274
0.042886 0.075645998 0.31759
0.04109 0.077183001 0.31725001
0.042803999 0.075985998 0.31705999
0.049113002 0.17291 0.25667
0.034107 0.055507001 0.29909
0.034394 0.054198001 0.29835001
0.034550998 0.053736001 0.29969001
0.033659998 0.055466998 0.29977
0.033197001 0.088473998 0.27245
0.032393999 0.090212002 0.27360001
0.031215999 0.091898002 0.27307999
0.031001 0.094260998 0.27373999
0.030946 0.095172003 0.27362001
0.029755 0.095265999 0.27393001
0.028200001 0.098546997 0.27496001
0.029189 0.099858999 0.27495
0.028960001 0.1001 0.27502999
0.028239001 0.10154 0.27508
0.028379001 0.10294 0.27430999
0.028202999 0.10413 0.27474999
0.028898001 0.10581 0.27443001
0.029039999 0.10716 0.2746
0.029448001 0.10819 0.27474999
0.030591 0.11028 0.27496001
0.030237 0.112 0.27430001
0.030909 0.11226 0.27438
0.030974999 0.11498 0.27467
0.031124 0.11604 0.27386999
0.030958001 0.1168 0.27293
0.031094 0.118 0.27349001
0.032411002 0.11932 0.27272001
0.032616001 0.1205 0.27237001
0.032673001 0.1227 0.27200001
0.032977998 0.12333 0.2721
0.034021001 0.12587 0.27204001
0.035135999 0.12606999 0.27153
0.035805002 0.12717 0.27054
0.038056001 0.1329 0.26966
0.036736999 0.13186 0.26841
0.042911999 0.10529 0.32203001
0.042913999 0.091885 0.32539999
0.042617999 0.093351997 0.32497001
0.044178002 0.085102998 0.32418999
0.044406999 0.094187997 0.32727
0.055406999 0.063937999 0.32934001
0.053394999 0.12206 0.31441
0.058022 0.13426 0.31242999
0.057085 0.13289 0.31321001
0.043315001 0.088022001 0.32585999
0.059241999 0.1601 0.26152
0.057123002 0.16023 0.26080999
0.058192998 0.1585 0.26203001
0.058972999 0.13534001 0.31288999
0.064483002 0.15712 0.25821
0.11528 0.073591001 0.35549
0.11557 0.07457 0.35606
0.1154 0.073893003 0.35606
0.069320001 0.12918 0.33133
0.043611001 0.080016002 0.32126001
0.063556999 0.11206 0.33994001
0.050723001 0.10246 0.33375999
0.044647001 0.086567 0.32536
0.050657999 0.091447003 0.33467001
0.06397 0.12018 0.33559
0.064055003 0.12103 0.33425999
0.070635997 0.12502 0.33374
0.070786998 0.12664001 0.33421001
0.06944 0.12684999 0.33298999
0.11019 0.093014002 0.34265
0.10988 0.092174001 0.34334001
0.096098997 0.087416001 0.34821999
0.097135 0.086415 0.34838
0.098642997 0.17747 0.27794999
0.099274002 0.17873 0.27996999
0.062872 0.1382 0.31779999
0.046966001 0.079602003 0.32820001
0.069939002 0.16430999 0.26288
0.070779003 0.16682 0.26561999
0.060860999 0.11341 0.33684999
0.062780999 0.12199 0.33083999
0.061567001 0.12093 0.33109999
0.055452 0.059618998 0.32260001
0.11317 0.076234996 0.3572
0.11408 0.076926999 0.35709
0.1136 0.077261999 0.35795
0.060988002 0.12297 0.32429999
0.029438 0.059089001 0.27693
0.029747 0.059728999 0.27590999
0.028698999 0.060056001 0.27590001
0.11175 0.18935999 0.27423
0.1135 0.18988 0.27487001
0.032104 0.063777998 0.27408001
0.035349999 0.066124998 0.27256
0.041728999 0.17253 0.25854
0.042353 0.17281 0.25889
0.094024003 0.12626 0.34145999
0.072607003 0.14462 0.29249001
0.069734998 0.14448 0.29306999
0.039675001 0.080315001 0.26995
0.039873999 0.081107996 0.27113
0.026076 0.095578998 0.26301
0.093713999 0.18074 0.26684999
0.094021998 0.17904 0.26664001
0.031886999 0.092234999 0.27362999
0.031622 0.093139999 0.27520001
0.031578001 0.094472997 0.27443999
0.030417999 0.095242999 0.27491999
0.029689999 0.097663 0.27544999
0.028917 0.098162003 0.27601001
0.030169001 0.10086 0.27555001
0.028449999 0.10152 0.27557999
0.029030999 0.10302 0.27487001
0.028835 0.105 0.27566999
0.029185999 0.10641 0.27598
0.029704001 0.10682 0.27610999
0.029925 0.108 0.27522999
0.030128 0.10999 0.27507001
0.030075001 0.11052 0.27502999
0.030901 0.1128 0.27552
0.031323999 0.11448 0.27493
0.030892 0.11543 0.27552
0.031006999 0.11745 0.27395999
0.031842999 0.11806 0.27399001
0.032492001 0.11946 0.27397001
0.033302002 0.12098 0.27296999
0.033828001 0.12241 0.27237001
0.033787999 0.1232 0.27274001
0.034418002 0.12581 0.27259001
0.035381999 0.12549999 0.27210999
0.036548998 0.12730999 0.27072001
0.036901999 0.12980001 0.27125001
0.038120002 0.13079 0.27078
0.11175 0.093907997 0.34235999
0.11102 0.094223998 0.34229001
0.048021998 0.078405 0.32936999
0.048822001 0.088620998 0.33046001
0.059941001 0.11935 0.33256999
0.060644001 0.11878 0.33329999
0.064975999 0.13912 0.31748
0.061484002 0.11456 0.33636999
0.047182001 0.079944998 0.32857001
0.068883002 0.12775999 0.33081999
0.073705003 0.16712999 0.26525
0.073142 0.16478001 0.26258001
0.067852996 0.12676001 0.33151999
0.065122999 0.1218 0.33423001
0.063412003 0.1202 0.33506
0.064686 0.1227 0.33384001
0.065897003 0.12388 0.33296001
0.065364003 0.11284 0.33930999
0.064250998 0.11491 0.33945999
0.071346 0.12664001 0.33497
0.072273999 0.12604 0.33638999
0.072026998 0.1278 0.33443001
0.048009999 0.073624 0.32697001
0.048443001 0.071258001 0.32633001
0.10794 0.11696 0.34073001
0.10655 0.11709 0.34153
0.10719 0.11526 0.34176999
0.065655001 0.12221 0.33428001
0.064900003 0.1212 0.33627
0.096561 0.18492 0.26554
0.054992002 0.060727999 0.3222
0.053803999 0.062105 0.32146999
0.047610998 0.098467 0.33067
0.046466 0.098095 0.3292
0.047185998 0.096873 0.32866001
0.048114002 0.099224001 0.33046001
0.046328999 0.081869997 0.32799
0.046875998 0.082028002 0.32771999
0.11193 0.18985 0.21726
0.11105 0.19176 0.21743
0.1104 0.18948001 0.21719
0.05821 0.1529 0.26361999
0.056745 0.154 0.26436001
0.10994 0.18782 0.21691
0.036536001 0.061576001 0.25904
0.037882 0.062624 0.26056999
0.037379999 0.061147999 0.25893
0.072301999 0.16644999 0.26486999
0.066575997 0.13545001 0.32427999
0.066722997 0.12511 0.32861
0.064759001 0.12386 0.32876
0.047088999 0.10382 0.32960999
0.046907 0.10488 0.32896999
0.048395 0.10641 0.32918999
0.048976 0.10875 0.32957
0.030723 0.062289 0.27456999
0.030647 0.062309999 0.27395999
0.071809001 0.12331 0.33783001
0.072826996 0.12395 0.33702999
0.071411997 0.12429 0.33715999
0.032053001 0.061399002 0.2753
0.032995999 0.063275002 0.27511999
0.070688002 0.13613001 0.32649001
0.03483 0.064627998 0.27427
0.037319999 0.065470003 0.27314001
0.098300003 0.18855999 0.21907
0.097485997 0.18861 0.21960001
0.096253999 0.18846001 0.21881001
0.094602004 0.18880001 0.22008
0.068790004 0.14442 0.29233
0.078602999 0.13661 0.33241001
0.076907001 0.13652 0.33289
0.077932 0.13693 0.33425
0.038371999 0.080245003 0.27287999
0.095730998 0.17674001 0.27901
0.094803996 0.17659999 0.27901
0.032770999 0.092208996 0.27627
0.031787001 0.092586003 0.27592
0.031191999 0.094917998 0.27577999
0.031284999 0.095517002 0.27612999
0.030716 0.096979998 0.27574
0.031181 0.098284997 0.27652001
0.030114001 0.1002 0.27647999
0.029547 0.10181 0.27731001
0.029522 0.10312 0.27719
0.029270001 0.10482 0.27643999
0.030143 0.10521 0.27641001
0.030232999 0.10711 0.27684
0.030022999 0.10928 0.27680001
0.031109 0.10953 0.27605
0.030421 0.11169 0.27643001
0.030353 0.11294 0.27627999
0.030856 0.11451 0.27601999
0.032354999 0.11592 0.27587
0.032340001 0.11662 0.27562001
0.033041 0.1189 0.27495
0.033542 0.1193 0.27476999
0.034247 0.12158 0.27410001
0.034090001 0.12187 0.27425
0.034568999 0.12405 0.27476001
0.036238 0.1257 0.27368
0.035684001 0.12619001 0.27336001
0.035992 0.12784 0.27175999
0.037733 0.12924001 0.27160001
0.038943 0.13112 0.27169001
0.037572 0.066004999 0.27158001
0.10474 0.18388 0.27519
0.040755998 0.090024002 0.32214999
0.047635 0.080967002 0.32885
0.072967 0.16716 0.26620001
0.060334999 0.057360999 0.32833001
0.061177999 0.057606 0.32942
0.059749998 0.059535999 0.32861999
0.068631001 0.13386001 0.32596999
0.068902999 0.13349999 0.32743001
0.066878997 0.12574001 0.33284
0.088051997 0.073875003 0.35073999
0.061163001 0.13255 0.31986001
0.061494999 0.13339999 0.31992999
0.071244001 0.12565 0.33605
0.071172997 0.12594999 0.33704001
0.048388999 0.073022999 0.3265
0.048379 0.1066 0.32773
0.048657998 0.089740999 0.33043
0.055351 0.11716 0.32383999
0.057702001 0.11869 0.32229999
0.056791998 0.11871 0.32192999
0.055452 0.11371 0.33164999
0.055720001 0.11333 0.33047
0.060732 0.12794 0.32389
0.062123001 0.12794 0.32438999
0.050955001 0.093955003 0.33379
0.058715999 0.12811001 0.32102999
0.059179001 0.12988 0.32075
0.067203 0.12868001 0.32822001
0.067039996 0.12981001 0.32773
0.059287 0.17482001 0.25725999
0.060796998 0.17478999 0.25816
0.059661999 0.17220999 0.25994
0.060178 0.17459001 0.25639999
0.11431 0.093588002 0.34073001
0.11462 0.095121004 0.34020001
0.070100002 0.16344 0.26065001
0.068237998 0.16319001 0.26093999
0.069378003 0.16181 0.26003999
0.052386001 0.095206 0.33495
0.086337999 0.072405003 0.34599
0.086910002 0.070698 0.34648001
0.031114001 0.060936 0.27770999
0.032159001 0.062707998 0.27647999
0.031587999 0.061159998 0.27609
0.033555001 0.063130997 0.27566001
0.10554 0.081859 0.36048999
0.10652 0.081499003 0.36008
0.10602 0.083259001 0.36047
0.059967 0.11645 0.33294001
0.058867 0.11692 0.33335
0.023469999 0.11435 0.25729999
0.037705999 0.065412998 0.27292001
0.036169998 0.066094004 0.27237001
0.028579 0.16621999 0.26051
0.028658999 0.16494 0.26111001
0.029336 0.16559 0.26223001
0.073709004 0.14608 0.29187
0.064580001 0.14142001 0.29188001
0.067332998 0.14328 0.29205
0.067075998 0.14386 0.29157999
0.080300003 0.16855 0.26666999
0.080489002 0.16821 0.26525
0.082105003 0.16898 0.26703
0.033282001 0.089652002 0.27647999
0.032572001 0.091204002 0.27592999
0.044714 0.051281001 0.27864999
0.043809 0.051459 0.27754
0.046121001 0.051686998 0.278
0.03218 0.093667001 0.27663001
0.031122001 0.094400004 0.27658001
0.030874999 0.096075997 0.27735001
0.030774999 0.097172 0.27722999
0.031265002 0.099008001 0.27739
0.031200999 0.099812001 0.27759999
0.030789001 0.10272 0.27724001
0.029274 0.10295 0.27724999
0.029833 0.10402 0.27803001
0.030529 0.10631 0.27752
0.030637 0.10695 0.27717999
0.031115999 0.10799 0.27663001
0.0317 0.10951 0.27702999
0.031211 0.11135 0.27733001
0.031288002 0.11339 0.27748001
0.031141 0.11465 0.27733001
0.031248 0.11581 0.27638999
0.032805 0.11792 0.27700001
0.033183001 0.11785 0.27597001
0.034139998 0.11902 0.27544999
0.034201998 0.12121 0.27542001
0.035291001 0.12301 0.27419999
0.035838 0.12452 0.27443001
0.035797 0.12508 0.27388999
0.036152001 0.1268 0.27395999
0.037888002 0.12826 0.27340999
0.038325999 0.12999 0.2721
0.040100001 0.13095 0.27193999
0.041094001 0.13225999 0.27276
0.040743001 0.13183001 0.2726
0.039349999 0.13248999 0.27133
0.062541999 0.13125999 0.32346001
0.061852999 0.11577 0.33526
0.056997001 0.12128 0.32086
0.056366 0.11973 0.31919
0.054650001 0.11642 0.32460001
0.047536999 0.10474 0.32865
0.046596002 0.10426 0.32901999
0.046978999 0.10443 0.32989001
0.046686999 0.10633 0.32738999
0.056501999 0.12693 0.31781
0.10443 0.11035 0.34534001
0.087103002 0.070041001 0.34674999
0.059053 0.13451 0.31665
0.062710002 0.14027999 0.31152999
0.047759999 0.10256 0.33091
0.047245 0.1031 0.33072999
0.086016998 0.067020997 0.34667
0.085735001 0.068348996 0.34652001
0.045467 0.11108 0.32359001
0.054072 0.12468 0.31536999
0.056088999 0.13045 0.31338
0.0898 0.071315996 0.35414001
0.089486003 0.071979001 0.35394999
0.089828998 0.068935998 0.35415
0.091265999 0.074532002 0.35398999
0.090108998 0.075570002 0.35352999
0.090466 0.075611003 0.35284001
0.067295 0.13309 0.32545
0.067608997 0.13165 0.32567999
0.067596003 0.13195001 0.32710001
0.048151001 0.098618001 0.33072999
0.066175997 0.13116001 0.32644001
0.067956999 0.13019 0.32800999
0.059923999 0.17200001 0.26008001
0.059579 0.17285 0.25962001
0.060747001 0.17507 0.25906
0.044287 0.13526 0.27261001
0.045770999 0.13491 0.27425
0.045974001 0.13653 0.27364001
0.091485001 0.077448003 0.35234001
0.086046003 0.065810002 0.34672999
0.060369998 0.12627 0.32322001
0.11239 0.083355002 0.35861
0.11099 0.083655 0.35800001
0.025172999 0.097507 0.25968
0.025013 0.096017003 0.25762999
0.024807001 0.096051 0.25962999
0.030905001 0.060927 0.27711001
0.032196999 0.062527999 0.27728999
0.030149 0.059852 0.27715999
0.030874001 0.059595 0.27715001
0.033953998 0.063084997 0.27638
0.034963001 0.064990997 0.27544999
0.036729001 0.065416001 0.27445
0.0381 0.067142002 0.27272001
0.074444003 0.1459 0.29249999
0.039554998 0.068268999 0.27336001
0.039377 0.069953002 0.27449
0.03946 0.070219003 0.27485001
0.073412001 0.14232001 0.27658001
0.072696999 0.14261 0.27724001
0.073794998 0.1425 0.27838999
0.034993 0.17254999 0.24857
0.034699 0.17227 0.24843
0.025761001 0.16876 0.24846999
0.039060999 0.17281 0.24675
0.038801 0.17319 0.24737
0.097632997 0.18658 0.22024
0.039678 0.079098001 0.2728
0.038481001 0.081381001 0.27362999
0.069342002 0.16095001 0.25365999
0.070404999 0.16215 0.25442001
0.068148002 0.16221 0.25402999
0.032908 0.091785997 0.27779999
0.033075001 0.092070997 0.27792999
0.032786999 0.094833001 0.27735001
0.030932 0.095931001 0.27790999
0.031943001 0.097318001 0.27742001
0.032039002 0.098963 0.27886
0.031124 0.1002 0.27829999
0.03022 0.10194 0.27805001
0.030757001 0.10332 0.27842
0.031207001 0.1047 0.27836999
0.031342998 0.10636 0.27862999
0.030827001 0.10733 0.27833
0.031798001 0.10855 0.27792999
0.031472001 0.10996 0.27843001
0.03088 0.112 0.27825001
0.03122 0.11293 0.27849001
0.031651001 0.11394 0.27792001
0.032060999 0.11526 0.27759999
0.03235 0.11736 0.27792999
0.033881001 0.11857 0.27761999
0.034389999 0.12003 0.27691001
0.035326999 0.12064 0.27562001
0.036695998 0.12235 0.27518001
0.035946999 0.12387 0.27535
0.036506001 0.12483 0.27551001
0.036906999 0.12656 0.27461001
0.037879001 0.12767 0.27447999
0.0385 0.12909 0.27326
0.038982 0.13128 0.27360001
0.058784999 0.13864 0.29668999
0.056395002 0.13736001 0.29791999
0.071626 0.12905 0.33419999
0.070949003 0.12669 0.33436
0.059771001 0.13045 0.3204
0.055323999 0.10736 0.33594
0.088102996 0.061043002 0.34628999
0.087268002 0.062531002 0.3459
0.087301999 0.061524998 0.34544
0.058717001 0.12559 0.32139999
0.091799997 0.079351 0.35225999
0.086851001 0.063522004 0.34766999
0.092821002 0.080554001 0.35198
0.093460999 0.081909999 0.35166001
0.087944001 0.062314998 0.34694001
0.086092003 0.063607 0.34663999
0.094734997 0.084068999 0.35124999
0.059785001 0.11873 0.33065
0.060531002 0.12011 0.33052
0.057952002 0.13135 0.31650999
0.057907 0.13149001 0.31623
0.073748998 0.12933999 0.33605999
0.073408 0.12944999 0.33496001
0.060819 0.17031001 0.26122999
0.060660001 0.17194 0.26143
0.060123 0.17135 0.26098999
0.061342001 0.17293 0.26010001
0.061880998 0.17470001 0.25986001
0.062816001 0.17599 0.25942999
0.063620999 0.17756 0.26032001
0.10553 0.10417 0.34428999
0.1054 0.10562 0.34421
0.10734 0.11292 0.34275001
0.050246999 0.061691001 0.31558999
0.048548002 0.060577001 0.31654999
0.053149 0.10823 0.33327001
0.10654 0.11985 0.33985999
0.065944001 0.13973001 0.31715
0.056508999 0.094024003 0.33825001
0.056832001 0.093808003 0.33892
0.055815 0.095879003 0.33892
0.032887001 0.061310001 0.27816999
0.033833001 0.061880998 0.2782
0.034616999 0.063533999 0.27652001
0.036276001 0.064634003 0.27669999
0.03754 0.066917002 0.27584001
0.038534001 0.067707002 0.2748
0.038855001 0.068618 0.27485999
0.044964001 0.068525001 0.29603001
0.046806 0.069044001 0.29683
0.047215 0.068922997 0.29582
0.074267 0.16410001 0.25859001
0.075708002 0.16513 0.25858
0.075553 0.16546001 0.25942999
0.080574997 0.18571 0.2261
0.081068002 0.18471999 0.22570001
0.033544 0.090283997 0.27706999
0.033852998 0.091338001 0.27792999
0.033863001 0.090466 0.27803001
0.033369001 0.092352003 0.27790999
0.032480001 0.094245002 0.27796
0.032347001 0.095152996 0.2784
0.032421999 0.097786002 0.27917001
0.032581002 0.097793996 0.27928001
0.032182001 0.10067 0.27893999
0.031950001 0.10156 0.27871001
0.031137999 0.10339 0.27860999
0.031514999 0.10471 0.27983001
0.031218 0.10578 0.27829
0.032524999 0.1069 0.27882001
0.032981999 0.10841 0.27862999
0.031755 0.10903 0.27851999
0.032065 0.1113 0.2791
0.032212 0.11283 0.27908
0.032575998 0.11386 0.27851
0.032526001 0.11633 0.27827999
0.032898001 0.11751 0.27794001
0.034593001 0.1184 0.27790999
0.034717999 0.11978 0.27677
0.035535 0.12162 0.27702999
0.035436001 0.12251 0.27656999
0.035457 0.12438 0.27632999
0.036304001 0.12561999 0.27555999
0.036988001 0.12625 0.27507001
0.038552001 0.12801 0.27493
0.039422002 0.12903 0.27427
0.040394001 0.13156 0.27443001
0.041510001 0.13237 0.27298
0.042776 0.13330001 0.27254999
0.042027 0.13350999 0.27164
0.060559999 0.11249 0.33610001
0.032579999 0.13214999 0.26633999
0.031741999 0.13237999 0.26514
0.029837999 0.16441999 0.23036
0.028725 0.16517 0.23147
0.030115001 0.16566999 0.23006
0.072145 0.12871 0.33353999
0.064851999 0.11351 0.34060001
0.077306002 0.16626 0.25946999
0.076337002 0.16590001 0.26030001
0.1053 0.12045 0.33963999
0.062311999 0.13593 0.31981
0.11178 0.18465 0.21709
0.11188 0.18611 0.21752
0.030592 0.16425 0.23009001
0.062490001 0.10859 0.33849001
0.052655 0.097167999 0.33425
0.058706999 0.11739 0.33116001
0.10985 0.11497 0.34079999
0.10955 0.11611 0.34055999
0.055543002 0.058899 0.32168001
0.049065001 0.097545996 0.32991999
0.042835001 0.1013 0.32264
0.061662 0.17383 0.26124001
0.062918 0.17418 0.26133001
0.063281998 0.17624 0.26128
0.065219998 0.17869 0.25903001
0.11348 0.075212002 0.35672
0.030472999 0.16778 0.23195
0.031291999 0.16726001 0.23054001
0.11311 0.18161 0.21541999
0.11094 0.19093999 0.21717
0.10944 0.18970001 0.21674
0.031261001 0.060573 0.27847999
0.033220001 0.060392 0.27915999
0.033018999 0.060720999 0.27914
0.032359 0.059230998 0.27895999
0.034283999 0.061928 0.27866
0.036063001 0.064139001 0.27794999
0.036795001 0.064948998 0.27748999
0.037464999 0.065978996 0.27678999
0.038214002 0.067202002 0.27638
0.03909 0.068731003 0.27592
0.038059 0.070052996 0.27631
0.038633 0.071167998 0.27610001
0.039501999 0.071955003 0.27463001
0.10852 0.12454 0.33590001
0.10816 0.18404 0.27866
0.10729 0.18399 0.28035
0.10832 0.18203001 0.27745
0.080315001 0.18522 0.22654
0.080339998 0.14853001 0.31182
0.083152004 0.14815 0.31279999
0.035275001 0.088327996 0.27836999
0.034568001 0.090241998 0.27860999
0.034067001 0.091756001 0.27829
0.034198001 0.092845 0.27884001
0.032444 0.094189003 0.27904001
0.033732001 0.095640004 0.27959001
0.032476999 0.096956998 0.27947
0.033087999 0.099266 0.27864
0.032531999 0.099455997 0.27948001
0.031452999 0.10211 0.27972001
0.032047 0.10267 0.28058001
0.032830998 0.10442 0.27963999
0.032120999 0.10611 0.28093001
0.033316001 0.10758 0.27961999
0.033617001 0.10832 0.27983999
0.033459999 0.11057 0.27915001
0.033018 0.11108 0.2798
0.033004001 0.11263 0.27897999
0.032589 0.11404 0.27908999
0.033222001 0.11483 0.2793
0.034588002 0.11677 0.27864
0.035328001 0.11862 0.27906001
0.034704 0.12019 0.27776
0.036059 0.12058 0.27805001
0.035966001 0.12218 0.27790001
0.036504999 0.12375 0.2764
0.037301 0.12591 0.27733999
0.037634999 0.12720001 0.27680999
0.038270999 0.12816 0.27586001
0.039717 0.12919 0.27544001
0.041333001 0.1314 0.27399001
0.042332001 0.13217001 0.27353001
0.043660998 0.13312 0.27377
0.032402001 0.16240001 0.2296
0.032543998 0.16235 0.22807001
0.033041999 0.16203 0.22888
0.058568999 0.12018 0.32207
0.046034001 0.10222 0.32844999
0.044877999 0.10935 0.32387
0.074648 0.12627999 0.33873001
0.075672999 0.12774999 0.33787999
0.074203998 0.12627999 0.33882999
0.086301997 0.063539997 0.34601
0.086346999 0.065791003 0.34592
0.071565002 0.12743001 0.33407
0.049660001 0.10744 0.33058
0.046092 0.097871996 0.32890999
0.10496 0.10068 0.34579
0.062311001 0.17254999 0.26174
0.063780002 0.17496 0.26187
0.063720003 0.17694999 0.26179001
0.063831002 0.17726 0.26133999
0.10866 0.17654 0.21693
0.10888 0.17634 0.21712001
0.067073002 0.18217 0.25869
0.066699997 0.18082 0.26032001
0.11352 0.074795 0.35709
0.067239001 0.15242 0.25740001
0.068012998 0.15126 0.25703999
0.062541999 0.16011 0.26030999
0.10007 0.1824 0.27197
0.10114 0.18350001 0.27129
0.032005999 0.057921998 0.28033999
0.032109 0.058975 0.27869999
0.033936001 0.059225 0.28004
0.033764001 0.060095999 0.28026
0.035096999 0.062522002 0.27985001
0.035874002 0.063061997 0.27937999
0.037126999 0.064474002 0.27790999
0.037721999 0.066366002 0.27831
0.037774999 0.066991001 0.27754
0.038049001 0.069527999 0.27759999
0.038518 0.069110997 0.27700001
0.038562998 0.070086002 0.27739
0.079907998 0.14689 0.31213999
0.079378001 0.18467 0.22539
0.011009 0.13886 0.25723001
0.091767997 0.14793 0.31068999
0.035530001 0.088918999 0.27943
0.035346001 0.090483002 0.28016001
0.035177 0.091751002 0.27987999
0.034294002 0.09285 0.27937999
0.035013001 0.094812997 0.27893999
0.033861 0.095830001 0.28033
0.033608001 0.097677998 0.27991
0.034432001 0.098333001 0.28066999
0.033062998 0.10034 0.28099999
0.033066001 0.10225 0.28059
0.033171002 0.10294 0.28077
0.032377001 0.10472 0.2807
0.032607 0.10588 0.28088999
0.033188999 0.10772 0.28069001
0.034031 0.10906 0.28011
0.033695001 0.10958 0.28009
0.033477001 0.11165 0.27998
0.033581998 0.11306 0.28061
0.034812 0.115 0.28016999
0.034841999 0.11569 0.27963001
0.034301002 0.11676 0.27899
0.034855001 0.11805 0.27957001
0.034632999 0.12078 0.27884999
0.035131 0.12142 0.27831
0.036008 0.12266 0.27878001
0.037131999 0.12383 0.27840999
0.037507001 0.12548 0.27779001
0.038887002 0.12725 0.27801999
0.039053999 0.12771 0.27702999
0.040711001 0.12909 0.27592999
0.042314 0.13086 0.27614
0.042573001 0.13187 0.27465999
0.044119 0.1332 0.27377999
0.044272002 0.16436 0.26475
0.044020001 0.16507 0.26453
0.04439 0.1664 0.26550001
0.081981003 0.17047 0.26971999
0.083374999 0.16988 0.26912999
0.084871002 0.17125 0.27002999
0.075097002 0.16529 0.25843
0.066292003 0.12101 0.33642
0.066687003 0.12279 0.3346
0.087176003 0.062155999 0.34492999
0.041691002 0.16548 0.26497
0.04318 0.16362 0.26552001
0.056586001 0.12587 0.31827
0.052850001 0.12161 0.31334001
0.052985001 0.1202 0.31404001
0.057682998 0.13083 0.31661001
0.047497001 0.083209999 0.32975
0.072393 0.13192999 0.33305001
0.072158001 0.13338999 0.33168
0.064484999 0.17592999 0.26205999
0.064957 0.17808001 0.26181999
0.066076003 0.17913 0.26148999
0.067071997 0.18122999 0.26168001
0.11351 0.18049 0.21302
0.067082003 0.15051 0.25777999
0.066835001 0.15118 0.25843
0.066078 0.15229 0.25817999
0.066758998 0.15099999 0.259
0.033109002 0.058665 0.28
0.034465 0.058921002 0.28095001
0.034669999 0.061244 0.28128999
0.035789002 0.061561 0.28004
0.036362998 0.063043997 0.27956
0.037896 0.064255998 0.27853999
0.038534999 0.065892003 0.27860001
0.038229998 0.067515001 0.27823001
0.039019 0.069218002 0.27807
0.077722996 0.18395001 0.22707
0.037284002 0.084494002 0.27974001
0.036956001 0.086897999 0.27926001
0.037083998 0.085565001 0.27821001
0.029426999 0.053399999 0.27774999
0.028914001 0.052678999 0.27669999
0.02988 0.053436998 0.27849999
0.035388999 0.087200001 0.28047001
0.035856999 0.089148 0.27945
0.035877001 0.089888997 0.28027999
0.035413999 0.091738001 0.28099
0.035080999 0.093865 0.27939999
0.034734 0.094374001 0.27993
0.035326999 0.096123002 0.28128999
0.035128001 0.097521998 0.28053001
0.034171 0.097801998 0.28086001
0.033581998 0.099959999 0.28123999
0.033831 0.10189 0.28162
0.034046002 0.10321 0.28029999
0.034061 0.10417 0.28138
0.034091 0.10573 0.28134999
0.034097001 0.10693 0.28093001
0.033884998 0.10828 0.28048
0.034396999 0.11028 0.28132999
0.034619 0.11138 0.28086999
0.034033 0.1129 0.28026
0.03492 0.11401 0.28061
0.03492 0.11551 0.28036001
0.036182001 0.11692 0.27994999
0.035893999 0.11832 0.28077999
0.036550999 0.11963 0.27998999
0.036059 0.12049 0.28005001
0.036669999 0.12286 0.27941999
0.037645001 0.12395 0.27869001
0.038095001 0.12526999 0.27959001
0.038858999 0.12668 0.27829999
0.039283998 0.1286 0.27753001
0.040189002 0.12958001 0.27706999
0.041914999 0.13076 0.27713999
0.043446999 0.13211 0.27520999
0.044817001 0.13327999 0.27474999
0.045426998 0.1349 0.27473
0.045458 0.13738 0.27179
0.078872003 0.061457999 0.34011999
0.078290999 0.060578 0.33892
0.078493997 0.059353001 0.33958
0.066878997 0.12467 0.33388999
0.087396003 0.060929999 0.34373
0.086814001 0.060966 0.34489
0.047662001 0.078573003 0.32877001
0.048285 0.077381998 0.32870001
0.065149002 0.1248 0.32712999
0.048985001 0.077209003 0.33008
0.059429001 0.13528 0.31658
0.10337 0.18105 0.27595001
0.10177 0.18145999 0.27531001
0.088412002 0.17326 0.26952001
0.089038998 0.17332 0.27009001
0.089208998 0.17354 0.27024999
0.086460002 0.065964997 0.34623
0.048064999 0.10037 0.33160001
0.065281004 0.13572 0.32216001
0.066467002 0.11516 0.34026
0.066078 0.11649 0.33982
0.066249996 0.11575 0.34
0.10844 0.18632001 0.27537
0.11087 0.18671 0.27483001
0.071148001 0.12494 0.33495
0.065532997 0.17399999 0.26354
0.065425999 0.1758 0.26348999
0.064562999 0.17521 0.26284999
0.066312999 0.17766 0.26284999
0.066624999 0.17937 0.26214001
0.067493998 0.18081 0.26164001
0.066915996 0.15401 0.25593001
0.098102003 0.17811 0.27943
0.090126999 0.073808998 0.35468
0.068773001 0.12519 0.33313999
0.051385 0.092349999 0.33493999
0.050055999 0.092802003 0.33359
0.064496003 0.13714001 0.31817999
0.034233999 0.058378 0.28112
0.035007998 0.059133001 0.28143001
0.034688 0.060566999 0.28194001
0.036113001 0.062339999 0.28099
0.037289999 0.063800998 0.28053999
0.037813999 0.064148001 0.28024
0.038201999 0.066170998 0.27968001
0.038520001 0.067552 0.27954999
0.039246 0.068635002 0.27943999
0.038837999 0.069853 0.28092
0.038775001 0.071617 0.28004
0.038752001 0.070482999 0.27873001
0.070069999 0.12297 0.33666
0.070018999 0.12396 0.3369
0.069286004 0.12474 0.33601001
0.071988001 0.14554 0.26255
0.071185999 0.14623 0.26245001
0.072549 0.14562 0.26341
0.036635 0.084225997 0.27882001
0.038153999 0.092863999 0.30866
0.037526999 0.091762997 0.30847001
0.039218001 0.090907998 0.30897999
0.037523001 0.086875997 0.28064001
0.035836998 0.087324999 0.28163999
0.036311001 0.089493997 0.28143999
0.035463002 0.090239003 0.28094
0.035743002 0.091971003 0.28112
0.036006 0.093425997 0.28075001
0.036386002 0.094903998 0.28047001
0.035734002 0.095659003 0.2811
0.035509001 0.097112998 0.28138
0.035289001 0.098688997 0.28156
0.035234001 0.10058 0.28162
0.035257999 0.10117 0.28143001
0.034416001 0.103 0.28268999
0.034019001 0.10511 0.28169
0.034621 0.1053 0.28183001
0.035333 0.10699 0.28174999
0.035681002 0.10885 0.28151
0.035487998 0.11147 0.28119999
0.035709001 0.11085 0.28141001
0.035530999 0.11292 0.28163999
0.035215002 0.11462 0.28202
0.035895001 0.11492 0.28152999
0.035803001 0.11729 0.28106001
0.035549 0.11828 0.28105
0.036003001 0.11919 0.28099999
0.036656 0.12138 0.2809
0.036816999 0.12261 0.28022
0.037767999 0.12444 0.27987999
0.038199 0.12481 0.27959999
0.038941 0.12729999 0.27959999
0.040279001 0.12736 0.27864999
0.041832998 0.12932999 0.27767
0.042663001 0.13054 0.27779999
0.042833999 0.13124 0.27726999
0.044872001 0.13330001 0.27638
0.045219 0.13504 0.27559
0.061788 0.16175 0.25999001
0.062481999 0.14162 0.30461001
0.067276001 0.13364001 0.32596999
0.058492001 0.065431997 0.33214
0.057122 0.064029999 0.33192
0.090834998 0.074660003 0.35426
0.090251997 0.076402999 0.35422
0.091605 0.077472001 0.35415
0.092193 0.079370998 0.35418001
0.068792 0.12699001 0.33353999
0.064092003 0.10624 0.34217
0.047323 0.11286 0.32359999
0.066551 0.17722 0.26280999
0.067256004 0.17868 0.26243001
0.068279997 0.18063 0.26260999
0.10501 0.2009 0.27445
0.10599 0.19941001 0.27445
0.069058999 0.1833 0.26203001
0.093341999 0.081060998 0.35256001
0.055454999 0.11941 0.31843001
0.055860002 0.12154 0.31874999
0.044666 0.13697 0.27171001
0.045490999 0.13709 0.27124
0.036132999 0.060959 0.28244001
0.036235999 0.062463 0.28191
0.035702001 0.060575001 0.28266999
0.037636999 0.064133003 0.28103
0.038336001 0.064459004 0.28066999
0.038407002 0.065934002 0.28075001
0.038323 0.067294002 0.28044999
0.039522 0.068710998 0.28126001
0.039778002 0.071625002 0.28060001
0.038956001 0.071433 0.27871999
0.03892 0.072916999 0.27893999
0.038942002 0.072979003 0.28077999
0.037928 0.072972998 0.28178999
0.038327999 0.074459001 0.28154001
0.036471002 0.084200002 0.28195
0.037305001 0.086694002 0.28130001
0.037877001 0.091444001 0.30963999
0.038137998 0.090754002 0.30952001
0.036486998 0.087924004 0.28274
0.036346 0.089302003 0.28257
0.036449 0.089965999 0.28211001
0.035836 0.092138998 0.28200001
0.036060002 0.093138002 0.28217
0.035750002 0.094467998 0.28187999
0.035034999 0.095789999 0.28251001
0.035767999 0.096872002 0.28148001
0.036407001 0.098273002 0.28150001
0.035852998 0.1009 0.28139001
0.035626002 0.10182 0.28255999
0.035569999 0.10323 0.28277001
0.035783 0.10395 0.28262001
0.036109999 0.10538 0.28263
0.035803001 0.10665 0.28209001
0.036031999 0.10833 0.28180999
0.035856001 0.11006 0.28200001
0.036437001 0.11203 0.28274
0.035709001 0.11337 0.28279999
0.03644 0.1143 0.28285
0.036478002 0.11438 0.28185999
0.036364 0.1171 0.28198001
0.036816001 0.1181 0.28185999
0.036961999 0.1205 0.28149
0.037586 0.12136 0.28126001
0.036986001 0.12297 0.28057
0.037870999 0.12409 0.28145999
0.038507 0.12617999 0.27976
0.040268999 0.12604 0.27985999
0.040966999 0.12831999 0.27974999
0.041455999 0.12952 0.27811
0.042725999 0.13090999 0.27832001
0.043912999 0.1318 0.27746001
0.045113999 0.13386001 0.2766
0.045853999 0.13454001 0.27671
0.047348 0.13683 0.27537999
0.049529001 0.13781001 0.27625999
0.048425999 0.13823 0.27515
0.11076 0.099312 0.34266001
0.11148 0.098610997 0.34202999
0.1111 0.10094 0.34297001
0.11176 0.099637002 0.34141999
0.11206 0.10183 0.34141001
0.11207 0.1016 0.34246999
0.10888 0.098493002 0.34417
0.10902 0.098995999 0.34318
0.10842 0.10018 0.34367999
0.094458997 0.082158998 0.35275999
0.094057001 0.083544999 0.35244
0.071561001 0.13247 0.33085001
0.071202002 0.13342001 0.33061999
0.081321001 0.19284 0.26842001
0.082041003 0.19330999 0.26750001
0.063429996 0.10472 0.34218001
0.067341998 0.17639001 0.26368999
0.067203 0.17779 0.26414999
0.068085 0.1793 0.26394999
0.068304002 0.18025 0.26374999
0.068475001 0.18284 0.26275
0.071060002 0.18504 0.26363
0.069479004 0.18351001 0.26276001
0.069604002 0.18374 0.26234001
0.03393 0.053769 0.30052999
0.034279998 0.053275 0.30180001
0.034828 0.054272 0.30006
0.10801 0.096372001 0.34463999
0.10723 0.096543998 0.34466001
0.058086999 0.16288 0.26104
0.058385 0.16478001 0.26074001
0.056503002 0.16547 0.26073
0.10407 0.069677003 0.35745999
0.1037 0.068405002 0.35859999
0.10451 0.067900002 0.35703
0.072852001 0.13478 0.33032
0.070093997 0.13105001 0.33131999
0.034371998 0.055303 0.28360999
0.034044001 0.055312999 0.28239
0.035551999 0.053656999 0.28400001
0.11243 0.18066999 0.21547
0.069302998 0.16177 0.25804001
0.069797002 0.16227999 0.25793999
0.071575001 0.16343001 0.25850999
0.036405001 0.060164999 0.28327
0.036327001 0.060399 0.28257999
0.037650999 0.061857998 0.28233001
0.038417 0.063050002 0.28275001
0.038693 0.065021001 0.28156999
0.038584001 0.065796003 0.28011999
0.039586 0.067348003 0.28154999
0.039177999 0.068626001 0.28152999
0.039427999 0.070616998 0.28158
0.039705999 0.071314998 0.28101
0.038892001 0.074855 0.28183001
0.029844999 0.16518 0.26198
0.030822 0.16735999 0.26159999
0.038677 0.075758003 0.28195
0.038548 0.075839996 0.28114
0.038120002 0.078111999 0.28080001
0.038649999 0.077561997 0.2816
0.037900999 0.079021998 0.28167
0.037436999 0.080003999 0.28290001
0.036678001 0.082057998 0.28117001
0.038128 0.082355 0.28270999
0.038054999 0.082888998 0.28178999
0.037115999 0.082378 0.28068
0.037422001 0.083281003 0.28253999
0.037723999 0.084632002 0.28057
0.037503 0.084857002 0.28196001
0.03675 0.085362002 0.28180999
0.037492 0.087706 0.28351
0.037512001 0.089036003 0.28286999
0.036819998 0.091029003 0.28345999
0.036517002 0.091793001 0.28321999
0.036332 0.093552001 0.28406999
0.036579002 0.094270997 0.28334001
0.036290001 0.095137998 0.28360999
0.037044 0.097813003 0.2832
0.03774 0.098839998 0.28308001
0.036959998 0.099841997 0.28229001
0.036253002 0.10137 0.28327999
0.036917001 0.10248 0.28283
