# .PCD v0.7 - Point Cloud Data file format
VERSION 0.7
FIELDS x y z
SIZE 4 4 4
TYPE F F F
COUNT 1 1 1
WIDTH 1581
HEIGHT 1
VIEWPOINT 0 0 0 1 0 0 0
POINTS 1581
DATA ascii
0.2642 -0.048535001 0.11289
0.19873001 -0.046165999 0.10315
0.14041001 -0.050468002 0.13596
0.18313 -0.050988 0.16289
0.22334 -0.0085819997 0.068666004
0.19021 -0.039901 0.11574
0.19972 -0.045347001 0.10615
0.15652999 -0.0070767999 0.15208
0.22596 0.022063 0.068253003
0.22739001 0.023879999 0.068929002
0.26613 -0.050673001 0.11923
0.23365 0.012694 0.10274
0.20299 -0.020452 0.10294
0.23808999 0.013158 0.061014999
0.12823001 0.0025917999 0.19987001
0.20529 0.023719 0.10073
0.13539 -0.049022999 0.13553999
0.13485999 -0.049676001 0.1362
0.19101 -0.043630999 0.10691
0.23407 0.0070429998 0.090984002
0.26433 -0.052152999 0.1151
0.14882 -0.034189001 0.15175
0.23308 0.011021 0.061044998
0.15744001 -0.023569001 0.1444
0.13019 0.0031383 0.20085999
0.12867001 -0.034361001 0.16859999
0.12039 -0.034933001 0.17004
0.23176 0.014697 0.055831999
0.20485 -0.017843001 0.10065
0.17015 0.0054843999 0.15793
0.23625 0.01503 0.057776999
0.12018 -0.037028 0.17136
0.20349 -0.050303001 0.10085
0.15026 -0.037007 0.15363
0.22193 0.019893 0.063905001
0.23334 0.018074 0.085574001
0.17111 0.0035422 0.15729
0.2647 -0.047656 0.11735
0.20480999 0.015146 0.10023
0.25257999 -0.044496998 0.11555
0.19176 -0.041441001 0.12563001
0.19096 -0.042750001 0.1265
0.19077 -0.043373998 0.12383
0.23294 -0.013557 0.064052999
0.23352 -0.013333 0.064955004
0.22087 0.017612999 0.061438002
0.22056 0.017922999 0.063865997
0.16666 -0.023415999 0.14375
0.23987 -0.031686999 0.13079
0.23983 -0.032382 0.12943
0.23898 -0.031298 0.12817
0.22308999 -0.015311 0.061296999
0.22285999 -0.016253 0.059316002
0.12587 -0.035496 0.16787
0.13770001 -0.044108 0.14521
0.13468 0.025562 0.197
0.15539999 -0.0071900999 0.15157001
0.23928 -0.038817 0.12947001
0.18366 -0.026931001 0.12046
0.18463001 -0.026773 0.12032
0.23485 0.0089983996 0.063112997
0.23359001 0.0099087004 0.060502999
0.16503 -0.02162 0.14242999
0.21343 0.031399999 0.092791997
0.19052 -0.025172001 0.12672
0.17261 -0.011939 0.13987
0.17275 -0.013254 0.13924
0.22755 -0.023314999 0.069412
0.21421 -0.0065946998 0.082381003
0.21875 0.0067166002 0.077294998
0.12888999 0.021397 0.20942
0.21461999 -0.0057232999 0.083278
0.12782 -0.047077999 0.16379
0.12635 -0.045506001 0.16281
0.26005 -0.048508 0.10724
0.23292001 0.025805 0.071661003
0.23642001 -0.036242001 0.12766001
0.25009999 -0.044684 0.11686
0.25049999 -0.044936001 0.11802
0.26471999 -0.046776 0.11621
0.23259 0.023641 0.091128998
0.26104 -0.047176 0.1146
0.23445 0.016698999 0.091683999
0.23333 0.016868001 0.092853002
0.22099 -0.010341 0.063484997
0.14307 -0.043848 0.16457
0.14462 -0.027226999 0.15127
0.15309 -0.012095 0.15011001
0.24009 -0.045598999 0.13515
0.18218 -0.0017163 0.14432
0.1813 -0.0023316001 0.14376999
0.17614999 -0.021671001 0.14399
0.22731 0.0049135 0.07553
0.19462 -0.031052001 0.11652
0.20172 -0.035046998 0.11782
0.18183 -0.00026997001 0.14617001
0.15493 -0.032308999 0.15097
0.18047 -0.001833 0.14249
0.23725 -0.03582 0.12784
0.13815001 -0.028794 0.16111
0.19293 -0.042139001 0.11785
0.24253 -0.025444999 0.13877
0.15493 -0.020229001 0.1433
0.19539 -0.027964 0.11869
0.19608 -0.02909 0.11808
0.23404001 0.024513001 0.064924002
0.16878 0.0041725002 0.15764999
0.15700001 -0.0061686002 0.15445
0.23345 0.018277001 0.087996997
0.21657 -0.034382999 0.10973
0.19728 -0.027557001 0.1194
0.11579 -0.049789999 0.15922999
0.13026001 -0.043497 0.14934
0.12846 -0.043614 0.14806999
0.23767 0.019391 0.063372001
0.23545 -0.015199 0.055689
0.26381999 -0.049981002 0.11292
0.21334 -0.0047380002 0.083025001
0.22983 -0.019708 0.062452
0.19628 -0.026882 0.11983
0.19767 -0.027729999 0.11983
0.18173 -0.017959001 0.14106999
0.12839 0.0294 0.21346
0.22269 0.011036 0.051385999
0.2009 0.027298 0.113
0.20146 0.028387001 0.11366
0.20049 0.027279999 0.11327
0.22067 0.025513001 0.069908001
0.14259 -0.033565 0.15364
0.14331999 -0.051375002 0.13899
0.18165 -0.049961001 0.16247
0.23738 0.012018 0.071514003
0.13175 0.0026753 0.19860999
0.13124999 -0.011087 0.19887
0.23711 0.017399 0.067809001
0.22906999 0.013008 0.059923999
0.22939999 0.013682 0.062109999
0.14589 -0.035964999 0.15414
0.23479 0.026238 0.066861004
0.18059 -0.019407 0.14162999
0.18034001 -0.018383 0.14215
0.15534 -0.041517999 0.16787
0.15843999 -0.039429002 0.16829
0.19077 -0.024867 0.12194
0.18179999 -0.039599001 0.11806
0.17873999 -0.021984 0.14696001
0.17761 -0.022814 0.14654
0.17655 -0.023072001 0.14673001
0.23835 0.016235 0.067841001
0.16536 -0.031686001 0.18551999
0.23238 0.027047999 0.072852999
0.23206 0.025603 0.071849003
0.23367 0.013533 0.093461998
0.20702 -0.048574999 0.092257001
0.185 -0.028439 0.1241
0.27276999 -0.05029 0.11905
0.2198 -0.0051421002 0.073213004
0.21402 -0.00041611001 0.083603002
0.13654999 -0.037073001 0.15966
0.13747001 -0.038325999 0.15928
0.14493001 -0.051716 0.13991
0.12355 -0.049609002 0.13753
0.12352 -0.050434001 0.13541999
0.12403 -0.049975999 0.13742
0.12924001 0.0041478002 0.20366
0.23345999 0.012781 0.088808
0.16269 0.00038714 0.15411
0.19085 -0.041102 0.11835
0.24282999 -0.030263999 0.13934
0.16432001 -0.033383001 0.17699
0.13716 -0.048760001 0.14188001
0.22333001 0.012978 0.055309001
0.13174 -0.010682 0.19659001
0.13045 -0.010726 0.19815999
0.1718 -0.0018775 0.14424001
0.17299999 -0.0074856998 0.1416
0.18426999 -0.012409 0.13860001
0.19024999 -0.043832 0.12251
0.22374 -0.0089880005 0.066558003
0.2208 -0.011339 0.074951001
0.21926001 -0.01094 0.074706003
0.21839 -0.011649 0.076030001
0.14003 -0.048009001 0.14674
0.13787 -0.0041069002 0.19595
0.22992 -0.016626 0.061395999
0.22949 -0.0059894002 0.073540002
0.12083 -0.039124999 0.16566999
0.23056 0.020771001 0.11072
0.21144 -0.043019 0.1222
0.23623 0.021910001 0.066996999
0.25709 -0.047973 0.10868
0.15883 -0.037000999 0.15843999
0.12718 -0.053541001 0.1357
0.12537 -0.053569 0.13496
0.23978999 -0.026914001 0.14157
0.18165 -0.042509999 0.11844
0.17342 -0.0044887001 0.14334001
0.23480999 -0.017619001 0.061381001
0.22642 -0.022964001 0.065687001
0.2066 -0.0059133 0.095572002
0.13026001 -0.048082002 0.16817001
0.12898999 -0.046661999 0.16654
0.12890001 -0.00026735 0.1998
0.13090999 -0.0008173 0.19929001
0.1869 -0.013477 0.13884
0.18893 -0.012355 0.1391
0.1857 -0.010336 0.14018001
0.23667 0.0096647004 0.078700997
0.13474999 0.018298 0.20769
0.20548999 0.019588999 0.10408
0.20498 0.019962 0.10241
0.16969 -0.0021335001 0.14786001
0.14304 -0.033356 0.15338001
0.20022 -0.033149 0.1182
0.19337 -0.024085 0.12730999
0.19205 -0.046976998 0.094691999
0.27167001 -0.051975001 0.12035
0.17856 0.00094432 0.14940999
0.18937001 -0.050322 0.093032002
0.23474 0.020284001 0.081827
0.19984999 -0.053513002 0.090676002
0.20364 -0.048177 0.093607001
0.20316 -0.049098 0.094059996
0.14546999 -0.051243 0.13898
0.18550999 -0.010628 0.13911
0.23705 0.02134 0.077877998
0.24612001 -0.037113 0.13924
0.229 0.014134 0.060164001
0.18431 -0.040683001 0.11418
0.18411 -0.040027998 0.11373
0.1566 -0.041042998 0.17730001
0.15623 -0.040801 0.17575
0.15633 -0.040952001 0.17647
0.13907 -0.048735999 0.14557999
0.23126 0.021543 0.10983
0.23134001 0.019563001 0.10768
0.16086 -0.0061305999 0.14929999
0.20363 -0.016674999 0.10402
0.22283 -0.015561 0.059636999
0.15423 -0.032593001 0.1505
0.15385 -0.030337 0.14703999
0.18508001 -0.012458 0.13892999
0.18595 -0.011038 0.13913999
0.16481 0.0042539001 0.15864
0.20472001 -0.010043 0.098684996
0.24342 -0.037508 0.13538
0.17663001 0.0023185001 0.14862999
0.16548 -0.032837 0.18151
0.2025 0.031502001 0.11179
0.18141 -0.021405 0.14759
0.18268999 -0.021379 0.14713
0.20316 -0.022679999 0.10184
0.13441999 -0.050806001 0.13244
0.15286 -0.034782 0.15222
0.15651999 -0.017955 0.14443
0.15642001 -0.018313 0.1425
0.22485 -0.016860001 0.073236004
0.13056999 0.027206 0.21671
0.1346 -0.0070829 0.19588999
0.13388 -0.0080917003 0.19568001
0.13044 0.029439 0.21764
0.24665999 -0.039572999 0.13582
0.23030999 -0.01387 0.066597998
0.19541 -0.049704 0.087511003
0.23713 0.015853001 0.05954
0.20302001 -0.018522 0.10331
0.20496 -0.017553 0.10499
0.20048 -0.045635998 0.099114999
0.16144 -0.035053 0.15748
0.13101 0.0062027001 0.20096
0.15369999 -0.029287999 0.14743
0.18110999 0.0027922001 0.14982
0.13697 -0.0031037999 0.18907
0.20738 -0.049012002 0.097787
0.13789 0.0079071997 0.20309
0.15561999 -0.038306002 0.16495
0.26087001 -0.047617 0.11609
0.12333 -0.036228001 0.16737001
0.20411 -0.048732001 0.095181003
0.15679 -0.039232999 0.15686999
0.18968999 -0.044385999 0.10919
0.18776 -0.045099001 0.11041
0.22564 -0.023674 0.073882997
0.20674001 -0.014688 0.10072
0.13594 -0.050528001 0.13347
0.18007 -0.038594998 0.12027
0.23713 0.025189999 0.075613998
0.23733 0.018541999 0.060745001
0.23687001 0.017503001 0.061076999
0.20495 0.033103 0.10821
0.16215999 -0.034322999 0.15455
0.12796 0.027636999 0.21393999
0.16272999 -0.0075371 0.14501999
0.24248999 -0.030026 0.13887
0.24798 -0.043242 0.12984
0.15661 -0.031443 0.14767
0.23458 0.026334999 0.095379002
0.14072999 -0.022237999 0.1559
0.15108 -0.013176 0.14988001
0.25483999 -0.042530999 0.13177
0.155 -0.040148001 0.16677
0.154 -0.040006999 0.16542
0.15425999 -0.014214 0.14613999
0.1178 -0.047621999 0.15481
0.15052 -0.014361 0.14983
0.17158 -0.0011352 0.14811
0.13240001 0.033240002 0.21706
0.13265 0.033973001 0.21720999
0.23255999 0.017834 0.099573001
0.14883 -0.030215999 0.14975999
0.22381 -0.013314 0.073585004
0.22437 -0.014929 0.072972998
0.22453 -0.012205 0.072792001
0.24163 -0.049061 0.13422
0.20697001 -0.051702999 0.093001999
0.12892 -0.048051 0.167
0.23533 0.012746 0.056361001
0.24546 -0.034258001 0.13722999
0.23249 0.0071961 0.10875
0.13544001 -0.0086291004 0.19013
0.19953001 -0.044155002 0.10183
0.20071 -0.045357 0.10288
0.19614001 -0.029797999 0.11728
0.23758 0.01106 0.059778001
0.22352 -0.015683999 0.054320998
0.22209001 -0.016194999 0.057739001
0.23975 -0.037115 0.12898
0.1605 -0.033775002 0.15267999
0.15516999 -0.017189 0.14506
0.14159 -0.051424 0.14475
0.14246 -0.051975999 0.14497
0.12533 -0.051121 0.12795
0.23154999 0.011893 0.059181999
0.23039 0.012103 0.057863001
0.18815 -0.045067001 0.099882998
0.17998999 -0.013372 0.13896
0.21502 0.026667001 0.086549997
0.22342999 0.022562001 0.067062996
0.2233 0.023699 0.066216998
0.2194 -0.0044966 0.073844001
0.14767 -0.010725 0.1612
0.14838 -0.0096939001 0.15928
0.22342999 0.026772 0.071153
0.14401001 -0.051107001 0.1428
0.24014001 -0.032726001 0.13079
0.23333 0.016819 0.094775997
0.18877999 -0.048730001 0.093533002
0.11936 -0.037397999 0.17214
0.22344001 -0.018944001 0.066253997
0.20290001 0.033914998 0.11192
0.20612 0.019779 0.099035002
0.16680001 -0.021221999 0.14312001
0.26016 -0.045531001 0.12177
0.23830999 0.014263 0.063363999
0.13240001 -0.049522001 0.13410001
0.17195 -0.017785 0.13992
0.17179 -0.017483 0.14063001
0.13462 0.023589 0.19867
0.22554 0.0031043999 0.074461997
0.21851 0.0050047999 0.078378998
0.18355 -0.051100999 0.16244
0.23646 0.0097895004 0.077597998
0.25909999 -0.043908998 0.12202
0.19129001 -0.052673999 0.093497999
0.22228999 -0.0059131002 0.072746001
0.13575999 -0.012006 0.1913
0.27397999 -0.052758999 0.11744
0.17591 -0.00052791002 0.1476
0.21809 -0.0018935 0.077685997
0.15882 -0.0052839001 0.15096
0.19292 -0.042144999 0.10664
0.25411001 -0.042799 0.12536
0.21991999 -0.0055308002 0.073285997
0.23054001 0.013619 0.090296999
0.26955 -0.052186001 0.11825
0.13455001 0.019207999 0.20969
0.17448001 -0.011306 0.14016999
0.17358001 -0.0097674998 0.1402
0.131 -0.035544999 0.16446
0.24172001 -0.025103001 0.13936999
0.23722 0.018333999 0.066826999
0.15491 -0.041575 0.16762
0.22931001 0.0031822999 0.075526997
0.18986 -0.030060999 0.11907
0.19426 -0.045959 0.11642
0.23559 0.010274 0.055291001
0.11301 -0.051236 0.15967999
0.20085 -0.047029 0.095950998
0.18348999 -0.047097001 0.11503
0.18343 -0.043568 0.11597
0.23515999 0.025167 0.067837
0.17692 0.0064721 0.15564001
0.1763 0.0056872 0.15396
0.17685001 0.0054425001 0.15380999
0.22588 -0.0014834 0.069169
0.23039 -0.013526 0.069022
0.27026001 -0.052115001 0.12401
0.22967 -0.0060287002 0.074141003
0.17801 0.0036512001 0.15212999
0.22792999 0.027171001 0.064425997
0.13606 -0.045242999 0.14576
0.23291001 -0.019679001 0.058641002
0.23556 0.018859001 0.061221998
0.23380999 0.020266 0.059838001
0.12436 -0.049408 0.1424
0.12354 -0.051153999 0.1406
0.12434 -0.050592002 0.14212
0.23582999 0.021315999 0.061815001
0.26001 -0.044877999 0.12297
0.15759 -0.037577 0.15565
0.17836 0.0048699002 0.15588
0.17989001 0.0041279001 0.15554
0.23074999 0.016189 0.11699
0.15291999 -0.011566 0.14894
0.15983 -0.0014472 0.15367
0.18515 -0.034417 0.11773
0.18652999 -0.020705 0.14313
0.20810001 -0.049724001 0.095634997
0.13637 -0.0047328998 0.19652
0.20076001 0.02303 0.10676
0.14544 -0.050007001 0.13913999
0.23336001 0.026629999 0.063973002
0.14793 -0.036988001 0.1559
0.14884999 -0.042204998 0.16324
0.18548 -0.038485002 0.1164
0.13191999 0.024683001 0.21272001
0.23241 0.00051228999 0.078309998
0.23548 0.013675 0.1058
0.15458 -0.038600001 0.1559
0.13604 0.013229 0.20653
0.13655999 0.013236 0.20567
0.13567001 0.014172 0.20629001
0.18482 -0.044998001 0.11234
0.12619001 -0.035257 0.16791999
0.20092 0.021020001 0.10929
0.13758001 0.0090466999 0.20536
0.14466999 -0.045154002 0.16947
0.14332999 -0.045309 0.16977
0.17984 -0.040444002 0.1192
0.23185 -0.0054648002 0.064355999
0.23624 0.012084 0.077270001
0.13555001 0.025039 0.19643
0.12406 -0.051003002 0.12647
0.1313 -0.032988999 0.16531
0.2007 -0.033039998 0.11767
0.22483 -0.018916 0.061902002
0.13574 -0.0010506 0.19506
0.13243 0.033790998 0.21757001
0.18542001 -0.048080001 0.16321
0.23074999 -0.0057525998 0.064483002
0.23004 -0.0024094 0.073191002
0.21965 0.02668 0.074758001
0.22036 0.026907001 0.073357001
0.12418 -0.032412 0.17188001
0.13696 0.027517 0.19690999
0.1402 -0.0034171001 0.19315
0.20348001 -0.034253001 0.11887
0.21708 -0.0040171999 0.077519
0.26293001 -0.045855999 0.11863
0.15229 -0.036529001 0.15311
0.13302 0.015484 0.19915999
0.20341 -0.017665001 0.10093
0.16888 -0.025985001 0.14772999
0.13733 -0.0074716001 0.19089
0.12709001 0.026535001 0.21584
0.22674 -0.0024395001 0.069995001
0.14557999 -0.042022999 0.16404
0.23319 0.0083561996 0.094641
0.18238001 -0.033735 0.12087
0.18352 -0.032963999 0.12011
0.17662001 -0.002292 0.14317
0.15954 0.0069995001 0.15572999
0.15346999 -0.017794 0.14636
0.20038 -0.050771002 0.086957999
0.17614999 -0.019959001 0.14261
0.26693001 -0.049995001 0.11298
0.20616999 0.0010519 0.097456001
0.23560999 0.0081315003 0.1029
0.20366 0.031171 0.11209
0.23124 0.018254001 0.10542
0.22833 0.021074999 0.058577001
0.25454 -0.041999001 0.11939
0.22035 0.0016146 0.075834997
0.13911 -0.0021331001 0.19742
0.18554001 0.0019797001 0.14803
0.18512 0.0024631999 0.14869
0.12029 -0.038284998 0.16725001
0.11915 -0.045056 0.16125
0.19103999 -0.030825 0.11882
0.25172001 -0.042863 0.11641
0.15459999 -0.0028836001 0.15712
0.12602 -0.048705999 0.13593
0.23120999 0.017074 0.099965997
0.20598 -0.035084002 0.11632
0.23264 -0.015593 0.057891998
0.1434 -0.022908 0.15399
0.20382001 0.021274 0.10388
0.20536 0.020847 0.1011
0.21967 -0.013605 0.067203
0.1569 -0.037978999 0.15516999
0.13584 -0.047770001 0.13955
0.22138 0.027449001 0.067671999
0.22592001 -0.0090396004 0.065853
0.22387999 0.020908 0.067125998
0.17552 -0.0052800002 0.14139999
0.2344 0.0075730002 0.095347002
0.18489 -0.044500001 0.11468
0.13738 0.028221 0.19724999
0.13242 -0.033821002 0.16654
0.20223001 0.031877998 0.1092
0.18426999 -0.0081623998 0.13975
0.20606001 -0.048156001 0.096879996
0.13526 0.014703 0.20288999
0.20112 -0.036788002 0.12145
0.16501001 -0.029505 0.14929
0.19574 -0.030014001 0.11851
0.22048 0.016324 0.059615001
0.22122 0.015433 0.058784001
0.23607001 0.0066308999 0.055688001
0.21453001 -0.0018715 0.079497002
0.14887001 -0.0164 0.15104
0.18348999 -0.049242999 0.16132
0.18626 -0.052912001 0.088164002
0.18623 -0.053691 0.088840999
0.20370001 -0.0079237996 0.10038
0.18178 -0.036249001 0.12462
0.18353 -0.021235 0.14474
0.23085 0.0060744998 0.078686997
0.23123001 0.0042602001 0.079360999
0.19414 -0.043387 0.10034
0.23489 0.0029176001 0.081750996
0.23225001 -0.011438 0.066244997
0.23264 -0.011524 0.068242997
0.13809 -0.050021 0.13748001
0.20506001 -0.0059223999 0.098534003
0.13160001 0.0031218999 0.1996
0.17215 0.0012547 0.15283
0.24562 -0.035390999 0.13686
0.13706 0.019710001 0.19739
0.25895 -0.050657999 0.12057
0.20099001 0.0037076001 0.1103
0.26521 -0.047047999 0.12507001
0.24242 -0.033101 0.13259
0.18226001 -0.048152 0.16184001
0.1833 -0.04764 0.163
0.16805001 -0.0030394001 0.14685
0.22581001 0.017612999 0.068030998
0.14744 -0.039717998 0.15735
0.1117 -0.052620001 0.16114999
0.12842 -0.033783 0.16948999
0.26715001 -0.050110001 0.11671
0.23074 -0.012137 0.069897003
0.23006 -0.012236 0.070290998
0.18411 -0.048098002 0.16443001
0.23085999 0.012767 0.063340001
0.18393999 -0.027318001 0.1217
0.27059999 -0.052678999 0.12334
0.12452 -0.050539002 0.13438
0.22827999 -0.013193 0.075815998
0.17923 -0.0035405001 0.14308999
0.18688001 -0.047816999 0.10219
0.18773 -0.046684999 0.10257
0.16821 0.0040917001 0.15376
0.23415001 0.0041733999 0.092230998
0.21284001 0.031617001 0.092501998
0.18916 -0.045518 0.10466
0.18960001 -0.054359999 0.095347002
0.23009001 -0.0037640999 0.076034002
0.18942 -0.023553001 0.12299
0.22724999 0.002533 0.070809998
0.16886 -0.034168001 0.18376
0.16965 -0.028827 0.15578
0.15652999 -0.040925998 0.16209
0.12723 -0.042541999 0.16174001
0.12756 -0.050016999 0.13459
0.22402 0.012573 0.058871999
0.16892999 -0.0092176003 0.14208999
0.23577 0.0074749002 0.080167003
0.18796 -0.047139 0.099529997
0.20432 0.022422001 0.1012
0.13343 -0.032559 0.16851
0.13212 -0.032373 0.16907001
0.23645 -0.041489001 0.14001
0.20795999 -0.013623 0.095486
0.22861999 -0.0077132001 0.062923998
0.22926 0.025978999 0.070873
0.13795 -0.026048001 0.16067
0.20419 -0.0099419998 0.10291
0.20379999 -0.010327 0.10324
0.19149999 -0.044537 0.12082
0.25389999 -0.043481998 0.12166
0.14951999 -0.02012 0.14974
0.22846 -0.021127 0.067702003
0.14597 -0.034433998 0.15305001
0.24079999 -0.026201 0.13653
0.12781 -0.044169001 0.14313
0.17095999 0.0019119 0.15386
0.24144 -0.025215 0.13748001
0.13451 -0.0043072999 0.19146
0.15233 -0.030517001 0.14954001
0.15309 -0.029610001 0.15007
0.26078999 -0.051883001 0.11157
0.13842 -0.0068648998 0.19808
0.17793 -0.050574999 0.1226
0.17772999 -0.010138 0.14079
0.22406 0.011924 0.059916999
0.15567 -0.0099267997 0.1496
0.15459 -0.0097299004 0.15027
0.24301 -0.041034002 0.13564999
0.16338 -0.030036001 0.14995
0.16763 -0.025599999 0.14511
0.14767 -0.022499001 0.147
0.22057 -0.00801 0.066413
0.14726 -0.032117002 0.15215001
0.1337 -0.043527 0.14537001
0.22823 0.02767 0.079011999
0.22811 0.026946999 0.078376003
0.23913001 -0.039579999 0.13472
0.21379 0.028307 0.086901002
0.14681 -0.039772999 0.15636
0.18532 -0.040220998 0.11443
0.18577 -0.039673999 0.11545
0.19012 -0.025566 0.12666
0.19165 -0.047828 0.093122996
0.13790999 0.010036 0.20238
0.20900001 -0.014286 0.094925001
0.20477 -0.048696999 0.098552004
0.21403 -0.018146999 0.079846002
0.21441001 -0.015897 0.079291001
0.21444 -0.016494 0.078272
0.16529 -0.011323 0.14199001
0.13034999 -0.014743 0.19955
0.19179 -0.025219999 0.12222
0.21283001 0.032156002 0.091682002
0.16888 -0.0082508 0.14001
0.20141999 -0.047975 0.097661003
0.14014 0.009385 0.19835
0.16417 -0.026521999 0.14320999
0.13770001 -0.053385999 0.14504001
0.16006 -0.0078128995 0.14867
0.16163 0.0060937 0.15775
0.23058 -0.0073850998 0.073126003
0.13066 -0.018789001 0.1974
0.12984 -0.016147999 0.19832
0.26372999 -0.046826001 0.11317
0.23012 0.0037489999 0.073260002
0.18611 -0.018136 0.13997
0.13219 0.027879 0.21559
0.25108999 -0.043242998 0.13502
0.16854 -0.024013 0.1485
0.21340001 0.024080999 0.085969999
0.23634 0.011418 0.081100002
0.23325001 0.022519 0.077418
0.23251 0.022454999 0.077017002
0.26328 -0.048135001 0.12157
0.22855 -0.0057088002 0.063118003
0.25569001 -0.045139998 0.11557
0.18359999 -0.026923999 0.12419
0.15064999 -0.016879 0.14882
0.15673 -0.029531 0.14658999
0.15413 -0.029905001 0.14703999
0.12944999 -0.047602002 0.16665
0.20397 -0.023383999 0.10087
0.13431001 -0.040002 0.16288
0.13337 -0.041120999 0.16196001
0.18791001 -0.044128001 0.10779
0.15638 -0.0072427001 0.15226001
0.14163999 -0.043136001 0.16498999
0.27113 -0.052136 0.11959
0.16248 -0.013455 0.14289001
0.20062 -0.047068998 0.11003
0.19916999 -0.048381999 0.10817
0.27355 -0.049880002 0.11863
0.21611001 0.027935 0.085887
0.21595 0.02801 0.088251002
0.24087 -0.031668 0.1441
0.22395 0.0092158001 0.052969001
0.18652999 -0.041558001 0.11392
0.2005 0.024209 0.11107
0.17863999 -0.013 0.13976
0.23433 0.0082665002 0.090099998
0.15910999 -0.038483001 0.1709
0.25657001 -0.042906001 0.11802
0.16833 -0.0067770001 0.14448
0.16988 -0.021725001 0.14407
0.19272 -0.042447001 0.11574
0.19946 0.0026064999 0.10864
0.20033 0.0027904001 0.10921
0.20034 0.0015786 0.10878
0.22818001 0.012861 0.060198002
0.23447999 0.0092153 0.074474998
0.23526999 0.0094272001 0.073853999
0.23666 0.0095303003 0.072623998
0.25876001 -0.043377999 0.1228
0.11103 -0.054830998 0.16408999
0.20460001 0.024038 0.10464
0.12136 -0.043680999 0.15669
0.13368 -0.053424999 0.13244
0.23637 0.010506 0.065192997
0.24339999 -0.027268 0.13885
0.13070001 -0.015387 0.19898
0.22097 -0.0046999999 0.072382003
0.13999 -0.049904 0.13753
0.19268 -0.052499998 0.088639997
0.19137999 -0.044516999 0.098283999
0.19187 -0.044379 0.099063002
0.22655 0.017960001 0.068884
0.22713999 0.021416999 0.068916
0.2274 0.019959001 0.068591997
0.19648001 -0.050972 0.090663999
0.23491 0.016616 0.10623
0.14767 -0.039696999 0.15713
0.23312999 0.022706 0.090582997
0.13209 -0.011239 0.19760001
0.22954001 0.0021752999 0.071089
0.22747 -0.0013734 0.069587
0.13778999 0.0063867001 0.20238
0.13698 0.016308 0.20238
0.24487001 -0.035567999 0.13609
0.15051 -0.035750002 0.15477
0.22047 0.0059580998 0.076220997
0.22329 0.016511999 0.056758001
0.25187999 -0.044817999 0.13616
0.25069001 -0.044654001 0.13733
0.13649 -0.037535001 0.16236
0.23717999 0.015613 0.072425
0.12782 -0.044318002 0.16204999
0.23295 0.027551999 0.095948003
0.16809 -0.018610001 0.14210001
0.13598999 -0.046415001 0.14357001
0.14399999 -0.030221 0.15172
0.25347999 -0.044638 0.11466
0.18556 -0.05068 0.16456001
0.25419 -0.044918001 0.11152
0.22676 0.0098029999 0.053461
0.14788 -0.010534 0.15794
0.14782999 -0.011537 0.15567
0.14618 -0.012934 0.15805
0.22374 -0.02981 0.073112004
0.22485 -0.028963 0.073643997
0.21334 0.026091 0.088848002
0.23315001 0.014797 0.095339
0.16379 -0.0037584 0.15087999
0.26905999 -0.050786 0.11887
0.11777 -0.047749002 0.15790001
0.20857 0.020144001 0.099265002
0.15577 -0.040862001 0.16269
0.15462001 -0.041705001 0.16887
0.21808 0.022124 0.077229001
0.20182 -0.046741001 0.10121
0.20292 -0.048609 0.10137
0.19489001 -0.026062001 0.12176
0.14399999 -0.026888 0.15064
0.13828 0.014445 0.2007
0.23895 -0.032779999 0.13101
0.12952 -0.045340002 0.15668
0.14279 -0.023398999 0.15356
0.14158 -0.022515999 0.15497001
0.23931 -0.043478001 0.1391
0.16593 -0.033741999 0.18269999
0.16508999 -0.033213999 0.18195
0.12922999 -0.046029001 0.16552
0.23724 0.016613999 0.061781
0.14359 -0.045541 0.16842
0.22916999 -0.014252 0.064205997
0.1437 -0.040975999 0.16248
0.18527 -0.051408 0.094045997
0.22837 -0.0050825002 0.064360999
0.14918999 -0.01976 0.14758
0.18693 -0.015964 0.13764
0.1856 -0.014055 0.1388
0.24421 -0.037028 0.13563
0.13278 -0.034929998 0.16215
0.19283 -0.041506998 0.12477
0.15933999 -0.036685001 0.15783
0.14184999 -0.044188 0.16621
0.22860999 0.026735 0.079375997
0.22871999 0.026976001 0.077556998
0.13467 -0.0041955998 0.19248
0.14679 -0.01333 0.15609001
0.14708 -0.010792 0.15672
0.226 0.0037962999 0.079839997
0.23676001 0.020803999 0.086801
0.13727 -0.048640002 0.13651
0.13839 -0.0087214997 0.19111
0.22352 0.020014999 0.060803
0.24938001 -0.048997998 0.10984
0.25804999 -0.050742999 0.11709
0.15868001 -0.036423001 0.16419999
0.18032999 -0.034848001 0.12035
0.13985001 -0.0028814001 0.19335
0.20288999 -0.031532999 0.11415
0.23475 0.013478 0.10748
0.23209 0.001866 0.079290003
0.26025999 -0.050981998 0.1153
0.26036999 -0.051201001 0.11407
0.15452 -0.041781999 0.17163999
0.24157999 -0.024033001 0.14088
0.24128 -0.024436001 0.14036
0.23047 -0.010282 0.070354
0.23019999 -0.010562 0.0704
0.21178 -0.0077411002 0.088119
0.16641 -0.021461001 0.14195
0.12197 -0.051934 0.13440999
0.15949 -0.010064 0.14586
0.23878001 -0.043940999 0.14076
0.13082001 0.0012412 0.19972
0.1251 -0.044139002 0.14368001
0.12628999 -0.050712001 0.13265
0.23751999 0.018608 0.066017002
0.2342 0.023490001 0.064967997
0.18628 -0.048980001 0.16413
0.13203999 0.027365001 0.21295001
0.14128 -0.024123 0.15558
0.12326 -0.044284999 0.1453
0.12367 -0.045356002 0.14597
0.13651 0.013653 0.20292
0.13627 -0.049793001 0.13372999
0.20502999 0.024266999 0.10283
0.19696 -0.049628999 0.090737
0.12751 -0.033339001 0.16606
0.23353 0.01712 0.092638999
0.23582 -0.041313998 0.13936999
0.23684999 -0.042923 0.13862
0.26789001 -0.04984 0.109
0.12809999 -0.048514001 0.1384
0.23612 0.0074915998 0.10324
0.18505 -0.051105998 0.16306999
0.19645999 -0.028928 0.11721
0.26177001 -0.048193 0.12871
0.26142001 -0.048075002 0.12639
0.19417 -0.027913 0.12014
0.23096 0.019061999 0.055803001
0.12166 -0.04211 0.16257
0.21257 -0.0061557 0.085519999
0.21146999 -0.0061674002 0.087388001
0.2113 -0.0063347998 0.087682001
0.19036999 -0.035585999 0.11692
0.22803999 -0.021786001 0.070363998
0.13327999 0.033895999 0.21623001
0.13762 -0.052280001 0.14168
0.13778999 -0.052030999 0.14357001
0.1611 -0.0070553999 0.14563
0.13269 -0.040270001 0.16144
0.25152999 -0.043000001 0.1144
0.16301 0.0055121998 0.15888
0.23314001 0.019672999 0.083347
0.23 0.020031 0.082117997
0.16327 -0.032737002 0.17598
0.16333 -0.033642001 0.17622
0.16191 -0.034108002 0.17591
0.13567001 -0.034235999 0.16159
0.26418 -0.047696002 0.12509
0.23131999 0.017720999 0.10643
0.11234 -0.049981002 0.15952
0.17103 -0.0088539999 0.14086001
0.17670999 -0.020361001 0.14548001
0.13826001 -0.0037914 0.19404
0.13959 -0.0026399 0.19227
0.22125 -0.016255001 0.057259999
0.26280001 -0.051966999 0.11899
0.26087999 -0.051796 0.11851
0.23648 0.019773999 0.065334998
0.22499 -0.01134 0.069674
0.15209 -0.023584999 0.14516
0.24309 -0.043313 0.13022
0.24318001 -0.043223001 0.13209
0.21456 0.024209 0.080397002
0.23466 0.0092932004 0.063867003
0.15883 -0.026877001 0.14571001
0.24037001 -0.024524 0.14115
0.24087 -0.025796 0.14133
0.13738 0.022896999 0.19871999
0.24973001 -0.042870998 0.11718
0.23801 0.013695 0.061574999
0.23571 0.015508 0.074265003
0.24356 -0.040162999 0.13754
0.22431 0.0081628002 0.051957998
0.16684 -0.033994 0.18429001
0.23195 0.01778 0.082496002
0.25852999 -0.050685 0.1171
0.21447 -0.033668999 0.10826
0.23740999 -0.042682 0.13793001
0.13823 -0.045669999 0.14484
0.24167 -0.041455999 0.13465001
0.24113999 -0.04197 0.13519
0.22747999 -0.02035 0.059983999
0.24327999 -0.041804999 0.13356
0.18342 -0.025374999 0.12292
0.22814 0.027667999 0.069559999
0.18587001 -0.051346999 0.090906002
0.24804001 -0.046220001 0.12396
0.22209001 0.017167 0.058858
0.12283 -0.036665998 0.16492
0.12808999 0.024845 0.21325999
0.20321 0.014218 0.10675
0.21781 -0.032366998 0.10647
0.16305 -0.00035844001 0.15783
0.23283 0.0099887 0.099803999
0.18668 -0.0028615 0.14128999
0.24185 -0.032395002 0.13773
0.14439 -0.017990001 0.15603
0.18638 -0.049846999 0.094709001
0.18855 -0.037542 0.1169
0.2288 0.011914 0.058943
0.23278999 0.0022968 0.082510002
0.18278 -0.01013 0.13872001
0.16762 0.0062575 0.15526
0.19558001 -0.042599 0.10434
0.14094999 -0.050271001 0.14538001
0.22748999 0.010034 0.052395999
0.23576 0.01504 0.074679002
0.20011 -0.047153998 0.097208999
0.26809001 -0.050879002 0.11045
0.26846001 -0.049527999 0.10982
0.22566 -0.0025338 0.070802003
0.16005 -0.0076603 0.14486
0.13204999 0.0025066 0.19882999
0.20791 -0.051405001 0.094212003
0.12858 -0.045233998 0.16046999
0.12835 -0.045310002 0.16131
0.23649999 0.011386 0.074848004
0.16959 -0.0057318001 0.14334001
0.17516001 -0.022445999 0.14601
0.17422999 -0.021488 0.14408
0.16132 -0.035225 0.15614
0.12874 -0.046812002 0.16505
0.12967999 0.028921001 0.21428999
0.15431 -0.041531 0.16632
0.12970001 0.029653 0.21259999
0.17923 -0.013278 0.13880999
0.18350001 -0.024169 0.12294
0.22796001 -0.023283999 0.067753002
0.22134 0.026944 0.073118001
0.22181 0.027779 0.072760001
0.22091 0.026218001 0.074345
0.24153 -0.030452 0.14282
0.20272 0.024577999 0.10808
0.18429001 -0.044163998 0.11399
0.17046 -0.016021 0.13968
0.12104 -0.047239002 0.15144999
0.15888999 -0.0039463998 0.15344
0.13163 -0.017949 0.19475
0.22556999 0.0091631999 0.052281
0.22604001 0.0086436998 0.051438998
0.20602 -0.01469 0.10021
0.1455 -0.044984002 0.16942
0.23282 -0.038708001 0.13516
0.17145 -0.0287 0.15525
0.17432 -0.0014519 0.14471
0.139 0.0071728998 0.19541
0.23206 0.027288999 0.072393
0.21853 0.025401 0.072296001
0.23952 -0.030704999 0.12984
0.18738 -0.048866 0.1046
0.18685 -0.049931999 0.10339
0.23193 0.020164 0.057303
0.12547 -0.033137001 0.17087001
0.23226 0.018897001 0.085107997
0.22628 -0.0087962002 0.067286
0.25681999 -0.044987001 0.12966
0.16936 -0.026953001 0.14992
0.23236001 0.019827999 0.10374
0.1893 -0.026373001 0.12702
0.23515999 0.022783 0.085235
0.13644999 -0.0037169999 0.19275001
0.13292 0.032310002 0.21619
0.2234 0.027628999 0.072481997
0.18707 -0.012639 0.13916001
0.23195 -0.0218 0.068545997
0.16508999 -0.010102 0.14203
0.21344 -0.00043836 0.085130997
0.21329001 -0.0018787 0.083365001
0.20424999 -0.019419 0.10099
0.12383 -0.036855001 0.16277
0.17096999 0.0052399999 0.15426999
0.12111 -0.045951001 0.15095
0.24254 -0.038812999 0.13662
0.17175999 -0.026226999 0.15182
0.16225 -0.034694999 0.15584999
0.20118999 0.002748 0.10872
0.13993999 -0.041886002 0.16204
0.1416 -0.024700001 0.15717
0.13684 0.011752 0.19587
0.18968 -0.040114 0.11456
0.24135 -0.031465001 0.14241
0.23329 0.027422 0.073210999
0.22384 0.0029986999 0.077693
0.15182 -0.0039476999 0.15913001
0.15197 -0.0050750002 0.15956999
0.15223999 -0.0052791 0.1601
0.23270001 -0.01678 0.057881001
0.23133001 -0.0078107999 0.064221002
0.25117001 -0.043579001 0.13426
0.1115 -0.054219 0.16285001
0.12515999 -0.043561 0.15914001
0.18829 -0.0063435002 0.14038
0.18447 -0.048730001 0.16666
0.18440001 -0.049376 0.16672
0.18515 -0.049437001 0.16756999
0.13885 -0.052886002 0.13427
0.13556001 0.015853999 0.20631
0.13552999 0.015604 0.20704
0.13604 -0.039971001 0.16249
0.23361 0.0087676002 0.099849999
0.18479 -0.048287001 0.16773
0.22487999 -7.2759001e-05 0.073500998
0.12893 0.0017838 0.19992
0.18705 -0.0055701998 0.14064001
0.13867 -0.052648999 0.13886
0.18163 -0.043024 0.11898
0.24866 -0.041326001 0.13473
0.23494001 0.0055677998 0.078571998
0.1193 -0.031814002 0.1744
0.25396001 -0.045905001 0.1049
0.18535 0.00046941999 0.14488
0.13789999 -0.045848999 0.14539
0.21071 0.024793001 0.10288
0.20952 0.025598999 0.1037
0.25042 -0.045178 0.11455
0.21573 -0.0021035001 0.080326997
0.17995 0.00096600002 0.14911
0.19186001 -0.053514998 0.093038999
0.20618001 -0.048843 0.094159998
0.19950999 -0.048036002 0.10373
0.15898 -0.024584999 0.14382
0.1549 -0.012719 0.14624999
0.14804 -0.0097423 0.16181
0.20235001 0.016133999 0.10502
0.20126 0.017205 0.1073
0.22743 -0.021621 0.066960998
0.13823999 -0.045476999 0.17005
0.13831 0.0080048004 0.19492
0.19574 -0.047610998 0.11237
0.19549 -0.047952998 0.096244998
0.21510001 -0.0011831 0.085306004
0.15756001 -0.040562 0.17589
0.13975 -0.039246999 0.15974
0.1399 -0.037875 0.16092999
0.13902999 -0.038945001 0.16043
0.13461 -0.031803001 0.16494
0.21243 -0.0053858999 0.089125998
0.21171001 -0.0041606999 0.090271004
0.21213999 -0.0030118001 0.089195997
0.12473 -0.036506999 0.16753
0.23729999 0.019214001 0.081234001
0.22308999 -0.020011 0.062013999
0.21088 -0.004313 0.089428999
0.2221 0.02575 0.073714003
0.222 0.026941 0.072029002
0.25999999 -0.048489999 0.1095
0.18574999 -0.031422 0.12324
0.24309 -0.043508999 0.13085
0.12987 0.016279001 0.20667
0.12965 0.017978 0.20536999
0.13026001 0.016487001 0.20578
0.22423001 0.023087 0.098514996
0.22332001 0.022709001 0.098236002
0.22245 0.022761 0.099687003
0.15109 -0.037898999 0.15345
0.25593001 -0.050677001 0.11328
0.25512999 -0.049736999 0.1131
0.21188 -0.037206002 0.11074
0.20148 -0.048900999 0.095380999
0.16918001 0.0070556002 0.15555
0.16954 0.0064331 0.15684
0.21613 0.021414001 0.078529
0.21578 0.0017318 0.078607
0.24117 -0.047421001 0.13521001
0.1515 -0.028138001 0.14803
0.21092001 -0.037346002 0.11586
0.12405 -0.049072001 0.14163999
0.23027 0.011073 0.057551
0.22248 0.0054946002 0.079029001
0.13710999 -0.048482999 0.14767
0.13945 -0.050267 0.1314
0.17341 -0.010888 0.14004999
0.11661 -0.034781002 0.17422999
0.13463999 -0.046521001 0.16670001
0.20767 -0.011388 0.097710997
0.22442999 -0.0095902001 0.070722997
0.22311001 -0.0061464999 0.072949
0.22337 -0.0079803998 0.070781998
0.13534001 0.024212999 0.19905999
0.12909 0.019014001 0.20694999
0.18674 -0.032184999 0.11966
0.15361001 -0.015146 0.14679
0.20328 0.02648 0.10936
0.23453 0.0021242001 0.082225002
0.19073001 -0.041630998 0.11563
0.21630999 0.0057508 0.080720998
0.20163999 0.026515 0.11181
0.12905 -0.033845 0.16778
0.20161 -0.033287 0.11659
0.18716 -0.031025 0.12184
0.13989 -0.044346999 0.16734
0.23395 0.020927001 0.092349
0.23524 0.021055 0.089846998
0.19626001 -0.025996 0.11989
0.14452 -0.050677001 0.13937999
0.13732 -0.00042646 0.19118001
0.24025001 -0.029851001 0.14230999
0.1181 -0.041595001 0.1645
0.22062001 0.027375 0.072962999
0.1463 -0.014009 0.15436
0.13797 -0.044509999 0.16421001
0.13832 0.017532 0.19981
0.25 -0.039220002 0.13965
0.11962 -0.036826 0.16768999
0.24042 -0.024065999 0.13808
0.14805999 -0.014608 0.15293001
0.233 0.023939 0.090983003
0.12839 -0.045161001 0.16159999
0.20315 -0.034630001 0.12004
0.18582 -0.053266998 0.094077997
0.23071 -0.0019009 0.076824002
0.13158999 -0.045784999 0.14033
0.26297 -0.050161 0.12637
0.26300001 -0.049617 0.12740999
0.21199 -0.0047932998 0.084994003
0.13855 0.0037739 0.19599
0.18489 -0.038941 0.11496
0.2121 0.029438 0.088926002
0.12118 -0.040945999 0.16137999
0.15059 -0.042245999 0.16163
0.15895 -0.036913998 0.16413
0.23704 -0.040807001 0.1417
0.16459 0.00051857001 0.15781
0.16457 0.00044202001 0.15723
0.13388 0.011666 0.19791
0.21084 -0.0048511 0.086220004
0.13572 -0.011572 0.19097
0.2216 0.014048 0.057057999
0.25499001 -0.046622001 0.11114
0.19106001 -0.043924998 0.096830003
0.18502 0.00076455 0.14442
0.22384 -0.002288 0.072555996
0.26473001 -0.046804 0.11784
0.22041 0.016491 0.061429001
0.23014 0.022369999 0.10863
0.23138 0.012051 0.055318002
0.17527001 -0.021312 0.14301001
0.24484999 -0.034426998 0.13706
0.12774 -0.047773 0.16735999
0.21732 0.020540999 0.080104999
0.18598001 -0.053854998 0.090428002
0.20209 -0.047021002 0.097030997
0.23521 0.013161 0.076273002
0.23422 0.019776 0.081153996
0.18000001 0.0044522001 0.15591
0.17811 0.0046452 0.15706
0.22669999 0.0067492002 0.080395997
0.23276 0.018553 0.10673
0.24314 -0.048813999 0.12846
0.17268001 -0.021593001 0.14594001
0.17313001 -0.016596001 0.14094
0.21352001 -0.038825002 0.11632
0.21245 -0.040385999 0.1169
0.18594 0.00070434 0.14596
0.20307 -0.0078899004 0.10115
0.12779 -0.034788001 0.17007001
0.20284 -0.049160998 0.10138
0.24483 -0.032774001 0.13530999
0.22961999 0.018939 0.10848
0.2349 0.0092746997 0.064746
0.23518001 0.010338 0.064042002
0.13589001 0.0017358999 0.1883
0.12432 -0.045988001 0.14271
0.1229 -0.044399001 0.14861
0.20497 -0.047938999 0.09386
0.11094 -0.053025998 0.16647001
0.11065 -0.050703999 0.16738001
0.20570999 0.00035469999 0.096258998
0.1374 -0.0042615002 0.19404
0.23603 0.012558 0.073982
0.21785 0.0033634 0.080349997
0.15671 -0.039707001 0.17008001
0.24856 -0.041894998 0.13109
0.14689 -0.0096559003 0.16213
0.13444 -0.054219 0.13849001
0.13150001 -0.053686 0.13787
0.13202 -0.051497001 0.13707
0.22176 -0.0073581999 0.068462998
0.18814 -0.046108998 0.10482
0.18781 -0.048303999 0.10366
0.18734001 -0.047469001 0.10574
0.20456 -0.048932999 0.093947001
0.23380999 0.016798001 0.096006997
0.12007 -0.047832999 0.15271001
0.13158 -0.032184001 0.16848999
0.22186001 0.0076094 0.073371001
0.22067 0.0084875003 0.072405003
0.22235 0.0074558002 0.072172999
0.20484 0.026107 0.10323
0.17246 0.0035134 0.15747
0.17783 -0.051006 0.16911
0.23345999 0.011521 0.060417999
0.13283999 0.020822 0.21065
0.1865 -0.033015002 0.11946
0.15597001 -0.0029269999 0.15902001
0.23669 0.027284 0.072462998
0.21887 0.0056697 0.077145003
0.14669999 -0.044303 0.16642
0.23706999 0.011912 0.061875999
0.23120999 0.0066260002 0.076866001
0.17844 -0.024653999 0.15426999
0.14049 -0.052730002 0.14342999
0.21388 -0.042029001 0.11996
0.21187 -0.039709002 0.12141
0.14685 -0.012942 0.15993001
0.14225 -0.033803001 0.1559
0.22213 0.014338 0.058944002
0.23454 0.011831 0.080770001
0.17793 -0.023115 0.15124001
0.1408 -0.0063657998 0.19780999
0.13534001 0.012805 0.20841999
0.25128001 -0.043607 0.12185
0.14121 -0.037453 0.15804
0.14061999 -0.036494002 0.15625
0.18445 -0.051656999 0.16539
0.16752 -0.035062 0.18797
0.14377999 -0.024181999 0.15268999
0.21430001 -0.015321 0.078221999
0.21363001 -0.01688 0.078447998
0.22319999 -0.019398 0.062879004
0.24665 -0.035333 0.138
0.18632001 -0.0083211996 0.13979
0.23368999 0.01331 0.057232
0.23370001 0.019105 0.068117
0.23428001 0.012941 0.088913001
0.12970001 0.020342 0.20740999
0.18275 -0.0010203 0.14568999
0.13428 -0.045802001 0.14896999
0.21259999 0.028587 0.090072997
0.15613 -0.026673 0.14580999
0.19926 -0.047947001 0.10593
0.18434 -0.049419001 0.094112001
0.12925 0.0025386999 0.20336001
0.19649 -0.025248 0.12215
0.21533 -0.036502998 0.11114
0.23198 0.013171 0.083729997
0.13060001 -0.0094793998 0.19870999
0.24888 -0.045127999 0.11444
0.22130001 0.024684001 0.071731001
0.18069001 0.0042627999 0.15155999
0.23514 0.018580999 0.083485998
0.22436 -0.030995 0.073045999
0.13349999 0.035025999 0.21547
0.13476001 -0.053762998 0.13671
0.20570999 -0.015427 0.10103
0.13011 0.0096677998 0.20426001
0.23421 0.026943 0.075390004
0.25612 -0.044592999 0.12973
0.18786 -0.045322999 0.10026
0.25420001 -0.043722998 0.13107
0.17666 -0.022124 0.14666
0.22691999 0.014719 0.055645
0.13772 0.012886 0.20364
0.13631 0.011975 0.20480999
0.19981 0.020524999 0.11097
0.21360999 -0.039253 0.11703
0.21132 -0.040096 0.11776
0.17968 -0.041785002 0.12094
0.18623 -0.026115 0.12565
0.21971001 0.015214 0.062726997
0.13434 -0.044048999 0.14821
0.18466 -0.030219 0.12504999
0.16932 0.0032345999 0.15343
0.23605999 0.019951001 0.086282998
0.12241 -0.037510999 0.16771001
0.21811 -0.030487999 0.10315
0.21761 -0.031061999 0.1039
0.20354 -0.02365 0.10278
0.18929 -0.044688001 0.10054
0.23328 0.018452 0.095881
0.20619 -0.034529001 0.11401
0.26041999 -0.051507998 0.11612
0.22271 -0.017401 0.061542001
0.22295 -0.018091001 0.060010999
0.21221 -0.0079178 0.086346
0.18821999 -0.015788 0.13933
0.18421 -0.032871999 0.12323
0.23751999 0.011349 0.071200997
0.19637001 -0.038902 0.12535
0.19839001 -0.036936 0.12853999
0.16359 -0.033144001 0.15363
0.24056 -0.029310999 0.14305
0.24077 -0.029464999 0.14314
0.24068999 -0.028046001 0.14298999
0.19619 -0.038915001 0.12536
0.12551001 -0.033128001 0.17291
0.22868 0.012804 0.060922999
0.25075999 -0.048335001 0.10771
0.11769 -0.043997001 0.16237
0.24992999 -0.049532998 0.10905
0.22468001 -0.022586999 0.068944998
0.16537 0.0056679002 0.15817
0.20949 -0.0054668002 0.095182002
0.12141 -0.038279999 0.16802
0.21319 -0.042862002 0.12194
0.23064999 0.0030418001 0.077653997
0.22761001 -0.011122 0.075277001
0.14822 -0.043375 0.16629
0.19481 -0.025576999 0.1213
0.11896 -0.037696999 0.17454
0.11944 -0.039549001 0.16893999
0.20749 -0.0040624002 0.093686998
0.22994 0.017614 0.057218
0.13777 0.011275 0.20186999
0.14123 -0.043329 0.16565
0.13711999 0.00057089003 0.19114999
0.22677 -0.011829 0.069421999
0.14055 -0.039815001 0.15851
0.22877 0.020126 0.11119
0.2353 0.019637 0.10729
0.14814 -0.010662 0.15904
0.23276 0.023243999 0.080927998
0.23332 0.022597 0.081479996
0.2349 0.022789 0.082755998
0.22407 0.024168 0.064186998
0.18426 0.0061232001 0.15194
0.12932999 -0.0405 0.16029
0.1429 -0.053521 0.14086001
0.23106 0.018580001 0.11319
0.15067001 -0.0057449001 0.16162001
0.15095 -0.0059834002 0.16088
0.23431 0.020555001 0.082382999
0.21321 0.026498999 0.088260002
0.21325 0.025082 0.088656001
0.21549 0.025975 0.084197998
0.14341 -0.044859 0.17030001
0.18237001 -0.043797001 0.11843
0.17673001 0.0033935001 0.15631001
0.17652 0.0044482001 0.15717
0.24978 -0.045740001 0.11068
0.18854 -0.046220001 0.10985
0.23253 0.023753 0.072237
0.12938 -0.051803 0.13717
0.12789001 -0.051833998 0.13733999
0.12688001 -0.052226 0.13741
0.23217 0.01781 0.10117
0.18863 -0.045951001 0.1061
0.20085999 0.0039555999 0.10892
0.20781 -0.0069102999 0.097226001
0.14712 -0.024948001 0.14917
0.19752 -0.052974001 0.095962003
0.14095999 -0.041792002 0.16193999
0.17044 -0.0013375001 0.14888
0.13217001 -0.045083001 0.15406001
0.19761001 -0.051782001 0.091603003
0.21559 0.001332 0.082952
0.12861 0.0055223 0.20536
0.22215 0.024972999 0.069186002
0.18543001 -0.035078 0.11917
0.21844999 -0.030018 0.10106
0.21934 -0.030136 0.10226
0.23404001 0.010334 0.10846
0.13361999 -0.047398001 0.14797001
0.24616 -0.046620999 0.12616999
0.24121 -0.029722 0.1424
0.20088001 0.016313 0.10802
0.20431 -0.052917998 0.097181
0.22753 0.011504 0.059177998
0.21117 -0.0098631 0.087474003
0.14022 -0.027299 0.15776999
0.14173999 -0.028669 0.15795
0.13484 0.022097001 0.20999999
0.15914001 -0.035643999 0.16534001
0.22779 0.026684999 0.069169998
0.13951001 -0.048218001 0.14598
0.19983999 -0.048804 0.10808
0.23526999 -0.037160002 0.13025001
0.13619 0.0012922999 0.19065
0.18697 -0.054341 0.092331998
0.25547999 -0.045255002 0.12992001
0.18594 -0.050241999 0.095252
0.14342999 -0.02156 0.1558
0.14394 -0.019446 0.15642001
0.18678001 -0.029292 0.12626
0.22351 0.021566 0.064865001
0.23478 0.0072919 0.072587997
0.23242 0.019694 0.081896
0.17726 0.0046299002 0.15505999
0.12346 -0.047720999 0.14013
0.25093001 -0.041379999 0.13844
0.25088999 -0.042536002 0.14047
0.15372001 -0.041675001 0.17121001
0.21466 0.022744 0.10062
0.11216 -0.050705001 0.16384
0.2237 0.0014337 0.077885002
0.22694001 0.022398001 0.076003
0.22793999 0.022146 0.075048998
0.22612 0.022499001 0.076297
0.18172 -0.048324998 0.16418999
0.23841 -0.038823001 0.13342001
0.23016 0.021259001 0.11088
0.23033001 0.018189 0.11231
0.13912 -0.052972998 0.145
0.16407999 -0.034453999 0.17647
0.19019 -0.044620998 0.12106
0.21823999 -0.030021001 0.10166
0.20381001 -0.035445001 0.11785
0.14667 -0.044199001 0.16841
0.2097 -0.0045779999 0.091513
0.26469001 -0.048709001 0.12576
0.14657 -0.013884 0.15612
0.18768001 -0.028597999 0.12689
0.18878999 -0.028276 0.12592
0.13451 -0.031768002 0.16538
0.20274 0.031899001 0.11152
0.26159 -0.046162002 0.12628999
0.22968 0.02547 0.070877999
0.24692 -0.036743 0.13882001
0.15657 -0.0014397 0.15861
0.15783 -0.0020560999 0.16165
0.19458 -0.04078 0.12650999
0.19580001 -0.039972998 0.12667
0.19400001 -0.037726998 0.12702
0.23762 -0.034125999 0.12864999
0.22661 0.0034083 0.075726002
0.2131 -0.0049167001 0.088496
0.13322 -0.0065221 0.19727001
0.22101 -0.0079637002 0.080450997
0.2189 -0.0082548 0.081430003
0.21980999 -0.0093480004 0.080977
0.12730999 -0.0014869 0.20764001
0.20787001 -0.00089218002 0.092386
0.23356 0.0071483999 0.075133003
0.23434 0.022332 0.082745999
0.18125001 0.0032523 0.15667
0.18208 0.0052381 0.1549
0.22216 -0.013953 0.073890001
0.21859001 -0.0091241999 0.074026003
0.1603 0.00042493001 0.15815
0.19832 -0.039018001 0.12563001
0.18751 -0.045954 0.1043
0.18858001 -0.047077 0.10333
0.17660999 0.0047149998 0.1548
0.17814 -0.022789 0.1473
0.12890001 -0.052496001 0.1354
0.12279 -0.052468002 0.13462999
0.17575 -0.051849 0.12611
-0.035386 0.084322996 0.13243
-0.034889001 0.082571 0.13417999
-0.035519 0.082250997 0.13246
-0.036458001 0.082528003 0.13141
-0.036013 0.084132999 0.13247
0.019747 0.048179999 0.13855
0.018169999 0.048751 0.13792001
0.018927 0.047274001 0.13787
-0.032855999 0.082888998 0.13271999
0.063055001 -0.049093001 0.13355
0.065053999 -0.048471998 0.13316
0.063518003 -0.050464001 0.13392
0.027318999 0.043483999 0.090264
0.028236 0.043556001 0.091054
0.027411001 0.042636 0.089806996
0.015215 0.0061185001 0.057758
0.014761 0.0042909998 0.058759999
0.013819 0.0045898999 0.059103001
0.015462 0.06532 0.14245
0.018962 0.064684004 0.14320999
0.018012 0.064887002 0.14292
0.065070003 -0.018571001 0.040803
0.064221002 -0.017911 0.041023999
0.064594999 -0.016805001 0.040973
-0.048686001 0.090963997 0.12842
-0.046385001 0.089190997 0.12801
-0.049981002 0.090184003 0.12764999
0.0076184999 0.083028004 0.12507001
0.0063666999 0.082658999 0.12547
0.0083149001 0.081656002 0.12705
-0.016802 0.054241002 0.14252999
-0.016443999 0.056561001 0.14005999
-0.018005 0.055783998 0.13993999
0.0045004999 0.073784001 0.095942996
0.0038135001 0.074982002 0.096069999
0.0051735002 0.074066997 0.097645998
0.015594 0.066895001 0.14429
0.014815 0.067138001 0.1463
0.01671 0.067988999 0.14443
-0.036479998 0.063378997 0.12872
-0.037721001 0.062243 0.13019
-0.037464999 0.061917 0.12914
0.026876001 0.048930001 0.14722
0.02777 0.046135001 0.14763001
0.027705001 0.047789 0.14767
0.039774999 0.043806002 0.10075
0.039271001 0.043627001 0.10251
0.041111998 0.042948 0.10276
0.022919999 0.064404003 0.14743
0.023414999 0.065141998 0.14742
0.023081001 0.066069998 0.14703999
0.021724001 0.066131003 0.14828999
0.023686999 0.066891998 0.14927
0.023753 0.064678997 0.14772999
0.023464 0.067327999 0.15223999
0.025555 0.067359999 0.15391999
0.024861 0.066344999 0.15354
0.022268999 0.067418002 0.15227
0.025194 0.066229001 0.15349001
-0.0022296 0.099350996 0.090281002
-0.0010736 0.10064 0.090869002
-0.00055295997 0.097639002 0.091169
-0.044992 0.082530998 0.12389
-0.044411 0.083917998 0.12357
-0.043733999 0.082271002 0.12348
0.0087331003 0.074217997 0.13311
0.0088662999 0.076309003 0.13241
0.0089804996 0.075286001 0.1332
-0.050703 0.089088 0.11961
-0.050907999 0.085685998 0.11917
-0.052358001 0.088744 0.11847
0.0021255 0.06944 0.15737
0.0027931 0.069443002 0.15730999
0.0032528001 0.068244003 0.1593
-0.046583001 0.088306002 0.13499001
-0.045146 0.087985002 0.13519999
-0.045502 0.085591003 0.13431001
-0.045244001 0.088114001 0.13236
-0.044105999 0.064738996 0.12768
-0.044962 0.064121 0.12816
-0.044181999 0.065286003 0.12532
0.0043326998 0.092588 0.11006
0.0028925999 0.093523003 0.11119
0.0043782 0.092528 0.11112
-0.057077002 0.094392002 0.11949
-0.055667002 0.093502998 0.12041
-0.056589 0.093432002 0.11814
0.071503997 -0.018195 0.045233998
0.072440997 -0.018707 0.045887999
0.071286 -0.019598 0.044829
0.012885 0.067612998 0.14608
0.012002 0.067570001 0.14388999
0.012043 0.067722 0.14628001
0.040171999 0.042348001 0.10428
0.040550999 0.042259999 0.10456
0.041274998 0.042741001 0.10419
-0.054668002 0.091978997 0.12944999
-0.054995 0.092349999 0.13099
-0.052464999 0.092113003 0.12899999
-0.052809998 0.092258997 0.12836
-0.044930998 0.083286002 0.12316
-0.041777 0.082622997 0.12533
-0.043274999 0.083489001 0.12575001
0.0016175 0.093801998 0.10925
0.0030652999 0.092707999 0.1083
0.0027677999 0.093365997 0.10736
-0.038787 0.064990997 0.12736
-0.040831 0.064075999 0.12863
-0.038406 0.064786002 0.12621
-0.052540001 0.091806002 0.1267
-0.050262999 0.090591997 0.12752999
-0.052983001 0.091712996 0.12678
0.0029225999 0.098269001 0.096353002
0.0026737 0.098941997 0.096329004
0.0021001999 0.099707998 0.097037002
0.011128 0.067809001 0.14335001
0.010383 0.068917997 0.14391001
0.021195 0.067051999 0.15335999
0.020652 0.068444997 0.15395001
0.022306001 0.068549 0.15389
0.017913001 0.065757997 0.14469001
0.018793 0.064144999 0.14497
-0.057220001 0.093686 0.12027
0.021753 0.067901999 0.15576001
-0.045619 0.087373003 0.13533001
-0.037540998 0.083419003 0.12836
-0.037351001 0.083191998 0.13029
-0.036088001 0.082217 0.13075
-0.036807001 0.082851999 0.13088
0.029177999 0.043446001 0.088830002
0.030517999 0.042766999 0.088632002
0.028384 0.044353001 0.086162001
0.034148999 0.045196 0.089716002
0.036745001 0.043680001 0.087543003
0.035273999 0.044280998 0.088655002
0.020217 0.065880999 0.14613999
0.019757999 0.066253997 0.14679
0.021322001 0.066532001 0.14672001
0.0092072003 0.077104002 0.12856001
