# .PCD v0.7 - Point Cloud Data file format
VERSION 0.7
FIELDS x y z
SIZE 4 4 4
TYPE F F F
COUNT 1 1 1
WIDTH 1672
HEIGHT 1
VIEWPOINT 0 0 0 1 0 0 0
POINTS 1672
DATA ascii
0.18717 0.17979001 0.2518
0.18876 0.17944001 0.25196999
0.18736 0.23616999 0.26765999
0.18087 0.24506 0.26456001
0.18212 0.24515 0.26348001
0.18063 0.21659 0.27596
0.17952999 0.21629 0.27563
0.18256 0.23926 0.26896
0.20721 0.080797002 0.23830999
0.20397 0.080851004 0.23943999
0.1908 0.14832 0.25867
0.19265001 0.14881 0.25608999
0.19163001 0.14982 0.25841001
0.1705 0.088192001 0.29545999
0.17123 0.088610001 0.29651001
0.17098001 0.089556001 0.29646
0.18517999 0.1337 0.28463
0.19141001 0.11457 0.25578001
0.19284999 0.11451 0.25760001
0.19004001 0.11533 0.25488999
0.17766 0.21867 0.25119999
0.17873999 0.21828 0.25264999
0.17901 0.066743001 0.30458
0.18585999 0.11624 0.25674
0.18391 0.11893 0.25762001
0.18440001 0.11873 0.25724
0.21010999 0.077257 0.24595
0.21041 0.077109002 0.24695
0.21072 0.077598996 0.24674
0.17644 0.20128 0.28187999
0.17553 0.20104 0.28286001
0.18431 0.20489 0.24511001
0.18185 0.20454 0.24521001
0.18096 0.2045 0.24559
0.18113001 0.068241999 0.30888
0.18047 0.068264 0.31
0.18221 0.066978 0.30974001
0.18032999 0.2273 0.26969999
0.16069999 0.22459 0.26923999
0.16097 0.22406 0.27079001
0.1595 0.22486 0.27006
0.18516 0.23698001 0.24877
0.1996 0.063974001 0.30451
0.17795999 0.17876001 0.2516
0.1789 0.17781 0.24998
0.17713 0.17626999 0.24946
0.16106001 0.2463 0.25852999
0.16114999 0.24711999 0.25872999
0.1604 0.24673 0.25869
0.18104 0.094024003 0.27941
0.17929 0.094316997 0.27974001
0.18077999 0.093000002 0.27835
0.19306999 0.091332003 0.25207001
0.1337 0.080292001 0.26212999
0.13196 0.080903001 0.26203999
0.13196 0.080807 0.26144001
0.18367 0.12976 0.27160999
0.18269999 0.12946001 0.27189001
0.18301 0.12874 0.27217001
0.21058001 0.058216002 0.28478
0.20942999 0.057163 0.28529
0.20979001 0.056676999 0.28481999
0.18528 0.092202999 0.27968001
0.18520001 0.090310998 0.27833
0.1851 0.092242002 0.27855
0.15402 0.12134 0.26662999
0.15279 0.12161 0.26712999
0.15444 0.12161 0.26919001
0.18079001 0.12049 0.27327001
0.18102001 0.12159 0.27134001
0.18141 0.1221 0.27261001
0.18234999 0.23637 0.25097999
0.19080999 0.096111 0.27182001
0.18821 0.094444998 0.27076
0.19114999 0.095198996 0.27223
0.19889 0.076013997 0.3017
0.18442 0.052641001 0.32374999
0.13271999 0.084775999 0.25718999
0.13294999 0.083557002 0.25698
0.20649999 0.080424003 0.22786
0.20397 0.080725998 0.22833
0.20387 0.079357997 0.22875001
0.18331 0.19069 0.27182001
0.19452 0.097428001 0.25823
0.19467001 0.096135996 0.25748
0.19515 0.097466998 0.25845999
0.19825 0.074704997 0.27359
0.19683 0.074850999 0.27414
0.19678 0.074629001 0.27498001
0.15654001 0.12285 0.26736999
0.15515999 0.12318 0.26697999
0.16468 0.16182999 0.27248001
0.16224 0.16122 0.27346
0.1761 0.24357 0.27371001
0.16144 0.22621 0.26949
0.17922001 0.17974 0.2476
0.17858 0.17747 0.2483
0.17831001 0.17921001 0.24942
0.19192 0.20067 0.2588
0.19069 0.20184 0.25737
0.19 0.12773 0.25861001
0.19112 0.12948 0.25962999
0.18934999 0.12815 0.25959
0.18382999 0.10699 0.27810001
0.18461999 0.106 0.27699
0.18573 0.053144999 0.32027
0.18535 0.054575998 0.32260001
0.18878999 0.093583003 0.27153
0.18959001 0.093987003 0.27399001
0.20920999 0.054701 0.28986999
0.21212 0.052901 0.28758001
0.2114 0.054104999 0.28773999
0.18328001 0.073560998 0.30357
0.18323 0.071709 0.30274001
0.18408 0.072616003 0.30476999
0.19255 0.14245 0.25464001
0.18929 0.14235 0.25555
0.18619999 0.088400997 0.28652
0.20012 0.078446001 0.26822999
0.19938999 0.079832003 0.26903
0.17212 0.24661 0.26018
0.1717 0.24558 0.25957999
0.20716999 0.079641998 0.24741
0.17637999 0.13887 0.28740001
0.17456999 0.13736001 0.28744
0.22318 0.054857001 0.23265
0.22545999 0.052315 0.23523
0.22570001 0.054212999 0.23375
0.18348999 0.1998 0.26789001
0.18409 0.19938999 0.26797
0.15712 0.12242 0.26921999
0.17538001 0.088866003 0.29175001
0.17481001 0.088657998 0.29368001
0.17578 0.089253001 0.29192001
0.18318 0.20738 0.27583
0.18286 0.20517001 0.27919
0.16831 0.15874 0.27517
0.13082001 0.072457999 0.26133999
0.131 0.072525002 0.26036999
0.13165 0.072811 0.26117
0.20888001 0.060890999 0.24394
0.20893 0.059441999 0.24141
0.20826 0.061411001 0.24271999
0.16948 0.17907 0.28068
0.17003 0.18028 0.27750999
0.16940001 0.17852999 0.28020999
0.16762 0.16164 0.27272999
0.16547 0.16231 0.27057999
0.16723999 0.16193999 0.27426001
0.18129 0.21664999 0.28224999
0.18434 0.12272 0.26405001
0.18313999 0.12483 0.26479
0.18535 0.19818 0.26898
0.18621001 0.19664 0.27009001
0.18851 0.19592001 0.26881
0.19232 0.083535001 0.30327001
0.19283 0.084816001 0.30066001
0.18875 0.084457003 0.29440001
0.18757001 0.085455 0.29460001
0.18342 0.22696 0.25084999
0.18339001 0.22623999 0.25073999
0.18898 0.078831002 0.30860001
0.18929 0.077555999 0.30757999
0.19021 0.077226996 0.30807999
0.1628 0.14928 0.27667001
0.16196001 0.14893 0.27724999
0.16248 0.14895 0.27634999
0.17400999 0.2131 0.28185999
0.17466 0.21067999 0.28277999
0.17552 0.21303999 0.28211001
0.17581999 0.18113001 0.27996001
0.1763 0.18313999 0.28138
0.17832001 0.18295 0.28055
0.1787 0.11363 0.28172001
0.17851 0.11336 0.28132001
0.18854 0.16525 0.26194
0.18447 0.16441 0.25817999
0.18391 0.16541 0.25832
0.18568 0.16513 0.25891
0.19103999 0.091844 0.27166
0.19239999 0.093832001 0.27263001
0.19241001 0.091641001 0.27118999
0.17775001 0.079680003 0.30816001
0.19238 0.13672 0.24777
0.19338 0.13533001 0.24996001
0.1891 0.054044999 0.32143
0.19078 0.055868 0.32078999
0.20665 0.071194001 0.24955
0.20615 0.071565002 0.24979
0.18803 0.17825 0.26510999
0.19394 0.087291002 0.25619999
0.19307999 0.086369999 0.25393999
0.19431999 0.088141002 0.25523001
0.21565001 0.064070001 0.24018
0.214 0.064061999 0.2392
0.17851 0.092278004 0.28044
0.17791 0.093912996 0.27857
0.17844 0.091574997 0.28038999
0.18055999 0.19407 0.27566999
0.20399 0.068392999 0.25619
0.20555 0.069140002 0.25779
0.20618001 0.068085 0.25727001
0.18237001 0.21981999 0.26359001
0.18152 0.2193 0.26528999
0.18152 0.22115999 0.2633
0.18297 0.14114 0.28654999
0.18469 0.1429 0.28385001
0.18504 0.14301001 0.28740999
0.18418001 0.17507 0.26475999
0.18325999 0.17400999 0.26482001
0.18657 0.085150003 0.24501
0.18434 0.12876 0.28099999
0.18328001 0.12882 0.27945
0.19732 0.089971997 0.24326999
0.1971 0.089763999 0.24391
0.19791 0.089977004 0.24337
0.18546 0.056056999 0.32093
0.18713 0.055493001 0.32137999
0.18939 0.086083002 0.27364001
0.18978 0.086364999 0.27259001
0.18862 0.086836003 0.27588999
0.18297 0.095081002 0.2809
0.18065999 0.097396001 0.27919999
0.18064 0.094702996 0.28064001
0.18700001 0.19065 0.26949999
0.18836001 0.19023 0.26870999
0.18702 0.19278 0.26831001
0.1813 0.088266 0.29339001
0.18177 0.088395998 0.29337999
0.19739 0.068301998 0.29091001
0.19689 0.068604 0.29071
0.19797 0.068709001 0.28788
0.18234 0.12245 0.25435999
0.18244 0.12111 0.25619
0.17818999 0.090094998 0.28917
0.19212 0.15528999 0.25922999
0.19532 0.15699001 0.25718999
0.19267 0.101 0.25762001
0.17639001 0.15433 0.28622001
0.17771 0.15628999 0.28533
0.18098 0.17321999 0.27384001
0.19286001 0.053061999 0.31896001
0.18396001 0.21577001 0.27296999
0.18483 0.21758001 0.27208999
0.18492 0.21585999 0.27347001
0.15848 0.24677999 0.25523999
0.15968999 0.24617 0.25639001
0.15843999 0.24676 0.25543001
0.18475001 0.14974 0.28400001
0.18548 0.1495 0.28529
0.17623 0.086320996 0.29751
0.17647 0.086172 0.29892999
0.15909 0.19202 0.27342999
0.16001999 0.19148 0.27416
0.15487 0.05308 0.29492
0.15423 0.052521002 0.29473001
0.14257 0.088754997 0.26058
0.14398 0.089653 0.26243001
0.14286 0.089813001 0.26014999
0.19151001 0.15391999 0.26607001
0.19128001 0.15459 0.26541999
0.17367999 0.11666 0.27719
0.17535999 0.11406 0.27669001
0.17493001 0.116 0.27647001
0.17987999 0.099933997 0.28058001
0.18461999 0.10139 0.28014001
0.18199 0.10087 0.27941999
0.18115 0.1716 0.25429001
0.18189 0.17120001 0.25274
0.21757001 0.065683998 0.23677
0.21647 0.068190001 0.23695999
0.21867 0.065641001 0.2377
0.18013 0.082121 0.30836999
0.21367 0.058254 0.27678999
0.21318001 0.055865999 0.27765
0.21447 0.054409001 0.27575001
0.20836 0.079867996 0.24716
0.20853999 0.078656003 0.24811
0.20908 0.078607999 0.24654
0.20821001 0.053188998 0.29008999
0.20258 0.065444998 0.25364
0.20461001 0.064664997 0.25424001
0.20367 0.064242996 0.25455001
0.18235999 0.16311 0.27340999
0.18087 0.16351999 0.27616999
0.18172 0.16407999 0.27572
0.19337 0.079800002 0.30847001
0.19294 0.079269998 0.30825999
0.19418 0.079276003 0.30599001
0.17887001 0.090609998 0.28808001
0.17705999 0.090418003 0.28902
0.18269999 0.23622 0.26780999
0.18195 0.23536 0.26879999
0.18138 0.23408 0.26892999
0.17481001 0.15839 0.28376999
0.17268001 0.15786 0.28342
0.17121001 0.085933998 0.29706001
0.17168 0.088109002 0.29765001
0.19182 0.099753 0.25204
0.19038001 0.10113 0.24988
0.19232 0.099481001 0.25154999
0.19177 0.15013 0.25580001
0.18612 0.23148 0.25573
0.18592 0.23097999 0.25507
0.18623 0.23181 0.25398999
0.16862001 0.1568 0.28176001
0.16831 0.15507001 0.2809
0.16632999 0.15414999 0.28156
0.19365001 0.11268 0.26914001
0.19385 0.11286 0.26907
0.19204 0.14764 0.26831001
0.18735 0.14815 0.26892999
0.19031 0.14756 0.26897001
0.18939 0.23286 0.24783
0.18700001 0.23337001 0.24766
0.17382 0.14806999 0.28815001
0.21289 0.064461 0.23593
0.21263 0.066200003 0.23662999
0.21144 0.063450001 0.23793
0.19207001 0.084780999 0.30607
0.19179 0.084818996 0.30706
0.19076 0.086049996 0.30702999
0.18213999 0.22356001 0.26275
0.18219 0.22214 0.26212001
0.18553001 0.13815001 0.28011
0.21365 0.066198997 0.24353001
0.21279 0.066403002 0.24298
0.21392 0.066886999 0.24368
0.19402 0.089038 0.24918
0.19177 0.088361003 0.25077
0.18666001 0.23102 0.24811999
0.19284999 0.15710001 0.25511
0.19207001 0.15547 0.25488999
0.19111 0.15696999 0.25455999
0.18196 0.13909 0.24545
0.18274 0.13935 0.24502
0.17314 0.21283001 0.28272
0.17354 0.21353 0.28121999
0.1728 0.21431001 0.2823
0.18318 0.091366 0.28253001
0.18363 0.089929998 0.27932999
0.18257999 0.091527 0.27930999
0.18643001 0.17676 0.25718999
0.18609001 0.17528 0.2577
0.18601 0.17442 0.25670001
0.19106001 0.20513 0.25677001
0.19225 0.20333999 0.25808001
0.17991 0.22837999 0.26831999
0.17959 0.22781 0.26980001
0.21071 0.050542001 0.28656
0.21222 0.050234001 0.2879
0.21132 0.051183999 0.28758001
0.14213 0.085882001 0.26431999
0.1418 0.086448997 0.26390001
0.14255001 0.085899003 0.26381999
0.18367 0.21849 0.26899001
0.19598 0.072609 0.27684999
0.19657999 0.070322998 0.27998999
0.19771001 0.071516998 0.27810001
0.19235 0.063924998 0.30531001
0.19235 0.089961998 0.27197
0.18987 0.090926997 0.27199
0.19133 0.089148998 0.27243999
0.17279001 0.20195 0.28165999
0.17313001 0.20280001 0.28266999
0.17293 0.20390999 0.28216001
0.20637 0.055078 0.28633001
0.18679 0.1348 0.25249001
0.18561 0.13507 0.25261
0.16316 0.11275 0.27673
0.16207001 0.11418 0.27526
0.16075 0.11227 0.27728999
0.18700001 0.11374 0.27384999
0.18765 0.11313 0.27360001
0.18635 0.11497 0.27169001
0.17798001 0.18991999 0.27430999
0.17917 0.19077 0.27691999
0.17972 0.13243 0.27059999
0.17907999 0.13189 0.2703
0.18243 0.1798 0.25885001
0.18242 0.070712999 0.30833
0.18241 0.068617001 0.30807
0.171 0.21896 0.28378999
0.17342 0.21972001 0.28310001
0.17263 0.22039001 0.28290001
0.20171 0.082845002 0.25422001
0.20393001 0.080362 0.25499001
0.20433 0.08066 0.25428
0.17896 0.059050001 0.30678999
0.17828999 0.059633002 0.30811
0.17989001 0.059799001 0.30695999
0.18684 0.20197999 0.26175001
0.17951 0.094240002 0.27919
0.17862999 0.094227999 0.27886999
0.14598 0.087558001 0.26508
0.1758 0.15767001 0.27358001
0.17739999 0.16072001 0.27375001
0.1768 0.15848 0.27419999
0.14560001 0.088427998 0.26010999
0.14628001 0.089585997 0.26146001
0.1462 0.088212997 0.25942001
0.16940001 0.20821001 0.27401
0.16942 0.20974 0.27331999
0.16827001 0.20785999 0.27373001
0.18668 0.089511998 0.30520999
0.18731999 0.090258002 0.30541
0.18842 0.088326 0.30441999
0.19050001 0.10356 0.26133999
0.20387 0.062222999 0.25481001
0.20274 0.061115 0.25650001
0.20324001 0.061735999 0.25440001
0.18554001 0.12568 0.24522001
0.18582 0.12513 0.24363001
0.18483999 0.12714 0.24293
0.19435 0.16023999 0.24842
0.19136 0.15866999 0.24608999
0.19115999 0.15823001 0.24799
0.17986 0.17872 0.27544001
0.17978001 0.18128 0.27386001
0.17973 0.18073 0.27698001
0.19599 0.073801003 0.27972999
0.19381 0.074014999 0.27838999
0.19621 0.074157 0.27904001
0.19706 0.084331997 0.27009001
0.18184 0.12314 0.25345999
0.18287 0.12272 0.25400999
0.16092999 0.19453 0.27428001
0.17639001 0.12917 0.27368
0.19310001 0.072028004 0.30524001
0.19281 0.070161998 0.30658999
0.19354001 0.069876999 0.30513999
0.18424 0.13048001 0.28560999
0.18652 0.18742 0.2687
0.18871 0.18769 0.26706001
0.18855 0.18756001 0.26646999
0.2087 0.06464 0.25759
0.18558 0.1821 0.24671
0.1867 0.18199 0.24681
0.18449999 0.18201999 0.24837001
0.18827 0.13180999 0.2559
0.18771 0.13211 0.25709999
0.18831 0.13082001 0.25687999
0.18515 0.23314001 0.26223001
0.18748 0.12308 0.24741
0.18779001 0.12258 0.24659
0.18809 0.12424 0.24647
0.19227999 0.19295999 0.25598001
0.19141001 0.19431999 0.25418001
0.19164 0.19306 0.25465
0.18398 0.085389003 0.30827001
0.18073 0.18106 0.24778
0.17862999 0.18012001 0.24924999
0.18057001 0.18015 0.24788
0.1837 0.18513 0.25832999
0.18291999 0.1855 0.25887999
0.18389 0.18569 0.26049
0.20429 0.060741998 0.28211999
0.20748 0.061333999 0.28369999
0.20737 0.061872002 0.28213
0.20533 0.087237999 0.24688999
0.20737 0.088009 0.24700999
0.17674001 0.23057 0.27416
0.19052 0.18952 0.26949999
0.1908 0.18916 0.26936999
0.18905 0.18929 0.26778001
0.18138 0.20587 0.28110999
0.18234999 0.20428 0.28014001
0.18243 0.21939 0.27939001
0.18221 0.21947999 0.27959001
0.17462 0.19915999 0.28182
0.17351 0.19857 0.28154001
0.17452 0.19945 0.28138
0.18424 0.12672 0.28413999
0.18282001 0.12642001 0.28382
0.183 0.12693 0.28220001
0.17005999 0.18531001 0.28139001
0.19461 0.15643001 0.25834
0.19230001 0.15758 0.25740001
0.13417999 0.089938998 0.2518
0.13605 0.0898 0.25216001
0.13522001 0.089482002 0.25130999
0.18818 0.070418999 0.30766001
0.18569 0.071557999 0.30641001
0.18688001 0.069840997 0.30774999
0.18892001 0.1122 0.27219
0.19137 0.11279 0.27110001
0.1821 0.21981999 0.26179999
0.18376 0.21819 0.25977999
0.18264 0.21989 0.25924999
0.19118001 0.11492 0.25459
0.19114 0.11329 0.25569001
0.19205999 0.1129 0.25384
0.19475999 0.069403 0.30588001
0.19607 0.069261998 0.30476001
0.18828 0.11919 0.26139
0.18925001 0.12183 0.26076999
0.18188 0.11322 0.27754
0.20423 0.062728003 0.26986
0.20374 0.063702002 0.27153999
0.20339 0.063770004 0.27123001
0.19334 0.15536 0.25393999
0.19405 0.15692 0.25145999
0.19490001 0.15603 0.25442001
0.18682 0.18852 0.2694
0.18691 0.18780001 0.27066001
0.18846001 0.18854 0.26956001
0.19494 0.13883001 0.24372
0.1945 0.14266001 0.24360999
0.18384001 0.17013 0.26455
0.18445 0.16987 0.26427999
0.1839 0.17044 0.26436999
0.17976999 0.17286 0.27893999
0.18194 0.23198999 0.25206
0.18147001 0.23427001 0.25138
0.18164 0.2335 0.25062999
0.18199 0.17148 0.26839
0.18161 0.17117 0.26923999
0.18059 0.17084 0.26853999
0.17998999 0.13071001 0.27204999
0.17822 0.12992001 0.27046999
0.17840999 0.12938 0.26980999
0.18922 0.1567 0.26231
0.18341 0.17321999 0.2568
0.18645 0.17377999 0.25768
0.18591 0.17400999 0.25775
0.18842 0.13048001 0.25819001
0.18826 0.13041 0.25775
0.20576 0.066330999 0.26964
0.19275001 0.10765 0.2712
0.19137 0.10733 0.27333
0.15678 0.15877999 0.26833999
0.15635 0.15764999 0.26931
0.19384 0.11021 0.26820999
0.18198 0.11667 0.27342999
0.18188 0.11795 0.27401
0.18395001 0.11688 0.27349001
0.19684 0.076884001 0.29264
0.19855 0.074135996 0.29389
0.19711 0.074638002 0.29381999
0.18365 0.18953 0.27168
0.18339001 0.18151 0.26784
0.18076999 0.062383 0.30741
0.17912 0.061514001 0.30921
0.1797 0.061059002 0.30930999
0.18051 0.058440998 0.31428
0.18049 0.058439001 0.31257999
0.1908 0.19417 0.25303999
0.1884 0.19282 0.25040001
0.18905 0.19253001 0.25209999
0.20985 0.061305001 0.26315001
0.17518 0.15443 0.28668001
0.17759 0.15493999 0.28668001
0.19424 0.093783997 0.26165
0.19419999 0.093694001 0.26225999
0.19250999 0.094442002 0.26115999
0.18163 0.17918 0.27801001
0.18136001 0.17702 0.27965
0.18114001 0.17803 0.27983999
0.15717 0.15394001 0.27581
0.18819 0.11067 0.27610001
0.18848 0.10941 0.27665001
0.18257999 0.21265 0.26148999
0.18465 0.21265 0.25869
0.19862001 0.062401999 0.30884001
0.18139 0.14165001 0.24302
0.20958 0.058045 0.28345001
0.20723 0.057434 0.28510001
0.1919 0.098577999 0.27189001
0.18888 0.099068001 0.27085
0.19014999 0.098591998 0.27107
0.15696 0.15593 0.2755
0.15849 0.15399 0.27445
0.15795 0.15523 0.27704
0.21448 0.058067001 0.23978999
0.21610001 0.061558999 0.23841999
0.21479 0.061877001 0.23806
0.18503 0.24184 0.26672
0.18822999 0.11385 0.27160001
0.18796 0.11323 0.27122
0.19163001 0.10205 0.27024999
0.21094 0.061161 0.26642001
0.21066999 0.060947999 0.26877001
0.20993 0.059618 0.26901999
0.18173 0.098274 0.27908999
0.18037 0.097898997 0.27968001
0.18046001 0.098626003 0.28059
0.19717 0.054356001 0.31922999
0.19765 0.055043001 0.32032999
0.21258999 0.083471999 0.23216
0.21392 0.082465 0.23243999
0.21354 0.081928998 0.23421
0.20051 0.060106002 0.30971
0.20284 0.060148001 0.31233001
0.20286 0.059781998 0.31156
0.16263001 0.10346 0.27654999
0.16321 0.10391 0.27790999
0.20441 0.073818997 0.25364
0.20356999 0.071172997 0.25511
0.21399 0.055402 0.27601999
0.21493 0.054295 0.2755
0.19372 0.082960002 0.29774001
0.19271 0.083996996 0.29653999
0.19525 0.082471997 0.29868001
0.18115 0.20694 0.26804999
0.18576001 0.13223 0.27487001
0.18471999 0.13270999 0.27406999
0.18477 0.10823 0.27706999
0.17704 0.11974 0.27182001
0.17547999 0.12001 0.27199
0.17573 0.11904 0.27213001
0.18900999 0.14097001 0.27015001
0.18787 0.14172 0.27026001
0.18962 0.14013 0.26829001
0.18662 0.23920999 0.26693001
0.19533999 0.076298997 0.27961999
0.19727001 0.075929001 0.27891001
0.19670001 0.077024996 0.2773
0.18644001 0.17022 0.2545
0.18602 0.17030001 0.25433001
0.18605 0.17081 0.25345999
0.15626 0.15821999 0.26673999
0.15511 0.15595999 0.26646999
0.1559 0.15679 0.26607001
0.18268 0.17441 0.26385999
0.18467 0.17304 0.26295999
0.18279 0.17271 0.26412001
0.14338 0.088417999 0.26399001
0.14269 0.086782999 0.26477
0.17937 0.12288 0.27092001
0.17923 0.12496 0.2705
0.1807 0.12529001 0.27186
0.19013 0.22601999 0.26227
0.19317 0.13620999 0.24155
0.19197001 0.13609 0.24291
0.18314999 0.23993 0.25220999
0.18307 0.23942 0.25272
0.18257999 0.19853 0.27835
0.18206 0.19976 0.27943999
0.17083 0.19615 0.28156
0.21131 0.073365003 0.24445
0.21239001 0.076112002 0.24316999
0.21274 0.075810999 0.24484
0.17301001 0.24296001 0.27542001
0.18091001 0.12959 0.27122
0.18126 0.13223 0.27121001
0.18005 0.13085 0.27182001
0.18322 0.089261003 0.28342
0.18537 0.090492003 0.28386
0.18382999 0.091660999 0.28472999
0.18175 0.091716997 0.27911001
0.18291 0.093576998 0.27891999
0.17657 0.23896 0.27511999
0.17691 0.23884 0.2755
0.20116 0.086099997 0.25369
0.20097999 0.087998003 0.25637999
0.2018 0.086126 0.25554001
0.16401 0.24546 0.26227999
0.16345 0.24680001 0.26519001
0.16449 0.24541999 0.26302001
0.1796 0.18973 0.28472
0.20318 0.056853998 0.30783001
0.20258 0.056981001 0.30645001
0.20200001 0.058343001 0.30741
0.20983 0.077687003 0.24855
0.19573 0.061170001 0.30772001
0.19656999 0.061413001 0.30655
0.19732 0.062519997 0.30682001
0.20325001 0.063611001 0.28174001
0.17903 0.22184999 0.28262001
0.18024001 0.22228 0.28046
0.18404999 0.24459 0.26324001
0.18408 0.24614 0.26403999
0.18463001 0.24591 0.26431
0.17143001 0.23838 0.28139001
0.16971999 0.23683 0.28049001
0.17073999 0.23784 0.28195
0.17342 0.24598999 0.26841
0.17298999 0.24536 0.26787999
0.17394 0.24590001 0.26549
0.1935 0.15951 0.26091
0.19272 0.15704 0.26141
0.19402 0.15721001 0.26245001
0.17775001 0.21180999 0.25075999
0.17639001 0.21145999 0.25167999
0.17641 0.21434 0.25084999
0.1954 0.090020999 0.26208001
0.19517 0.091583997 0.26262
0.20578 0.063593999 0.25
0.20472001 0.066108003 0.25341001
0.2034 0.064312004 0.25209001
0.17419 0.18877 0.28277001
0.17324001 0.18895 0.28422001
0.17372 0.18817 0.28358001
0.20972 0.078584999 0.24127001
0.20845 0.078570001 0.24181999
0.21003 0.077664003 0.24219
0.17411999 0.16294 0.27458
0.17572001 0.16485 0.27298999
0.17565 0.16529 0.27542999
0.17814 0.075235002 0.30928999
0.17763001 0.078635 0.30912
0.1789 0.077551 0.30878001
0.18568 0.085767001 0.30794999
0.18618 0.085341997 0.30849999
0.21687999 0.065903999 0.24093001
0.19441999 0.086741 0.27899
0.18478 0.17558999 0.25724
0.12943999 0.073283002 0.26005
0.13079999 0.073914997 0.26276001
0.17671999 0.18359999 0.27651
0.17907999 0.18334 0.27757999
0.17676 0.18368 0.27746001
0.18195 0.11848 0.25409001
0.18088999 0.11582 0.25669
0.18142 0.11705 0.25595
0.19186001 0.15707 0.26741001
0.19085 0.15677001 0.2678
0.19080999 0.15741 0.26749
0.18362001 0.21307001 0.24666999
0.18332 0.21125001 0.24595
0.17817 0.13436 0.28148001
0.17824 0.13700999 0.28013
0.17730001 0.13491 0.27948999
0.16305999 0.093785003 0.27412
0.16348 0.093425997 0.27316999
0.16368 0.095206998 0.27423
0.19933 0.060713999 0.30386001
0.18520001 0.14076 0.28072
0.18547 0.14302 0.28134999
0.18213999 0.13395 0.27155
0.18106 0.13392 0.27133
0.18178 0.13477001 0.27057001
0.17418 0.15919 0.27884001
0.17301001 0.15875 0.27748999
0.17327 0.15787999 0.27785
0.17026 0.16072001 0.27201
0.17197999 0.16041 0.27162999
0.17154001 0.16128001 0.27164
0.17303 0.24657001 0.25588
0.17351 0.24548 0.25593999
0.19174001 0.12932999 0.24682
0.19246 0.12833001 0.24445
0.19389001 0.12964 0.24575
0.16579001 0.11376 0.27950999
0.16564 0.11317 0.27787
0.16574 0.11381 0.27717
0.17713 0.067714997 0.30869001
0.17854001 0.067093998 0.30638999
0.18499 0.17901 0.26515001
0.18378 0.17832001 0.26528999
0.18442 0.18065999 0.26348001
0.18827 0.24604 0.25494
0.18714 0.24708 0.25760001
0.1873 0.24616 0.25529
0.17664 0.11014 0.28025001
0.1718 0.21881001 0.25027999
0.17384 0.21890999 0.24919
0.17269 0.21928 0.25128001
0.19246 0.058841001 0.31255999
0.19359 0.060127001 0.31290999
0.17483 0.1603 0.27364001
0.17286 0.16078 0.27366
0.17465 0.16134 0.27441001
0.19232 0.19926 0.25786
0.21112999 0.053957 0.28694001
0.21143 0.054225001 0.28854001
0.15967999 0.24754 0.25623
0.18581 0.077688999 0.30908
0.18542001 0.075920001 0.30704001
0.16492 0.24608 0.25536001
0.16305 0.24512 0.25453001
0.16271999 0.24717 0.25580001
0.2049 0.059505001 0.27226001
0.20563 0.060472 0.27111
0.20404001 0.061967999 0.27087
0.17813 0.15896 0.28069001
0.17791 0.15849 0.27959001
0.17592999 0.15894 0.27901
0.18535 0.20457999 0.27276
0.18725 0.061863001 0.30464
0.18708999 0.061999999 0.30443001
0.18561999 0.060109999 0.30500001
0.17095999 0.12007 0.27587
0.17057 0.12109 0.27458
0.17032 0.12018 0.27513
0.19884001 0.069996998 0.30590001
0.19875 0.068666004 0.30472001
0.19964001 0.070228003 0.30634001
0.177 0.17655 0.27958
0.17783999 0.17858 0.28268
0.17757 0.17758 0.27908999
0.19843 0.069911003 0.30342999
0.19933 0.070717998 0.30181
0.19986001 0.069686003 0.30404001
0.15409 0.15769 0.26589
0.15523 0.15796 0.26381001
0.15313999 0.1561 0.26730999
0.19232 0.083256997 0.29664999
0.1921 0.084563002 0.29554999
0.19279 0.082681999 0.29615
0.21321 0.056570001 0.26969999
0.21349999 0.055481002 0.26927999
0.21301 0.057438001 0.27023
0.17888001 0.072669998 0.30322999
0.17840999 0.074064001 0.30515
0.17754 0.074860997 0.30281001
0.17101 0.16309001 0.27199
0.20743001 0.064328998 0.24842
0.20994 0.065361999 0.24748001
0.20769 0.065453999 0.24957
0.18441001 0.19232 0.26339
0.18276 0.19375999 0.26363
0.19164 0.18889999 0.26666
0.19159 0.18851 0.26530001
0.19091 0.19068 0.26605999
0.18664999 0.22454999 0.25099999
0.18795 0.22535001 0.25246999
0.18803 0.22454999 0.25345001
0.19137 0.083595 0.29466999
0.20261 0.057964999 0.30588999
0.20078 0.059416 0.30723
0.20205 0.059611 0.30515999
0.1628 0.11447 0.27785999
0.16501001 0.11381 0.27915001
0.17557999 0.15078001 0.28773999
0.17479999 0.15256999 0.28628001
0.15492 0.058600001 0.29032001
0.15659 0.059785999 0.29058
0.16579001 0.10883 0.28042999
0.16742 0.11192 0.27862999
0.16557001 0.11134 0.27899
0.21042 0.055822998 0.28568
0.21259999 0.053911 0.28467
0.21276 0.053660002 0.28476
0.18700001 0.13342001 0.2484
0.18504 0.13247 0.24916001
0.19306 0.087140001 0.27748999
0.19118001 0.084965996 0.27724999
0.19241001 0.086335003 0.27801001
0.17315 0.16294 0.27526
0.17315 0.16216999 0.27395001
0.1865 0.15849 0.27037999
0.18397 0.20056 0.27160999
0.18207 0.20013 0.27333
0.18471999 0.19877 0.27127999
0.1846 0.18890999 0.25130001
0.18629999 0.18988 0.25053
0.18550999 0.18877999 0.25113001
0.20920999 0.067111999 0.24941
0.18573999 0.14212 0.2642
0.18685 0.13993999 0.26387
0.18415999 0.14032 0.26332
0.21116 0.058083002 0.24563
0.19975001 0.050143 0.31882
0.19794001 0.05085 0.31790999
0.20006 0.049031001 0.31722
0.20947 0.057617001 0.24538
0.20900001 0.054949 0.24484999
0.20988999 0.056058999 0.24443001
0.17842001 0.17981 0.28397
0.18008 0.18343 0.28518
0.17769 0.18203001 0.28685001
0.20784 0.076215997 0.25020999
0.20857 0.077497996 0.2491
0.20795 0.078057997 0.24790999
0.18165 0.10561 0.27926999
0.17982 0.1037 0.27946001
0.18208 0.10366 0.28055999
0.18142 0.18076 0.27757999
0.18732999 0.18145999 0.26688001
0.18618 0.17908999 0.26563999
0.17833 0.13303 0.28615001
0.20363 0.055339001 0.30813
0.20351 0.055686001 0.30785
0.2044 0.055937 0.30991
0.18886 0.18795 0.26368001
0.19029 0.18777999 0.26574999
0.20716 0.050549999 0.24572
0.20794 0.052841999 0.24625
0.20711 0.053192001 0.24489
0.13876 0.080734998 0.26298001
0.13978 0.079589002 0.26631001
0.18232 0.18841 0.28331
0.18051 0.18833999 0.28356001
0.18083 0.18893 0.28364
0.17885999 0.14210001 0.28839999
0.18006 0.19303 0.28336999
0.18148001 0.19343001 0.28277001
0.18006 0.19626001 0.28373
0.18278 0.088108003 0.27917999
0.18228 0.090856999 0.27948999
0.19612999 0.083858997 0.28963
0.19523001 0.083929002 0.28902999
0.19516 0.087462001 0.28917
0.17181 0.20964 0.2825
0.17351 0.2089 0.28294
0.16791999 0.24602 0.25656
0.16727 0.24693 0.25519001
0.169 0.24585 0.25679001
0.21024001 0.051029999 0.25674999
0.20712 0.050887998 0.25588
0.20728999 0.051920999 0.25547999
0.19949999 0.069284998 0.28272
0.19825 0.069237001 0.28165999
0.19780999 0.067560002 0.28270999
0.20862 0.062398002 0.26194
0.20976999 0.061276998 0.26317999
0.17535 0.23095 0.28127
0.17907999 0.18709999 0.28514001
0.19622 0.080132 0.29527
0.1973 0.081407003 0.2938
0.19719 0.082759 0.2931
0.18607 0.17466 0.25187001
0.18735 0.17602 0.25255999
0.20017 0.086056001 0.25543001
0.19953001 0.087103002 0.25650999
0.19886 0.086046003 0.25769001
0.18508001 0.20626 0.2723
0.18336999 0.20691 0.27278
0.18398 0.1737 0.26547
0.185 0.17574 0.26493999
0.18440001 0.17526001 0.26607001
0.15977 0.11555 0.26785001
0.18464001 0.24587999 0.25737
0.18363 0.24524 0.25565001
0.18464001 0.24608 0.25712001
0.19349 0.0792 0.28393
0.19481 0.077926002 0.28424999
0.19472 0.078873001 0.2814
0.18546 0.078970999 0.30902001
0.18686999 0.13328999 0.26804
0.1876 0.094043002 0.27399999
0.18635 0.094469003 0.27405
0.18689001 0.092394002 0.27485999
0.17606001 0.16505 0.27359
0.17702 0.16485 0.27239999
0.17494 0.16632999 0.27252001
0.18257 0.22364999 0.26433
0.18249001 0.22391 0.26583001
0.18735 0.16377001 0.26006001
0.18941 0.16344 0.25926
0.19356 0.090194002 0.26341
0.19439 0.091913 0.2642
0.18851 0.18970001 0.26916
0.18780001 0.18878999 0.26864001
0.18979999 0.18876 0.26684001
0.18613 0.14033 0.27081001
0.18720999 0.13722 0.26910001
0.18907 0.13947999 0.27070999
0.19967 0.083518997 0.26117
0.20118999 0.081373997 0.26330999
0.20058 0.081768997 0.26102
0.17794 0.21294001 0.27447
0.1788 0.21197 0.27272001
0.18585999 0.19072001 0.25874001
0.18707 0.18914001 0.25946
0.19551 0.084043004 0.27070001
0.19505 0.083328001 0.26984
0.19435 0.083700001 0.27188
0.17636 0.17391001 0.24948999
0.17827 0.17366 0.24966
0.17724 0.17392001 0.24952
0.20602 0.056187 0.31380999
0.20585001 0.055064 0.31595999
0.20646 0.054908998 0.31444001
0.21597999 0.050921001 0.25869
0.2158 0.050767999 0.25845
0.21502 0.052367002 0.25746
0.17678 0.13022 0.27032
0.17772999 0.13185 0.27127999
0.18509001 0.090207003 0.28738001
0.18711001 0.13189 0.27382001
0.18603 0.13266 0.2744
0.17541 0.16189 0.27235001
0.17622 0.16159999 0.27272999
0.19154 0.14548001 0.26148999
0.19155 0.14323001 0.26172999
0.19656999 0.083728999 0.26337001
0.18520001 0.11995 0.26151001
0.18568 0.12078 0.26056999
0.18516999 0.1584 0.27045
0.18564001 0.15814 0.27261001
0.21575999 0.074550003 0.2375
0.2157 0.074202999 0.23526999
0.20066001 0.080440998 0.26335001
0.20163999 0.080527 0.26359999
0.19881999 0.081491999 0.26359001
0.17912 0.072204001 0.30949
0.18643001 0.07604 0.30847001
0.18508001 0.076752998 0.30734
0.18468 0.13940001 0.24203999
0.18511 0.13847999 0.24161001
0.18458 0.13796 0.23934001
0.18813001 0.12428 0.24071001
0.18878999 0.12587 0.24245
0.19019 0.12437 0.24268
0.19423001 0.061912 0.30989999
0.19362 0.062286999 0.30827999
0.18702 0.15908 0.26640999
0.18873 0.16131 0.26543999
0.18787 0.16096 0.26683
0.17167 0.24419001 0.28301001
0.17196 0.24247 0.28321999
0.17073999 0.24222 0.28252
0.20464 0.083099999 0.23776001
0.20474 0.083267003 0.23748
0.21682 0.074708 0.23717999
0.21887 0.075971998 0.23602
0.21832 0.076151997 0.2361
0.16872001 0.091530003 0.27952
0.19334 0.15463001 0.25674999
0.20886 0.061634 0.26337001
0.15936001 0.19536 0.27226001
0.15810999 0.19479001 0.27236
0.1586 0.19489001 0.27239999
0.16281 0.23014 0.25593001
0.16246 0.22826999 0.25444001
0.16118 0.22825 0.25521001
0.17113 0.088045001 0.29525
0.17141999 0.086286999 0.29754001
0.17123 0.086112 0.29706001
0.198 0.074484996 0.30228001
0.19844 0.073908001 0.30094001
0.14146 0.084973 0.26339
0.14252 0.084565997 0.26392001
0.14129999 0.084725998 0.26258001
0.18264 0.23210999 0.26534
0.1837 0.23277 0.26453999
0.18447 0.23439001 0.2658
0.19695 0.059696998 0.30184001
0.20039 0.060054 0.30357
0.17489 0.11871 0.27627999
0.17504001 0.11676 0.27541
0.18526 0.12806 0.27458
0.18763 0.12974 0.27516001
0.18636 0.12932999 0.27289999
0.18109 0.23370001 0.24882001
0.17935 0.23457 0.2499
0.18195 0.23612 0.25
0.19250999 0.081139997 0.30464
0.19401 0.079655997 0.30518001
0.19422001 0.079806 0.30517
0.17861 0.092693999 0.28400999
0.18017 0.092541002 0.28235999
0.18085 0.091845997 0.28213999
0.17974 0.19194999 0.27629
0.18257999 0.11366 0.27867001
0.18144 0.11179 0.27822
0.19502001 0.072907001 0.28551
0.1955 0.073665 0.28264999
0.19588999 0.074706003 0.28259999
0.21155 0.068218999 0.24236
0.21138 0.069617003 0.24394999
0.19233 0.15202001 0.26769999
0.1926 0.15441 0.2696
0.19282 0.15204 0.26883
0.18311 0.082015 0.30893999
0.18356 0.081620999 0.30932999
0.18403 0.14198001 0.27179
0.18595 0.14241999 0.27219999
0.18497001 0.1429 0.27302
0.21495999 0.065109998 0.24214999
0.19966 0.077601999 0.26771
0.19904 0.078451999 0.26607001
0.19927 0.079441004 0.26589
0.16999 0.19751 0.28126001
0.17218 0.19728 0.28273001
0.18977 0.13782001 0.26901001
0.18991999 0.13655999 0.26800999
0.18973 0.14021 0.26717001
0.19073001 0.19038001 0.26747
0.19114999 0.18776 0.26677001
0.18071 0.18545 0.27037999
0.18873 0.23518001 0.25543001
0.18916 0.23626 0.25464001
0.19724999 0.075521 0.30607
0.19541 0.13617 0.24694
0.19320001 0.13563 0.24526
0.19396 0.13709 0.24629
0.16979 0.22511999 0.2755
0.18061 0.18043 0.27693
0.16824 0.24488001 0.25101
0.16739 0.24621999 0.25154001
0.16708 0.24592 0.25312001
0.19148 0.072292998 0.30432001
0.19254 0.072665997 0.30472001
0.18077999 0.22046 0.27223
0.1798 0.21932 0.271
0.18255 0.22195999 0.2705
0.17442 0.10282 0.27954999
0.17462 0.10396 0.27928999
0.17432 0.10386 0.27838999
0.18221 0.20304 0.27906999
0.18201999 0.20290001 0.2789
0.18347999 0.20367 0.27829999
0.17709 0.098434001 0.28226
0.2015 0.084005997 0.26021001
0.20197999 0.084136002 0.2622
0.19989 0.084321 0.25942001
0.18852 0.23596001 0.26583999
0.18954 0.23538999 0.26602
0.19408 0.11123 0.27065
0.15967999 0.051619999 0.29874
0.15992001 0.050701998 0.29701999
0.16181 0.052306 0.29688999
0.18685 0.12661999 0.24603
0.18717 0.12741999 0.24428999
0.18661 0.15931 0.26916999
0.20167001 0.058904 0.31766
0.20057 0.056405999 0.31858
0.20132001 0.057179 0.31636
0.18063 0.11037 0.28049999
0.18028 0.10988 0.28071001
0.18079001 0.10992 0.28084999
0.20692 0.06842 0.26376
0.20641001 0.067190997 0.26436999
0.20969 0.072623998 0.24744999
0.20964 0.072036996 0.2485
0.18584999 0.22987001 0.25626001
0.20281 0.071217 0.26163
0.20211001 0.071134999 0.25898999
0.2016 0.072053999 0.26054001
0.20141 0.060881998 0.31252
0.19986001 0.060943 0.31241
0.16686 0.22571 0.26886001
0.16779 0.22597 0.26989999
0.16669001 0.22731 0.27081999
0.19313 0.1989 0.25604999
0.1911 0.19563 0.25527999
0.19153 0.19612999 0.25492001
0.21304999 0.055300999 0.28037
0.19272 0.091590002 0.26482001
0.18026 0.1639 0.25101
0.17955001 0.16583 0.25117001
0.21631999 0.050464999 0.24090999
0.21821 0.052182 0.24065
0.19038001 0.084948003 0.27423
0.19246 0.083492003 0.29631999
0.19056 0.083263002 0.29684001
0.19091 0.082512997 0.2983
0.1903 0.23334999 0.24821
0.20939 0.062295001 0.27702999
0.20838 0.060013 0.28027001
0.20929 0.062189002 0.28020999
0.19888 0.070710003 0.30118999
0.19949999 0.069743 0.30282
0.19495 0.15212999 0.24569
0.19423001 0.15112001 0.2447
0.1963 0.15188999 0.24747001
0.13382 0.075686999 0.26126
0.18979 0.13606 0.25808001
0.18963 0.13455001 0.25861001
0.20299 0.059030998 0.28661001
0.20331 0.060631 0.28709999
0.2017 0.062123999 0.28442001
0.17986 0.13064 0.28426
0.17976999 0.12901001 0.28659999
0.18159001 0.12910999 0.28529
0.18212 0.060715999 0.30776
0.18354 0.059349 0.30875
0.19103999 0.19950999 0.25536001
0.18779001 0.16415 0.26247001
0.18718 0.16136 0.27118
0.18731999 0.16124 0.26936999
0.18703 0.16428 0.27241001
0.21014 0.081270002 0.23731001
0.21174 0.080730997 0.23737
0.18505 0.14523 0.27673
0.18637 0.14415 0.27908
0.18783 0.14433999 0.27746001
0.18452001 0.17107999 0.26282001
0.18353 0.17298999 0.26142001
0.18494 0.17252 0.26302001
0.18426 0.22178 0.27419999
0.18359999 0.22282 0.27362999
0.18465 0.22031 0.27426001
0.1768 0.19379 0.28312999
0.17705999 0.1938 0.28396001
0.17731 0.19418 0.28193
0.20724 0.061205 0.28314999
0.19503 0.094254002 0.26231
0.19531 0.092609003 0.26054001
0.19509 0.091043003 0.26023
0.19016001 0.090402 0.27077001
0.18725 0.15445 0.27667001
0.18856999 0.1529 0.27798
0.18696 0.1524 0.2773
0.18584 0.12316 0.27026001
0.18653999 0.12309 0.26936001
0.18643001 0.12334 0.2687
0.185 0.091867 0.27445999
0.18501 0.092324004 0.27520999
0.1665 0.19211 0.2748
0.16509999 0.19159999 0.27344999
0.16444001 0.19312 0.27454001
0.19155 0.099455997 0.25062999
0.17910001 0.11414 0.27261999
0.17811 0.11439 0.2737
0.17929 0.11279 0.27425
0.19817001 0.076079004 0.29352
0.20553 0.061925001 0.28251001
0.19362 0.14227 0.24724001
0.19402 0.14249 0.24877
0.19245 0.14127 0.24773
0.1661 0.22303 0.27660999
0.16683 0.22216 0.27579001
0.16851 0.22255 0.27768999
0.16394 0.15853 0.2753
0.16455001 0.1587 0.27559
0.16728 0.15955 0.27491999
0.17986 0.063173003 0.30372
0.16903999 0.18919 0.27983999
0.16863 0.19002999 0.2811
0.16933 0.19019 0.28099
0.20471001 0.067836002 0.2667
0.20389 0.069049001 0.26536
0.17567 0.23845001 0.27274001
0.18049 0.093768999 0.28378999
0.18009 0.091953002 0.28380001
0.17102 0.11958 0.27511999
0.17069 0.11937 0.27669001
0.17141999 0.12002 0.27737999
0.19126999 0.13918 0.26322001
0.1917 0.13950001 0.26530999
0.18529999 0.16316 0.2712
0.18648 0.13507 0.27256
0.18555 0.15819 0.27377999
0.18499 0.15692 0.27408001
0.19914 0.073532 0.30451
0.18034001 0.21999 0.24539
0.18158001 0.2181 0.24727
0.18064 0.21672 0.24647
0.17941999 0.091743 0.27895999
0.1797 0.092413999 0.27913001
0.18105 0.067483 0.31110001
0.17963 0.068287998 0.31066999
0.16622999 0.24422 0.26082
0.16456001 0.24642999 0.26212999
0.16565999 0.24473 0.26133001
0.20085 0.069259003 0.28261
0.19916999 0.069233 0.28242001
0.18538 0.20475 0.27307999
0.16388001 0.20927 0.27511001
0.16305 0.20957001 0.27666
0.16452999 0.20869 0.27495
0.18595999 0.2404 0.24887
0.18579 0.23907 0.24789999
0.18031999 0.13445 0.28823999
0.18190999 0.13530999 0.28751001
0.17973 0.13389 0.28905001
0.18495999 0.12898999 0.25613001
0.18549 0.13001999 0.25591999
0.20942999 0.057914998 0.24482
0.20920999 0.059353001 0.24432001
0.18832 0.064639002 0.30373999
0.19016001 0.22179 0.25242001
0.19102 0.22296 0.25299999
0.19151001 0.22239999 0.25095001
0.1636 0.16681001 0.26896
0.16333 0.16606 0.26798001
0.16416 0.16881 0.26918
0.14708 0.089491002 0.26151001
0.14473 0.089208998 0.26144001
0.18862 0.20364 0.26107001
0.18636 0.20569 0.26170999
0.18601 0.20214 0.26163
0.16116001 0.11348 0.27484
0.18429001 0.23996 0.25321001
0.1837 0.23966999 0.25419
0.17534 0.22567999 0.27619001
0.17584001 0.22748999 0.27641001
0.20028999 0.072774 0.26631999
0.19989 0.0713 0.26701999
0.20101 0.07113 0.26596001
0.18742999 0.10594 0.27699
0.18561999 0.10613 0.27662
0.18844 0.15597001 0.27597001
0.18224999 0.11575 0.27386001
0.18138 0.11539 0.27473
0.19261 0.076637 0.30480999
0.19476999 0.076780997 0.30587
0.19465999 0.076366998 0.30522001
0.18705 0.14129999 0.28329
0.18482 0.14266001 0.28503001
0.18559 0.19898 0.26098001
0.18474001 0.20048 0.26253
0.20836 0.082002997 0.24479
0.2097 0.084213004 0.24462999
0.19181 0.088362999 0.25255999
0.19162001 0.090862997 0.25281999
0.19155 0.088827997 0.25257999
0.18153 0.092905998 0.28329
0.18080001 0.091870002 0.28345001
0.18189 0.092712998 0.28399
0.18831 0.15561 0.27897999
0.1908 0.090636998 0.24744999
0.21266 0.076651998 0.24191999
0.18231 0.22514001 0.26287001
0.18237001 0.22439 0.26357999
0.18253 0.22414 0.26414001
0.18528999 0.14323001 0.28549999
0.18545 0.14377999 0.28240001
0.21269 0.077646002 0.23015
0.21198 0.077619001 0.2314
0.21341 0.076238997 0.23048
0.20828 0.051451001 0.28871
0.2086 0.051268999 0.28885001
0.19182999 0.15595999 0.25419
0.21806 0.060114998 0.23063999
0.17834 0.2376 0.27847999
0.178 0.23868001 0.27778
0.17776 0.23701 0.27880999
0.19957 0.063836001 0.30535999
0.19760001 0.065995999 0.30507001
0.20321999 0.062183 0.27307999
0.20519 0.059337001 0.27235001
0.19262999 0.098636001 0.26947001
0.19121 0.099209003 0.27214
0.19258 0.098329 0.27156001
0.19114999 0.095746003 0.26706001
0.19369 0.093794003 0.26539001
0.19292 0.095872 0.26545
0.19481 0.14067 0.24679001
0.19438 0.14016999 0.24516
0.16955 0.18875 0.28099999
0.16955 0.18804 0.27959999
0.2129 0.073246002 0.2321
0.21242 0.072521001 0.23227
0.21292 0.072650999 0.23259
0.1793 0.071216002 0.30609
0.17979001 0.070381001 0.30723
0.17444 0.091026999 0.2818
0.17422999 0.092283003 0.28093001
0.1719 0.091859996 0.28059
0.18305001 0.16385999 0.27383
0.17235 0.13789 0.28360999
0.17371 0.14029001 0.28503999
0.17163999 0.2456 0.28352001
0.17230999 0.24434 0.28367001
0.16975001 0.17517 0.27922001
0.17274 0.17563 0.27851999
0.17364 0.17524 0.27680001
0.18342 0.23616999 0.25823
0.18455 0.23566 0.25784999
0.18297 0.23564 0.25747001
0.19441999 0.092349 0.26306999
0.20396 0.083539002 0.25415999
0.20237 0.084173001 0.25538999
0.18885 0.088726997 0.27790001
0.18659 0.087219 0.27641001
0.186 0.086850002 0.27796
0.16049001 0.14318 0.27537999
0.16091999 0.14346001 0.27625999
0.15928 0.14494 0.27621999
0.1725 0.11797 0.27770999
0.17175999 0.11759 0.27741
0.17151 0.11811 0.27785
0.18606 0.23856001 0.26550001
0.18702 0.24031 0.26543999
0.18562999 0.23982 0.26570001
0.20134 0.065040998 0.28342
0.19821 0.066072002 0.28477001
0.20045 0.065142997 0.28450999
0.19329999 0.10291 0.26844001
0.18554001 0.23231 0.2588
0.18468 0.23415001 0.25639999
0.18452001 0.23476 0.25872999
0.18574999 0.087149002 0.28154001
0.18408 0.08845 0.27981001
0.15663999 0.12676001 0.26912001
0.15591 0.1247 0.26723
0.15616 0.1247 0.26971999
0.16644 0.2348 0.26958999
0.16531 0.23535 0.26762
0.16628 0.23481999 0.26741999
0.21269 0.058961 0.26214001
0.20720001 0.064441003 0.24942
0.20761 0.062173001 0.24928001
0.15439001 0.12143 0.26835999
0.15535 0.11986 0.26868001
0.19441 0.13948999 0.24843
0.19433001 0.13828 0.25020999
0.18896 0.10773 0.27564001
0.18937001 0.1082 0.27399999
0.18808 0.10812 0.27456999
0.17998999 0.14083999 0.28920001
0.18089999 0.13907 0.28783
0.19221 0.10947 0.25902
0.19241001 0.11026 0.26025
0.19222 0.10761 0.26164001
0.19346 0.10958 0.25488001
0.19337 0.1083 0.25459
0.20807999 0.062848002 0.26008001
0.20839 0.064383999 0.25957
0.18997 0.10617 0.27252999
0.19035 0.10693 0.27313
0.19303 0.083283 0.30622
0.1912 0.082966998 0.30614999
0.19407 0.082828 0.30594999
0.1679 0.16486999 0.27017999
0.19655 0.088459998 0.23989999
0.19513001 0.087155998 0.23788001
0.19396 0.088574 0.23936
0.18227001 0.22537 0.26484999
0.18215001 0.22676 0.26462999
0.18155 0.22359 0.26442
0.16143 0.090000004 0.27529001
0.16078 0.091007002 0.27429
0.16124 0.090614997 0.27427
0.18589 0.086332001 0.30954
0.18746001 0.086691 0.30880001
0.18798 0.087251998 0.30895001
0.20043001 0.082877003 0.25876001
0.17399999 0.18765 0.28132999
0.17248 0.18722001 0.28299999
0.17359 0.18491 0.28292999
0.1705 0.18506999 0.27911001
0.17051999 0.18485001 0.28040001
0.17067 0.18212999 0.28233999
0.12859 0.068167001 0.26025999
0.12974 0.068051003 0.26260999
0.12783 0.069370002 0.25995001
0.19088 0.059792001 0.31472
0.21769001 0.052999999 0.24025001
0.21585 0.053644001 0.24229001
0.17386 0.17443 0.27753001
0.17249 0.17336001 0.27794999
0.18204001 0.20929 0.27827999
0.18178 0.20778 0.27765
0.18139 0.20841999 0.27627
0.18841 0.13474 0.25040001
0.18673 0.13339999 0.25031
0.18776999 0.13282999 0.25042
0.18445 0.089818999 0.28148001
0.18309 0.091946997 0.28352001
0.18556 0.091775 0.27818999
0.18021999 0.1697 0.27274001
0.17825 0.17066 0.27491
0.17856 0.16924 0.27553001
0.20499 0.086099997 0.23722
0.1831 0.22301 0.27814999
0.1811 0.22455999 0.27616999
0.18483 0.17123 0.25718001
0.19254 0.15753999 0.26747
0.18235999 0.24281 0.25354999
0.18183 0.24488001 0.25351
0.18296 0.24327999 0.25330999
0.18365 0.17952999 0.26440999
0.21847001 0.057078 0.22517
0.18587001 0.11317 0.27950999
0.18706 0.11366 0.27759001
0.18564001 0.11444 0.27598
0.17607 0.22725999 0.27338001
0.17636 0.22571 0.27443999
0.1781 0.22466999 0.27542001
0.19909 0.077768996 0.26752999
0.19971 0.079498999 0.26391
0.18365 0.1367 0.26216999
0.192 0.11396 0.26517999
0.19231001 0.11423 0.26569
0.19151001 0.1131 0.26530999
0.21118 0.057980999 0.28489
0.21214999 0.05703 0.28299999
0.21026 0.058766 0.28474
0.19117001 0.15938 0.25505
0.19149999 0.15915 0.25635999
0.19169 0.15647 0.25463
0.20085 0.075847 0.25999999
0.2013 0.074123003 0.26005
0.2007 0.074568003 0.25961
0.19489001 0.15372001 0.25560001
0.17974 0.24495 0.26728001
0.18048 0.24602 0.26831001
0.18217 0.24542999 0.26751
0.18241 0.20371 0.27522999
0.18165 0.20501 0.27392
0.182 0.20468999 0.27406001
0.17389999 0.16286001 0.27173001
0.18554001 0.13749 0.24236
0.18526 0.13858999 0.24009
0.18472999 0.17375 0.26572999
0.18747 0.13421001 0.24295001
0.18811999 0.13377 0.24668001
0.17809001 0.17851 0.27092999
0.17948 0.17968 0.27098
0.20516001 0.085992999 0.2446
0.20601 0.086041003 0.24604
0.20900001 0.084955998 0.24530999
0.19299001 0.15711001 0.24395999
0.19369 0.15440001 0.24394
0.19373 0.15545 0.24388
0.18645 0.14138 0.26241001
0.18671 0.14232001 0.26302999
0.18459 0.14092 0.26367
0.20832001 0.06684 0.24696
0.20783 0.068199001 0.24732
0.20668 0.068573996 0.24865
0.18296 0.20987 0.25615999
0.18351001 0.21202999 0.25863001
0.18265 0.21314999 0.25681999
0.19287001 0.15184 0.25843
0.19237 0.15278 0.25753
0.19327 0.15103 0.26016
0.19123 0.14503001 0.25420001
0.19126999 0.14361 0.25330001
0.19292 0.1455 0.25310001
0.16413 0.098126002 0.27688
0.19039001 0.16565 0.26304001
0.16211 0.11186 0.27337
0.16231 0.11307 0.27436
0.16402 0.11307 0.27533001
0.19101 0.24494 0.25172001
0.189 0.24629 0.25356001
0.19047 0.24420001 0.25380999
0.1833 0.16536 0.25779
0.18301 0.16716 0.25906
0.18497001 0.16647001 0.26082
0.18005 0.20894 0.28148001
0.19666 0.090608001 0.24581
0.1987 0.090719 0.24571
0.19768 0.089002997 0.24382
0.16568001 0.093505003 0.27597001
0.16587999 0.093319997 0.27632001
0.16607 0.092189997 0.27721
0.17086001 0.24339999 0.28191
0.1699 0.24028 0.28380001
0.20948 0.072748996 0.24589001
0.20904 0.071392 0.24753
0.20716 0.072247997 0.24764
0.17617001 0.17005 0.25108001
0.17906 0.16827001 0.25016001
0.17697001 0.16898 0.25026
0.17755 0.11242 0.28069001
0.17677 0.11092 0.28161001
0.17799 0.111 0.28080001
0.18291 0.13518 0.28766
0.18838 0.16215 0.26385
0.18927 0.162 0.26436001
0.18986 0.13978 0.25749001
0.18876 0.13995001 0.25845
0.18983001 0.13916001 0.25944999
0.1856 0.16763 0.26028001
0.18705 0.16689999 0.26131999
0.1842 0.18392999 0.26525
0.17377999 0.15861 0.28325
0.17196 0.15866999 0.28376999
0.17958 0.078937002 0.31084999
0.17952 0.078737997 0.31119999
0.21151 0.069793001 0.24107
0.21132 0.068710998 0.23965
0.21213999 0.069404997 0.24239001
0.18539 0.11526 0.26300001
0.18487 0.11692 0.26502001
0.18598001 0.11552 0.26301
0.16068999 0.24721999 0.25424999
0.16169 0.2456 0.25424999
0.15965 0.24756999 0.25464001
0.18658 0.10016 0.27522999
0.18516 0.099770002 0.27597001
0.18519001 0.099370003 0.27497
0.18524 0.082195997 0.30689999
0.13778 0.080907002 0.26245001
0.13751 0.080457002 0.26367
0.16975001 0.24271999 0.27972999
0.16764 0.24222 0.28005001
0.20069 0.087376997 0.25663999
0.20306 0.086322002 0.25564
0.20148 0.087393001 0.25628
0.19293 0.11374 0.26515001
0.19639 0.11313 0.26392999
0.19329999 0.1117 0.26320001
0.18602 0.19589999 0.26732001
0.18562999 0.19697 0.26712999
0.19224 0.1009 0.25907999
0.19323 0.10262 0.26244
0.2049 0.057456002 0.21771
0.20541 0.057257 0.21628
0.20676 0.056403998 0.21605
0.22578 0.053791001 0.2254
0.22589 0.054090999 0.22588
0.22678 0.052568998 0.22835
0.18085 0.19574 0.27158001
0.18076999 0.19588 0.27158001
0.12785 0.065857999 0.26047
0.19508 0.055950999 0.28931999
0.19547001 0.053816002 0.28937
0.19565 0.055346001 0.29025
0.19591001 0.065621004 0.29034999
0.19695 0.065696001 0.28975999
0.197 0.066403002 0.29038
0.19422001 0.094649002 0.26376
0.21458 0.069748998 0.23978999
0.21386001 0.069718003 0.24088
0.21539 0.071020998 0.23885
0.20231999 0.059229001 0.31424001
0.19261999 0.055991001 0.31821001
0.1939 0.083144002 0.30022001
0.19493 0.082420997 0.30063
0.1937 0.083039999 0.30028
0.19868 0.081000999 0.30125001
0.20048 0.079654999 0.3017
0.1873 0.087732002 0.28887001
0.18539 0.088303998 0.28852999
0.18497001 0.10307 0.27643001
0.18771 0.10281 0.27594
0.18681 0.056164 0.31913999
0.21043999 0.082502 0.23428001
0.20824 0.084588997 0.23522
0.19159 0.10379 0.25975999
0.15863 0.12315 0.26769
0.15927 0.12376 0.26954001
0.16932 0.24422 0.27445
0.16680001 0.24469 0.27276999
0.16983999 0.24386001 0.27480999
0.18550999 0.14322001 0.27919999
0.18767001 0.14241 0.27816001
0.18637 0.089667 0.27748001
0.1859 0.092179 0.27656001
0.18471999 0.18488 0.25872999
0.18440001 0.18432 0.26052001
0.18327001 0.18364 0.26076001
0.21563999 0.058502 0.24139
0.21288 0.059386 0.24054
0.20025 0.089034997 0.24442001
0.19901 0.090121999 0.24525
0.19786 0.088674001 0.24541999
0.17806 0.18058001 0.27465001
0.17797001 0.17877001 0.27219999
0.18371999 0.17371 0.26113999
0.18356 0.17282 0.26192001
0.18467 0.17343 0.26148999
0.18984 0.055303998 0.32183999
0.18829 0.057018001 0.32036
0.18803 0.056083001 0.32027999
0.21769001 0.066177003 0.24163
0.19261999 0.23997 0.25022
0.19202 0.23896 0.2491
0.19468001 0.14537001 0.24237999
0.19509999 0.14486 0.24313
0.19414 0.14542 0.24235
0.19344001 0.10228 0.26234999
0.19209 0.10326 0.26337999
0.20130999 0.070340998 0.26475999
0.20196 0.070454001 0.26466
0.20202 0.070587002 0.26581001
0.19396999 0.078006998 0.27642
0.19609 0.077219002 0.27570999
0.19481 0.078766003 0.27660999
0.17684001 0.11343 0.2809
0.17422 0.11258 0.28218001
0.17484 0.1124 0.28178999
0.16586 0.21292 0.27745
0.16745 0.21374001 0.27789
0.16987 0.10831 0.27925
0.17215 0.1086 0.28068
0.17185 0.11006 0.2811
0.21764 0.058040999 0.23061
0.15646 0.15617999 0.27506
0.15803 0.15584999 0.27439001
0.20017 0.082506001 0.25808999
0.20292 0.082540996 0.25742999
0.20103 0.081802003 0.25780001
0.19318999 0.062187001 0.31086001
0.19557001 0.062008999 0.31143001
0.19392 0.060998 0.30798
0.19245 0.14744 0.25431001
0.193 0.14753 0.255
0.19402 0.14796001 0.25389999
0.17005 0.243 0.27867001
0.16881999 0.24078 0.27884001
0.20691 0.066225 0.25813001
0.20895 0.066143997 0.25850999
