# .PCD v0.7 - Point Cloud Data file format
VERSION 0.7
FIELDS x y z
SIZE 4 4 4
TYPE F F F
COUNT 1 1 1
WIDTH 1483
HEIGHT 1
VIEWPOINT 0 0 0 1 0 0 0
POINTS 1483
DATA ascii
0.27208 0.085417002 0.035308
0.25569999 0.0059539001 0.012792
0.24749 0.046946999 0.017673001
0.25622001 0.0014005 0.011346
0.25624999 0.0025768001 0.01158
0.25672001 0.0015975001 0.011016
0.27467999 0.082195997 0.014563
0.2617 -0.0033889001 0.0078496002
0.31395 -0.0022324999 0.025739999
0.31459001 -0.002175 0.026611
0.31375 -0.0030542 0.026490999
0.28483 0.060040001 -0.001534
0.28514999 0.061142001 -0.0013904
0.27959001 0.047224998 0.0016771
0.28003001 0.048657 0.0012692
0.28099999 0.048241999 0.0010243
0.30204999 0.039946001 0.0098163001
0.31268999 0.077910997 0.092877999
0.32126999 0.071758002 0.074134998
0.27590001 0.0059834002 0.0076082
0.27693999 0.0057565002 0.0079078004
0.21774 0.070142999 0.033220001
0.21763 0.071194999 0.032772999
0.25988999 0.065058999 0.016076
0.30897 0.076824002 0.022327
0.25670001 -0.016745999 0.013048
0.25637999 -0.017100999 0.013678
0.25582999 -0.016805001 0.014418
0.32449001 -0.041046001 0.036051001
0.32416999 -0.040837001 0.034756999
0.30349001 0.039971001 0.01017
0.30335 0.040211 0.0099344002
0.23271 0.069810003 0.023331
0.23173 0.070719004 0.023442
0.25887001 0.048533998 0.013248
0.25953999 0.048487 0.013347
0.31766 -0.0061114999 0.031238999
0.31746 -0.0065850001 0.032122001
0.25446999 -0.0055101002 0.013531
0.25369 -0.0056484002 0.014368
0.32596999 0.063253 0.067243002
0.25301999 0.046275001 0.01651
0.25299999 0.045564 0.017585
0.26480001 0.088243 0.049724001
0.23377 0.074334003 0.031699002
0.26932999 0.0035571 0.0054816999
0.22981 0.071810998 0.02441
0.22942001 0.072623 0.025064999
0.26506001 0.082854003 0.047559999
0.26582 0.081772998 0.046854999
0.25626999 0.058851 0.011636
0.25628999 0.086351 0.049297001
0.25677001 0.085387997 0.049238
0.26041001 -0.0055211 0.0092665004
0.25966001 -0.0046878001 0.0093687
0.32273999 -0.052554 0.03002
0.29989001 0.086056001 0.023061
0.31979001 -0.043331999 0.029207001
0.31929001 -0.043334998 0.028421
0.25549999 0.06504 0.022781
0.30864 0.074862003 0.018514
0.30814001 0.075747997 0.018962
0.32203999 -0.0012247 0.035351999
0.23258001 0.073275 0.026903
0.32231 -0.03658 0.029797999
0.32945001 0.068405002 0.074672997
0.26212999 0.058782998 0.01171
0.26550001 0.037053999 0.025722001
0.26291001 0.073563002 0.048505999
0.22104 0.088556997 0.053353999
0.22053 0.088563003 0.051697001
0.22042 0.088748999 0.052739002
0.26334 0.01023 0.0077669001
0.26431 0.010763 0.0078128995
0.32304001 -0.039884001 0.033126
0.27829999 -0.047672998 0.0016013
0.31988001 0.068190001 0.066380002
0.27487001 0.044888999 0.0043235999
0.26550001 0.035287999 0.028434001
0.26613 0.034864999 0.028093001
0.27204999 0.014491 0.0096340999
0.27287 0.01374 0.0091188997
0.26743001 0.044874001 0.011599
0.26697001 0.043899 0.012425
0.26730001 0.044427 0.011893
0.30915001 -0.035110001 0.030646
0.3091 -0.036272999 0.030967001
0.30825001 -0.035643999 0.031569999
0.30627999 0.080536999 0.024103999
0.30555999 0.081284001 0.024056001
0.21995001 0.060130998 0.024955999
0.22037999 0.060058001 0.023967
0.28101999 0.020688999 0.0083750002
0.28957999 0.068227999 0.00093197002
0.29109001 0.068185002 0.00091006001
0.23221999 0.069124997 0.022585999
0.23098999 0.068971999 0.022241
0.28345001 0.081113003 0.0074185999
0.28448001 0.081148997 0.0079448
0.3267 0.063304998 0.068077996
0.30201 0.065532997 0.0040485999
0.27289 0.08704 0.037795998
0.27200001 0.086566001 0.037560999
0.28852001 0.082863003 0.0091167996
0.28922001 0.082157001 0.0084972
0.30230999 -0.0022326999 -0.0089558
0.32767999 0.067157 0.069576003
0.32218999 -0.0080541996 0.044105999
0.32207999 -0.0084835002 0.043141
0.32212999 -0.0080567999 0.042477001
0.26308 0.04391 0.017362
0.27728999 -0.053417001 0.0043548001
0.27792001 -0.053227998 0.0059103002
0.31345001 -0.051004998 0.023866
0.31461999 -0.050810002 0.024246
0.31494001 -0.051498 0.023792
0.30449 -0.028353 0.038867999
0.27362001 0.035413001 0.010832
0.20949 0.075016998 0.051516999
0.23543 0.054042 0.020636
0.23517001 0.053018998 0.021640999
0.32275999 0.067305997 0.066607997
0.32216001 0.068115003 0.067574002
0.30129001 0.044135999 0.0065245
0.30037001 0.044447001 0.0066530998
0.26267999 0.016857 0.018376
0.32012001 -0.001317 0.031580999
0.22017001 0.082537003 0.037907999
0.21918 0.082336999 0.037613999
0.21897 0.083104998 0.038394999
0.27089 0.037923999 0.012893
0.31276 0.074105002 0.093445003
0.31277001 0.074938998 0.092690997
0.31281999 0.073577002 0.092505999
0.26723 0.013721 0.010363
0.26750001 0.013121 0.0093970001
0.30575001 0.025518 0.016295999
0.24687999 0.045294002 0.022668
0.24612001 0.045646999 0.022274001
0.31108001 -0.044365998 0.031697001
0.2211 0.083512001 0.037007
0.25253999 0.0015049001 0.018850001
0.25275999 0.0018317 0.019699
0.27636001 -0.044411 0.0032349001
0.266 0.036800999 0.024581
0.21478 0.068278 0.036578
0.30478999 -0.00081817998 0.023576999
0.22047 0.082194999 0.03669
0.21987 0.082289003 0.037299
0.2983 0.024021 0.0098473998
0.31465 -0.0079202 0.030382
0.28307 0.094982997 0.067013003
0.31369001 0.061700001 0.015834
0.25105 0.095412001 0.053399999
0.28382999 0.089644998 0.023638001
0.28521001 0.089500003 0.023189999
0.27671 0.061218001 0.0013878
0.27713001 0.061039999 0.00070747
0.27616999 0.060965002 0.0014231
0.29304001 -0.00080631999 0.005231
0.29251999 -0.00026753001 0.0047332002
0.28619999 0.055249002 -0.0012625
0.28565001 0.055103999 -0.0013051
0.26846001 -0.044530999 0.0033008
0.26831001 -0.043419 0.0030753
0.27792999 -0.028472999 0.01222
0.27788001 -0.028774001 0.011095
0.29227999 0.027368 0.0068643
0.29245999 0.027837999 0.0067424998
0.26480001 0.075544998 0.030749001
0.26512 0.076197997 0.031014999
0.27818999 0.060945999 0.00031914
0.23740999 0.070266001 0.027629999
0.27866 0.029046001 0.0077914
0.27847001 0.030009 0.0076473998
0.27891001 0.029866001 0.0074860998
0.24487001 0.045324001 0.022124
0.31738001 0.074046999 0.086744003
0.31727999 0.074694999 0.087173998
0.27105999 0.080012999 0.016787
0.29115 0.0036432999 0.0067353998
0.30526999 0.029081 0.015721999
0.30127001 0.051695999 0.0034600999
0.29973 0.050659999 0.0036712
0.32595 -0.026898 0.035061002
0.25759 0.010486 0.015053
0.26429999 0.046744 0.014335
0.29233 0.013781 0.0091492003
0.29372999 0.013741 0.0094474005
0.30739999 -0.010568 -0.011535
0.27386001 -0.053151 0.0044070999
0.27462 -0.052790999 0.0042335
0.27436 -0.053326 0.0051454999
0.26506999 -0.045931 0.0047479998
0.26576999 -0.045345001 0.0040305001
0.2447 0.062504999 0.019328
0.31501999 -0.0059039998 0.029275
0.31303999 0.078731999 0.098655
0.31262001 0.079317003 0.098828003
0.31290001 0.078312002 0.097902
0.24683 -0.052303001 0.025374001
0.30215001 0.0073592002 0.019270999
0.32299 -0.051270001 0.030585
0.27344999 -0.0077225999 0.011878
0.29639 0.0081735998 0.0066566002
0.27989 0.056740001 -5.0036e-05
0.29771 0.069023997 0.0028689001
0.29852 0.070110999 0.0032893
0.32093999 0.061232999 0.052026998
0.32124999 0.060748 0.051337998
0.28628001 0.034403 0.0038791001
0.28611001 0.033588 0.0038619
0.28602001 0.034722 0.0039491998
0.33085999 0.062274002 0.073463999
0.27353999 0.049603 0.0028035
0.26423001 0.074560001 0.026347
0.30842999 -0.0097871004 -0.011175
0.26991001 -0.023341 0.0034674001
0.26881999 -0.023306999 0.0030310999
0.27000999 -0.022759 0.0035826
0.28569999 0.035726 0.0046128002
0.22609 0.071475998 0.021523001
0.31953999 0.062146001 0.047768999
0.31935 0.062816001 0.04769
0.29091999 0.042413 0.0043060002
0.26456001 0.055132002 0.011024
0.31226999 0.051571999 0.014735
0.31255001 0.052816 0.014906
0.31336001 0.053086001 0.015348
0.28112999 0.030138999 0.0062314998
0.28112999 0.030936999 0.0061471998
0.28198001 0.030913999 0.0061061
0.26930001 0.076893002 0.013601
0.26909 0.076048002 0.013348
0.32762 0.068366997 0.072327003
0.27959001 -0.046702001 0.0034596
0.24828 0.053036001 0.01369
0.27778 0.074841 0.0048012999
0.31726 -0.0018459 0.028495001
0.26119 0.071727999 0.026288001
0.26234001 0.072319001 0.027021
0.31694999 0.070658997 0.070793003
0.31595001 0.070237003 0.070212997
0.31661001 0.071226001 0.072127998
0.26569 0.042764999 0.014362
0.29563999 0.03669 0.0075266999
0.32567 -0.022840001 0.034653001
0.28814 0.046654999 0.0010645
0.28861001 0.047077 0.00086664001
0.25378001 0.062229998 0.014311
0.31768 0.078654997 0.092477001
0.30243999 -0.0045202998 -0.0099833999
0.26067999 0.089725003 0.048546001
0.26890001 -0.051295999 0.003452
0.30805999 0.021779999 0.021980001
0.30818999 0.022487 0.022422999
0.24642 -0.053431001 0.014876
0.24693 -0.052834 0.014783
0.31751999 -0.0099368999 0.034820002
0.25995001 -0.0021428999 0.0084443996
0.31413001 -0.043496002 0.027919
0.30002999 0.032356001 0.0092401002
0.29958999 0.032682002 0.0086152004
0.30052999 0.071157999 0.0049772002
0.30142 0.071480997 0.0060799001
0.30162999 0.069949999 0.0059294999
0.29245999 0.069987997 0.001188
0.24819 -0.051128998 0.025062
0.24965 -0.051307999 0.025328999
0.24976 -0.050264999 0.025001001
0.23203 0.056805 0.019593
0.27954999 -0.050301 0.0014922
0.29064 0.081462003 0.0077730999
0.29054999 0.082304999 0.0081208004
0.28996 0.082737997 0.0087257996
0.30463001 0.080729 0.018906999
0.30517 0.080289997 0.019376
0.31298 -0.047786999 0.024945
0.25973001 0.069743 0.025426
0.30891001 0.024747999 0.026773
0.30956 0.024192 0.027185
0.30937999 0.024348 0.026211999
0.26197001 0.010044 0.0082678003
0.27452001 0.049771 0.0021239
0.27469999 0.048849002 0.0027462
0.30693001 0.062544003 0.0079389997
0.3066 0.062415998 0.0075912001
0.27079001 0.034418002 0.015744001
0.25974 0.085523002 0.051683001
0.26826999 0.03709 0.018193999
0.26718 0.038240999 0.019004
0.26738 0.038035002 0.018177001
0.32218 -0.0066177999 0.040206999
0.28283 0.030995 0.0057256999
0.32030001 -0.0054878001 0.034570999
0.31955001 -0.0056806002 0.033353001
0.26295 0.053153001 0.011494
0.30719 0.073968001 0.013318
0.26473001 -0.019400001 0.004191
0.26363 -0.019502001 0.0041948999
0.31670001 0.078140996 0.091944002
0.29736999 0.038619999 0.0074573001
0.30469999 -0.02974 0.038690999
0.28602999 0.075723998 0.0039698002
0.30972001 0.060922001 0.0096116997
0.30649 0.072341003 0.011087
0.26561999 -0.018036 0.0056094001
0.26414001 -0.018431 0.0049623
0.31369999 0.081915997 0.095527999
0.28990999 0.095132999 0.069246002
0.266 -0.053206 0.0096885003
0.26569 -0.052944999 0.010608
0.26508999 -0.053066 0.0091647003
0.28865999 0.089226998 0.02077
0.28931001 0.089129999 0.022224
0.32047001 0.01034 0.032467
0.32074001 0.010293 0.033147998
0.32098001 0.0094614001 0.033130001
0.22271 0.087324001 0.041232001
0.32332999 0.072123997 0.076402999
0.30184999 0.0095841996 0.018138001
0.31084001 0.017433999 0.0241
0.25556001 -0.046209998 0.011668
0.25472999 -0.046840999 0.0129
0.25523999 -0.046163999 0.012635
0.27574 -0.053048 0.0045745
0.26806 -0.02516 0.0020866001
0.26706001 -0.025065999 0.0017443
0.27840999 -0.053190999 0.0066163
0.27836001 -0.053055 0.0071351002
0.27900001 -0.00098036998 0.014883
0.27880001 -0.0012496 0.013975
0.21821 0.062112998 0.026621999
0.25454 -0.022753 0.016256001
0.25459 -0.023840001 0.016197
0.2358 0.069586001 0.024832999
0.29416999 0.087494999 0.020616001
0.29459 0.087494999 0.019319
0.23898 0.068288997 0.026877001
0.23848 0.068819001 0.027248999
0.31071001 0.047111001 0.012981
0.26741999 -0.053326 0.0062453002
0.26894 -0.053273 0.0059612002
0.26848999 -0.053149 0.0069777998
0.23634 0.066265002 0.021217
0.23639999 0.065748997 0.021104001
0.26223999 0.0058658002 0.0073350002
0.26301 0.0060998001 0.0072467001
0.31542999 0.053796001 0.025118999
0.31588 0.053986002 0.026356
0.31593001 0.052972998 0.026357001
0.27013999 -0.053006999 0.0087198
0.26938999 -0.052972 0.0074757999
0.29556 0.011491 0.0091065997
0.26572999 0.0085589001 0.0060707
0.30787 -0.038651001 0.035037
0.30801001 -0.038671002 0.034088999
0.32194 0.065113999 0.058959
0.28464001 0.013956 0.0096022002
0.32100999 -0.043198001 0.030030999
0.32159001 -0.043166999 0.031179
0.27430999 0.083521999 0.017279999
0.22206999 0.056042001 0.030944001
0.33166 0.064561002 0.076940998
0.33123001 0.064917997 0.076268002
0.28974 0.0039094999 0.012569
0.32415 0.062204 0.058758002
0.32422999 0.062166002 0.057588
0.32341999 0.063251004 0.058398999
0.25626999 0.0085022002 0.014229
0.25661001 0.0086190002 0.01327
0.2159 0.082328998 0.050827
0.30785999 0.029007001 0.023002001
0.27006999 0.063239999 0.0051175999
0.31722 -0.023458 0.028757
0.3175 -0.022833001 0.028741
0.26238 0.080816999 0.047644999
0.26095 0.066646002 0.016391
0.26176 0.066448003 0.015970999
0.28711 0.010694 0.010375
0.28696999 0.0098882997 0.010652
0.26065001 0.084068999 0.052469
0.29256001 0.051754002 0.00023839
0.29233 0.050340001 0.00052275002
0.31603 -0.053165 0.030238001
0.31582999 -0.053096998 0.029538
0.31682 -0.052855 0.030455999
0.32701001 -0.052344002 0.038706999
0.32696 -0.051054999 0.038867
0.30054 0.027497999 0.010854
0.30140999 0.026682001 0.011478
0.30028999 0.026544999 0.010751
0.26980001 0.068282001 0.0066371001
0.26006001 0.082515001 0.050471
0.26739001 0.037558001 0.019903
0.26739001 0.037558001 0.019497
0.25817999 -0.029668 0.011497
0.25799999 -0.028465001 0.011321
0.2809 0.058662001 -0.00075753999
0.26572999 0.076862 0.029852999
0.26651001 0.076665998 0.028986
0.29335999 7.8782999e-05 0.0026777999
0.25044 0.044668 0.023382001
0.2516 -0.0032138 0.020958999
0.25165001 -0.0032987001 0.019936001
0.25836 0.013096 0.017887
0.29282001 0.0025259999 0.0038161001
0.26435 0.074620999 0.025451001
0.26515001 0.075104997 0.025683001
0.26556 0.075315997 0.024660001
0.28521001 0.024403 0.0057875998
0.28529 0.025497001 0.005411
0.27193001 0.026712 0.015007
0.21572 0.078617997 0.038148999
0.30605 -0.026256001 0.033420999
0.23557 0.070257999 0.025295001
0.31435999 0.068700001 0.030176001
0.31444001 0.069159001 0.031484
0.31445 0.068184003 0.031362001
0.32196 0.070152 0.070362002
0.25694001 -0.053716 0.017216001
0.25650999 -0.053574 0.018058
0.25556001 -0.053688999 0.016745999
0.25391999 0.045414999 0.017193999
0.31790999 0.064741001 0.050916001
0.31931001 0.064066 0.051185001
0.30599999 -0.0029815 0.024742
0.30522001 -0.0035272001 0.025307
0.28220001 0.077058002 0.0040528998
0.21894 0.065568 0.024724999
0.26660001 0.050372001 0.010932
0.26637 0.051748998 0.010472
0.32391 0.062694997 0.058892999
0.32405001 0.062128998 0.059645001
0.32494 -0.02846 0.032737002
0.29807001 -0.0043875999 -0.0037366999
0.30151999 0.02874 0.011482
0.29528001 0.062826 0.00021531001
0.30113 0.023026001 0.011793
0.30129999 0.02248 0.011657
0.30217001 0.059868999 0.0040942999
0.3238 -0.042351998 0.033849001
0.30383 0.077095002 0.011524
0.30296999 0.077496998 0.011503
0.27564001 0.027455 0.010175
0.27533999 0.026324 0.0098293005
0.31522 0.073726997 0.081021003
0.32209 -0.0099884998 0.04219
0.32451001 -0.050740998 0.034233999
0.32464001 -0.051392999 0.033390999
0.30860001 0.017503001 0.021376999
0.27268001 -0.052379001 0.0019462
0.27171999 -0.052583002 0.0023731
0.30388999 0.0046234 0.020531001
0.26394999 -0.028672 0.0024621
0.26324999 -0.029555 0.0029354
0.27853999 0.00069363997 0.01166
0.25927001 -0.010072 0.012048
0.25938001 -0.0089435 0.011238
0.31801 0.070828997 0.071034998
0.30306 0.036219999 0.011351
0.32086 -0.0057633999 0.035634
0.32009 -0.0067829001 0.035114001
0.30147001 0.024369 0.011544
0.30568999 0.010372 0.019141
0.31456 -0.0097535001 0.032365002
0.26019001 -0.036467001 0.0098844999
0.31389999 -0.046172999 0.025773
0.31393 -0.046585999 0.025402
0.29552001 0.051853001 0.001457
0.29488999 0.051764 0.0010052
0.29850999 0.0082668001 0.011809
0.26747999 0.085024998 0.051715001
0.26585999 0.065806001 0.0095151998
0.32559001 0.070160002 0.074277997
0.29962999 0.072586 0.0047352002
0.24685 0.062725998 0.020027
0.24700999 0.062809996 0.019231999
0.31580999 -0.0089136995 0.032676999
0.28540999 0.094048001 0.063560002
0.28639999 0.094247997 0.063588999
0.28571001 0.092947997 0.062408
0.21493 0.069012001 0.035496999
0.25810999 -0.0078197001 0.011585
0.25841001 -0.0075455001 0.010657
0.2595 -0.0080322996 0.010588
0.28788 0.075228997 0.0034282
0.27827999 0.08783 0.064391002
0.31358001 -0.0022835 0.025646999
0.32227001 -0.032104999 0.029687
0.30695 0.017472001 0.018921999
0.25334001 0.095987998 0.051300999
0.32221001 0.05514 0.050166
0.32196 0.053879999 0.049155001
0.23029999 0.058501001 0.018167
0.26300001 -0.017756 0.0067643002
0.26223999 -0.017876999 0.0066033001
0.26952001 0.080720998 0.023768
0.2694 0.080174997 0.023427
0.26930001 0.080512002 0.024889
0.23752999 0.055434 0.019033
0.23747 0.056198001 0.018967999
0.23858 0.056474 0.01832
0.26543 0.043432999 0.01452
0.26119 -0.036899 0.0083029997
0.25672001 0.045325998 0.017556001
0.25624001 0.045049999 0.018072
0.28727001 0.090685003 0.061758999
0.28771001 0.090686999 0.062351
0.32475001 0.072911002 0.082937002
0.32459 0.073285997 0.081747003
0.32398 0.073184997 0.082728997
0.25966999 0.069320001 0.023341
0.26003999 0.069496997 0.022799
0.26392001 -0.041336998 0.0049768998
0.25139001 -0.0054072002 0.021895999
0.25200999 -0.0044252998 0.022503
0.27006 0.024494 0.016686
0.26945999 0.039568 0.011269
0.2694 0.039531 0.010051
0.27042001 0.039216999 0.011625
0.28444001 0.063118003 -0.00078070001
0.31334999 0.065750003 0.019028001
0.31354001 0.064847 0.018789999
0.2895 0.011928 0.0094472999
0.26012 -0.018521 0.0073293
0.25971001 -0.018374 0.0079349
0.25737 -0.030912001 0.015068
0.25803 -0.031636 0.015241
0.31235 -0.0078248 0.029712999
0.30355999 0.0087919002 0.018809
0.25622001 0.0049183001 0.011847
0.26374 0.061958 0.011182
0.30239999 0.069983996 0.0067099002
0.30329999 0.070170999 0.0074940999
0.27807 -0.044891 0.003274
0.25395 -0.053226002 0.011074
0.25540999 -0.053574 0.011425
0.27364999 -0.027195999 0.0037992999
0.27393001 -0.028306 0.0034671
0.26218 0.00036174001 0.0071063
0.26222 0.0014068 0.0071160002
0.26328 0.0016069 0.0066986
0.30458 -0.020161999 0.040449999
0.30493 -0.019300001 0.040196002
0.28420001 0.083044998 0.010242
0.28483999 0.083339997 0.010197
0.26234001 -0.025206 0.0031300001
0.26264 -0.026038 0.0031285
0.30744001 -0.0036635001 -0.011224
0.29841 0.048342001 0.0034735
0.29861999 0.086360998 0.021266
0.26561001 0.074688002 0.018351
0.26660001 0.075782999 0.017649001
0.26949 -0.034162 0.00081042998
0.26953 -0.035062999 0.00045197
0.28128999 0.012847 0.0082796998
0.28171 0.012958 0.0084819999
0.32148999 0.067408003 0.066299997
0.32104999 0.068170004 0.066766001
0.25397 0.095716 0.054880999
0.25375 0.096161 0.054233
0.25294 0.095844999 0.054779001
0.2608 0.072168 0.027334001
0.28527999 0.030738 0.0053256
0.28503001 0.032241002 0.0052457
0.28633001 0.031241 0.0050566001
0.32394001 -0.020501001 0.031753
0.26159 -0.0064536999 0.0093870005
0.28918001 0.088806003 0.019731
0.25981 -0.033837002 0.0079337005
0.32602999 -0.045986999 0.037439
0.29988 0.037921 0.0089167999
0.32027999 0.062120002 0.049157999
0.31983 0.062070001 0.048443999
0.28707999 0.084789 0.012569
0.26765001 -0.01349 0.0093032997
0.22920001 0.062008001 0.017619999
0.22967 0.060853001 0.017529
0.29809001 0.010709 0.011246
0.22434001 0.089222997 0.045001999
0.27768001 -0.037369002 0.0052876002
0.27818 -0.037540998 0.0055868002
0.22058 0.085864 0.045719001
0.22124 0.08619 0.044473998
0.26780999 0.077160999 0.019463001
0.32433999 -0.036435999 0.033147
0.22239 0.072641999 0.027358999
0.28038999 0.066298999 0.00034974999
0.28540999 0.089769997 0.030483
0.25332001 -0.018025 0.019649999
0.25305 -0.017175 0.019427
0.21899 0.079637997 0.034609001
0.26831999 0.047993001 0.0083299
0.26797 0.047267001 0.0092222001
0.26754999 -0.042289998 0.0031081
0.26692 -0.041372001 0.0030586999
0.3184 0.073711 0.078694001
0.3116 -0.050092001 0.025581
0.27259001 0.018639 0.010417
0.27026999 0.022049 0.013889
0.27107 0.021992 0.013094
0.29038 0.039076 0.0054906001
0.28913 0.040358 0.0051052999
0.2902 0.040098999 0.0048243999
0.33160001 -0.052359998 0.046838
0.33186001 -0.051385999 0.046627
0.33179 -0.051364999 0.047857001
0.31347001 0.066651002 0.020047
0.31439999 0.065672003 0.020948
0.27878001 0.051608998 0.00051877002
0.30232 0.016445 0.015404
0.30293 0.016293 0.016152
0.30423 0.055039 0.0052147
0.30539 0.055266 0.0053209998
0.28349 0.0081783002 0.0096830996
0.28244999 0.0077013001 0.0096803
0.32631001 -0.047076002 0.038102001
0.32584 -0.047642998 0.037097
0.25655001 -0.015881 0.013456
0.31575 -0.038906001 0.027491
0.31196001 0.065785997 0.015726
0.32031 -0.052834 0.030691
0.32161999 -0.053151999 0.030932
0.32087001 -0.052733 0.031358
0.26953 -0.052931 0.010167
0.29264 0.050804 0.00054894999
0.27954 0.0049212002 0.010133
0.27924001 0.0038751001 0.010772
0.27864999 0.004929 0.0099756997
0.26574001 0.062346999 0.0095490003
0.26673999 0.063372001 0.0088996002
0.26679 0.062070999 0.0087043997
0.30864999 0.011741 0.020816
0.30794001 0.011902 0.020161999
0.2308 0.060121998 0.017612001
0.2298 0.059813 0.018154001
0.26010001 -0.053049002 0.0096254004
0.27829999 0.079723001 0.0076016001
0.2938 0.056612998 2.3392001e-07
0.29459 0.056635 0.00017824001
0.32275999 0.054136999 0.052283999
0.27934 0.016194999 0.0081404001
0.27921 0.015312 0.0080958996
0.27810001 0.014942 0.0079528997
0.30232 0.027798001 0.012008
0.30171001 0.027729999 0.011306
0.27579999 -0.034423001 0.0030910999
0.27616 -0.034000002 0.0038876
0.26442 0.086291999 0.048563998
0.26607001 -0.030389 0.0018420001
0.29677001 0.027389999 0.0089819003
0.31171 0.042038999 0.018547
0.29782999 0.012238 0.011548
0.31241 0.076448999 0.094683997
0.25398001 -0.052797999 0.010494
0.25452 -0.052508999 0.0098844999
0.29416999 0.029916 0.0083282003
0.3285 -0.053472001 0.041522
0.31130001 -0.033025999 0.028790999
0.2404 0.066483997 0.028059
0.30254 0.026602 0.01194
0.30309999 0.026542 0.012418
0.25264001 -0.0021363001 0.015233
0.27509999 -0.030723 0.0036179
0.26411 0.075859003 0.031546999
0.28683999 0.036554001 0.0052666999
0.27880001 -0.052925002 0.002538
0.27904001 -0.053130001 0.0029742999
0.27777001 -0.0031677 0.014883
0.27744001 -0.0042794999 0.014672
0.22619 0.076984003 0.032639999
0.22624999 0.076791003 0.032003
0.29174 0.044402 0.0035399001
0.26324001 -0.0091434 0.0097267004
0.264 -0.0078220004 0.0090261996
0.26423001 -0.0090169003 0.0091802003
0.28005001 -0.050330002 0.0093718003
0.27993 -0.051217001 0.0094136996
0.28033999 -0.050186001 0.0083405003
0.30432001 0.068852 0.0074070999
0.27403 0.059652001 0.0019332001
0.29712999 0.087852001 0.024038
0.26405001 0.017464999 0.020639
0.26256001 0.0082432004 0.0079191998
0.30362001 0.041030001 0.0094392002
0.30429 0.040670998 0.010403
0.32472 -0.016678 0.037599001
0.32499999 -0.016737999 0.038465999
0.26163 0.01545 0.015488
0.26126999 0.015066 0.015333
0.3127 -0.03528 0.028276
0.31428 -0.033971999 0.027783999
0.29225001 0.084821001 0.012492
0.29323 0.084624998 0.012857
0.26954001 0.030827999 0.017201999
0.26925999 0.030148 0.018714
0.26942 0.031033 0.018998001
0.29231 0.0045488002 0.0051821
0.31826001 -0.0087524997 0.033906002
0.31158999 0.020075999 0.031757001
0.31106001 0.02049 0.031780999
0.32370999 -0.029696999 0.031275999
0.25097999 0.063910998 0.018324001
0.28476 0.084955998 0.01289
0.25848001 0.060991999 0.013038
0.25985 0.061135001 0.013053
0.25942999 0.060277 0.012672
0.31013 -0.042252999 0.034770001
0.27110001 0.023358 0.014241
0.30215001 0.057693999 0.0036191
0.30151001 0.057154998 0.0031705
0.26334 0.011991 0.0090445001
0.26231 0.011609 0.0091696
0.32295999 0.074153997 0.091055997
0.27090001 0.064650998 0.0044164001
0.27676001 0.053010002 0.0017048999
0.27682999 0.051785 0.0019747999
0.26477 -0.038814999 0.0024111001
0.26482001 -0.038187001 0.0022348999
0.29789999 0.016339 0.011173
0.29192001 0.010319 0.0084829004
0.23909999 0.067929998 0.026098
0.26326001 0.090658002 0.053659
0.26335001 0.090689003 0.052724998
0.26288 0.090945996 0.052349001
0.26481 0.0027141001 0.0061252001
0.30680001 0.024293 0.019018
0.30709001 0.024243999 0.019525001
0.29552001 0.072278999 0.0029786001
0.28437999 0.08794 0.020144001
0.2852 0.088697001 0.020254999
0.23137 0.074173003 0.02703
0.31343001 0.01289 0.024316
0.3134 0.013255 0.024651
0.28746 0.088926002 0.019781999
0.28788999 0.088540003 0.019348999
0.23817 0.065583996 0.022226
0.23926 0.065178998 0.02259
0.29885 0.050432999 0.0024570001
0.26016 0.080904 0.050386
0.25997001 0.081638001 0.050629999
0.28549001 0.095983997 0.065971002
0.31540999 0.080701999 0.094563998
0.22096001 0.082668997 0.036805
0.27667001 -0.033452999 0.0048492998
0.28492999 0.024033001 0.0061742999
0.27643001 -0.037280001 0.003024
0.27664 -0.038793001 0.0028088
0.27577999 -0.038040001 0.0019338001
0.30048001 0.071696997 0.0052725999
0.30114999 0.072251 0.0060744998
0.29010999 0.090768002 0.067562997
0.28986001 0.092051998 0.067620002
0.28560001 0.089461997 0.027744001
0.28604999 0.089757003 0.027217001
0.24068999 0.066295996 0.03049
0.24070001 0.067092001 0.030056
0.22871 0.075940996 0.030313
0.22887 0.076148003 0.031768002
0.30274999 0.049913999 0.0047133998
0.30305001 0.050689001 0.0046657999
0.28938001 0.078997001 0.0050380998
0.28979999 0.079429999 0.0054516001
0.27006999 0.023050001 0.015339
0.27043 0.024323 0.015566
0.236 0.072659999 0.030710001
0.28799 0.01066 0.010253
0.24473 0.062504001 0.020267
0.27610999 -0.049378999 0.00069030997
0.27636001 -0.050145 0.00050475
0.27502 -0.049766999 0.00066830002
0.28870001 0.095035002 0.066535003
0.27300999 -0.017277 0.01285
0.25448999 0.0043533002 0.014619
0.2552 0.0051051001 0.013978
0.30386999 0.079677001 0.014592
0.26808 0.076802999 0.01442
0.26833001 0.076358996 0.013787
0.21953 0.082943998 0.038539
0.21991 0.083622999 0.039007999
0.26322001 0.083775997 0.047800001
0.26345 0.085129 0.04795
0.27129999 0.0034804 0.0056913998
0.30930999 0.068893 0.012842
0.2735 0.087035999 0.041657001
0.26887 -0.0013126 0.0064905998
0.28262001 0.035112001 0.0055010002
0.28127 0.034628998 0.0059090001
0.22455999 0.075052001 0.030595999
0.22412001 0.074805997 0.029363999
0.25579 0.093268998 0.056936
0.23783 0.056940001 0.018525001
0.23817 0.057631999 0.018793
0.31009001 0.076214001 0.10389
0.31134 0.076587997 0.10448
0.31088001 0.076256998 0.10407
0.28408 0.087095 0.016615
0.28478 0.086213 0.015138
0.28406 0.086663999 0.015241
0.28393999 0.051688999 -0.00014311
0.27897 0.043777999 0.0032307
0.27816001 0.043331001 0.0036505
0.27759999 0.043772999 0.0038139999
0.30744001 0.071397997 0.012521
0.25481999 0.094135001 0.050161999
0.2696 0.0263 0.019842001
0.26837999 0.023807 0.019486999
0.30059001 0.063217998 0.0028374
0.30112001 0.062263999 0.0031139001
0.24167 0.061662 0.018386999
0.26730001 0.00011585 0.0061364002
0.25137001 0.047320999 0.014774
0.25130999 0.047883999 0.014196
0.31187001 0.042992 0.020407001
0.31180999 0.043944001 0.021183999
0.31213 0.042521998 0.020811999
0.22383 0.071447998 0.022998
0.29820001 0.085809998 0.019370999
0.28014001 0.060989998 -0.00052250997
0.28483 0.084339 0.012631
0.32774001 0.058901001 0.069580004
0.26971999 0.084392004 0.036881998
0.26388001 0.045364998 0.015498
0.28575999 0.042615999 0.0026356999
0.28538999 0.042709 0.0024428
0.28470999 0.043219998 0.0022106001
0.31355 -0.041012 0.028489999
0.31378999 -0.052352 0.023921
0.27017 0.059903 0.0045137
0.25038999 -0.054033 0.0143
0.30654001 0.035294998 0.016407
0.27294001 0.0099640004 0.0068919002
0.27970999 0.090691 0.067302004
0.29949999 0.0054198001 0.0091230003
0.23136 0.064684004 0.017547
0.23118 0.065312997 0.017797001
0.23278999 0.064459004 0.018082
0.25286001 -0.010009 0.022674
0.25279999 -0.0098293005 0.021777
0.25228 -0.010397 0.022257
0.30875 0.071749002 0.015523
0.31358001 0.017148999 0.029253
0.26611999 0.087320998 0.052558001
0.30419999 -0.027145 0.039933
0.30412999 -0.026263 0.040832002
0.30383 -0.026392 0.039809
0.27443999 -0.0045603998 0.010487
0.2755 -0.0044056 0.011344
0.28641999 0.083517998 0.0099887997
0.29385999 0.05161 0.00043036
0.30430999 -0.0065453998 -0.012646
0.31999999 0.057679001 0.043976001
0.31957999 0.058628999 0.044188999
0.32027999 0.057996001 0.044849001
0.31685001 0.077591002 0.090912998
0.25771001 0.066371001 0.021003
0.32778001 0.063077003 0.069165997
0.31105 0.064727001 0.012624
0.30974999 0.065702997 0.011434
0.26967999 0.061136 0.0052064001
0.30418 -0.0076123001 -0.0091784
0.23797999 0.068672001 0.025775
0.26956999 0.037625998 0.015069
0.26901001 0.038189001 0.015147
0.26170999 0.043145999 0.023777001
0.24687999 0.062569998 0.018604999
0.23265 0.061154 0.017955
0.27893999 0.019836999 0.0091647999
0.26391 0.050691001 0.011874
0.26398 0.049936999 0.011809
0.28310001 0.064434998 -0.00074783998
0.28319001 0.063363001 -0.00052775
0.30535999 0.024068 0.01585
0.30564001 0.024178 0.016756
0.25674 -0.051422 0.0081470003
0.32124001 0.054058999 0.045984
0.32121 0.055032998 0.045999002
0.21784 0.087531999 0.050694998
0.21927001 0.088032 0.049601998
0.21865 0.087655999 0.049842
0.25722 0.0050879 0.011097
0.27855 0.02657 0.0075119999
0.27836001 0.027635001 0.0074776001
0.28042999 0.010388 0.0081604999
0.30022001 0.050340001 0.0037324999
0.27581999 -0.0040523 0.011841
0.30757001 0.062458999 0.0081914999
0.26672 0.014495 0.010949
0.26682001 0.01467 0.011358
0.28073001 0.092129 0.067985997
0.28841001 0.0084255002 0.010975
0.28826001 0.0074705998 0.01133
0.27781001 -0.034150001 0.0061106002
0.27728 -0.033027999 0.0062042
0.27748001 -0.033778999 0.0066447998
0.32212001 -0.0044455999 0.038950998
0.2225 0.068103001 0.021330999
0.27478001 -0.0068550999 0.012919
0.26140001 0.057755999 0.01167
0.25786999 0.011579 0.018708
0.30147001 0.0093491003 0.017504999
0.29888999 0.032348 0.0083013996
0.29829001 0.032343 0.0079220003
0.27583 -0.021523001 0.011076
0.27596 -0.022342 0.010975
0.32082999 0.063014001 0.055011999
0.32108 0.063026004 0.054313
0.29383001 0.082004003 0.0088229002
0.2579 -0.045628998 0.011262
0.25654 -0.046105999 0.011805
0.25711 -0.045247 0.012259
0.32334 0.063281 0.059443001
0.26807001 0.023589 0.021957999
0.30853 -0.026070001 0.031064
0.25402001 -0.048411001 0.022892
0.22756 0.080904998 0.036818001
0.22714999 0.081122003 0.036029998
0.21355 0.073252998 0.036633998
0.27853999 0.082768999 0.012855
0.27821001 0.081928 0.011294
0.21962 0.085216999 0.042776
0.27928999 0.069720998 0.0021776001
0.28024 0.071185 0.0017404
0.27181 0.073413998 0.0072091999
0.27125999 0.073585004 0.0081570996
0.27140999 0.074732997 0.0082283998
0.30294001 -0.0058085001 -0.011014
0.31854999 0.0061927 0.026885999
0.22278 0.088863999 0.043871
0.30017 0.051672999 0.0032118
0.30127001 0.052953001 0.0032564001
0.21821 0.065298997 0.026791001
0.27024999 0.039563 0.0088860001
0.32519999 -0.045728002 0.035087001
0.3193 -0.0056606 0.032880999
0.31918001 0.067717001 0.065866999
0.30974001 0.047162998 0.011349
0.2633 0.073698997 0.027411999
0.26391 0.074014001 0.026046
0.26299 0.073255002 0.027082
0.27085999 -0.024169 0.0035226
0.27099001 -0.023368999 0.0039041999
0.31808001 -0.038835999 0.027497999
0.31573001 -0.046985999 0.025181999
0.31567001 -0.047711 0.024579
0.30486 -0.019399 0.039868999
0.25163999 0.064497001 0.019912999
0.25130999 0.064294003 0.021090001
0.2525 0.064263001 0.021398
0.29326001 0.051061999 0.00066383003
0.29352 0.050592002 0.0010883
0.29390001 0.038814999 0.0060004001
0.32030001 0.061287999 0.048900999
0.32036 0.061804999 0.049796999
0.29657999 0.033427 0.0080214003
0.25512999 0.0083232997 0.017738
0.26747999 0.058449 0.0063473
0.26784 0.057626002 0.005682
0.2674 -0.017261 0.0070628999
0.22085001 0.068007 0.024205999
0.25843 -0.044661 0.016306
0.22357 0.063405998 0.019646
0.22476 0.055218998 0.024726
0.22490001 0.064328998 0.018731
0.30579999 0.029000999 0.016567999
0.32205001 -0.028409 0.029803
0.25656 0.010089 0.018345
0.28264001 0.049679998 0.00042155999
0.28125 0.050616998 0.00031457
0.21504 0.073439002 0.035840001
0.22416 0.082607999 0.034605
0.31424001 0.067962997 0.025353
0.31437999 0.067823999 0.024679
0.31355 0.068023004 0.02382
0.30678999 0.029214 0.018497
0.30693999 0.030192999 0.018565999
0.30717999 0.030024 0.019535
0.25257 -0.0010271 0.016767999
0.25207999 -0.00046941001 0.017496999
0.23379 0.072924003 0.027113
0.23319 0.072935 0.026771
0.21778999 0.087157004 0.049497999
0.31053999 0.018456999 0.024955001
0.31127 0.018394001 0.025752001
0.31356001 0.082524002 0.095977001
0.30757001 -0.021610999 0.032894999
0.30798 -0.022706 0.031656999
0.25521001 -0.052519001 0.0090418998
0.25593001 -0.053089 0.0082753999
0.29993999 0.0024424 0.00036067
0.29993999 0.0020151001 -0.00021575
0.32279 0.073893003 0.089417003
0.32225001 0.073766001 0.088793002
0.30985001 0.082658 0.098802
0.30893001 0.077427998 0.022964001
0.30941001 0.076344997 0.024155
0.32547 -0.019264 0.035349999
0.32559001 -0.019383 0.036534999
0.29236001 0.069168001 0.0011633
0.22386999 0.087885998 0.041510999
0.22157 0.057944998 0.023952
0.22172999 0.057759002 0.023225
0.23632 0.052823 0.020948
0.23612 0.053991999 0.020654
0.31586 -0.0020820999 0.027019
0.3026 -0.0002603 -0.0057716998
0.30217001 -0.00041422001 -0.0064234999
0.31358001 0.078547999 0.09285
0.31277999 0.079268001 0.094410002
0.32649001 -0.044707 0.039877001
0.30539 -0.026239 0.034332
0.29598001 0.0059869001 0.0051350999
0.2958 0.0068986998 0.0053535998
0.29626 0.0067651998 0.005628
0.30138999 0.075571001 0.0085369004
0.30131999 0.076954998 0.0087139998
0.30249 0.075893998 0.0093334001
0.21602 0.081528999 0.041345999
0.30061999 0.086042002 0.027128
0.30096 0.085643001 0.026291
0.27471 0.087347001 0.033457998
0.27383 0.086903997 0.033002
0.26438001 0.073443003 0.022942999
0.26368001 0.072878003 0.022685001
0.3186 -0.00098302006 0.029661
0.31858 -0.00065152999 0.028949
0.31891 0.00058754999 0.029069999
0.32019001 0.061092 0.048496999
0.31977001 0.061516002 0.047945999
0.28913999 0.0051942002 0.012268
0.30445999 -0.020532001 0.041632999
0.31753999 -0.051176 0.024178
0.31698999 -0.052489001 0.024281001
0.27801001 0.084597997 0.015006
0.27781001 0.08422 0.014868
0.24135999 0.05147 0.016903
0.24161001 0.050510999 0.016687
0.27397001 0.084329002 0.019355001
0.27344 0.084273003 0.020551
0.25931001 0.013656 0.020361001
0.30851999 0.023153 0.023751
0.30098 0.078119002 0.0089991
0.25257 -0.015725 0.019763
0.25297999 -0.015853001 0.01898
0.27077001 -0.046902001 0.0019769999
0.26010999 0.014517 0.019684
0.31362 0.011726 0.023737
0.26944 0.002844 0.0055308002
0.31095001 0.040940002 0.01867
0.27291 0.050101001 0.0030125
0.27296999 0.050648998 0.0029239999
0.32387 -0.025223 0.03108
0.23571 0.068039 0.022785001
0.29271999 0.071781002 0.0019209
0.29677001 -0.0024063 -0.0025887
0.30385 0.015405 0.016961999
0.30522001 0.015297 0.017711001
0.22996999 0.050232999 0.027829999
0.28527999 0.086740002 0.015647
0.23801 0.054765999 0.018671
0.27504 -0.049137 0.00087218999
0.26344001 0.016692 0.019538
0.2243 0.088402003 0.043379001
0.30438 0.013497 0.016727
0.30399001 0.012867 0.017101999
0.31114 0.041572001 0.016859001
0.32475001 -0.020646 0.032469999
0.31426001 -0.00027210999 0.025168
0.30921999 0.082823999 0.097226001
0.30846 0.083222002 0.097571
0.25020999 0.046183001 0.018065
0.27715001 -0.034435999 0.0055586002
0.32152 -0.0032319999 0.035636
0.32100001 0.076839 0.094927996
0.32115 0.077298999 0.093869999
0.32043999 0.077233002 0.094889998
0.28310999 0.045835 0.0015256
0.31496 0.064888999 0.023202
0.31492999 0.064943001 0.024038
0.31527001 0.064473003 0.024651
0.2949 0.060116999 0.00034612001
0.24484 0.059401002 0.016140001
0.26249 -0.015944 0.0093420995
0.25452 0.0067254002 0.017353
0.24243 0.047063999 0.018540001
0.25397 0.061018001 0.013418
0.31275001 0.058885001 0.013491
0.31215 0.05844 0.012823
0.32932001 -0.049027 0.042101
0.33346 -0.051139001 0.05359
0.26903 0.03193 0.021548999
0.26910999 0.032196 0.022614
0.29677001 0.079914004 0.0080268998
0.30778 0.025459001 0.021025
0.26616001 0.067868002 0.0098706996
0.31347999 -0.050319001 0.024217
0.31455001 0.065659001 0.02214
0.26100001 -0.0076731001 0.0098913005
0.26100001 -0.0067975 0.0097665004
0.32449999 -0.052453998 0.034605
0.30735999 0.066619001 0.0089384001
0.31048 0.020515 0.027867001
0.30985001 0.021740999 0.028542999
0.27969 0.021965999 0.0090976004
0.27147999 0.0071955998 0.0056379
0.31700999 0.016174 0.035440002
0.31759 0.01537 0.036017999
0.26396999 0.076472998 0.032862999
0.21586999 0.082088999 0.048617002
0.21513 0.082202002 0.048640002
0.3215 -0.018129 0.031516001
0.29708001 0.01997 0.010127
0.3163 0.076250002 0.089254998
0.28382 0.067818001 6.6496999e-05
0.28406 0.068696998 0.00038010001
0.24141 0.057549998 0.015539
0.24195001 0.058006 0.015185
0.21286 0.079434998 0.050478
0.21269 0.079203002 0.049447
0.21335 0.079279996 0.051504001
0.32302999 -0.037749 0.031236
0.22060999 0.087577 0.049022999
0.30965999 0.083408996 0.096959002
0.31075999 0.083614998 0.097005002
0.2899 0.013856 0.0094969999
0.26372999 0.0051954002 0.0066487999
0.25659001 -0.0033263001 0.010713
0.25573999 -0.0031534999 0.011395
0.25584 -0.0023556 0.010989
0.26064 -0.020552 0.0051426999
0.29058 0.090255998 0.030662
0.32098001 -0.039657999 0.029833
0.29106 0.033062998 0.0057231998
0.28446001 0.095559999 0.065471001
0.28536999 0.095747001 0.065240003
0.32025 -0.0056087002 0.035135001
0.28738999 0.0063213999 0.012951
0.32012999 -0.044629 0.028369
0.25887999 -0.044937 0.014452
0.25819999 -0.044663999 0.015028
0.25865 -0.044713002 0.015452
0.29148999 0.0019054 0.0089499
0.31720999 0.080064997 0.096055999
0.31097001 0.067809999 0.014234
0.26260999 0.010513 0.0085153002
0.32350001 0.062655002 0.057436001
0.32324001 0.062431999 0.056719001
0.28691 0.032487001 0.0047352999
0.26910001 0.049614001 0.0063318
0.26899001 0.048721999 0.0071073002
0.29539999 -0.0032069001 -0.00012935
0.29550001 -0.0021699001 -0.00041466
0.3066 -0.0019640001 -0.0091708004
0.30737999 -0.0023697999 -0.0089339996
0.28639999 0.088697001 0.020891
0.28650001 0.088592999 0.019497
0.28602999 0.019006999 0.0075380998
0.28536001 0.018428 0.0079552
0.27265 0.073449001 0.0064905002
0.27548 0.0070814998 0.0076996
0.2746 0.0071987002 0.0068615
0.27575001 0.0082583996 0.0076716002
0.26519999 -0.048489999 0.0047235
0.26576999 0.073371999 0.01427
0.25907001 -0.0043878001 0.0094935996
0.26256001 0.071428001 0.049633
0.26203999 0.070111997 0.049405999
0.24202 0.062527999 0.019417999
0.29681 -0.0048781 0.001679
0.29585001 -0.0043386002 0.0013032
0.26828 0.042661998 0.010763
0.26820999 0.043949999 0.010615
0.32258999 -0.0032667001 0.039303001
0.28909001 0.065467 -0.00018273
0.30219001 0.058814 0.0038956001
0.29376999 0.074616 0.0034354001
0.26908001 -0.025044 0.0023113999
0.26898 -0.024117 0.0029899001
0.27017999 -0.024107 0.0031029
0.23729999 0.070932999 0.028534001
0.25481001 -0.020522 0.014927
0.27054 0.083068997 0.032139
0.2617 -0.043722 0.014132
0.26218 -0.043396 0.013106
0.26062 -0.044263002 0.013464
0.32295999 -0.045965001 0.030909
0.32257 -0.045630001 0.030025
0.26591 0.014683 0.010979
0.26082999 0.044163 0.022406001
0.26030999 0.044234999 0.023382001
0.26010001 0.044516999 0.022275001
0.30258 0.024391999 0.012266
0.32209 0.064176001 0.060196999
0.32273 0.064539 0.059393
0.31292 0.018646 0.028814999
0.31233999 0.018882001 0.028162001
0.25687999 0.0097532002 0.015644001
0.31307 0.018165 0.030247999
0.3066 0.010443 0.019299001
0.25387001 0.064834997 0.020668
0.25475001 0.001395 0.012742
0.30987 -0.034120001 0.030072
0.30880001 -0.034224 0.030634999
0.21321 0.076981999 0.039712001
0.31779999 -0.040918 0.028108001
0.31764001 -0.039980002 0.027879
0.31386 0.053904999 0.018087
0.31358001 0.052997001 0.017701
0.22776 0.078066997 0.034612998
0.22841001 0.078039996 0.036343001
0.22872999 0.076830998 0.036377002
0.23241 0.075540997 0.032675002
0.23289999 0.075107001 0.031950999
0.28281999 0.027608 0.0056491001
0.32056999 0.074349999 0.079775997
0.30860001 -0.038711999 0.032099999
0.30833 -0.038975 0.033092
0.30802 -0.037581 0.032878999
0.31705001 -0.014941 0.032915
0.31759 -0.013707 0.034603
0.29276001 0.05641 -0.00041201999
0.31398001 -0.0055714999 0.028310999
0.31446999 -0.0057325 0.028564001
0.22119001 0.087118998 0.049543001
0.26422 -0.038580999 0.0029116999
0.30807999 0.016022 0.021098001
0.31077999 0.080344997 0.096864998
0.30983001 0.081891 0.096634001
0.31042999 0.081564002 0.095954999
0.25758001 -0.045000002 0.015923999
0.21931 0.062075 0.023659
0.27913001 0.089380004 0.043834999
0.25942001 0.013161 0.013161
0.28042999 0.030861 0.0067639002
0.31434 -0.014802 0.032979999
0.31472999 -0.01382 0.033696
0.29778999 0.086186998 0.019412
0.29872 0.086097002 0.020167001
0.26255 0.043377999 0.019367
0.27270001 0.024165999 0.012521
0.26234001 -0.0088403998 0.0097503997
0.23333 0.056905001 0.020012001
0.2446 0.058116999 0.014981
0.31434 0.072594002 0.078442
0.31428999 0.072240002 0.076863997
0.28343999 0.084071003 0.012105
0.31615001 -0.050066002 0.023985
0.31604999 -0.051103 0.023843
0.30754 0.027673 0.021036001
0.32282001 -0.052393999 0.030246999
0.24989 0.063679002 0.020457
0.24976 0.063435003 0.021309
0.28959 0.034460999 0.0042643002
0.27263001 0.052641999 0.0024077001
0.21777 0.086084999 0.04676
0.21692 0.085086003 0.047866002
0.21727 0.086083002 0.047853999
0.30596 0.020674 0.019126
0.26907 0.0085469997 0.0059365998
0.27733999 0.0012248 0.0097470004
0.26265001 0.062933996 0.012177
0.26352999 0.063555002 0.012126
0.27709001 -0.0020885 0.012273
0.27636001 -0.0028256001 0.011589
0.26964 0.038557999 0.01375
0.26993999 0.037670001 0.013983
0.25206 -0.050053 0.011858
0.25253999 -0.049231 0.011754
0.32615 -0.021640001 0.039399002
0.25914001 0.068048 0.024513001
0.25898001 0.067643002 0.023813
0.29960001 -0.0048667998 -0.0059185
0.29958001 -0.0054937 -0.0043746
0.29931 -0.0047468999 -0.0046462002
0.28512999 0.087874003 0.019042
0.30520001 -0.00081419997 -0.0057063
0.26080999 -0.052395001 0.0072653
0.25971001 -0.052629001 0.0072969999
0.30368 0.079244003 0.013816
0.24413 0.045901 0.020484
0.26262 0.073482998 0.032136001
0.28740001 0.090205997 0.026550001
0.2432 0.046587002 0.019044001
0.26288 0.040098 0.028650001
0.26251999 0.040305 0.029424001
0.26234999 0.041035999 0.028533
0.32506999 0.057748999 0.057286002
0.29179999 0.062137999 -0.00066774001
0.30757999 0.063162997 0.0082502002
0.33212 -0.050225001 0.046900999
0.33177 -0.049038999 0.046758998
0.33188999 -0.050041001 0.048340999
0.21032 0.071552999 0.042484
0.24872001 -0.050570998 0.024688
0.2498 -0.049915999 0.024659
0.30203 0.052850001 0.0040091001
0.30138999 0.063215002 0.0031417999
0.27494001 0.033346001 0.0098481001
0.27541 0.033142999 0.0093216999
0.22538 0.066846997 0.018786
0.29940999 0.082929999 0.01366
0.32076001 -0.049097002 0.026697
0.32100001 -0.048163999 0.027597999
0.32142001 -0.049286 0.027841
0.29721001 0.081473 0.0098243002
0.29826 0.081099004 0.010385
0.26873001 0.079236999 0.025858
0.26883999 0.079550996 0.025231
0.26673001 0.086297996 0.049883001
0.25990999 -0.027109001 0.0048849001
0.25964001 -0.028485 0.0058371001
0.27090999 0.0089592002 0.0062442999
0.26058 0.045683 0.018377
0.29890001 0.062815003 0.0018841
0.29833001 0.062302999 0.0017733
0.30261999 0.083825998 0.025622001
0.30324 0.082983002 0.024654999
0.22746 0.078964002 0.034878999
0.26655 0.010502 0.0070102001
0.25755 0.065932997 0.019835001
0.23086999 0.074993998 0.029300001
0.27649999 -0.053775001 0.0030559001
0.29012001 0.065668002 -0.00033832001
0.22653 0.061471 0.018276
0.28367999 0.065059997 -0.00065116998
0.32699999 0.058501001 0.068589002
0.32773 0.059801999 0.068847999
0.25407001 0.064409003 0.017282
0.32212999 -0.047010001 0.029283
0.32143 -0.046778999 0.028442999
0.32142001 -0.045809999 0.028791999
0.21326999 0.074509002 0.037638001
0.31948999 0.063571997 0.049949002
0.31911001 0.064204 0.050492998
0.28130999 0.0023362001 0.017231001
0.28198001 0.0023775001 0.016651999
0.28266001 0.0027305 0.018126
0.30636999 -0.021663999 0.033633001
0.33175999 -0.051256999 0.045674
0.22158 0.086929999 0.041972
0.30206999 0.032276999 0.011869
0.28964001 0.083453 0.01001
0.2881 0.083678 0.010284
0.31239 0.056674998 0.013321
0.22133 0.080182999 0.033236001
0.28854001 0.093043998 0.064942002
0.26638001 0.075778 0.018359
0.26703 0.076182 0.018804001
0.29854 0.075822003 0.0063811
0.29899999 0.075046003 0.0060255001
0.27188 0.028891999 0.014649
0.27066001 0.028895 0.015562
0.28636 0.089483999 0.023339
0.24721 0.056823 0.014059
0.25503999 0.059893001 0.012279
0.25481001 0.058837999 0.011951
0.31154001 -0.0028917 0.025127999
0.23697001 0.069045998 0.024999
0.32036999 0.058910001 0.044893999
0.23433 0.071689002 0.026040999
0.23492 0.071509004 0.026722001
0.28703001 0.096608996 0.067850001
0.29778001 0.065778002 0.0021273999
0.29903999 0.065543003 0.0024659
0.31178999 -0.048191998 0.025767
0.33021 0.068020001 0.077630997
0.33079001 0.067588001 0.078045003
0.31902999 0.073990002 0.080787003
0.31979999 0.074274004 0.079728998
0.22685 0.075461999 0.028073
0.21452001 0.076463997 0.038010001
0.2217 0.088099003 0.044294
0.26111999 -0.030474 0.0038743
0.3012 0.059813 0.0035573
0.30217001 0.061094999 0.0035375
0.31998 0.049616002 0.049364999
0.31944999 0.049368002 0.047621001
0.31988999 0.049856 0.048487
0.30783001 0.044169001 0.010616
0.30688 0.043779999 0.0097078001
0.29291999 0.0085022999 0.0070691002
0.27267 0.079291999 0.011381
0.27259001 0.078553997 0.011175
0.29736 0.044732001 0.0061527002
0.27355999 0.057627998 0.0019747
0.27625999 0.048193999 0.0025724999
0.26295999 0.077418998 0.049846001
0.26280999 -0.041402999 0.0072984998
0.30033001 0.064506002 0.002628
0.25723001 -0.025162 0.011035
0.32548001 -0.036472999 0.035014998
0.32541999 -0.036052 0.035402
0.32539999 -0.036419999 0.036421999
0.31334999 0.050393 0.019556001
0.21244 0.077055 0.045247
0.25055999 0.054021001 0.013036
0.26481 0.052808002 0.010608
0.31283 0.018580999 0.031090001
0.30410001 0.075859003 0.011348
0.30360001 0.076439001 0.01143
0.32883999 0.070566997 0.079085
0.29315001 0.0026544 0.0036573999
0.29374 0.0026163999 0.0029110999
0.24715 0.055213001 0.014341
0.24625 0.055369999 0.014867
0.24709 0.056333002 0.014134
0.31562999 0.051612999 0.027241001
0.31531999 0.052044 0.026629999
0.32045001 0.051608 0.047178
0.31086999 0.018045001 0.024955999
0.30195001 0.0011982 0.0014694
0.21986 0.069104001 0.026342999
0.30408001 -0.021791 0.039607
0.28400999 0.086613998 0.014805
0.24741 0.062380001 0.018027
0.24653 0.06216 0.017890001
0.26932999 0.056749001 0.0049088998
0.26932999 0.057583001 0.0046136999
0.27474001 0.087373003 0.032379001
0.23749 0.065471001 0.021469999
0.25720999 -0.017898999 0.012174
0.25661999 -0.017883001 0.013119
0.26908001 0.021754 0.015046
0.27517 0.079925001 0.010169
0.27333999 0.032241002 0.01146
0.27961999 0.0018818 0.012254
0.27860001 0.088459 0.065173
0.32684001 0.062164001 0.068204999
0.25161001 -0.049437001 0.012271
0.27636001 -0.0035685 0.012281
0.30502 -0.019203 0.041480999
0.30515 -0.018999999 0.042289
0.27011999 0.023910001 0.015648
0.30300999 0.072601996 0.0073183002
0.30276 0.073707998 0.0077805002
0.30339 0.072400004 0.007855
0.29543999 0.047262002 0.0050710998
0.29583001 0.048209999 0.0050005
0.31329 -0.0079723997 0.02995
0.24167 0.064750001 0.029413
0.24184 0.064685002 0.02833
0.28608 0.046558999 0.001082
0.28582999 0.045991 0.0013379999
0.28507999 0.046443 0.0010179
0.27555001 0.069190003 0.0026239001
0.30827001 0.078518003 0.025345
0.30759001 0.079118997 0.025234001
0.27823001 -0.037441999 0.0083347
0.27847999 -0.036260001 0.0076529998
0.27816001 -0.036522999 0.0089129005
0.30684 0.025403 0.019002
0.26391 -0.053281002 0.0062282002
0.26442999 -0.052666001 0.0055681001
0.26471001 -0.053316001 0.0057982998
0.32576001 -0.023976 0.034653001
0.31299001 -0.046151001 0.026148999
0.30401 0.025335999 0.014043
0.32236999 0.074046999 0.081761003
0.31885999 0.051415998 0.043708
0.29984999 0.018025 0.012799
0.32069001 -0.016055999 0.032632001
0.31977999 0.066637002 0.064566001
0.24096 0.055117998 0.016376
0.29846999 0.025635 0.0099836998
0.25507 0.088294998 0.049010001
0.25529999 0.089004003 0.049855001
0.25455001 0.088758998 0.049254999
0.29969999 0.030817 0.0098933997
0.27972999 0.026275 0.0065984
0.27903 0.026285 0.0069774999
0.28654 0.087831996 0.017553
0.27544001 0.049439002 0.0024039999
0.27625999 0.049302999 0.0025001999
0.25872001 -0.050053 0.0077968002
0.23834001 0.067281 0.024619
0.22661 0.074320003 0.027043
0.32765999 -0.044704001 0.046045002
0.32776001 -0.044911001 0.045368001
0.32706001 -0.044730999 0.044789001
0.21946999 0.063298002 0.022348
0.22032 0.063369997 0.021706
0.23705 0.066182002 0.022017
