# .PCD v0.7 - Point Cloud Data file format
VERSION 0.7
FIELDS x y z
SIZE 4 4 4
TYPE F F F
COUNT 1 1 1
WIDTH 1585
HEIGHT 1
VIEWPOINT 0 0 0 1 0 0 0
POINTS 1585
DATA ascii
0.045178 0.22554 0.17015
0.045965999 0.22314 0.17077
0.021344 0.22680999 0.18443
0.024637001 0.22657 0.18189999
0.045260001 0.22651 0.17007001
0.046698 0.22652 0.16957
0.024963999 0.22804999 0.18183
0.02055 0.22736 0.18409
0.04769 0.22923 0.17048
0.043857999 0.22965001 0.1718
0.048025001 0.22882999 0.16841
0.025955999 0.22924 0.18288
0.024277 0.22933 0.18205
0.045093998 0.23139 0.17212
0.046726 0.23195 0.16967
0.047437001 0.23112001 0.17020001
0.020341 0.23229 0.18415999
0.024065999 0.23248 0.1847
0.02468 0.23360001 0.18249001
0.020397 0.23344 0.18384001
0.048526 0.23377 0.16919
0.045239002 0.23255 0.16944
0.021504 0.23458 0.18485001
0.017136 0.23581 0.18617
0.020676 0.23499 0.18359999
0.023413001 0.23477 0.18231
0.017131999 0.2362 0.18584999
0.024652001 0.23608001 0.18108
0.01749 0.23548 0.18734001
0.016176 0.23774999 0.18619999
0.014276 0.23851 0.18803
0.026331 0.23833001 0.18143
0.024889 0.23714 0.18206
0.012806 0.24036001 0.18851
0.013855 0.24044 0.18645
0.015611 0.24075 0.18712001
0.01825 0.24072 0.18585999
0.011895 0.24293 0.18865
0.013366 0.24206001 0.18798
0.018457999 0.24152 0.18674
0.026108 0.23957001 0.18099999
0.027789 0.24192999 0.17962
0.026827 0.24297 0.18215001
0.024588 0.24214999 0.18245
0.025919 0.24167 0.18071
0.025446 0.24231 0.18083
0.027904 0.24175 0.18073
0.01315 0.2422 0.18843
0.012781 0.24348 0.18951
0.014196 0.24314 0.18822999
0.014004 0.24369 0.18686999
0.028069999 0.2445 0.17897999
0.017077001 0.24393 0.18598001
0.016804 0.24367 0.18759
0.016391 0.24529999 0.18645
0.0058644 0.24481 0.19172999
0.0077117998 0.24685 0.19194999
0.010035 0.24409001 0.19001999
0.010182 0.24559 0.18964
0.0072630998 0.24491 0.19104999
0.0093189999 0.24658 0.1909
0.0062564998 0.24683 0.19155
0.018242 0.24623001 0.18577
0.022814 0.24542999 0.1821
0.021542 0.24654 0.18323
0.010427 0.24724001 0.19024999
0.020062 0.24661 0.18474001
0.019216999 0.24708 0.18431
-0.021633999 0.061567001 0.20646
-0.021 0.063515 0.20768
-0.017896 0.075199001 0.20679
-0.0075376001 0.080328003 0.19869
-0.0043211002 0.078331001 0.19859999
-0.0155 0.078722 0.20363
-0.016447 0.085844003 0.20386
-0.010639 0.095261998 0.20093
-0.014032 0.10751 0.20412999
-0.012541 0.11537 0.20355999
-0.0071961 0.11814 0.20028
-0.0065551 0.11829 0.20138
-0.0086545004 0.12111 0.20018999
-0.0071919002 0.12127 0.20029999
-0.0094512003 0.14007001 0.20113
-0.0084365997 0.14101 0.20074999
-0.010114 0.14176001 0.20141999
-0.0073579 0.14189 0.19938
-0.0099136997 0.14402001 0.20039999
-0.0078913998 0.14721 0.20124
-0.0043715001 0.15365 0.1987
-0.0054812999 0.15559 0.19846
-0.0040794001 0.15423 0.19850001
-0.0011122 0.1661 0.19644
0.0017429 0.17287999 0.19508
0.0012359 0.17235 0.19457
0.00034403001 0.17655 0.1954
-0.00022263 0.18269999 0.19547001
-0.0017093 0.18859001 0.1972
-0.0020922001 0.19115999 0.19716001
-0.0025722 0.19639 0.19638
-0.0022511999 0.19745 0.19701999
0.0055403002 0.21085 0.19191
-0.00039666001 0.21469 0.19495
0.0026644 0.21270999 0.19372
0.045936 0.22213 0.17140999
0.024675 0.22222 0.18099
0.046374001 0.23039 0.16967
0.022329001 0.23537999 0.18246
0.020661 0.23627 0.18460999
0.018319 0.23605999 0.18533
0.022741999 0.23655 0.18193001
0.017356999 0.23686001 0.18685
0.014627 0.23916 0.18756001
0.017379001 0.23893 0.18547
0.025653999 0.23994 0.18178
0.029384 0.24366 0.17951
0.01399 0.24171001 0.18640999
0.018687 0.24462999 0.18572
-0.017495999 0.05748 0.20522
-0.016029 0.057721999 0.20548999
-0.019412 0.071468003 0.20592
-0.0084063997 0.079668 0.20094
-0.011273 0.079481997 0.20231
-0.0017469 0.082185999 0.19542
-0.001747 0.083208002 0.19716001
-0.014108 0.086971 0.20314001
-0.014199 0.10762 0.20467
-0.0052263001 0.13751 0.19918001
-0.0077537 0.1443 0.20055
-0.0050002998 0.1486 0.19927
-0.0087893 0.14717001 0.20135
-0.0054005999 0.15437999 0.19851001
0.0011516 0.17619 0.1934
0.00095635001 0.18238001 0.19728
-0.00011867 0.18408 0.19718
0.00084445003 0.18573 0.19899
0.00023972 0.18448 0.19619
-0.0015285 0.19278 0.19697
-0.0016544 0.21052 0.19783001
-0.0017353999 0.20759 0.19791
0.0078731002 0.20967001 0.1917
0.0038775001 0.21092001 0.19475999
0.0021996 0.21190999 0.19536
-0.00059815001 0.21018 0.19574
0.00082759 0.21413 0.19469
0.00099755998 0.2141 0.19509999
0.028085999 0.22281 0.18121
0.047166999 0.23355 0.17044
0.021818001 0.23328 0.18409
0.021026 0.23643 0.18479
0.021942001 0.23707999 0.1832
0.019531 0.23884 0.18471
0.020772999 0.24638 0.1842
-0.011607 0.058954999 0.20142999
-0.017674999 0.072154999 0.2076
-0.0099157998 0.079676002 0.2016
-0.014963 0.080340996 0.20501
-0.01358 0.080238 0.20318
-0.016225001 0.091719002 0.20598
-0.015211 0.092495002 0.20412
-0.012813 0.094498999 0.20394
-0.012765 0.095606998 0.20272
-0.0097586997 0.10113 0.20096
-0.0089442004 0.11463 0.20197999
-0.013043 0.12981001 0.20401999
-0.0133 0.12782 0.20365
-0.0057716002 0.14120001 0.20054001
-0.0069603999 0.14225 0.19983999
-0.0059520002 0.14444 0.19977
-0.00037324999 0.18714 0.19848999
-0.0023008001 0.19142 0.1969
-0.002599 0.19892 0.19831
-0.00071045 0.21077999 0.19643
0.0033819999 0.21007 0.19416
0.0010764 0.21099 0.19447
0.011325 0.21221 0.18994001
0.013293 0.21577001 0.18798999
0.015003 0.21836001 0.18798
0.045384999 0.22983 0.17005999
0.04628 0.22973 0.17013
0.045074999 0.23161 0.17148
0.045170002 0.23206 0.17145
0.023173001 0.23249 0.18309
0.022116 0.23727 0.18426999
0.019626001 0.23803 0.18538
0.019146999 0.23881 0.18485001
0.019384 0.24149001 0.18648
0.018226 0.24296001 0.18606
0.020423001 0.24347 0.18545
-0.01667 0.058015 0.20585001
-0.015029 0.057252999 0.20423999
-0.0081407996 0.079470001 0.20020001
0.033036999 0.085919 0.17768
0.034885999 0.084691003 0.1779
0.033023998 0.085606001 0.17625999
-0.013729 0.086753003 0.20423999
-0.014181 0.089144997 0.20461001
-0.0094539002 0.13398001 0.20067
-0.0075881002 0.13883001 0.20107999
-0.0075789001 0.14005999 0.2009
-0.011476 0.14058 0.20377
-0.012374 0.14005999 0.20405
-0.0053204 0.14571001 0.20061
-0.00618 0.14740001 0.19902
-0.0083347997 0.14505 0.1998
-0.0082703996 0.14717001 0.20085999
-0.0025728 0.15896 0.19828001
0.0055908998 0.20881 0.19392
0.0050483001 0.20959 0.19372
0.0016126001 0.20987 0.19665
0.0019081 0.21038 0.19549
0.019006999 0.22133 0.18463001
0.022756999 0.23694 0.185
0.019309999 0.23947001 0.18734001
0.024335001 0.24034999 0.18322
0.023695 0.24078999 0.18268
-0.016504001 0.059060998 0.20701
-0.019365 0.058607999 0.20897
-0.010623 0.060479999 0.20362
-0.019963 0.061714999 0.20835
-0.020465 0.061524 0.20911001
-0.021837 0.068751 0.20879
-0.021153999 0.067928001 0.20918
-0.017632 0.077711001 0.20788001
-0.019354001 0.077623002 0.2086
-0.0070727002 0.080370001 0.19913
-0.0066399002 0.080044001 0.20042001
-0.015593 0.080087997 0.2054
-0.010372 0.080849998 0.20311999
-0.0047068 0.080783002 0.19975001
-0.0041267001 0.078529 0.19885001
-0.0057705999 0.080801003 0.20197999
-0.0074133999 0.080899 0.20118999
-0.0025168001 0.080227003 0.19746999
-0.0029613001 0.081266999 0.19957
-0.00083243998 0.082275003 0.19746999
-0.0016532 0.083549 0.19814999
-0.0065712002 0.085951 0.20159
-0.0077044 0.085147001 0.20069
-0.0066006999 0.085620999 0.20020001
-0.0088135004 0.086580999 0.20133001
-0.012238 0.085694999 0.20152999
-0.012412 0.086942002 0.20325001
-0.010865 0.08794 0.20383
-0.010231 0.088048004 0.20118
-0.010668 0.086286001 0.20232999
-0.015753999 0.088864997 0.20645
-0.0071561001 0.088977002 0.20185
-0.0061951 0.089134999 0.19934
-0.0084411995 0.089998998 0.20190001
-0.015502 0.093212001 0.20545
-0.01305 0.094214 0.20460001
-0.011318 0.096863002 0.20438001
-0.0098668998 0.098681003 0.2033
-0.01014 0.099302001 0.20398
-0.014881 0.10743 0.205
-0.014611 0.11383 0.20569
-0.01427 0.11461 0.20564
-0.010817 0.11506 0.20369001
-0.010078 0.12148 0.20434
-0.013076 0.12495 0.20464
-0.0075487001 0.13407999 0.20193
-0.0044189999 0.14295 0.20020001
-0.0095058 0.1463 0.20175
-0.0073962002 0.14642 0.20079
-0.0097979996 0.14595 0.20133001
-0.0050295 0.14979 0.19909
-0.0045103999 0.15561999 0.19984999
-0.0056027002 0.15291999 0.19923
-0.0032416999 0.15708999 0.19870999
-0.001739 0.16256 0.19689
-0.0014285001 0.16204 0.19784001
0.0025458001 0.17238 0.19616
0.0024216 0.17792 0.19656
-0.00053108 0.18682 0.19796
-0.00033218 0.20513999 0.19757999
-0.0012606001 0.20721 0.19769
-0.0024687001 0.21032 0.19611999
0.0085560996 0.20916 0.19212
0.010627 0.20987 0.19216
0.011757 0.21258999 0.19192
0.012699 0.213 0.19016001
0.014184 0.2176 0.19098
0.018222 0.22005001 0.18717
0.018501 0.22115999 0.18697999
0.019881001 0.22148 0.18702
0.020595999 0.22223 0.18716
0.021811999 0.22315 0.1847
0.024814 0.22569001 0.18284
0.024534 0.22445001 0.18404
0.022857999 0.22475 0.18516999
0.019812001 0.22678 0.18408
0.021989999 0.23801 0.18319
0.024192 0.24113999 0.18299
0.024292 0.24056999 0.18393999
0.02086 0.24155 0.18637
0.020533999 0.24447 0.18579
0.020925 0.24556001 0.18355
0.022144999 0.24394 0.18626
-0.015875001 0.056541 0.20613
-0.016755 0.058566999 0.20844001
-0.019221 0.059087001 0.20764001
-0.021399001 0.070615999 0.20961
-0.019667 0.071057998 0.20818999
-0.019755 0.070818 0.20824
-0.017752999 0.073310003 0.20671999
-0.017625 0.076553002 0.20773
-0.01863 0.079193003 0.20773
-0.018014999 0.079149999 0.20694
-0.0089878002 0.078215003 0.20385
-0.0090584997 0.079230003 0.20198999
-0.010154 0.080329001 0.20369001
-0.007247 0.081174999 0.20101
-0.0037471 0.080395997 0.20013
-0.0075814999 0.081524 0.20195
0.035193 0.082932003 0.17818999
0.035806 0.084517002 0.17662001
0.037310999 0.082644999 0.17707001
0.036688998 0.084707998 0.17754
-0.0063430001 0.084751002 0.19994
0.034724001 0.085818 0.17833
-0.0081893001 0.084569 0.20186999
0.031679001 0.085883997 0.17674001
-0.013969 0.087306 0.20479
-0.017868999 0.087724999 0.20658
-0.016549001 0.088857003 0.20716
-0.0058820001 0.089354999 0.20077001
-0.017506 0.089924 0.20740999
-0.016965 0.092733003 0.20716999
-0.017581999 0.092944004 0.20678
-0.01508 0.093740001 0.20462
-0.013141 0.094296999 0.20503999
-0.012037 0.094223998 0.2036
-0.0099370005 0.096804 0.20307
-0.0090562003 0.10296 0.20462
-0.0094884997 0.10249 0.20285
-0.0088841002 0.10507 0.20163
-0.011439 0.10518 0.20434
-0.01387 0.10414 0.20485
-0.011287 0.10417 0.20279001
-0.014053 0.10475 0.20552
-0.015114 0.10817 0.20576
-0.014962 0.11194 0.20562001
-0.015138 0.11287 0.20634
-0.014511 0.11361 0.20579
-0.010981 0.11646 0.20322999
-0.0092869997 0.11429 0.20283
-0.0090808999 0.11706 0.20202
-0.012069 0.11587 0.20313001
-0.011124 0.11694 0.20315
-0.0079822997 0.11708 0.20207
-0.0064365002 0.11552 0.20096
-0.0060398998 0.11832 0.20082
-0.0076599 0.12206 0.20132001
-0.01044 0.12244 0.20411
-0.011149 0.12458 0.20386
-0.011393 0.12404 0.20441
-0.012776 0.12582999 0.20501
-0.012523 0.12842 0.20491
-0.012844 0.12947001 0.20457999
-0.012356 0.12913001 0.20426001
-0.012566 0.12996 0.20363
-0.011932 0.13101999 0.20359001
-0.012598 0.13259 0.20399
-0.01243 0.13174 0.20379999
-0.0076898001 0.13324 0.20113
-0.010054 0.13354 0.20366
-0.0093842996 0.1338 0.20087001
-0.0045933002 0.13462999 0.20076001
-0.0044796001 0.13428 0.19922
-0.010431 0.13857999 0.20370001
-0.010614 0.13913 0.20309
-0.0088165002 0.13821 0.20162
-0.011469 0.13940001 0.20241
-0.0090678995 0.13982999 0.20181
-0.0081018005 0.13868 0.20328
-0.0060955998 0.14167 0.20209
-0.0084899003 0.14102 0.20271
-0.0075372001 0.14168 0.20168
-0.010078 0.14127 0.20315
-0.0099063003 0.14427 0.20209
-0.0061138002 0.14384 0.19998001
-0.0047179 0.14613 0.19971
-0.0097463997 0.14339 0.20258
-0.0098078996 0.14585 0.20108999
-0.0099480003 0.14702 0.20247
-0.0053777001 0.14718001 0.2018
-0.0090557998 0.14813 0.20284
-0.0050329999 0.1503 0.20024
-0.0019474 0.15736 0.19875
-0.0020304001 0.15883 0.19862001
-0.00063584 0.15982001 0.19769
-0.00030987 0.16508999 0.19886
-0.00078578002 0.16337 0.19739
-0.00011716 0.16636001 0.19863001
-6.7047004e-05 0.1679 0.19676
0.003519 0.16791999 0.19634999
0.0021744999 0.16914999 0.19641
0.001309 0.17216 0.19631
0.002966 0.17545 0.19558001
0.0022034999 0.17576 0.19677
0.0013001 0.18000001 0.19836
0.00085954001 0.18031 0.19666
0.0010944 0.18164 0.19649
0.00011842 0.18843 0.19774
-0.00083055999 0.19044 0.19739
-0.00026458001 0.19104999 0.19747999
-0.00089167 0.19312 0.19823
-0.00075725 0.19299001 0.19721
-0.0019135 0.19543999 0.1978
-0.0012232 0.19698 0.19828001
-0.0017947 0.19823 0.19799
-0.0011568 0.20108999 0.19806001
-0.0012351 0.20209 0.19876
-0.0012799 0.20255999 0.19675
-0.00090976001 0.20398 0.19708
0.0095742 0.20724 0.19320001
0.0093868002 0.20817 0.19303
0.0061148 0.20952 0.19393
0.00084564002 0.20772 0.19722
-0.00079735002 0.21019 0.19679999
0.0036408 0.20829999 0.19529
0.00071067997 0.21026 0.19693001
0.0019136 0.20852999 0.19628
0.0039220001 0.20851 0.19589999
0.01086 0.21177 0.19228999
0.012465 0.21379 0.19144
0.013236 0.21551 0.18972
0.014563 0.21657 0.18881001
0.015733 0.21755999 0.18956999
0.016775999 0.21884 0.18817
0.045797002 0.2218 0.17078
0.046135001 0.22364999 0.17118999
0.024905 0.22294 0.18268999
0.020648001 0.22251 0.18571
0.046572 0.2247 0.17191
0.045635 0.22420999 0.17213
0.045414001 0.22545999 0.16999
0.025698001 0.22623 0.18286
0.045136001 0.22698 0.17219999
0.047162 0.22728001 0.17081
0.02124 0.22755 0.18479
0.046496 0.22702999 0.17141999
0.024147 0.22837 0.18271001
0.021676 0.22932 0.18515
0.022741999 0.22735 0.18452001
0.047578 0.22901 0.17122
0.021845 0.22991 0.18593
0.021327 0.23103 0.18441001
0.023190999 0.22987001 0.18460999
0.023714 0.23077001 0.18421
0.021706 0.23774999 0.18585999
0.020479999 0.23924001 0.18589
0.020723 0.23892 0.1864
0.02252 0.23874 0.18440001
0.020640999 0.24176 0.18682
0.020277999 0.2406 0.18735
0.020261001 0.24393 0.18528999
0.022947 0.24364001 0.18483
0.022139 0.24453001 0.18379
0.021535 0.24438 0.18534
-0.010964 0.059751999 0.20475
-0.010572 0.061372999 0.20314001
-0.0099732 0.058735002 0.20576
-0.021639001 0.062622003 0.20809001
-0.021478999 0.064149 0.20962
-0.020749999 0.066409998 0.20895
-0.015014 0.079291001 0.20508
-0.013711 0.078735001 0.20541
-0.0013589 0.084036998 0.19986001
-0.01179 0.086078003 0.20502999
-0.01172 0.085446998 0.20343
-0.01561 0.088118002 0.20714
-0.016419999 0.092297003 0.20761999
-0.0074645001 0.13794 0.20043001
-0.012222 0.14047 0.20555
-0.0057799998 0.14263999 0.20092
-0.0045810002 0.14836 0.20151
0.0018116001 0.17436001 0.19642
0.0013026 0.18133 0.19762
-0.0013226999 0.18836001 0.19814
-0.0009255 0.19836999 0.19823
0.00019428 0.20569 0.19787
-0.00020383 0.20719001 0.19796
0.0069992002 0.20794 0.19394
0.0062993001 0.20848 0.19487999
0.0039331 0.20889001 0.19592001
0.016983001 0.21829 0.18806
0.024545001 0.2255 0.18295
0.023167999 0.23064999 0.18364
0.021972001 0.23813 0.18592
0.024015 0.24008 0.18347
0.021991 0.24226999 0.18350001
-0.0058744 0.062435001 0.2045
-0.0070849 0.060738999 0.20275
-0.0052851001 0.062001999 0.20217
-0.019847 0.072733 0.20946001
-0.017383 0.074252002 0.20656
-0.0072852001 0.081130996 0.20132001
-0.0025988 0.080797002 0.1989
0.039190002 0.083343998 0.17611
0.037703998 0.080766998 0.17563
0.036224999 0.084489003 0.17732
0.035443 0.084190004 0.17844
-0.016100001 0.088036999 0.2067
0.010745 0.090306997 0.19211
0.0097719003 0.091971003 0.19254
0.010315 0.091100998 0.19422001
-0.016930001 0.093353003 0.20746
-0.0070420001 0.092941999 0.20052999
-0.0058019999 0.092028998 0.19966
-0.0054123001 0.091431998 0.20209
-0.014841 0.094736002 0.20604999
-0.014009 0.10605 0.20531
-0.014889 0.10726 0.20658
-0.012195 0.11502 0.2045
-0.0050821998 0.11838 0.20093
-0.01418 0.12817 0.20551001
-0.0064647999 0.13304 0.2017
-0.0055335001 0.13689999 0.20118
-0.0097118998 0.1381 0.20331
-0.0065637999 0.1392 0.20136
-0.0040572998 0.15327001 0.20135
-0.0021315999 0.156 0.1992
0.0019029001 0.16635001 0.19648001
-1.3446e-08 0.20508 0.19752
0.0022421 0.20705999 0.19683
0.017183 0.22078 0.18779001
0.023573 0.22570001 0.18388
0.022545001 0.22641 0.1846
0.022607001 0.22864 0.18494
0.021613 0.24064 0.18559
0.020044999 0.24391 0.18502
-0.018859001 0.060293 0.21062
-0.017643999 0.058603 0.20877001
-0.002505 0.081812002 0.1982
-0.011158 0.087596998 0.20328
-0.0075582 0.13951001 0.20303001
-0.0016355 0.15955 0.19888
0.0023368001 0.16997001 0.19716001
0.0031983999 0.17025 0.19523001
-0.00026259001 0.1934 0.19832
2.4732e-05 0.19066 0.19976
-0.0016025 0.20181 0.19756
0.001021 0.20281 0.19672
0.00011337 0.20648 0.19781999
0.0024262001 0.20827 0.19561
0.0051336 0.20879 0.19527
0.045276999 0.22216 0.17189001
0.02337 0.22396 0.18669
-0.013675 0.057835001 0.20771
-0.015034 0.05748 0.20778
-0.0062495 0.061907001 0.20195
-0.01991 0.068871997 0.2101
-0.020679001 0.071659997 0.20939
-0.018382 0.072379 0.2102
-0.016233999 0.074848004 0.2085
-0.015222 0.079443999 0.20557
-0.0096725002 0.078704998 0.20388
-0.0039814999 0.080489002 0.20115
-0.0039706002 0.083414003 0.20011
0.02878 0.087264001 0.18212
0.027632 0.087821998 0.18138
0.030084999 0.087801002 0.18253
-0.012151 0.087525003 0.20581999
-0.016574999 0.091504999 0.20802
-0.0080295997 0.10199 0.20397
-0.0092884004 0.10062 0.20516001
-0.0091752997 0.10227 0.20381001
-0.010247 0.10517 0.20579
-0.011374 0.10431 0.20613
-0.013119 0.11406 0.20463
-0.01112 0.11483 0.20497
-0.0096998001 0.12273 0.20524999
-0.012553 0.12718 0.20635
-0.0041405 0.13891999 0.20164999
-0.0045777 0.13772 0.19939999
-0.0048507 0.14091 0.20101
-0.0017925 0.1587 0.20103
0.0020293 0.16631 0.19675
0.0021051001 0.17262 0.19689
0.0040936 0.17341 0.19666
0.0039702002 0.17766 0.19801
-0.00042945001 0.20027 0.1978
0.0020047 0.20008001 0.19885001
0.010164 0.20918 0.19546001
0.010826 0.21038 0.19355001
0.012559 0.21179 0.192
0.015497 0.21702 0.19045
0.01739 0.22073001 0.18872
0.022631999 0.22341 0.18571
0.024453999 0.22318 0.18454
-0.01692 0.056591999 0.20747
-0.018405 0.061402 0.21015
-0.020160999 0.064478002 0.2101
-0.018937999 0.070271 0.20963
-0.020018 0.071393996 0.20925
-0.018060001 0.072949 0.20758
-0.015877999 0.0757 0.20919
-0.017274 0.075499997 0.20852
-0.017092999 0.080734 0.20967001
-0.019321 0.079567 0.20858
-0.0068338001 0.079942003 0.20482001
-0.0064460002 0.079461999 0.20279001
-0.0053335 0.080264002 0.20192
-0.0052645002 0.080906004 0.20115
-0.0026825999 0.082314998 0.19939999
0.038564999 0.081945002 0.17577
0.039213002 0.082406998 0.17816
0.039760001 0.083309002 0.17694999
0.038770001 0.082097001 0.17756
0.036655001 0.083012998 0.17692
0.02812 0.085308 0.1831
0.028468 0.084776998 0.18359999
0.027682999 0.086415 0.18333
0.036063999 0.085322998 0.1793
-0.013143 0.087494999 0.20615999
-0.013379 0.088598996 0.20714
-0.016352 0.090134002 0.2076
0.0085974997 0.090792 0.19377001
0.0082473997 0.089478999 0.19475
0.0084456997 0.090939999 0.19347
-0.0078777997 0.089677997 0.20204
-0.0066650999 0.093197003 0.20093
-0.0077523999 0.091581002 0.20318
-0.015392 0.092367999 0.20881
-0.013227 0.094858997 0.20664001
-0.012428 0.095398001 0.20708001
-0.011369 0.095550999 0.20556
-0.0091401003 0.098442003 0.20513999
-0.012251 0.10584 0.20507
-0.013462 0.10604 0.20653
-0.013709 0.10817 0.20692
-0.014104 0.10793 0.20644
-0.013146 0.11167 0.20719001
-0.012845 0.11256 0.20735
-0.012317 0.1145 0.20539001
-0.010137 0.11298 0.2022
-0.0093981996 0.11436 0.20435999
-0.0062608002 0.11438 0.20325001
-0.0092027001 0.1158 0.20259
-0.0064439001 0.11522 0.20263
-0.005196 0.12019 0.20218
-0.0073592998 0.12099 0.20192
-0.0056367 0.12004 0.20202
-0.0084499996 0.12204 0.2045
-0.0091104005 0.12291 0.20576
-0.011715 0.12323 0.20506001
-0.011052 0.12786999 0.20626
-0.012123 0.13143 0.20528001
-0.011295 0.13166 0.20488
-0.010848 0.13258 0.20437001
-0.0057910001 0.13217001 0.20280001
-0.0084370999 0.13383999 0.2024
-0.0038323 0.13301 0.20107
-0.0091485996 0.13358 0.20412
-0.0096217999 0.14189 0.20479999
-0.0055208998 0.14218 0.20235001
-0.0033013001 0.1441 0.20209
-0.0036730999 0.14399999 0.20046
-0.0045138001 0.14687 0.20185
-0.0037348 0.15324999 0.20134
-0.0018242 0.15412 0.20067
-0.0021784999 0.15628 0.20009001
-0.0024222001 0.15631001 0.19991
-0.0022060999 0.15592 0.20016
-0.00066005002 0.15922 0.20012
0.0021728 0.16513 0.19921
0.001301 0.16621 0.19701999
0.0038848999 0.16987 0.19877
0.0036911 0.17141999 0.19738001
0.0038443999 0.17138 0.19636001
0.0046079 0.17168 0.19554
0.0023171999 0.17399 0.19622
0.0048445002 0.17436001 0.19699
0.0023633 0.17468999 0.19589999
0.0029243999 0.17528 0.19773
0.0017282 0.18084 0.19750001
0.0027127999 0.18267 0.19889
0.0010508 0.18149 0.19801
0.00084460003 0.18651 0.19777
0.0018273999 0.18916 0.19821
-8.7191998e-05 0.19118001 0.19887
0.0011537001 0.19058 0.19934
0.0015918 0.19284999 0.19806001
0.0018721001 0.19977 0.19818
0.0008329 0.20370001 0.19775
0.0029585001 0.20489 0.19738001
0.0085669998 0.20814 0.19475999
0.0037594 0.20847 0.19563
0.0067551001 0.20672999 0.19486
0.012664 0.21311 0.19275001
0.011656 0.21246 0.19157
0.014205 0.21698 0.19219001
0.014807 0.21596 0.19104999
0.018781001 0.22086 0.18937001
0.018891999 0.22244 0.18753
0.021248 0.22323 0.18756001
0.024689 0.22362 0.18539999
0.025891 0.22326 0.18514
-0.02046 0.062913001 0.20977999
-0.021808 0.067041002 0.21067999
-0.017409001 0.078832999 0.20962
-0.0034373 0.079869002 0.20122001
-0.0016916 0.082984 0.19958
0.029386999 0.085750997 0.18292999
0.0088697001 0.089482002 0.19372
-0.0087395003 0.089814998 0.20416
-0.0065946002 0.090709999 0.20253
-0.016367 0.094393998 0.20555
-0.014992 0.094958998 0.20646
-0.010493 0.098102003 0.20655
-0.014367 0.11132 0.20618001
-0.014036 0.1128 0.20630001
-0.0049061999 0.11666 0.20121001
-0.0048437999 0.11814 0.20327
-0.011045 0.12404 0.20553
-0.0046591 0.13158999 0.2016
-0.0058272001 0.1319 0.20393001
-0.0027451999 0.13586999 0.20099001
-0.0089897998 0.13923 0.20479999
-0.012054 0.13956 0.20569
-0.0062556998 0.13936999 0.20224001
-0.012054 0.14071 0.20537999
-0.011206 0.14038 0.20503999
-0.010538 0.14136 0.20614
-0.0033714999 0.15246999 0.20178001
0.00035903 0.16134 0.19842
0.0005737 0.16432001 0.19825
0.001722 0.16776 0.19757999
0.0036038 0.16834 0.19673
0.0034052001 0.17332 0.19721
0.0020011 0.18551999 0.19949
4.0945e-05 0.19333 0.19939999
0.00011476 0.19612999 0.19879
0.00094633998 0.19685 0.19887
0.00011422 0.199 0.19853
-0.0012153001 0.19898 0.19835
0.0020898001 0.20503999 0.19808
0.00084783998 0.20502999 0.19845
0.0065230001 0.20733 0.1954
0.0045395 0.20716999 0.19593
0.0037147 0.20561001 0.19701999
0.016439 0.219 0.19081999
0.020517001 0.22141001 0.18793
0.022092 0.22463 0.18598001
-0.017411999 0.058171999 0.20777
-0.017627999 0.059450999 0.20843001
-0.021584 0.066648997 0.21202999
-0.019374 0.071448997 0.21091001
-0.014422 0.080724999 0.20689
-0.011442 0.080384001 0.20658
-0.012054 0.079563998 0.20570999
-0.00077685999 0.084275998 0.19888
-0.0022692 0.084238999 0.20035
0.0085265003 0.089259997 0.19612999
0.0074247001 0.087011002 0.19463
-0.014836 0.089582004 0.20825
-0.016336 0.089184001 0.20866001
-0.016127 0.092880003 0.20878001
-0.0089242002 0.10375 0.20574
-0.012952 0.10638 0.20647
-0.0061192 0.11487 0.20297
-0.0032148999 0.11902 0.20209999
-0.013362 0.12534 0.20613
-0.011666 0.13051 0.20435999
-0.010185 0.12991001 0.20455
-0.0090116998 0.13302 0.20480999
-0.0076461998 0.13211 0.20396
-0.0029187 0.13189 0.20182
-0.0024542001 0.13352001 0.20220999
-0.0040278998 0.13634001 0.20042001
-0.0033503999 0.13593 0.2001
-0.0044188998 0.13982999 0.20321
-0.0057103001 0.14195 0.20163999
-0.0048531001 0.14827 0.20238
-0.0042055999 0.15059 0.20162
-0.00021117 0.16258 0.20032001
0.0026728001 0.17545 0.19862001
0.0051454999 0.17461 0.19698
0.0028444 0.1797 0.19907001
0.0021597999 0.18436 0.19981
0.0042055999 0.20482001 0.19663
0.0053153001 0.20584001 0.19632
0.0062922002 0.20651001 0.19587
0.0059273001 0.20584001 0.19506
0.012894 0.20995 0.19239999
0.014325 0.21408001 0.19114
0.01483 0.21797 0.19159999
-0.010688 0.058851 0.20565
-0.012861 0.07942 0.20498
-0.0025438 0.083273001 0.2009
-0.0020636001 0.083513997 0.20187999
-0.0104 0.097492002 0.20519
-0.0085359002 0.14138 0.20438001
-0.0036865 0.14871 0.20118999
-0.00057695003 0.15834001 0.19964001
0.00057204999 0.16299 0.20009001
0.0087911002 0.20830999 0.19393
-0.0097057 0.059287999 0.20681
-0.0073850998 0.061069001 0.20469999
-0.0090691997 0.061207 0.20305
-0.0075602001 0.061248001 0.20475
-0.020647001 0.062098 0.21105
0.038144998 0.086153999 0.17791
-0.014486 0.088428997 0.20709001
-0.0098206 0.10528 0.20683999
-0.0094338004 0.10493 0.20544
-0.0098412996 0.11416 0.20554
-0.010115 0.11312 0.20587
-0.0086452002 0.11318 0.20417
-0.003114 0.15366 0.20058
0.0022904 0.20246001 0.19718
0.0027163001 0.20512 0.19887
0.026931001 0.22427 0.18309
-0.016821999 0.057746001 0.21092001
-0.0038040001 0.060772002 0.20115
-0.015337 0.075136997 0.20935
-0.016074 0.072696 0.21089999
-0.017409001 0.077376001 0.21082
-0.0029698 0.080969997 0.20183
0.041239999 0.083350003 0.17652
0.042314999 0.082511 0.17669
-0.016315 0.090719998 0.20799001
-0.01294 0.096245997 0.20677
-0.011907 0.11441 0.20671999
-0.0069223 0.12101 0.20390999
-0.0096431002 0.12961 0.20554
-0.0088226004 0.13087 0.20585001
-0.010136 0.13109 0.20632
-0.0029194001 0.13545001 0.20114
-0.0065588001 0.14177001 0.20367999
-0.00013335999 0.15996 0.19938
0.0022758001 0.176 0.19758999
0.0021968 0.1815 0.19881
0.0034173999 0.18502 0.19988
0.0034288999 0.18865 0.19964001
0.0034781999 0.20206 0.19735
0.0034123 0.20212001 0.19583
0.014411 0.21337999 0.19317
0.016562 0.21855 0.19035999
-0.016393 0.059551001 0.21087
-0.017138001 0.057537001 0.20984
-0.019166 0.060191002 0.21087
-0.019107001 0.059615001 0.21066
-0.019106001 0.068115003 0.21184
-0.019126 0.070331998 0.21112999
-0.016398 0.076033004 0.20924
-0.015705001 0.079392001 0.20994
-0.0037306 0.081060998 0.20280001
-0.0031423001 0.081967004 0.20265
0.039097 0.085626997 0.17959
0.036823999 0.085369997 0.18003
-0.015843 0.090274997 0.20912001
-0.0080420002 0.092169002 0.20461001
-0.015992001 0.092032 0.2087
-0.014364 0.095632002 0.20996
-0.012316 0.095175996 0.20827
-0.011148 0.096112996 0.2079
-0.0094106002 0.097641997 0.20603
-0.0081620999 0.10176 0.20460001
-0.0090560997 0.10614 0.20635
-0.012859 0.11051 0.20686001
-0.012608 0.11317 0.20678
-0.0082796998 0.11198 0.20591
-0.010792 0.11255 0.20608
-0.0057282001 0.11456 0.20355999
-0.0087746996 0.12377 0.20682999
-0.0057787001 0.1304 0.20271
-0.0058774999 0.13184001 0.20356999
-0.0085169999 0.13252001 0.20509
-0.0019908999 0.13127001 0.20311999
-0.0087587005 0.13229001 0.20564
-0.0056157 0.13925999 0.2043
-0.0095354998 0.14162 0.20615
-0.0026903001 0.14814 0.20184
-0.0020542 0.15256999 0.20185
-0.0011555 0.15975 0.20094
0.00023903001 0.16039 0.20026
0.0020139001 0.16381 0.20107
0.0032645999 0.16616 0.19915
0.0052378001 0.17089 0.19865
0.0031204 0.17709 0.19975001
0.0045317998 0.18141 0.19841
0.002788 0.18771 0.20039
0.0015504 0.18798999 0.19976
0.0012838 0.19121 0.19944
0.0045429999 0.19503 0.19531
0.0068856999 0.19656 0.19686
0.0038288999 0.19515 0.19625001
0.0054851999 0.19574 0.19621
0.0040516998 0.20029999 0.19794001
0.0021935001 0.19964001 0.20017
0.0033132001 0.20126 0.19851001
0.0094900001 0.20804 0.19428
0.0099371001 0.20816 0.19491
0.011821 0.20903 0.19393
0.013275 0.20985 0.19420999
0.013029 0.21179 0.19324
0.012716 0.21003 0.19422001
0.015233 0.21684 0.19136
0.016140999 0.21654999 0.19089
0.019019 0.22249 0.18813001
0.023956001 0.2234 0.18777999
0.026489999 0.22423001 0.18609001
-0.014263 0.055427998 0.20894
-0.014801 0.058685999 0.20751999
-0.0196 0.070271999 0.21292999
-0.019950001 0.068554997 0.2122
-0.018131001 0.070431001 0.21314999
-0.018226 0.071616001 0.21076
-0.017263999 0.071838997 0.21105
-0.016434999 0.072309002 0.21061
-0.017124999 0.077201001 0.21058001
-0.016197 0.080692001 0.21133
-0.0047415998 0.079530001 0.20314001
0.041071001 0.082460999 0.17844
0.044425 0.081262 0.17696001
-0.0020860999 0.085568003 0.20116
-0.0028246001 0.083921 0.20321999
-0.00068564003 0.085989997 0.20204
0.030348999 0.084937997 0.18414
0.03884 0.086512998 0.17964999
0.030652 0.085969999 0.18272001
0.032005999 0.087265998 0.18418001
0.0079851002 0.086328 0.19453999
0.0091265999 0.087747999 0.19704001
-0.011188 0.088335998 0.20665
-0.012304 0.087690003 0.2089
0.006999 0.092022002 0.19479001
0.0077837999 0.090226002 0.19673
-0.015433 0.089098997 0.20985
-0.0087788003 0.091140002 0.20506001
-0.0093302997 0.089534 0.204
-0.014201 0.094065003 0.20929
-0.0079143001 0.093634002 0.20411
-0.01528 0.092693001 0.20787001
-0.015505 0.094917998 0.2087
-0.0055819 0.094178997 0.20281
-0.0028835 0.095524997 0.20310999
-0.0049721999 0.095183 0.20341
-0.012144 0.095264003 0.20835
-0.011511 0.096993998 0.20553
-0.0090750996 0.097755998 0.2049
-0.0092091002 0.097952999 0.20498
-0.0086773997 0.098746002 0.20756
-0.0090367999 0.10046 0.20477
-0.0072013 0.10235 0.20625
-0.0085242996 0.10472 0.20522
-0.0072407001 0.1035 0.20502
-0.0097394995 0.10384 0.20614
-0.011872 0.10637 0.20733
-0.012843 0.10646 0.20874999
-0.014546 0.10901 0.20782
-0.013262 0.11075 0.20811
-0.013516 0.11258 0.20766
-0.013416 0.11255 0.20725
-0.0074033998 0.11257 0.20539001
-0.0098078996 0.11336 0.20577
-0.0058718999 0.11417 0.20378
-0.0053308001 0.1163 0.20300999
-0.0049379999 0.11672 0.20243999
-0.0060160998 0.12131 0.2045
-0.0094873002 0.12254 0.20618001
-0.0090177003 0.12295 0.20577
-0.010888 0.12416 0.20727
-0.011717 0.1236 0.20728999
-0.011887 0.1267 0.20751999
-0.010768 0.12702 0.20643
-0.0099205999 0.12727 0.20663001
-0.010568 0.12944999 0.20573001
-0.0098673999 0.13037001 0.20597
-0.0090265004 0.13232 0.20367999
-0.0028317999 0.1318 0.20096999
-0.0040675001 0.13176 0.20092
-0.0029146001 0.13336 0.20209999
-0.0076430999 0.13699999 0.20716999
-0.010054 0.13784 0.20532
-0.0043270998 0.13799 0.20206
-0.00337 0.13824999 0.20026
-0.0034916 0.13852 0.20334999
-0.0069181002 0.14262 0.2042
-0.0095539996 0.14129999 0.20567
-0.0051099998 0.14229 0.20329
-0.0040314998 0.14444999 0.20337
-0.0025065001 0.14504001 0.20344999
-0.003177 0.14772999 0.20185
-0.0033986 0.15002 0.20366
-0.0030060001 0.15211999 0.20164999
-0.0011484 0.15478 0.2031
-0.00043226001 0.15493 0.20190001
-0.0013529001 0.15548 0.20088001
0.0042031002 0.1688 0.20012
0.0022048 0.16926 0.19898
0.0046621002 0.17001 0.19965
0.0048508998 0.16962001 0.19776
0.0071947002 0.17246 0.19873001
0.0061837002 0.17545 0.19841
0.0052243001 0.17652 0.19851001
0.0055141002 0.17625 0.19884001
0.0059842998 0.17730001 0.19794001
0.0039737001 0.17837 0.19825999
0.0040747998 0.17941 0.19892
0.0027715 0.17946 0.19858
0.0021345001 0.18254 0.19854
0.0014238 0.18595 0.19896001
0.002788 0.18853 0.1998
0.003082 0.19019 0.19802
0.0029029001 0.19086 0.19949
0.0039434 0.19165 0.19891
0.0034445 0.19358 0.1998
0.0021283 0.19399001 0.19938999
0.0052550999 0.19283 0.19879
0.0036694999 0.19385999 0.19822
0.0028291999 0.19441 0.19742
0.0070658 0.19515 0.19631
0.0041467999 0.19504 0.199
0.0061559998 0.19701999 0.19699
0.0021501 0.19617 0.19938999
0.0055094999 0.19587 0.19744
0.0017953 0.19607 0.19998001
0.0047297999 0.19681001 0.19704001
0.0067201001 0.19765 0.19594
0.0061932998 0.19835 0.19757999
0.0023733999 0.19833 0.19850001
0.0061472999 0.19978 0.19582
0.0088833999 0.19823 0.19552
0.0080223996 0.19983999 0.19637001
0.0019037999 0.20021001 0.19919001
0.0032271999 0.20040999 0.1992
0.0065470999 0.20078 0.19653
0.0091538001 0.19997001 0.19643
0.0045709 0.20163 0.19715001
0.0043576001 0.20048 0.19803999
0.0060624001 0.20300999 0.19832
0.0048121 0.20381001 0.19882999
0.0038469001 0.20395 0.19778
0.0058233002 0.20502999 0.19887
0.0051349001 0.20612 0.19871999
0.0056936 0.20606001 0.19701
0.0071389 0.20720001 0.1969
0.0064417999 0.20689 0.19769
0.0081572998 0.20728999 0.19571
0.0079672001 0.20789 0.19641
0.015303 0.21364 0.19221
0.014247 0.2167 0.19309001
0.018759999 0.22097 0.1909
0.018115001 0.22131 0.19083001
0.018486001 0.22306 0.19023
0.020662 0.2238 0.1899
0.027973 0.22334 0.18583
0.028788 0.22079 0.18322
-0.019712999 0.061786 0.21115001
-0.018626999 0.061664 0.21242
-0.019169001 0.063755997 0.21245
-0.021419 0.064528003 0.21231
-0.019618001 0.068195 0.21204001
-0.01197 0.07886 0.20784999
-0.01086 0.079934999 0.20623
-0.0069022998 0.080068998 0.20446
-0.0039550001 0.080902003 0.20310999
0.041671 0.082667001 0.17767
0.03977 0.085161 0.17827
0.02926 0.083875 0.18438999
-0.01418 0.088538997 0.20839
-0.014222 0.095859997 0.20867001
-0.0083360001 0.10289 0.20476
-0.0068883002 0.1121 0.20609
-0.010371 0.11243 0.20701
-0.0070741 0.11381 0.20359001
-0.0049446998 0.13106 0.20308
-0.0068039 0.13862 0.2058
-0.0025224001 0.15712 0.19924
-0.0013246 0.15855999 0.20085
-1.2544e-05 0.16005 0.20032001
0.00077470002 0.16263001 0.20149
0.0010728 0.16564 0.19983999
0.0058794999 0.19058999 0.19806001
0.0047513 0.19133 0.1974
0.0084535005 0.19592001 0.19792999
0.0083980998 0.197 0.19596
0.0026706001 0.2 0.19858
0.0085329004 0.19933 0.19649
0.0057374998 0.19973999 0.19768
0.021582 0.22383 0.18885
0.02114 0.22393 0.18923999
-0.010655 0.057788 0.20705
0.048261002 0.078653 0.17451
0.046245001 0.07784 0.17196999
0.047504999 0.076714002 0.17351
-0.01416 0.079595998 0.20972
-0.0073711998 0.079319 0.20573001
0.030974999 0.083062999 0.18501
0.029850001 0.083609 0.18599001
-0.010637 0.089652002 0.20816
0.0087206 0.089047998 0.19561
-0.0069498001 0.092418 0.20552
-0.0059357998 0.093659997 0.20252
-0.0088173999 0.1124 0.20586
-0.0041196998 0.13657001 0.20122001
-0.0046506999 0.14184 0.20437001
-0.0070568002 0.14203 0.20386
-0.0033274 0.15174 0.2023
0.0057457001 0.19035 0.19912
0.0074427002 0.19136 0.19803999
0.0077827 0.19551 0.19616
0.0042270999 0.19780999 0.20044
0.0096616996 0.19691999 0.19718
0.0043511 0.19829001 0.19881999
0.0092241 0.20137 0.19789
0.014688 0.21279 0.19305
0.016295001 0.21821 0.19099
0.019952999 0.22126 0.19092999
0.022090999 0.22322001 0.18844
-0.014966 0.079692997 0.2087
-0.0087262001 0.079828002 0.20781
-0.0072245002 0.080346003 0.20403001
0.039871 0.084884003 0.18004
-0.0046000001 0.098013997 0.20415001
-0.0066748001 0.10426 0.20656
-0.012114 0.11116 0.20869
-0.011049 0.10913 0.20781
-0.0074519999 0.11103 0.20644
-0.010469 0.11289 0.20722
-0.0043401001 0.11297 0.20426001
-0.0024156 0.12735 0.20213
-0.0038666001 0.13000999 0.20412
-0.0031516 0.12805 0.20385
-0.0034532 0.13019 0.20361
-0.0061234999 0.13136999 0.20592999
-0.0035639999 0.13213 0.20132001
-0.0034077 0.14393 0.20387
0.00012286 0.16444001 0.20025
0.0044527999 0.18129 0.19913
0.0049462998 0.18028 0.19914
0.0033789999 0.18332 0.2001
0.0017054999 0.18348999 0.20096999
0.0039153001 0.18626 0.20004
0.0032319999 0.19457 0.19941001
0.0077865999 0.19434001 0.19749001
0.0067294999 0.2036 0.19611
0.0095824003 0.20213 0.19667
0.027321 0.22257 0.18657
-0.013655 0.058038 0.2095
-0.014388 0.057663999 0.21167
-0.0038027 0.080567002 0.20388
-0.0035035 0.083973996 0.20316
-0.010492 0.089206003 0.20934001
-0.01368 0.091136001 0.20976999
-0.014206 0.093675002 0.21139
-0.0035238999 0.097765997 0.20295
-0.0099253003 0.11139 0.20717999
-0.0082221003 0.11028 0.20543
-0.0090977 0.12388 0.2075
-0.0044316002 0.13164 0.20508
-0.0033635001 0.1397 0.20344999
0.0052068001 0.18703 0.20047
0.0066224001 0.19047 0.19873001
0.0048509999 0.19001999 0.20009001
0.0051067001 0.19112 0.19884001
0.0067703999 0.192 0.19795001
0.0041319001 0.19736999 0.19854
0.010012 0.19701 0.19528
0.0046215001 0.19745 0.19938999
0.010667 0.20863999 0.19528
0.013038 0.21115001 0.19548
0.026596 0.22178 0.18833999
-0.012417 0.056956001 0.21043
-0.018023999 0.060052998 0.21207
-0.018022001 0.060024999 0.21296
-0.017441001 0.071480997 0.21254
-0.016690999 0.07948 0.2121
-0.016697001 0.07745 0.21152
-0.0058960002 0.081045002 0.20636
-0.0032528001 0.080372997 0.20406
-0.0029790001 0.083038002 0.20457
0.041611999 0.083039999 0.17851
0.041467998 0.084674999 0.17735
0.030596999 0.081678003 0.18583
0.031268999 0.084509999 0.18478
0.00074056 0.089569002 0.20285
-0.0020673 0.087559998 0.20202
-0.00075738999 0.088760003 0.20359001
0.0076254001 0.087646998 0.19789
6.9838999e-05 0.090031996 0.20311999
-0.014015 0.088519998 0.2089
0.00098617002 0.090765998 0.20203
0.0013869 0.089018002 0.20078
-0.015154 0.089365996 0.21071
-0.014021 0.088138998 0.21070001
-0.00039594999 0.089946002 0.19976
-0.014738 0.091418996 0.20973
0.001366 0.091367997 0.20121001
0.00039745 0.091614999 0.1999
0.0092153 0.091264002 0.19736999
0.0084878998 0.091759004 0.19573
0.0088183004 0.091733001 0.19755
0.00066488999 0.092873998 0.19988
0.0019711 0.092582002 0.20174
0.011218 0.092858002 0.19395
0.010977 0.093419001 0.19603001
0.012038 0.092109002 0.19558001
0.012456 0.093846999 0.19678
-0.01251 0.095477998 0.20999999
-0.012197 0.096243002 0.21087
-0.01004 0.097009003 0.20787001
-0.009145 0.096988 0.20814
-0.0033521999 0.098416999 0.20375
-0.0078253001 0.097745001 0.20830999
-0.0084015997 0.098779999 0.20737
-0.0077577 0.098938003 0.20637
-0.0071744998 0.10516 0.2058
-0.0099465996 0.11186 0.20615
-0.0092075001 0.11162 0.20667
-0.010339 0.11116 0.20908999
-0.0096238004 0.11095 0.20753001
-0.0057349 0.11106 0.2051
-0.011635 0.11169 0.20789
-0.010914 0.11174 0.20756
-0.0047042002 0.1132 0.20518
-0.0035858001 0.11427 0.20458999
-0.0028774 0.12008 0.20283
-0.0078932 0.12123 0.20661999
-0.008711 0.12329 0.20716999
-0.0043390999 0.12602 0.20464
-0.0013654 0.12606999 0.20473
-0.0093071004 0.12976 0.20772
-0.0072400998 0.13019 0.20655
-0.0018465 0.13260999 0.20382001
-0.0072650998 0.13856 0.20667
-0.0031993999 0.13978 0.20523
-0.01047 0.14178 0.20733
-0.0078309998 0.14215 0.20683999
-0.0032687001 0.14304 0.20455
-0.0015864 0.15144999 0.2031
-0.0013771 0.15497001 0.20334999
0.00022274 0.15922999 0.20298
-0.00028097999 0.15979999 0.20194
0.0042583002 0.16722 0.19972999
0.0028623999 0.16576 0.2013
0.0034966001 0.16884001 0.20068
0.0050777001 0.1679 0.20016
0.0078924 0.17045 0.19864
0.0054587 0.18319 0.20061
0.0035977 0.18605 0.20001
0.0034779999 0.18761 0.19960999
0.0053776 0.19013999 0.19976
0.0057083 0.18974 0.19884001
0.0069736 0.19179 0.19859999
0.0081150997 0.19024999 0.19808
0.0083299 0.1944 0.19746999
0.0025046 0.19681001 0.19999
0.011126 0.1957 0.19592001
0.01068 0.19735999 0.1953
0.0033966 0.19722 0.19998001
0.010805 0.19853 0.19612999
0.0086922999 0.20186 0.19744
0.0069534001 0.20242999 0.1982
0.0061164 0.20407 0.19867
0.0042543998 0.20513999 0.19843
0.0056174998 0.20488 0.19801
0.0059679002 0.20555 0.19856
0.0078056999 0.20511 0.19879
0.014396 0.20982 0.19605
0.014569 0.21132 0.19344001
0.014631 0.21242 0.19327
0.015659999 0.21303 0.19415
0.01532 0.21648 0.19528
0.016063999 0.21805 0.19337
0.020374 0.22321001 0.19149999
0.021697 0.22199 0.19132
0.022693001 0.22335 0.19070999
0.024633 0.22287001 0.18952
0.027353 0.223 0.18762
-0.016554 0.058068 0.2123
-0.016783001 0.058564998 0.21119
-0.016607 0.059831999 0.21114001
-0.018945999 0.061765 0.21353
-0.019489 0.064204 0.21353
-0.019343 0.067722999 0.2138
-0.019797999 0.068250999 0.21284001
-0.017031999 0.072388001 0.21189
-0.016585 0.072221003 0.21129
-0.016654 0.073776998 0.21061
-0.015256 0.075055003 0.21042
-0.015299 0.076076999 0.21061
-0.016099 0.079324998 0.21265
-0.0041878 0.080075003 0.20482001
-0.01103 0.080101997 0.20908
-0.0024293 0.081509002 0.2045
-0.0028986 0.081947997 0.20451
-0.0024101001 0.084918 0.20406
-0.0012647 0.085658997 0.20306
0.034107 0.085477002 0.18426
0.034618001 0.085965998 0.18402
-0.00026926 0.087235004 0.20253
0.034529999 0.087425001 0.18313
0.0084081003 0.088261001 0.1973
-0.014909 0.088763997 0.21044999
0.0077803 0.090767004 0.19795001
-0.0087996004 0.090990998 0.20712
-0.0085746003 0.089892998 0.2059
-0.0096357996 0.088742003 0.20641001
-0.0064568999 0.093163997 0.20698
-0.014853 0.094966002 0.21054
-0.0055547999 0.094896004 0.20477
-0.0058257999 0.096217997 0.20464
-0.011745 0.095810004 0.20967001
-0.0039682002 0.096786998 0.20501
-0.0025390999 0.098715 0.20427001
-0.0063097002 0.10003 0.20640001
-0.0078272996 0.10277 0.20637
-0.006732 0.10369 0.20475
-0.0059771002 0.10346 0.20733
-0.0087980004 0.10534 0.20788001
-0.010999 0.10515 0.20726
-0.0096108997 0.10511 0.20959
-0.013045 0.1074 0.20959
-0.012241 0.10769 0.20962
-0.013352 0.10787 0.20986
-0.01265 0.10909 0.20954999
-0.012353 0.10812 0.20866001
-0.0082339002 0.10884 0.2069
-0.0058603999 0.11017 0.20603
-0.0085262004 0.10907 0.20730001
-0.0058343001 0.11269 0.20445
-0.0027435999 0.116 0.20506001
-0.0030924 0.11892 0.20372
-0.0072581 0.12088 0.2069
-0.0081599001 0.12168 0.20694
-0.0048118001 0.12263 0.20527001
-0.0073106 0.1228 0.20946001
-0.010526 0.12408 0.20818
-0.0020123001 0.12519 0.20384
-0.0049180002 0.12502 0.20480999
-0.0043808999 0.12287 0.20477
-0.010679 0.12620001 0.20755
-0.0031784 0.12805 0.20367999
-0.0094689997 0.12718999 0.20953999
-0.0085997004 0.12714 0.20749
-0.0046417001 0.1296 0.20585001
-0.0045778998 0.12814 0.20661999
-0.004582 0.13015001 0.20469999
-0.0014138001 0.12969001 0.20316
-0.0013609 0.12976 0.20217
-0.0083251996 0.12964 0.20727
-0.0059783999 0.12951 0.20637999
-0.0012144001 0.131 0.20499
-0.0011124 0.13393 0.20382001
-0.0089517999 0.13923 0.20801
-0.0081364997 0.13971999 0.20595001
-0.0087336004 0.13855 0.20699
-0.0025740999 0.1397 0.20397
-0.0079840999 0.14136 0.20716999
-0.0042812 0.14155 0.20542
-0.0072842999 0.1427 0.20644
-0.0036840001 0.14219999 0.20486
-0.0038211001 0.14494 0.20536999
-0.003431 0.14545 0.2032
-0.0026231001 0.14726 0.20381001
-0.0020899 0.14867 0.20385
-0.0019934999 0.14812 0.20321
-0.0024192 0.15206 0.20451
-0.0019385 0.1524 0.2033
-0.0013181 0.15597001 0.20461001
-0.0019095 0.15639 0.20164999
-0.00037138999 0.15586001 0.20213
0.0012227 0.15917 0.20076001
0.00052994001 0.16421001 0.20167001
0.0016228 0.16527 0.2008
0.0054218001 0.16921 0.20017999
0.0049406998 0.1734 0.19903
0.0063419999 0.17312001 0.19802
0.0067790998 0.17585 0.19898
0.0058237002 0.17798001 0.1988
0.0042595998 0.1802 0.20012
0.0052441 0.18084 0.20032001
0.0036814001 0.18381999 0.19956
0.0034228 0.18794 0.19829001
0.0033066999 0.19087 0.19984999
0.0030598999 0.19144 0.20042001
0.0079837004 0.19070999 0.19912
0.0027972001 0.19176 0.20128
0.0064909002 0.19231001 0.19746
0.0082552005 0.19076 0.19771001
0.0081137996 0.19307999 0.19796
0.0035305 0.19444001 0.20001
0.0087569999 0.19566999 0.19645
0.0034308 0.19351 0.19949999
0.0019377 0.19527 0.20087001
0.0044065001 0.19684 0.19853
0.010527 0.19569001 0.19701
0.010136 0.19508 0.19712
0.013717 0.19529 0.19653
0.011536 0.19733 0.19778
0.010569 0.1999 0.19634999
0.010179 0.19991 0.19592001
0.0098593002 0.20136 0.19811
0.0073913001 0.20248 0.19821
0.0096818004 0.20476 0.19697
0.0095327999 0.20785999 0.19519
0.01097 0.20804 0.19749001
0.011861 0.20839 0.19598
0.012853 0.20942999 0.19484
0.012966 0.2088 0.19519
0.015071 0.21645001 0.19415
0.017082 0.21811999 0.19422001
0.016474999 0.21873 0.19313
0.0186 0.22172999 0.19142
-0.010655 0.055566002 0.20814
-0.010097 0.055741001 0.20595001
-0.0097549995 0.055590998 0.2062
-0.0098123001 0.06098 0.20666
-0.0084467996 0.058612999 0.20773999
-0.0067046001 0.062073 0.20692
-0.0058046998 0.061064001 0.20469999
-0.018766001 0.061657999 0.21273001
-0.018929999 0.066202 0.21313
-0.017138001 0.071335003 0.21193001
-0.017309999 0.076748997 0.21121
0.044381 0.080730997 0.17665
0.045187 0.081850998 0.17823
-0.0019066 0.083912998 0.20352
-0.00052202999 0.095546 0.20310999
-0.0012968 0.098052002 0.20364
-0.0083820997 0.10931 0.20674001
-0.0077224001 0.1301 0.20536
-0.0062361001 0.12903 0.20552
-0.0018912 0.13440999 0.20429
0.00065442 0.15897 0.2034
0.00095358002 0.16355 0.20161
0.0052163 0.18476 0.20124
0.0060389 0.18898 0.19988
0.0076135001 0.18876 0.19855
0.0073600002 0.20434999 0.19892
0.018319 0.21875 0.19238999
-0.013737 0.074587002 0.212
0.03334 0.084716 0.18469
-0.0032182999 0.089542001 0.20433
-0.0047245999 0.088661 0.20502
-0.0034979 0.088495001 0.20328
-0.014372 0.090686001 0.21109
0.018333999 0.091894001 0.19295999
0.017411999 0.092403002 0.19337
0.018982001 0.093142003 0.19323
0.0011569 0.094141997 0.20307
0.0017055999 0.093571998 0.20287
-0.0014899001 0.099965997 0.2049
-0.0035778 0.098948002 0.20383
-0.0073547 0.10742 0.20721
-0.0092976 0.1066 0.20737
-0.0090830997 0.10692 0.20731001
-0.0082045002 0.10572 0.20558999
-0.0057354998 0.11044 0.206
-0.0095809996 0.10995 0.20829
-0.00355 0.11711 0.20394
-0.0036921001 0.12092 0.20372
-0.0045493999 0.11826 0.20518
-0.0039571002 0.12162 0.20418
-0.0051163002 0.12338 0.2052
-0.0046084998 0.12268 0.20513999
-0.0055264002 0.12354 0.20527001
-0.0067055002 0.12805 0.20603999
-0.0019025001 0.13657001 0.20215
-0.0030722001 0.15386 0.2036
0.0035409001 0.16321 0.20239
0.0053594001 0.17657 0.19958
0.0044789002 0.18544 0.1999
0.0056488002 0.18643001 0.20008001
0.0080847004 0.19083001 0.19818
0.0084883999 0.20327 0.19789
0.0082349004 0.20471001 0.19795001
0.0097257001 0.20524999 0.19606
0.01997 0.2207 0.19318999
-0.0094135003 0.055153999 0.20869
-0.010561 0.056001 0.20941
-0.01499 0.060031001 0.21388
-0.0033408999 0.060377002 0.20708001
-0.014366 0.076413997 0.21278
-0.012535 0.081357002 0.20977999
-0.015058 0.080955997 0.21066999
-0.011188 0.077991001 0.20818999
-0.0086559998 0.078835003 0.20711
-0.010544 0.091007002 0.2093
-0.0097454004 0.092514999 0.20774999
-0.0086836005 0.090267003 0.20691
0.020804999 0.091876 0.19232
0.019335 0.093001001 0.191
0.021090001 0.092582002 0.19214
0.0020393999 0.094218999 0.20274
-0.0097657004 0.10769 0.20858
-0.0045063002 0.11933 0.20581
-0.0077979998 0.12522 0.20704
-0.0080140997 0.12616999 0.20735
-0.0069038998 0.12827 0.20705999
-0.0022160001 0.13806 0.20563
-0.0016346 0.14825 0.20566
-0.0030427999 0.15211999 0.20652001
-0.0027898001 0.15530001 0.20387
0.0058924998 0.17546 0.20039999
0.0053790002 0.17735 0.20084
0.0078547001 0.19077 0.20073999
0.012226 0.19552 0.19594
0.012913 0.19304 0.19581001
0.015946001 0.21335 0.19636001
0.028224001 0.22254001 0.1877
-0.012614 0.055348001 0.2088
-0.012186 0.057197001 0.21176
-0.018495999 0.062180001 0.21525
-0.017925 0.060451001 0.21651
-0.015783001 0.071406998 0.21249001
-0.014753 0.072172999 0.21287
-0.0057621002 0.080054998 0.20728
-0.0046223002 0.080748998 0.20715
0.0307 0.081706002 0.1855
0.032884002 0.081143998 0.18516
-0.0042583002 0.082428999 0.20506001
0.033321999 0.083732001 0.18551999
-0.0023507001 0.084374003 0.20648
-0.0099299001 0.088799998 0.20813
0.0015489 0.089887999 0.20294
0.00018371 0.090285003 0.20457999
0.0019773 0.089925997 0.20291001
-0.014336 0.090644002 0.21104001
-0.012604 0.091426998 0.21278
-0.0082067996 0.092372 0.20793
0.0015824999 0.095485002 0.20227
-0.0032315 0.098300003 0.20686001
-0.0046127001 0.097779997 0.20565
-0.0094068004 0.098497003 0.20712
-0.0017313 0.097981997 0.20292
-0.0050118999 0.10133 0.20735
-0.0061367 0.10508 0.20701
-0.0099590002 0.10612 0.20814
-0.012512 0.10838 0.20962
-0.0056309002 0.10783 0.20676
-0.0062565999 0.10936 0.20625
-0.010767 0.10886 0.20920999
-0.0061395001 0.11283 0.20572001
-0.0022086999 0.11202 0.2061
-0.005936 0.1129 0.20547999
-0.0036464001 0.11364 0.20439
-0.0027479001 0.11882 0.20406
-0.0042810999 0.12738 0.20426001
-0.0087013002 0.1266 0.20874
-0.0073413001 0.12715 0.20730001
-0.0016642 0.12820999 0.20557
-0.00094742997 0.12980001 0.20328
-0.0017429 0.12970001 0.20370001
-0.00024478001 0.13135 0.20478
-0.0065195002 0.14101 0.20777
-0.0066767 0.14258 0.20646
-0.0037050999 0.14393 0.20503999
0.0011037 0.15952 0.20384
0.0043619 0.16954 0.20167001
0.0070703998 0.17476 0.19869
0.0047793998 0.17981 0.20187999
0.0053567002 0.18063 0.20085
0.0049529001 0.18705 0.19946
0.0063765999 0.18591 0.20113
0.013433 0.19446 0.19664
0.011463 0.19902 0.19792999
0.010973 0.20604999 0.19801
0.015271 0.21758001 0.19416
-0.0087203002 0.05593 0.20956001
-0.0086209998 0.056435999 0.20878001
-0.0088716997 0.058088001 0.20739
-0.014734 0.056442998 0.21264
-0.014655 0.057806998 0.21306001
-0.017453 0.060958002 0.21376
-0.015818 0.059826002 0.21386001
-0.0050337999 0.060956001 0.20846
-0.017944001 0.062757 0.21488
-0.017779 0.070777997 0.21510001
-0.016179999 0.071310997 0.21323
-0.014953 0.076991998 0.2132
-0.013799 0.080968998 0.21103001
-0.015961999 0.077793002 0.21313
-0.0074016 0.078785002 0.20767
0.032951999 0.083070002 0.18609001
-0.0024017 0.083276004 0.2061
0.033240002 0.084544003 0.18408
-0.0020959999 0.084545001 0.20509
-0.0021656 0.084983997 0.20534
0.034754999 0.086782001 0.18422
-0.00026602001 0.085455 0.20485
