# .PCD v0.7 - Point Cloud Data file format
VERSION 0.7
FIELDS x y z
SIZE 4 4 4
TYPE F F F
COUNT 1 1 1
WIDTH 1681
HEIGHT 1
VIEWPOINT 0 0 0 1 0 0 0
POINTS 1681
DATA ascii
0.19395 0.13992 0.12466
0.19405 0.14018001 0.12537999
0.19420999 0.14169 0.12475
0.10441 0.10559 0.12915
0.10528 0.10703 0.12921
0.10454 0.10551 0.12858
0.10511 0.10547 0.13732
0.10515 0.10565 0.13639
0.10587 0.10562 0.14123
0.10636 0.10563 0.14218999
0.10704 0.10701 0.14119001
0.21513 0.11568 0.080634996
0.21404999 0.11597 0.080622002
0.17797001 0.16208 0.15165
0.17703 0.16215999 0.15188999
0.1026 0.097438999 0.14162
0.22187001 0.16350999 0.14820001
0.22284999 0.16463999 0.15026
0.10918 0.11132 0.11682
0.1088 0.11084 0.11682
0.10944 0.11192 0.11722
0.22097 0.16362999 0.14732
0.22956 0.17489 0.17771
0.22858 0.17588 0.17699
0.22913 0.17562 0.17782
0.10246 0.10032 0.13638
0.10323 0.10135 0.13691001
0.10243 0.099921003 0.13564999
0.18856999 0.14778 0.13422
0.18841 0.14769 0.13316999
0.1894 0.147 0.13404
0.21413 0.17209999 0.19509
0.21352001 0.1736 0.19456001
0.17546999 0.12083 0.10987
0.1762 0.12004 0.10822
0.17523 0.11962 0.10801
0.1789 0.17761999 0.14228
0.18020999 0.17726 0.14241999
0.18016 0.17632 0.1408
0.15639 0.12984 0.12784
0.14906 0.1296 0.1161
0.14532 0.13146 0.12642001
0.14359 0.131 0.12048
0.14424001 0.13090999 0.11926
0.13963 0.13095 0.13606
0.13699999 0.13149001 0.13096
0.14286 0.12793 0.11167
0.14207 0.12764999 0.11164
0.14263 0.12722 0.10992
0.17491999 0.12577 0.11961
0.21989 0.17265999 0.17159
0.22065 0.17344999 0.17200001
0.22037999 0.17268001 0.17059
0.14505 0.12425 0.1066
0.19915 0.15515 0.12185
0.19954 0.15474001 0.12063
0.19843 0.15436 0.12172
0.23195 0.14174999 0.098862
0.23158 0.14362 0.098683998
0.23171 0.14358 0.099486999
0.17763001 0.16080999 0.15086
0.17855 0.16091999 0.15061
0.21433 0.10408 0.095147997
0.21541999 0.10408 0.095340997
0.21563999 0.10262 0.094806999
0.21459 0.10305 0.094631001
0.21447 0.10539 0.095380001
0.17516001 0.16699 0.15457
0.17407 0.16678999 0.15482
0.17428 0.16524 0.1539
0.18477 0.16373999 0.14981
0.21284001 0.1163 0.080839001
0.21308 0.11774 0.079846002
0.21308 0.11892 0.079231001
0.21286 0.12057 0.079249002
0.21285 0.12189 0.079048999
0.21286 0.12316 0.079406001
0.21303999 0.12457 0.079526998
0.21287 0.12594999 0.07976
0.19507 0.14178 0.12932999
0.19464 0.14331 0.12959
0.19492 0.14176001 0.12864999
0.13761 0.11407 0.099959001
0.13764 0.11566 0.10086
0.13860001 0.11564 0.10048
0.13878 0.11267 0.099224001
0.13749 0.11238 0.099460997
0.13857999 0.11402 0.099729002
0.15918 0.10016 0.094567999
0.15794 0.10119 0.094613001
0.15910999 0.10182 0.09482
0.21313 0.13542999 0.082930997
0.21295001 0.13674 0.084013
0.21344 0.14146 0.085931003
0.21374001 0.14286 0.086792
0.21371 0.14403 0.087961003
0.21404999 0.14562 0.088858001
0.19388001 0.13874 0.12463
0.19396 0.13838001 0.1256
0.19494 0.14329 0.12545
0.19475 0.14316 0.12458
0.10589 0.10679 0.13609999
0.10549 0.1042 0.14229
0.21396001 0.16497 0.19
0.21338999 0.16624001 0.19
0.21366 0.16618 0.18889
0.15910999 0.17891 0.16771001
0.15862 0.17739999 0.16761
0.15927 0.17817 0.16865
0.10408 0.10152 0.14162
0.22001 0.16362999 0.14645
0.22076 0.16214 0.1445
0.22179 0.16215999 0.14557
0.10617 0.10839 0.12625
0.10545 0.10701 0.12509
0.19140001 0.13379 0.11522
0.19123 0.13313 0.11392
0.20431 0.048204999 0.12820999
0.20405 0.048250999 0.12735
0.20337 0.049527999 0.12842999
0.19154 0.13402 0.11378
0.19191 0.13388 0.1125
0.19227 0.13416 0.11104
0.17919999 0.17822 0.14359
0.15665001 0.12992001 0.12637
0.14830001 0.12993 0.1173
0.14589 0.13135 0.12511
0.13971999 0.13135 0.13462
0.1374 0.13162 0.12988
0.14204 0.12846 0.11313
0.21430001 0.091453001 0.091269001
0.21326999 0.090141997 0.091247
0.21329001 0.091921002 0.090999998
0.23232 0.14207999 0.099623002
0.2321 0.10367 0.11244
0.23136 0.10365 0.11167
0.23129 0.1053 0.11275
0.14674 0.12373 0.10553
0.13631999 0.13056999 0.13648
0.13604 0.13034 0.13776
0.21535 0.10076 0.094444998
0.21436 0.10124 0.093999997
0.21558 0.10118 0.094598003
0.21345 0.10399 0.094837002
0.21351001 0.10275 0.094255999
0.21338999 0.1056 0.095163003
0.21349999 0.10684 0.095183
0.21458 0.10689 0.095343001
0.16967 0.15696999 0.14432999
0.16915999 0.15749 0.14439
0.16848999 0.15824001 0.14264999
0.17544 0.17283 0.15557
0.17535999 0.17416 0.15545
0.17455 0.17415 0.15629999
0.14551 0.11287 0.097756997
0.14650001 0.11278 0.098109998
0.14613999 0.11149 0.097553
0.21182001 0.11614 0.080750003
0.21202999 0.11753 0.080031
0.21187 0.11893 0.079498999
0.21213999 0.12029 0.079332002
0.21177 0.12191 0.079223998
0.2121 0.12318 0.079605997
0.21184 0.12435 0.079832003
0.21176 0.12576 0.079926997
0.21194001 0.12749 0.080343001
0.21143 0.12695 0.080677003
0.21096 0.1261 0.080485001
0.13536 0.10706 0.09973
0.13474 0.10704 0.10008
0.13596 0.10843 0.099876001
0.13789 0.11676 0.10155
0.13883001 0.11686 0.10106
0.21242 0.14012 0.085601002
0.21281999 0.14139 0.086244002
0.2129 0.14291 0.087521002
0.21276 0.14421 0.088289
0.21295001 0.14566 0.089404002
0.19366001 0.13710999 0.12551001
0.19430999 0.14187001 0.12560999
0.10087 0.094406001 0.13749
0.10057 0.094743997 0.13681
0.10063 0.093221001 0.13672
0.10071 0.090414003 0.14072999
0.10078 0.090308003 0.13973001
0.10031 0.088965997 0.13996001
0.1006 0.089123003 0.14083999
0.10157 0.091370001 0.11752
0.10163 0.091210999 0.11725
0.10144 0.090198003 0.11728
0.23191001 0.13770001 0.095659003
0.2316 0.13947999 0.095688999
0.10318 0.10141 0.13762
0.19266 0.134 0.10982
0.17560001 0.11909 0.10757
0.21385001 0.16283 0.18566
0.21397001 0.16469 0.18584999
0.1455 0.11121 0.097659998
0.1089 0.11014 0.11622
0.10826 0.10999 0.11693
0.17823 0.17862 0.14316
0.1856 0.17491999 0.14222001
0.18805 0.17095999 0.13575
0.16365001 0.18450999 0.16072001
0.2163 0.15637 0.11167
0.22346 0.17660999 0.17684001
0.20236 0.1557 0.11703
0.20151 0.15521 0.11666
0.17159 0.11879 0.10694
0.15725 0.12959 0.12494
0.15759 0.12976 0.12401
0.15019 0.13079999 0.13164
0.14794999 0.13048001 0.11869
0.14599 0.13138001 0.12358
0.14348 0.13119 0.12167
0.14021 0.13129 0.13333
0.13786 0.13143 0.12853999
0.1416 0.12905 0.11414
0.1426 0.12954 0.11442
0.18297 0.1638 0.1508
0.18192001 0.1637 0.15116
0.18166 0.16203 0.15068001
0.21212 0.088776998 0.091196001
0.2121 0.090219997 0.090892002
0.21205001 0.091673002 0.090933003
0.21201999 0.093263999 0.090907
0.21322 0.092988998 0.091280997
0.22829001 0.17512 0.17521
0.22731 0.1761 0.17645
0.21325999 0.088776998 0.091297999
0.21252 0.087440997 0.091036998
0.21218 0.095660999 0.091174997
0.21235999 0.097364001 0.091604002
0.21312 0.095859997 0.091426998
0.16105001 0.17132001 0.16436
0.16068999 0.17114 0.16451
0.16032 0.16979 0.16377001
0.19625001 0.062519997 0.10426
0.19564 0.061044 0.10571
0.19506 0.061104 0.10493
0.21258999 0.10401 0.094770998
0.21224999 0.10292 0.093990996
0.21247999 0.10548 0.095316
0.21281999 0.10666 0.095719002
0.21251 0.1084 0.095512003
0.21325999 0.10846 0.095412999
0.21078999 0.11767 0.080223002
0.21307001 0.11456 0.081161998
0.21197 0.11494 0.081522003
0.21091001 0.11897 0.079744004
0.21098 0.12036 0.079658002
0.21093 0.12177 0.079772003
0.21078999 0.12311 0.079584002
0.21095 0.12448 0.079958998
0.21007 0.12553 0.080496997
0.21024001 0.12699001 0.081334002
0.16046999 0.17357001 0.16644
0.16043 0.17427 0.16698
0.13557 0.10579 0.099164002
0.13441999 0.10552 0.099065997
0.13365 0.1084 0.10056
0.13454001 0.1095 0.10029
0.13482 0.10847 0.099974997
0.14156 0.11396 0.098820001
0.14156 0.11543 0.099884003
0.1425 0.11576 0.099592999
0.1424 0.11275 0.098139003
0.14162999 0.11299 0.098396003
0.14263 0.11441 0.098770998
0.13802999 0.1182 0.10265
0.13885 0.11829 0.10211
0.10048 0.087462999 0.13968
0.10015 0.087373003 0.13875
0.17318 0.16552 0.14529
0.17394 0.16685 0.14632
0.17416 0.16528 0.14489999
0.21389 0.17118999 0.19507
0.21483999 0.1723 0.19504
0.21172 0.14285 0.087722003
0.21187 0.13981 0.086046003
0.19318999 0.13684 0.12493
0.1011 0.095909998 0.13759001
0.10084 0.095953003 0.13676
0.10058 0.093290001 0.13765
0.10088 0.091784999 0.14067
0.10086 0.092024997 0.13987
0.10812 0.10852 0.14195
0.10901 0.10967 0.14161
0.10856 0.10987 0.14088
0.10202 0.098958001 0.13767999
0.10255 0.1002 0.13756999
0.099913001 0.087477997 0.13675
0.10005 0.087645002 0.13777
0.10012 0.088958003 0.13674
0.10195 0.098655999 0.1365
0.10016 0.081894003 0.1408
0.10008 0.082009003 0.13988
0.099935003 0.080920003 0.13945
0.13213 0.10313 0.095452003
0.13219 0.10419 0.096837997
0.13319001 0.10321 0.095700003
0.20249 0.047047 0.1002
0.20486 0.045855001 0.10105
0.12205 0.10069 0.096524999
0.12214 0.098954998 0.095821999
0.12087 0.099458002 0.096238002
0.21153 0.15876999 0.14736
0.1859 0.1742 0.14083999
0.17093 0.11977 0.10823
0.16892999 0.12183 0.11051
0.16955 0.12087 0.10955
0.21626 0.15505999 0.1047
0.20287 0.15561999 0.11955
0.22376999 0.17896999 0.18095
0.22255 0.17833 0.18091001
0.17746 0.1268 0.12172
0.17649999 0.12603 0.12124
0.16790999 0.12289 0.11197
0.14744 0.13052 0.11989
0.14633 0.13132 0.12251
0.14234 0.13168 0.12408
0.14263999 0.13112999 0.12254
0.14047 0.13165 0.13199
0.13811 0.1318 0.12717
0.14187001 0.12988 0.11563
0.14092 0.13006 0.11541
0.14103 0.12842999 0.1127
0.13992 0.12949 0.11535
0.14037 0.12888999 0.11385
0.21116 0.088656001 0.091116004
0.13737001 0.13119 0.12145
0.13846 0.13144 0.12191
0.13777 0.1305 0.12025
0.21106 0.090116002 0.090758003
0.21095 0.091737002 0.090971999
0.21122 0.093011998 0.090829998
0.21074 0.094205998 0.090612002
0.21194001 0.094509996 0.09082
0.21131 0.096014999 0.090989001
0.21089999 0.097396001 0.091193996
0.21111999 0.098729998 0.091743998
0.21216001 0.098640002 0.091949001
0.18529999 0.063465998 0.095353
0.18584 0.063314997 0.095495999
0.18545 0.061974 0.095500998
0.21129 0.10443 0.094272003
0.21170001 0.10286 0.093624003
0.21127 0.10545 0.094990999
0.21156999 0.10686 0.095390998
0.21162 0.10811 0.095613003
0.21267 0.10964 0.094855003
0.13331001 0.10437 0.097052
0.21014 0.11766 0.080825001
0.21093 0.1158 0.080741003
0.21007 0.1188 0.080086999
0.20977999 0.12045 0.079829
0.20985 0.12197 0.079887003
0.20987999 0.12337 0.080233999
0.14639001 0.11397 0.09877
0.14769 0.11419 0.098819003
0.14743 0.11296 0.098319001
0.13799 0.11969 0.1038
0.13889 0.11967 0.10292
0.21122 0.14579 0.090149999
0.21108 0.14698 0.091404997
0.21202999 0.14695001 0.090971
0.20981 0.12427 0.080467001
0.10181 0.097204 0.13764
0.10154 0.097514004 0.13654999
0.19561 0.13687 0.13124
0.19591001 0.13852 0.13147999
0.19543999 0.13856 0.13053
0.22302 0.10483 0.10059
0.22268 0.10636 0.101
0.22386999 0.10602 0.10143
0.10765 0.10834 0.14108001
0.1001 0.086236998 0.13767999
0.099632002 0.086125001 0.13694
0.10013 0.088945001 0.13801999
0.10058 0.083315998 0.14071999
0.099956997 0.083402 0.1399
0.13234 0.10585 0.097994
0.13254 0.10715 0.1001
0.13344 0.10573 0.098770998
0.13188 0.11116 0.10232
0.13296001 0.11271 0.10172
0.13289 0.11127 0.10142
0.13353001 0.10716 0.10008
0.13965 0.098072 0.088804998
0.14018001 0.098384 0.089495003
0.14032 0.097713999 0.088293999
0.1672 0.12306 0.11331
0.15795 0.12921999 0.12274
0.15848 0.12887999 0.1213
0.14693999 0.13077 0.1213
0.14063001 0.13152 0.13049001
0.13860001 0.13155 0.12605999
0.14055 0.13017 0.11672
0.1415 0.13029 0.11701
0.13888 0.13097 0.12069
0.13948999 0.13080999 0.11946
0.13855 0.13057999 0.11892
0.20993 0.091608003 0.090604
0.21003 0.093319997 0.090591997
0.20998 0.094515003 0.090887003
0.21026 0.095925003 0.090824001
0.21021 0.097414002 0.091183998
0.21021999 0.098458 0.091569997
0.21042 0.10005 0.092086002
0.21015 0.10149 0.092931002
0.21028 0.10281 0.093263999
0.2103 0.104 0.093818001
0.21048 0.10527 0.094677001
0.21043 0.10701 0.095059998
0.21055 0.10826 0.095847003
0.11982 0.10972 0.10453
0.11946 0.11143 0.10581
0.12081 0.11126 0.10529
0.12913001 0.11557 0.10468
0.12902001 0.11691 0.10489
0.1302 0.11671 0.10497
0.15786999 0.17257001 0.16505
0.15796 0.17155001 0.16523001
0.15763 0.17269 0.16573
0.1948 0.14331 0.12859
0.19369 0.14474 0.12846
0.19385 0.14481001 0.12762
0.11755 0.10497 0.10348
0.19445001 0.1434 0.12763999
0.10028 0.093222 0.13553999
0.12965 0.095017999 0.091124997
0.1288 0.095225997 0.091228001
0.12958001 0.096268997 0.092073001
0.21514 0.16022 0.18703
0.21573 0.15989999 0.18826
0.13838001 0.1209 0.10472
0.13899 0.12082 0.10472
0.10238 0.098632999 0.1393
0.10312 0.10011 0.13937999
0.10275 0.10015 0.13876
0.13911 0.12254 0.1058
0.21353 0.16795 0.18607999
0.21345 0.16771001 0.18693
0.21365 0.16963001 0.18562999
0.099725001 0.090496004 0.12879001
0.099688001 0.089011997 0.12862
0.19363999 0.1446 0.12939
0.20994 0.14535999 0.090685003
0.20998999 0.14684001 0.092018999
0.2093 0.14707001 0.092533
0.098949 0.083414003 0.13079999
0.099552996 0.084983997 0.13074
0.099143997 0.084654003 0.12985
0.21419001 0.16144 0.18583
0.10095 0.095991001 0.13461
0.10113 0.097281002 0.13465001
0.10116 0.097038001 0.13361999
0.21368 0.17115 0.18888
0.21328001 0.17059 0.18768001
0.10606 0.10441 0.14300001
0.10027 0.091751002 0.13688
0.10944 0.1111 0.1407
0.16659001 0.12394 0.11463
0.16599 0.12519 0.1157
0.16399001 0.12617999 0.11832
0.16504 0.12594999 0.11701
0.16313 0.16392 0.14913
0.164 0.16406 0.14854001
0.1631 0.16244 0.14727999
0.16347 0.12721001 0.11983
0.1592 0.12857001 0.11989
0.14171 0.13174 0.12656
0.14210001 0.13151 0.12553
0.14094999 0.13179 0.12914
0.22032 0.16680001 0.15211999
0.13925999 0.13153 0.12347
0.13873 0.13180999 0.12461
0.14041001 0.13079999 0.1196
0.13952 0.13051 0.11804
0.14078 0.13076 0.1184
0.13519 0.13033 0.13643
0.13493 0.13027 0.1374
0.13891 0.1305 0.11759
0.13954 0.13003001 0.1165
0.13629 0.13134 0.13097
0.13624001 0.13132 0.12958001
0.13500001 0.13104001 0.13043
0.20883 0.093217999 0.090402998
0.20916 0.091348998 0.090254001
0.2087 0.094347 0.090938002
0.20900001 0.095965996 0.091178
0.20916 0.097189002 0.091192
0.20903 0.098476 0.091512002
0.20919999 0.10013 0.091937996
0.20945001 0.10131 0.092491001
0.2094 0.10284 0.092923999
0.20922001 0.10433 0.093653999
0.2095 0.10541 0.094293997
0.20949 0.10701 0.095100001
0.20947 0.10832 0.095229998
0.13679001 0.11549 0.10106
0.13700999 0.11679 0.10205
0.19402 0.13696 0.12657
0.19414 0.13665 0.12755001
0.1943 0.13868 0.12678
0.17211001 0.15639 0.14477
0.17136 0.15744001 0.14651
0.17047 0.15733001 0.14605001
0.14648999 0.11833 0.10085
0.14811 0.11829 0.10074
0.14776 0.11704 0.10002
0.14579999 0.12115 0.10315
0.14687 0.12087 0.10301
0.14688 0.11968 0.10179
0.19244 0.14480001 0.13111
0.19337 0.14449 0.131
0.19238999 0.14492001 0.13154
0.12868001 0.096092999 0.092330001
0.12874 0.097638004 0.093188003
0.12995 0.097625002 0.092873998
0.20909999 0.14568999 0.091560997
0.10029 0.090414003 0.13772
0.10008 0.090460002 0.13677999
0.099604003 0.086126 0.12985
0.099233001 0.084789999 0.12882
0.14221001 0.11026 0.097545996
0.14238 0.11153 0.098048002
0.14342999 0.11137 0.097728997
0.10445 0.10286 0.14046
0.10506 0.10572 0.13521001
0.10573 0.10684 0.13551
0.10406 0.10277 0.13846999
0.10466 0.10443 0.13822
0.10021 0.091807999 0.13785
0.16289 0.12778001 0.12092
0.16232 0.12794 0.12217
0.16845 0.12676001 0.12907
0.16887 0.12666 0.12797
0.16899 0.12672 0.12648
0.16967 0.12622 0.12529001
0.15975 0.12822001 0.11874
0.1955 0.049054999 0.10014
0.19751 0.048466999 0.096026003
0.14131001 0.13189 0.12792
0.13567001 0.13056999 0.13494
0.20904 0.087471999 0.089694001
0.20948 0.088665001 0.089801997
0.20941 0.087439001 0.089639999
0.20784 0.088798001 0.088992998
0.20772 0.090456001 0.089082003
0.20841999 0.089913003 0.089539997
0.20937 0.090138003 0.089833997
0.20891 0.088912003 0.089601003
0.20810001 0.092643999 0.090483002
0.20806 0.094423003 0.090994999
0.20811 0.095849998 0.091045
0.20819999 0.097053997 0.091137998
0.20819999 0.098693997 0.091471002
0.20813 0.099924996 0.091499001
0.20811 0.10135 0.092111997
0.20801 0.1025 0.092665002
0.20828 0.10424 0.093395002
0.20843001 0.10569 0.094016999
0.20840999 0.10687 0.094627
0.20857 0.10835 0.095090002
0.19445001 0.04795 0.095086001
0.19351 0.047970999 0.095334999
0.19356 0.048163 0.095743001
0.12918 0.11957 0.10624
0.12825 0.11941 0.1066
0.12882 0.1207 0.10732
0.14605001 0.096459001 0.086034998
0.1462 0.097985998 0.087288998
0.14729001 0.096525997 0.086025
0.12309 0.1046 0.098783001
0.12264 0.10584 0.099923998
0.12365 0.10596 0.099509999
0.12518001 0.098777004 0.095097996
0.12517001 0.10023 0.095068
0.12636 0.1004 0.094880998
0.13651 0.1128 0.099771999
0.13843 0.10852 0.098319001
0.13853 0.11029 0.098389998
0.13931 0.10879 0.098025002
0.13860001 0.11128 0.098777004
0.13947999 0.1115 0.098504998
0.10171 0.094274998 0.11839
0.10193 0.094475999 0.11753
0.10204 0.093585998 0.11742
0.214 0.16701999 0.19369
0.2137 0.16851 0.19416
0.21341 0.1672 0.19257
0.20784999 0.14679 0.093488999
0.20845 0.14704999 0.092905998
0.20804 0.14561 0.092446998
0.10214 0.099959001 0.12959
0.10298 0.10145 0.12955999
0.10214 0.099848002 0.12858
0.19355001 0.13860001 0.12379
0.19415 0.14031 0.12371
0.19351 0.13842 0.12257
0.19785 0.13971999 0.13368
0.19693001 0.13997 0.13289
0.10582 0.10564 0.14016999
0.10664 0.10712 0.14025
0.10382 0.10161 0.14037
0.10502 0.10568 0.13837001
0.10394 0.099832997 0.11718
0.10386 0.099265002 0.11639
0.1033 0.098502003 0.11734
0.13296001 0.081432998 0.085497998
0.13325 0.080236003 0.085573003
0.13226999 0.081670001 0.086135
0.16999 0.12616 0.1239
0.17068 0.12563001 0.12256
0.17099001 0.12540001 0.12155
0.16080999 0.12881 0.1275
0.16122 0.12885 0.12623
0.16031 0.12871 0.12876
0.17155001 0.12526999 0.11991
0.17215 0.12492 0.11885
0.17278001 0.124 0.11772
0.15992001 0.12891001 0.12988
0.16179 0.12616999 0.11496
0.16272999 0.12508 0.1139
0.16017 0.12754001 0.11745
0.14844 0.13087 0.13402
0.12839 0.12822001 0.13608
0.15876999 0.17715999 0.16682
0.20492999 0.044445999 0.095523998
0.20369001 0.045639999 0.095445
0.2042 0.045944002 0.096202999
0.20711 0.080255002 0.090775996
0.20702 0.081699997 0.090136997
0.20794 0.081967004 0.090489998
0.20784999 0.083385997 0.089983001
0.20847 0.081908002 0.090489
0.20692 0.083486997 0.089332998
0.16124 0.17263 0.16549
0.16128001 0.17438 0.16635001
0.2071 0.084891997 0.089339003
0.20801 0.084620997 0.089745
0.18803 0.057356 0.097418003
0.18885 0.057459999 0.097897999
0.18898 0.056138001 0.098041996
0.20691 0.086289003 0.088996001
0.20793 0.086044997 0.089325003
0.2067 0.087650001 0.088632002
0.20787001 0.087612003 0.088949002
0.20665 0.088788003 0.088885002
0.20687 0.090260997 0.089045003
0.20717999 0.091715001 0.089286
0.20705999 0.093143001 0.090086997
0.20784999 0.091623999 0.089956
0.207 0.094547004 0.090533003
0.20698 0.095771 0.090934001
0.20714 0.097364001 0.091136001
0.20701 0.098627999 0.091201
0.207 0.10007 0.091403998
0.20715 0.10155 0.091696002
0.20715 0.10277 0.092147999
0.20732 0.10402 0.092956997
0.20739999 0.10569 0.093767002
0.20753001 0.10705 0.094678
0.20749 0.1082 0.095262997
0.20644 0.10967 0.095629998
0.20773 0.10933 0.095771
0.11906 0.092110999 0.094994999
0.11918 0.090591997 0.094452001
0.1182 0.091610998 0.095055997
0.12503 0.10186 0.095577002
0.1259 0.10183 0.095287003
0.14397 0.12106 0.10322
0.14496 0.12089 0.10301
0.14501999 0.1198 0.10184
0.1437 0.11982 0.10225
0.13297001 0.078558996 0.085408002
0.134 0.079847001 0.085506998
0.13412 0.078658998 0.085358001
0.12915 0.11396 0.10358
0.13001999 0.11559 0.10426
0.19453 0.14172 0.12364
0.19456001 0.14178 0.12262
0.19413 0.14025 0.12261
0.19453 0.14475 0.1244
0.19464999 0.14325 0.12377
0.1743 0.16825999 0.14663
0.17488 0.16822 0.14607
0.17470001 0.16698 0.14565
0.17439 0.16962001 0.14678
0.17513999 0.16989 0.14611
0.17441 0.17117 0.14685
0.17521 0.17138 0.14633
0.10588 0.1071 0.13717
0.10132 0.096152 0.13858999
0.17321999 0.12358 0.11623
0.17411 0.12331 0.11506
0.162 0.12835 0.12363
0.16147 0.12842 0.12458
0.17464 0.12279 0.11386
0.17512 0.12226 0.11213
0.15989999 0.12873 0.13128
0.17594001 0.12182 0.11128
0.1762 0.12137 0.10983
0.17693 0.12054 0.10848
0.17766 0.12007 0.10736
0.16368 0.12406 0.11242
0.14883 0.13115001 0.13270999
0.14801 0.13073 0.13534001
0.21419001 0.16738001 0.17429
0.21356 0.16671 0.17293
0.20603 0.080444001 0.090567
0.20597 0.081874996 0.089798003
0.20795999 0.079429999 0.091472998
0.20839 0.080411002 0.091188997
0.20602 0.083369002 0.089417003
0.20602 0.084682003 0.089267001
0.20582999 0.086188003 0.089048997
0.20587 0.087513998 0.088512003
0.206 0.088914998 0.088763997
0.20599 0.090396002 0.088556997
0.20592999 0.091889001 0.089171
0.20564 0.093176 0.089960001
0.20602 0.094403997 0.089984998
0.20604999 0.095844999 0.090527996
0.20596001 0.097073004 0.091356002
0.20626999 0.098948002 0.091193996
0.20611 0.10011 0.091334
0.20596001 0.10149 0.091665998
0.20608 0.10289 0.092073999
0.20619 0.10419 0.093010999
0.20629001 0.10549 0.093741
0.20656 0.10713 0.094737999
0.20655 0.10848 0.094995998
0.12 0.090765998 0.094431996
0.12005 0.092151999 0.094644003
0.11998 0.093423001 0.095062003
0.11932 0.093354002 0.095140003
0.12006 0.094959997 0.095097996
0.1042 0.10441 0.13428999
0.10355 0.10299 0.13410001
0.12802 0.10167 0.094380997
0.12826 0.10311 0.095807999
0.1293 0.10308 0.095367
0.13023999 0.11816 0.10549
0.10226 0.098632999 0.13855
0.1371 0.12246 0.10603
0.13267 0.082101002 0.085666001
0.14788 0.11972 0.10182
0.14579 0.11969 0.10192
0.14470001 0.11849 0.10099
0.14555 0.11821 0.1008
0.10085 0.094633996 0.13476001
0.10061 0.094646998 0.13384999
0.1002 0.093349002 0.13364001
0.17459001 0.1727 0.14689
0.17518 0.17287999 0.14613
0.17447001 0.17402001 0.14681999
0.175 0.17399 0.14571001
0.17416 0.17614999 0.14636999
0.17447001 0.17576 0.14542
0.16462 0.12078 0.10671
0.16361 0.12212 0.10835
0.16479 0.122 0.10877
0.19002999 0.13184001 0.11472
0.1904 0.1319 0.11348
0.19013 0.13161001 0.11608
0.19302 0.13387001 0.10837
0.19253001 0.13298 0.10824
0.19065 0.14632 0.13270999
0.19093999 0.14639001 0.13181999
0.19097 0.1459 0.13181999
0.1859 0.17231999 0.13677999
0.18712001 0.17196 0.13710999
0.2173 0.15616 0.11619
0.21871001 0.15605 0.11651
0.21778999 0.15617999 0.11517
0.22283 0.17704999 0.17779
0.16437 0.12334 0.11127
0.16517 0.12253 0.10994
0.17634 0.17264 0.15521
0.20514999 0.077481002 0.091981001
0.205 0.078795001 0.091251001
0.20608 0.079163998 0.091342002
0.20695999 0.079402998 0.091417998
0.20509 0.080356002 0.090403996
0.22186001 0.11734 0.083143003
0.22209001 0.11918 0.082861997
0.2227 0.11778 0.082909003
0.20509 0.081991002 0.089750998
0.20491 0.08337 0.089576997
0.20502 0.084761001 0.089304999
0.20479 0.086098 0.088877998
0.20454 0.087488003 0.088701002
0.20489 0.089103997 0.088578001
0.20508 0.090405002 0.088505
0.20468 0.091620997 0.088849999
0.20486 0.093447 0.089208998
0.20506001 0.094462 0.089722998
0.20508 0.095743001 0.090490997
0.20517001 0.097231001 0.091132998
0.20513999 0.098610997 0.091479003
0.20503999 0.10027 0.091586001
0.20513999 0.10141 0.091458999
0.20503999 0.1029 0.092417002
0.20536999 0.10419 0.092859998
0.20522 0.10551 0.093672998
0.20539001 0.10687 0.094520003
0.20528001 0.10857 0.095135003
0.20438001 0.10837 0.095213003
0.20557 0.1095 0.095844001
0.11915 0.094921 0.095397003
0.14146 0.10601 0.096969999
0.14119001 0.10747 0.097335003
0.14237 0.10728 0.096993998
0.12018 0.096317001 0.095517002
0.16410001 0.17125 0.16219001
0.10949 0.044296 0.1141
0.10891 0.045485999 0.11353
0.11004 0.045536999 0.11377
0.13424 0.10452 0.097508997
0.14669 0.10357 0.096024998
0.14616001 0.10436 0.095761999
0.14719 0.10469 0.095618002
0.18514 0.14932001 0.13576999
0.18537 0.14947 0.13773
0.12908 0.099014997 0.093340002
0.13003001 0.099417001 0.093185
0.22221 0.17651001 0.17781
0.12435 0.11269 0.10475
0.12425 0.11412 0.10524
0.12513 0.11389 0.10469
0.12388 0.096162997 0.094829999
0.12407 0.097689003 0.094887003
0.12498 0.097696997 0.094737999
0.12484 0.096197002 0.094283
0.14139 0.10442 0.096660003
0.14218999 0.10598 0.096578002
0.12797 0.11123 0.10245
0.12883 0.11139 0.10204
0.12879001 0.10973 0.10153
0.17363 0.17714 0.14613
0.17411999 0.17728999 0.14506
0.10478 0.1043 0.13924
0.10548 0.10581 0.13932
0.1736 0.17848 0.14553
0.1741 0.17878 0.14455999
0.20291001 0.15539999 0.1113
0.16113999 0.12713 0.11626
0.18005 0.16685 0.15285
0.17918999 0.16683 0.15312999
0.21131 0.15874 0.14871
0.17516001 0.12576 0.12683
0.17445 0.1258 0.12639999
0.10766 0.11007 0.11849
0.10719 0.10884 0.11794
0.21583 0.17208999 0.18026
0.21605 0.17214 0.17882
0.21662 0.17173 0.17775001
0.20508 0.076033004 0.092407003
0.20603999 0.077220999 0.092403002
0.20429 0.076063 0.092329003
0.20419 0.077528 0.092082001
0.2042 0.079002999 0.091288
0.20379999 0.080222003 0.090356
0.20400999 0.081923001 0.089906998
0.20384 0.083407998 0.089685
0.20388 0.084876001 0.089289002
0.20394 0.086337 0.088835999
0.20364 0.087677002 0.088889003
0.20378999 0.088895001 0.088279001
0.20367999 0.090405002 0.088551
0.20397 0.091899998 0.088716999
0.20381001 0.093024999 0.088965997
0.20381001 0.094857998 0.089689001
0.20408 0.095795996 0.090199001
0.20385 0.097180001 0.091015004
0.20409 0.098806001 0.091372997
0.20384 0.10007 0.091415003
0.2043 0.10155 0.091619
0.20405 0.10276 0.092225
0.20434999 0.1042 0.092972003
0.20424999 0.1055 0.093776003
0.20439 0.10705 0.094351001
0.12581 0.087265 0.090185001
0.12596001 0.088922001 0.090135999
0.1265 0.087346002 0.089602999
0.11803 0.090208001 0.094870999
0.10344 0.10294 0.1353
0.16617 0.16507 0.1559
0.16705 0.16565999 0.15577
0.16611999 0.16514 0.15629999
0.14158 0.11135 0.097878002
0.14126 0.10172 0.095798001
0.14128 0.10286 0.096212
0.14235 0.10276 0.096098997
0.14674 0.11676 0.1002
0.14574 0.11565 0.099496998
0.14577 0.11678 0.099992998
0.14667 0.11551 0.099302001
0.13979 0.11537 0.10021
0.13981999 0.11706 0.10084
0.14511999 0.10426 0.095991999
0.14613999 0.10603 0.095830001
0.14359 0.11287 0.098279998
0.14466 0.11281 0.098039001
0.14416 0.11128 0.097709
0.17299999 0.16229001 0.15252
0.17313001 0.16234 0.15239
0.17287999 0.16344 0.1529
0.10046 0.092265002 0.13851
0.10035 0.088790998 0.13884
0.10048 0.090461001 0.13864
0.12897 0.11275 0.10331
0.12784 0.11275 0.10313
0.12807 0.11395 0.10406
0.12779 0.10992 0.10181
0.18861 0.12062 0.10793
0.18870001 0.11934 0.10632
0.18749 0.11932 0.10594
0.21693 0.17110001 0.17352
0.21731 0.17114 0.17237
0.22253001 0.156 0.11622
0.23322999 0.12861 0.091334999
0.23271 0.12809999 0.090549
0.23251 0.12969001 0.091431998
0.20739 0.047013 0.12805
0.20453 0.048055001 0.12925
0.20387 0.049261 0.12948
0.1693 0.11992 0.10797
0.16955 0.11914 0.10715
0.16824999 0.11947 0.10658
0.17798001 0.16524 0.15288
0.1769 0.16494 0.15302999
0.17677 0.16379 0.15256999
0.20292 0.075953998 0.092169002
0.20332 0.077610999 0.091741003
0.20338 0.078930996 0.091311999
0.20325001 0.080204003 0.090846002
0.20288 0.081883997 0.090557002
0.20269001 0.083503999 0.089985996
0.20276 0.084867999 0.089798003
0.20298 0.086172998 0.089121997
0.20279001 0.087559998 0.088678002
0.20263 0.089335002 0.088430002
0.20273 0.090467997 0.088366002
0.20280001 0.091724999 0.088630997
0.20276999 0.093194999 0.088840999
0.20309 0.094488002 0.089100003
0.20292 0.096043997 0.090210997
0.20290001 0.097411998 0.090681002
0.20315 0.098738 0.091316998
0.20326 0.10031 0.091233999
0.20313001 0.10148 0.091632999
0.20305 0.10293 0.092139997
0.20354 0.10441 0.092648
0.2031 0.10581 0.093493998
0.20331 0.10717 0.094171003
0.20382001 0.10835 0.095232002
0.12932999 0.091100998 0.088142999
0.12926 0.089932002 0.087784
0.12826 0.090118997 0.088499002
0.12778001 0.093489997 0.090700999
0.12859 0.093612999 0.090071
0.12849 0.092589997 0.089754
0.12981001 0.10973 0.10191
0.12969001 0.10832 0.10081
0.13985001 0.11835 0.10176
0.13999 0.1196 0.10293
0.20304 0.050891999 0.12929
0.14534 0.10861 0.096565999
0.14529 0.11006 0.096873999
0.14636 0.10883 0.096317001
0.14523 0.1071 0.096329004
0.21911 0.078075998 0.098343998
0.21862 0.078982003 0.097268999
0.21896 0.079020999 0.097778
0.14657 0.11011 0.096991003
0.14225 0.10849 0.097179003
0.14347 0.10986 0.097349003
0.12814 0.11544 0.10445
0.12712 0.11562 0.10501
0.12813 0.11668 0.10484
0.12709001 0.11659 0.10584
0.12710001 0.1182 0.10603
0.12835 0.1184 0.10579
0.14353 0.10851 0.097058997
0.12917 0.11818 0.10558
0.20374 0.14858 0.096782997
0.2044 0.14961 0.096969999
0.20457999 0.14844 0.096376002
0.19718 0.15072 0.1101
0.19762 0.15132 0.1087
0.17004 0.16364001 0.15408
0.17051999 0.1626 0.15281001
0.17091 0.16384999 0.15349001
0.21667001 0.17116 0.1749
0.21610001 0.17020001 0.17354999
0.21461 0.1575 0.13839
0.22234 0.1743 0.17236
0.22330999 0.17468999 0.17249
0.22317 0.17380001 0.17115
0.15211 0.13028 0.12106
0.22039001 0.15601 0.11858
0.22206999 0.15546 0.11875
0.17827 0.16794001 0.15372001
0.17713 0.16804001 0.15436999
0.17718001 0.16648 0.15392999
0.17603999 0.16515 0.15364
0.16481 0.16991 0.16023
0.20212001 0.074908003 0.092488997
0.20226 0.076148003 0.091826998
0.20337 0.074750997 0.092708997
0.20439 0.074675001 0.093158998
0.20219 0.077462003 0.091640003
0.20209 0.079006001 0.091140002
0.20201001 0.080298997 0.09076
0.20175 0.081688002 0.090411
0.20195 0.083081 0.090337999
0.20204 0.084597997 0.089836001
0.20191 0.086269997 0.089105003
0.20187999 0.087567002 0.088936001
0.20148 0.089374997 0.088714004
0.2018 0.090498999 0.088600002
0.20190001 0.091930002 0.088868998
0.20173 0.093304001 0.089027002
0.20172 0.094512999 0.089210004
0.20200001 0.095911004 0.089896001
0.20189001 0.09725 0.09093
0.20205 0.098733999 0.090976998
0.20209999 0.10008 0.091339998
0.20202 0.10153 0.091458999
0.20225 0.10298 0.092031002
0.20215 0.1042 0.092776
0.20223001 0.10553 0.093526997
0.20251 0.10699 0.094493002
0.20241 0.10815 0.095202997
0.20285 0.10984 0.096235
0.20377 0.10955 0.096157998
0.20365 0.11114 0.096538
0.20265999 0.11108 0.097011998
0.20371 0.11258 0.097121
0.14519 0.103 0.096173003
0.13494 0.11673 0.10271
0.1349 0.11841 0.10325
0.13589001 0.11792 0.10313
0.13617 0.11676 0.10238
0.14776 0.11542 0.099494003
0.12699001 0.099106997 0.094503999
0.12703 0.10049 0.094425
0.12796 0.10037 0.094333
0.14624 0.10743 0.095769003
0.14747 0.10993 0.096791998
0.14699 0.12252 0.10408
0.14814 0.12103 0.10299
0.14122 0.10883 0.097663999
0.14162 0.11026 0.097837999
0.10365 0.10155 0.13940001
0.10344 0.10147 0.13835999
0.1219 0.086620003 0.092537001
0.12085 0.086424001 0.092919998
0.12167 0.088013999 0.093318
0.12088 0.087777004 0.093497001
0.12102 0.089337997 0.093923002
0.12197 0.089267999 0.093814
0.12093 0.090651996 0.094460003
0.12174 0.090448 0.094282001
0.12101 0.091958001 0.094631001
0.12196 0.092145003 0.094783001
0.13203999 0.078497998 0.085701004
0.1313 0.078585997 0.086203001
0.13222 0.080192 0.086096004
0.14396 0.10162 0.095976003
0.14554 0.10254 0.096042998
0.14563 0.10107 0.095717996
0.16661 0.12222 0.11012
0.15167999 0.13053 0.12223
0.15029 0.13099 0.12624
0.15081 0.13072 0.12472
0.21819 0.17124 0.16866
0.16982999 0.12637 0.12954
0.17016999 0.12605 0.12837
0.17745 0.17412999 0.15398
0.17809001 0.17427 0.15335999
0.17702 0.17557 0.15374
0.17635 0.16656999 0.15429001
0.17618001 0.16819 0.15439001
0.20107999 0.074697003 0.092427999
0.20121001 0.076178998 0.091518
0.20254999 0.073932998 0.092900001
0.20102 0.077703997 0.091209002
0.20088001 0.079057999 0.091032997
0.20106 0.080422997 0.090827003
0.20083 0.082099997 0.090697996
0.20073 0.083245002 0.090359002
0.20100001 0.084774002 0.090296999
0.20096 0.086112 0.089533001
0.20063999 0.087563001 0.089455999
0.20084 0.089342996 0.089180999
0.20085 0.090341002 0.088744
0.2009 0.092081003 0.088811003
0.20084 0.093112998 0.088946
0.20095 0.094732001 0.089482002
0.20073999 0.09578 0.089922003
0.20100001 0.097401999 0.090806
0.20106 0.098765001 0.091401003
0.20110001 0.10015 0.091380998
0.20117 0.10167 0.091596
0.2013 0.10267 0.092003003
0.20137 0.10448 0.092657
0.20137 0.10566 0.093716003
0.20134 0.10686 0.094425
0.20117 0.10862 0.095187001
0.20158 0.10987 0.096469
0.20159 0.1111 0.097006001
0.20206 0.11272 0.097903997
0.20259 0.11257 0.097516
0.14743 0.10598 0.095742002
0.14805999 0.10585 0.095448002
0.18088 0.15209 0.13891999
0.16094001 0.18238001 0.16729
0.16136999 0.18273 0.16723
0.16146 0.18297 0.16712999
0.14287999 0.11836 0.10139
0.14203 0.11832 0.10132
0.14286999 0.11981 0.10201
0.13961001 0.11288 0.098955996
0.12720001 0.10188 0.094862998
0.12793 0.098930001 0.093831003
0.14507 0.12249 0.10413
0.14597 0.12219 0.10397
0.10101 0.096058004 0.13561
0.10075 0.094451003 0.13557
0.16106001 0.169 0.16254
0.15978999 0.16822 0.16254
0.16057999 0.16749001 0.16150001
0.10062 0.087825999 0.14077
0.14521 0.10597 0.095958002
0.12854999 0.1084 0.1008
0.19265001 0.15662999 0.126
0.19245 0.15498 0.12621
0.19171999 0.1565 0.12698001
0.15888999 0.12932 0.12423
0.15139 0.13072 0.12359
0.17892 0.1787 0.14478999
0.1575 0.17135 0.16373999
0.15871 0.17007001 0.1644
0.15810999 0.17048 0.16513
0.21566001 0.15724 0.13548
0.21597999 0.15674999 0.13451
0.17106999 0.12613 0.12557
0.17120001 0.12615 0.1243
0.17161 0.12555 0.12309
0.21708 0.15602 0.13178
0.17227 0.12577 0.12194
0.17248 0.12526 0.12057
0.17724 0.17129999 0.15444
0.17625 0.17136 0.15504999
0.17626999 0.16967 0.15502
0.17738 0.16960999 0.15470999
0.2014 0.073728003 0.092679001
0.20029999 0.074766003 0.092069998
0.20020001 0.076022997 0.091503002
0.19969 0.077473998 0.090934999
0.20006999 0.078841999 0.090712003
0.19995999 0.080477998 0.090598002
0.19994999 0.081964001 0.090325996
0.19987001 0.083111003 0.090186
0.19997001 0.084955998 0.090098999
0.19992 0.086189002 0.089901
0.19971 0.087582998 0.089726999
0.19960999 0.089094996 0.089640997
0.19983999 0.090319999 0.088991001
0.19972999 0.092068002 0.088826999
0.19972999 0.093396999 0.088964
0.1998 0.09454 0.089252003
0.19998001 0.095797002 0.090111002
0.20014 0.097364999 0.090992004
0.19998001 0.098696999 0.091293
0.20011 0.10013 0.091513999
0.19987001 0.10163 0.091536
0.20031001 0.10306 0.092083
0.20024 0.10428 0.092703
0.20040999 0.10602 0.09358
0.20021001 0.10726 0.094456002
0.20016 0.10834 0.095289998
0.20088001 0.10969 0.096409
0.20056 0.1112 0.097292997
0.20074999 0.1128 0.098021999
0.20100001 0.11404 0.098006003
0.20187999 0.11378 0.097778
0.15891001 0.16825999 0.16245
0.13651 0.10704 0.099417001
0.13662 0.10859 0.099288002
0.16785 0.1609 0.15158001
0.16892 0.15979999 0.15037
0.14179 0.11935 0.10224
0.10454 0.10571 0.13431001
0.12729 0.10326 0.095766
0.12724 0.1045 0.097167999
0.12819999 0.10435 0.096796997
0.13935 0.11001 0.097928002
0.14078 0.11937 0.10281
0.14709 0.1071 0.095831998
0.14731 0.10856 0.096337996
0.13593 0.11957 0.10416
0.19503 0.14153001 0.12748
0.15939 0.12913001 0.12286
0.15606 0.12675001 0.11226
0.15712 0.12611 0.11103
0.14915 0.13093001 0.13144
0.15789001 0.12484 0.10992
0.15892 0.12386 0.1085
0.19993 0.044673 0.090529002
0.19909 0.045125999 0.090797998
0.19879 0.045915999 0.091539003
0.21630999 0.15649 0.13299
0.21512 0.15727 0.13676
0.17337 0.12465 0.11903
0.17387 0.12449 0.1176
0.21754 0.15598001 0.13039
0.17437001 0.12401 0.11646
0.16279 0.16259 0.15435
0.16175 0.16266 0.15415999
0.16264001 0.162 0.15270001
0.17722 0.17268001 0.15424
0.17606001 0.17389999 0.15478
0.19927 0.073487997 0.093083002
0.19909 0.074667998 0.092216998
0.20017999 0.073321 0.093103997
0.19925 0.076134004 0.091421001
0.1991 0.077881001 0.091124997
0.19915999 0.079117 0.090452999
0.19911 0.080476001 0.090365998
0.19884001 0.081896998 0.090311997
0.19892 0.083051004 0.090038002
0.19892 0.084602997 0.090186998
0.19904999 0.086208001 0.089929
0.19904 0.087626003 0.089982003
0.19881999 0.089027002 0.089830004
0.1989 0.090310998 0.088942997
0.19891 0.091853 0.088881999
0.19871999 0.093465 0.088880002
0.19882999 0.094590999 0.089580998
0.19867 0.096267998 0.090435997
0.19922 0.097289003 0.091223001
0.19911 0.098586999 0.091394
0.19918001 0.10012 0.091357999
0.1992 0.10169 0.091586001
0.19915999 0.1028 0.092152998
0.19897 0.10425 0.092794999
0.19924 0.1056 0.093606003
0.19923 0.10703 0.094242997
0.19955 0.10827 0.095498003
0.19954 0.10977 0.096308
0.19983999 0.11116 0.097588003
0.19982 0.11251 0.098274998
0.19988 0.11401 0.098204002
0.16955 0.15721001 0.14549001
0.13388 0.082690001 0.084945999
0.13375001 0.081413999 0.085078001
0.13354 0.081993997 0.085271001
0.13682 0.11806 0.10284
0.12723 0.10564 0.098332003
0.12771 0.10695 0.099840999
0.12843999 0.10727 0.099767998
0.17188001 0.15688001 0.14102
0.17381001 0.15537 0.14198001
0.17318 0.15508001 0.14232001
0.14287999 0.11681 0.10017
0.14147 0.11702 0.1006
0.1285 0.10566 0.098160997
0.12974 0.10717 0.099417001
0.13486999 0.11945 0.10418
0.12268 0.086583003 0.092542998
0.13416 0.11636 0.10285
0.13402 0.11683 0.10318
0.15979999 0.12854999 0.12134
0.19774 0.043823 0.089543998
0.19878 0.043951999 0.090062998
0.19764 0.042861 0.088763997
0.19808 0.044966001 0.090562999
0.18467 0.17460001 0.14050999
0.19728 0.047655001 0.094517
0.19803999 0.046604 0.092152998
0.17496 0.12359 0.11543
0.17554 0.12338 0.11398
0.17343999 0.11663 0.10478
0.16414 0.16772 0.15928
0.1628 0.16734 0.15948001
0.17679 0.12221 0.11125
0.17696001 0.1218 0.10985
0.17776 0.12118 0.10864
0.16527 0.15938 0.14865001
0.16621 0.15880001 0.14751001
0.16621 0.15978 0.14901
0.19834 0.074634001 0.092611998
0.19813 0.073360004 0.093524002
0.19801 0.076090001 0.091535002
0.19808 0.077830002 0.090885997
0.19769999 0.079449996 0.090305999
0.1978 0.080449998 0.089671999
0.1981 0.081965998 0.089620002
0.19791999 0.083210997 0.089625999
0.19775 0.084792003 0.089800999
0.19806001 0.085931003 0.089716002
0.19785 0.087459996 0.089965999
0.19798 0.088899001 0.089459002
0.19791 0.090397999 0.089201003
0.19771001 0.091692001 0.089068003
0.19779 0.093153998 0.089144997
0.19789 0.094705001 0.089699
0.19780999 0.095885001 0.090414003
0.1978 0.097392 0.091530003
0.19787 0.098649003 0.091297001
0.19815999 0.1002 0.091092996
0.19801 0.10138 0.091457002
0.19819 0.10314 0.092508003
0.19828001 0.10427 0.092933998
0.19829001 0.10574 0.093624003
0.19870999 0.1073 0.094678998
0.19852 0.10847 0.095553003
0.19878 0.10972 0.096468002
0.19866 0.11107 0.097672001
0.19886 0.11249 0.098316997
0.19871999 0.11396 0.098729998
0.19778 0.1139 0.099053003
0.19794001 0.11236 0.098617002
0.13953 0.11421 0.099522002
0.14809 0.12234 0.10418
0.14907999 0.12234 0.10427
0.14926 0.12127 0.10326
0.12917 0.10411 0.096527003
0.12938 0.10573 0.097828001
0.133 0.1183 0.10417
0.13292 0.11957 0.10481
0.13388 0.11953 0.10438
0.13448 0.12078 0.10536
0.13304999 0.1211 0.10556
0.13257 0.12047 0.1054
0.13071001 0.079268001 0.086057998
0.13106 0.079970002 0.086338997
0.11165 0.043972 0.11391
0.11088 0.045272999 0.11318
0.11211 0.044627 0.11292
0.16063 0.1284 0.12046
0.12269 0.085208997 0.091838002
0.19657999 0.041131999 0.087889999
0.19751 0.039995998 0.087771997
0.19668999 0.040259 0.087467998
0.19682001 0.042702001 0.088551998
0.19701999 0.044103999 0.089491002
0.19675 0.045302 0.090779997
0.19735 0.046594001 0.092208996
0.19885001 0.042112 0.088731997
0.17840999 0.12038 0.10737
0.16192 0.16821 0.16101
0.17035 0.11903 0.10673
0.22282 0.17479999 0.17396
0.17806999 0.17279001 0.1534
0.19938999 0.072646998 0.093570001
0.19851001 0.071865998 0.094458997
0.19722 0.074708 0.092753001
0.19722 0.073091999 0.093319997
0.19683 0.076108001 0.091964997
0.1971 0.077697001 0.090847
0.19667999 0.079147004 0.090149
0.19702999 0.080486998 0.090076998
0.19681001 0.082075998 0.089325003
0.19685 0.083260998 0.089396998
0.19670001 0.084867999 0.089396998
0.19678999 0.086405002 0.089538001
0.19678999 0.087539002 0.08969
0.19699 0.089043997 0.089809
0.19673 0.090434998 0.089501999
0.19676 0.091594003 0.089445002
0.19701 0.093410999 0.089580998
0.19709 0.094411001 0.090176001
0.19708 0.095949002 0.090755001
0.19715001 0.097222999 0.091365002
0.19713999 0.098687001 0.091082998
0.1969 0.10016 0.091712996
0.19701 0.10166 0.091985002
0.1974 0.10299 0.092734002
0.19712999 0.10418 0.093193002
0.19744 0.10559 0.093643002
0.19711 0.10677 0.094645999
0.19738001 0.10826 0.095352001
0.19754 0.10979 0.096693002
0.19766 0.1112 0.097560003
0.19867 0.11547 0.098043002
0.10013 0.091711998 0.12843999
0.13025001 0.1031 0.095002003
0.12767 0.10843 0.1009
0.12515999 0.11539 0.10534
0.12306 0.099028997 0.095370002
0.12334 0.10029 0.095665999
0.12324 0.097438999 0.095200002
0.12197 0.097548999 0.095680997
0.12297 0.096169002 0.094806001
0.12176 0.096212998 0.095036
0.12311 0.093482003 0.094651997
0.12201 0.093319997 0.095013
0.12297 0.094728 0.094682999
0.21070001 0.046002999 0.12744001
0.20784 0.046930999 0.12883
0.17163 0.15954 0.14993
0.17095 0.16035999 0.15092
0.17067 0.15927 0.14952999
0.09956 0.088895001 0.12981001
0.19351 0.13889 0.12163
0.19383 0.13860001 0.12062
0.19314 0.13709 0.12073
0.12207 0.094783001 0.095173001
0.19581001 0.0414 0.088310003
0.19581001 0.042849999 0.088701002
0.19573 0.044227 0.089564003
0.22013 0.1719 0.16751
0.221 0.17244001 0.16755
0.22068 0.17201 0.16632
0.22167 0.17184 0.16661
0.22205 0.17169 0.16522001
0.22138 0.17156 0.16497
0.16842 0.12086 0.10943
0.16749001 0.12197 0.11072
0.18972 0.13149001 0.11747
0.19034 0.13251001 0.11787
0.17831001 0.17105 0.15378
0.17521 0.16543999 0.15374
0.1742 0.16381 0.1533
0.19627 0.073186003 0.093703002
0.19609 0.074644998 0.092614003
0.19622 0.076298997 0.091779001
0.19612999 0.077413999 0.091298997
0.19588 0.079401001 0.090536997
0.19581001 0.080403998 0.089826003
0.19581001 0.08202 0.089579999
0.19583 0.083338 0.089220002
0.19600999 0.084605001 0.089470997
0.19575 0.086083002 0.089341998
0.19581001 0.087640002 0.089776002
0.19585 0.089087002 0.089910999
0.19595 0.09048 0.089706004
0.19591001 0.091687001 0.089662001
0.19573 0.093200997 0.090368003
0.19615 0.094421998 0.090704001
0.19596 0.095712997 0.091086999
0.19616 0.097154997 0.091427997
0.19615 0.098742001 0.091569997
0.19611 0.10024 0.091943003
0.19641 0.10155 0.092298999
0.19629 0.10296 0.092799999
0.19612999 0.10424 0.093362004
0.1962 0.10575 0.093869999
0.19636001 0.10708 0.094456002
0.19651 0.10864 0.095310003
0.19645 0.10957 0.096602
0.19683 0.11122 0.097603999
0.19678999 0.11226 0.098724999
0.19694 0.11413 0.099269003
0.19611999 0.11247 0.098857999
0.19599999 0.11387 0.099675998
0.12669 0.096212 0.093258001
0.127 0.097811997 0.093979001
0.12795 0.097593002 0.093612999
0.12751 0.095413998 0.092168003
0.12783 0.096097998 0.092763998
0.18482 0.16058999 0.14907999
0.18354 0.16067 0.14955001
0.18370999 0.15926 0.1488
0.14048 0.10999 0.097916998
0.14844 0.1125 0.098073997
0.12695 0.11393 0.1039
0.12098 0.093275003 0.094990999
0.12474 0.10716 0.1008
0.12373 0.10696 0.10099
0.12491 0.10849 0.10192
0.12305 0.091296002 0.094251998
0.12297 0.091931999 0.094587997
0.12386 0.092593998 0.093895003
0.14735 0.1115 0.097476996
0.14847 0.1113 0.097545996
0.14839999 0.11009 0.096501
0.1227 0.089210004 0.093726002
0.12288 0.090779997 0.093852997
0.12347 0.089984998 0.093686998
0.19393 0.14030001 0.12161
0.22015999 0.14745 0.091445997
0.10672 0.10844 0.11989
0.10646 0.10817 0.12116
0.10708 0.11009 0.12068
0.12304 0.10165 0.096412003
0.12266 0.10182 0.096725002
0.12425 0.10307 0.096813999
0.19482 0.041561998 0.088298
0.19542 0.040155001 0.087603003
0.19445001 0.040228002 0.088060997
0.19465999 0.042789999 0.088901997
0.19469 0.044392999 0.089648001
0.14605001 0.098991998 0.089069001
0.14577 0.097923003 0.087393001
0.19523001 0.046417002 0.092733003
0.19633999 0.047711998 0.094526999
0.19351 0.13410001 0.10714
0.19329999 0.13259 0.10694
0.21951 0.18085 0.18822999
0.21873 0.18024001 0.18831
0.21806 0.1565 0.11785
0.22202 0.17782 0.18057001
0.20262 0.15552001 0.11555
0.19598 0.072484002 0.094420999
0.19520999 0.073274001 0.093575999
0.19515 0.074672997 0.092673004
0.19538 0.076282002 0.092122003
0.19493 0.077536002 0.091718003
0.19510999 0.079301998 0.090787999
0.19543999 0.080613002 0.090024002
0.19476999 0.082276002 0.089813001
0.19487999 0.083292998 0.089666001
0.19482 0.084696002 0.089452997
0.19483 0.086320996 0.08941
0.19496 0.087559 0.089547999
0.19518 0.089106999 0.089689001
0.19490001 0.090406999 0.089868002
0.19484 0.091811001 0.090359002
0.19492 0.093294002 0.090705
0.19509 0.094580002 0.090796001
0.19495 0.095835999 0.091201
0.19509999 0.097418003 0.091430001
0.19487999 0.098860003 0.091854997
0.19506 0.10021 0.092467003
0.19549 0.10153 0.092756003
0.19542 0.10279 0.093271002
0.19515 0.10441 0.093764
0.19532 0.10559 0.094244003
0.19525 0.10688 0.094778001
0.19554999 0.10851 0.095919997
0.19574 0.1097 0.096704997
0.19583 0.11106 0.098076999
0.19645 0.11548 0.10031
0.19689 0.11557 0.099407002
0.14822 0.10455 0.095503002
0.14856 0.11688 0.10012
0.14838 0.11556 0.099482
0.19483 0.14334001 0.12236
0.19494 0.14307 0.12133
0.19487 0.14173 0.12145
0.14871 0.11855 0.10129
0.19520999 0.13999 0.12976
0.12684 0.11242 0.10341
0.1211 0.094975002 0.095246002
0.12513 0.10339 0.096482001
0.12561999 0.10429 0.097681001
0.12381 0.10836 0.10248
0.12382 0.10978 0.10296
0.12503 0.10955 0.10247
0.16362999 0.16107 0.15165
0.16198 0.16193999 0.15227
0.14105999 0.12092 0.10392
0.18846001 0.14786001 0.13235
0.18674999 0.14972 0.13258
0.12589 0.096389003 0.094132997
0.13052 0.10595 0.097958997
0.13033 0.10459 0.096456997
0.19307999 0.041675001 0.089180999
0.19337 0.042858999 0.089556001
0.1939 0.042502001 0.089112997
0.15971 0.17205 0.16584
0.19392 0.046530999 0.092967004
0.19445001 0.048990998 0.096855998
0.20457 0.15538 0.10894
0.20371 0.15518001 0.10884
0.10699 0.1096 0.12224
0.16139001 0.12833001 0.1218
0.16186 0.12782 0.1204
0.19512001 0.064304002 0.10135
0.1939 0.064553 0.10052
0.20689 0.078386001 0.091853
0.17591 0.16383 0.15283
0.17577 0.16247 0.15188999
0.19399001 0.075078003 0.092479996
0.19433001 0.076292001 0.091955997
0.19385 0.077500999 0.091417998
0.19401 0.079227999 0.091072001
0.19374999 0.080534004 0.090475999
0.19413 0.081771001 0.090204999
0.19388001 0.083374001 0.089915998
0.19391 0.084811002 0.089546002
0.19397999 0.086390004 0.089120001
0.19395 0.087835997 0.089506999
0.1938 0.088910997 0.089663997
0.19385 0.090370998 0.090129003
0.19383 0.091916002 0.090729997
0.19381 0.093051001 0.090828001
0.19386999 0.094650999 0.090954997
0.19411001 0.096073002 0.091133997
0.19412 0.097425997 0.091329999
0.1943 0.098600999 0.091825999
0.19411001 0.099991001 0.092524
0.19404 0.10153 0.092932999
0.19430999 0.10274 0.093603
0.19413 0.10419 0.093962997
0.19441999 0.10563 0.094737001
0.19444001 0.1071 0.094956003
0.19454999 0.10845 0.096207
0.19451 0.10987 0.096818998
0.19491 0.11131 0.097639002
0.19502001 0.11251 0.098785996
0.19503 0.11396 0.099811003
0.12980001 0.10161 0.094103999
0.12912001 0.1019 0.094351001
0.14037 0.12246 0.10552
0.12614 0.097345002 0.094182998
0.1268 0.11131 0.10256
0.18529999 0.14929999 0.13474
0.18828 0.14794999 0.13541999
0.12672 0.11003 0.10189
0.12617999 0.10451 0.097323
0.12615 0.10325 0.096147001
0.12640999 0.10563 0.098498002
0.12653001 0.10713 0.10002
0.12097 0.096262001 0.095418997
0.12091 0.097480997 0.095518999
0.12201 0.10958 0.10339
0.12072 0.10992 0.10411
0.12187 0.1112 0.10497
0.10211 0.10013 0.13461
0.10224 0.099990003 0.13334
0.1018 0.098780997 0.13367
0.12540001 0.10588 0.099115998
0.1244 0.10456 0.098004997
0.17533 0.16836999 0.15498
0.21364 0.17261 0.18918
0.21377 0.17433999 0.18893
0.21359 0.17261 0.18795
0.19272999 0.13638 0.12054
0.19334 0.13710999 0.11985
0.21362001 0.17102 0.18692
0.18584999 0.14949 0.13331001
0.13421001 0.11842 0.10385
0.13060001 0.10852 0.1012
0.13066 0.10723 0.099509001
0.19414 0.045212999 0.091219001
0.19506 0.045533001 0.091458
0.11999 0.10584 0.10276
0.11971 0.107 0.10317
0.12092 0.10711 0.10268
0.19321001 0.045169 0.091586001
0.19313 0.046493001 0.093070999
0.13007 0.1199 0.10602
0.19264001 0.047814999 0.095380001
0.19293 0.048902001 0.097667001
0.21685 0.17177001 0.17636999
0.21732 0.17205 0.17486
0.2174 0.17196 0.17363
0.21799 0.17175999 0.17281
0.16202 0.1275 0.11925
0.12172 0.12029 0.11056
0.12141 0.1195 0.10988
0.12098 0.11925 0.11044
0.19293 0.064626001 0.099916004
0.16395999 0.15988 0.1487
0.16388001 0.16 0.14802
0.18828 0.15776999 0.14601
0.18843 0.15933999 0.14653
0.1873 0.15774 0.14636
0.19306 0.074932002 0.092267998
0.19317999 0.076430999 0.091838002
0.19312 0.077647999 0.091718003
0.19272999 0.079213001 0.091094002
0.19312 0.080487996 0.090963997
0.19284 0.082114004 0.090521999
0.1928 0.083146997 0.090305001
0.19284999 0.084703997 0.089721002
0.19286001 0.085902996 0.089281999
0.19326 0.087467998 0.089414999
0.19293 0.089142002 0.089915998
0.19277 0.090296999 0.090084001
0.19294 0.091789998 0.090937003
0.19316 0.093318999 0.090838
0.19301 0.094584003 0.090892002
