# .PCD v0.7 - Point Cloud Data file format
VERSION 0.7
FIELDS x y z
SIZE 4 4 4
TYPE F F F
COUNT 1 1 1
WIDTH 1429
HEIGHT 1
VIEWPOINT 0 0 0 1 0 0 0
POINTS 1429
DATA ascii
0.061423 -0.024142999 0.084287003
0.061689001 -0.023975 0.084068
0.078117996 0.0028198001 0.090226002
0.078239001 0.0014884 0.090763003
0.033333998 -0.031954002 0.079856001
-0.069412 0.0072466 0.11994
-0.067946002 0.0048886999 0.11846
0.012917 -0.0036267 0.069554999
0.078864999 -0.014948 0.083669998
-0.022128999 -0.0094707999 0.074175999
-0.023852 -0.0093176998 0.074220002
-0.023086 -0.0079969 0.074667998
0.059592001 -0.039182998 0.070502996
-0.02984 -0.012613 0.068883002
-0.010925 0.0030787999 0.077881999
-0.044380002 0.026091 0.083547004
0.013647 -0.00020816999 0.10364
-0.051141001 0.022986 0.093341999
-0.034848001 -0.014079 0.059055999
0.006149 -0.0013636 0.068749003
0.0063479999 -0.0026733 0.068914004
-0.066304997 0.022836 0.10892
-0.038116001 0.034265 0.082038999
-0.013811 0.0046648998 0.084680997
0.093355998 0.012269 0.082658
-0.070992999 0.035253 0.11118
-0.045804001 -0.016457001 0.10103
-0.052689999 0.027801 0.097406998
-0.041363001 -0.018309999 0.10256
-0.042287 -0.017849 0.1016
-0.053098001 0.015372 0.095804997
-0.015655 -0.013046 0.069153003
0.015884001 0.011751 0.078654997
-0.067197002 -0.035128001 0.063295998
0.016106 0.0088168997 0.074584
-0.036412999 -0.025641 0.054768998
-0.023112001 0.040167999 0.11239
-0.07079 0.025487 0.12683
-0.069025002 0.025046 0.12579
-0.069711 0.025043 0.12807
0.070892997 -0.037819002 0.072191
0.020337 0.011747 0.077588998
-0.052276 -0.033084001 0.058263998
0.023906 -0.036823999 0.076114997
-0.027189 -0.0096618002 0.073496997
-0.0275 -0.0088002998 0.075079001
0.098720998 0.021799 0.080693997
0.078537002 0.0067882999 0.090962999
-0.029895 -0.012073 0.057018001
-0.035284001 -0.036988001 0.056267001
0.054536 -0.017868999 0.077884004
0.0040531 0.0070976 0.073857002
-0.025947001 0.0023795001 0.085288003
-0.072208002 0.025079001 0.12649
-0.071732998 0.025684001 0.12755001
-0.026407 -0.038306002 0.057126001
0.063418001 -0.025758 0.070430003
-0.0092697004 0.0037113 0.075912997
-0.077914998 0.036545001 0.1231
-0.069976002 0.0089138998 0.12312
-0.068126 0.011746 0.1235
-0.070191003 0.010989 0.12355
0.012131 0.0029291001 0.070961997
-0.079435997 -0.0060719 0.12347
0.00024923999 0.0094090002 0.077891
0.054983001 -0.01305 0.088676997
0.0066014999 0.013314 0.080534004
0.098038003 0.013856 0.089311004
-0.082873002 -0.0027252 0.12614
-0.060224999 0.0028871 0.10516
-0.060010001 0.0030839001 0.10398
-0.036695998 -0.038422 0.12046
-0.0094641 0.0029545 0.075381003
-0.079313003 0.023461999 0.12176
-0.078833997 -0.0060538002 0.12315
-0.033344999 -0.034008 0.05737
-0.033863999 -0.035057999 0.057739001
0.021614 0.0072785001 0.075516999
-0.043899 0.022663999 0.091416001
-0.048500001 -0.034219 0.057349999
-0.058463 0.038722001 0.10327
0.082767002 0.01062 0.091259003
0.081386 0.011634 0.091404997
-0.0069162999 0.0046863998 0.087273002
-0.0064404001 0.0045234999 0.088528
-0.023143999 -0.033661 0.11483
-0.022728 -0.032816999 0.11455
0.080018997 0.013385 0.094687998
0.079573996 0.013146 0.093264997
-0.049520999 -0.0056765 0.089736
-0.065260999 0.033078 0.10889
-0.067057997 0.03283 0.10897
-0.038892999 0.036832001 0.083462
-0.060061 0.017154999 0.11835
-0.073785998 0.037076 0.11644
-0.030494999 -0.011561 0.065474004
0.080514997 0.013095 0.089207001
0.082080998 0.010678 0.087289996
-0.036846999 0.0087037003 0.092317998
-0.036596 0.0094702998 0.091797002
-0.047113001 0.0090314001 0.093446001
-0.043877002 0.012003 0.087874003
0.061962001 -0.024419 0.086133003
0.063041002 -0.023035999 0.086186998
0.063761003 -0.023902999 0.087256998
0.0014859 -0.015631 0.071117997
0.0012019 -0.014801 0.070381001
0.097512998 0.027759001 0.079985
-0.034309 -0.024862001 0.088792004
0.015558 0.017138001 0.085128002
-0.060268998 0.0098225996 0.10384
-0.080445997 0.029618001 0.12052
-0.029773001 -0.01288 0.064925
-0.074488997 0.00049340999 0.12206
-0.072281003 -0.00017578001 0.12268
-0.072567001 0.00086465001 0.12143
0.090972997 0.032198001 0.085046999
0.0040757 -0.012987 0.069950998
-0.0051230998 -0.0077824998 0.068493001
-0.066471003 0.036513999 0.10633
0.101 0.041317999 0.078272998
-0.026319999 -0.037457 0.11678
-0.024411 -0.037981998 0.11775
-0.017478 0.00086660997 0.079682998
-0.069904 0.0071506999 0.11688
-0.070193999 0.0057109999 0.11694
-0.069752999 0.0065830001 0.11479
0.0017985 -0.01073 0.069803998
0.086258002 -0.0042718998 0.082392
-0.06013 -0.032269999 0.070978999
-0.050297 0.018871 0.092082001
-0.050643999 0.020465 0.091660999
-0.023502 -0.0024925999 0.081345998
-0.046032999 -0.010141 0.087011002
-0.067244999 0.01109 0.11844
0.096453004 0.012206 0.083479002
0.097329997 0.011931 0.083973996
-0.0539 -0.031496 0.061206002
-0.026935 -0.033115 0.12627999
-0.025722001 -0.032772999 0.12582
-0.042652 0.033064 0.087058999
-0.042652 0.033983 0.087554999
-0.025441 -0.020195 0.063702002
-0.025692999 -0.018518999 0.062509
0.085354999 -0.0015951 0.082209997
-0.028036 -0.026240001 0.080626003
-0.027078001 -0.026424 0.080177002
-0.043823 0.017790999 0.091009997
0.013124 0.017906001 0.089501001
0.047610998 -0.031406999 0.069687001
0.047768001 -0.030885 0.070451997
-0.031360999 0.037326001 0.10932
0.058029 -0.014853 0.073849998
-0.02221 0.031891 0.10951
-0.022423999 0.032494999 0.10941
-0.051341001 -0.0036603999 0.11228
0.058391001 -0.0134 0.076585002
0.017510001 0.017313 0.086393997
-0.082093999 0.028101999 0.12108
-0.034046002 -0.021779001 0.075963996
-0.033562001 -0.021063 0.076683
-0.047938999 0.033140998 0.086829998
0.0039029999 -0.012505 0.070051
0.047063999 -0.034942001 0.066753
0.047706001 -0.035670999 0.067326002
-0.066546999 0.013455 0.12339
-0.068513997 0.022733999 0.11004
-0.075286999 0.039903998 0.127
-0.074948996 0.038612999 0.1274
0.087062001 0.033649001 0.085832998
0.088211 0.032869 0.086857997
0.082648002 -0.0092080003 0.082552001
-0.033438999 -0.035168 0.12408
0.02936 0.017911 0.098622002
0.029828999 0.01816 0.098302998
0.10304 0.040601999 0.081201002
0.050643001 -0.025102001 0.089597002
0.081765004 0.019993 0.089143001
0.082551003 0.021697 0.087826997
-0.029755 -0.01396 0.063257001
-0.029757001 -0.013677 0.064277001
-0.028754 -0.015056 0.064424999
-0.064006999 0.0099555003 0.10949
-0.046004001 -0.031148 0.058942001
0.05875 -0.014697 0.084891997
-0.054480001 0.0027031 0.096750997
-0.054802001 0.0043075001 0.095914997
-0.054030001 0.0037968 0.094981
-0.032917 -0.038995001 0.056304
-0.059333999 -0.032299001 0.065321997
-0.058720998 -0.031883001 0.064345002
-0.033750001 -0.022084 0.054781999
-0.03449 -0.021933001 0.056354001
-0.061041001 0.0018733999 0.11359
0.053886998 -0.019385001 0.078358002
0.054221999 -0.020771001 0.076693997
-0.059932999 0.0090803001 0.10421
-0.060862999 0.0093189999 0.10541
-0.051435001 0.037303001 0.12299
0.010874 -0.0059718001 0.069857001
-0.032372002 -0.02475 0.071144
-0.031643 -0.024778999 0.071313001
-0.031362999 -0.023881 0.072763003
-0.037950002 -0.024284 0.091962002
-0.055980999 0.0029430999 0.096352004
0.085240997 0.030022999 0.085447997
-0.021077 -0.034456 0.11278
0.030112 -0.039379999 0.063528001
0.084477998 -0.00044847 0.083222002
0.085375004 -0.00099884998 0.082676999
-0.040899001 -0.0039388998 0.085066997
0.065396003 -0.014168 0.086792
-0.063766003 0.030746 0.11977
-0.041809998 0.0070477002 0.091196001
-0.0072328998 0.0023620001 0.073344
-0.073275998 -0.00049794 0.12284
-0.035751 -0.025202001 0.067712002
0.095535003 0.032802999 0.087493002
-0.025939999 -0.020778 0.060392
-0.048595 0.034343001 0.1035
0.040651001 -0.031534001 0.077504002
-0.034348998 -0.038812999 0.11672
0.024266999 -0.038284998 0.058490999
0.032513998 -0.038872 0.075576998
0.033891 -0.039267998 0.077026002
-0.033236001 -0.011093 0.064854003
0.10158 0.04614 0.077215001
-0.070106 0.0072039999 0.12297
-0.044098999 0.026535001 0.096363001
-0.028697999 -0.037113 0.13001999
-0.028678 -0.037794001 0.13012999
-0.036256999 -0.023651 0.072993003
-0.050055999 0.02905 0.09161
-0.050198 0.029517001 0.089997999
-0.059781 0.014509 0.10154
-0.085179001 0.025858 0.12506001
0.098729998 0.027401 0.078052998
-0.063468002 0.026818 0.113
-0.062392998 0.027903 0.11292
0.025485 0.0092513999 0.078707002
0.025552001 0.0080658002 0.077996001
0.059859999 -0.013117 0.092265002
0.060890999 -0.012649 0.093192004
0.049334001 -0.021132 0.089115001
0.017177001 0.018423 0.087552004
-0.058995001 0.023636 0.10325
-0.050232999 0.039503001 0.11899
0.062835 -0.016244 0.071235999
0.061611999 -0.017278999 0.072158001
0.023460001 -0.038054999 0.068306997
-0.028167 -0.034646001 0.12476
-0.07598 0.039342001 0.12627
0.023922 0.0026738001 0.075494997
-0.059296001 -0.036679 0.073045999
-0.058182001 -0.036297999 0.074225999
-0.065810002 -0.015955999 0.12309
-0.020009 0.039464001 0.11012
-0.022443 -0.038777001 0.11682
0.058451999 -0.013051 0.079654001
-0.050709002 -0.010449 0.10332
0.055652998 -0.026977001 0.078388996
0.093223996 0.033539001 0.081936002
-0.041965 -0.020144001 0.089796998
0.0026726001 0.0073008002 0.071718
-0.054547001 -0.0061511998 0.10267
-0.081923001 0.024617 0.12716
-0.067463003 0.011167 0.12363
-0.065720998 0.011083 0.12311
-0.039562002 -0.026053 0.061315
-0.038196001 -0.025234001 0.061131001
-0.071092002 0.039196 0.11795
-0.076045997 0.039159 0.11754
-0.041692998 0.023309 0.089016996
-0.040456999 0.017558999 0.092923
-0.039724 0.017852001 0.093548998
-0.040387001 0.045821998 0.080802001
-0.037404999 -0.023738001 0.093516
-0.030568 -0.011414 0.058005001
-0.0307 -0.010811 0.059036002
0.091642998 0.030791 0.082170002
-0.0027954001 0.012578 0.085610002
-0.039841 0.038982999 0.079613
0.037239999 -0.031004 0.073214002
0.033707 -0.032935999 0.066091999
-0.057443999 0.031454001 0.10194
0.089456998 0.0014033 0.085303999
0.090209 0.0011831 0.085683003
0.011453 0.010352 0.097566001
0.01188 0.011066 0.097603999
-0.061324999 -0.034625001 0.060045999
0.082787 0.0010536 0.083558001
0.031684998 -0.033411998 0.067129001
0.031020001 -0.034377001 0.069347002
0.031537998 -0.032974001 0.069169998
-0.052315 -0.03033 0.064120002
-0.052699 -0.0060593002 0.10555
-0.0037278 0.012904 0.085055999
-0.0033662 0.012481 0.084503002
-0.059463002 -0.037811998 0.055606
0.062348999 -0.037307002 0.069279
0.061237998 -0.038132999 0.069448002
0.061462998 -0.037338998 0.070285
-0.020354999 0.00096148002 0.088145003
0.077430002 0.012461 0.092972003
0.061576001 -0.012112 0.069904
0.10211 0.022915 0.080188997
0.10285 0.02328 0.082019001
-0.034407999 -0.022031 0.081449002
-0.045570001 0.0038693 0.090136997
-0.045175999 0.0046303002 0.089782998
0.077944003 0.012667 0.092448004
-0.068663999 -0.0038040001 0.1139
-0.050774001 0.025472 0.091421999
0.060580999 -0.014103 0.080219001
-0.0069102002 0.0077877999 0.081344999
0.061324999 -0.014078 0.069642998
-0.043037001 0.048188001 0.1159
0.049507 -0.020857999 0.086511999
0.049989998 -0.019502999 0.088014998
0.050368 -0.019314 0.087701999
-0.015954001 -0.0081586996 0.071263999
0.094168998 0.010026 0.090653002
-0.028905001 -0.012313 0.071535997
0.10818 0.029378001 0.075391002
-0.037588 0.013836 0.089989997
-0.074096002 0.041567001 0.12298
-0.029175 0.0019340999 0.088017002
0.071872003 -0.0079605002 0.098646998
0.072557002 -0.0074797999 0.098724999
0.085263997 -0.0034014001 0.082450002
0.083327003 -0.0039880001 0.081892997
-0.037767 -0.02479 0.060991
-0.045667 0.035941999 0.10432
-0.045897 0.035902999 0.10469
0.038807001 -0.037815999 0.065893002
-0.023047 0.033535 0.10825
-0.016181 -0.030028 0.11499
-0.047109999 0.024861 0.087038003
-0.017055999 -0.030278999 0.11776
0.079028003 0.0054428 0.093469001
0.079329997 0.0065215002 0.093534999
-0.049274001 0.030712999 0.092455998
-0.058077998 0.0079915999 0.099717997
0.027325001 -0.035096001 0.077725999
-0.037066001 -0.031812001 0.055144001
-0.0031423999 0.0095774001 0.087017998
-0.027177 -0.026690001 0.054701
-0.027131001 -0.028488001 0.054705001
0.053543001 -0.027628999 0.082584001
-0.066554002 -0.012919 0.12476
-0.031507999 -0.038479 0.13144
-0.029422 -0.039923001 0.12778001
-0.030515 -0.039983001 0.12747
-0.030765001 -0.039685 0.12721001
-0.021173 0.034010001 0.11002
-0.034933001 -0.012416 0.068060003
0.042867001 -0.031548999 0.069177002
0.043366998 -0.030928999 0.069801003
-0.028562 -0.032900002 0.12084
-0.010711 0.014174 0.088004
-0.064439997 -0.035590999 0.059753001
-0.064942002 -0.036302 0.057921998
-0.040233001 0.03019 0.081058003
-0.039342999 0.015876001 0.091789998
-0.030254001 -0.028995 0.053041
-0.066419996 0.0053308001 0.11105
-0.065770999 0.006997 0.11019
0.0046313 0.0078043002 0.074023999
-0.050957002 -0.0078566 0.094209999
-0.048964001 0.031640001 0.088414997
-0.052749999 -0.0043041999 0.11004
-0.05125 -0.0044550002 0.11075
-0.032458 -0.011832 0.055457
-0.063380003 -0.036488 0.055073
-0.022636 -0.035236001 0.13222
0.01393 0.015172 0.082606003
-0.052503999 -0.033222999 0.057762999
-0.051440999 -0.032434002 0.058001999
-0.033500999 -0.015472 0.058630999
-0.063098997 0.0042655999 0.10514
-0.0042893002 0.0057764999 0.088454001
-0.0036557 0.0061875 0.089415997
-0.073734 0.040360998 0.1145
0.079464003 0.0096832998 0.095890999
-0.014866 0.0022672 0.080554999
-0.030703001 0.0028164999 0.088368997
-0.054524999 0.040100999 0.10067
-0.034251001 -0.0058738999 0.080807
0.0036235999 -0.040521 0.11616
0.0029402 -0.039726 0.11525
-0.025123 0.048962999 0.10903
-0.025599999 0.048145 0.1089
-0.021328 -0.037174001 0.11344
-0.021218 -0.037606001 0.1143
-0.067023002 -0.034706 0.064337999
-0.045529 -0.032368001 0.058072999
0.021175999 0.017219 0.088592
-0.064677 0.030793 0.1209
0.088198997 -0.0079702996 0.088173002
0.087640002 -0.0092976997 0.086603001
0.088087998 -0.0080461996 0.086437002
0.083818004 0.020633999 0.091509998
-0.046202999 -0.029021 0.064544998
-0.047988001 -0.029797999 0.065374002
0.025203999 -0.039797999 0.068915002
0.028285 -0.039884001 0.070122004
0.028254 -0.040057998 0.071129002
-0.033546001 0.0060768002 0.089254998
-0.071036004 0.038747001 0.11735
0.067791 -0.014918 0.087723002
0.067883 -0.015426 0.088325001
-0.051755 0.034997001 0.11654
-0.056340002 0.020191001 0.098422997
-0.063621998 -0.034113999 0.068956003
-0.074069001 0.038214002 0.12856001
-0.041453999 -0.028813001 0.059558999
-0.041262999 -0.02864 0.059785001
-0.047798999 -0.0048622 0.085795999
0.013656 -0.0025559 0.071276002
0.070347004 -0.015032 0.085652001
0.069675997 -0.013617 0.084473997
0.071393996 -0.015318 0.085189
-0.068056002 0.036798 0.10905
0.020709001 0.016282 0.085554004
0.019757999 0.016247001 0.086846001
0.024633 0.0069892998 0.077533998
-0.065172002 0.033066999 0.10571
0.091011003 0.0013148 0.087641001
0.091504999 0.00038226001 0.087673999
0.082271002 0.023174001 0.090172999
0.069378003 -0.010056 0.089841999
-0.064375997 0.011431 0.10835
0.014087 0.012527 0.097083002
0.013429 0.012487 0.09623
-0.073103003 0.027504001 0.13567001
-0.050886001 0.025374999 0.091955997
-0.066441998 -0.01193 0.12139
-0.0053989999 -0.015866 0.069609001
-0.035905 -0.031631 0.055734999
-0.044188 0.030382 0.093721002
-0.045651998 0.031259 0.093566999
-0.043542001 -0.015876001 0.085617997
-0.065834999 0.014647 0.1114
-0.035712998 -0.024881 0.069195002
-0.017486 -0.0054767001 0.073174998
-0.068986997 0.0079076001 0.1164
0.021876 0.011872 0.10318
-0.074330002 0.0059405002 0.12777001
-0.03579 -0.022090999 0.073596001
-0.030639 0.0041128001 0.087182999
-0.068458997 0.019222001 0.1124
-0.071494997 0.037372999 0.12961
-0.047447 0.016287001 0.095935002
-0.064664997 0.0081741 0.10934
0.058798 -0.02014 0.071338996
-0.028906001 -0.0032891999 0.082183003
-0.033002999 -0.011544 0.061202999
-0.058191001 0.028062001 0.10142
-0.021699 0.041234002 0.10769
-0.010561 -0.032302 0.11024
-0.037593 -0.019595999 0.062501997
-0.021434 -0.037494998 0.11264
-0.021741999 -0.036157999 0.11377
-0.06718 0.0018536 0.12423
0.086943001 0.029704999 0.086136997
0.0078102001 0.013049 0.079053
-0.049270999 0.018435 0.096625
-0.062991999 0.0023827001 0.11259
0.081511997 0.010591 0.095022
0.081702001 0.0096798996 0.094306
0.020095 0.017858 0.093474001
-0.056341 0.007098 0.097476996
0.059650999 -0.015294 0.087898999
0.058437001 -0.013967 0.086832002
-0.034786999 -0.024483999 0.085933998
-0.032970998 -0.02444 0.086519003
-0.035395999 0.036690999 0.11013
0.059068002 -0.027233001 0.068894997
-0.022265 -0.035959002 0.11293
-0.037234999 -0.026271001 0.061395001
-0.069553003 0.039682999 0.12578
-0.033055 -0.012145 0.055668999
-0.013064 -0.0037199 0.070525996
-0.062661998 0.029478 0.11159
-0.050850999 -0.0032830001 0.092049003
-0.061939001 0.0025532001 0.11572
-0.033670001 -0.013859 0.059238002
-0.045113999 -0.029650001 0.068177998
-0.047221001 -0.016264001 0.095655002
-0.046673 -0.01584 0.097194999
0.073515996 -0.0070058 0.097855002
0.029811 -0.038959999 0.061749
0.028571 -0.039420001 0.062942997
-0.039407998 0.026543999 0.087580003
-0.076342002 0.034497999 0.13042
-0.076008998 0.034616999 0.13111
0.018537 0.018235 0.092570998
-0.046611998 -0.0021522001 0.085284002
-0.064779997 -0.035693999 0.072205
0.062801003 -0.020354001 0.071874
-0.025210001 -0.036821999 0.13529
-0.048482001 0.018446 0.090727001
-0.047848001 0.020066001 0.091045998
0.090506002 0.027040999 0.082231
-0.073729001 0.029809 0.11758
-0.069193996 0.0031087 0.12062
-0.058952 -0.038706999 0.056954999
-0.059447002 -0.039331999 0.057638999
-0.070584998 0.02674 0.11739
-0.071294002 0.027438 0.11686
-0.077342004 0.025094001 0.1257
-0.073030002 -0.0010354 0.12322
0.031091999 -0.033206001 0.069532
0.050588001 -0.019024 0.085827999
-0.049244002 0.037893001 0.12172
-0.054152999 -0.035429999 0.056924999
0.051968999 -0.027145 0.091897003
-0.031376 -0.0058293999 0.079387002
0.064103 -0.017568 0.074726
0.063776001 -0.017038001 0.076302998
0.064751998 -0.01891 0.076246001
-0.070087001 -0.038008001 0.064268999
-0.068125002 -0.037870001 0.064239003
-0.068291001 0.0094903 0.11884
-0.038056999 -0.020385999 0.076325998
-0.060426001 0.0021311 0.10465
-0.060419001 0.0017866 0.1034
-0.059034001 0.016153 0.10109
0.020784 0.013158 0.10063
-0.043088 -0.019641001 0.095224001
-0.058664002 0.026806001 0.10444
-0.068294004 0.023003999 0.10954
-0.068369001 0.032776002 0.12137
0.012725 0.0052676001 0.10378
0.028771 -0.038357001 0.067089997
-0.075453997 0.026978999 0.11578
-0.059654001 0.033881001 0.10815
-0.058665998 0.033783998 0.10936
-0.057617001 0.033691 0.10937
-0.016543999 -0.013892 0.069243997
-0.017837999 -0.013899 0.069872998
0.0093008997 0.0081010005 0.073000997
-0.029522 0.036515001 0.11198
-0.040789999 0.024896 0.085089996
-0.048749998 0.014921 0.089394003
-0.068792 0.0049772002 0.11306
-0.0075093 -0.013862 0.068549998
0.024670999 0.014504 0.085334003
0.058150999 -0.037912998 0.069741003
0.067208 -0.012921 0.088857003
0.068800002 -0.011763 0.088950001
-0.041142002 0.024150999 0.091218002
-0.039005 0.0068767001 0.090818003
0.056651 -0.013862 0.081914999
0.056039002 -0.014252 0.082932003
-0.056756999 0.028829001 0.10132
-0.056820001 0.027894 0.10061
-0.02337 -0.030088 0.11906
-0.064429 -0.035608999 0.057565
-0.025615999 -0.024386 0.060756002
-0.025613001 -0.022528 0.060446002
-0.025196999 -0.02306 0.061473001
-0.056719001 0.018531 0.099799
-0.035332002 -0.012585 0.072199002
-0.033512998 -0.012734 0.063808002
0.074300997 -0.0076099001 0.086211003
-0.057064001 -0.032115001 0.060904
-0.073246002 0.037767999 0.11524
0.085107997 0.012418 0.092046998
-0.024513001 -0.035181999 0.133
0.051954001 -0.019469 0.082827002
0.10749 0.030231999 0.077598996
-0.041085001 -0.014738 0.081592999
-0.053721 -0.00073711999 0.11374
0.051582001 -0.025122 0.088292003
0.051155999 -0.025691001 0.089047
0.082385004 0.023080001 0.088708997
-0.044697002 0.0027006001 0.089174002
-0.072648004 0.039558999 0.12002
-0.045788001 0.032024 0.085735001
-0.034931 -0.018135 0.064755
0.062647 -0.013961 0.090645
0.082722001 -0.0041113002 0.082561001
0.072780997 -0.0044109002 0.090540998
0.052496001 -0.016845001 0.085288003
-0.020687001 -0.0026582 0.080078997
-0.021466 -0.0035514999 0.079503
-0.038373999 -0.016588001 0.078004003
-0.038853999 -0.01612 0.079364002
0.030578 -0.034928001 0.063027002
-0.048666999 -0.0012515 0.090088002
0.088010997 0.023906 0.089950003
-0.031973001 -0.010519 0.069516003
0.017002 0.01218 0.098316997
-0.047125999 -0.0085190004 0.086762004
-0.056837998 0.023689 0.10103
-0.064974003 0.035776 0.10575
-0.065013997 -0.035103999 0.062426999
-0.073117003 0.041405 0.12217
-0.033424001 -0.034910999 0.11867
-0.058658 0.036164999 0.10161
-0.0067854002 0.011958 0.084758997
-0.034821 -0.037895001 0.12198
-0.034038 -0.036648002 0.12242
0.030605 0.016541 0.10058
-0.061168998 -0.032446001 0.07626
-0.071314 0.027377 0.11751
0.087743998 0.031698 0.091489002
0.079737 -0.013755 0.083279997
0.080123998 -0.014421 0.083497003
-0.0416 0.040975001 0.081791997
-0.033397999 -0.022615001 0.08027
-0.066446997 -0.035937998 0.066219002
0.025717 0.0074367998 0.077742003
0.026035 0.0065966002 0.077354997
-0.050443001 0.0088034002 0.089092001
0.027525 -0.039324999 0.072752997
-0.032949001 -0.037721999 0.11476
0.0082331002 -0.0072590001 0.069412
-0.064186998 0.0067785 0.10814
-0.063437998 0.0072801001 0.1077
-0.026783001 -0.032047 0.11725
0.026505999 -0.036548998 0.06185
0.089670002 0.0031049999 0.092390001
0.089176998 0.0014529 0.093157001
0.089578003 0.0012161999 0.091858998
0.059413999 -0.012157 0.074611999
0.028222 -0.038256999 0.082084
-0.023859 -0.033411998 0.1159
-0.059659 -0.036653999 0.056315001
-0.077046998 0.03028 0.13165
-0.078380004 0.031066 0.13102999
-0.063672997 -0.035684999 0.060635
-0.052041002 0.024798 0.094751
-0.067418002 -0.038224999 0.062362999
-0.039981 0.0065707001 0.090267003
-0.083608001 0.026779 0.12258
0.0123 0.01346 0.094687998
-0.034534 0.013127 0.092687003
0.015658 0.013148 0.079062
-0.033374999 -0.0036873999 0.082111001
-0.014094 -0.039863002 0.11682
-0.017309999 -0.030826 0.11961
-0.071975 -0.00053558999 0.11547
-0.071405001 -0.00084987999 0.11589
-0.059587002 0.019284001 0.10306
-0.065355003 -0.03906 0.065015003
-0.040789999 -0.020633999 0.097747996
-0.034164999 -0.0095779998 0.075328998
-0.015217 0.00034331999 0.077400997
0.067543998 -0.0044339001 0.096717
-0.079356998 0.024205999 0.12614
0.097378001 0.014665 0.088701002
-0.069251999 0.031698 0.12005
-0.037464 0.039321002 0.081597999
-0.081781 0.026350999 0.13207
-0.075929999 0.030413 0.11842
-0.075997002 0.030137001 0.11713
0.093601003 0.0074562998 0.089318998
0.094424002 0.0067543001 0.087513
0.095014997 0.0073934002 0.088978
-0.041754998 0.012071 0.090506002
0.061774001 -0.039386999 0.069963999
-0.027197 -0.014538 0.067902997
-0.027837999 -0.01381 0.068236001
-0.026794 -0.014871 0.069274999
-0.083249003 0.028008001 0.12537
0.10088 0.028261 0.082295999
0.099413 0.029398 0.081827998
0.0079035005 -0.00021461 0.068471998
0.0068844999 0.00048245001 0.069154002
0.083396003 0.010243 0.090805002
-0.0086289002 0.0076025999 0.082523003
-0.064094998 0.030617001 0.10723
-0.029627001 0.0065510999 0.087291002
-0.03032 0.0073396 0.087324999
-0.027631 -0.027772 0.053638998
0.017866001 0.016871 0.086061999
-0.064476997 -0.034320001 0.063170001
0.048124 -0.031098999 0.071460001
0.048820999 -0.031603001 0.068604998
0.003908 -0.014176 0.070661999
0.052597001 -0.032272998 0.068664998
-0.056974001 -0.030999999 0.072723001
-0.076360002 -0.00082447001 0.12332
-0.076921001 -0.0021247 0.12342
-0.0046116998 -0.0088149002 0.068317004
-0.034933999 -0.02478 0.093686
-0.037480999 -0.019234 0.068943001
-0.037317999 -0.018985 0.070058003
0.061395001 -0.013704 0.076994002
-0.030461 -0.025186 0.071438998
0.096805997 0.027169 0.084233001
-0.071084999 -0.0016679 0.13337
-0.072044 -0.0025573999 0.13386001
-0.070339002 -0.0026819 0.13415
-0.040504999 -0.038236 0.057296
-0.041997999 0.031553999 0.086475998
-0.073990002 0.026146 0.12779
-0.060192998 0.0090762004 0.10227
-0.028029 -0.023178 0.054060001
-0.061078999 0.011546 0.12156
0.0046681999 -0.039464001 0.11134
0.0048528998 -0.039643001 0.11144
-0.037500001 -0.024688 0.070474997
-0.047968 0.032637998 0.097144999
0.0072519002 0.0099029001 0.075433001
0.0011023 -0.0027246 0.068100996
-0.048048999 -0.0027423 0.086484
-0.048960999 -0.0094205001 0.10772
0.062527999 -0.021326 0.070239998
0.062341999 -0.021051999 0.070924997
-0.017247999 -0.038458999 0.11198
-0.053546 -0.0026366999 0.11014
-0.053583 -0.0031906001 0.10926
-0.055190999 -0.030559 0.072584003
-0.044020999 0.044456001 0.11637
-0.064386003 0.001494 0.11088
-0.011463 -0.0136 0.069289997
-0.047952998 -0.01408 0.099311002
0.039777 -0.032664999 0.067501999
0.017478 0.011106 0.10234
-0.011357 0.0075423 0.082865998
0.022117 0.0072198999 0.076086
-0.069095001 -0.01086 0.12426
-0.037778001 0.037659999 0.081697002
-0.00027255999 0.015373 0.084703997
0.027061 0.018448001 0.095521003
-0.033227999 -0.0083814003 0.076227002
-0.034065001 -0.0090602003 0.076672003
0.086768001 0.0026648999 0.083857
-0.029486001 -0.0097033 0.074970998
-0.0017906 -0.012663 0.069899999
0.032586999 0.018874001 0.097066998
-0.038773 -0.037663002 0.1174
-0.037937999 -0.037958998 0.11725
-0.039142001 -0.038995001 0.1179
-0.049052998 0.032511 0.094081998
-0.027280999 0.0028005999 0.088133998
0.024344999 0.018296 0.093814999
0.0077706999 -0.0012513 0.068765
0.073025003 -0.0045055998 0.089163996
0.030877 -0.033553999 0.068094
-0.030536 -0.032177001 0.057863999
-0.032088999 -0.032867 0.058139
-0.041113999 -0.015519 0.082617
-0.041554 -0.015275 0.082294002
0.0049191001 -0.0013220001 0.068356
-0.016218999 -0.0025917999 0.076113001
-0.067281999 -0.034162998 0.072994001
-0.066780999 -0.034570001 0.073031999
-0.080068998 0.025372 0.13042
-0.065090001 -0.0010403 0.10934
-0.017333001 -0.012716 0.070390999
-0.05486 -0.031791002 0.073082
-0.053613 -0.03201 0.072348997
-0.064074002 -0.034233999 0.06346
-9.1166999e-05 -0.0080187004 0.068327002
-0.063346997 0.020200999 0.11531
-0.063194998 0.020264 0.11572
-0.062284 0.020047 0.11673
-0.05776 0.037446 0.10391
-0.059101999 0.029871 0.10305
-0.058341999 0.029689999 0.10138
0.038465001 -0.032260001 0.070151001
-0.068272002 0.00080495997 0.13166
-0.042819999 0.016806001 0.090075999
-0.057011001 -0.033229001 0.077767998
-0.059018001 0.0040016999 0.10938
0.014211 0.011577 0.098683
0.014885 0.011355 0.099269003
0.070483997 -0.037647001 0.073352002
0.070717998 -0.038987 0.072195001
0.05263 -0.038876999 0.068922997
-0.01149 0.00016782001 0.088973001
-0.06645 0.0042504999 0.12602
-0.067004003 0.0045908 0.12712
-0.026112 -0.014562 0.068937004
-0.025935 -0.016914001 0.068953998
-0.034536 -0.014191 0.058711998
0.089132003 0.025493 0.089295998
0.089837998 0.024222 0.089697003
0.089759998 0.024892 0.089896001
0.059018999 -0.014846 0.073129997
-0.031468999 0.0096487002 0.091987997
0.057927001 -0.039368998 0.069716997
0.032534 -0.03396 0.082128003
-0.052554 -0.0080570998 0.098812997
-0.033135999 -0.0067611001 0.079864003
-0.021880001 -0.010816 0.072376996
-0.021774 -0.010594 0.072339997
-0.029546 -0.037730001 0.13101
-0.060153998 0.026458999 0.12126
-0.061434001 0.026416 0.1226
0.032715999 -0.033278 0.078773998
-0.057425998 0.00026599001 0.10209
-0.057172999 0.0020204 0.1017
-0.033673 -0.012623 0.061999001
0.026512999 -0.037909999 0.064722002
-0.012585 -0.0077447998 0.070289001
-0.04707 0.032171998 0.099651001
-0.046725001 0.030879 0.10004
-0.015849 -0.014809 0.069477998
0.013314 0.011218 0.075499997
0.012071 0.010142 0.076389998
-0.076921001 0.038754001 0.12271
-0.061686002 0.031017 0.10537
0.044613998 -0.034260001 0.067400001
0.0025406999 -0.040323999 0.11282
0.0030964001 -0.039772 0.11176
0.0022294 -0.040008999 0.1131
-0.038440999 -0.038814001 0.060523
0.053539999 -0.029503001 0.096383996
-0.053135 0.036403999 0.11896
-0.081115998 0.030751999 0.12091
-0.070591003 0.028798001 0.11905
-0.083991997 -0.0023618999 0.12812001
-0.039032999 -0.010751 0.079434
0.062514 -0.038968001 0.069504
-0.064940996 0.03277 0.10909
-0.031093 -0.01263 0.060548998
0.060114 -0.020271 0.071082003
0.051628001 -0.036522001 0.068118997
0.027721999 -0.03864 0.066607997
-0.077767998 0.023304 0.13857999
-0.020545 0.039212 0.10777
-0.021413 0.039895002 0.10805
-0.020834999 0.040229 0.10861
-0.068545997 0.026807999 0.11236
-0.068701997 0.026312999 0.11205
-0.060817 0.01514 0.12093
0.080750003 -0.0026980999 0.095604002
-0.075162001 0.025764 0.1153
0.078712001 0.010459 0.091426998
-0.065480001 0.025403 0.11297
-0.044569001 0.0063882 0.090026997
-0.045145001 0.0074564 0.090874001
-0.033165 -0.021175001 0.055526
0.0067650001 -0.0011007 0.068420999
-0.075556003 0.037648 0.12106
-0.033573002 -0.0065596998 0.080109999
-0.054574002 0.036021002 0.11978
-0.001823 0.012451 0.082000002
-0.032577001 -0.024574 0.071064003
-0.041097 -0.0021091001 0.086654998
-0.046278998 -0.01578 0.099045001
0.055419002 -0.027778 0.092087999
-0.032747 -0.00096663 0.085077003
-0.076842003 0.02798 0.11742
-0.0032571 -0.016925 0.069205999
-0.071608 0.038198002 0.11756
-0.02636 -0.027749 0.085077003
-0.05895 0.02533 0.10255
-0.037094999 -0.035698999 0.11948
-0.054102 0.0030976001 0.095307
-0.069698997 -0.037866 0.054556999
-0.036603 0.0054327999 0.090580001
-0.060784001 0.026061 0.1063
-0.043364 -0.0396 0.058784001
0.028341999 -0.034400001 0.083163999
-0.034965001 0.030864 0.10857
-0.046252999 0.016915999 0.093047999
0.049456 -0.019890999 0.085354999
0.058405001 -0.028576 0.081952997
-0.075960003 0.026645999 0.13698
-0.075993001 0.026415 0.13627
0.086424001 -0.0070332 0.083717003
-0.018044 -0.038543999 0.1124
-0.016759001 -0.039028 0.11247
0.085353002 -0.011469 0.084715001
0.085377 -0.012027 0.085170001
-0.074226998 -0.0024910001 0.12938
0.082493998 0.0091621997 0.089602999
-0.066367 0.0083729001 0.11847
-0.023383001 0.037319999 0.10749
-0.033528998 0.0020028001 0.088090003
-0.038012002 0.016906001 0.092225
-0.035232 -0.026038 0.064443
-0.033994 -0.027070001 0.063137002
-0.016843 0.00054559001 0.078369997
0.079429999 0.001219 0.084987
0.050675999 -0.017255999 0.086428002
0.067483999 -0.010463 0.092175998
-0.050519999 0.028743999 0.089552999
-0.078403004 0.035347 0.12036
-0.050744999 -0.0031991 0.11343
-0.051890999 -0.0023493001 0.1134
-0.028139001 -0.019507 0.059424002
0.0092136003 0.016386 0.083535001
-0.045428 0.027265999 0.096295998
-0.045568999 0.027206 0.098160997
-0.065934002 -0.034701999 0.073104002
-0.035002999 -0.037576001 0.056347001
-0.077068001 -0.001734 0.12219
-0.063876003 0.028114 0.11527
0.037144002 -0.030757001 0.071515001
0.038603999 -0.031208999 0.072903998
-0.061338 0.039496001 0.1261
0.063245997 -0.036947001 0.071454003
0.021787999 0.018291 0.093846999
0.022318 0.01664 0.094403997
0.022617999 0.018818 0.094205998
-0.0017579 0.0098684002 0.079612002
-0.052127998 -0.031823002 0.071258999
0.099776 0.025266999 0.085658997
0.098626003 0.024499999 0.086067997
0.053548001 -0.027795 0.093859002
-0.066071004 0.02369 0.11237
-0.038052 -0.013487 0.077427
-0.032538 -0.020646 0.056977998
-0.066650003 0.034474 0.11868
0.039303001 -0.031649001 0.070818998
0.064709999 -0.021429 0.071381003
0.063505001 -0.021499 0.070478
-0.049770001 0.032896999 0.10361
-0.051771 0.032579001 0.10276
-0.065289997 -0.0028931999 0.1087
-0.069309004 0.022995999 0.11035
-0.071263 0.021116 0.11801
0.079126 0.01239 0.092733003
-0.047527 0.036880001 0.1199
-0.033202 -0.0056933002 0.081155002
0.054678001 -0.025452999 0.077395
0.07846 -0.00030155 0.085836999
-0.065677002 -0.039356999 0.05494
-0.065158002 -0.038268998 0.053959999
-0.070625 0.0076493002 0.12342
0.049966998 -0.020908 0.086684003
0.049800999 -0.021511 0.087434001
-0.038123999 -0.0017509999 0.084654003
-0.065004997 0.0057986001 0.12402
-0.066872999 -0.039624002 0.056136999
0.0027834999 0.0076855002 0.074689999
-0.06752 0.033344999 0.10968
-0.047883 -0.012751 0.089111999
-0.047426 -0.012457 0.089835003
0.10705 0.026489001 0.076563999
-0.035379998 -0.040440001 0.12534
-0.045775998 0.023943 0.085111
0.086268999 0.011879 0.091797002
-0.066303 0.02311 0.10974
0.066151001 -0.013311 0.090219997
-0.069995001 0.034490999 0.11128
-0.0363 0.029990001 0.10874
-0.037365001 -0.023735 0.059827
0.095831998 0.028509 0.087807
0.096121997 0.029402001 0.087261997
0.058347002 -0.040341999 0.070137002
-0.0042593 0.0028625 0.072108999
-0.030343 -0.0010913 0.084760003
0.0083488002 -0.038883001 0.11279
0.054508001 -0.027787 0.091508001
-0.046507999 0.035250999 0.091059998
-0.045960002 0.033737 0.092598997
-0.034380998 -0.025834 0.067459002
-0.028318999 -0.026745001 0.080200002
-0.072123997 -0.0024546999 0.13263001
-0.054000001 -0.035409 0.057094999
0.066311002 -0.0066477 0.096525997
0.064617999 -0.0065226001 0.096832
-0.018467 -0.0027705999 0.074702002
0.011041 0.011296 0.097253002
-0.068070002 0.0029819999 0.11228
-0.069118001 0.0047189998 0.11273
-0.070421003 -0.0020321 0.13259999
-0.033291999 -0.038010001 0.13162
-0.037193999 -0.024536001 0.065341003
0.040986001 -0.031709999 0.070271
-0.061627999 0.031879 0.11874
-0.065362997 -0.0034574999 0.12324
0.025521001 -0.036614999 0.069633998
0.10103 0.040210001 0.078429997
0.10233 0.041499998 0.078474998
-0.038309 -0.026621999 0.062024001
-0.030832 -0.0188 0.061179001
-0.072276004 -0.0011234001 0.12309
-0.033250999 -0.037921 0.13239001
-0.082791001 0.028827 0.12416
-0.030921999 0.0018762 0.088592999
-0.031332001 0.0027868 0.089001
-0.010677 0.0076577002 0.087990001
0.024290999 0.0041493 0.077114001
0.025717 0.0028508999 0.076018997
-0.027987 -0.032352999 0.12026
-0.047072001 0.016127 0.092904001
0.084492996 5.033e-06 0.082854003
-0.02073 -0.0080759004 0.074121997
-0.062647 0.027899001 0.12193
0.077817999 0.0097923996 0.094950996
-0.045017999 0.0079968004 0.091353998
-0.043942999 0.024119999 0.097115003
0.018507 0.0080910996 0.074885003
0.0094352001 0.0094001004 0.073239997
-0.063964002 -8.4380998e-05 0.11829
-0.067442 0.035847001 0.11732
-0.067869 0.036447 0.11814
-0.045929998 0.035813 0.10422
-0.070970997 0.0021516001 0.11527
0.079240002 -0.00050681003 0.085381001
-0.043662999 0.032788001 0.081626996
-0.023657 -0.0075208 0.075529002
-0.063432999 -0.034049999 0.065197997
-0.029862 -0.024884 0.079281002
-0.028512999 -0.025568999 0.079686001
-0.064735003 0.027198 0.11223
0.063986003 -0.016284 0.075290002
-0.038626999 -0.016443999 0.071892999
-0.073146001 0.0073903999 0.12478
-0.042325001 -0.016925 0.085717
-0.045366999 0.012215 0.093957998
0.033519 -0.034313999 0.065004997
0.090167999 0.00018444999 0.085786
0.092191003 0.033891 0.083002001
-0.044824 -0.03142 0.058726002
0.0061237002 0.011736 0.091611996
-0.072103001 0.037988 0.11224
-0.024669999 -0.035905 0.13077
0.056818999 -0.027092 0.068626001
0.10046 0.035592999 0.081559002
-0.038222998 0.017818 0.093290001
-0.045591 0.028748 0.084461004
-0.081430003 0.030835001 0.12378
-0.081850998 0.030522 0.12215
-0.025711 0.045699999 0.10901
0.076917998 -0.0015586 0.087722003
-0.030990001 -0.012058 0.063781001
-0.041170999 -0.0078099999 0.083300002
-0.040364001 -0.0095491996 0.082745999
-0.043607 -0.029244 0.063766003
-0.046576001 0.026985001 0.098512001
-0.046089999 0.02699 0.099602997
0.015713001 0.0055062999 0.10452
0.016503001 0.0053351 0.10561
0.055458002 -0.025274999 0.071562
0.055670999 -0.024025001 0.070363998
-0.057523001 0.039324999 0.10041
-0.039540999 0.00055295997 0.086841002
0.035797 -0.033698998 0.066794001
0.11106 0.028902 0.077347003
0.11171 0.02813 0.077113003
-0.054242998 0.00023672001 0.11212
0.091701001 0.0058148 0.091113001
0.090095997 0.0066435998 0.091025002
0.020649999 0.01087 0.10388
0.021134 0.010639 0.10352
0.0078542996 0.014166 0.089244999
-0.064671002 -0.035454001 0.066468999
-0.044362999 -0.010706 0.086094998
-0.0057297 0.0096129999 0.086746
0.099425003 0.04682 0.078189999
-0.037225001 -0.039923001 0.058688998
-0.038428001 -0.038265999 0.11938
-0.083765 0.024123 0.12730999
0.057918001 -0.028998001 0.092051998
0.064139999 -0.020121001 0.074010998
0.064838 -0.019688001 0.073311999
-0.036887001 -0.021540999 0.059870001
-0.064029001 0.039414998 0.11821
0.066619001 -0.039788999 0.071066998
0.067209996 -0.039407998 0.070217997
0.0682 -0.039987002 0.070104003
0.012116 -0.0070882002 0.070189998
0.013098 -0.0055391002 0.071760997
-0.061749 0.0092241997 0.10612
-0.069871001 0.036336999 0.11504
0.080637999 -0.003698 0.095348001
0.031599 -0.033672001 0.075767003
-0.046936002 0.028259 0.098419003
-0.046030998 0.027837001 0.097230002
0.078737997 0.0034872 0.094708003
-0.042498 0.024008 0.092385001
-0.043221999 0.022449 0.093087003
-0.027350999 -0.032304998 0.118
-0.027302001 -0.032012001 0.11803
-0.083437003 0.024933999 0.12368
-0.065210998 -0.039347 0.062125999
-0.062052 0.040530998 0.12455
0.059966002 -0.013998 0.069311
-0.075158 -0.0021223 0.13697
-0.073827997 -0.0024965999 0.13579001
-0.045065999 0.030440999 0.086810999
-0.037794001 -0.024188001 0.070111997
-0.038922999 -0.015602 0.081069
-0.022160999 -0.0037924999 0.079985999
-0.051918998 0.0017933 0.092854001
0.056906 -0.015802 0.078373
-0.0065243002 0.0083926003 0.081743002
-0.032118 0.0049983002 0.089178003
-0.0040405001 0.0010543 0.071612999
-0.044950999 -0.017662 0.090659998
-0.044438999 -0.018424001 0.091279
-0.047715999 0.011317 0.090057001
-0.048822999 0.039500002 0.11993
-0.043026 -0.019091001 0.090869002
0.026605001 -0.035365 0.081202
0.025774 -0.034529999 0.082865998
-0.0089431005 -0.03692 0.11103
-0.037184 -0.01974 0.068043001
-0.064479999 0.025446 0.1113
0.067985997 -0.036805999 0.072838999
-0.00090406003 -4.1059e-05 0.069798999
-0.023739999 -0.035091002 0.13168
0.047346 -0.030432999 0.074532002
0.0082262 0.01064 0.094692998
0.0086692004 0.0093956999 0.095452003
0.054912999 -0.01207 0.090400003
0.056278002 -0.012343 0.091619
0.090529002 -0.0029333001 0.088679001
0.092582002 0.020071 0.090543002
0.095236003 0.016156999 0.082364
0.096242003 0.015798001 0.08179
-0.029860999 -0.037138999 0.056743
-0.073624998 -0.008405 0.12501
-0.073293999 -0.0085744001 0.12594999
-0.059664 0.029146999 0.11795
-0.059002999 0.030404 0.11754
-0.060058001 0.029987 0.11838
0.029259 0.017804001 0.093906
0.060727999 -0.017447 0.085580997
0.061278999 -0.018087 0.086225003
0.085998997 0.037487 0.088887997
-0.020445 -0.0030034999 0.078961998
0.021199999 0.014 0.082013004
-0.030565999 0.0038201001 0.088151
0.057976 -0.014283 0.086860999
-0.031619001 -0.038881 0.054892998
0.0026252 0.0027417999 0.069927
0.0027268999 0.0027407999 0.070605002
0.018298 0.012971 0.079747997
-0.057626002 -0.032239001 0.064085998
-0.082105003 0.027040999 0.12069
0.029000999 -0.034575999 0.078745998
0.052820999 -0.014888 0.089493997
-0.046422001 0.032000002 0.092185996
0.086609997 0.035890002 0.090885997
-0.064548001 0.015998 0.12054
-0.027937001 0.0065792999 0.089714997
-0.032317001 -0.029735001 0.054320998
-0.053275999 -0.036582999 0.057255
0.015254 0.013742 0.080054
0.015217 0.014419 0.080747999
0.096516997 0.023249 0.081473
0.029805001 -0.033743002 0.075343996
-0.0066240998 -0.011242 0.068604998
-0.013629 -0.009052 0.070678003
-0.052568998 -0.033576999 0.057967
-0.016760999 -0.0055299001 0.073192999
-0.069876 0.022942999 0.11069
-0.055943999 -0.031773001 0.062623002
0.053601 -0.027744999 0.092637002
-0.040437002 0.041939002 0.079112999
-0.053691 -0.0052670999 0.10172
-0.032313999 0.0022777 0.089074001
-0.045607001 -0.010819 0.087829001
-0.074396998 0.0053262999 0.12442
-0.071748003 -0.038472001 0.055842999
0.061322 -0.015634 0.079884
0.062247001 -0.016037 0.079919003
-0.051831 0.00023218 0.092499003
-0.060449 0.0036754999 0.11134
-0.01486 -0.0013248 0.075170003
-0.013035 -0.00092646002 0.074391
-0.029513 -0.034159999 0.11673
0.035202 -0.031168001 0.077643998
-0.018337 -0.029818 0.11767
-0.052269999 -0.029534999 0.06594
0.094099998 0.028701 0.081032
-0.035629001 -0.029974001 0.055447001
-0.028750001 -0.014289 0.066967003
-0.062380999 0.031186 0.11469
-0.055445999 0.0018227 0.096680999
0.092157997 0.024898 0.090042002
0.092294998 0.023910999 0.090066001
0.092876002 0.022499001 0.089878999
-0.07057 0.039170999 0.11556
-0.0337 -0.013093 0.061537001
-0.033727001 0.0047105001 0.091317996
-0.078047 0.030931 0.11899
-0.041308001 -0.013332 0.081486002
-0.073822998 0.0018642 0.11786
0.058472998 -0.013227 0.074864
-0.0018606 -0.039322998 0.11259
-0.068467997 0.015242 0.11879
-0.028545 -0.038139999 0.11635
-0.045692999 -0.0074764998 0.086172
-0.045800999 -0.0053543001 0.086026996
-0.044415001 -0.0067558 0.085995004
-0.059905998 -0.039324 0.058696002
-0.021218 -0.0089681 0.073446997
0.059312001 -0.011817 0.073821001
-0.062320001 0.015245 0.12079
-0.084172003 0.024515999 0.12759
0.046108 -0.030777 0.072884001
-0.067566998 0.02117 0.11683
-0.067521997 0.022355 0.11705
-0.068839997 0.021855 0.11729
-0.046611 -0.012289 0.10893
-0.031642001 -0.035055999 0.12188
0.0059851999 0.010935 0.091732003
-0.075842999 0.038795002 0.12009
-0.058075 0.0023363 0.10295
0.077634998 -0.0046856999 0.096505001
-0.0071461 -0.013341 0.069357
-0.075129002 -0.0033727 0.11981
0.025207 0.018095 0.094930999
0.09471 0.0086816 0.089478999
-0.048741002 -0.0068738 0.089552
-0.067982003 0.012149 0.12334
-0.024249 -0.0091442 0.074726999
0.052657999 -0.013857 0.090435997
-0.033971999 -0.014992 0.060371
-0.065614 -0.039445002 0.054965999
0.050859001 -0.032770999 0.068265997
-0.068106003 0.0065596998 0.11818
0.059795 -0.012889 0.078424998
-0.050452001 -0.032520998 0.057969
-0.049458001 -0.033670999 0.057875998
-0.048799999 -0.032423001 0.057530001
0.0067985998 -0.010969 0.070437998
0.0078014 -0.010796 0.070896
0.0074028 -0.012618 0.071929999
-0.018384 0.0019725999 0.087059997
0.099411003 0.020269001 0.080332004
0.11209 0.028759001 0.076644003
-0.044194002 0.0025949001 0.089771003
-0.044803999 -0.0081976997 0.086782001
0.084679998 0.0018201 0.094374001
0.085787997 0.001681 0.094103001
-0.050648 0.0010155 0.089901999
-0.080358997 -0.0058772 0.1267
-0.080991998 0.032655999 0.12478
-0.080464996 0.032866001 0.12599
-0.034914002 -0.021190999 0.059402999
-0.067385003 0.001638 0.12622
0.019811001 0.0057798 0.074198
-0.065355003 -0.0034340001 0.11158
-0.080320001 0.032646 0.12312
-0.056908999 -0.031953 0.061597001
0.024579 0.018958 0.092214003
-0.060577001 0.021695999 0.10581
-0.069773003 0.026521999 0.11612
-0.067286998 -8.5574e-05 0.11077
-0.012367 0.00048754 0.07581
0.050523002 -0.024683001 0.087242998
0.050411001 -0.024851 0.087935001
0.067337997 -0.013689 0.08918
0.014153 -0.00060027 0.070807002
-0.0095884996 0.0046611 0.079122998
0.060139 -0.01235 0.078244999
0.084968001 0.0054074 0.092147999
0.087820001 0.010154 0.084232002
0.088430002 0.01124 0.083825998
-0.019859999 -0.033068001 0.12846
0.062236998 -0.025676001 0.070122004
0.062702999 -0.014441 0.073523
-0.074524999 -0.0019513 0.12525
-0.074840002 -0.00040369001 0.12397
-0.076435 0.039834 0.1229
0.097407997 0.037523001 0.080770999
-0.066547997 0.013883 0.1139
-0.068861999 0.0035248999 0.12366
-0.050969001 0.026726 0.091080002
-0.029333999 -0.026334999 0.081109002
0.025226001 0.017804001 0.091054
-0.032279 -0.033149999 0.058396999
-0.0082612 0.010386 0.086758003
-0.052722 -0.0037905001 0.10939
-0.011663 0.014648 0.085883997
-0.0029821999 0.0075368001 0.076072998
0.060387 -0.017919 0.073100999
0.061147001 -0.018887 0.073535003
-0.072469003 0.025904 0.12604
-0.040697001 -0.035967 0.057298999
0.10133 0.037285 0.081125997
-0.050882999 0.0039434 0.087715
0.087284997 0.0068199001 0.084347002
0.097704001 0.029395999 0.082612999
-0.066563003 0.024289999 0.10984
-0.048106998 0.013624 0.096438996
-0.04778 0.013571 0.095504999
-0.062652998 0.018787 0.11593
-0.063427001 0.019340999 0.11461
0.10835 0.02936 0.078373998
0.0072772 0.010392 0.093608998
-0.033624999 0.01057 0.088968001
-0.033606 0.011165 0.089157
-0.032017 0.0033420001 0.090484001
-0.028472999 -0.037048001 0.057209998
0.039914999 -0.031167001 0.075534999
0.014233 0.014346 0.081055
-0.058277 0.0093352003 0.099968001
-0.022863001 -0.036478002 0.114
0.013845 0.0032486001 0.071355999
0.014721 0.0038258 0.072200999
0.0053944001 -0.040449999 0.11257
-0.042532999 0.025407 0.093351997
-0.042500999 0.024086 0.093883
-0.041742001 0.024929 0.091994002
-0.041526001 0.023294 0.089780003
-0.046716001 -0.031013999 0.068838999
-0.044987999 -0.030943001 0.067502998
0.019206 0.013821 0.081777997
0.017718 0.01406 0.081331998
-0.069939002 0.026089 0.11164
0.083183996 0.036617 0.090630002
-0.036405999 -0.023767 0.097511001
-0.036807999 -0.022918999 0.097497001
0.083751 -0.0055485 0.082562
-0.0089319004 0.011465 0.087324999
-0.062546998 -0.036435999 0.061815001
0.062595002 -0.021540999 0.070740998
-0.055619001 -0.0039583002 0.10373
0.082135998 0.012636 0.090942003
-0.075791001 -0.00063124998 0.12245
-0.065536 0.022024 0.1161
-0.064278997 0.02083 0.11497
-0.063575 0.021349 0.11609
-0.048296999 -0.010134 0.092563003
0.099655002 0.046085 0.076505996
-0.065789998 0.034430001 0.11904
-0.06521 0.034543999 0.11929
-0.066845 0.033969 0.12049
0.0062626 0.012093 0.091764003
-0.043674 -0.0042917002 0.085872002
-0.066143997 0.0047339001 0.11058
-0.068602003 0.0098086996 0.11898
0.084361002 0.038904998 0.090584002
-0.062714003 0.030972 0.11157
-0.044039998 0.010892 0.087833002
0.079282001 0.0087588998 0.091296002
0.033666 -0.031847 0.077232003
-0.062283002 -0.032783002 0.063818
0.088164002 0.028887 0.090496004
-0.071689002 -0.0088369995 0.12497
0.015969999 0.013881 0.095896997
0.079268001 0.0051024999 0.093823999
-0.066945001 0.0097251004 0.12298
0.052586999 -0.030949 0.068566002
-0.058141999 0.035845 0.10287
-0.056650002 0.022067999 0.10004
-0.064352997 0.03613 0.11729
-0.065139003 0.035025001 0.11813
-0.06481 0.035679001 0.11733
-0.050767999 -0.0087526999 0.1066
0.013625 0.018159 0.085887998
0.027083 -0.035346001 0.079291001
-0.038307998 0.029356999 0.082915001
-0.057080001 0.033209 0.1032
-0.043728001 0.0092348 0.091186002
0.039384998 0.020166 0.10444
-0.030990001 0.0035041 0.090057001
-0.037579 -0.037985999 0.12714
-0.046154998 0.029585 0.10137
-0.047743998 -0.0081363004 0.090434
-0.045811001 -0.016883999 0.097483002
-0.064501002 -0.0038868 0.12351
-0.063908003 -0.0033746001 0.12389
0.097691 0.021663999 0.080964997
-0.045446999 0.017449999 0.089910001
0.038222 -0.034265999 0.065802999
-0.024421001 0.040282 0.10865
-0.049226001 0.033861998 0.094664
-0.031047 -0.011398 0.054593999
-0.076521002 0.034368001 0.13016
-0.055119999 -0.028716 0.068767004
-0.029385 -0.030694 0.055241998
0.081482001 0.011228 0.086177997
0.017177001 0.010253 0.10246
-0.056164999 -0.03026 0.072842002
0.032535002 -0.033349998 0.068879001
0.098435 0.028001999 0.081417002
0.097983003 0.028384 0.082474999
-0.052963998 0.028495001 0.097607002
0.0075349002 0.0013967 0.070531003
0.0084705995 0.0011181 0.069700003
-0.060798999 0.0017169 0.10128
-0.080591999 -0.0032102 0.1286
0.069156997 -0.0053337999 0.094723001
-0.036945 -0.035186 0.056531001
0.016566001 0.0066872998 0.073186003
-0.01857 -0.0069014002 0.073674001
-0.054306 0.0062746 0.093787998
0.018541001 -0.00069582998 0.071661003
0.017836001 4.7464e-05 0.072006002
-0.042544998 -0.0081030997 0.084707998
-0.054375 0.016874 0.096381001
-0.063878 -0.0025754001 0.11159
-0.045745999 0.022229001 0.088399
-0.027512999 -0.023719 0.054917
0.049240999 -0.021026 0.088459
-0.065678999 0.036047 0.11013
0.068855003 -0.0044872002 0.099264003
-0.034155998 -0.035346001 0.062591001
-0.034081999 -0.035207 0.061832
-0.033112001 -0.034504 0.061627001
-0.070655003 0.0035089999 0.12567
-0.034637 -0.022094 0.081265002
-0.044094998 -0.033553001 0.057904001
-0.056306999 0.021484001 0.099843003
-0.033937 -0.037386 0.061879002
-0.063240997 0.0015357001 0.11495
-0.063523002 0.0012734 0.11587
0.081929997 0.040220998 0.088919997
0.0011017 -0.039292999 0.11149
-0.024444001 0.043464001 0.11058
-0.031955998 -0.024902999 0.082399003
0.066845 -0.01403 0.087245002
-0.013092 0.00051422999 0.075744003
-0.049830999 0.0091995997 0.088812999
0.018309999 0.0036786001 0.073574997
-0.043652002 -0.036625002 0.057659999
-0.070445001 -0.0053341999 0.11675
-0.034536999 -0.034226999 0.11789
-0.010641 0.0019063 0.074960001
0.048199002 -0.029983999 0.0744
0.047929 -0.030864 0.075856999
-0.077356003 -0.0013909 0.1226
0.067281999 -0.0094422 0.093218997
-0.074454002 -0.0020755001 0.11847
-0.08501 0.020846 0.12725
-0.039569002 -0.01344 0.080360003
-0.065961003 0.017449001 0.11412
-0.023869 -0.031580999 0.12312
0.053263001 -0.018054999 0.081506997
-0.067930996 0.030565999 0.11846
0.036796 -0.030982001 0.07429
-0.073864996 0.0014806 0.12208
0.017374 0.0043207998 0.073501997
-0.019359 -0.0090939002 0.072512999
