# .PCD v0.7 - Point Cloud Data file format
VERSION 0.7
FIELDS x y z
SIZE 4 4 4
TYPE F F F
COUNT 1 1 1
WIDTH 1682
HEIGHT 1
VIEWPOINT 0 0 0 1 0 0 0
POINTS 1682
DATA ascii
0.17211001 0.22652 0.27217999
0.17140999 0.22495 0.27193999
0.18358999 0.074772999 0.30329999
0.18559 0.074334003 0.30368999
0.18486001 0.074504003 0.30313
0.16854 0.20429 0.27722001
0.16912 0.20589 0.2782
0.17817999 0.17189001 0.27551001
0.1789 0.17193 0.27570999
0.20344 0.053443 0.31852001
0.17544 0.16143 0.27358001
0.17487 0.1601 0.27484
0.16625001 0.21872 0.27513
0.16956 0.21619999 0.28264001
0.16824999 0.18356 0.27129999
0.17893 0.10432 0.27875
0.14459001 0.063902996 0.27175999
0.12446 0.058141001 0.24401
0.14721 0.14925 0.25863999
0.14929999 0.052827001 0.28799999
0.17656 0.057604 0.29730999
0.1462 0.053948998 0.28589001
0.13362999 0.066249996 0.26032001
0.16876 0.19933 0.27282
0.16944 0.19995999 0.27289999
0.19909 0.06814 0.30581999
0.16235 0.22831 0.26508
0.16289 0.22795001 0.26629999
0.16312 0.22857 0.26730001
0.17297 0.1789 0.27987
0.12128 0.050361 0.24013001
0.12488 0.059668999 0.25573999
0.12548 0.059356 0.25545999
0.12423 0.059287999 0.25398001
0.14708 0.088288002 0.24969
0.16191 0.16043 0.26565999
0.15298 0.077031001 0.26888001
0.15346 0.077055 0.26973999
0.15298 0.077564999 0.26978001
0.18951 0.11369 0.27364001
0.19051 0.11323 0.27167001
0.18916 0.1138 0.27318001
0.1621 0.18678001 0.26614001
0.15081 0.057138 0.28303
0.1595 0.22819 0.26143
0.1789 0.071702003 0.29988
0.18430001 0.079875 0.30840999
0.17718001 0.066734999 0.30506
0.1742 0.22086 0.28167999
0.17288999 0.22055 0.28180999
0.18072 0.052305002 0.32030001
0.152 0.18365 0.25819999
0.15948001 0.23462 0.25951999
0.16006 0.23377 0.25949001
0.15942 0.23502 0.25953001
0.16029 0.1983 0.25055
0.15921 0.19742 0.24977
0.16168 0.16742 0.25733
0.17686 0.15894 0.28213999
0.17408 0.15869001 0.28273001
0.1313 0.081672996 0.24744
0.16788 0.20568 0.27325001
0.16371 0.22641 0.25136
0.16287 0.22547001 0.25040999
0.16250999 0.15989999 0.27239001
0.18894 0.13023999 0.27353999
0.18866999 0.12928 0.27408999
0.1604 0.17269 0.25645
0.17715999 0.082168996 0.30669999
0.15207 0.20835 0.25729001
0.17906 0.14859 0.28784999
0.17804 0.14872999 0.28838
0.15951 0.11247 0.26124001
0.15924001 0.11319 0.26137
0.16256 0.13905001 0.27608001
0.16384 0.17346001 0.26982999
0.16531 0.084638998 0.2775
0.16402 0.085104004 0.27717999
0.15854 0.10816 0.24800999
0.15825 0.10946 0.24997
0.15809 0.11025 0.25040999
0.17218 0.077079996 0.29844001
0.16331001 0.071217999 0.28713
0.17633 0.10286 0.27952999
0.16032 0.22256 0.26567
0.16189 0.22139999 0.26620999
0.16029 0.22102 0.26761001
0.16203 0.21963 0.26339999
0.16345 0.098939002 0.24908
0.16237 0.10006 0.24992999
0.16306999 0.099489003 0.24901
0.17078 0.23977 0.28257999
0.16133 0.1139 0.25321001
0.15786 0.19521999 0.26929
0.15473001 0.098165996 0.26025
0.15492 0.097351998 0.26023
0.15516999 0.098238997 0.26069999
0.15829 0.084509 0.27144
0.15782 0.085844003 0.27206001
0.17185 0.24642999 0.27406999
0.15194 0.12122 0.25922
0.15137 0.12192 0.25940001
0.17359 0.14097001 0.28646001
0.1452 0.086928003 0.25687999
0.12071 0.052421 0.24739
0.17998999 0.072379 0.30263001
0.18345 0.071824998 0.30630001
0.18398 0.072187997 0.30667999
0.18381999 0.071272999 0.30574
0.16286001 0.22392 0.27204999
0.16461 0.20923001 0.27645999
0.16437 0.20985 0.27678999
0.17609 0.11829 0.27061
0.15312999 0.2207 0.26075
0.18092 0.12861 0.28505
0.18188 0.12777001 0.28496999
0.15606 0.095845997 0.26793
0.16602001 0.16367 0.27405
0.13043 0.069187999 0.25202
0.16602001 0.23329 0.26964
0.16718 0.23298 0.27004001
0.15829 0.099684 0.25095001
0.15369999 0.23447999 0.25606
0.15363 0.23278999 0.25736001
0.13829 0.059183002 0.26043999
0.13767 0.058417 0.25971001
0.15138 0.075085998 0.26762
0.17660999 0.22468001 0.27636001
0.17531 0.22643 0.27616
0.12422 0.058065001 0.24344
0.12287 0.057459999 0.24368
0.14571001 0.14487 0.25827
0.14629 0.14480001 0.25909999
0.17412999 0.14798 0.28654
0.15358 0.2235 0.25955999
0.15501 0.22385 0.26021999
0.1514 0.080473997 0.26747
0.15006 0.081018001 0.26668999
0.16189 0.17407 0.26346999
0.1813 0.078745 0.30952001
0.15602 0.23316 0.26352
0.15642001 0.23212001 0.2631
0.18818 0.056014001 0.31979001
0.15804 0.24415 0.25249001
0.15615 0.13911 0.26396999
0.15702 0.14002 0.26499999
0.18466 0.11302 0.27913001
0.18455 0.11092 0.27950999
0.18595 0.11224 0.27860999
0.17037 0.090994999 0.28075001
0.16986001 0.18697 0.27948001
0.16937999 0.18662 0.27822
0.14879 0.086579002 0.26620999
0.15995 0.065090001 0.28918999
0.15959001 0.065825 0.28935999
0.1934 0.062178001 0.30805999
0.16590001 0.22411001 0.26991001
0.16507 0.2247 0.26864001
0.16098 0.23339 0.26493001
0.15986 0.17722 0.26276001
0.16049001 0.17727 0.26317999
0.15736 0.17639001 0.26304999
0.16509999 0.11758 0.26736999
0.16683 0.11688 0.26725999
0.15169001 0.065366998 0.27957001
0.16777 0.12924001 0.26844001
0.16423 0.12212 0.26765001
0.15673999 0.092808999 0.25393
0.17422999 0.10304 0.27996001
0.17323001 0.10189 0.27922001
0.15727 0.15894 0.26256999
0.1567 0.15919 0.26148999
0.16441999 0.17545 0.26538
0.15013 0.12666 0.26142001
0.19712999 0.062072001 0.30954999
0.16257 0.10414 0.27371001
0.16087 0.10382 0.27331001
0.16071001 0.11367 0.25191
0.20231 0.058998 0.31428999
0.20255999 0.059401002 0.31356001
0.12101 0.055608999 0.24146999
0.1212 0.055332001 0.24087
0.17057 0.17840999 0.27279001
0.12305 0.054880001 0.26124999
0.12214 0.055121999 0.26135001
0.12813 0.067106999 0.26050001
0.17297 0.13985001 0.27897
0.17162 0.14049 0.27987999
0.17125 0.080697998 0.29734999
0.1716 0.077008002 0.29767001
0.13099 0.075304002 0.26234001
0.15927 0.11198 0.2482
0.16602001 0.16516 0.26989999
0.16041 0.19797 0.26949
0.16423 0.16864 0.26526999
0.13744 0.073802002 0.24555001
0.16391 0.23401999 0.26730999
0.15848 0.14724 0.27147001
0.15567 0.24637 0.25547001
0.15696999 0.24562 0.25669
0.16502 0.095376998 0.24587999
0.1628 0.095592 0.24508999
0.16141 0.22722 0.26620999
0.16186 0.22627001 0.26675001
0.16245 0.1561 0.27901
0.16599 0.14623 0.27667999
0.16404 0.14703999 0.27645999
0.17489 0.24597 0.25909999
0.15423 0.090216003 0.26118001
0.15587001 0.089183003 0.26122999
0.15499 0.089680001 0.26230001
0.19487 0.059075002 0.31582999
0.1732 0.24437 0.28152999
0.15531 0.20732 0.26576999
0.16361 0.164 0.26778999
0.16749001 0.19293 0.27961999
0.15813001 0.1055 0.25685999
0.15633 0.069697998 0.27634999
0.15565 0.069188997 0.27697
0.13598 0.065789998 0.24175
0.16276 0.14001 0.27386001
0.16766 0.10364 0.24343
0.16857 0.10402 0.24348
0.16969 0.10357 0.24323
0.17955001 0.062890001 0.30026001
0.17151 0.079828002 0.29793999
0.17117 0.079676002 0.29747
0.18008 0.15832999 0.27750999
0.18095 0.15786 0.27689001
0.16585 0.19142 0.27430999
0.1276 0.058587998 0.24045999
0.12713 0.058217999 0.241
0.17158 0.11326 0.28066999
0.16627 0.22755 0.27107999
0.15774 0.19929001 0.25099999
0.14230999 0.062867999 0.24636
0.14961 0.051440001 0.29139
0.14898001 0.052744001 0.29028001
0.16526 0.15609001 0.27961001
0.16655 0.15486 0.27922001
0.16846 0.17163 0.27111
0.16772 0.17291 0.2714
0.13555001 0.056589 0.26172
0.18260001 0.13435 0.28802001
0.14619 0.14146 0.25881001
0.17746 0.082666002 0.30662
0.18209 0.11362 0.28095001
0.14403 0.058272999 0.26199999
0.16136 0.092542 0.27063999
0.15511 0.191 0.26416999
0.16080999 0.23138 0.25393
0.15995 0.14565 0.26887
0.17873999 0.071318999 0.3046
0.17993 0.071053997 0.30489001
0.13136999 0.058596998 0.24944
0.15547 0.12263 0.26762
0.13624001 0.079614997 0.23902
0.17953999 0.057048999 0.31516999
0.1622 0.16319001 0.27015001
0.16249 0.18526 0.26280001
0.17157 0.22691999 0.27434
0.18258999 0.12578 0.28016001
0.16053 0.098993003 0.27160001
0.16951001 0.14366999 0.27702999
0.16229001 0.18152 0.26135001
0.16069999 0.18136001 0.26187
0.16113 0.18340001 0.26175001
0.17423999 0.10212 0.28031999
0.1742 0.10101 0.28015
0.14210001 0.062132001 0.27041
0.14238 0.061048001 0.27006999
0.17955001 0.18505 0.28540999
0.17625 0.18546 0.28353
0.15926 0.17146 0.25617
0.19032 0.071134999 0.30761001
0.18909 0.070793003 0.30768001
0.18875 0.070106998 0.30831999
0.16681001 0.14387999 0.27724001
0.18648 0.12747 0.27045
0.18591 0.12823001 0.27052999
0.16316 0.21741 0.26694
0.17542 0.056614999 0.29405001
0.17542 0.058322001 0.29333001
0.16689 0.2467 0.26875001
0.16681001 0.24553999 0.26952001
0.16911 0.24690001 0.27214
0.15588 0.19553 0.25795001
0.15437999 0.19619 0.25764999
0.15403999 0.19493 0.25793999
0.15612 0.21386001 0.25376999
0.15722001 0.21489 0.25362
0.15628 0.21351001 0.25325
0.16049001 0.2287 0.26863
0.17766 0.16332 0.27263999
0.17834 0.1654 0.27309
0.17613 0.16468 0.27171999
0.13375001 0.068034001 0.23988
0.13315 0.065917 0.23934001
0.16932 0.086943001 0.28753999
0.15323 0.20592999 0.26163
0.15349001 0.2044 0.26045999
0.15377 0.078221999 0.26929
0.18742999 0.080894001 0.30925
0.15263 0.1234 0.26267001
0.15475 0.1221 0.26146001
0.17749 0.24641 0.2597
0.15818 0.1485 0.26890999
0.17406 0.24374001 0.27386001
0.15802 0.21702 0.25178
0.15798 0.21748 0.25139001
0.15447 0.071970001 0.27204001
0.15451001 0.073629998 0.27245
0.15351 0.072741002 0.27155
0.13149001 0.067708001 0.26146999
0.13104001 0.069546998 0.2617
0.16835999 0.13395999 0.27337
0.16520999 0.11534 0.25745001
0.12256 0.054131001 0.2394
0.19193999 0.084206998 0.30686
0.16174001 0.079402 0.28391001
0.18491 0.067440003 0.30631
0.18413 0.067340001 0.30666
0.1842 0.066609003 0.30572999
0.14602 0.15084 0.25404999
0.14678 0.15225001 0.25398001
0.17509 0.15724 0.28522
0.18029 0.17793 0.28110999
0.18069001 0.17698 0.28125
0.15933 0.13999 0.26440001
0.15515999 0.20645 0.26506999
0.15667 0.20833001 0.26528999
0.15534 0.23435 0.25906
0.16859999 0.19016001 0.27416
0.16959 0.18945 0.27450001
0.12191 0.054949999 0.24347
0.12125 0.055181 0.24202999
0.17457999 0.2272 0.27636001
0.17626999 0.22721 0.27669001
0.15606 0.15775 0.26503
0.15587001 0.23184 0.25611001
0.15561999 0.23164999 0.25595
0.16088 0.15895 0.26370001
0.1605 0.18061 0.25217
0.16035999 0.18108 0.25228
0.15893 0.22510999 0.26894999
0.16367 0.24131 0.26532
0.16148999 0.24107 0.26519999
0.16292 0.23887999 0.26414001
0.17926 0.11388 0.27206001
0.17737 0.11354 0.27353001
0.15708999 0.089676 0.26890001
0.20218 0.058309998 0.31481999
0.12784 0.059597 0.25396001
0.16101 0.15577 0.27234
0.16524 0.086149998 0.28262001
0.19587 0.070096001 0.30465001
0.13648 0.057558998 0.26131001
0.17032 0.21695 0.28298
0.16953 0.19498999 0.28218001
0.15869001 0.23104 0.26445001
0.16957 0.20514999 0.27575001
0.17991 0.061797999 0.30238
0.15128 0.12172 0.26323
0.19617 0.053846002 0.32008001
0.19419 0.054862 0.31931999
0.17495 0.10893 0.27989
0.12597001 0.058649998 0.25931001
0.12601 0.058231 0.25839999
0.16094001 0.21483999 0.26482001
0.1621 0.21548 0.26506001
0.17050999 0.14324 0.28110999
0.17045 0.14396 0.27956
0.17049 0.14196 0.27961001
0.15378 0.23522 0.25428
0.15324 0.23486 0.25573999
0.16498999 0.12461 0.26818001
0.17391001 0.12692 0.27709001
0.13109 0.079501003 0.25145999
0.18385001 0.13843 0.28799999
0.15479 0.17938 0.25955001
0.15333 0.17896999 0.25920999
0.16315 0.23119999 0.25601
0.14972 0.087727003 0.24138001
0.14794999 0.086911 0.24153
0.14883 0.087578997 0.24221
0.14069 0.068383999 0.2615
0.15028 0.079204001 0.26835999
0.16199 0.21885 0.27314001
0.16060001 0.1779 0.25233999
0.16121 0.17773999 0.25347
0.15815 0.15764999 0.24876
0.1585 0.15745001 0.25093001
0.15629999 0.1113 0.25459
0.16407 0.094910003 0.27410001
0.14599 0.065159999 0.27443999
0.17021 0.22345001 0.27842
0.17306 0.22506 0.27598
0.17218 0.22519 0.27608001
0.15715 0.088898003 0.26929
0.17725 0.089126997 0.29462001
0.17640001 0.089588001 0.29403999
0.17658 0.089763001 0.29488
0.15479 0.21545 0.25724
0.15497001 0.21549 0.25619
0.15892 0.10773 0.25457999
0.14582001 0.060249999 0.26326999
0.16682 0.089092001 0.27827001
0.16676 0.088073 0.27866
0.15914001 0.10132 0.25393999
0.18144999 0.14643 0.28760001
0.16677 0.12303 0.2685
0.16703001 0.1223 0.26793
0.14945 0.15189999 0.2489
0.15412 0.15613 0.26833001
0.12988999 0.059671 0.24608
0.17713 0.22856 0.27478999
0.17569 0.22755 0.27383
0.16914999 0.22792 0.25409001
0.16769999 0.22672001 0.25538
0.16875 0.22792999 0.25440001
0.17555 0.11029 0.28294
0.16611999 0.10651 0.2755
0.16556001 0.10705 0.27566001
0.17004 0.20756 0.27759999
0.16385999 0.20759 0.26613
0.16331001 0.20719001 0.266
0.1548 0.22367001 0.26192999
0.17474 0.084314004 0.29899999
0.15784 0.2235 0.25154999
0.15724 0.22294 0.24999
0.14246 0.055064 0.26853001
0.15705 0.21214999 0.26043999
0.15640999 0.21211 0.2622
0.15807 0.21252 0.26203001
0.16332 0.19848 0.27046999
0.18776 0.088087 0.30824
0.16817001 0.18229 0.27282
0.17007001 0.23788001 0.28119001
0.16173001 0.15470999 0.27439001
0.16272999 0.15565 0.27487999
0.16606 0.10676 0.27607
0.19942001 0.060408 0.31444001
0.19778 0.059241001 0.31496
0.19867 0.059586 0.31417999
0.17827 0.068581 0.30805999
0.15469 0.2335 0.25439
0.14746 0.14702 0.25411001
0.14768 0.14692 0.25404
0.19023 0.24620999 0.25237
0.18931 0.24674 0.25365001
0.19045 0.24756999 0.2527
0.17585 0.18342 0.27987999
0.16439 0.16541 0.25053999
0.15745001 0.10079 0.26352999
0.15309 0.2454 0.25429001
0.12502 0.051695 0.26293999
0.12508 0.052230999 0.2626
0.18923 0.060697999 0.31123999
0.18908 0.060392998 0.31149
0.15598001 0.12032 0.26822001
0.16505 0.24051 0.26824
0.17428 0.087440997 0.29872999
0.16089 0.16336 0.25674999
0.16187 0.16291 0.25698
0.17551 0.1358 0.28378001
0.17459001 0.13526 0.28494999
0.16153 0.18083 0.26186001
0.16186 0.18106 0.26172
0.13501 0.073590003 0.24316999
0.13521001 0.074676998 0.2429
0.17268001 0.20393001 0.28211999
0.17482001 0.15765999 0.24025001
0.15963 0.051245 0.29815999
0.15746 0.051045001 0.29793999
0.15729 0.050016999 0.29769999
0.14303 0.056464002 0.26098001
0.1706 0.13316999 0.27524999
0.17071 0.13237999 0.27555001
0.17892 0.054097999 0.31659999
0.17871 0.080716997 0.31029999
0.1796 0.081318997 0.30989
0.16016001 0.18872 0.27099001
0.17802 0.14004999 0.28810999
0.17675 0.089133002 0.28433001
0.17925 0.13409001 0.28791001
0.17082 0.21185 0.28042999
0.15835001 0.20162 0.26605001
0.13104001 0.081128001 0.25156999
0.17663001 0.15927 0.27654001
0.17592999 0.15832999 0.27597001
0.19447 0.086859003 0.29197001
0.19798 0.061657999 0.30794001
0.14427 0.065622002 0.26216
0.14506 0.063915998 0.26339999
0.14561 0.063432001 0.2642
0.18626 0.060151 0.31483999
0.17031001 0.18616 0.27572
0.17093 0.18622001 0.27472001
0.15147001 0.051964998 0.29209
0.15781 0.097228996 0.26609999
0.15233 0.13375001 0.25049999
0.1525 0.13452999 0.25181001
0.15639 0.088494003 0.26356
0.1558 0.089298002 0.26368001
0.17704999 0.066676997 0.30193999
0.15519001 0.18707 0.25323999
0.15577 0.18548 0.25303
0.13377 0.078479998 0.24545
0.13404 0.075797997 0.245
0.16908 0.24611001 0.25852001
0.1679 0.24597 0.25926
0.15913001 0.15158001 0.27669999
0.15922999 0.15266 0.27836001
0.15876999 0.15265 0.27643999
0.18323 0.16001 0.27513
0.18291999 0.15928 0.27493
0.17381001 0.061004002 0.29218999
0.14490999 0.055305 0.26378
0.17127 0.15008 0.28330001
0.17276999 0.12473 0.25134999
0.18184 0.19284 0.28352001
0.18204001 0.19343001 0.28150001
0.134 0.070492998 0.24479
0.14621 0.052728001 0.28413001
0.16313 0.062606998 0.29111999
0.16192999 0.064034 0.29137999
0.15662999 0.18577 0.25169
0.15606 0.18550999 0.25285
0.16249 0.22578 0.26424
0.16201 0.2252 0.26508
0.16245 0.21029 0.27454999
0.16376001 0.20852 0.27408001
0.13384999 0.076226003 0.24067999
0.13988 0.050491001 0.26065999
0.16108 0.12175 0.26113999
0.16131 0.12258 0.26172999
0.17295 0.086989999 0.28626001
0.17321999 0.088296004 0.28742
0.17462 0.087472998 0.287
0.12556 0.058616001 0.2464
0.1249 0.058421001 0.24530999
0.1785 0.23537 0.27832001
0.17812 0.23508 0.27653
0.15164 0.18463001 0.25951999
0.16791999 0.1108 0.28013
0.16734 0.10974 0.28002
0.16896001 0.1112 0.27935001
0.17985 0.14883 0.28669
0.18009999 0.14823 0.28712001
0.15186 0.19629 0.26225001
0.15255 0.078988999 0.2696
0.18131 0.22002 0.28224
0.18138 0.22116999 0.28299999
0.16294 0.14681999 0.2762
0.17838 0.13254 0.28255999
0.14847 0.090691999 0.25009
0.16092999 0.13088 0.26175001
0.16253 0.2159 0.25386
0.16214 0.21616 0.25299001
0.16372 0.21574999 0.25396001
0.15976 0.18532 0.26140001
0.14713 0.089544997 0.26269999
0.11634 0.052448999 0.25913
0.15588 0.068318002 0.28246
0.15373001 0.19146 0.26366001
0.17951 0.091834001 0.28093001
0.17964 0.092501998 0.28309
0.16078 0.24629 0.26089001
0.13101999 0.061682001 0.26023
0.15838 0.13809 0.26302001
0.15623 0.13713001 0.26276001
0.16001 0.14057 0.26464999
0.15994 0.13987 0.26451001
0.18029 0.15479 0.28516999
0.182 0.15478 0.28547999
0.17995 0.15591 0.28544
0.16074 0.23077001 0.25898001
0.17609 0.077081002 0.30601001
0.17666 0.078046001 0.30638999
0.18094 0.183 0.28213
0.14798 0.12526 0.25832999
0.14836 0.12563001 0.25953001
0.15749 0.12098 0.26444
0.15336999 0.2221 0.26052001
0.17231999 0.085306004 0.29767001
0.15716 0.1541 0.27133
0.15762 0.15527 0.27169001
0.17866001 0.13850001 0.28946999
0.17873 0.1384 0.28964001
0.16139001 0.13514 0.26876
0.15525 0.10125 0.26390001
0.15617999 0.10192 0.26374999
0.13299 0.078024998 0.26219001
0.13366 0.077820003 0.26238999
0.16554999 0.13225 0.26765999
0.15672 0.19892 0.26574001
0.16755 0.12675001 0.26888999
0.16811 0.12522 0.2694
0.15764999 0.092808001 0.26642999
0.16773 0.11696 0.25014001
0.167 0.11762 0.25051001
0.16762 0.11571 0.25071999
0.16673 0.20903 0.27531001
0.15447 0.058779001 0.28946999
0.18080001 0.14246 0.28815001
0.15363 0.052335002 0.29392001
0.15908 0.11601 0.26602
0.16007 0.11826 0.26521
0.15908 0.13954 0.26664999
0.14996 0.071238004 0.26982999
0.17338 0.22718 0.27614
0.15561 0.19626001 0.25062999
0.15674999 0.19566 0.25022
0.1768 0.054625999 0.30794001
0.17437001 0.18284 0.27972001
0.17338 0.18186 0.2809
0.16047999 0.21720999 0.26219001
0.15989 0.21776 0.26264
0.14933001 0.15547 0.25339001
0.14757 0.15479 0.25345001
0.15467 0.22112 0.25479001
0.15724 0.17573 0.26214001
0.15735 0.19272999 0.26521
0.15859 0.19264001 0.26423001
0.16913 0.20418 0.27888
0.14251 0.057852998 0.27068001
0.14266001 0.057831001 0.27182999
0.1723 0.10869 0.27945
0.15088999 0.18708 0.25920001
0.15853 0.080549002 0.27889001
0.16302 0.24232 0.26620001
0.18144 0.10923 0.28069001
0.15617999 0.20263 0.25273001
0.12876999 0.052423999 0.26223001
0.12797 0.050813999 0.26233
0.12964 0.050604999 0.26233
0.15831999 0.093273997 0.25319999
0.17077 0.067562997 0.29071
0.16977 0.068403997 0.29003999
0.16102999 0.20807 0.26800999
0.16159999 0.20802 0.26857001
0.14405 0.059388999 0.26222
0.16989 0.23668 0.27463001
0.1973 0.068002 0.30416
0.1973 0.065370999 0.30396
0.15643001 0.18540999 0.2581
0.15635 0.18573999 0.25771001
0.1611 0.15852 0.27201
0.17188001 0.17163 0.27377999
0.17095999 0.17228 0.27443999
0.14042 0.051904 0.28103
0.14078 0.052801002 0.28132999
0.13978 0.053142 0.28015
0.1653 0.13362999 0.26715001
0.16619 0.13160001 0.26723
0.16559 0.16835999 0.25510001
0.16553999 0.16757999 0.25613001
0.15716 0.13595 0.25318
0.15715 0.13522001 0.25310999
0.15538 0.13474 0.25336999
0.15612 0.10755 0.26613
0.15298 0.13353001 0.25839999
0.15151 0.13291 0.26016
0.15289 0.13224 0.25852999
0.16846 0.20912001 0.27403
0.16402 0.18557 0.26442999
0.13507 0.075506002 0.25217
0.13350999 0.074625999 0.25310001
0.13282 0.075979002 0.25016001
0.17043 0.074776001 0.29346001
0.17059 0.075154997 0.29434001
0.17955001 0.053218 0.32021001
0.1816 0.053718001 0.32148001
0.14485 0.069071002 0.26435
0.12804 0.068807997 0.25799
0.13474 0.088073999 0.24911
0.16006 0.20275 0.25086999
0.15945999 0.20486 0.25141001
0.18058001 0.065237999 0.30989999
0.1813 0.064785004 0.30864
0.18248001 0.065587997 0.30862001
0.15211 0.072163001 0.27217001
0.15118 0.071911998 0.27114001
0.15037 0.071782 0.27217001
0.17640001 0.22048999 0.28015
0.17698 0.22109 0.2811
0.13331001 0.061143 0.25556999
0.13345 0.061747 0.25597
0.16881999 0.065489002 0.28791001
0.16169 0.10351 0.24852
0.12549999 0.058279999 0.25099999
0.17866001 0.21247 0.28046
0.17851999 0.21159001 0.27943
0.17854001 0.21128 0.27936
0.15801001 0.24668001 0.25369999
0.17436001 0.21814001 0.28178999
0.17438 0.21924999 0.28099
0.1611 0.16469 0.25709999
0.17209999 0.19187 0.28259999
0.18072 0.18573 0.28568
0.16918001 0.14158 0.27643001
0.16042 0.23604 0.26567999
0.16666 0.10782 0.27842
0.16731 0.10745 0.27950999
0.13115001 0.060587998 0.25623
0.14945 0.15559 0.24929
0.14144 0.083195999 0.25775999
0.16109 0.085005999 0.27568001
0.16012999 0.085157998 0.27478999
0.17881 0.16806 0.27327999
0.17827 0.1689 0.27384001
0.17908999 0.16748001 0.27445999
0.15731999 0.15302999 0.27359
0.15695 0.15336999 0.27447999
0.15937001 0.13616 0.26954001
0.13541 0.070738003 0.26141
0.17132001 0.11194 0.28086999
0.17114 0.11145 0.28066
0.16162001 0.23740999 0.25251999
0.16129 0.23508 0.25426
0.16641 0.15652999 0.27939001
0.15468 0.18193001 0.26179999
0.15775999 0.15769 0.26908001
0.15841 0.15795 0.26831999
0.17022 0.24573 0.27511001
0.13246 0.069707997 0.24081001
0.14262 0.057624001 0.27443999
0.16350999 0.058318999 0.29374
0.1626 0.22266001 0.26989999
0.16492 0.11366 0.26932001
0.16508999 0.16308001 0.25281999
0.18010999 0.062728003 0.30655
0.16874 0.072306998 0.29115
0.15614 0.076274998 0.27608001
0.15635 0.076122001 0.27333999
0.15572999 0.075528003 0.27500001
0.13425 0.063345999 0.24969999
0.13574 0.061965 0.24843
0.1693 0.14069 0.27471
0.15995 0.21209 0.25415
0.15469 0.13903999 0.26447999
0.15511 0.14052001 0.26457
0.15525 0.11258 0.26776001
0.1565 0.11237 0.26829001
0.15779001 0.22683001 0.25843999
0.15818 0.22588 0.26008999
0.17383 0.053498 0.29126
0.16361 0.19891 0.27024001
0.16671 0.22113 0.27392
0.15763 0.24175 0.26198
0.17385 0.073445 0.29714
0.16112 0.2473 0.25641
0.16125999 0.24665999 0.25751001
0.16229001 0.24598999 0.25600001
0.17057 0.23581 0.28031999
0.17126 0.23436999 0.28049001
0.18141 0.051410999 0.32183
0.18189999 0.0528 0.32133999
0.16303 0.1639 0.27046999
0.1604 0.17602 0.26304999
0.13436 0.076941997 0.24350999
0.14061999 0.088336997 0.25255001
0.1419 0.089047998 0.25345999
0.16112 0.18057001 0.26966
0.16278 0.20001 0.27147999
0.17233001 0.24375001 0.28301001
0.18144999 0.21862 0.27937999
0.16899 0.23085 0.27004999
0.15443 0.10369 0.26222
0.13039 0.059689999 0.25420001
0.16670001 0.197 0.26879999
0.16737001 0.19599999 0.26919001
0.16739 0.19709 0.27125001
0.13962001 0.061384998 0.25917
0.13898 0.061078999 0.25913
0.14046 0.059326001 0.25986001
0.14125 0.065100998 0.25964001
0.14227 0.065266997 0.25997001
0.15192001 0.19268 0.25883999
0.13344 0.071359999 0.24595
0.13240001 0.070295997 0.24536
0.1609 0.11966 0.26767999
0.17517 0.23762999 0.27316001
0.16997001 0.21425 0.27946001
0.15968999 0.21889 0.26361999
0.15232 0.08506 0.27094999
0.15159 0.12703 0.25560999
0.17619 0.08997 0.29561001
0.16148999 0.22905 0.26958999
0.1621 0.22854 0.26999
0.16974001 0.15386 0.28349999
0.13548 0.074937999 0.26194
0.15767001 0.20343 0.26633
0.15925001 0.20585001 0.26591
0.15104 0.051500998 0.29045001
0.18550999 0.053754002 0.32148001
0.12222 0.054503001 0.23661
0.16429 0.086645998 0.28452
0.15020999 0.075737 0.26583999
0.15107 0.076636001 0.26725
0.15944999 0.051878002 0.29815999
0.1584 0.1469 0.26703
0.16783001 0.19933 0.27759999
0.13546 0.056122001 0.26212001
0.17772 0.20130999 0.28229001
0.16625001 0.15686999 0.27647999
0.18536 0.060511 0.31352001
0.13438 0.076598004 0.24654
0.12226 0.057399001 0.25433999
0.1618 0.16771001 0.26218
0.17586 0.22855 0.27717
0.15583 0.11255 0.26481
0.15579 0.11239 0.26638001
0.13507999 0.061294999 0.25856999
0.13545001 0.062293001 0.25852999
0.1804 0.13018 0.28722
0.17715999 0.1346 0.28652999
0.15312 0.21180999 0.25549001
0.14433999 0.059767 0.27281001
0.14365999 0.060555 0.27322
0.18283001 0.13287 0.28748
0.18373001 0.13194001 0.28692999
0.18345 0.13152 0.28764001
0.12457 0.05277 0.26153001
0.17359 0.22657999 0.27616
0.14715999 0.13871001 0.25650999
0.1629 0.17928 0.26414999
0.16469 0.16227999 0.24997
0.1657 0.069435 0.289
0.16553 0.069738999 0.28746
0.15312999 0.071315996 0.27495
0.17118999 0.093901001 0.27917999
0.16152 0.16554999 0.25856
0.1613 0.16556001 0.26045001
0.13679001 0.078249 0.26466
0.15436999 0.23736 0.25238001
0.15380999 0.23669 0.25284001
0.17556 0.063372001 0.29433
0.17546999 0.20304 0.28301999
0.17212 0.19699 0.28165999
0.16983999 0.24338 0.28127
0.16945 0.24415 0.28062001
0.16294999 0.15891001 0.27355999
0.16605 0.098701999 0.24411
0.16664 0.099205002 0.2436
0.14151999 0.087457001 0.25841999
0.14223 0.085638002 0.25793001
0.1705 0.20171 0.28149
0.16478001 0.10211 0.2775
0.16057999 0.13917001 0.26666
0.13415 0.055236999 0.26262
0.17917 0.061032001 0.29877001
0.12986 0.080196999 0.25108999
0.13643 0.074515 0.25529999
0.1891 0.24574 0.25325999
0.13349 0.076710999 0.24073
0.16802999 0.080560997 0.28952
0.17148 0.16633999 0.26971
0.15525 0.21803001 0.2615
0.15537 0.21718 0.26141
0.14499 0.063753001 0.27348
0.14567 0.064846002 0.27375001
0.15781 0.23413 0.25130999
0.15609001 0.23559999 0.25169
0.17295 0.24764 0.27937999
0.17538001 0.065220997 0.29751
0.14815 0.072879001 0.26851001
0.13245 0.085856996 0.25564
0.18097 0.16008 0.27726999
0.17838 0.068857998 0.30601999
0.17818999 0.070537999 0.30704999
0.13231 0.073059 0.25246999
0.13196 0.071943998 0.25286999
0.16271 0.095733002 0.24774
0.16543999 0.18743999 0.27421001
0.14376999 0.08867 0.26376
0.14959 0.057195999 0.28529
0.1715 0.24523 0.27485999
0.17022 0.24499001 0.27585
0.16918001 0.24449 0.27423999
0.15859 0.13168 0.26424
0.15383001 0.20810001 0.26194
0.15397 0.20711 0.26137999
0.15449999 0.20769 0.26256001
0.18193001 0.073069997 0.30399001
0.16337 0.2115 0.27687001
0.16264001 0.21225999 0.27551001
0.17157 0.14109001 0.28128999
0.17208999 0.14056 0.28222001
0.12146 0.055514 0.24239001
0.12261 0.055156 0.24364001
0.16164 0.2154 0.27248999
0.16088 0.21536 0.27274999
0.15855999 0.078331999 0.27768999
0.16389 0.15790001 0.25334999
0.16402 0.15855999 0.25251001
0.16498999 0.15721001 0.25284001
0.14888 0.14409 0.25138
0.17087001 0.18262 0.27667001
0.1719 0.1824 0.27467
0.16069999 0.10571 0.26969999
0.14291 0.05192 0.26062
0.14154001 0.051851001 0.26177999
0.142 0.051155999 0.26117
0.14628001 0.14082 0.25582999
0.1621 0.17739999 0.27015001
0.16531 0.10832 0.27671
0.17679 0.21979 0.28189
0.17873999 0.070120998 0.30046001
0.16150001 0.22432999 0.25228
0.15115 0.1238 0.25674
0.17275999 0.15741999 0.28389999
0.16188 0.19327 0.252
0.17118999 0.21179 0.27472001
0.16689999 0.23253 0.27035999
0.15989 0.11095 0.27430001
0.13134 0.068025 0.24922
0.13226999 0.068251997 0.25093001
0.1753 0.24514 0.27351999
0.17663001 0.22747 0.27258
0.17783999 0.22860999 0.27362001
0.15798 0.19898 0.27103999
0.15905 0.20017 0.27138001
0.16314 0.20328 0.27123001
0.16448 0.2024 0.26975
0.16481 0.20463 0.26903999
0.18164 0.092051998 0.29028001
0.16844 0.10149 0.27846
0.16428 0.10932 0.24347
0.16459 0.10884 0.24303
0.16395 0.10878 0.24435
0.16993999 0.14488 0.28222001
0.14507 0.088565998 0.26368001
0.15318 0.22361 0.2586
0.17923 0.062550001 0.29721999
0.11845 0.051189002 0.24433
0.11725 0.051061999 0.24519999
0.17358001 0.14986999 0.28731
0.16685 0.11288 0.24393
0.16129 0.22017001 0.27155
0.14851999 0.05223 0.28874999
0.17058 0.10711 0.27972999
0.17 0.10568 0.27897999
0.13247 0.076705001 0.25202
0.15409 0.20703 0.26482001
0.17494 0.10632 0.27983999
0.16475999 0.18889999 0.27489001
0.13833 0.073983997 0.24593
0.16343001 0.23266 0.26508999
0.1805 0.16098 0.27698001
0.18447 0.091464996 0.28926
0.14815 0.15260001 0.26434001
0.16252001 0.21868999 0.27061999
0.13364001 0.075742997 0.24133
0.17914 0.072089002 0.3091
0.16993 0.11298 0.27904999
0.14839999 0.050875999 0.28992999
0.18378 0.060548998 0.3134
0.17691 0.059113 0.29497999
0.15978999 0.20795999 0.26459
0.17727999 0.081363 0.30144
0.17949 0.082604997 0.30092001
0.18804 0.059285 0.31591001
0.18774 0.059741002 0.31551
0.17237 0.063220002 0.29163
0.16500001 0.20697001 0.26894
0.16418999 0.20739 0.26877001
0.16367 0.20615999 0.26973
0.14888 0.088331997 0.26772001
0.17104 0.18243 0.27732
0.17016999 0.18289 0.27700001
0.16256 0.11221 0.26973
0.14038 0.078258 0.26495001
0.14605001 0.062592 0.27566001
0.14505 0.063281998 0.27548
0.16321 0.1631 0.26955
0.16372 0.16354001 0.26846999
0.16261999 0.16326 0.26921001
0.16571 0.1516 0.27965
0.16599999 0.15182 0.27957001
0.16509999 0.15277 0.27970999
0.15563001 0.24696 0.25411001
0.16648 0.18844999 0.27423
0.16818 0.10306 0.27970999
0.15476 0.21218 0.26034999
0.17676 0.23839 0.28027999
0.15981001 0.16921 0.25766
0.17694999 0.23285 0.27524999
0.14774001 0.14758 0.26258001
0.17163999 0.24123 0.27408999
0.16374999 0.11021 0.27717
0.15993001 0.16325 0.27083999
0.16802 0.11362 0.27182001
0.16802999 0.11418 0.27243
0.16794001 0.11461 0.2723
0.15605 0.12009 0.26190001
0.16586 0.23292001 0.26752001
0.1693 0.23602 0.27647999
0.14759 0.14957 0.25503001
0.15916 0.15919 0.25955001
0.14488 0.056874 0.26462001
0.12398 0.050067 0.26190001
0.16042 0.21838 0.27092001
0.16042 0.21737 0.27158999
0.1586 0.19467001 0.24945
0.15955999 0.19411001 0.25057
0.13979 0.087738998 0.25134
0.13989 0.088036001 0.25187001
0.16248 0.21807 0.26682001
0.18711001 0.12613 0.27845001
0.18806 0.12669 0.27785999
0.15229 0.084086001 0.26798999
0.17935 0.13738 0.28949001
0.17798001 0.13869999 0.28845999
0.15689 0.10247 0.26892
0.14406 0.063040003 0.26344001
0.14348 0.064681999 0.26122999
0.15085 0.091260001 0.25788
0.14802 0.14992 0.26229
0.14556 0.057301998 0.26611
0.15338001 0.059294999 0.28248
0.1754 0.073591001 0.29628
0.15733001 0.18893 0.26374
0.15014 0.066744998 0.27803999
0.15062 0.067959003 0.27739
0.14932001 0.066444002 0.27717
0.16195001 0.15808 0.25198001
0.16102999 0.15705 0.25066999
0.16068999 0.15730999 0.25127
0.13183001 0.076102003 0.25558999
0.17456999 0.13170999 0.27544001
0.18121 0.24575999 0.25586
0.16733 0.10497 0.24427
0.14232001 0.088478997 0.26133001
0.14230999 0.088127002 0.26194999
0.19929001 0.066549003 0.30612999
0.19930001 0.065996997 0.30533999
0.14935 0.087181002 0.26502001
0.15460999 0.096248001 0.26036999
0.15467 0.095720999 0.26157999
0.15731999 0.19385 0.25047001
0.15958001 0.15110999 0.27779001
0.16069999 0.15138 0.27682999
0.17952999 0.064373001 0.30045
0.1533 0.083263002 0.26813
0.15549999 0.24517 0.25689
0.18477 0.14089 0.27965
0.16655999 0.20562001 0.27256
0.15446 0.097452 0.26085001
0.15476 0.097569004 0.26188001
0.17337 0.16174001 0.27278
0.17314 0.16112 0.27127999
0.14978001 0.12471 0.25762999
0.1512 0.12439 0.25698999
0.15098999 0.12395 0.25738001
0.15593 0.19091 0.25593001
0.18014 0.19847 0.28178
0.1815 0.1982 0.28117001
0.18099999 0.19973999 0.28136
0.15528999 0.074256003 0.27324
0.14038999 0.057755001 0.26119
0.14007001 0.058286998 0.26109001
0.167 0.19266 0.27386999
0.16895001 0.10315 0.24333
0.13602 0.081111997 0.23964
0.1366 0.050668001 0.27790001
0.12788001 0.050657 0.26210001
0.11968 0.052005999 0.24053
0.15657 0.23083 0.26324001
0.15259001 0.071387 0.27326
0.17474 0.23639999 0.28112
0.15917 0.097181 0.26982999
0.16068 0.096891001 0.26927
0.17061 0.23964 0.28172001
0.17738999 0.22859 0.27083001
0.17768 0.22976001 0.27193001
0.17417 0.22898 0.27651
0.13378 0.081569001 0.24401
0.15202001 0.24495 0.25365999
0.15166 0.24302 0.25384
0.17112 0.21522 0.28248999
0.1718 0.21693 0.28195
0.13637 0.051167 0.26128
0.16762 0.11882 0.27129999
0.16897 0.11947 0.27103001
0.15545 0.10987 0.26798999
0.17054 0.15253 0.28171
0.16850001 0.15327001 0.28154999
0.14410999 0.080614001 0.26471001
0.16952001 0.20607001 0.27520001
0.17265999 0.24728 0.28082001
0.1734 0.24778999 0.27923
0.17409 0.23508 0.28312001
0.15381999 0.14612 0.26635
0.14364 0.074276 0.26350001
0.15597001 0.10502 0.26028001
0.14956 0.057360001 0.28298
0.17531 0.23462 0.27346
0.15477 0.22197001 0.25781
0.15362 0.22169 0.25816
0.16801 0.098139003 0.24372
0.16639 0.099353001 0.24395999
0.16643 0.095425002 0.27737001
0.16508 0.096763 0.27774999
0.17194 0.24559 0.2818
0.16381 0.17535999 0.26541999
0.15607999 0.15825 0.26209
0.15606999 0.15761 0.26115999
0.16321 0.15609001 0.27586001
0.15412 0.20581999 0.25619
0.17581999 0.052501999 0.29843
0.15927 0.13485999 0.26582
0.15972 0.19053 0.26515001
0.15987 0.19065 0.26565999
0.11847 0.053911 0.24883001
0.17457999 0.11995 0.27581999
0.17336001 0.12117 0.27717
0.16975001 0.20801 0.27607
0.16133 0.13326 0.26008999
0.17251 0.17914 0.28001001
0.15441 0.084650002 0.27269
0.16392 0.17941999 0.26383999
0.16125 0.17863999 0.27056
0.15345 0.24225 0.2572
0.1543 0.24334 0.25707
0.18142 0.13178 0.28819999
0.18133 0.1121 0.28093001
0.18131 0.11065 0.28033
0.1512 0.074375004 0.27142
0.1332 0.079796001 0.26243001
0.15613 0.092399999 0.26324001
0.17106999 0.22183999 0.28072
0.13187 0.061965998 0.25734001
0.18139 0.13338999 0.28854001
0.15996 0.19554 0.25079
0.14632 0.090925999 0.25551
0.12211 0.051734999 0.23444
0.17422 0.13842 0.28648001
0.17836 0.12987 0.28393999
0.19667 0.054820001 0.31889001
0.15588 0.089980997 0.26569
0.15587001 0.090778999 0.26671001
0.15467 0.11861 0.26372999
0.15323 0.11964 0.26249999
0.16265 0.13378 0.25889
0.1629 0.13291 0.25983
0.18729 0.079244003 0.30871999
0.16189 0.24383 0.26409999
0.18274 0.092193998 0.28931999
0.1679 0.19651 0.27206001
0.17524 0.15742999 0.24086
0.18311 0.052827999 0.322
0.15088999 0.14102 0.26381999
0.15625 0.21842 0.25318
0.17089 0.075443 0.29255
0.16833 0.075994 0.29190001
0.16959 0.075387001 0.29179001
0.1278 0.058669999 0.25867999
0.15745001 0.1441 0.26556
0.19772001 0.080594003 0.30568999
0.1978 0.078929998 0.30557999
0.15104 0.15733001 0.25876001
0.17130999 0.17579 0.27035999
0.17118999 0.17738999 0.27101001
0.13411 0.063901998 0.24484
0.13474999 0.072930001 0.24462999
0.16918001 0.10932 0.28059
0.16553 0.063816004 0.28988001
0.16622999 0.065664999 0.29008001
0.14751001 0.091215998 0.25579
0.14693999 0.092561997 0.25663
0.17722 0.051766999 0.30397001
0.17592999 0.052322999 0.30291
0.1628 0.15667 0.24256
0.16125 0.15702 0.24316999
0.16870999 0.24563 0.27443001
0.17528 0.062364999 0.29378
0.16286001 0.12865999 0.25470001
0.16268 0.12777001 0.25488999
0.16381 0.097020999 0.27358001
0.16405 0.096492998 0.27384001
0.13862 0.052065 0.26124001
0.15759 0.17639001 0.25510001
0.16927999 0.22316 0.27904999
0.19157 0.060961001 0.30708
0.19147 0.061388999 0.30649
0.16504 0.22627001 0.25095001
0.20077001 0.050478999 0.31826001
0.20237 0.049598999 0.31867
0.17699 0.20261 0.28316
0.1769 0.20367999 0.28347
0.17022 0.074808002 0.29236999
0.15412 0.18012001 0.26067999
0.15639 0.11157 0.25527999
0.15592 0.11234 0.25606
0.15835001 0.24477001 0.26328
0.19656999 0.072159998 0.30373999
0.16213 0.19446 0.27401999
0.17728999 0.066339001 0.3071
0.16881999 0.16543999 0.27281001
0.16845 0.16665 0.27322999
0.16109 0.18704 0.26208001
0.16356 0.18573999 0.26548001
0.16286001 0.18525 0.26727
0.16344 0.18564001 0.26683
0.13071001 0.072704002 0.25931999
0.18610001 0.12481 0.27968001
0.17365 0.18454 0.28088999
0.18482 0.060952999 0.31130999
0.13186 0.07818 0.25455001
0.13702001 0.070816003 0.26135999
0.13778999 0.069568999 0.26225999
0.17225 0.21597999 0.28154999
0.15187 0.1213 0.26517999
0.13241 0.080089003 0.24626
0.13109 0.080237001 0.26170999
0.15313999 0.14633 0.24816
0.15252 0.14827 0.24744
0.15374 0.14707001 0.24807
0.17022 0.18956 0.27590001
0.16371 0.17842001 0.27102
0.13649 0.069038004 0.26179001
0.13867 0.068879001 0.26255
0.15166999 0.19856 0.26205
0.14117999 0.053111002 0.26969999
0.14068 0.052474 0.27043
0.14594001 0.1365 0.25793999
0.14632 0.13734999 0.25863001
0.14655 0.13684 0.25683001
0.15869001 0.15244 0.27513
0.16037001 0.076025002 0.28198001
0.15985 0.076324001 0.28312999
0.16831 0.16136999 0.27215999
0.14729001 0.14024 0.25948
0.14741001 0.13842 0.26091999
0.13781001 0.065929003 0.24245
0.16914 0.12783 0.27559999
0.14577 0.089342996 0.25240001
0.18092 0.15896 0.27991
0.18015 0.15800001 0.27866
0.18013 0.1584 0.28044999
0.18408 0.091071002 0.29031
0.14237 0.055757001 0.26140001
0.14129999 0.055153999 0.26135001
0.16937 0.19004001 0.27969
0.13224 0.088156 0.24615
0.14142001 0.083415002 0.25587001
0.14216 0.084150001 0.25608999
0.15583999 0.15456 0.26833001
0.14505 0.089068003 0.24656001
0.15828 0.083645999 0.27731001
0.15964 0.083864003 0.27864999
0.16761 0.19825999 0.27901
0.15557 0.11006 0.25812
0.17575 0.22949 0.27724999
0.19824 0.058809001 0.31606001
0.17873999 0.072935998 0.30498999
0.16154 0.068859003 0.28812
0.15942 0.13383999 0.26661
0.15277 0.12441 0.25582001
0.14702 0.13631 0.25343001
0.14678 0.13613001 0.2554
0.17528 0.20665 0.28308001
0.15498 0.24669001 0.25516
0.15425999 0.24594 0.2543
0.12182 0.051353 0.23628999
0.12231 0.053126 0.23592
0.12427 0.059163 0.24513
0.1644 0.23553 0.26738
0.1345 0.073957004 0.26087999
0.15434 0.19 0.25692999
0.15333 0.19005001 0.25683001
0.1918 0.089881003 0.28830001
0.15662999 0.18464001 0.26115
0.14875001 0.15651999 0.26214001
0.14991 0.15789001 0.26137999
0.15493 0.23579 0.2511
0.15693 0.15838 0.26852
0.15468 0.18996 0.26414999
0.18436 0.13249999 0.27313
0.18273 0.13240001 0.27208999
0.18268 0.13112 0.27303001
0.15045001 0.071199 0.27239001
0.17598 0.23959 0.28187999
0.16274001 0.19382 0.27394
0.15577 0.2088 0.25279
0.15658 0.20994 0.25264001
0.17423999 0.17004 0.27355999
0.15554 0.099747002 0.26014
0.15658 0.10029 0.25995001
0.18691 0.090062 0.30225
0.13185 0.088289998 0.25268
0.13240001 0.088852003 0.25299001
0.18238001 0.053107001 0.32141
0.16887 0.198 0.27781999
0.17933001 0.21404 0.27693999
0.17901 0.21382 0.27568999
0.16709 0.20861 0.27476001
0.14674 0.13501 0.25751999
0.14735 0.13662 0.25845999
0.16806 0.082975 0.28760999
0.17978001 0.1188 0.27070999
0.17882 0.12034 0.27079001
0.17715999 0.052967001 0.30188999
0.17613 0.053252 0.30142
0.16001 0.14249 0.27337
0.15972 0.14275999 0.27533999
0.17087001 0.22130001 0.28303999
0.16474999 0.12434 0.25740001
0.16507 0.12468 0.25740001
0.177 0.13515 0.28692999
0.17445 0.13807 0.27790999
0.15821999 0.20269001 0.26613
0.14628001 0.14414001 0.25619999
0.15087 0.13728 0.25150999
0.15951 0.095990002 0.26949999
0.16086 0.096097998 0.26921001
0.1575 0.058444999 0.28933001
0.18533 0.11359 0.27612999
0.15607999 0.090487003 0.26677999
0.15759 0.091705002 0.26701999
0.13358 0.078238003 0.241
0.15752 0.092830002 0.26657999
0.16147999 0.18897 0.26069
0.16167 0.18761 0.26124001
0.14229999 0.074553996 0.26449001
0.17685001 0.16313 0.27123001
0.17159 0.24465001 0.28150001
0.17035 0.24478 0.28151
0.20201001 0.057220999 0.31678
0.18008 0.13522001 0.28830001
0.18027 0.13459 0.28821
0.16654 0.11345 0.27408999
0.17866001 0.17173 0.27462
0.12795 0.056396998 0.23745
0.12842999 0.05638 0.23699
0.15739 0.24568 0.25852001
0.17803 0.054882001 0.31301999
0.16023999 0.10869 0.27136001
0.16125999 0.10792 0.27149001
0.16738001 0.11252 0.27812999
0.16769999 0.11385 0.27978
0.16846 0.11331 0.28053001
0.14906 0.15025 0.26427999
0.15522 0.051456999 0.29776999
0.17676 0.17078 0.27535999
0.17711 0.16966 0.27520999
0.17116 0.17497 0.27443001
0.17125 0.17686 0.27445
0.17028999 0.15147001 0.28332001
0.16435 0.13918 0.2757
0.16321 0.21796 0.26824
0.17897999 0.095458999 0.27867001
0.18057001 0.096182004 0.27926999
0.15911999 0.22498 0.25268
0.1478 0.088950999 0.24382
0.15741999 0.19055 0.25031999
0.15898 0.22925 0.25724
0.15815 0.22961999 0.25639001
0.14813 0.13606 0.26100001
0.16245 0.19760001 0.26949
0.19057 0.086731002 0.30676001
0.15843999 0.095091 0.26429
0.15436 0.21751 0.25758001
0.15431 0.21791001 0.25784001
0.14083 0.085961998 0.25421
0.18111999 0.12890001 0.28623
0.14253999 0.050786 0.28369999
0.17246 0.10744 0.27928001
0.1652 0.15513 0.27873999
0.18163 0.18726 0.28094
0.18208 0.18919 0.28099
0.18156999 0.17641 0.27807999
0.18152 0.17844 0.27689999
0.17048 0.17253 0.27175999
0.15475 0.24571 0.25204
0.15448 0.19472 0.25714999
0.14348 0.088124 0.26161
0.17179 0.24455 0.25874999
0.17307 0.24553999 0.25876999
0.15817 0.22266001 0.26683
0.16361 0.15153 0.27728999
0.18425 0.12622 0.28184
0.16697 0.099683002 0.27787
0.16584 0.099350996 0.27724001
0.16624001 0.10012 0.27768001
0.12957001 0.079302996 0.25971001
0.13180999 0.077055 0.25707999
0.16125999 0.18712001 0.27131
0.18041 0.18403 0.28437001
0.13165 0.076497003 0.25716001
0.16471 0.11341 0.25854
0.1638 0.13503 0.26809001
0.16514 0.24601001 0.26888001
0.17885999 0.24484999 0.25218001
0.18031999 0.24591 0.25147
0.17939 0.24517 0.25125
0.16125999 0.22965001 0.25488999
0.18061 0.17858 0.28079
0.18939 0.11339 0.27441999
0.18927 0.11324 0.27693999
0.18972 0.11275 0.27638
0.16943 0.24414 0.27417001
0.16105001 0.14814 0.27726999
0.16225 0.14864001 0.27697
0.15612 0.15665001 0.26778001
0.19002999 0.077674001 0.30688
0.16328 0.16884001 0.25409999
0.14114 0.072915003 0.24657001
0.16551 0.15926 0.24851
0.17906 0.13968 0.28924
0.17019001 0.17366 0.27761
0.17215 0.17271 0.27783999
0.13115001 0.077152997 0.25858
0.15208 0.077229999 0.26653999
0.15198 0.076851003 0.26653999
0.15726 0.2189 0.26247999
0.15703 0.21867999 0.26267001
0.18043 0.14224 0.28815001
0.1444 0.085307002 0.26565
0.16599999 0.15721001 0.24706
0.17656 0.099110998 0.28169
0.1833 0.14103 0.28784001
0.15606 0.10227 0.25975999
0.16179 0.10843 0.27590999
0.16108 0.10969 0.27577999
0.15173 0.19196001 0.26230001
0.14001 0.058212001 0.26144001
0.17351 0.075093001 0.29903001
0.13143 0.056908 0.26115
0.15607999 0.21178 0.25373
0.15747 0.19070999 0.26947001
0.1577 0.19061001 0.27149001
0.17069 0.16574 0.27388
0.15894 0.15716 0.26499999
0.14026 0.057039 0.27619001
0.18079001 0.14598 0.28740001
0.15884 0.099831998 0.27136001
0.15155999 0.12949 0.25391001
0.15057001 0.12962 0.2534
0.16887 0.11024 0.28112
0.17825 0.058943 0.30188
0.14417 0.063657001 0.2678
0.15769 0.15184 0.26938999
0.1593 0.18898 0.25106001
0.16045 0.18996 0.25187001
0.16124 0.18835001 0.25154999
0.16652 0.20338 0.27234
0.20276 0.052885 0.31871
0.18791001 0.059728999 0.31442001
0.16649 0.082576998 0.28621
0.16633999 0.081765004 0.28527999
0.17467999 0.17567 0.27618
0.17375 0.17479999 0.27717999
0.15994 0.14991 0.27709001
0.1388 0.059193 0.24388
0.14007001 0.059636001 0.24356
0.14022 0.059229001 0.24367
0.15093 0.15847 0.26139
0.15460999 0.15751 0.26148999
0.17253 0.2317 0.28061
0.15898 0.20288 0.27101001
0.16664 0.090721004 0.27877
0.15135001 0.12483 0.25602001
0.17736 0.088003002 0.28889
0.17745 0.088932 0.28817999
0.17687 0.087792002 0.28777999
0.18231 0.082999997 0.29675001
0.18131 0.084108002 0.29843
0.18076 0.071102999 0.30892
0.17318 0.18573999 0.28277999
0.16268 0.092803001 0.24616
0.16274001 0.094347998 0.24603
0.16385999 0.094508998 0.24607
0.17287999 0.15249 0.28589001
0.17304 0.15281001 0.28674999
0.17824 0.092905 0.28185001
0.16712999 0.21504 0.27781999
0.16673 0.21729 0.27744001
0.16523001 0.2158 0.27766001
0.15682 0.094336003 0.26800001
0.19886 0.06199 0.30947
0.17715 0.089725003 0.28342
0.16337 0.1785 0.27212
0.16547 0.12216 0.25797001
0.16563 0.12431 0.25834
0.16463999 0.12275 0.25676
0.16169 0.21083 0.26732999
0.16252001 0.21080001 0.26549
0.16394 0.073096 0.28490001
0.18449 0.068648003 0.30891001
0.2045 0.054292999 0.31747001
0.20408 0.053226002 0.31731001
0.16539 0.14884 0.27917999
0.16606 0.15105 0.27899
0.15797 0.10068 0.2667
0.15514 0.12189 0.26881
0.14725 0.05542 0.28540999
0.14726999 0.054763 0.28534999
0.16365001 0.15847 0.24828
0.16395999 0.15983 0.2484
0.17964999 0.16113999 0.27649
0.17151999 0.17799 0.27182001
0.17206 0.17750999 0.27186
0.17579 0.087218001 0.28485999
0.17574 0.087382004 0.28753999
0.19656999 0.072612002 0.30407
0.15584999 0.098458998 0.25797999
0.14476 0.055766001 0.28253999
0.14418 0.056936 0.28207999
0.17961 0.15381999 0.28665
0.18088 0.15428001 0.28577
0.17915 0.15336999 0.28591001
0.12464 0.055388 0.2368
0.12377 0.054926999 0.23703
0.12416 0.056683 0.23706999
0.15482 0.18618 0.26201001
0.16682 0.20869 0.27403
0.15541001 0.088117003 0.26313001
0.15508001 0.086782999 0.26225999
0.15613 0.087316997 0.26427999
0.16559 0.13279 0.26771
0.17262 0.24058001 0.28252
0.15561999 0.10849 0.26045999
0.15639 0.10761 0.26091999
0.17580999 0.085837997 0.29842001
0.13232 0.068296 0.26159999
0.16607 0.090824001 0.27937999
0.16373 0.15668 0.27851
0.16401 0.15672 0.27812001
0.17750999 0.054221001 0.31355
0.17701 0.090448998 0.28657001
0.16399001 0.21533 0.26835999
0.13718 0.052676 0.26201999
0.16676 0.16467001 0.24959999
0.14557999 0.059441999 0.27649999
0.12938 0.065072 0.26097
0.15926 0.2422 0.25231001
0.15628 0.093327001 0.26519001
0.15933 0.21591 0.26185
0.14064001 0.065208003 0.24522001
0.14004 0.064467996 0.24522001
0.14072999 0.063134 0.24537
0.16268 0.15087999 0.27761
0.15443 0.12407 0.25737
0.18761 0.1287 0.27632999
0.18664999 0.12885 0.27553001
0.1393 0.072561003 0.24288
0.13801999 0.072017998 0.24265
0.16504 0.15967 0.25472999
0.16302 0.15866999 0.25328001
0.1626 0.16895001 0.26806
0.15635 0.082919002 0.27614
0.15876999 0.20931 0.26462001
0.15355 0.20079 0.26003999
0.1627 0.12846 0.26104
0.16234 0.13087 0.25960001
0.16316 0.12959 0.25996
0.15554 0.099878997 0.26061001
0.1691 0.082180001 0.29003
0.16858999 0.082282998 0.28922001
0.16064 0.21422 0.26774999
0.16113999 0.21431001 0.26725999
0.17267001 0.23108 0.28189999
0.17287 0.23079 0.28061
0.17002 0.085908003 0.27994999
0.171 0.15072 0.28424999
0.17377999 0.089740999 0.29157999
0.18313999 0.063547 0.30662999
0.18172 0.062642001 0.30671
0.18267 0.062011 0.30772001
0.17389999 0.23617999 0.28297001
0.14574 0.066652 0.26921999
0.14595 0.067675002 0.26966
0.17558999 0.067409001 0.30089
0.17709 0.11683 0.27015001
0.17321999 0.080995999 0.3001
0.17275 0.080582999 0.30061001
0.14586 0.063635997 0.26607999
0.14490999 0.064124003 0.26721001
0.14634 0.065379001 0.26585999
0.17475 0.073082 0.29576001
0.17253999 0.078344002 0.30066001
0.17247 0.079824999 0.30087
0.15733001 0.17427 0.26201001
0.17084999 0.17910001 0.27263999
0.15806 0.20042001 0.26620999
0.15949 0.14579999 0.27603
0.16763 0.099843003 0.27721
0.15963 0.15789001 0.26512
0.17619 0.17104 0.27276999
0.1796 0.19979 0.27052999
0.15778001 0.10861 0.25049999
0.15800001 0.1098 0.25044
0.14323001 0.088060997 0.25951999
0.17453 0.18435 0.28013
0.17508 0.18529999 0.28066
0.17225 0.19992 0.28154999
0.17125 0.19913 0.28211999
0.17562 0.24549 0.25409999
0.12996 0.071704999 0.26183999
0.13737001 0.060022 0.25911999
0.13661 0.060504999 0.25918001
0.16714001 0.22347 0.27630001
0.1679 0.22379 0.27564001
0.16956 0.23412 0.27281001
0.15714 0.22521999 0.26082
0.15646 0.15845001 0.25161999
0.16925 0.24552999 0.27175999
0.16279 0.079190999 0.28433001
0.16271999 0.079387002 0.28200999
0.17227 0.20304 0.28239
0.17011 0.18604 0.27974999
0.17125 0.15837 0.24162
0.15182 0.19812 0.26177001
0.15192001 0.19724999 0.26151001
0.17839 0.19997001 0.2818
0.17788 0.19876 0.28277001
0.1778 0.19792999 0.28253001
0.1762 0.20544 0.28323999
0.16946 0.24739 0.27361
0.16086 0.20119999 0.25075999
0.16068999 0.20113 0.25139999
0.1771 0.23634 0.28003001
0.17736 0.23601 0.27965
0.16219001 0.090561002 0.27195999
0.16287 0.090960003 0.27263001
0.15945999 0.13874 0.26365
0.16012 0.14053001 0.26440001
0.17489 0.18181001 0.27702001
0.17518 0.18137001 0.27713001
0.13522001 0.054102 0.26153001
0.17804 0.069476999 0.30485001
0.17391001 0.24146999 0.2834
0.1737 0.11822 0.27671
0.17397 0.11708 0.27803001
0.17512999 0.11816 0.27612001
0.17117 0.16453999 0.27200001
0.17069 0.16574 0.271
0.16282 0.10731 0.27241999
0.16029 0.19171999 0.26488999
0.16077 0.19255 0.26442
0.16394 0.21207 0.27158999
0.13345 0.078298002 0.24727
0.13271999 0.078210004 0.2484
0.17460001 0.24281 0.28147
0.1652 0.20614 0.26980001
0.16469 0.20514999 0.26958001
0.1762 0.080411002 0.30467001
0.16500001 0.10044 0.27825001
0.16437 0.1003 0.27770999
0.15781 0.071396001 0.27936
0.15699001 0.10843 0.25183001
0.15657 0.11017 0.25099999
0.14406 0.055043999 0.26197001
0.14300001 0.054683 0.26087999
0.16311 0.19302 0.27541
0.16032 0.10214 0.27386001
0.14179 0.084227003 0.25944999
0.14805 0.058198001 0.28049999
0.14792 0.059301 0.27930999
0.14701 0.058607001 0.28137001
0.14461 0.065568 0.27045
0.14485 0.066601001 0.26995
0.16851 0.15674999 0.27882001
0.16857 0.15756001 0.27871001
0.1426 0.090430997 0.26251999
0.17336001 0.11999 0.27647001
0.17484 0.11844 0.27603
0.19712999 0.070243999 0.30603001
0.16787 0.070188001 0.28933999
0.18301 0.092945002 0.28650999
0.18158001 0.093291 0.28454
0.16391 0.16788 0.26840001
0.17678 0.070940003 0.29828
0.14631 0.089534 0.24607
0.13620999 0.064304002 0.24247
0.13606 0.063564003 0.24323
0.17371 0.12083 0.25279
0.13474 0.064148001 0.24632999
0.1673 0.24548 0.26752001
0.16763 0.24545 0.26704001
