# .PCD v0.7 - Point Cloud Data file format
VERSION 0.7
FIELDS x y z
SIZE 4 4 4
TYPE F F F
COUNT 1 1 1
WIDTH 1627
HEIGHT 1
VIEWPOINT 0 0 0 1 0 0 0
POINTS 1627
DATA ascii
0.058797002 0.14105 0.23731001
0.034340002 0.15029 0.19950999
0.033209998 0.14933001 0.19902
0.033452999 0.14994 0.19988
0.081320003 0.15801001 0.22915
0.081496999 0.15633 0.22945
0.080498002 0.15583 0.22972
0.10799 0.14433999 0.27113
0.10734 0.14408 0.27129
0.108 0.14459001 0.27019
0.054354999 0.13418999 0.23729999
0.054398999 0.13451999 0.23722
0.053833 0.13331001 0.23845001
0.086071998 0.13285001 0.26517001
0.086994 0.13455001 0.26394999
0.086592004 0.13412 0.26383001
0.048593 0.14564 0.18476
0.047830001 0.14563 0.18607
0.047116999 0.14704999 0.18406001
0.028561 0.091055997 0.24445
0.028829999 0.092479996 0.24327999
0.029116999 0.091571003 0.24281999
0.12693 0.16866 0.26677001
0.12585001 0.16976 0.26607001
0.12733001 0.16933 0.26675999
0.045882002 0.11501 0.25239
0.046165001 0.11406 0.25222
0.046133 0.11385 0.25167
0.045635 0.096894003 0.24123
0.045045 0.095293999 0.24122
0.044193 0.096943997 0.24059001
0.065420002 0.13905001 0.24008
0.064300999 0.13835999 0.23861
0.064074002 0.13934 0.23890001
0.045885999 0.090738997 0.24089999
0.047339 0.090126 0.24056999
0.046482999 0.089708 0.24081001
0.09313 0.15086 0.22691999
0.094125003 0.15102001 0.22855
0.093795002 0.14996 0.22834
0.094605997 0.15002 0.28066
0.093574002 0.14961 0.27943999
0.093846001 0.15027 0.28169999
0.053530999 0.092502996 0.25409999
0.053403001 0.091293998 0.25380999
0.053011 0.092464998 0.25209999
0.040027998 0.16824999 0.26041999
0.039556999 0.16743 0.26089999
0.039902002 0.16892 0.26143
0.090696 0.15786 0.23654
0.090098001 0.15721001 0.23668
0.091623999 0.15798 0.237
0.049977999 0.096125998 0.24412
0.050144002 0.094401002 0.24473
0.049663 0.094609998 0.24394
0.069342002 0.16734 0.23433
0.068499997 0.16787 0.23318
0.068700999 0.16835999 0.23283
0.048889 0.14346001 0.22777
0.048686001 0.14489999 0.22719
0.049112 0.14303 0.22887
0.065025002 0.14302 0.24156
0.064088002 0.14207 0.24155
0.064466998 0.14358 0.24070001
0.11983 0.17106999 0.27102
0.11938 0.17149 0.27219999
0.12082 0.17267001 0.27052999
0.033631001 0.085988 0.23574001
0.033183001 0.085960999 0.23593999
0.032506999 0.08602 0.23673999
0.045811001 0.17359 0.26609001
0.045848999 0.17422999 0.26532999
0.044890001 0.17333999 0.26525
0.043584999 0.075048998 0.24135
0.042330999 0.074997 0.24096
0.050767999 0.091624998 0.24526
0.051610999 0.090103999 0.24618
0.050333001 0.089997999 0.24496
0.032816999 0.14196 0.20803
0.030906999 0.14229 0.20739999
0.031842001 0.14237 0.20730001
0.040529002 0.10748 0.25082999
0.040355999 0.10676 0.25103
0.039565001 0.10859 0.25176001
0.047694001 0.14647 0.2122
0.047770001 0.14562 0.21261001
0.048184 0.14696001 0.21174
0.11986 0.16726001 0.27085
0.11874 0.16926 0.27056
0.12012 0.16907001 0.26971999
0.068926997 0.12486 0.24800999
0.069162004 0.12541001 0.24913999
0.069374003 0.12508 0.24759001
0.078281 0.1329 0.25112
0.077202998 0.13338999 0.25037
0.077188 0.1344 0.25055
0.10823 0.15846001 0.27349001
0.10811 0.15753999 0.27338001
0.10762 0.15706 0.27397999
0.052391998 0.16649 0.19106001
0.052087002 0.16678999 0.19013
0.052324999 0.16808 0.19077
0.091371 0.16907001 0.25402001
0.091139004 0.16934 0.25266999
0.09065 0.16982 0.25240001
0.057163998 0.14714999 0.23546
0.058584999 0.14734 0.23614
0.058157999 0.14718001 0.23648
0.097824998 0.14861999 0.27788001
0.097882003 0.14748 0.27664
0.097378001 0.14836 0.27737001
0.052994002 0.094365999 0.25022
0.052228998 0.094306 0.24855
0.052790999 0.095551997 0.24823999
0.060470998 0.1547 0.23721001
0.059966002 0.15552001 0.23672999
0.04301 0.088538997 0.23672
0.042475 0.088928998 0.23744
0.044121001 0.089010999 0.23771
0.051757999 0.087022997 0.25538
0.050037999 0.086002 0.25422001
0.050476 0.087411001 0.25505999
0.052891001 0.14106999 0.23531
0.051794 0.14037 0.23609
0.051015001 0.14145 0.23489
0.055631999 0.17263 0.25174999
0.055062 0.17217 0.25178999
0.054145001 0.17078 0.25139999
0.083137996 0.15198 0.22927
0.082473002 0.15096 0.22939999
0.082191996 0.15124001 0.22973999
0.082989998 0.15423 0.2304
0.082460001 0.15421 0.23
0.083843999 0.15460999 0.23025
0.091113001 0.13214 0.27678001
0.090829 0.13145 0.27810001
0.090349004 0.13191999 0.27678001
0.066307001 0.15932 0.23427001
0.044620998 0.15285 0.18624
0.043494001 0.15268999 0.18742
0.043637998 0.15296 0.18801001
0.084491 0.15601 0.23009001
0.083185002 0.15649 0.22976001
0.084492996 0.15778001 0.22914
0.032030001 0.14394 0.20506001
0.032797001 0.14406 0.20589
0.032102998 0.14324 0.20671
0.048014998 0.14535999 0.20947
0.048181001 0.14539 0.2105
0.047738999 0.14576 0.20938
0.031173 0.096020997 0.24371
0.030888001 0.096662998 0.24412
0.030652 0.096954003 0.24496999
0.12474 0.16651 0.26846999
0.12491 0.16486999 0.26817
0.12488 0.16714001 0.26833001
0.10894 0.15983 0.27535
0.11029 0.16011 0.27452001
0.10959 0.15948001 0.27375001
0.037140001 0.11648 0.26324999
0.037783999 0.1176 0.26212999
0.038061999 0.11612 0.26262999
0.035980999 0.15881 0.20325001
0.035280999 0.15782 0.2032
0.036361001 0.15892 0.20326
0.039558001 0.13857 0.20846
0.050404999 0.14083 0.23416001
0.05153 0.14113 0.23531
0.050117001 0.14041001 0.23434
0.053436 0.090016998 0.25619
0.053467002 0.091080002 0.25885001
0.052820001 0.090338998 0.25791001
0.043738 0.15937001 0.24474999
0.045051999 0.15970001 0.24389
0.043513 0.15925001 0.24397001
0.052935001 0.15219 0.23553
0.053816002 0.15267 0.23551001
0.054531001 0.152 0.23501
0.054062001 0.10242 0.24845
0.053557999 0.10333 0.24873
0.054639 0.10253 0.25016999
0.091271996 0.13232 0.27702001
0.092473 0.13259999 0.27739999
0.076274998 0.11882 0.26444
0.076160997 0.11777 0.26504001
0.044918999 0.14580999 0.18802001
0.044594999 0.14605001 0.18761
0.045316 0.14622 0.18835001
0.076402999 0.11985 0.26144999
0.076746002 0.1189 0.26155001
0.075929999 0.11819 0.26056999
0.081440002 0.12788001 0.25439
0.080339 0.12733001 0.25398999
0.082208 0.12759 0.25422999
0.051240999 0.17227 0.25444001
0.051233001 0.17230999 0.25576001
0.052221 0.17248 0.25428
0.042458002 0.13878 0.20631
0.041914001 0.13928001 0.20656
0.041347001 0.13926999 0.20643
0.070174001 0.12699001 0.24494
0.069748998 0.12619001 0.24558
0.074005999 0.11159 0.26763999
0.049155001 0.087702997 0.24171001
0.049773999 0.087514997 0.24277
0.048455998 0.085951 0.24259
0.089170001 0.17904 0.25263
0.089112997 0.17952 0.2516
0.089083999 0.17945001 0.25024
0.051151998 0.090868004 0.2473
0.051624998 0.091623001 0.24611001
0.052301999 0.092363998 0.24715
0.05872 0.15454 0.18008
0.059314001 0.15504999 0.18043999
0.059005 0.15457 0.18134999
0.049784999 0.15947001 0.18606
0.050477002 0.15993001 0.18619999
0.050546002 0.15865 0.1856
0.071699001 0.14533 0.24139
0.070986003 0.14371 0.2429
0.070430003 0.14428 0.24191999
0.084422 0.14033 0.23239
0.084779002 0.13932 0.2315
0.085167997 0.14106999 0.23167001
0.072309002 0.17077 0.23383
0.072759002 0.17079 0.23373
0.071799003 0.17026 0.23416001
0.036054 0.15532 0.19976
0.037397999 0.15669 0.19841
0.037308 0.15502 0.19859
0.031392999 0.14545999 0.20325001
0.033284001 0.14447001 0.20296
0.033442002 0.1443 0.20277999
0.047150001 0.14544 0.18689001
0.048445001 0.1459 0.18685
0.083086997 0.15233 0.23059
0.082232997 0.1525 0.23040999
0.083304003 0.15249 0.23074999
0.044626001 0.15218 0.23453
0.044817001 0.15222999 0.23536
0.046147 0.15186 0.23431
0.047538999 0.12779 0.24503
0.048154 0.12673 0.24585
0.045839 0.12691 0.24672
0.040945001 0.16091999 0.2507
0.040040001 0.15998 0.24985
0.039774001 0.16041 0.25115001
0.067364 0.17020001 0.23785999
0.067884997 0.17023 0.23879001
0.067708001 0.17141999 0.23923001
0.030363001 0.092312001 0.24101
0.030228 0.090728 0.23969001
0.040084001 0.1432 0.19778
0.041358002 0.14325 0.19834
0.040807001 0.14365999 0.19926
0.048484001 0.15123001 0.18483999
0.048776001 0.15301 0.18424
0.049695 0.15244 0.18345
0.041140001 0.15197 0.19141001
0.041037001 0.15069 0.19070999
0.040371999 0.15164 0.19112
0.077027 0.17231999 0.23164999
0.077866003 0.17338 0.23003
0.076902002 0.17293 0.23135
0.060725 0.1121 0.25130999
0.061988 0.11226 0.25060999
0.062210999 0.11193 0.25132
0.034104999 0.084623002 0.23486
0.10957 0.13860001 0.27360001
0.1106 0.13898 0.27258
0.1104 0.13959 0.27331999
0.067864001 0.14286999 0.24212
0.067688003 0.14297 0.2418
0.068098001 0.14337 0.2427
0.079687998 0.12123 0.26021999
0.080762997 0.12188 0.26054999
0.080430001 0.12005 0.26155999
0.045612998 0.13824999 0.20774999
0.044319998 0.13857 0.20795
0.044946 0.13872001 0.20772
0.052429002 0.087269001 0.24986
0.051463 0.087838002 0.24885
0.052425001 0.088818997 0.24878
0.091641001 0.14830001 0.22254001
0.09183 0.14765 0.22109
0.091330998 0.14644 0.22157
0.059402999 0.097103998 0.25637999
0.057980001 0.095806003 0.25542
0.059234001 0.096391998 0.25479001
0.085253 0.13905001 0.23258001
0.08292 0.13968 0.23164999
0.084468 0.13947999 0.23252
0.093791001 0.14324 0.27283001
0.093431003 0.14275999 0.27248999
0.091908999 0.14332999 0.27241001
0.053128999 0.14056 0.23616999
0.080972001 0.16986001 0.24309
0.082282998 0.16887 0.24296001
0.082409002 0.1693 0.24199
0.086558998 0.15261 0.27535999
0.086016998 0.15270001 0.27333999
0.086370997 0.15255 0.27520001
0.050294001 0.092468999 0.24571
0.076993003 0.15107 0.22927999
0.076485001 0.15167999 0.2298
0.077128999 0.15007 0.23058
0.043382 0.095911004 0.24089999
0.043014999 0.096531004 0.24167
0.043719999 0.097291 0.24171001
0.045543998 0.13170999 0.24305999
0.044362999 0.13165 0.24371
0.045028001 0.13212 0.24322
0.06419 0.10597 0.25268999
0.064120002 0.10681 0.252
0.065528996 0.1059 0.2527
0.056212999 0.095983997 0.25286001
0.057126001 0.096377 0.2536
0.055447001 0.096083 0.25334001
0.088412002 0.15319 0.26319
0.08839 0.15177 0.26295999
0.088358 0.15164 0.26194999
0.051548999 0.17489 0.25691
0.052538998 0.17396 0.25611001
0.052220002 0.17397 0.25606
0.032572001 0.085616 0.23631001
0.047719002 0.087255999 0.24106
0.048165001 0.088258997 0.24150001
0.075719997 0.1108 0.27665001
0.076493002 0.10966 0.27575001
0.076249003 0.10893 0.27504
0.077895999 0.14887001 0.23182
0.077150002 0.14936 0.23239
0.076679997 0.14952999 0.23143999
0.057649001 0.15772 0.23887999
0.056689002 0.15659 0.23822001
0.055399999 0.1569 0.23908
0.092952996 0.13761 0.27384001
0.093445003 0.13668001 0.27263001
0.092196003 0.13799 0.27258
0.089238003 0.15358 0.23074
0.088541999 0.15313999 0.2304
0.088157997 0.15440001 0.23032001
0.082084998 0.15268999 0.23032001
0.11056 0.15114 0.27285999
0.11121 0.15161 0.27303001
0.11121 0.15154 0.27445999
0.091692999 0.15558 0.23697001
0.091282003 0.15479 0.23624
0.090200998 0.1556 0.23604999
0.094365999 0.15081 0.28466001
0.093075 0.15056001 0.28349
0.093359001 0.14996 0.28569001
0.11612 0.15616 0.27247
0.1162 0.15757 0.27274999
0.11741 0.15654001 0.27272999
0.048634999 0.14681999 0.20705999
0.049208 0.14733 0.20499
0.048666999 0.14834 0.20616999
0.067938 0.15524 0.23365
0.067321002 0.15439001 0.23473001
0.066459998 0.15511 0.23483001
0.038879 0.15900999 0.24823999
0.040351 0.15947001 0.24722999
0.040070999 0.1578 0.24656001
0.075470001 0.12415 0.25240001
0.073688999 0.12381 0.25321001
0.074349999 0.12558 0.25207001
0.043965999 0.14177001 0.20088001
0.044307999 0.14104 0.20186
0.043203998 0.14161 0.20175
0.053826001 0.097121 0.25174999
0.074464001 0.11059 0.27893001
0.074303001 0.11024 0.27976
0.075273998 0.11019 0.27862
0.085270002 0.13246 0.27539
0.086066999 0.13260999 0.27616
0.085496999 0.13291 0.27682
0.12094 0.17039999 0.26949999
0.12123 0.17181 0.27054
0.12125 0.171 0.26905
0.039843999 0.12909 0.25123
0.040516 0.12839 0.25130001
0.040238999 0.12903 0.25174999
0.048041001 0.14706001 0.22889
0.064217001 0.10163 0.25345001
0.064568996 0.10088 0.2538
0.063652001 0.099716 0.25382
0.042886 0.13548 0.22371
0.041900001 0.13513 0.22458
0.040759999 0.13462999 0.22407
0.089101002 0.16537 0.24756999
0.089506999 0.16481 0.24692
0.089704998 0.16404 0.24686
0.073391996 0.15827 0.23193
0.072985999 0.15994 0.23195
0.073647998 0.15864 0.23236001
0.047995001 0.081009999 0.24270999
0.047111999 0.081018999 0.24291
0.046650998 0.080251999 0.24267
0.1225 0.14591999 0.27061
0.12411 0.14709 0.27182999
0.12337 0.14628001 0.27127001
0.075438999 0.10957 0.27772
0.076837003 0.10886 0.27901
0.075645998 0.11003 0.27801001
0.086204998 0.16132 0.23692
0.086707003 0.16291 0.23757
0.086571999 0.16157 0.23667
0.051982999 0.17109001 0.25351
0.062959 0.11396 0.24956
0.062162001 0.1143 0.25038001
0.063082002 0.11371 0.25029001
0.054101001 0.17535 0.25745001
0.055098999 0.17477 0.25612
0.053210001 0.17460001 0.25657001
0.053328 0.089148998 0.25029001
0.051778998 0.088798001 0.24973001
0.052327 0.089420997 0.24857999
0.075107999 0.10629 0.26681
0.075622 0.10505 0.26686001
0.074992001 0.1063 0.26617
0.085662 0.13451 0.25988999
0.086906999 0.13455001 0.26098001
0.087545 0.13312 0.26126999
0.071585 0.16859999 0.23501
0.069758996 0.16993 0.23391999
0.071829997 0.16971999 0.23411
0.058968 0.12116 0.24472
0.056912001 0.12152 0.24529
0.05762 0.12178 0.24437
0.036541998 0.080739997 0.23328
0.037744999 0.080122001 0.23177999
0.036008 0.080054998 0.23285
0.049819998 0.14585 0.21946
0.049155999 0.14771999 0.22032
0.048585001 0.14500999 0.21978
0.067709997 0.18015 0.22386
0.068426996 0.18154 0.22363
0.069343001 0.18019 0.22493
0.071404003 0.18136001 0.22292
0.071122997 0.18132 0.22394
0.070818998 0.18155 0.2235
0.048583999 0.082245998 0.2455
0.048416998 0.082241997 0.2457
0.049067002 0.082427002 0.24575999
0.059470002 0.15143 0.23557
0.057659999 0.15256 0.23477
0.058336001 0.15226001 0.23575
0.094775997 0.1498 0.22803
0.094788 0.15001 0.22834
0.096403003 0.14907999 0.22848
0.098171003 0.14899001 0.27849999
0.099106997 0.14974 0.27987
0.10062 0.14916 0.27943
0.066028997 0.13075 0.23915
0.066018999 0.13196 0.23909
0.06622 0.13244 0.23939
0.070141003 0.15327001 0.23254
0.069931999 0.15324 0.23382001
0.068871997 0.15418001 0.233
0.090829998 0.14552 0.22147
0.090420999 0.145 0.22246
0.088678002 0.14500999 0.22192
0.055982001 0.14382 0.23544
0.053920001 0.14225 0.23624
0.054646 0.14331999 0.23593999
0.0491 0.12868001 0.24281
0.049164999 0.12722 0.24325
0.047187999 0.12826 0.24321
0.051065002 0.15048 0.23558
0.051847 0.15131 0.23575
0.050792001 0.14971 0.2362
0.089783996 0.15550999 0.23304
0.089711003 0.15549 0.2326
0.089307003 0.15578 0.23377
0.037857998 0.083438002 0.23521
0.038113002 0.0845 0.23545
0.042629998 0.1596 0.245
0.043813001 0.15989 0.24608
0.089519002 0.13782001 0.27045
0.088881001 0.13749 0.27059999
0.089757003 0.13831 0.27037001
0.074963003 0.17949 0.23003
0.075975001 0.17771 0.22871999
0.075579002 0.17834 0.22899
0.057866 0.16937999 0.24383999
0.059052002 0.16976 0.24551
0.059858002 0.16913 0.24394999
0.040297002 0.11018 0.25378999
0.041593 0.11025 0.25328001
0.041088 0.10936 0.25284001
0.091319002 0.15312 0.23468
0.091706999 0.15312999 0.23391999
0.091573998 0.15370999 0.23434
0.11188 0.15045001 0.27283001
0.11333 0.15028 0.27318001
0.11261 0.14934 0.27289999
0.088467002 0.14782999 0.26468
0.088451996 0.147 0.26350999
0.088298 0.1477 0.26357001
0.091911003 0.15169001 0.2361
0.092721 0.15082 0.23582999
0.091357 0.15056001 0.23469999
0.095251001 0.15004 0.28295001
0.095914997 0.14964999 0.28453001
0.1017 0.14496 0.27505001
0.10203 0.14622 0.27537
0.10314 0.14494 0.27524
0.093602002 0.14486 0.22287001
0.092266001 0.14379001 0.22287001
0.090981998 0.14522 0.22194999
0.061535999 0.15363 0.1823
0.061322 0.15398 0.18287
0.061035998 0.15332 0.18266
0.074242003 0.17197999 0.23086999
0.074822001 0.17111 0.23063
0.075167 0.17128 0.23063
0.090539001 0.16762 0.24578001
0.090717003 0.16850001 0.24547
0.089743003 0.1688 0.24606
0.052196 0.15828 0.18573
0.052468002 0.15880001 0.18567
0.051451001 0.15730999 0.18630999
0.096727997 0.14835 0.23405001
0.096542999 0.14824 0.23333
0.097471997 0.14837 0.23280001
0.038302001 0.11808 0.26313001
0.053284999 0.092001997 0.25562
0.053661998 0.090834998 0.25429001
0.047398999 0.14557 0.21294001
0.047791999 0.14497 0.21185
0.04778 0.14619 0.21343
0.039393 0.093783997 0.23747
0.038943 0.093051001 0.23725
0.036991 0.093604997 0.23824
0.039466999 0.1434 0.19969
0.038617 0.14387 0.19879
0.039907999 0.14503001 0.19736999
0.11745 0.16655999 0.27386001
0.11737 0.1665 0.27596
0.11771 0.1671 0.27540001
0.056113001 0.15321 0.18253
0.057209 0.15284 0.18347999
0.055854999 0.15259001 0.18424
0.051449001 0.10567 0.24945
0.052949999 0.10609 0.24997
0.052993 0.10376 0.25023001
0.031102 0.10057 0.24773
0.03067 0.10036 0.24814001
0.031263001 0.10092 0.24880999
0.085951999 0.13138001 0.26118001
0.087447003 0.13299 0.26264
0.086033002 0.13132 0.26236999
0.055238001 0.092817999 0.25569001
0.055096 0.093898997 0.25441
0.055514 0.094025001 0.25511
0.045664001 0.10748 0.24925999
0.044493999 0.1078 0.24973001
0.045653999 0.10818 0.24979
0.067946002 0.17467 0.23463
0.066903003 0.17313001 0.23552001
0.067590997 0.17454 0.23665
0.12231 0.16052 0.27070999
0.122 0.16192 0.27116001
0.12251 0.16153 0.27153
0.058563001 0.15707 0.23882
0.059315 0.15761 0.23804
0.058908999 0.15714 0.23801
0.039152 0.16615 0.25736001
0.038706001 0.16413 0.25685
0.038428999 0.16491 0.25619999
0.062743999 0.11851 0.24919
0.064397 0.11843 0.2482
0.064778998 0.11818 0.24789999
0.064423002 0.11259 0.25014001
0.063148998 0.11153 0.25016999
0.062834002 0.1125 0.24967
0.027603 0.097691998 0.24957
0.029343 0.098692 0.24811999
0.028712001 0.098121002 0.24839
0.058056001 0.12792 0.23898
0.059014 0.12849 0.23917
0.058332 0.12603 0.23996
0.077191003 0.13627 0.25093001
0.077739 0.13536 0.25075001
0.10537 0.14230999 0.27283001
0.10431 0.14125 0.27416
0.10397 0.14116 0.27423
0.081837997 0.16312 0.23481999
0.081643 0.16393 0.23373
0.079967 0.16394 0.23406
0.038816001 0.096510001 0.23926
0.040663 0.096028998 0.23955999
0.039184999 0.096363001 0.23879001
0.051082 0.10307 0.24834999
0.050655998 0.10096 0.24828
0.051335 0.10254 0.24699
0.037376001 0.072536997 0.2359
0.038848002 0.072426997 0.23554
0.038408998 0.071702003 0.23592
0.098995 0.18145999 0.25095001
0.099233001 0.18152 0.24942
0.10049 0.18286 0.24997
0.035222001 0.092540003 0.23729999
0.035484999 0.090945996 0.23713
0.036265001 0.090792 0.23552001
0.049872998 0.099826999 0.24695
0.049185999 0.098913997 0.24591
0.049106002 0.098857999 0.24528
0.070008002 0.14802 0.23988
0.070375003 0.14888 0.23958001
0.070072003 0.14893 0.23885
0.072264999 0.12848 0.24948999
0.073481999 0.12929 0.25009999
0.073565997 0.12858 0.2507
0.057126001 0.16592 0.2437
0.057013001 0.16694 0.24365
0.058047999 0.16605 0.24304
0.070109002 0.10718 0.25691
0.070735 0.10812 0.25576001
0.070683002 0.10771 0.25512999
0.11123 0.15347999 0.27410001
0.11089 0.15346 0.27353999
0.11238 0.15388 0.27293
0.11131 0.15719 0.27339
0.10975 0.15695 0.27292001
0.11016 0.15786999 0.27287999
0.040693998 0.077853002 0.23636
0.042204998 0.078657001 0.23695999
0.042227 0.077017002 0.23716
0.11799 0.13921 0.27847999
0.11761 0.13874 0.27711999
0.11791 0.1393 0.27783999
0.045244999 0.12226 0.25242001
0.045534 0.12313 0.25178999
0.054159001 0.14729001 0.17989001
0.054145001 0.14643 0.18066999
0.052762002 0.14624 0.18062
0.095181003 0.14964999 0.28049999
0.094385996 0.14929 0.28127
0.095035002 0.15003 0.28215
0.037374001 0.073641002 0.23278999
0.035923999 0.073928997 0.23262
0.035829999 0.0748 0.23143999
0.056081999 0.14598 0.18165
0.054878999 0.14591999 0.18163
0.054280002 0.14548001 0.18118
0.11877 0.17053001 0.27044001
0.10375 0.14733 0.27355999
0.10346 0.14754 0.27386999
0.10231 0.14853001 0.27384999
0.057569001 0.15429001 0.18049
0.063437998 0.096845999 0.25519001
0.062178999 0.095765002 0.25595
0.062213998 0.096767999 0.25516
0.060208 0.13880999 0.23646
0.059838001 0.13912 0.23649999
0.059904002 0.14048 0.23738
0.1051 0.14174999 0.27257001
0.10404 0.14368001 0.27337
0.10454 0.14401001 0.27193999
0.035239998 0.15162 0.19881
0.036332998 0.1521 0.19752
0.036915999 0.15042999 0.19825999
0.123 0.16688 0.26986
0.12324 0.16639 0.26932001
0.1232 0.16656999 0.27013001
0.060384002 0.16404 0.24355
0.061218999 0.16314 0.24164
0.060065001 0.16303 0.24255
0.040727999 0.15781 0.19441999
0.041338 0.15786999 0.19339
0.040291 0.15646 0.19394
0.055635002 0.15467 0.18075
0.054462999 0.15375 0.18228
0.054225001 0.15421 0.18253
0.074189 0.11531 0.25792
0.074314997 0.11609 0.25917
0.074344002 0.11492 0.25870001
0.087165996 0.14162 0.23088001
0.087449998 0.14116 0.23097999
0.087582998 0.14049999 0.23127
0.02908 0.098958999 0.24759001
0.11762 0.16412 0.27704
0.1168 0.16475999 0.27552
0.11614 0.16401 0.27601001
0.075451002 0.11066 0.27147001
0.074743003 0.11099 0.27111
0.074202001 0.11317 0.27076
0.049973 0.1737 0.25887999
0.048967 0.1743 0.25856
0.049300998 0.17512 0.25940999
0.12564 0.15963 0.26995
0.12532 0.15955999 0.26966
0.12429 0.15915 0.27006999
0.061105002 0.15414 0.1813
0.076729 0.17101 0.22938
0.076328002 0.17239 0.22987001
0.060708001 0.16283 0.18457
0.061386999 0.16221 0.18460999
0.060975 0.16250999 0.18478
0.029030999 0.080146998 0.24059001
0.029960001 0.081146002 0.23972
0.029972 0.080440998 0.23968001
0.044119 0.087863997 0.23751999
0.043876 0.087962002 0.23642001
0.092343003 0.15206 0.2369
0.091431998 0.15127 0.23709001
0.092193 0.15124001 0.23779
0.086553998 0.13246 0.26322001
0.087328002 0.13318001 0.26267999
0.051231001 0.123 0.24485999
0.051920999 0.12326 0.24496999
0.050717998 0.12331 0.24538
0.090732999 0.16891 0.24445
0.091865003 0.16892 0.24525
0.091482997 0.16991 0.24432001
0.043496002 0.17234001 0.26462001
0.043646 0.17223001 0.26488
0.043517001 0.17155001 0.26381001
0.039167002 0.13821 0.20974
0.03858 0.13801 0.20946001
0.038954001 0.13762 0.20888001
0.087952003 0.15944999 0.23886999
0.088886 0.16038001 0.23988
0.088872001 0.15988 0.23871
0.12766001 0.16169 0.26804
0.12715 0.16305999 0.26833999
0.12661 0.16234 0.26822999
0.062176999 0.16216999 0.18616
0.061101999 0.16398001 0.18568
0.062137999 0.16249 0.18603
0.053505 0.13620999 0.23707999
0.052281 0.13628 0.23754001
0.051112 0.13641 0.23739
0.044792999 0.14198001 0.19993
0.045942001 0.14134 0.20108999
0.045348998 0.14095999 0.20167001
0.091077998 0.16733 0.24516
0.092092998 0.16712999 0.24482
0.072601996 0.12668 0.2511
0.072369002 0.12658 0.25015
0.073977001 0.12712 0.25016999
0.068007998 0.11974 0.24921
0.067653 0.11737 0.24986
0.066716999 0.11906 0.24848001
0.036380999 0.10349 0.24731
0.036056999 0.10398 0.24857
0.037131 0.10392 0.24953
0.041804001 0.16344 0.25106999
0.042180002 0.16361 0.25167999
0.043285999 0.16364001 0.25136
0.073895998 0.12001 0.25560999
0.075177997 0.12064 0.25731999
0.074506998 0.11958 0.25553
0.039375 0.092391998 0.23745
0.040034998 0.090806998 0.23686001
0.040075999 0.091470003 0.23622
0.047747999 0.11663 0.25281999
0.047848001 0.11702 0.25213
0.048252001 0.11643 0.25292999
0.034007002 0.10421 0.25314999
0.035395 0.10497 0.25329
0.035810001 0.10579 0.25277001
0.12622 0.15577 0.27046999
0.12548999 0.15616 0.27089
0.12445 0.15583999 0.27046001
0.099297002 0.14749999 0.22318999
0.098669998 0.14753 0.22499
0.098517001 0.14756 0.22511999
0.052627999 0.14166 0.23619001
0.054203 0.14058 0.23596001
0.072663002 0.15161 0.23115
0.073559999 0.15075 0.23105
0.072728999 0.15075999 0.23174
0.051291998 0.14969 0.18206
0.050303001 0.14907999 0.18262
0.049667999 0.14935 0.18329
0.038033001 0.11281 0.26069
0.037932001 0.11232 0.26126999
0.038593002 0.11442 0.26122999
0.073278002 0.13373999 0.25038999
0.072117001 0.13212 0.2492
0.073123001 0.13333 0.24944
0.12916 0.16571 0.26627001
0.1287 0.16536 0.26716
0.12901001 0.16683 0.26708001
0.030144 0.081312999 0.23993
0.029902 0.081115998 0.23852
0.029781001 0.081721 0.24022999
0.076792002 0.17619 0.22919001
0.076794997 0.17535 0.22878
0.076558001 0.17568 0.22841001
0.051266 0.12943999 0.23984
0.050631002 0.13033 0.24070001
0.051096 0.13089 0.24015
0.094865002 0.15041 0.22587
0.043359 0.12561999 0.25049999
0.043790001 0.12548 0.25064
0.042631999 0.12625 0.25095999
0.075108998 0.17217 0.23052
0.046576001 0.11709 0.25194001
0.047093999 0.11787 0.25193
0.046964999 0.081598997 0.24117
0.046897002 0.080847003 0.24213
0.093108997 0.15221 0.2314
0.092822 0.15275 0.23071
0.092175998 0.15276 0.23241
0.091054998 0.17728999 0.24548
0.090871997 0.17597 0.2455
0.090861 0.17704 0.24556001
0.057750002 0.16906001 0.24572
0.057174999 0.16985001 0.24519999
0.066004999 0.15504 0.2352
0.065439999 0.15676001 0.23556
0.11489 0.14480001 0.27149999
0.11694 0.14625999 0.27188
0.11741 0.14489999 0.27085
0.056033999 0.11925 0.2476
0.054529 0.12097 0.24771
0.056430001 0.12099 0.24725001
0.043088999 0.1401 0.20548999
0.045217 0.14019001 0.20601
0.044528 0.13936999 0.20693
0.046464998 0.12159 0.25196999
0.049931001 0.13585 0.23785999
0.049338002 0.13473 0.23817
0.049072001 0.13511001 0.23767
0.071323 0.15107 0.23284
0.071672 0.15125 0.23389
0.071730003 0.15107 0.23483001
0.10705 0.15386 0.27399001
0.10775 0.15239 0.27397001
0.10694 0.15245 0.27397001
0.092504002 0.13505 0.27294999
0.091674998 0.13582 0.27327001
0.091669001 0.13708 0.27252001
0.038520999 0.073797002 0.23472001
0.038265999 0.073645003 0.23522
0.086989999 0.17234001 0.24541999
0.08839 0.17151 0.24459
0.086529002 0.17168 0.24567001
0.041133001 0.084705003 0.23449001
0.040422 0.085142002 0.23538999
0.041301001 0.084730998 0.2357
0.053835999 0.14918999 0.1811
0.053431999 0.14924 0.18201999
0.054738 0.14968 0.18252
0.068172999 0.13962001 0.24517
0.06758 0.13804001 0.24394
0.066606998 0.13802999 0.2428
0.03404 0.098792002 0.24339999
0.033526 0.099403001 0.24429999
0.035852 0.099633999 0.24379
0.074694 0.14489999 0.23971
0.074988998 0.14424001 0.24003001
0.074502997 0.14362 0.24033
0.051328 0.16685 0.19041
0.085902996 0.15654001 0.23173
0.085497998 0.15776999 0.23127
0.085385002 0.15677001 0.23094
0.035691001 0.15045001 0.19791
0.035321999 0.14896999 0.19911
0.072428003 0.11535 0.26128
0.072333999 0.1141 0.26247999
0.073163003 0.11392 0.26104
0.046939 0.15144999 0.23378
0.04758 0.15095 0.23292001
0.047024999 0.15132999 0.23139
0.057642002 0.16029 0.24044999
0.05855 0.16037001 0.24042
0.059326001 0.15785 0.23988
0.036396001 0.07147 0.2342
0.035737 0.070615999 0.23512
0.033902001 0.070557997 0.23521
0.060022999 0.16234 0.18601
0.061177999 0.16135 0.1867
0.1089 0.15983 0.27708
0.10981 0.16185001 0.27652001
0.10186 0.15164 0.27912
0.1016 0.15139 0.27911001
0.101 0.15016 0.27954
0.054510999 0.10151 0.25031999
0.056612 0.099807002 0.25167
0.055334002 0.10005 0.25062001
0.079368003 0.15967999 0.23072
0.079025 0.15915 0.23063999
0.078027003 0.15995 0.22998001
0.090332001 0.16757999 0.24459
0.090778001 0.16806 0.24324
0.11937 0.17122 0.27371001
0.11843 0.16988 0.27377
0.1187 0.17007001 0.27384001
0.059556 0.15345 0.18183
0.059652999 0.15304001 0.18223999
0.057845999 0.1534 0.18148001
0.12541001 0.15375 0.27098
0.12417 0.15436999 0.27179
0.12442 0.15451001 0.27121001
0.056667998 0.094230004 0.25644001
0.055507999 0.094478004 0.25516999
0.056226 0.094972998 0.25529999
0.066243999 0.14024 0.24265
0.066432998 0.13933 0.24397001
0.066659003 0.13953 0.24244
0.059525002 0.14075001 0.23654
0.059445001 0.13999 0.2378
0.10692 0.14494 0.27136999
0.10549 0.145 0.27153999
0.10735 0.14599 0.27136999
0.032981999 0.15284 0.19976
0.032570001 0.15334 0.20107
0.033651002 0.15381999 0.20121001
0.040227 0.13150001 0.24696
0.040463001 0.13065 0.24801999
0.039841 0.13086 0.24878
0.0583 0.13248 0.23713
0.059078999 0.13417 0.23668
0.058844998 0.13339999 0.23673999
0.046815 0.13457 0.23193
0.045830999 0.13510001 0.23164
0.046149001 0.13440999 0.23288
0.036678001 0.14155 0.20319
0.036584001 0.14156 0.20415001
0.036238 0.14216 0.20352
0.043331001 0.079066001 0.23773
0.043869 0.078470998 0.23938
0.043283001 0.078351997 0.23915
0.089511 0.14866 0.22209001
0.088793002 0.14721 0.22227
0.088281997 0.14771 0.22357
0.11909 0.17134 0.27022001
0.11954 0.17274 0.27441999
0.11957 0.17125 0.27437001
0.047605999 0.14824 0.18469
0.047665998 0.14808001 0.18345
0.048257001 0.14706001 0.18367
0.060931001 0.15757 0.23713
0.10306 0.15404999 0.27693999
0.10274 0.1531 0.27621999
0.10287 0.15318 0.27788001
0.1126 0.15810999 0.27327001
0.11241 0.15917 0.27248999
0.11347 0.1586 0.27250001
0.073188998 0.11133 0.25867999
0.073179998 0.11184 0.25966999
0.072924003 0.11038 0.25938001
0.089796998 0.15219 0.22789
0.091917999 0.1521 0.22889
0.090653002 0.15165 0.22709
0.062795997 0.12076 0.24710999
0.063008003 0.1201 0.24773
0.061987001 0.11984 0.24710999
0.079634003 0.14211001 0.23308
0.078869 0.14300001 0.234
0.079387002 0.14414001 0.23421
0.042597 0.10127 0.24415
0.043542001 0.10139 0.24532001
0.043419 0.10133 0.24534
0.049745999 0.090170003 0.24451999
0.049996998 0.088955 0.24478
0.081752002 0.16566999 0.23689
0.081716001 0.16477001 0.23529001
0.081551 0.16422001 0.23507001
0.049830001 0.14327 0.23305
0.050227001 0.14179 0.23464
0.050611999 0.1425 0.23291001
0.062735997 0.097121 0.25584999
0.063178003 0.097650997 0.25488999
0.050324999 0.091020003 0.24404
0.050921001 0.090786003 0.24473
0.062531002 0.097570002 0.25453001
0.063803002 0.097685002 0.25461999
0.070372999 0.12560999 0.24639
0.070956998 0.12602 0.24666999
0.041448001 0.16855 0.26019999
0.075268 0.1736 0.25589001
0.073894002 0.17456999 0.25691
0.075967997 0.17321 0.25628999
0.10961 0.13683 0.27818999
0.10922 0.13687 0.27695
0.10972 0.13733 0.27542999
0.039455 0.10482 0.24805
0.040387999 0.10443 0.24913
0.039542999 0.10387 0.24880999
0.085088 0.17374 0.24688999
0.086154997 0.17304 0.24666999
0.085741997 0.1727 0.24708
0.047302999 0.15369 0.18444
0.048034001 0.15306 0.18395001
0.047865 0.1529 0.18528999
0.061315998 0.11104 0.25097001
0.034689002 0.10695 0.25802001
0.034766998 0.10699 0.25865999
0.035241999 0.10731 0.25661001
0.050802 0.17564 0.26005
0.049617998 0.17472 0.26163
0.051127002 0.17468999 0.26108
0.046668001 0.14666 0.18638
0.046530001 0.14708 0.18574999
0.076858997 0.17792 0.2305
0.076890998 0.17697001 0.23081
0.076753996 0.17673001 0.22888
0.065900996 0.10108 0.25398999
0.065444 0.103 0.25395
0.065821998 0.10257 0.25422001
0.095434003 0.17895 0.24868
0.095982999 0.17859 0.24884
0.094857 0.17894 0.24880999
0.10561 0.13765 0.27575001
0.10418 0.13773 0.27548
0.10386 0.13868999 0.27587
0.035642002 0.089617997 0.2358
0.035168 0.089668997 0.23573001
0.13060001 0.17212 0.26321
0.12957001 0.17219 0.26341
0.13005 0.17158 0.26445001
0.042660002 0.10935 0.25053999
0.043278001 0.10953 0.25123999
0.080367997 0.12794 0.25242999
0.079649001 0.1295 0.25172001
0.080199003 0.12853999 0.25173
0.11926 0.16964 0.27140999
0.11914 0.17041001 0.27184001
0.091406003 0.15106 0.28365001
0.090731002 0.15164 0.28433001
0.090732001 0.15098999 0.28529999
0.045334999 0.17181 0.26034999
0.045465 0.17258 0.25996
0.046528999 0.17269 0.25962001
0.12232 0.14287999 0.27573001
0.12226 0.14263 0.27687001
0.1224 0.14247 0.27544999
0.089524999 0.15955999 0.23688
0.087986998 0.15826 0.23669
0.089092001 0.15883 0.23731001
0.049704999 0.15776999 0.24109
0.050205 0.15763 0.24026
0.048507001 0.15749 0.24038
0.033578001 0.1529 0.20049
0.11378 0.13979 0.27186999
0.11495 0.1399 0.27254
0.11338 0.13932 0.27279001
0.067451999 0.18323 0.22249
0.068391003 0.18311 0.22152001
0.067299001 0.18305001 0.22225
0.077010997 0.17204 0.24268
0.077734999 0.17048 0.24132
0.067241997 0.12382 0.24352001
0.067878 0.12387 0.24417999
0.067754999 0.12426 0.24450999
0.038252 0.10881 0.25579
0.038601998 0.11015 0.25644001
0.038373001 0.1091 0.255
0.051947001 0.16215999 0.18544
0.053072002 0.16082001 0.18466
0.053027 0.16065 0.18468
0.11778 0.14582001 0.27089
0.1247 0.17743 0.26784
0.12436 0.17761999 0.26583999
0.12497 0.17854001 0.26617
0.047368001 0.082015 0.25161999
0.048278999 0.082901999 0.25185001
0.047201999 0.081600003 0.25205001
0.058286 0.13628 0.23705
0.058185998 0.13704 0.23548
0.059378002 0.13801 0.23563001
0.052919 0.11069 0.25077999
0.053197999 0.11034 0.24999
0.054056998 0.1099 0.25040001
0.066592 0.096624002 0.25960001
0.066284001 0.095674001 0.25830999
0.066485003 0.096842997 0.25898001
0.072581001 0.1151 0.25453001
0.071878999 0.11538 0.25433999
0.072572999 0.11618 0.25299001
0.059243999 0.14861999 0.23593999
0.059482001 0.14902 0.23585001
0.059216 0.14771999 0.23807
0.069397002 0.10299 0.25608999
0.068424001 0.10115 0.25611001
0.067282997 0.10141 0.25580001
0.027815999 0.092972003 0.24743
0.027183 0.092234999 0.24620999
0.027292 0.092134997 0.24815001
0.049504001 0.083444998 0.24745999
0.04933 0.083869003 0.24586
0.04981 0.083962999 0.24703
0.055498 0.11829 0.24856
0.054308999 0.11878 0.2484
0.053929999 0.11943 0.24867
0.095563002 0.14308 0.2271
0.095825002 0.14417 0.2265
0.097217999 0.14392 0.22672001
0.077184997 0.16746999 0.23408
0.078775004 0.16569 0.23503
0.076906003 0.16683 0.2352
0.074221 0.11456 0.26468
0.074302003 0.11554 0.26721999
0.074316002 0.11364 0.26572999
0.043209001 0.12072 0.25490001
0.043021999 0.11938 0.25486001
0.041900001 0.12116 0.25600001
0.084744997 0.17318 0.24906
0.085541002 0.1736 0.24787
0.048431002 0.14714 0.2296
0.048813 0.14595 0.22861999
0.068053998 0.098274998 0.25617999
0.068168998 0.098132998 0.25775
0.041901 0.14071 0.20146
0.053594999 0.17645 0.25981
0.054060001 0.17579 0.25854
0.053493001 0.17509 0.25780001
0.09341 0.14263 0.22549
0.094779 0.14416 0.22578999
0.093505003 0.14301001 0.22615001
0.041331001 0.1532 0.19111
0.041524999 0.15279 0.19038001
0.040302001 0.15277 0.19213
0.054184001 0.14843 0.18465
0.055371001 0.14831001 0.18359999
0.053996 0.1497 0.18449
0.042263001 0.16514 0.25363001
0.041875001 0.16481 0.25290999
0.042137001 0.16474 0.25338
0.097154997 0.13762 0.27383
0.098155998 0.13626 0.27419001
0.09612 0.13680001 0.27390999
0.058493 0.10688 0.25053999
0.056457002 0.10755 0.24954
0.058047999 0.10711 0.2509
0.062194999 0.15256999 0.23706999
0.063266002 0.15166 0.23769
0.062031001 0.15158001 0.23864
0.047740001 0.16199 0.24405
0.049028002 0.16321 0.24393
0.049834002 0.1628 0.24496
0.055449001 0.15317 0.18208
0.055009998 0.15360001 0.18279
0.050870001 0.087026 0.24729
0.052375 0.087531999 0.24835999
0.050294001 0.086043 0.24687999
0.047478002 0.12035 0.2516
0.046835002 0.12125 0.25121999
0.048064999 0.12061 0.25003001
0.075061001 0.12715 0.25127
0.080058001 0.14236 0.2321
0.081413001 0.14097001 0.23277999
0.072931997 0.11581 0.2554
0.073385999 0.11519 0.25586
0.093699999 0.14921001 0.27535
0.093685001 0.14975999 0.27555999
0.094090998 0.14973 0.27704
0.040945999 0.16087 0.19413
0.04197 0.16253 0.19415
0.041328002 0.16029 0.19314
0.11664 0.13889 0.27934
0.11567 0.13858999 0.27857
0.076895997 0.12884 0.24978
0.076052003 0.12988999 0.25044
0.078330003 0.13079 0.25071001
0.069277003 0.13237 0.24218
0.069268003 0.13225 0.24296001
0.069656 0.13107 0.24191
0.035634998 0.15855999 0.25275001
0.035937 0.15915 0.25213999
0.036658 0.15836 0.25127
0.12109 0.14413001 0.27107
0.12101 0.14554 0.27015001
0.12191 0.14551 0.27099001
0.029321 0.078178003 0.23894
0.029214 0.078084998 0.23976
0.079132996 0.13573 0.25137001
0.079511002 0.13474 0.25137001
0.034632999 0.07384 0.23296
0.036664002 0.073613003 0.23266999
0.03568 0.072577 0.23380999
0.029452 0.074143998 0.23853
0.028868999 0.074707001 0.23982
0.028905001 0.075062998 0.23826
0.095228001 0.13425 0.27355999
0.096743003 0.13489 0.27469999
0.095353 0.1346 0.27454999
0.085426003 0.15607999 0.22948
0.086875997 0.15516999 0.2308
0.085444003 0.1542 0.23075999
0.078933001 0.1301 0.25191
0.078083999 0.13125999 0.25009
0.079700999 0.13145 0.25108999
0.066881001 0.16994999 0.23367
0.067273997 0.17141999 0.23309
0.066991001 0.17054 0.23243
0.12153 0.16861001 0.26971999
0.12216 0.16944 0.26901999
0.12309 0.16895001 0.26877001
0.055101 0.16772 0.19248
0.055452999 0.16944 0.19201
0.055567998 0.16960999 0.19244
0.069020003 0.12042 0.24966
0.069245003 0.11828 0.24954
0.049439002 0.17323001 0.25751001
0.047933001 0.17306 0.25753999
0.048941001 0.17355999 0.25917
0.084951997 0.14792 0.22504
0.085060999 0.14937 0.22445001
0.084996 0.14791 0.2234
0.04941 0.096556999 0.24478
0.048106998 0.097447 0.24446
0.048625998 0.098236002 0.24583
0.076888002 0.17490999 0.23082
0.076264001 0.17636 0.23227
0.076484002 0.17596 0.23227
0.095426999 0.14271 0.27342001
0.096436001 0.14089 0.27408999
0.095890999 0.1417 0.27226999
0.064571999 0.15707999 0.23588
0.065342002 0.15809999 0.23577
0.065770999 0.15757 0.23503999
0.046448998 0.079325996 0.24683
0.046284001 0.079269998 0.24721
0.045260999 0.078358002 0.24613
0.030191001 0.078231998 0.23671
0.031399 0.077831998 0.23650999
0.030616 0.077630997 0.23607001
0.11147 0.16038001 0.27366
0.11142 0.15922999 0.27292001
0.10981 0.16012 0.2739
0.070018999 0.17754 0.25364
0.069758996 0.17595001 0.25193
0.069806002 0.17784999 0.25426999
0.073824003 0.13527 0.24966
0.073954999 0.13754 0.24824999
0.075056002 0.13662 0.25007999
0.073732004 0.12709001 0.25097001
0.073535003 0.12489 0.25036001
0.043496002 0.10214 0.24564999
0.085000001 0.17182 0.24609999
0.053830002 0.091949999 0.25595999
0.053254001 0.091185004 0.25652
0.075589001 0.15151 0.23032001
0.075161003 0.15174 0.23063999
0.058527 0.15306 0.18216
0.062521003 0.11117 0.25093001
0.062403001 0.11164 0.25068
0.087159999 0.13552 0.26916999
0.08749 0.1364 0.2692
0.087305002 0.13533001 0.27048999
0.051704001 0.16974001 0.19153
0.050305001 0.16982 0.19334
0.052492 0.17072 0.19249
0.056028999 0.14759 0.18036
0.056433 0.14609 0.18085
0.055892002 0.14597 0.17993
0.087572001 0.17664 0.24754
0.087020002 0.17573 0.24656001
0.086809002 0.17613 0.248
0.043898001 0.090476997 0.23872
0.027503001 0.092160001 0.24526
0.027852001 0.093415998 0.24538
0.028042 0.092765003 0.24472
0.11886 0.17104 0.27158999
0.11858 0.17059 0.27195001
0.048732001 0.093658999 0.24254
0.047456998 0.092951998 0.24203999
0.047143001 0.092808999 0.24123
0.052692998 0.16506 0.19365001
0.052797999 0.16472 0.19414
0.053233001 0.16527 0.19309001
0.037464999 0.10353 0.24787
0.037324999 0.10297 0.24656001
0.036555 0.10234 0.24639
0.046307001 0.088140003 0.23998
0.045800999 0.087739997 0.24067
0.075291 0.16796 0.2333
0.074919 0.16852 0.23222999
0.048418 0.12973 0.24304999
0.047047999 0.13066 0.24338
0.047269002 0.13125999 0.24288
0.045001999 0.076581001 0.2456
0.044989999 0.077244997 0.24527
0.045506001 0.078152999 0.24484
0.048930999 0.14793 0.23402999
0.050186001 0.14835 0.23348001
0.049656 0.14823 0.234
0.092106998 0.15545 0.237
0.091972001 0.1557 0.23671
0.092215002 0.15616 0.23675001
0.032219999 0.079464003 0.23382001
0.032731999 0.080360003 0.23406
0.032457002 0.079696 0.23328
0.043639001 0.091867 0.23851
0.042146001 0.090475 0.23724
0.069145001 0.14946 0.23909999
0.067689002 0.1494 0.23991001
0.067086004 0.15005 0.24004
0.033128999 0.15758 0.20412999
0.034231 0.15778001 0.2035
0.032809999 0.15795 0.20395
0.088418998 0.15081 0.27326
0.087852001 0.15115 0.27340001
0.088834003 0.15044001 0.27268001
0.089198001 0.14317 0.2242
0.088460997 0.14273 0.22652
0.087722003 0.14211001 0.22516
0.094558001 0.15007 0.23018
0.094158001 0.15072 0.22937
0.093771003 0.15058 0.23036
0.12585001 0.14955001 0.27344
0.12601 0.1487 0.27322999
0.12376 0.14842001 0.27189001
0.087287001 0.15572 0.23159
0.055128001 0.12144 0.24733
0.055527002 0.12032 0.24903999
0.054432999 0.12074 0.24835999
0.065127999 0.15323 0.23615
0.065583996 0.15277 0.23652001
0.065093003 0.15339001 0.23720001
0.057255 0.11064 0.25060001
0.057514001 0.11118 0.25042999
0.05742 0.11094 0.25031999
0.054508999 0.10095 0.24999
0.048427001 0.14832 0.23145001
0.048951 0.14996 0.23129
0.048432 0.14862999 0.23183
0.097273998 0.14383 0.22859
0.096412003 0.14418 0.22866
0.084151998 0.14576 0.22514001
0.083323002 0.14622 0.22554
0.084174 0.1469 0.22498
0.033647001 0.10458 0.25079
0.034465998 0.10421 0.25081
0.033686001 0.10402 0.24996001
0.076917 0.17496 0.22961999
0.076693997 0.17321 0.22968
0.052340999 0.099096999 0.24798
0.050857998 0.10032 0.24789
0.052409001 0.10021 0.24821
0.048064001 0.14704999 0.20897
0.049332 0.14787 0.20990001
0.048292 0.14613999 0.20946001
0.047405999 0.14060999 0.22551
0.048179999 0.14112 0.226
0.047997002 0.14036 0.22578999
0.083209999 0.16709 0.23799001
0.082188003 0.16727 0.2394
0.044318002 0.078364998 0.24214
0.044043999 0.077417001 0.24039
0.044385999 0.078240998 0.24084
0.084221996 0.12779 0.25771999
0.083738998 0.12615 0.25869
0.083209999 0.12633 0.25779
0.052779 0.089768998 0.25492001
0.052062001 0.089974001 0.25468001
0.052958 0.089437999 0.25457001
0.12144 0.16491 0.27076
0.12132 0.16587 0.27114001
0.049350999 0.14879 0.21683
0.049467999 0.14752001 0.21634001
0.049396999 0.14668 0.21633001
0.057009 0.1375 0.23574001
0.055787001 0.13674 0.23657
0.05601 0.13819 0.23669
0.113 0.15721001 0.27210999
0.11403 0.15594 0.27373999
0.11351 0.15558 0.27315
0.067230001 0.16481 0.23710001
0.067597002 0.16408999 0.23658
0.067869999 0.16374999 0.23556
0.036667999 0.13953 0.20536
0.036872 0.14086001 0.20552
0.036936 0.14126 0.20521
0.049936 0.16415 0.24695
0.049593002 0.16425 0.24747001
0.050147001 0.16402 0.24831
0.063844003 0.15368 0.23669
0.063124001 0.15368 0.23534
0.064957 0.15397 0.23608001
0.10761 0.14031 0.27180001
0.10959 0.13957 0.27257001
0.10801 0.13905001 0.27271
0.069587998 0.10271 0.25565001
0.070078 0.10331 0.25637001
0.079115003 0.15063 0.22975001
0.078359 0.15028 0.23018999
0.077841997 0.15187 0.22969
0.052226 0.17487 0.2577
0.051610999 0.17476 0.25797999
0.051865999 0.17535 0.25777
0.11237 0.15104 0.27313
0.11352 0.15181001 0.27388999
0.083081998 0.14588 0.22864
0.081444003 0.14631 0.22979
0.082364999 0.14644 0.22832
0.076513998 0.17024 0.23295
0.077289 0.17107999 0.23464
0.077067003 0.17048 0.23419
0.044362001 0.11906 0.25413999
0.044977002 0.11995 0.2534
0.032938998 0.098912001 0.24358
0.033059999 0.097878002 0.24181999
0.032230001 0.097635001 0.24405
0.049174 0.10775 0.24946
0.049648002 0.10757 0.25005999
0.049619999 0.10706 0.24879999
0.039427001 0.088101 0.23496
0.040677998 0.087849997 0.23545
0.039836001 0.087292999 0.2353
0.03263 0.14814 0.20081
0.033620998 0.149 0.20028
0.032134 0.14733 0.20056
0.06208 0.11867 0.24831
0.061671998 0.11976 0.24779999
0.06236 0.11889 0.24803001
0.081660002 0.14128999 0.23208
0.082088001 0.14029001 0.233
0.039558999 0.10871 0.25273001
0.038729001 0.10835 0.25207999
0.062735997 0.14040001 0.23756
0.063380003 0.14093 0.24002001
0.064015001 0.14091 0.23909999
0.088500001 0.14444 0.22304
0.088743001 0.14575 0.22171
0.054986998 0.17169 0.25046
0.05514 0.16998 0.24999
0.054634001 0.17067 0.25042999
0.04575 0.13342001 0.23998
0.046376001 0.13433 0.23934001
0.047054 0.13357 0.24031
0.044925999 0.13441999 0.2335
0.044697002 0.13399 0.23334
0.042991001 0.13313 0.23384
0.035891 0.084365003 0.23484001
0.034499001 0.086634003 0.23523
0.036539 0.085661002 0.23453
0.036694001 0.10752 0.25597
0.036341999 0.10693 0.25409001
0.034926001 0.10714 0.25555
0.041503001 0.069395997 0.23828
0.042057 0.068683997 0.23978999
0.040748 0.068549 0.23901001
0.052175 0.093786001 0.24762
0.051649999 0.093956001 0.24783
0.084044002 0.16235 0.23551001
0.082772002 0.16362999 0.23513
0.083627999 0.16422001 0.23522
0.034301002 0.15223999 0.19954
0.033876002 0.15164 0.19904999
0.033183001 0.15151 0.19948
0.048611999 0.16615 0.24993999
0.050990999 0.16649 0.25022
0.048904002 0.16590001 0.25003999
0.047527999 0.13497999 0.23388
0.046158999 0.13397001 0.23362
0.098172002 0.13744 0.27399999
0.097616002 0.13799 0.27419001
0.098162003 0.13897 0.27384001
0.069958001 0.16289 0.23413999
0.068403997 0.16354001 0.23464
0.069798 0.16338 0.23503
0.076802999 0.16879 0.23436999
0.052878998 0.1583 0.24141
0.052797001 0.15854999 0.24139
0.052536 0.15879001 0.24161001
0.064885996 0.13821 0.23905
0.064387999 0.13812 0.23858
0.08326 0.13634001 0.25514999
0.084638 0.13571 0.25602001
0.083908997 0.13597 0.2561
0.043466002 0.16062 0.19123
0.042925 0.16073 0.19295
0.042544 0.16161001 0.19227999
0.12346 0.14449 0.27508
0.12269 0.14497 0.27474999
0.12289 0.14497 0.27349001
0.04772 0.16689999 0.19269
0.046316002 0.16717 0.19322
0.047954001 0.16723 0.19257
0.094113 0.17253 0.24465001
0.094589002 0.17314 0.24429999
0.093703002 0.17344999 0.24495
0.052976001 0.090907 0.26260999
0.052425001 0.091179997 0.26179001
0.053915001 0.090423003 0.26249999
0.068132997 0.15671 0.23361
0.067272998 0.15714 0.23398
0.067888997 0.15736 0.23248
0.089661002 0.15557 0.23345
0.089506 0.15627 0.234
0.045499001 0.14598 0.18655001
0.067192003 0.11648 0.24823999
0.065641001 0.11613 0.2492
0.065793999 0.11733 0.24841
0.083218001 0.15123001 0.22827999
0.082203999 0.15098999 0.2288
0.087356001 0.13237999 0.27706
0.086708002 0.13178 0.27836001
0.087240003 0.13271999 0.27645999
0.058880001 0.15677001 0.18106
0.057023 0.15604 0.18102001
0.057089001 0.15689 0.18255
0.058926001 0.15485001 0.23717
0.059030998 0.15651999 0.23761
0.089364998 0.13217001 0.27937001
0.088995002 0.13262001 0.27719
0.048767 0.085003003 0.24357
0.048771001 0.084779002 0.2429
0.047115002 0.13491 0.23244999
0.047598999 0.13547 0.23337001
0.044592001 0.097418003 0.24118
0.083467998 0.16426 0.23828
0.085147999 0.16458 0.23904
0.085463002 0.16357 0.23773
0.075813003 0.10531 0.26831001
0.076769002 0.10523 0.26912001
0.076925002 0.10562 0.27039
0.080738001 0.12154 0.26391
0.081524998 0.12288 0.26323
0.081159003 0.12229 0.26372999
0.075797997 0.14153001 0.24517
0.073939003 0.14072999 0.24586
0.074242003 0.14154001 0.24501
0.12293 0.16340999 0.27076
0.12322 0.16401 0.27000001
0.1227 0.16294 0.27083001
0.099623002 0.14947 0.28101
0.098435 0.14920001 0.2816
0.098715998 0.14982 0.28171
0.081891999 0.14127 0.23134001
0.081046999 0.14120001 0.23241
0.081354998 0.14229999 0.23147
0.076800004 0.15806 0.2305
0.077790998 0.15843999 0.23025
0.077270001 0.15710001 0.23128
0.031248 0.10261 0.25040999
0.032352 0.10352 0.2498
0.031907 0.10305 0.24921
0.051022001 0.096639 0.24631999
0.050616998 0.095803998 0.24541999
0.051001001 0.095292002 0.24668001
0.10857 0.15129 0.2746
0.10977 0.15308 0.27360001
0.075700998 0.17282 0.24764
0.076541997 0.17253 0.24687
0.075897999 0.17318 0.24681
0.069697998 0.14144 0.24412
0.070721999 0.14094 0.24506
0.069992997 0.14029001 0.24473999
0.072598003 0.17623 0.2287
0.070912004 0.17677 0.22928999
0.071154997 0.17738999 0.22946
0.070413001 0.13801 0.24693
0.069838002 0.13751 0.24787
0.069687001 0.13863 0.24631
0.040920001 0.068258002 0.23863
0.041905999 0.068260998 0.23985
0.068924002 0.17674001 0.22919001
0.070179999 0.17662001 0.22916
0.070239998 0.17595001 0.22916999
0.067043997 0.18064 0.22437
0.068144001 0.18059 0.22564
0.066802002 0.17944001 0.22549
0.068613999 0.13422 0.24164
0.068166003 0.13544001 0.24107
0.068484999 0.13567001 0.24160001
0.087008998 0.13508999 0.26901001
0.086854003 0.13651 0.26761001
0.086971 0.13626 0.2685
0.057875998 0.12980001 0.23769
0.056729998 0.13023999 0.23849
0.056823 0.1296 0.23781
0.096437998 0.14271 0.27384001
0.096726 0.14354999 0.27361
0.098402001 0.14184999 0.27454999
0.11653 0.15922999 0.27347001
0.115 0.15953 0.27320001
0.11486 0.16058999 0.27313
0.053126 0.14287999 0.23632
0.066914 0.096445002 0.25832
0.066091999 0.096286997 0.25634
0.048999 0.13936999 0.23154999
0.050175 0.14043 0.23079
0.049888 0.13995001 0.23194
0.089636996 0.16073 0.24307001
0.089344002 0.16157 0.24365
0.089670002 0.16071001 0.24499001
0.062546998 0.16787 0.24684
0.062550999 0.16865 0.24637
0.061087999 0.1688 0.24515
0.069982 0.13579001 0.24375001
0.069920003 0.13594 0.24523
0.070839003 0.13514 0.24623001
0.070061997 0.16038001 0.23308
0.070557997 0.16164 0.23367999
0.071177997 0.16032 0.23288999
0.083879001 0.12651999 0.26034001
0.084829003 0.12747 0.25984001
0.087881997 0.16045 0.23833001
0.088792004 0.16017 0.2395
0.072838999 0.11345 0.26429
0.072538003 0.11215 0.26528999
0.073021002 0.11271 0.26385999
0.075638004 0.11773 0.26244
0.10622 0.14117999 0.2728
0.10692 0.14196999 0.27173999
0.10701 0.14162 0.27186
0.083307996 0.15018 0.22608
0.085018001 0.1515 0.22694001
0.0504 0.14301001 0.23145001
0.049970001 0.14454 0.23194
0.050182998 0.14557 0.23274
0.054776002 0.17003 0.19134
0.054515 0.17027 0.19104999
0.055349 0.17105 0.19202
0.030858001 0.15377 0.20337
0.030753 0.15246999 0.20203
0.053389002 0.091000997 0.25479999
0.075663 0.17689 0.22784001
0.077016003 0.1244 0.25415
0.077100001 0.12249 0.25483
0.075924002 0.12381 0.25428
0.049605001 0.15628 0.20721
0.048960999 0.15497001 0.20829
0.049458999 0.15534 0.20693
0.090746 0.15339001 0.24676999
0.090671003 0.15383001 0.24785
0.090325996 0.15341 0.24880999
0.046652 0.08038 0.24789999
