# .PCD v0.7 - Point Cloud Data file format
VERSION 0.7
FIELDS x y z
SIZE 4 4 4
TYPE F F F
COUNT 1 1 1
WIDTH 1623
HEIGHT 1
VIEWPOINT 0 0 0 1 0 0 0
POINTS 1623
DATA ascii
0.24708 0.079851002 0.020266
0.24350999 0.14086001 0.022747001
0.24641 0.1468 0.021063
0.21524 0.15241 0.036970001
0.21416 0.15245999 0.036582999
0.24878 0.15387 0.01969
0.21342 0.15579 0.036398001
0.24919 0.15829 0.020093
0.21331 0.15949 0.035936002
0.24778999 0.16292 0.020780999
0.21555001 0.16403 0.035665002
0.24395999 0.16756 0.022551
0.21761 0.16798 0.034329999
0.23382001 0.1725 0.02667
0.23028 0.20427001 0.028324001
0.22896001 0.20456 0.02925
0.23024 0.2058 0.028785
0.25297001 0.057066001 0.017851001
0.25145 0.079878002 0.018766999
0.24627 0.14673001 0.022097001
0.24753 0.14939 0.020366
0.2489 0.15779001 0.021116
0.21443 0.15954 0.036499999
0.24804001 0.16112 0.021498
0.24834999 0.16114999 0.020984
0.24029 0.17045 0.024024
0.25167999 0.051341999 0.020020001
0.25277001 0.050714001 0.018974001
0.25402001 0.055624999 0.018199001
0.25312001 0.058660001 0.019293999
0.25297999 0.056988001 0.019069999
0.25275001 0.058113001 0.018118
0.25385001 0.059064999 0.018461
0.25534999 0.060245998 0.018062999
0.25584 0.061604999 0.018283
0.2572 0.06543 0.017442999
0.25738001 0.065324999 0.016723
0.25665 0.068457 0.017313
0.25369 0.079076998 0.018298
0.24235 0.14075001 0.024088999
0.21520001 0.14901 0.035886001
0.24786 0.15056001 0.020459
0.24928001 0.15544 0.019825
0.21534 0.15966 0.036885999
0.24454001 0.16655 0.022617999
0.21901999 0.16723999 0.035248
0.24248999 0.16836999 0.024166999
0.22324 0.17118999 0.033121001
0.23784 0.17263 0.025888
0.22407 0.17380001 0.032352999
0.22423001 0.17261 0.032935999
0.23738 0.17411 0.026695
0.23804 0.17417 0.025996
0.25475001 0.050471 0.017731
0.25441 0.050535001 0.018663
0.25589001 0.051082999 0.017834
0.25514999 0.052767001 0.018192001
0.25503999 0.054065 0.017912
0.25437999 0.060012002 0.018722
0.25593001 0.061615001 0.017104
0.25709999 0.063984998 0.017325001
0.25731 0.067667998 0.016415
0.25674 0.069507003 0.017397
0.25555 0.070494004 0.01787
0.25455001 0.072051004 0.018433999
0.25505999 0.071193002 0.017650999
0.25202999 0.073656999 0.019153999
0.25310001 0.072825 0.019234
0.25193 0.074348003 0.020098001
0.25272 0.076145999 0.018835999
0.25369999 0.077550001 0.018452
0.25307 0.079605997 0.019091001
0.24404 0.079925001 0.023371
0.24537 0.079810999 0.023052
0.24758001 0.079968996 0.021343
0.24358 0.13812999 0.023522001
0.24311 0.13950001 0.023600001
0.24223 0.14225 0.02372
0.24264 0.14274 0.023428001
0.24376 0.1442 0.022998
0.21651 0.14944001 0.036474999
0.215 0.14979 0.036433998
0.215 0.15096 0.037067
0.24762 0.14988001 0.02166
0.24772 0.15097 0.021568
0.2485 0.15386 0.020759
0.24866 0.15501 0.020873001
0.21452001 0.15824001 0.036823001
0.21547 0.16116001 0.036382001
0.21539 0.16304 0.035944
0.21649 0.1626 0.036370002
0.24632999 0.16399001 0.022353999
0.24716 0.16364001 0.021684
0.2166 0.16396999 0.035916001
0.21672 0.16498999 0.036012001
0.21763 0.16553999 0.035847001
0.21697 0.16590001 0.035191
0.21825001 0.16673 0.035247002
0.24425 0.16694 0.023623999
0.24313 0.16794001 0.023142001
0.21916001 0.16822 0.034651998
0.22012 0.16872001 0.034880999
0.22011 0.16960999 0.034203999
0.24128 0.16923 0.024493
0.22124 0.16986001 0.033985998
0.23991001 0.16968 0.025741
0.23925 0.17065001 0.025178
0.23859 0.17117 0.025769001
0.22214 0.17079 0.032967001
0.2251 0.17189001 0.032579999
0.22499999 0.17174999 0.031535
0.22315 0.17275999 0.032853
0.22657 0.17174999 0.031626001
0.23628999 0.17196999 0.027462
0.23604 0.17208 0.026763
0.23702 0.17308 0.026868001
0.22293 0.17397 0.033018
0.23756 0.17497 0.025668001
0.22914 0.20603999 0.029585
0.25042999 0.051786002 0.020697
0.25687 0.063020997 0.017266
0.25738001 0.067047998 0.017105
0.25365999 0.078608997 0.019344
0.24637 0.079697996 0.022259001
0.25154999 0.079958998 0.019717
0.2429 0.14358 0.024181001
0.21637 0.14826 0.035645001
0.24647 0.14779 0.022514001
0.24669001 0.14927 0.022568
0.24833 0.15242 0.020772001
0.2482 0.15288 0.021974999
0.21503 0.15399 0.037025001
0.21462999 0.15558 0.036945
0.21412 0.15684 0.036975998
0.24894001 0.15958001 0.020728
0.24751 0.16257 0.021597
0.24567001 0.16558 0.022312
0.22545999 0.17136 0.032086998
0.23092 0.17225 0.029274
0.23187999 0.17234001 0.028539
0.23206 0.17206 0.029079
0.23329 0.17227 0.028031001
0.25345001 0.077013001 0.018988
0.24861 0.079800002 0.021202
0.24063 0.079864003 0.02448
0.24288 0.13969 0.024223
0.24456 0.14538001 0.023712
0.24558 0.14648999 0.023313999
0.24799 0.15322 0.022095
0.24891999 0.15716 0.021449
0.24818 0.15974 0.021883
0.21645001 0.16116001 0.036816999
0.22317 0.17037 0.033764001
0.22799 0.17201 0.030394999
0.23451 0.17222001 0.027596001
0.22942001 0.17214 0.029750001
0.22947 0.17168 0.030466
0.25512001 0.054466002 0.018944001
0.25347 0.056171998 0.019451
0.25207999 0.073494002 0.019943001
0.24260999 0.079942003 0.024052
0.25094 0.079911001 0.020471999
0.21732 0.14802 0.036245
0.2484 0.15493999 0.021639001
0.21546 0.15716 0.037073001
0.2175 0.16425 0.036107998
0.24558 0.16522001 0.023187
0.21975 0.16553999 0.036316998
0.24123999 0.16865 0.02509
0.23953 0.17016 0.026562
0.22798 0.17174 0.031252
0.24887 0.052181002 0.020845
0.25013 0.052638002 0.02232
0.25112 0.052221 0.021948
0.25448999 0.055232 0.019927001
0.25378999 0.055851001 0.020705
0.25389999 0.072337002 0.019103
0.25242999 0.075519003 0.019957
0.24156 0.14255001 0.025072999
0.21631999 0.15098 0.036821999
0.24851 0.15887 0.021956
0.24785 0.16089 0.022745
0.24722999 0.16135 0.023589
0.24687 0.16313 0.022713
0.24316999 0.16741 0.024522999
0.24064 0.16843 0.026565
0.22731 0.17086001 0.032621
0.23518001 0.17151999 0.028043
0.25376999 0.051171999 0.020522
0.25397 0.050648 0.019378001
0.25514001 0.050861001 0.019807
0.25582001 0.051566999 0.019118
0.24891999 0.051876999 0.020638
0.24878 0.05294 0.0232
0.24735001 0.052678999 0.021878
0.25479999 0.054302 0.019951999
0.25268999 0.057174999 0.021151001
0.25299001 0.056570001 0.020265
0.25242001 0.057842001 0.020127
0.25246999 0.058238 0.020916
0.25350001 0.058878001 0.020765999
0.25466001 0.060090002 0.019935001
0.25646999 0.062918998 0.019422
0.25639999 0.062507004 0.018066
0.25679001 0.068016 0.018863
0.25681001 0.067116998 0.018724
0.25580001 0.069880001 0.019193999
0.25490999 0.071551003 0.020060999
0.25400999 0.071828999 0.020640001
0.25356999 0.072515003 0.020622
0.25395 0.072460003 0.019512
0.25237 0.073034003 0.021360001
0.25227001 0.075442001 0.021145999
0.25343001 0.077388003 0.020306
0.25318 0.078718998 0.020264
0.25299001 0.079778999 0.020602999
0.25262001 0.079800002 0.021396
0.24158999 0.14132001 0.025176
0.24196 0.14343999 0.025217
0.24196 0.14391001 0.025916999
0.24727 0.15097 0.022635
0.21695 0.1515 0.037558001
0.24729 0.15218 0.02375
0.21599001 0.15380999 0.037682001
0.24859001 0.15721001 0.021842999
0.21712001 0.15933999 0.037516002
0.24796 0.15955 0.02307
0.21748 0.1631 0.036687002
0.24601001 0.16377001 0.023243999
0.24705 0.1626 0.023320001
0.24573 0.16446 0.02362
0.21839 0.16611999 0.035953
0.24366 0.16655 0.024605
0.21983001 0.16686 0.035916999
0.22236 0.16847 0.035558999
0.22375 0.16991 0.034664001
0.23858 0.17124 0.027526001
0.23919 0.16977 0.027238
0.22362 0.17127 0.033921
0.22493 0.17120001 0.034214001
0.23407 0.17151 0.028901
0.23133001 0.1717 0.029937999
0.23396 0.17088 0.029686
0.23688 0.17134 0.028293001
0.23811001 0.17253999 0.028165
0.23853 0.17283 0.027247
0.25555 0.05277 0.020153999
0.25531 0.052439 0.019128
0.25724 0.065591998 0.018828999
0.25659001 0.068611003 0.019091001
0.252 0.074183002 0.020927001
0.25290999 0.076413997 0.020324999
0.24819 0.079827003 0.022585999
0.24135 0.14308 0.025756
0.24345 0.14511 0.025643
0.24297 0.14469001 0.025251999
0.24552 0.14675 0.023804
0.24657001 0.14958 0.02365
0.21852 0.14954001 0.036731001
0.2172 0.15008999 0.036908999
0.24764 0.15256 0.022738
0.24789 0.15527 0.022802001
0.24776 0.15402 0.022887999
0.21596 0.15466 0.037737001
0.24805 0.15667 0.02289
0.24809 0.1584 0.022825001
0.21622001 0.15881 0.037505999
0.21679001 0.15804 0.037606001
0.21631999 0.16008 0.037087001
0.21709999 0.16082001 0.037211999
0.21839 0.16287 0.037064999
0.21845999 0.16364001 0.036591001
0.21862 0.16493 0.036541998
0.24428999 0.16549 0.025010001
0.24185 0.16779 0.026009999
0.24221 0.1674 0.026337
0.23983 0.16932 0.026528001
0.23015 0.17129 0.031601001
0.23118 0.17136 0.030933
0.23272 0.17134 0.030230001
0.23763999 0.17349 0.027554
0.25204 0.051899001 0.021158
0.25404 0.059528001 0.020976
0.25606999 0.061974 0.019052001
0.25716001 0.064738996 0.018533999
0.25554001 0.070504002 0.020020001
0.24444 0.079729997 0.024711
0.24116001 0.079942003 0.025959
0.25114 0.079723999 0.022226
0.24081001 0.14229999 0.026797
0.24491 0.14655 0.025002999
0.24551 0.14794999 0.024118001
0.21854 0.14804 0.036499999
0.21821 0.15106 0.037376001
0.24690001 0.15108 0.023531999
0.21672 0.15238 0.037950002
0.24736001 0.15356 0.023936
0.2185 0.16137999 0.037643999
0.24584 0.16416 0.024409
0.24529999 0.16486 0.023894001
0.22076 0.16700999 0.035815999
0.22573 0.17061 0.033217002
0.2265 0.17024 0.033817999
0.22889 0.17055 0.032331999
0.22461 0.17209999 0.033805002
0.23720001 0.17182 0.028295999
0.24611001 0.05384 0.023945
0.24711999 0.053194001 0.022981999
0.24708 0.053567 0.023991
0.25545999 0.061358001 0.019897999
0.24279 0.079842001 0.025279
0.24664 0.079933003 0.023887999
0.24427 0.14571001 0.024857
0.21608999 0.15243 0.037891001
0.21708 0.154 0.038116999
0.21672 0.15569 0.037928
0.24731 0.16 0.023848001
0.21973 0.16427 0.036915999
0.24285001 0.16688 0.026185
0.22257 0.16942 0.034395002
0.23538999 0.17047 0.028996
0.25446999 0.054995 0.020849001
0.25685999 0.064342998 0.019414
0.25024 0.079824999 0.022409
0.24077 0.14358 0.026974
0.21953 0.14814 0.036564
0.24628 0.14968 0.024497001
0.24743 0.15530001 0.024040001
0.21799 0.15956999 0.037935
0.24628 0.16271999 0.024488
0.24516 0.1644 0.024623999
0.22085001 0.16572 0.036791999
0.22159 0.16780999 0.035725001
0.22786 0.17051999 0.033098001
0.25217 0.052168 0.021837
0.24801999 0.053507 0.023929
0.24393 0.055826999 0.025624
0.24381 0.057077002 0.025605001
0.24446 0.055723 0.024817999
0.25544 0.061420001 0.021221001
0.25676 0.065155998 0.019361001
0.25172001 0.073159002 0.022164
0.25165999 0.075195 0.022144999
0.25121 0.074377999 0.022150001
0.25312001 0.076970004 0.021367
0.25314999 0.079058997 0.021593001
0.24386001 0.14636999 0.026029
0.24514 0.14771999 0.024900001
0.21951 0.14913 0.037312999
0.21772 0.15189999 0.038031001
0.24775 0.15719 0.024096999
0.24755 0.15841 0.024025001
0.21805 0.15866999 0.037781
0.24665999 0.16046 0.02444
0.21976 0.16314 0.037524998
0.24381 0.16564 0.025744
0.22197001 0.16777 0.035753001
0.2395 0.16884001 0.027509
0.22364999 0.16896001 0.035160001
0.22902 0.17056 0.032575998
0.25483 0.051440999 0.021211
0.24771 0.053831998 0.025065999
0.25314999 0.056155 0.022404
0.25707 0.067028999 0.019521
0.25165999 0.076024003 0.022856999
0.24608999 0.079554997 0.024929
0.24111 0.14402001 0.027736001
0.24241 0.14501999 0.027218999
0.24432001 0.14703999 0.025927
0.24511001 0.14835 0.025815999
0.24645001 0.15099999 0.024607001
0.21916001 0.15272 0.038332999
0.24646001 0.15112001 0.025537999
0.24666999 0.15183 0.024576001
0.21749 0.1569 0.038158
0.21884 0.15938 0.037932001
0.24673 0.15978999 0.024783
0.24636 0.16174001 0.024311
0.22006001 0.16237999 0.037606999
0.24260999 0.16552 0.027561
0.2228 0.16784 0.035920002
0.24059001 0.16816001 0.027724
0.24122 0.16723999 0.027907999
0.22418 0.16856 0.035726
0.22703999 0.16975001 0.03483
0.2278 0.16971 0.0339
0.23365 0.17066 0.030647
0.23611 0.17039999 0.029414
0.23638 0.17027999 0.029270001
0.25272 0.052207999 0.02231
0.25477999 0.054398999 0.022027999
0.24366 0.055413 0.026701
0.25389001 0.055328999 0.022430001
0.25185001 0.058060002 0.023633
0.25237 0.058715999 0.022879001
0.25670999 0.065677002 0.02043
0.25683999 0.067501999 0.020986
0.25549001 0.070077002 0.021044999
0.25257999 0.072659001 0.022723
0.25132999 0.074573003 0.022545001
0.25242999 0.076273002 0.022187
0.25308999 0.079112999 0.022514001
0.24350999 0.079570003 0.026859
0.25048 0.079866998 0.023684001
0.24194001 0.1441 0.026970999
0.24145 0.145 0.028178999
0.24378 0.14684001 0.026815999
0.22036 0.14845 0.036901999
0.22065 0.14972 0.037431002
0.24603 0.14968 0.025350001
0.24607 0.15239 0.025281001
0.21765999 0.15279999 0.038812
0.24656001 0.15336999 0.024981
0.24632999 0.15439001 0.025366001
0.24662 0.15515 0.025423
0.21825001 0.15476 0.038548
0.21894 0.15534 0.038748998
0.24699999 0.15553001 0.024636
0.24702001 0.15683 0.024726
0.21911 0.15821999 0.038100999
0.24727 0.15847 0.024612
0.24603 0.16107 0.025581
0.24495 0.16398001 0.025893999
0.24505 0.16236 0.02633
0.22070999 0.16356 0.037182
0.22177 0.16267 0.037937
0.2441 0.16396999 0.027001999
0.24354 0.16504 0.026586
0.22172 0.16527 0.037168998
0.22285999 0.16695 0.036848001
0.23986 0.16812 0.028328
0.23891 0.16937999 0.028375
0.23078001 0.16998 0.033075001
0.23444 0.16972999 0.030991999
0.23725 0.16971999 0.029787
0.22533 0.17062999 0.035271
0.25424999 0.051796999 0.021519
0.25472999 0.052526999 0.022149
0.25512001 0.052634001 0.021499
0.25169 0.052864999 0.023154
0.25073999 0.053018 0.023606
0.24923 0.053674001 0.023977
0.25053 0.053486999 0.024336999
0.24641 0.054276001 0.025293
0.25242999 0.056887999 0.022297001
0.25181001 0.057344999 0.023123
0.25439 0.060040999 0.022035001
0.25608999 0.062394001 0.021041
0.25606 0.062959999 0.020648001
0.25635001 0.06425 0.020767
0.25644001 0.068630002 0.020848
0.25505999 0.071071997 0.021228001
0.25415999 0.071719997 0.022035001
0.25163999 0.073215 0.023317
0.25284001 0.077618003 0.022802001
0.25266001 0.079752997 0.022593001
0.24765 0.080182001 0.024614001
0.24919 0.079873003 0.024032
0.25189999 0.079493999 0.023236001
0.23994 0.14431 0.028679
0.22136 0.14775001 0.037048001
0.24557 0.14954001 0.026280001
0.22003999 0.15095 0.037675001
0.21935 0.15143 0.037831999
0.21786 0.15366 0.03878
0.21912 0.15685 0.038566001
0.2467 0.15824001 0.025736
0.24639 0.1593 0.025963999
0.22003999 0.15962 0.038362
0.22024 0.16125999 0.038091999
0.24583 0.16235 0.025482001
0.22174001 0.16394 0.037471
0.22150999 0.16621 0.036246002
0.22259 0.16569 0.036862001
0.24191999 0.16689 0.027225999
0.22507 0.16971 0.035487998
0.23898999 0.16979 0.028874001
0.22925 0.16985001 0.033553999
0.23623 0.16954 0.030382
0.23221999 0.1696 0.032301001
0.22628 0.17061999 0.034984998
0.23771 0.17072999 0.029687
0.23926 0.17117999 0.028713999
0.23882 0.17157 0.029170001
0.23830999 0.17196999 0.028953001
0.25503001 0.053762998 0.021286
0.25507 0.070501998 0.021833001
0.2463 0.15689 0.026056999
0.22536001 0.16865 0.036006998
0.23925 0.16889 0.029308001
0.25347999 0.059471 0.022728
0.25501999 0.061028 0.022259001
0.25619999 0.069035999 0.021593001
0.25354001 0.072182 0.022821
0.25103 0.075274996 0.023567
0.2455 0.080026001 0.026484
0.2427 0.14647 0.027845001
0.2441 0.14771 0.027225001
0.22146 0.14963 0.037478998
0.24573 0.15087 0.026245
0.22035 0.15227 0.038189001
0.21876 0.1539 0.038899999
0.24541 0.161 0.026648
0.2402 0.16706 0.028928
0.22445001 0.16695 0.036541
0.22822 0.16909 0.034820002
0.23353 0.1696 0.032299001
0.25342 0.055562999 0.023642
0.25255999 0.056263 0.024226001
0.25624001 0.063948996 0.021430001
0.25148001 0.073562004 0.023974
0.25084001 0.074058004 0.023979001
0.2527 0.078287996 0.023613
0.24048001 0.14543 0.029717
0.24563 0.15214001 0.026264001
0.24605 0.15388 0.026463
0.22025999 0.15815 0.038630001
0.22146 0.16159999 0.03816
0.22203 0.1612 0.038259
0.24437 0.16302 0.027293
0.24191 0.16592 0.028325999
0.22727001 0.1692 0.034765001
0.23569 0.16911 0.031564001
0.23616 0.16906001 0.031022999
0.23707999 0.16903 0.030756
0.25342 0.05288 0.023704
0.25233999 0.053073 0.024073999
0.24946 0.054223001 0.025819
0.25439 0.054044999 0.023050001
0.25198001 0.056733001 0.024679
0.25628 0.068713002 0.022507999
0.25389001 0.071847998 0.024062
0.25119001 0.073324002 0.025093
0.25053999 0.074263997 0.024979999
0.25097999 0.075618997 0.024913
0.25163999 0.076357998 0.024590001
0.25242001 0.077143997 0.024164001
0.2527 0.077592999 0.023243999
0.24264 0.14731 0.028403001
0.22314 0.14794999 0.037156001
0.22347 0.14989001 0.037785001
0.22192 0.14985999 0.037744999
0.22119001 0.15061 0.037935998
0.24553999 0.15219 0.027401
0.22008 0.15312999 0.038763002
0.24538 0.15409 0.027264999
0.21971001 0.15414999 0.038931999
0.24584 0.15489 0.026448
0.21975 0.15514 0.039489001
0.24541 0.16095001 0.027062999
0.24553999 0.1596 0.027121
0.24598999 0.15992001 0.026509
0.24408001 0.16237999 0.027876001
0.24318001 0.16410001 0.02768
0.22367001 0.16408999 0.037631001
0.22359 0.16507 0.037400998
0.24251001 0.1639 0.028599
0.24135999 0.16535001 0.028983001
0.22495 0.16558 0.037446
0.22637001 0.1684 0.036469001
0.22977 0.16877 0.034921002
0.22957 0.16904999 0.034256
0.23681 0.16851 0.031571001
0.228 0.16868 0.036187001
0.23395 0.16936 0.033096001
0.23512 0.16887 0.032722998
0.25463 0.052912001 0.022963
0.25086001 0.053874999 0.025063001
0.24821 0.05429 0.026477
0.24431001 0.055066001 0.028467
0.24468 0.054643001 0.027317001
0.243 0.055500999 0.028667999
0.24291 0.055847999 0.027762
0.24229001 0.056921002 0.028352
0.25198999 0.058665998 0.024375999
0.25325 0.060153998 0.023597
0.25411999 0.060509998 0.023401
0.25540999 0.061930001 0.022500999
0.25565001 0.062977999 0.022685001
0.25635001 0.064079002 0.022492999
0.25674999 0.065587997 0.022195
0.25698 0.066924997 0.021577001
0.25637999 0.067340001 0.022722
0.25558001 0.069663003 0.022483001
0.25512999 0.070271999 0.022985
0.25417 0.071359999 0.023112999
0.25235 0.072555996 0.024149001
0.25251999 0.078667998 0.024313999
0.2518 0.079828002 0.024123
0.24507999 0.079755999 0.027195999
0.25106001 0.079928003 0.025117001
0.23932 0.1453 0.030603999
0.24033999 0.14455 0.029289
0.24131 0.1455 0.029091001
0.24179 0.14692 0.028977999
0.24301 0.14817999 0.028669
0.24387001 0.14834 0.027704
0.24432001 0.14974 0.027975
0.2445 0.14917 0.026861999
0.24556001 0.15114 0.026915999
0.24513 0.1505 0.027031001
0.22184999 0.15125 0.038180001
0.22198001 0.15216 0.038314
0.22104 0.15256 0.038438
0.22063001 0.15432 0.039090998
0.24544001 0.15567 0.027431
0.24583 0.15658 0.02691
0.22089 0.15715 0.039317001
0.22003999 0.15669 0.038973998
0.22112 0.15802 0.039202001
0.22118001 0.15931 0.038493998
0.22232001 0.16229001 0.037772998
0.24453001 0.16102 0.028134
0.22367001 0.16257 0.038111001
0.24366 0.16385999 0.027888
0.24086 0.16575 0.029781001
0.23997 0.16661 0.029755
0.22484 0.16641 0.036947999
0.22586 0.16746999 0.036488
0.23929 0.167 0.030618001
0.23928 0.16844 0.030523
0.2287 0.16852 0.035448998
0.23739 0.16896001 0.031428002
0.23827 0.16942 0.031016
0.22615001 0.16954 0.036350001
0.22721 0.16960999 0.036084998
0.23137 0.16904999 0.034070998
0.23142999 0.16923 0.033969998
0.23266999 0.16926 0.033689
0.23893 0.16976 0.030517999
0.23896 0.171 0.030044001
0.24545 0.054494001 0.026148001
0.24558 0.054685 0.027424
0.24216001 0.058474999 0.029322
0.2423 0.057941999 0.028167
0.25176999 0.057002999 0.025280001
0.25474 0.061393 0.023089999
0.24958 0.079767004 0.025807999
0.24335 0.14948 0.028812001
0.22248 0.15413 0.038451001
0.24552 0.15829 0.027031999
0.22227 0.15974 0.038685001
0.22341999 0.16123 0.038224
0.24316999 0.16271 0.028627001
0.24209 0.16385999 0.029401001
0.23441 0.16908 0.032536998
0.24710999 0.054696999 0.026639
0.25463 0.054542001 0.023788
0.25286001 0.059615001 0.024643
0.25545001 0.062677003 0.023529001
0.24690001 0.079828002 0.026589001
0.24853 0.079838 0.026226001
0.24070001 0.14622 0.030454
0.22325 0.15097 0.038061
0.24478 0.15088999 0.028605999
0.22089 0.15556 0.039230999
0.24507999 0.15533 0.028178001
0.2449 0.15978999 0.028666001
0.23218 0.16914 0.034187
0.25228 0.053707 0.024592999
0.25138 0.058152001 0.025063001
0.25048 0.074610002 0.02579
0.25029001 0.075563997 0.025557
0.24245 0.14813 0.029322
0.22355001 0.15228 0.038417
0.24503 0.15394001 0.028057
0.22208001 0.15557 0.038725
0.24519999 0.15671 0.028416
0.24471 0.15877999 0.028248001
0.22188 0.15885 0.039297
0.24198 0.16316 0.029785
0.25035 0.054639999 0.02672
0.25386 0.054329 0.025389001
0.25233999 0.072603002 0.025557
0.25187001 0.077049002 0.026439
0.24011 0.14646 0.030788001
0.24094 0.14704999 0.031041
0.24105 0.14823 0.031117
0.24201 0.14877 0.030200001
0.22238 0.1565 0.039097998
0.24348 0.16131 0.029037001
0.22488999 0.16353001 0.038339999
0.2254 0.16381 0.038378
0.24153 0.16428 0.030485
0.23203 0.16987 0.035707999
0.23319 0.17007001 0.034958001
0.25398999 0.053337 0.024385
0.25279 0.053853001 0.025947999
0.25176001 0.054106001 0.025970999
0.24623001 0.05562 0.028905001
0.25319999 0.055741999 0.025691001
0.25092 0.058111999 0.026298
0.25296 0.059927002 0.025884001
0.25575 0.064282998 0.024429001
0.25604001 0.066041999 0.023546999
0.25612 0.067936003 0.023721
0.25633001 0.067616001 0.023708001
0.25582001 0.068667002 0.023742
0.25437 0.070380002 0.025350001
0.25297999 0.071800001 0.025467999
0.2527 0.072020002 0.024885001
0.25024 0.075521998 0.026735
0.25156999 0.076366 0.025986001
0.25240001 0.077678002 0.025381001
0.25205001 0.078552999 0.025095001
0.25161001 0.079768002 0.025804
0.24432001 0.079856999 0.028553
0.25025001 0.079660997 0.02696
0.23959 0.14661001 0.031865001
0.23799001 0.14506 0.031218
0.24281999 0.14895 0.029896
0.22448 0.15117 0.038279999
0.24358 0.15087999 0.028833
0.22562 0.15098999 0.038141999
0.22449 0.15266 0.038334001
0.24517 0.15239 0.028558999
0.24459 0.15251 0.029236
0.2234 0.15334 0.038527999
0.24474999 0.15391999 0.029270999
0.22382 0.15460999 0.038578998
0.22311001 0.15507001 0.038805
0.22417 0.15724 0.038943999
0.24492 0.15697999 0.029592
0.2225 0.15726 0.039560001
0.24445 0.15797 0.029307
0.22283 0.15846001 0.039600998
0.22375 0.15989999 0.039402001
0.22342999 0.16029 0.038725998
0.22427 0.16091999 0.038417
0.24438 0.1593 0.029389
0.22544 0.16114999 0.038681
0.22442999 0.16257 0.038268
0.22545999 0.16243 0.038518
0.24219 0.16197 0.029989
0.24111 0.16265 0.031145999
0.24061 0.16393 0.030913001
0.24089999 0.16500001 0.031132
0.23944999 0.16542 0.031796001
0.23965999 0.16619 0.030664001
0.22646999 0.16656999 0.037620999
0.22736 0.1684 0.037275001
0.22914 0.16808 0.036972001
0.23066001 0.1684 0.036056999
0.2384 0.16847999 0.032483
0.23725 0.16842 0.032892998
0.23576 0.1689 0.032956999
0.23909 0.1684 0.031945001
0.22762001 0.16811 0.037291002
0.23477 0.16972999 0.034274999
0.24739 0.054905001 0.027153
0.24785 0.055475 0.028405
0.24889 0.055208001 0.027898001
0.25347999 0.055038001 0.025036
0.24365 0.055546999 0.030214
0.25209001 0.056141 0.026603
0.25112 0.056816 0.026709
0.25408 0.061246 0.025388001
0.25490001 0.061799001 0.024142001
0.25532001 0.062748998 0.024250999
0.25595 0.064345002 0.023593999
0.25588 0.06769 0.024494
0.2554 0.068507001 0.024362
0.25499001 0.069403999 0.024274999
0.25389999 0.071314 0.025048001
0.25027001 0.073205002 0.027171001
0.25141001 0.072780997 0.026341001
0.24989 0.074226998 0.026843
0.25176999 0.078993998 0.026395001
0.24598999 0.079833999 0.028410999
0.23834001 0.14657 0.032396998
0.24244 0.14951999 0.030230001
0.24287 0.15014 0.029432001
0.22503 0.14958 0.037698001
0.24348 0.15129 0.029771
0.24448 0.15549 0.029278999
0.22397999 0.1559 0.038690001
0.22291 0.15905 0.039517
0.24349999 0.15958001 0.030045999
0.24315 0.16117001 0.029467
0.24226999 0.16108 0.030754
0.22570001 0.16515 0.038098998
0.23936 0.16721 0.031750999
0.23604 0.16909 0.033718001
0.25378999 0.060681 0.025583001
0.25604999 0.065318003 0.02441
0.24862 0.080031998 0.02764
0.23793 0.14559001 0.032026999
0.23989999 0.14811 0.032081001
0.22661 0.14901 0.037298001
0.22787 0.14812 0.036977001
0.22792 0.14959 0.037480999
0.22686 0.14992 0.037565999
0.24221 0.15115 0.030548001
0.22519 0.15274 0.038456
0.22684 0.15228 0.038242001
0.24358 0.15226001 0.029846
0.22538 0.15362 0.038456999
0.22486 0.15521 0.038635999
0.22415 0.1584 0.039248999
0.24395999 0.15806 0.03026
0.24247999 0.1602 0.030753
0.2414 0.16132 0.031133
0.22672001 0.16559 0.038089
0.23874 0.16698 0.032917
0.23845001 0.16557001 0.032776002
0.22813 0.16741 0.037958
0.23139 0.16953 0.036152001
0.25218999 0.059381001 0.026758
0.23722 0.14633 0.033105001
0.22917999 0.14951 0.037124999
0.22940999 0.14816 0.036449
0.24108 0.14978001 0.031576999
0.22685 0.15099999 0.037895001
0.24253 0.15261 0.030753
0.22527 0.15707 0.038692001
0.23969001 0.16243 0.031994
0.23985 0.16421001 0.031826999
0.23869 0.16412 0.032384999
0.22803999 0.16574 0.037177999
0.25193 0.054643001 0.026879
0.25026 0.055020999 0.027589999
0.24525 0.055628002 0.029359
0.25092 0.058412001 0.027055001
0.25055 0.057335999 0.027675999
0.23897 0.14812 0.033128001
0.22858 0.1512 0.037710998
0.24156 0.15209 0.031707
0.24395999 0.15360001 0.030282
0.24273001 0.15386 0.030663
0.24366 0.15526 0.030084001
0.24282999 0.15532 0.030892
0.24260999 0.15708999 0.030866001
0.24386001 0.15701 0.030338001
0.22562 0.15829 0.039037999
0.22556999 0.15978 0.039285999
0.22679 0.16263001 0.038543999
0.22827999 0.16155 0.037354
0.22807001 0.16254 0.037427001
0.22701 0.16114999 0.038348
0.2374 0.1611 0.033394001
0.23875999 0.16113 0.032744002
0.23839 0.16243 0.032558002
0.23993 0.16165 0.032281
0.23704 0.16281 0.033100002
0.22680999 0.164 0.037965
0.22804999 0.16408999 0.037643999
0.22957 0.16287 0.036773
0.22928999 0.16372 0.037021998
0.23737 0.16423 0.033216
0.22923 0.16520999 0.037404001
0.23777001 0.16515 0.033328999
0.24952 0.055449001 0.029030001
0.24832 0.055998001 0.02949
0.25237 0.055675998 0.027685
0.25158 0.060125001 0.029526999
0.25218999 0.059971999 0.027832
0.25242001 0.060550001 0.028914999
0.25373 0.060664002 0.025981
0.25534999 0.063008003 0.025526
0.25562 0.065991998 0.025526
0.25578001 0.067258 0.025593
0.25544 0.068649001 0.025474001
0.25224 0.07158 0.027465001
0.25172001 0.072645001 0.027673
0.25080001 0.072618 0.028495001
0.24943 0.073904999 0.027544999
0.25018999 0.076365001 0.027977999
0.25002 0.075248003 0.027726
0.25130001 0.077698 0.027597999
0.24492 0.079756998 0.029654
0.25022 0.079645999 0.028341001
0.24959999 0.080127999 0.029042
0.23601 0.14734 0.034223001
0.23731001 0.14737 0.03362
0.23049 0.14945 0.037099998
0.23111001 0.14806999 0.036083002
0.24073 0.14954001 0.032497998
0.24128 0.15115 0.031495001
0.22635999 0.15429001 0.038486
0.24160001 0.15507001 0.031583
0.22645 0.15563001 0.038500998
0.24129 0.15700001 0.031445999
0.22685 0.15798999 0.038428001
0.23999999 0.15852 0.032186002
0.24155 0.15852 0.031615999
0.24263 0.15816 0.031052999
0.22693001 0.15947001 0.038446002
0.24279 0.15942 0.031615999
0.22822 0.15966 0.037579998
0.23757 0.15948001 0.033907998
0.23869 0.15992001 0.033183999
0.22943 0.16078 0.037163999
0.23676001 0.16283999 0.034074999
0.23649999 0.16135 0.034272
0.23048 0.16204999 0.036936998
0.23022 0.16249999 0.036897
0.23018999 0.16414 0.036945999
0.23641001 0.16393 0.035112001
0.23757 0.16855 0.034283001
0.25062999 0.056880999 0.028509
0.255 0.062537998 0.025132
0.25488001 0.062959 0.026527001
0.25560001 0.064001001 0.02568
0.25336999 0.071282998 0.027062999
0.249 0.074308999 0.028608
0.24939001 0.075788997 0.029076001
0.25127 0.078934997 0.027485
0.24765 0.080007002 0.028639
0.23264 0.14911 0.036061
0.23226 0.14849 0.035668001
0.23332 0.14819001 0.035397001
0.23512 0.14768 0.034588002
0.23502 0.14812 0.035046998
0.23151 0.14918 0.036447
0.24043 0.15107 0.032866001
0.22939 0.15086 0.037296001
0.22979 0.15116 0.037392002
0.22903 0.15188 0.037701
0.24048001 0.15215001 0.032531999
0.22827999 0.15252 0.037836999
0.24116001 0.15414999 0.032207999
0.24028 0.15369999 0.032960001
0.24064 0.15550999 0.032345999
0.22807001 0.15476 0.038307998
0.2279 0.15549999 0.038210001
0.23885 0.1566 0.033351
0.2388 0.15554 0.033567999
0.24013001 0.15701 0.032428
0.22769 0.15676001 0.038160998
0.24292 0.15868001 0.031282999
0.2274 0.15828 0.038054999
0.23751999 0.15725 0.034148
0.23949 0.15763 0.033186998
0.23852 0.15819 0.033167001
0.22914 0.15649 0.037765
0.22985999 0.15839 0.037717
0.2397 0.15978 0.032478999
0.24067 0.15914001 0.032235999
0.24191 0.15970001 0.032109
0.23834001 0.15851 0.033606999
0.22601999 0.15967999 0.039239999
0.23607001 0.15965 0.034563001
0.23661 0.15982001 0.034049999
0.23614 0.16125999 0.035163999
0.22923 0.15964 0.037916999
0.23009001 0.15981001 0.037420999
0.23023 0.16044 0.03712
0.23143999 0.161 0.037051
0.24082001 0.16063 0.032251
0.24142 0.16086 0.032071002
0.23142999 0.16276 0.037207
0.23117 0.16407999 0.037804
0.23137 0.16548 0.037703998
0.23646 0.16523001 0.034878999
0.23766001 0.16690999 0.034026999
0.22984 0.167 0.037788
0.23254 0.16977 0.037278
0.23647 0.1696 0.034908999
0.25301999 0.054814 0.026727
0.2529 0.055535 0.027024001
0.24699999 0.055964001 0.030015999
0.25176999 0.056604002 0.027696
0.25354999 0.061264999 0.026969001
0.25422999 0.061790001 0.026258999
0.24959999 0.073198996 0.028872
0.25066 0.077359997 0.028264999
0.24692 0.07999 0.029673999
0.23633 0.14869 0.034598999
0.23721001 0.14888 0.034329999
0.23903 0.1488 0.033075001
0.23858 0.14933001 0.03351
0.23377 0.14927 0.036152001
0.23252 0.14971 0.036279
0.24011 0.1503 0.032859001
0.23943999 0.15083 0.033454999
0.23111001 0.15083 0.037097
0.22992 0.15231 0.037278999
0.22932 0.15366 0.037620001
0.22807001 0.15374 0.038031001
0.23994 0.15534 0.032825001
0.23928 0.15394001 0.033842001
0.22984 0.15588 0.037785999
0.2366 0.15706 0.034793001
0.23705 0.15764999 0.034371
0.23649 0.15843 0.034566998
0.23111001 0.15974 0.037152
0.23664001 0.16272999 0.035052001
0.23018 0.16591001 0.037528999
0.23747 0.1657 0.034012999
0.23012 0.16811 0.037618998
0.23142999 0.169 0.037154
0.23687001 0.16877 0.035459001
0.25125 0.055413 0.028391
0.24259999 0.056040999 0.030507
0.24325 0.056182999 0.031861998
0.24123999 0.056373999 0.031124
0.24468 0.056221999 0.031504001
0.24985 0.05821 0.028865
0.25069001 0.058915999 0.028185001
0.25314999 0.060587 0.026711
0.25536999 0.063915998 0.026024999
0.25558999 0.065495998 0.0266
0.25465 0.069672003 0.026412999
0.25508001 0.068507999 0.026477
0.25086001 0.078749999 0.028333001
0.23733 0.14910001 0.033973999
0.23492999 0.14954001 0.035716001
0.23249 0.15116 0.036621999
0.23920999 0.15241 0.033532001
0.23096 0.15212999 0.037076999
0.23103 0.15377 0.037285998
0.23796 0.15392999 0.034263998
0.23794 0.15214001 0.034612
0.23122001 0.15502 0.037381999
0.23776001 0.15548 0.034430999
0.23658 0.15553001 0.035025001
0.23114 0.15663999 0.037735999
0.23567 0.15703 0.035533
0.23544 0.15832999 0.035468999
0.23085999 0.15884 0.037156001
0.23286 0.15962 0.036929999
0.23252 0.15825 0.037018001
0.23549999 0.15952 0.035604
0.23187999 0.16078 0.037317999
0.23119 0.16868 0.037744001
0.23404001 0.16977 0.036380999
0.23540001 0.16981 0.036049999
0.24578001 0.056310002 0.030979
0.24142 0.056451999 0.032559998
0.25018999 0.057367999 0.029044
0.25134 0.059402999 0.02857
0.2538 0.069813997 0.027472001
0.25143 0.072270997 0.028094999
0.2489 0.074481003 0.029369
0.2458 0.079815999 0.030903
0.2484 0.079834998 0.029859999
0.23652001 0.14991 0.034837
0.23353 0.15084 0.036410999
0.23591 0.15064999 0.035316002
0.23777001 0.15110999 0.034410998
0.23291001 0.15225001 0.036919001
0.23681 0.1539 0.035255
0.23273 0.15530001 0.037066001
0.23275 0.15697999 0.037190001
0.25523001 0.067062996 0.026833
0.25263 0.071304999 0.028584
0.24869999 0.075563997 0.030044001
0.23653001 0.15076999 0.035048001
0.23478 0.15214001 0.036203999
0.23390999 0.15277 0.036235999
0.23624 0.15272 0.035358999
0.2342 0.1538 0.036743
0.23305 0.15419 0.036951002
0.23538999 0.15401 0.035766002
0.23565 0.15505999 0.035905
0.23608001 0.1604 0.035842001
0.23720001 0.16666999 0.035018001
0.23108 0.167 0.037951998
0.24533001 0.056681 0.032965999
0.24037001 0.056453001 0.033073001
0.24169999 0.056639001 0.032859001
0.25408 0.062417999 0.027546
0.25408 0.063092999 0.028499
0.25173 0.072089002 0.029665001
0.24891999 0.073476002 0.029757001
0.23389 0.15482 0.036811002
0.23545 0.15558 0.036518998
0.23343 0.15715 0.036951002
0.23371001 0.15843 0.037028
0.23359001 0.15922 0.037308998
0.2361 0.16504 0.036104001
0.24969999 0.055851001 0.030068001
0.24747001 0.056332 0.031261001
0.24305999 0.056487001 0.032586999
0.24386001 0.056612998 0.033234
0.25128001 0.056162 0.029227
0.24984001 0.056970999 0.030019
0.25290999 0.061149999 0.028878
0.25352001 0.061652999 0.028364999
0.25477001 0.064170003 0.027252
0.25494 0.067116 0.027664
0.2538 0.069697998 0.028603001
0.25016999 0.072420001 0.030029999
0.24868999 0.073255002 0.030887
0.24838001 0.074210003 0.030393001
0.24998 0.077405997 0.030218
0.24969 0.076305002 0.029665999
0.23398 0.15556 0.037214998
0.23441 0.15676001 0.037122
0.23528001 0.15831 0.036552999
0.23546 0.15671 0.036843002
0.23433 0.15966 0.037657
0.23316 0.16032 0.037310001
0.23541 0.15994 0.036988001
0.23286 0.16129 0.038068
0.23215 0.16279 0.038160998
0.23198999 0.16369 0.038153999
0.23296 0.16394 0.038074002
0.23301999 0.16541 0.037760999
0.23309 0.16675 0.038040999
0.23207 0.16680001 0.038081001
0.23612 0.16637 0.036054
0.23654 0.1673 0.035948999
0.23184 0.16780999 0.038254999
0.23657 0.16822 0.035907
0.23305 0.16850001 0.038042001
0.23579 0.16852 0.036435999
0.24661 0.056389 0.031853002
0.25095999 0.056632001 0.029526001
0.24909 0.057076 0.031188
0.24919 0.058277 0.031114001
0.24993999 0.058809001 0.030293001
0.25486001 0.065452002 0.027589001
0.25418001 0.068442002 0.028333999
0.25477999 0.067919001 0.02764
0.25317001 0.070435002 0.029008999
0.25104001 0.072278999 0.029764
0.24868999 0.075787999 0.030836999
0.24787 0.074285001 0.031771999
0.24992 0.078734003 0.030185999
0.24976 0.079678997 0.030175
0.2491 0.079490997 0.030843999
0.23446999 0.15808 0.037321001
0.236 0.16126999 0.037273001
0.23650999 0.16294 0.036196001
0.23579 0.16399001 0.037035
0.23559999 0.16543999 0.036407001
0.23425999 0.1656 0.037333
0.23449001 0.16690999 0.037510999
0.23416001 0.16946 0.037142001
0.23431 0.16866 0.037349001
0.24855 0.056295998 0.030727999
0.25068 0.059505999 0.030339001
0.25435999 0.064268999 0.028510001
0.24774 0.075588003 0.031431999
0.24759001 0.079862997 0.031638
0.23545 0.16716 0.036688
0.24765 0.056527 0.031590998
0.24270999 0.056759998 0.034283001
0.25454 0.065764003 0.028348999
0.25459 0.067302004 0.028516
0.248 0.073320001 0.031543002
0.24631 0.079947002 0.031665001
0.23444 0.161 0.037919
0.23356 0.16283999 0.038368002
0.23566 0.16249 0.037291002
0.23475 0.16413 0.037668001
0.24529 0.057255998 0.034024
0.24391 0.057184 0.034391999
0.25354999 0.062275998 0.029182
0.24943 0.077095002 0.031121001
0.23446999 0.16264001 0.038109001
0.25178999 0.060605999 0.030692
0.25075999 0.060029 0.031344999
0.25202999 0.061581001 0.030873001
0.25207999 0.061065 0.029842
0.25317001 0.062812999 0.030234
0.25264001 0.061875999 0.030338001
0.25336999 0.069650002 0.030242
0.24942 0.072347 0.031819999
0.24943 0.077559002 0.031806
0.24984001 0.079016998 0.031182
0.24679001 0.057438001 0.033371001
0.24812999 0.057215001 0.032403
0.24890999 0.057023 0.031558
0.24803001 0.058385 0.032885998
0.24919 0.058727 0.031789001
0.25404 0.064511999 0.029544
0.25376001 0.064165004 0.030288
0.25400999 0.067027003 0.02964
0.25409001 0.066036999 0.029456001
0.25393 0.068576999 0.029138001
0.25347 0.068768002 0.030383
0.25178 0.071033999 0.030882999
0.25069001 0.071741998 0.031656001
0.24995001 0.072490998 0.031238999
0.24838001 0.073201001 0.032473002
0.24719 0.073367998 0.033307999
0.2463 0.074461997 0.033126
0.24674 0.076043002 0.033185001
0.24787 0.076470003 0.032341
0.24927001 0.078726001 0.031784002
0.24883001 0.079549 0.031672001
0.2483 0.079737 0.032597002
0.24991 0.059723001 0.032097999
0.25378001 0.067420997 0.030278999
0.24663 0.080208004 0.033039
0.24993999 0.071999997 0.032419
0.24872001 0.077247001 0.033000998
0.24525 0.057629999 0.035280999
0.25260001 0.062826999 0.031891
0.25378999 0.065585002 0.030464999
0.25233999 0.070211999 0.031182
0.24864 0.079066999 0.033158001
0.24371 0.057523999 0.035241999
0.25266001 0.063734002 0.032026999
0.25343001 0.067345999 0.031263001
0.24766 0.058451001 0.033441
0.24891999 0.059863999 0.033856001
0.24817 0.059259001 0.033711001
0.24947 0.060017001 0.033100002
0.25116 0.061255001 0.032887999
0.25084001 0.060570002 0.032435998
0.25158 0.061237998 0.031636
0.25178999 0.062210001 0.032093
0.25253001 0.069991998 0.031985
0.25022 0.071272001 0.033429001
0.25073001 0.071344003 0.032159999
0.24811 0.078776002 0.033836
0.24834999 0.077930003 0.033638
0.24575999 0.058182999 0.035146002
0.24612001 0.058247 0.035505001
0.24721999 0.058504999 0.03492
0.25330999 0.066197 0.031314999
0.25275999 0.068646997 0.032407001
0.25171 0.070141003 0.032524999
0.24918 0.071832001 0.034031998
0.2449 0.058125999 0.036017999
0.25187001 0.062590003 0.032993998
0.25288001 0.065779999 0.032122001
0.25284001 0.067337997 0.032104
0.2484 0.072365999 0.033865001
0.25046 0.061003 0.033994
0.25251001 0.065866999 0.033199999
0.25207999 0.068960004 0.033323001
0.25044 0.070073001 0.034715999
0.24828 0.071921997 0.034926999
0.24569 0.058777001 0.037190001
0.2481 0.059324998 0.034896001
0.25060999 0.061802998 0.034219999
0.25104001 0.062631004 0.034928001
0.25152999 0.063193999 0.033989001
0.25183001 0.064323999 0.033929002
0.25255999 0.067571998 0.033185001
0.25192001 0.068490997 0.033840001
0.24913999 0.071383998 0.035202
0.24638 0.059075002 0.036595002
0.24789 0.060196001 0.035990998
0.24909 0.060433999 0.034657001
0.24958999 0.061437 0.035383001
0.25202 0.067348003 0.033994999
0.25163999 0.069610998 0.033585999
0.24419001 0.058366001 0.036883999
0.24687 0.059588999 0.036878001
0.25224 0.065848 0.034325998
0.24977 0.070368998 0.035433002
0.24886 0.061329 0.036389999
0.25009999 0.062467001 0.035603002
0.25115001 0.063824996 0.035094
0.25123 0.065673001 0.035441
0.25145999 0.067441002 0.035213001
0.25097001 0.068504997 0.03503
0.24879999 0.070540003 0.036029
0.24607 0.059397999 0.037431002
0.25060999 0.067996003 0.035815001
0.24947 0.069826998 0.036304001
0.24629 0.059965 0.038245998
0.24735001 0.060469002 0.037486002
0.2484 0.061891999 0.036866002
0.24972001 0.062648997 0.036168002
0.25086999 0.064751998 0.035737999
0.25080001 0.065912001 0.035941001
0.25119999 0.066904001 0.035730001
0.25027999 0.06865 0.036495999
0.24761 0.061473999 0.038052
0.24997 0.064342 0.036713
0.24877 0.070128001 0.037161
0.24890999 0.062688999 0.037505001
0.24955 0.064236999 0.037299
0.24991 0.065494999 0.036788002
0.25013 0.06684 0.036674
0.24931 0.068691999 0.037877001
0.24680001 0.061099 0.038851
0.2485 0.063484997 0.038136002
0.24736001 0.062013999 0.038936
0.24912 0.065623999 0.038339999
0.24879 0.064355001 0.038279999
0.24764 0.062937997 0.038849998
0.24903999 0.067194998 0.038479
0.24893001 0.068614997 0.038095001
0.33469999 0.14906999 0.16402
0.33453 0.14920001 0.16482
0.33524001 0.14781 0.16473
0.33056 0.12169 0.16836999
0.32982001 0.12297 0.1681
0.32973 0.1231 0.16899
0.33039999 0.12169 0.16896001
0.27638 0.067998998 0.19983
0.27684999 0.068012998 0.19925
0.27678999 0.069297999 0.19891
0.33133999 0.1587 0.17023
0.33199999 0.15895 0.16917001
0.33158001 0.16009 0.17008001
0.28018001 0.12263 0.20668
0.28001001 0.12404 0.20660999
0.27903 0.12255 0.20692
0.27866 0.11008 0.2105
0.27928999 0.11018 0.21024001
0.27847999 0.11114 0.2103
0.32881999 0.12605 0.17252
0.32907999 0.12586001 0.17337
0.32905 0.12475 0.17306
0.32955 0.12328 0.17224
0.32969001 0.12306 0.1732
0.33028999 0.12176 0.17301001
0.33004001 0.16576 0.1744
0.32923001 0.16565999 0.17563
0.32912999 0.16449 0.17515001
0.33032 0.16418999 0.17412999
0.26108 0.14439 0.18322
0.2599 0.145 0.18257999
0.25915 0.14489999 0.18395001
0.25801 0.14531 0.18370999
0.25885001 0.14488 0.18549
0.2615 0.14485 0.18158001
0.2599 0.14490999 0.18116
0.25645 0.14608 0.17888001
0.25705001 0.14598 0.17758
0.25562999 0.1464 0.17726
0.25723001 0.14593001 0.17607
0.25781 0.146 0.17527001
0.25672001 0.14613999 0.17476
0.25514999 0.14624 0.17883
0.25481001 0.14658999 0.17975
0.25608999 0.14602999 0.18048
0.25578001 0.14638001 0.17580999
0.26159999 0.14459001 0.18058001
0.26038 0.14489999 0.18026
0.25448999 0.14666 0.18134999
0.26201001 0.14464 0.17907
0.26069999 0.14489999 0.17885999
0.2626 0.1445 0.1778
0.26111001 0.145 0.17723
0.26271001 0.1445 0.1768
0.26135999 0.14480001 0.17592999
0.26328 0.14449 0.17516001
0.26201001 0.14472 0.17471001
0.26409999 0.14424001 0.17377
0.26243001 0.14480001 0.17354999
0.25310001 0.14577 0.18652
0.25351 0.14641 0.18516
0.25209001 0.1461 0.18594
0.25511 0.14621 0.18424
0.25518 0.14595 0.1829
0.25397 0.14631 0.18384001
0.32286999 0.17141999 0.16062
0.32391 0.17130999 0.15952
0.32229 0.17138 0.15928
0.25586 0.14602 0.18144999
0.32121 0.1724 0.16609
0.32161 0.17248 0.16461
0.32025 0.17242999 0.16425
0.25424001 0.14631 0.18258999
0.26429 0.14383 0.17268001
0.26288 0.14444999 0.17208
0.33496001 0.1329 0.17196
0.33546999 0.13428 0.17177001
0.33533001 0.13451 0.1728
0.26482001 0.14371 0.17171
0.26344001 0.14391001 0.17113
0.26563999 0.14272 0.17
0.26427999 0.14352 0.16982999
0.26625001 0.14221001 0.16853
0.26495001 0.14269 0.16889
0.26684001 0.14189 0.16763
0.26594999 0.14196 0.16741
0.33013999 0.11662 0.15997
0.32968 0.11789 0.16001
0.33034 0.11808 0.16095001
0.28073001 0.10359 0.21107
0.28156 0.10409 0.2103
0.28073001 0.10409 0.21066999
0.31911999 0.17242 0.17241
0.31964001 0.17249 0.17118999
0.31810001 0.17265999 0.17201
0.24672 0.14724 0.18607
0.24557 0.14767 0.18553001
0.24533001 0.14711 0.18707
0.32561001 0.091715999 0.17416
0.32578999 0.091756999 0.17515001
0.32486999 0.090337001 0.17539001
0.33158001 0.10423 0.17405
0.33147001 0.10442 0.17497
0.33072001 0.10285 0.17496
0.22528 0.10933 0.21417999
0.22445001 0.10916 0.21421
0.2254 0.10804 0.21499
0.33184999 0.11104 0.17299999
0.33166 0.11092 0.17184
0.33199 0.11249 0.17271
0.32078999 0.17228 0.16295999
0.32221001 0.17205 0.16309001
0.32135999 0.17225 0.16162001
0.31865999 0.19424 0.23057
0.31784001 0.19354001 0.22989
0.31740001 0.19385999 0.23153999
0.33493999 0.13266 0.17298
0.31884 0.17236 0.17380001
0.31773001 0.17226 0.17332
0.32699999 0.094424002 0.17038999
0.32826999 0.096063003 0.17012
0.32811001 0.096166 0.17132001
0.32548001 0.093097001 0.17135
0.32543999 0.093304001 0.17023
0.32723999 0.094835997 0.17117
0.33192 0.15322 0.17399
0.33202001 0.1533 0.17521
0.33272001 0.15188999 0.17508
0.25468999 0.14552 0.18536
0.3321 0.10691 0.16784
0.33234 0.10686 0.16877
0.33193001 0.10574 0.16906001
0.26359999 0.14099 0.16377001
0.26458001 0.14044 0.16260999
0.26317999 0.14064001 0.16216999
0.31777999 0.16395 0.20737
0.31672999 0.16323 0.20753001
0.31766 0.16401 0.20632
0.26253 0.17918 0.20307
0.26157001 0.17888001 0.20242
0.26247001 0.17771 0.20157
0.32855001 0.12561999 0.1772
0.32804 0.12557 0.17821001
0.32848999 0.12443 0.17822
0.31273001 0.16716 0.21956
0.31342 0.16663 0.22046
0.31198999 0.16808 0.22057
0.29964 0.061494999 0.14161
0.29901999 0.062684998 0.14241
0.29989001 0.062483002 0.14286
0.33202001 0.1112 0.16986001
0.33215001 0.11105 0.16912
0.33237001 0.11246 0.17011
0.33085999 0.11643 0.16108
0.25635001 0.1453 0.16772
0.25722 0.14493001 0.16644
0.25630999 0.14506 0.16601001
0.33309001 0.15458 0.1631
0.33311 0.15468 0.16407999
0.33302 0.15353 0.16383
0.32734001 0.09753 0.16231
0.32775 0.098834999 0.16186
0.32767999 0.097625002 0.16315
0.32889 0.1189 0.16016001
0.32973999 0.11927 0.16113999
0.24763 0.14765 0.16953
0.24905001 0.14737999 0.1698
0.24835999 0.14701 0.16851
0.29311001 0.068581 0.16469
0.29311001 0.069689997 0.16469
0.29330999 0.069893003 0.16548
0.32888001 0.16007 0.17535
0.32918999 0.16024999 0.17439
0.32874 0.16157 0.17543
0.32718 0.094898 0.17205
0.32837999 0.096038997 0.17196999
0.32962999 0.16181 0.17417
0.33036 0.16292 0.17439
0.32903999 0.16305 0.17524999
0.32973 0.12729999 0.17335001
0.26080999 0.20269001 0.21086
0.26135001 0.20349 0.21086
0.26097 0.20265999 0.20973
0.32262 0.088601999 0.16542
0.32291999 0.088827997 0.16644999
0.32242 0.087978996 0.16667999
0.30026001 0.063557997 0.15404999
0.29764 0.064824 0.15434
0.29982001 0.063472003 0.15512
0.32864001 0.12058 0.1604
0.32872999 0.12051 0.16125999
0.31130001 0.18694 0.2299
0.31174001 0.18803 0.23002
0.31125 0.18712001 0.22819
0.31189999 0.19236 0.23702
0.31147999 0.19148999 0.23676001
0.31105 0.19148 0.23820999
0.31553999 0.17294 0.17174
0.31580999 0.17302001 0.17051999
0.31457001 0.17276999 0.17143001
0.32012001 0.19193 0.22522999
0.32122001 0.19248 0.22552
0.32084 0.19168 0.22391
0.3319 0.12887999 0.17112
0.33348 0.13033 0.17088
0.33331999 0.13022 0.17211001
0.32216001 0.18934 0.22006001
0.32311001 0.18866999 0.21913999
0.32174 0.18880001 0.21875
0.31970999 0.18522 0.20807
0.32047999 0.18457 0.20674001
0.31904 0.18486001 0.20637
0.31828001 0.18549 0.20799001
0.25314 0.14703999 0.17659999
0.25353 0.14698 0.17506
0.25226 0.14732 0.17473
0.25220999 0.14707001 0.17625
0.26238 0.14140999 0.16365001
0.25824001 0.14189 0.16083001
0.25944 0.14171 0.16121
0.25885001 0.14117 0.15962
0.26029 0.14078 0.15993001
0.32003999 0.18376 0.20543
0.27000001 0.14159 0.18556
0.27112001 0.14128 0.18607
0.27155 0.14193 0.18454
0.31476 0.16771001 0.22754
0.31569001 0.16812 0.2282
0.31415001 0.16879 0.22882999
0.31711 0.17201 0.1805
0.31744 0.17191 0.17915
0.31615001 0.17228 0.17891
0.33245 0.1086 0.16759001
0.31755999 0.17213 0.17804
0.31834 0.1719 0.17657
0.31696999 0.17257001 0.17628001
0.33331999 0.15611 0.16396999
0.33379 0.15739 0.16378
0.33399999 0.15741 0.16511001
0.33329999 0.15586001 0.16501001
0.33074 0.16851 0.16855
0.33159 0.16814999 0.16902
0.33182001 0.16839001 0.16824999
0.27417001 0.197 0.19546001
0.27564999 0.19622 0.19588
0.27478999 0.19615 0.19407
0.32789999 0.12196 0.16016001
0.32831001 0.12181 0.16146
0.32800001 0.10012 0.16204
0.32828999 0.099046998 0.16346
0.27339 0.11986 0.21018
0.27359 0.12125 0.20992
0.27243 0.12103 0.20964999
0.27254999 0.11852 0.21067999
0.27336001 0.11853 0.21043999
0.27237999 0.11972 0.21046001
0.32918999 0.12445 0.16853
0.32945001 0.12439 0.16908
0.33213001 0.16034 0.1693
0.3326 0.16152 0.16911
0.33223999 0.16157 0.17024
0.33658001 0.14098001 0.16884001
0.33625999 0.14215 0.16865
0.33592999 0.14084999 0.1697
0.27855 0.1127 0.20986
0.27950999 0.11254 0.20975
0.27827001 0.11424 0.20956001
0.27959001 0.11117 0.20996
0.33039999 0.12184 0.17184
0.33069 0.1204 0.17297
0.32940999 0.16677 0.1743
0.32883 0.16684 0.17545
0.28051999 0.19303 0.19295
0.28257 0.19186001 0.1935
0.28128001 0.19230001 0.19193999
0.25793999 0.14408 0.16491
0.25677001 0.14467999 0.16487999
0.25542 0.14542 0.16735999
0.24951001 0.14672001 0.16548
0.25094 0.14657 0.16583
0.25007001 0.14619 0.16453999
0.24967 0.1472 0.16827001
0.25018999 0.14703 0.16743
0.2489 0.14698 0.16688
0.32578 0.091559 0.17608
0.32699999 0.093215004 0.17607
0.32642001 0.093139 0.17431
0.32673001 0.093552001 0.17549001
0.3188 0.18387 0.20524999
0.31948999 0.18268 0.20393001
0.31817999 0.18342 0.20349
0.32727 0.12316 0.16006
0.32780001 0.12302 0.16118
0.32235 0.19668999 0.23413999
0.32301 0.19599999 0.23305
0.32170001 0.19622999 0.23272
0.32082999 0.19697 0.23379999
0.33445999 0.14902 0.16866
0.33381 0.15085 0.16887
0.33443001 0.14903 0.17014
0.31852001 0.17244001 0.17532
0.31722999 0.17245001 0.17535999
0.33372 0.15063 0.16395999
0.33311999 0.15207 0.16407999
0.33337 0.15207 0.16513
0.31832001 0.17279001 0.17093
0.27452001 0.19672 0.19889
0.27344 0.19765 0.19665
0.27279001 0.19814 0.19780999
0.31219 0.18810999 0.22859
0.29455999 0.052530002 0.19774
0.2931 0.05068 0.19973999
0.29493999 0.050707001 0.19797
0.31900999 0.19625001 0.23316
0.31858 0.19547001 0.23316
0.31762999 0.19600999 0.23424
0.26097 0.14422999 0.18432
0.25966999 0.14421 0.18501
0.32914999 0.10011 0.17513999
0.32949001 0.099987 0.17419
0.33004001 0.10141 0.17489
0.26255 0.14437 0.18219
0.26245001 0.14407 0.18368
0.26284 0.14429 0.18064
0.25373 0.14688 0.17402001
0.25266999 0.14689 0.17359
0.26120001 0.13971999 0.15871
0.25990999 0.13998 0.15875
0.29321 0.068691999 0.16373
0.26333001 0.14437 0.17923
0.33329001 0.16708 0.16685
0.33267999 0.16783001 0.16741
0.33305001 0.16733 0.1681
0.24885 0.14767 0.17816
0.24912 0.1476 0.17692
0.248 0.14782999 0.17664
0.2586 0.14365999 0.16415
0.25760999 0.1437 0.16348
0.329 0.097400002 0.17193
0.32925999 0.09742 0.17110001
0.32938001 0.098862 0.17234001
0.28422001 0.19016001 0.18977
0.28358001 0.18987 0.18819
