# .PCD v0.7 - Point Cloud Data file format
VERSION 0.7
FIELDS x y z
SIZE 4 4 4
TYPE F F F
COUNT 1 1 1
WIDTH 1497
HEIGHT 1
VIEWPOINT 0 0 0 1 0 0 0
POINTS 1497
DATA ascii
0.13811 -0.027303001 0.21360999
0.13789999 -0.026791999 0.21435
0.13699 -0.027958 0.21482
0.1366 -0.027884001 0.21591
0.041737001 -0.027742 0.26399001
0.026572 -0.027247 0.27147999
0.14158 -0.027687 0.21229
0.041804999 -0.026996 0.26403001
0.026191 -0.027843 0.27202001
0.026356 -0.026489999 0.27127001
0.041051999 -0.026542 0.26471999
0.041145001 -0.026717 0.26453
0.026744001 -0.027141999 0.27129
0.026165999 -0.026079001 0.27203
0.05359 -0.025896 0.25624001
0.054074999 -0.027458001 0.25678
0.054519001 -0.025506999 0.25707999
0.040089 -0.026431 0.26469001
0.039767001 -0.027026 0.26464
0.039441999 -0.025087001 0.26525
0.026922001 -0.024356 0.27149999
0.027237 -0.024853 0.27125001
0.038931001 -0.024800001 0.26541999
0.065169998 -0.02311 0.25158
0.065706 -0.023797 0.25251001
0.065392002 -0.023956999 0.25161001
0.037268002 -0.023747999 0.26671001
0.028971 -0.023055 0.27039999
0.027757 -0.024536001 0.27089
0.065560997 -0.022658 0.25148001
0.065677002 -0.022330999 0.25127
0.028960001 -0.022637 0.27054
0.035126999 -0.022197001 0.26682001
0.036044002 -0.022634 0.26677001
0.030041 -0.022670999 0.26967001
0.034933999 -0.022413 0.26774001
0.033886001 -0.022229999 0.26813
0.029495001 -0.021699 0.26982999
0.030941 -0.020258 0.26944
0.032899 -0.021686001 0.26864001
0.032056 -0.020601001 0.26888999
0.063933 -0.01414 0.25200999
0.062541999 -0.01259 0.2527
0.062547997 -0.013737 0.25288001
0.062022001 -0.012231 0.25296
0.063307002 -0.010143 0.25242999
0.063750997 -0.0093460996 0.25288001
0.051123001 -0.0093855998 0.25931999
0.063638002 -0.0088371998 0.25275001
0.051477998 -0.0090423003 0.25835001
0.062902004 -0.0078699002 0.25196999
0.052602001 -0.0056460998 0.25764
0.062475 -0.0053062001 0.25402001
0.062469002 -0.0042452998 0.25389001
0.061108001 -0.0040961001 0.25347
0.053849999 -0.0037014999 0.25746
0.052203 -0.0054756999 0.2579
0.05322 -0.0040862001 0.25832
0.053989001 -0.0036857999 0.25746
0.054329999 -0.0030749 0.25713
0.055874001 -0.0027582999 0.25705001
0.056141 -0.0022787 0.25624001
0.06123 -0.0017273 0.25396001
0.057076 -0.0020592001 0.25635001
0.059779 -0.0010134 0.25454
0.1145 -0.053831 0.2252
0.11526 -0.054262001 0.22403
0.11385 -0.053805001 0.22504
0.113 -0.053725999 0.22495
0.11348 -0.054164998 0.22427
0.10936 -0.053665999 0.22777
0.109 -0.053642001 0.22831
0.11659 -0.052967001 0.22401001
0.11561 -0.053327002 0.22396
0.10653 -0.052168999 0.23073
0.10664 -0.052202001 0.22904
0.12025 -0.051727001 0.22279
0.068363003 -0.051576 0.24979
0.068966001 -0.05029 0.24903999
0.12018 -0.051001001 0.22266001
0.070619002 -0.048859999 0.24880999
0.088676997 -0.05071 0.23904
0.089786999 -0.050198 0.23837
0.089809 -0.050654002 0.23837
0.072765 -0.049424998 0.24789999
0.080536 -0.049593002 0.24259
0.081134997 -0.049295001 0.24368
0.079705 -0.049704 0.24288
0.080830999 -0.049254999 0.2445
0.079993002 -0.049851 0.24374001
0.074886002 -0.049741 0.24657001
0.073425002 -0.048921 0.24668001
0.070134997 -0.047881 0.24901
0.070153996 -0.048248 0.24888
0.090084001 -0.048390999 0.23906
0.082533002 -0.048760001 0.24338999
0.081283003 -0.048854999 0.24366
0.073595002 -0.048599001 0.24710999
0.043724999 -0.048827 0.26234999
0.044806998 -0.049079999 0.26106
0.12237 -0.048989002 0.22172999
0.072572999 -0.048822999 0.24807
0.071307003 -0.048836 0.24902999
0.048611999 -0.048301 0.25997999
0.046156 -0.048597001 0.26143
0.073119 -0.047850002 0.24767999
0.072347 -0.047917001 0.24826001
0.048204999 -0.048172999 0.25994
0.039820999 -0.048680998 0.26545
0.10418 -0.047545999 0.23119
0.089516997 -0.047605999 0.23932999
0.049072001 -0.048627 0.26014999
0.04896 -0.047090001 0.25907999
0.050021 -0.047499999 0.25863001
0.074079998 -0.048654001 0.24663
0.073763996 -0.047729999 0.24713001
0.072894998 -0.046944998 0.24729
0.072261997 -0.047612 0.24822
0.071824998 -0.047572002 0.24845999
0.070519 -0.047979001 0.24879999
0.051357001 -0.046604998 0.25914001
0.12479 -0.047137 0.22065
0.10447 -0.045970999 0.23149
0.072343998 -0.046723999 0.24824999
0.071799003 -0.046927001 0.24882001
0.071064003 -0.046551 0.24889
0.073670998 -0.047047 0.24718
0.052141 -0.046551 0.25867
0.1259 -0.045506999 0.22041
0.035383999 -0.045898002 0.2669
0.034208 -0.045694001 0.26752999
0.033574 -0.045322001 0.26820001
0.12748 -0.044620998 0.21954
0.12602 -0.045559999 0.22021
0.070110001 -0.044252999 0.2499
0.064824 -0.044300999 0.25181001
0.12794 -0.044041999 0.21924999
0.033029001 -0.044443998 0.26758
0.068654999 -0.044054002 0.2493
0.069413997 -0.043032002 0.24987
0.065153003 -0.042351 0.25191
0.064838 -0.042812999 0.2518
0.10681 -0.042636 0.23002
0.052905999 -0.041864 0.25758001
0.052606001 -0.042925999 0.25780001
0.085404001 -0.041639999 0.24028
0.084555 -0.041756999 0.24163
0.086135998 -0.042137999 0.24104001
0.085006997 -0.041682001 0.24105
0.069487996 -0.041953001 0.24975
0.11341 -0.041715 0.2264
0.1142 -0.041450001 0.22637001
0.068571001 -0.040286999 0.24957
0.030076999 -0.040504001 0.26934001
0.11665 -0.039877001 0.22461
0.062849998 -0.039861001 0.25229001
0.052018002 -0.039620001 0.25834
0.11788 -0.039337002 0.22473
0.06126 -0.038116001 0.25332001
0.11963 -0.038095001 0.22353999
0.051298 -0.038791001 0.25876999
0.12028 -0.036731001 0.22267
0.061131999 -0.037025999 0.25367999
0.051492002 -0.037576001 0.25845999
0.12149 -0.036513999 0.22181
0.12238 -0.036403999 0.22169
0.12199 -0.036104001 0.22064
0.049226999 -0.036477 0.25990999
0.027938001 -0.03571 0.27088001
0.058706999 -0.035100002 0.25453001
0.12389 -0.034986001 0.22007
0.058809001 -0.035422001 0.25328001
0.068019003 -0.032097999 0.24997
0.15028 -0.033071999 0.20781
0.12647 -0.033211999 0.21912999
0.12555 -0.034017999 0.21899
0.046319999 -0.033038002 0.26069
0.067539997 -0.031907 0.25002
0.067979001 -0.03128 0.25105
0.057161 -0.032127999 0.25420001
0.056728002 -0.032104999 0.25558001
0.027217999 -0.030764 0.27081999
0.026934 -0.031716999 0.27147999
0.14847 -0.032366 0.20827
0.12825 -0.032262001 0.21844999
0.12932999 -0.031580999 0.21808
0.043476999 -0.030613 0.26203001
0.025996 -0.030291 0.27179
0.026435001 -0.030253001 0.27088001
0.13117 -0.030323001 0.21784
0.02586 -0.029457999 0.27114999
0.14657 -0.029115999 0.21004
0.14490999 -0.027957 0.20998
0.14410999 -0.027455 0.21156
0.1429 -0.027682001 0.21098
0.14241999 -0.027275 0.21211
0.041173998 -0.027063999 0.26361001
0.027066 -0.026490999 0.27020001
0.065902002 -0.026210001 0.25097001
0.039659001 -0.025607999 0.26444
0.027562 -0.025386 0.27171999
0.026558001 -0.025800999 0.27061
0.02751 -0.025179001 0.27015999
0.038105998 -0.024627 0.26501
0.053877 -0.024347 0.25580001
0.054359999 -0.025472 0.25622001
0.053438 -0.023846 0.25615999
0.028937999 -0.023932001 0.27011999
0.035838 -0.022841999 0.26688001
0.036215 -0.023344999 0.26578
0.029256999 -0.023142001 0.26984999
0.029448999 -0.024449 0.26927
0.035023 -0.023306999 0.26666
0.034053002 -0.021787001 0.26855001
0.032127999 -0.022606 0.26815
0.030509001 -0.022538999 0.26984999
0.032184001 -0.021715 0.26840001
0.031107999 -0.022249 0.26877001
0.031831998 -0.02118 0.26876
0.032575 -0.020158 0.26912001
0.031879999 -0.021028001 0.26921001
0.050680999 -0.014237 0.2579
0.051693 -0.014954 0.25845999
0.052124999 -0.014606 0.25986001
0.051856 -0.012031 0.25920999
0.050574999 -0.01177 0.25848001
0.051102001 -0.012505 0.25804999
0.063166998 -0.010787 0.25272
0.063293003 -0.0095356004 0.25286999
0.063689001 -0.0092104999 0.25237
0.062595002 -0.0067349002 0.25220001
0.061684001 -0.0058211 0.25284001
0.054494001 -0.0030554 0.25656
0.061372001 -0.0025390999 0.25339001
0.11935 -0.050896 0.22262
0.089570001 -0.050579 0.23886
0.090539999 -0.050432999 0.2384
0.090276003 -0.051440999 0.23728
0.078210004 -0.049743 0.24349
0.077329002 -0.049968001 0.24510001
0.076003999 -0.049766 0.24575999
0.075407997 -0.049603999 0.24567001
0.068706997 -0.050266001 0.24857999
0.075427003 -0.048824001 0.24563999
0.069397002 -0.049536001 0.2485
0.081295997 -0.049913 0.24247999
0.068570003 -0.049307 0.24880999
0.069847003 -0.047711998 0.24922
0.069164999 -0.047768999 0.24905001
0.075525999 -0.047623001 0.24555001
0.075117998 -0.047056999 0.24574
0.069141001 -0.048158001 0.24936999
0.049238998 -0.047099002 0.25898999
0.046055999 -0.048408002 0.26045001
0.074499004 -0.047557 0.24635001
0.048516002 -0.046790998 0.25931001
0.040606 -0.047104001 0.26405999
0.040056001 -0.047731999 0.26345
0.089123003 -0.046441 0.23855001
0.068595998 -0.047010001 0.24913
0.070046 -0.046790998 0.24934
0.050119001 -0.046845 0.25915
0.051075 -0.045972001 0.25870001
0.039129 -0.046854001 0.26473001
0.105 -0.047325999 0.23124
0.075526997 -0.046633001 0.24511001
0.075177997 -0.046663001 0.24627
0.074858002 -0.046397001 0.24632999
0.069940999 -0.046808999 0.24931
0.038777001 -0.046709001 0.26451001
0.068176001 -0.046620999 0.24951001
0.068108998 -0.046312001 0.24868
0.036805999 -0.046275001 0.26539999
0.036442999 -0.046165999 0.26557001
0.036373999 -0.046094999 0.26545
0.10502 -0.044879999 0.23085
0.075149998 -0.045403998 0.24620999
0.068928003 -0.045905001 0.24955
0.035666 -0.045720998 0.26528001
0.068677001 -0.045457002 0.24968
0.034894001 -0.045244001 0.26655999
0.12583999 -0.045207001 0.21892001
0.075549997 -0.045065001 0.24571
0.075632997 -0.045961998 0.24603
0.064292997 -0.045162 0.25141001
0.034394 -0.044746 0.26697999
0.10534 -0.045697998 0.22995
0.087333001 -0.044364002 0.23836
0.088271998 -0.045864001 0.23797999
0.087906003 -0.043765001 0.2397
0.033652 -0.043821 0.26653999
0.068122 -0.044946 0.24934
0.068534002 -0.044440001 0.24933
0.068184003 -0.043166999 0.24925999
0.051521 -0.044098001 0.25821
0.12797999 -0.043074999 0.21843
0.065833002 -0.044131 0.25044
0.10632 -0.044022001 0.23113
0.065470003 -0.042890001 0.25115001
0.11172 -0.043051001 0.22693001
0.10847 -0.042451002 0.22877
0.10733 -0.042695001 0.22914
0.082222 -0.042656999 0.24214999
0.082942002 -0.041682001 0.24145
0.081473999 -0.042939 0.24247
0.051789001 -0.043194 0.25817999
0.13093001 -0.041526001 0.21698999
0.13145 -0.042024001 0.21742
0.13101 -0.041770998 0.21687999
0.085626997 -0.042463001 0.23921999
0.086808003 -0.041421998 0.24122
0.08568 -0.041823 0.23962
0.084509999 -0.041958001 0.24191999
0.083934002 -0.042130999 0.24088
0.084785998 -0.041407999 0.2402
0.11372 -0.041510999 0.22521999
0.051615998 -0.040476002 0.25832
0.11613 -0.040406 0.22479001
0.052262001 -0.041019 0.25788
0.029323 -0.038915001 0.27039999
0.028509 -0.038803 0.26886001
0.029642001 -0.039414998 0.26951
0.11764 -0.039296001 0.22382
0.062647998 -0.038846999 0.25231999
0.051764 -0.039645001 0.25832
0.12048 -0.037441999 0.22349
0.050429001 -0.037048001 0.25876999
0.12012 -0.037110999 0.22228999
0.068761997 -0.037696 0.24938001
0.12099 -0.037060998 0.2216
0.068259001 -0.036839999 0.24914999
0.060238998 -0.035790998 0.25369
0.059657 -0.036345001 0.25316
0.12299 -0.035808999 0.22059
0.059184998 -0.035624001 0.25343001
0.048517 -0.035730001 0.2595
0.027827 -0.035659999 0.27078
0.12334 -0.035309002 0.22026999
0.048 -0.034929998 0.25986999
0.047185998 -0.033925999 0.26019001
0.046436999 -0.034490999 0.26001999
0.15059 -0.033992 0.20757
0.12442 -0.033587001 0.21893001
0.14989001 -0.032866001 0.20777
0.045586001 -0.033923 0.26010999
0.026911 -0.033481002 0.27193001
0.067092001 -0.032384999 0.24955
0.045805998 -0.032042999 0.26109001
0.12819999 -0.031360999 0.21778999
0.056697998 -0.031088 0.25569001
0.043921001 -0.032054 0.26082999
0.14666 -0.031243 0.20872
0.12942 -0.031451002 0.21783
0.044845998 -0.030803001 0.26124001
0.13066 -0.030477 0.21672
0.13144 -0.02953 0.21676999
0.043701999 -0.030118 0.2624
0.13225999 -0.028999001 0.21597999
0.042165 -0.029386001 0.26227999
0.026512001 -0.028620001 0.27085
0.14368001 -0.02846 0.21027
0.040943999 -0.029269001 0.26295
0.042314 -0.028232001 0.26300001
0.14111 -0.027518 0.21146999
0.14101 -0.027308 0.21323
0.14044 -0.027453 0.21132
0.13978 -0.027480001 0.21270999
0.13819 -0.028035 0.21307001
0.040344998 -0.027791001 0.26344001
0.040192999 -0.02792 0.26368999
0.026443999 -0.027292 0.27070001
0.027866 -0.026637999 0.27028999
0.066298999 -0.026937 0.25178999
0.038148999 -0.025464 0.26594001
0.037076 -0.024503 0.26484999
0.028179999 -0.025505999 0.27028
0.037043002 -0.023944 0.26598999
0.02894 -0.024976 0.26914001
0.030152 -0.023812 0.26888001
0.029904 -0.024568999 0.26887
0.033404 -0.022781 0.26659
0.03286 -0.023217 0.26705
0.032453001 -0.022882 0.26769999
0.033998001 -0.023397001 0.26710999
0.033537999 -0.023600001 0.26710999
0.030847 -0.02272 0.26890999
0.031966999 -0.023215 0.26776999
0.052083001 -0.016976999 0.25808999
0.052124999 -0.016890001 0.25915
0.051373001 -0.016070999 0.25832
0.051336002 -0.015518 0.25832
0.050983001 -0.015192 0.25690001
0.050716002 -0.015636999 0.25784999
0.061802 -0.010634 0.25306001
0.061558001 -0.010913 0.25274
0.051233001 -0.0094704004 0.25786
0.062604003 -0.0071879001 0.25233001
0.051105 -0.0064937999 0.25835001
0.051515002 -0.0080874003 0.25716001
0.062036 -0.0067607001 0.25264001
0.061336 -0.0035890001 0.25351
0.052274998 -0.0050734999 0.25666001
0.053117 -0.0046147001 0.25637999
0.061342001 -0.0032687001 0.25312999
0.060844 -0.0026823001 0.25351
0.057766002 -0.00066684 0.25457999
0.058343999 -0.0014169 0.25511
0.11568 -0.053389002 0.22435001
0.11062 -0.053173002 0.22755
0.11124 -0.053518001 0.22576
0.11083 -0.053213 0.22750001
0.11566 -0.053054001 0.22358
0.11517 -0.052963 0.22368
0.10972 -0.053142998 0.22744
0.10826 -0.052519001 0.2282
0.11733 -0.052492 0.22391
0.11756 -0.052104 0.22317
0.10708 -0.051867001 0.22933
0.10724 -0.052497 0.22959
0.1187 -0.052287001 0.22327
0.10564 -0.051286001 0.22892
0.092056997 -0.051419999 0.23667
0.091527 -0.052177999 0.23711
0.092164002 -0.052267 0.23644
0.091636002 -0.051070001 0.23793
0.091082998 -0.051339999 0.23779
0.089806996 -0.051470999 0.23812
0.090363003 -0.051491 0.23824
0.088670999 -0.050469998 0.23855001
0.066711999 -0.050723001 0.24941
0.066065997 -0.051128998 0.25015
0.10529 -0.051470999 0.22924
0.10534 -0.051385 0.23001
0.091462001 -0.050195001 0.2369
0.087691002 -0.050641 0.23917
0.067699 -0.050669 0.24958
0.067833997 -0.050574999 0.24914999
0.12042 -0.050508998 0.22171
0.10482 -0.049438 0.22984
0.090859003 -0.050142001 0.2379
0.068852 -0.050034001 0.24865
0.12093 -0.049812 0.22209001
0.12005 -0.050427999 0.22238
0.10453 -0.049089 0.23052
0.090202004 -0.049646001 0.23710001
0.091133997 -0.049584001 0.23740999
0.077258997 -0.049445 0.24376
0.076967999 -0.048930001 0.24514
0.075810999 -0.049580999 0.24556001
0.10485 -0.048679002 0.23097999
0.078644998 -0.04916 0.24327999
0.1216 -0.048801001 0.22122
0.10436 -0.048657998 0.2306
0.090438001 -0.048448 0.2369
0.090365998 -0.048806001 0.23822001
0.075930998 -0.048519999 0.24512
0.12276 -0.048509002 0.22139999
0.067616999 -0.047807999 0.24953
0.068632998 -0.048962001 0.24912
0.062913001 -0.048503 0.25231001
0.062245999 -0.048289999 0.25156
0.044300001 -0.047954999 0.26091999
0.12377 -0.047010001 0.22053
0.12257 -0.047798999 0.22088
0.090177 -0.047628 0.2374
0.068554997 -0.047573999 0.24913999
0.062624 -0.047628 0.25191
0.045051999 -0.047437999 0.26118001
0.044216 -0.047740001 0.26163
0.043327 -0.047724001 0.26199999
0.10484 -0.047809999 0.23089001
0.10427 -0.048009001 0.23046
0.090283997 -0.046923999 0.23796999
0.046790998 -0.047490999 0.26010999
0.046358999 -0.047743 0.26091999
0.042157002 -0.047692001 0.26306999
0.042505998 -0.047244001 0.26280001
0.039659001 -0.047331002 0.26389
0.040849 -0.047210999 0.26348999
0.049660001 -0.046553001 0.259
0.047818001 -0.046838999 0.25990999
0.124 -0.046682 0.22005001
0.089511 -0.046324998 0.2379
0.063317999 -0.046445001 0.25167
0.048411001 -0.046723001 0.25966999
0.12404 -0.046069 0.21938001
0.12498 -0.045938 0.21987
0.089178003 -0.046323001 0.23801
0.038844001 -0.045981001 0.26412001
0.039076 -0.046172 0.26385
0.075446002 -0.045694001 0.245
0.067382999 -0.045634001 0.2489
0.066243999 -0.046879001 0.24958
0.063847996 -0.045587 0.25073001
0.036844 -0.046567999 0.26484001
0.038159002 -0.045841001 0.26436001
0.10514 -0.046987001 0.22987001
0.088878997 -0.045522999 0.23778
0.067947 -0.046383001 0.2494
0.050292 -0.046204001 0.25847
0.036747001 -0.045511 0.26497
0.050902002 -0.044613998 0.25793999
0.051302001 -0.045077998 0.25755
0.089530997 -0.045309 0.23844001
0.076305002 -0.045063 0.24466
0.077313997 -0.045685999 0.24446
0.067038 -0.044799 0.24963
0.064084999 -0.045976002 0.25046
0.064912997 -0.044968002 0.25059
0.033390999 -0.045068 0.26585001
0.10501 -0.045316 0.22988001
0.10614 -0.044757999 0.22989
0.067460999 -0.045007002 0.24991
0.127 -0.044450998 0.21935
0.10638 -0.043942001 0.23030999
0.067943998 -0.044441 0.24984001
0.067328997 -0.044365 0.25033
0.066302001 -0.045042999 0.25018001
0.067050003 -0.044640999 0.25049999
0.065426998 -0.045068 0.25081
0.065687999 -0.044583999 0.25130001
0.050496999 -0.044394001 0.25797999
0.12733001 -0.043836001 0.21873
0.12701 -0.044089999 0.21890999
0.087186001 -0.043822002 0.23953
0.077675998 -0.044048 0.24408001
0.077261999 -0.044544 0.24524
0.067939997 -0.043189999 0.25005001
0.065926999 -0.043616999 0.25066
0.12748 -0.043292999 0.21828
0.10737 -0.043490998 0.22892
0.10574 -0.044344999 0.22909001
0.087572999 -0.043713 0.23931
0.078442 -0.043717999 0.2441
0.077979997 -0.043306001 0.24326999
0.068053 -0.042362001 0.24965
0.066816002 -0.042792998 0.25042999
0.032306001 -0.042828999 0.26783001
0.11204 -0.043129001 0.22635999
0.079475001 -0.043341 0.24324
0.066163003 -0.042261001 0.25027999
0.06543 -0.042668 0.25104001
0.032164 -0.042300001 0.26668
0.12899999 -0.041632 0.21755999
0.12909 -0.042904999 0.21788
0.1125 -0.043099001 0.22600999
0.11103 -0.042750001 0.22712
0.11033 -0.044142999 0.22748999
0.1094 -0.042679999 0.2277
0.10807 -0.043058999 0.22836
0.081492998 -0.042679001 0.24214
0.080664001 -0.043168999 0.24253
0.079687998 -0.043515999 0.24269
0.051353998 -0.042153001 0.25821
0.11301 -0.042557001 0.22541
0.11383 -0.041960001 0.22559001
0.067777 -0.042383999 0.24963
0.067381002 -0.042472001 0.24951001
0.065968998 -0.041675001 0.25038999
0.030823 -0.042955 0.26773
0.12967999 -0.042045999 0.21769001
0.13056999 -0.041705001 0.21758001
0.067859001 -0.040798999 0.24905001
0.064865001 -0.041629001 0.25088999
0.030851999 -0.042054001 0.26837999
0.13090999 -0.042045999 0.21685
0.085188001 -0.041544002 0.24056
0.065324001 -0.041652001 0.25075001
0.064272001 -0.041967001 0.25127
0.051481001 -0.041276 0.25801
0.050175 -0.042463999 0.25808999
0.030532001 -0.040961001 0.26876
0.13144 -0.041198 0.21641999
0.11516 -0.041327 0.22437
0.068212003 -0.041209999 0.24913
0.051468998 -0.041304 0.2581
0.13194001 -0.040429 0.21618
0.13296001 -0.041042998 0.21647
0.13281 -0.040972002 0.21673
0.13259 -0.040954001 0.21571
0.063978001 -0.040401001 0.25222
0.11636 -0.040626999 0.22442
0.068625003 -0.040417001 0.24955
0.051121 -0.040793002 0.25749001
0.030230001 -0.039455999 0.26831999
0.030393001 -0.040217001 0.26756999
0.067674004 -0.039990999 0.24923
0.050925002 -0.039441001 0.25779
0.029437 -0.039422002 0.26874
0.11788 -0.039414 0.22333001
0.068007 -0.037974 0.24897
0.050707001 -0.038887002 0.25837001
0.061253 -0.038725 0.25213
0.050232001 -0.038462002 0.25830001
0.11968 -0.038550999 0.22215
0.11901 -0.038594 0.22363999
0.028875001 -0.037728999 0.26918
0.11886 -0.038479 0.22302
0.060426999 -0.037845999 0.25271001
0.061377998 -0.037726998 0.25288001
0.048909001 -0.037753999 0.25878
0.067728996 -0.037227999 0.2492
0.060174 -0.037682001 0.25260001
0.028244 -0.037563 0.26943001
0.049596999 -0.036465 0.25893
0.048666999 -0.036685999 0.25909001
0.028037 -0.036355 0.26934999
0.048542999 -0.035923999 0.25931001
0.048156999 -0.034899 0.25929999
0.027585 -0.035119001 0.26975
0.047545999 -0.035294998 0.25974
0.067420997 -0.035351001 0.24923
0.057686999 -0.033675 0.2538
0.027574999 -0.033829998 0.26944
0.15008999 -0.034267001 0.20702
0.067700997 -0.033512 0.2494
0.058187999 -0.033142999 0.25459
0.046624999 -0.033668999 0.25995001
0.045568999 -0.034077998 0.26021999
0.14943001 -0.033241 0.20720001
0.14971 -0.033638999 0.20769
0.026543001 -0.032692 0.27044001
0.057351001 -0.032694001 0.25464001
0.058084 -0.033583 0.25474
0.14792 -0.032543998 0.20721
0.12726 -0.032536 0.21834999
0.045426 -0.032290999 0.26108
0.026413999 -0.032862 0.27035001
0.14756 -0.031939 0.20857
0.056446001 -0.031518001 0.25454
0.045240998 -0.031564999 0.26168999
0.14703 -0.031075999 0.20863
0.067535996 -0.031392001 0.24936999
0.043363001 -0.031325001 0.26133999
0.026573 -0.031507999 0.27048001
0.14658999 -0.031466998 0.20878001
0.067815997 -0.030392 0.25026
0.027141999 -0.030324999 0.27011001
0.12994 -0.029934 0.21781
0.12873 -0.030815 0.21662
0.042739 -0.031034 0.26256999
0.14609 -0.030827999 0.20886
0.14538001 -0.029979 0.20942
0.067295998 -0.030480999 0.25005999
0.067152001 -0.029521 0.24989
0.041731998 -0.030146999 0.26243001
0.027135 -0.030244 0.27070999
0.14560001 -0.030374 0.20916
0.066206999 -0.029383 0.2499
0.066326998 -0.028758001 0.24989
0.042403001 -0.029215001 0.26265001
0.14516 -0.029066 0.21012001
0.14485 -0.028565001 0.2103
0.066528998 -0.027326001 0.25086001
0.14272 -0.027554 0.21076
0.066215001 -0.027696 0.25016999
0.054963998 -0.028100001 0.25562
0.054570999 -0.027354 0.25626001
0.054593999 -0.027045 0.25518
0.039956 -0.028829001 0.26293999
0.14116 -0.027381999 0.21184
0.13796 -0.028008999 0.21377
0.13789 -0.028108001 0.21360999
0.054420002 -0.026993999 0.25624001
0.039912999 -0.027736999 0.26355001
0.027241999 -0.027559999 0.26999
0.039551001 -0.026603 0.26368001
0.027651999 -0.026245 0.26977
0.065834001 -0.027255001 0.25009999
0.054187998 -0.026606999 0.25613999
0.038998 -0.026544999 0.26459
0.037624002 -0.026333001 0.26388001
0.02881 -0.026288001 0.26980001
0.065534003 -0.025264001 0.25029001
0.064158 -0.025675001 0.25042999
0.064622998 -0.024091 0.25069001
0.037076999 -0.026152 0.26471999
0.029217999 -0.025756 0.26916
0.030414 -0.025586 0.2687
0.029575 -0.026594 0.26859
0.036680002 -0.024969 0.26532999
0.037285 -0.024712 0.26523
0.036217999 -0.024478 0.26539001
0.035165001 -0.023737 0.26721001
0.034793001 -0.023917001 0.26639
0.064200997 -0.023304 0.25031
0.030613 -0.024455 0.26844001
0.033047002 -0.023871001 0.26675999
0.030946 -0.023832999 0.26767999
0.064490996 -0.022459 0.25049999
0.065155998 -0.021105001 0.24981999
0.065907001 -0.020879 0.25015
0.064709 -0.019269001 0.25016999
0.064236 -0.019025 0.25117999
0.065953001 -0.018704001 0.25108001
0.051537 -0.018781999 0.25725999
0.051984001 -0.018238001 0.25804001
0.051973 -0.018243 0.25753999
0.051367 -0.017543999 0.25830999
0.050714001 -0.010212 0.2572
0.061135001 -0.010775 0.25301999
0.062550999 -0.0094199004 0.25187999
0.060736001 -0.010106 0.25233999
0.062554002 -0.0090936003 0.25202
0.062509 -0.0085143996 0.25209999
0.062093001 -0.0082136998 0.25242999
0.051573999 -0.0078421002 0.25797001
0.050935999 -0.0093623996 0.25731
0.061654001 -0.0084346998 0.25161999
0.061322998 -0.0085751005 0.25263
0.062437002 -0.0067234002 0.25266001
0.061611999 -0.0068481001 0.25195
0.060901999 -0.0063767 0.25259
0.052476998 -0.0059731998 0.25733
0.060771 -0.0063049002 0.25248
0.061082002 -0.0052899998 0.25271001
0.060194001 -0.0039980998 0.25290999
0.054368 -0.0037658999 0.25602001
0.059923999 -0.0032081001 0.25299999
0.054887999 -0.0038222999 0.25531
0.060231 -0.0010913 0.25387001
0.058424 -0.0015297 0.25353
0.057923999 -0.0021786001 0.25385001
0.11277 -0.053351998 0.22611
0.11434 -0.053757999 0.22378001
0.11701 -0.052290998 0.22302
0.11744 -0.052069001 0.22318
0.1183 -0.051515002 0.22202
0.11971 -0.050567999 0.22261
0.066899002 -0.050492 0.24890999
0.087342001 -0.050363 0.23863
0.086374 -0.051204 0.23853999
0.067380004 -0.049640998 0.24879999
0.10455 -0.048386 0.22953001
0.091297999 -0.048695002 0.23639999
0.082379997 -0.049068 0.24095
0.081573002 -0.049364001 0.24150001
0.076737002 -0.049091 0.24440999
0.12189 -0.048012 0.22126999
0.067087002 -0.048691999 0.24988
0.076658003 -0.047975998 0.24405
0.066954002 -0.047699001 0.24859001
0.076603003 -0.046507999 0.2449
0.039506 -0.047014002 0.2631
0.041409999 -0.046672001 0.26196
0.12368 -0.047015999 0.22048999
0.12198 -0.047192 0.21944
0.10524 -0.047515001 0.2288
0.10524 -0.046596002 0.22946
0.077644996 -0.045417 0.24323
0.077064 -0.046287 0.24417
0.045235001 -0.047419999 0.26056999
0.048349999 -0.045533001 0.25854
0.048912 -0.046057999 0.25881001
0.077205002 -0.044980999 0.2446
0.046985 -0.045947 0.25885001
0.077278003 -0.046884 0.24338
0.050781 -0.044991001 0.25867999
0.10543 -0.045630999 0.22961
0.066147998 -0.045960002 0.24998
0.065449998 -0.045621999 0.24968
0.034880001 -0.044791002 0.26567999
0.035526998 -0.044886999 0.2656
0.049648002 -0.045146 0.25810999
0.049113002 -0.043931998 0.25808001
0.032426 -0.042304002 0.2665
0.033006001 -0.043191999 0.26664999
0.049531002 -0.043814 0.25806999
0.049860999 -0.043437 0.25806001
0.086902998 -0.042445999 0.23875
0.113 -0.043063998 0.2254
0.081419997 -0.042610999 0.24141
0.067132004 -0.041563001 0.24993999
0.031312998 -0.041345 0.26749
0.11389 -0.042539001 0.22533999
0.065467998 -0.041689001 0.25038999
0.065605998 -0.041505001 0.25013
0.13048001 -0.040697001 0.21551
0.050604999 -0.041342001 0.25795001
0.049497999 -0.040036999 0.25797999
0.063366003 -0.040771 0.25086001
0.068107001 -0.040906999 0.24863
0.066731997 -0.039537001 0.24859001
0.062528998 -0.039483 0.25114
0.11631 -0.039901 0.22431999
0.062050998 -0.039349001 0.25215
0.048969999 -0.039505001 0.25854999
0.049598999 -0.038197 0.25845
0.048207 -0.037092999 0.25895
0.028659999 -0.037567999 0.2692
0.028481999 -0.036589 0.26903
0.027997 -0.036045998 0.26916
0.047442 -0.036911 0.25894001
0.047807999 -0.036082 0.25900999
0.12279 -0.035874002 0.2207
0.046413999 -0.035930999 0.25961
0.046707999 -0.03435 0.25997999
0.028303999 -0.035117999 0.26945001
0.12536 -0.034189001 0.21878
0.067667998 -0.033519 0.24938001
0.067174003 -0.033567 0.24916001
0.045127999 -0.032926001 0.26069999
0.027835 -0.032361999 0.26909
0.027240001 -0.033227999 0.26887
0.14687 -0.032008 0.20855001
0.043481998 -0.031966001 0.26115999
0.12737 -0.032641001 0.21748
0.042647 -0.031173 0.26251
0.028184 -0.031202 0.26905999
0.027384 -0.029893 0.27000001
0.14538001 -0.030946 0.20864999
0.041065 -0.030296 0.26210999
0.14505 -0.030174 0.20902
0.056139 -0.030404 0.25453001
0.056641001 -0.030516 0.25516
0.055824 -0.029488999 0.25472
0.040752001 -0.029595001 0.26273999
0.055842001 -0.030056 0.255
0.027224001 -0.029718 0.26952001
0.028044 -0.029006001 0.26934001
0.13075 -0.030208999 0.21568
0.13119 -0.029254001 0.21437
0.13305999 -0.027941 0.21601
0.054956 -0.028921001 0.25501001
0.14207 -0.028402001 0.21010999
0.1348 -0.027572 0.21469
0.14133 -0.027655 0.21196
0.065610997 -0.027865 0.25018999
0.038956001 -0.027458001 0.26337999
0.028414 -0.027358999 0.26969001
0.065192997 -0.027524 0.24999
0.037595 -0.026776001 0.26460999
0.030959001 -0.027146 0.26736
0.030053999 -0.027488999 0.26826999
0.030724 -0.026466001 0.26844999
0.027632 -0.027131001 0.26888001
0.037454002 -0.026533 0.26455
0.030816 -0.026741 0.26771
0.028936001 -0.026738999 0.26881999
0.031096 -0.025830001 0.26813999
0.05322 -0.025094001 0.25577
0.036013 -0.025016 0.26519999
0.035523999 -0.024987999 0.26534
0.034768999 -0.024788 0.26549
0.031497002 -0.025014 0.26732999
0.030678 -0.025010999 0.26868001
0.035975002 -0.025147 0.26459
0.034299001 -0.024733 0.26558
0.033181999 -0.025456 0.26727
0.032095 -0.025454 0.26785001
0.033073001 -0.024626 0.26664999
0.032357998 -0.024295 0.26732001
0.064992003 -0.021810999 0.25018999
0.064497001 -0.017695 0.25051999
0.063804999 -0.017852001 0.24958999
0.063166 -0.017616 0.25027001
0.050728001 -0.017785 0.25738001
0.051484998 -0.017525 0.25771999
0.049913 -0.015069 0.25694999
0.051600002 -0.0075408998 0.25623
0.052427001 -0.0056789001 0.25674
0.060109001 -0.0025565 0.25356999
0.055725001 -0.0027254999 0.25566
0.056120999 -0.0017778 0.25479999
0.055436999 -0.003327 0.25463
0.057076 -0.0021509 0.25336
0.11163 -0.053769998 0.22442
0.11006 -0.054219998 0.22656
0.10823 -0.052398998 0.2272
0.10907 -0.053428002 0.22703999
0.11677 -0.052411001 0.22325
0.11781 -0.051460002 0.22284999
0.10603 -0.050032999 0.22915
0.10608 -0.051679 0.22875001
0.089336999 -0.050926 0.23762999
0.091500998 -0.050234001 0.23628999
0.076494999 -0.049178999 0.24367
0.066184998 -0.049447 0.24823
0.10488 -0.048648998 0.2296
0.066963002 -0.049043 0.24875
0.062027998 -0.047612999 0.2509
0.066110998 -0.049229 0.24914999
0.078162 -0.047214001 0.24297
0.065920003 -0.047389001 0.24902999
0.046443999 -0.046339002 0.2599
0.044119 -0.046753 0.26043999
0.043071002 -0.046314999 0.26172999
0.042392001 -0.046562999 0.26192001
0.042057 -0.047410998 0.26181999
0.12224 -0.046565998 0.21978
0.12276 -0.046043999 0.21954
0.065259002 -0.046597 0.24936
0.066165 -0.046542998 0.24936999
0.063084997 -0.046436001 0.2499
0.063560002 -0.046845 0.2511
0.062655002 -0.047006998 0.25027999
0.046270002 -0.045848001 0.25951999
0.045285001 -0.046293002 0.25968
0.045001 -0.046314999 0.26007
0.042219002 -0.046592999 0.26135999
0.042525999 -0.046027999 0.26179999
0.041717 -0.046470001 0.26148
0.040463999 -0.046270002 0.26177999
0.089248002 -0.046170998 0.23766001
0.040353 -0.045453001 0.26242
0.039253999 -0.045862999 0.26284999
0.039414 -0.04597 0.26321
0.10557 -0.046275999 0.22902
0.10614 -0.045791999 0.22886001
0.10574 -0.046516001 0.22762001
0.10712 -0.047495 0.22772001
0.10572 -0.046138 0.22846
0.088169999 -0.045593999 0.23751
0.065063998 -0.045485999 0.25020999
0.048248999 -0.045093998 0.25819999
0.036201 -0.044891998 0.26558
0.10669 -0.044565 0.22901
0.087217003 -0.044682998 0.23812
0.077615999 -0.044916999 0.24349
0.078120001 -0.045526002 0.24247
0.107 -0.043740999 0.22872999
0.034458 -0.043788999 0.26537001
0.034862999 -0.044344001 0.26592001
0.12551001 -0.044307001 0.21946999
0.12606999 -0.044029001 0.21807
0.034116 -0.044201002 0.26613
0.048967 -0.043735001 0.25804001
0.10739 -0.044245001 0.22786
0.10907 -0.043680999 0.22658999
0.10813 -0.043937001 0.22872999
0.078543998 -0.044094 0.24379
0.11336 -0.042962 0.22494
0.082080998 -0.04349 0.24070001
0.081515998 -0.043706998 0.24169999
0.11355 -0.043001 0.22375999
0.049059 -0.04293 0.25874999
0.12976 -0.041575 0.21671
0.11476 -0.041997999 0.22411001
0.084192999 -0.042413998 0.24044
0.048544001 -0.042298999 0.25839999
0.049125999 -0.041046999 0.25821999
0.13194001 -0.040833998 0.21565001
0.13025001 -0.040826 0.21617
0.13218001 -0.040860999 0.21540999
0.11545 -0.040584002 0.22362
0.066838004 -0.040596001 0.24925999
0.064490996 -0.040862001 0.25029001
0.065252997 -0.040493999 0.24970999
0.048610002 -0.041301999 0.25826001
0.049463 -0.040426999 0.25850999
0.063853003 -0.039197002 0.2502
0.063208997 -0.039554998 0.25011
0.049187999 -0.040957 0.25804001
0.030451 -0.039547998 0.26796001
0.066730998 -0.039818 0.24918
0.048011001 -0.039964002 0.25786999
0.11688 -0.040451001 0.22284
0.067218997 -0.039501999 0.24859001
0.047463 -0.038139001 0.25940999
0.046966001 -0.039783999 0.25915
0.046858002 -0.039004002 0.25898999
0.061822999 -0.038068 0.25165999
0.11844 -0.039326001 0.22299001
0.048457 -0.038437001 0.25863999
0.029887 -0.038486 0.26776999
0.047284 -0.038003001 0.25906
0.12013 -0.036885001 0.22163001
0.060392 -0.038034 0.25130999
0.047339 -0.037967999 0.25911999
0.12041 -0.037560999 0.22122
0.066345997 -0.037498001 0.24869999
0.066565998 -0.036414001 0.2482
0.060081001 -0.036098 0.25207001
0.047270998 -0.036479998 0.25920001
0.028447 -0.035138998 0.26903999
0.045936 -0.03506 0.25962001
0.028324001 -0.036258001 0.26868999
0.058871999 -0.035107002 0.25271001
0.12409 -0.034279 0.21926001
0.066639997 -0.033865001 0.24906
0.067299999 -0.034979999 0.24922
0.045604002 -0.034492999 0.25957
0.045731999 -0.034311 0.26036999
0.045563001 -0.033698998 0.25975999
0.12524 -0.033735 0.21791001
0.067132004 -0.033891998 0.24879999
0.066991001 -0.032861002 0.24912
0.043907002 -0.035009999 0.26056999
0.044105999 -0.034233999 0.26038
0.027579 -0.033498 0.26875001
0.058442999 -0.034442998 0.252
0.058130998 -0.034154002 0.25257
0.058481 -0.033771001 0.25187999
0.044542 -0.033109002 0.26054999
0.027310001 -0.032334 0.26877999
0.14830001 -0.033103 0.20740999
0.043639999 -0.033353001 0.26142001
0.14602999 -0.032288 0.20799001
0.14635 -0.031729002 0.20847
0.12835 -0.031578999 0.21746001
0.056074001 -0.031415001 0.25384
0.057351001 -0.032088999 0.25356999
0.042610001 -0.031863 0.26177001
0.041600998 -0.031559002 0.26199001
0.042018 -0.030809 0.26198
0.066068999 -0.031151 0.24912
0.027318999 -0.031876002 0.26964
0.14543 -0.031514 0.20852
0.055365998 -0.030495999 0.25367999
0.027406 -0.030613 0.26859
0.027619001 -0.031179 0.26852
0.027983001 -0.030098001 0.26910001
0.14481001 -0.031188 0.20785999
0.06622 -0.030014001 0.24924
0.065566003 -0.029557001 0.24899
0.040904999 -0.030418999 0.26249999
0.039531 -0.030439001 0.26243001
0.13073 -0.029641001 0.21622001
0.055227999 -0.029367 0.25411999
0.040612001 -0.031440999 0.26210001
0.14458001 -0.029739 0.20877001
0.028318999 -0.028868999 0.26909
0.028661 -0.030059 0.26894999
0.039352 -0.028888 0.2631
0.038615 -0.029649001 0.26288
0.14381 -0.028619001 0.20988999
0.14287999 -0.027848 0.20973
0.13286 -0.029206 0.21562
0.13228001 -0.028471 0.21389
0.14249 -0.027993999 0.20999999
0.038919002 -0.028604001 0.26315001
0.038006 -0.028657001 0.26313001
0.029098 -0.027832 0.26875001
0.031484999 -0.0276 0.26682001
0.030634999 -0.027619001 0.26824
0.030168001 -0.028086999 0.26774001
0.029796001 -0.027303999 0.26819
0.029398 -0.028616 0.26778999
0.029858001 -0.028503001 0.26774999
0.037854999 -0.029059 0.26370001
0.037935 -0.027726 0.26381001
0.038261998 -0.026951 0.26455
0.036725 -0.026826 0.26434001
0.032187998 -0.026218001 0.26714
0.031537 -0.02703 0.26642001
0.065095998 -0.025372 0.24935
0.036254 -0.027031001 0.26403001
0.036155 -0.027929001 0.26414001
0.033883002 -0.026224 0.26559001
0.032133002 -0.026635 0.26682001
0.031902999 -0.026727 0.26633
0.034820002 -0.025312001 0.26504001
0.034437001 -0.025250999 0.26502001
0.032848999 -0.025845001 0.26578
0.065137997 -0.024658 0.24969
0.063801996 -0.024429001 0.24976
0.063598998 -0.023107 0.25022
0.051768001 -0.020946 0.25573999
0.052421998 -0.021328 0.25599
0.051851999 -0.020814 0.25702
0.064750001 -0.018510999 0.25009
0.050556 -0.016394001 0.25667
0.051348999 -0.017051 0.25733
0.050365001 -0.016837001 0.25602001
0.050211001 -0.013772 0.25779
0.060851 -0.0075933998 0.25251001
0.060734998 -0.0065298998 0.25211999
0.051538002 -0.0067905998 0.25633001
0.051998001 -0.0063903001 0.25582999
0.052870002 -0.0059286002 0.25545999
0.059053998 -0.0044233999 0.25220999
0.059739999 -0.0038699999 0.25283
0.059657 -0.0022855999 0.25237
0.057500999 -0.0024518 0.25308999
0.058793999 -0.0022896 0.25318
0.11363 -0.053438999 0.22438
0.11341 -0.053692002 0.22415
0.11003 -0.053677998 0.22494
0.11081 -0.053938001 0.22641
0.10703 -0.051727001 0.22751001
0.10705 -0.052591 0.22731
0.091830999 -0.051569998 0.23603
0.091022998 -0.051550001 0.23647
0.089954004 -0.052037999 0.23695999
0.10652 -0.051511001 0.22791
0.091094002 -0.051415998 0.23575
0.11771 -0.050893001 0.22188
0.11815 -0.050911002 0.22272
0.11779 -0.050505999 0.22167
0.10623 -0.050774001 0.22885001
0.091283999 -0.050873999 0.23612
0.088537 -0.050712001 0.23676001
0.066262998 -0.050588999 0.24880999
0.065343 -0.050852001 0.24933
0.065821998 -0.051323999 0.2494
0.11915 -0.050113 0.22157
0.11954 -0.049254 0.22149
0.10477 -0.049984999 0.22898
0.090939999 -0.05077 0.23552001
0.090395004 -0.049848001 0.23621
0.079458997 -0.049546 0.2421
0.079273999 -0.04888 0.24314
0.090187997 -0.049157001 0.23669
0.082032003 -0.04941 0.24094
0.080594003 -0.049486 0.24144
0.078270003 -0.049545001 0.24243
0.077868998 -0.048746999 0.24274001
0.061849002 -0.048165001 0.25092
0.061650001 -0.049272999 0.25154999
0.060681 -0.049681 0.25095999
0.11968 -0.048808999 0.22143
0.066127002 -0.048654001 0.24856
0.12044 -0.047998998 0.22129001
0.12083 -0.047958001 0.22054
0.1197 -0.048369002 0.22071999
0.10512 -0.049079001 0.22807001
0.090204 -0.048106998 0.23669
0.089253999 -0.047796998 0.23722
0.12188 -0.046641 0.22003999
0.089031003 -0.046991002 0.23626
0.065692 -0.047449999 0.24924999
0.043591999 -0.046473 0.26014
0.041359998 -0.046831999 0.26201001
0.078776002 -0.046712998 0.24264
0.06532 -0.046013001 0.24959999
0.063698001 -0.045740001 0.25013
0.064407997 -0.045853 0.24950001
0.045722999 -0.045111999 0.25988999
0.046574 -0.045010999 0.25948
0.042025998 -0.046294 0.26168999
0.038435999 -0.043983001 0.26223001
0.039875001 -0.044564001 0.26166001
0.038495 -0.045162998 0.26212001
0.039439999 -0.045457002 0.26280999
0.1241 -0.045111999 0.21944
0.12369 -0.045866001 0.21951
0.12422 -0.045384001 0.21963
0.046941999 -0.045793999 0.25940001
0.043866001 -0.045164 0.26064
0.038734 -0.045492001 0.26341
0.037689 -0.045286 0.26302999
0.10681 -0.045099001 0.22874001
0.087572999 -0.045850001 0.23791
0.047136001 -0.044142999 0.25849
0.035447001 -0.044661 0.26502001
0.036421001 -0.044523999 0.26460999
0.12498 -0.044487 0.21906
0.10682 -0.045400001 0.22799
0.10616 -0.045237001 0.22759999
0.08625 -0.044916 0.23768
0.087145999 -0.044774 0.23861
0.037639 -0.044705 0.26335001
0.036233999 -0.044675 0.26379001
0.12536 -0.044376001 0.21804
0.078472003 -0.044775002 0.24259999
0.078997001 -0.044055998 0.24262001
0.047940001 -0.044188 0.25828999
0.034800999 -0.043738998 0.26508
0.12418 -0.043845002 0.2189
0.079154998 -0.044224001 0.24214
0.079237998 -0.045573998 0.24181999
0.078755997 -0.045308001 0.24279
0.079622 -0.043853 0.24201
0.079264 -0.044131 0.243
0.12693 -0.043488 0.21808
0.12635 -0.043967001 0.21829
0.11104 -0.044376001 0.22492
0.11298 -0.043586999 0.2255
0.11266 -0.043372001 0.22575
0.10941 -0.043522 0.22649001
0.10896 -0.043081 0.22766
0.10989 -0.043159999 0.22651
0.087148003 -0.042621002 0.23847
0.080081999 -0.043306001 0.24232
0.048530001 -0.042865001 0.25830999
0.033677999 -0.043017 0.26578999
0.11071 -0.043816999 0.2264
0.12747 -0.042064998 0.21743
0.086166002 -0.042645998 0.23852
0.032988001 -0.042986002 0.266
0.085956998 -0.042702999 0.23810001
0.082629003 -0.043205 0.24017
0.082657002 -0.042378001 0.24044999
0.03207 -0.042100001 0.26668999
0.031863 -0.041650999 0.26677001
0.032958999 -0.042670999 0.26657
0.11501 -0.042358 0.22426
0.11492 -0.041253999 0.22387999
0.084810004 -0.041785002 0.23964
0.083155997 -0.042805001 0.24026
0.047928002 -0.042773999 0.25808001
0.1293 -0.041584 0.2168
0.12921 -0.041305002 0.21614
0.084508002 -0.042332999 0.23943
0.047904 -0.041239999 0.25850001
0.031948 -0.039455 0.26620001
0.032138001 -0.040702 0.26570001
0.032017 -0.039863002 0.26615
0.11543 -0.041358002 0.22305
0.031943999 -0.041136 0.26618999
0.1321 -0.040309001 0.21479
0.131 -0.040927 0.21559
0.13045999 -0.040199999 0.21593
0.11641 -0.041340999 0.22277001
0.066086002 -0.041118 0.24932
0.066211998 -0.040548 0.24979
0.048576999 -0.040371999 0.25865
0.046765 -0.040104002 0.25894001
0.047173999 -0.040686999 0.25863999
0.031282 -0.040610999 0.26704001
0.065021999 -0.039067 0.24932
0.064985998 -0.040302999 0.24974
0.048422001 -0.039880998 0.25911
0.1174 -0.040034 0.22281
0.065578997 -0.039301001 0.24873
0.11797 -0.040367998 0.22237
0.11765 -0.039795998 0.22235
0.062481999 -0.039094001 0.25077999
0.030813999 -0.039321002 0.26693001
0.030230001 -0.038121 0.26791999
0.11922 -0.038559999 0.22213
0.066408999 -0.038876999 0.24833
0.0623 -0.038715001 0.25047001
0.11995 -0.038350001 0.22104999
0.046431001 -0.039074998 0.25927001
0.029355001 -0.037505999 0.26705
0.061069001 -0.038146999 0.25139001
0.046372999 -0.037981 0.25883001
0.028989 -0.037705999 0.26837
0.029088 -0.036872 0.26815999
0.02949 -0.036805 0.26765999
0.12034 -0.037039999 0.22175001
0.060100999 -0.037475999 0.25150001
0.12126 -0.036842 0.2203
0.047005001 -0.036784001 0.2595
0.045795999 -0.037051 0.25972
0.059558 -0.035749 0.25123
0.058853999 -0.035188001 0.25226
0.059076998 -0.035753999 0.25244999
0.045834001 -0.035854001 0.25986999
0.1224 -0.036031999 0.21969
0.067276999 -0.035858002 0.24929
0.066791996 -0.035843 0.2491
0.045435 -0.035817999 0.26014
0.1232 -0.035202 0.21967
0.028709 -0.034855001 0.26824
0.12358 -0.034591999 0.21883
0.12530001 -0.034155998 0.21834999
0.12472 -0.034329999 0.21897
0.14866 -0.033123001 0.20591
0.043269001 -0.034467999 0.26065001
0.029259 -0.034825001 0.26817
0.02825 -0.033431999 0.26837999
0.14766 -0.033172 0.20689
0.057052001 -0.032513998 0.25303999
0.14831001 -0.032767002 0.20577
0.1478 -0.033277001 0.20756
0.14779 -0.032428999 0.20724
0.1268 -0.032556999 0.21804
0.043361001 -0.032506 0.26091999
0.042247001 -0.031954002 0.26074001
0.028489999 -0.032444 0.26829001
0.041857 -0.032251999 0.26087001
0.066694997 -0.030577 0.24974
0.12752999 -0.031954002 0.21657
0.12773 -0.031272002 0.21617
0.12809999 -0.031773999 0.21565001
0.14424001 -0.031002 0.2086
0.14361 -0.029155999 0.20879
0.040619001 -0.030354001 0.26271999
0.028906999 -0.029564001 0.26866001
0.028136 -0.030413 0.26791999
0.040215001 -0.029601 0.26251
0.029809 -0.03005 0.26820999
0.029046999 -0.028587 0.26872
0.039119001 -0.029301999 0.26293001
0.030176001 -0.030503999 0.26780999
0.030274 -0.029402001 0.26756999
0.030553 -0.029327 0.26679999
0.031879999 -0.029282 0.26798999
0.054740999 -0.028658001 0.25415
0.054327998 -0.028375 0.25437
0.038185999 -0.030015999 0.26302999
0.037007 -0.029588001 0.26343
0.13054 -0.030213 0.2148
0.054288998 -0.027316 0.25468999
0.14140999 -0.028262001 0.21065
0.065582998 -0.029119 0.24951001
0.036630001 -0.02798 0.26385
0.14011 -0.028276 0.21037
0.13968 -0.02761 0.21123999
0.1372 -0.027651001 0.21213999
0.13843 -0.028146001 0.21196
0.13516 -0.028135 0.21295001
0.13446 -0.028154001 0.21392
0.13350999 -0.028189 0.21427
0.13876 -0.027482999 0.21112999
0.13901 -0.027449001 0.21049
0.064965002 -0.027860001 0.24970999
0.064419001 -0.028030001 0.24852
0.065058999 -0.02665 0.24967
0.054056998 -0.026803 0.25437
0.033647001 -0.027898001 0.26629999
0.032474 -0.027864 0.26571
0.032889999 -0.026417 0.26572999
0.033452999 -0.026586 0.26569
0.053433999 -0.026070001 0.25567999
0.053401999 -0.024595 0.25481999
0.052152999 -0.024462 0.2543
0.052694999 -0.023773 0.25663999
0.053174999 -0.023646001 0.25613999
0.053445 -0.024124 0.25648999
0.064222999 -0.022325 0.24998
0.052388001 -0.023112001 0.25567001
0.052492 -0.022236001 0.25709
0.064107001 -0.021747001 0.24974
0.052832998 -0.021141 0.25646001
0.064597003 -0.02063 0.24996001
0.064166002 -0.020205 0.24948999
0.063964002 -0.020133 0.25042999
0.050128002 -0.014112 0.25740001
0.050728001 -0.012864 0.25757
0.050466001 -0.011449 0.25674
0.050147001 -0.012322 0.25707
0.05006 -0.01043 0.25690001
0.051274002 -0.0094092004 0.25648001
0.051876001 -0.0071777999 0.25637001
0.051509 -0.0068484 0.25551999
0.051396001 -0.0076996 0.25584999
0.059709001 -0.0051349001 0.25227001
0.060247999 -0.0057607 0.25134999
0.052675001 -0.0054469998 0.25611001
0.053792998 -0.0048022 0.25527999
0.054149002 -0.0042670001 0.25472999
0.060226999 -0.0032329999 0.25308001
0.058596 -0.0019158 0.25248
0.057847001 -0.0019301 0.25365999
0.1123 -0.053227998 0.22457001
0.11285 -0.053576 0.22514001
0.11135 -0.052908 0.22453
0.11261 -0.053344 0.22421999
0.10932 -0.053436998 0.22533
0.11439 -0.052692 0.22335
0.11511 -0.052306 0.22289
0.11529 -0.053043 0.22351
0.090089001 -0.051656999 0.23585001
0.089607999 -0.052060999 0.23701
0.089714997 -0.052471001 0.23715
0.064548999 -0.051791999 0.24955
0.088132001 -0.050932001 0.23731001
0.064217001 -0.050838001 0.24903999
0.1186 -0.049247 0.22126
0.11965 -0.049222998 0.22152001
0.065429002 -0.049405001 0.24898
0.064778998 -0.049547002 0.24869999
0.079655997 -0.048505999 0.24196
0.061078999 -0.049028002 0.25071999
0.10571 -0.047602002 0.22829001
0.078538999 -0.048057999 0.24195001
0.089247003 -0.048374999 0.23701
0.088775001 -0.048108999 0.2367
0.12124 -0.046459999 0.22048999
0.12184 -0.046539001 0.21916001
0.064575002 -0.047846999 0.24883001
0.065044999 -0.046266001 0.24916001
0.088538997 -0.046528 0.23714
0.079025999 -0.046569001 0.24254
0.078970999 -0.047389001 0.24128
0.063807003 -0.046294998 0.25007001
0.12265 -0.045138001 0.21935
0.079076998 -0.046208002 0.24251001
0.077996001 -0.046094999 0.24264
0.040736999 -0.045097999 0.26218
0.040126 -0.045186002 0.26253
0.045678999 -0.045364 0.25929001
0.044259001 -0.044939999 0.25935999
0.12379 -0.044682 0.21901999
0.10764 -0.044950999 0.22747999
0.044055 -0.044702001 0.26019001
0.036116 -0.044853002 0.26289001
0.036350001 -0.044574998 0.26396
0.035652999 -0.044438999 0.26440999
0.045933999 -0.043951999 0.2595
0.046641 -0.043230001 0.25854999
0.044521999 -0.044429999 0.25986001
0.038513001 -0.044041999 0.26230001
0.037494 -0.044642001 0.26275
0.10881 -0.044798002 0.22623999
0.1079 -0.045550998 0.22736999
0.10671 -0.045380998 0.22655
0.11249 -0.043969002 0.22427
0.11332 -0.043648999 0.22431999
0.11065 -0.043930002 0.22541
0.11042 -0.043531999 0.22660001
0.081781998 -0.044054002 0.24096
0.081037 -0.043926999 0.24070001
0.046944998 -0.042428002 0.25852001
0.034495998 -0.042808 0.26528999
0.11463 -0.043244999 0.22346
0.034088001 -0.042348001 0.26479
0.034850001 -0.042863999 0.26447001
0.04744 -0.042040002 0.25836
0.12763999 -0.042328 0.2166
0.033156998 -0.041662 0.26552999
0.12706999 -0.042257998 0.21724001
0.12734 -0.041691002 0.21683
0.12811001 -0.04242 0.21706
0.046094 -0.042399 0.25911
0.12720001 -0.041290998 0.21624
0.11508 -0.042082001 0.22367001
0.046395 -0.041574001 0.25933
0.032326002 -0.041317999 0.26543
0.033142999 -0.041914999 0.26508999
0.03153 -0.040364001 0.26642999
0.046459001 -0.040281001 0.25863001
0.045931999 -0.039903998 0.25856
0.11848 -0.040102001 0.22135
0.11878 -0.038616002 0.22188
0.11764 -0.039478 0.22152001
0.064111002 -0.038642 0.24969
0.064429 -0.038366999 0.24923
0.063460998 -0.03799 0.25007001
0.063294001 -0.038389999 0.25003999
0.065623999 -0.038701002 0.24872001
0.030954 -0.038364001 0.26547
0.030580999 -0.038070999 0.26705
0.030305 -0.038502 0.26710001
0.061834 -0.037797 0.25128001
0.030406 -0.038019001 0.26723999
0.030518999 -0.037471 0.26699999
0.030201999 -0.038392 0.26644
0.061517999 -0.038034 0.25053999
0.045233998 -0.037783001 0.25882
0.029918 -0.036873002 0.26686001
0.044902001 -0.035615001 0.25926
0.12079 -0.037216 0.21998
0.1218 -0.036433 0.21954
0.12211 -0.036334001 0.22047
0.044613 -0.035618 0.25974
0.12253 -0.035436001 0.21995001
0.029614 -0.035507999 0.26738
0.028766001 -0.034761999 0.26750001
0.12347 -0.034988999 0.2192
0.065683998 -0.034926999 0.24826001
0.12366 -0.034892 0.21787
0.029108001 -0.034584999 0.26732001
0.058035001 -0.034033 0.25255001
0.14924 -0.033737998 0.20642
0.042614002 -0.033256002 0.26122001
0.028078999 -0.032481998 0.26787999
0.057227001 -0.032348 0.25316
0.041063 -0.033319999 0.26091
0.040816002 -0.031991001 0.26185
0.14489999 -0.032069001 0.20711
0.14486 -0.031840999 0.20728999
0.066477999 -0.031705 0.24857
0.055989999 -0.031753 0.25334999
0.028534999 -0.031532999 0.26776999
0.039910998 -0.030950001 0.26230001
0.031429999 -0.031236 0.26620999
0.031020001 -0.030379999 0.26688001
0.032630999 -0.031374 0.26628
0.031706002 -0.031076999 0.26640001
0.14298999 -0.030521 0.20844001
0.03098 -0.030741001 0.26712
0.029692 -0.030533999 0.26767999
0.12872 -0.03015 0.21517999
0.1296 -0.029778 0.21507999
0.039310001 -0.030592 0.26249
0.032078002 -0.029238001 0.26646999
0.065256998 -0.029904 0.24799
0.031994 -0.030547 0.26615
0.14317 -0.029808 0.20902
0.036844999 -0.028193999 0.26409
0.036104999 -0.030143 0.26335999
0.032935999 -0.028972 0.26561001
0.032630999 -0.029448001 0.26572001
0.036031 -0.027845999 0.26434001
0.035580002 -0.028955 0.26418
0.034914002 -0.028275 0.26460001
0.032283999 -0.028174 0.26625001
0.14162 -0.028541001 0.2097
0.13636 -0.027318999 0.21283001
0.065132998 -0.028867999 0.24817
0.054409999 -0.027760999 0.25393
0.054260001 -0.026815001 0.25448999
0.035250001 -0.02679 0.26480001
0.065052003 -0.027809 0.24913999
0.034653999 -0.027597999 0.26512
0.033814002 -0.027974 0.26479
0.035156 -0.026881 0.26548001
0.053769998 -0.026977001 0.25501999
0.053346001 -0.025444999 0.25529999
0.064147003 -0.025199 0.24912
0.063559003 -0.024018001 0.24894001
0.063161001 -0.023039 0.24935
0.063580997 -0.022188 0.24979
