# .PCD v0.7 - Point Cloud Data file format
VERSION 0.7
FIELDS x y z
SIZE 4 4 4
TYPE F F F
COUNT 1 1 1
WIDTH 1694
HEIGHT 1
VIEWPOINT 0 0 0 1 0 0 0
POINTS 1694
DATA ascii
0.26017001 0.061149001 0.13428
0.25973001 0.062052 0.13418999
0.25839999 0.10333 0.13062
0.25928 0.10643 0.13181999
0.25854999 0.10606 0.1318
0.26021999 0.10665 0.13203
0.27410999 0.14285 0.17599
0.31468999 0.17393 0.17004
0.31513 0.17416 0.16953
0.32357001 0.1682 0.15347999
0.32332 0.17028999 0.15306
0.26153001 0.10268 0.13145
0.26131001 0.10533 0.13217001
0.25751001 0.062637001 0.1365
0.25808999 0.063114002 0.13807
0.25922999 0.065692 0.13906001
0.25920001 0.067840002 0.14056
0.25839999 0.068664998 0.14071999
0.25894001 0.069857001 0.13952
0.32267001 0.17185 0.16508999
0.28996 0.18495999 0.18141
0.28801 0.18561999 0.18389
0.28951001 0.18437 0.18628
0.31830999 0.17264 0.16208
0.25852999 0.092502996 0.13260999
0.25911 0.093282998 0.13191999
0.25839999 0.094995998 0.13045
0.25874999 0.096453004 0.13053
0.25867 0.099556997 0.13094001
0.25707999 0.099633001 0.12970001
0.25764 0.10024 0.13021
0.25817001 0.10227 0.12973
0.25687 0.1041 0.13169
0.25802001 0.10604 0.13177
0.30822 0.094881997 0.14339
0.30842999 0.096058004 0.14345001
0.31051999 0.094700001 0.14458001
0.32809001 0.10157 0.16083001
0.32866001 0.10166 0.16049001
0.32695001 0.10117 0.16133
0.28400999 0.1911 0.19288
0.25775999 0.063571997 0.13707
0.25734001 0.063467003 0.13892999
0.25694001 0.064701997 0.13974001
0.25810999 0.06628 0.14105
0.25843999 0.069748998 0.13905001
0.25793001 0.069173001 0.14019001
0.33160001 0.14667 0.14320999
0.33013001 0.14926 0.14509
0.33061001 0.14785001 0.14605001
0.30899999 0.17427 0.19126999
0.31884 0.19780999 0.23919
0.31738999 0.19806001 0.23833001
0.31873 0.19866 0.24011
0.32062 0.17051999 0.14956
0.32269001 0.16847 0.14848
0.31292999 0.17326 0.17099001
0.25685999 0.090947002 0.13237
0.25652999 0.092326999 0.1331
0.25826001 0.092046 0.13274001
0.25644001 0.094007999 0.13165
0.25909999 0.096112996 0.13131
0.25556001 0.097574003 0.13014001
0.25766 0.098167002 0.13016
0.25727999 0.099211998 0.12987
0.25652999 0.10054 0.13056999
0.25733 0.10275 0.12938
0.25760001 0.10381 0.13158999
0.25691 0.10604 0.13246
0.30893999 0.18311 0.23907
0.29205999 0.15649 0.1789
0.25709999 0.060626 0.13627
0.25630999 0.062426001 0.13713001
0.25760001 0.065852001 0.13789999
0.25694999 0.064507999 0.14065
0.25687 0.066202 0.14091
0.25571001 0.069245003 0.13988
0.32222 0.14456999 0.13101
0.30377001 0.16639 0.14658999
0.25817999 0.086314 0.13395999
0.25845 0.084964 0.13536
0.29488 0.053971 0.1383
0.29462001 0.053424999 0.13809
0.29592001 0.052019998 0.13854
0.25716001 0.084712997 0.1336
0.25630999 0.086851999 0.13299
0.25624999 0.088354997 0.13314
0.25665 0.088687003 0.13143
0.25606999 0.090033002 0.1314
0.25622001 0.092315003 0.13260999
0.25768 0.092086002 0.13248
0.257 0.093313001 0.13027
0.25626999 0.095361002 0.13157
0.25687999 0.098067999 0.12982
0.25516999 0.099219002 0.13031
0.2572 0.099496 0.13112
0.25580999 0.10133 0.13006
0.25624999 0.10264 0.13142
0.28832999 0.14155 0.16013999
0.28786001 0.14088 0.16133
0.28874999 0.14072999 0.16045
0.25536001 0.062018 0.13734999
0.25573 0.063063003 0.14023
0.25744 0.064092003 0.13852
0.25604999 0.065159999 0.13913999
0.25523001 0.067042999 0.13998
0.25472 0.085465997 0.13361999
0.25503001 0.087684996 0.13183001
0.25380999 0.088174999 0.13307001
0.25540999 0.089739002 0.13316
0.25562 0.091269001 0.13296001
0.25560001 0.093482003 0.13096
0.25508001 0.094743997 0.13101999
0.25512001 0.094532996 0.1314
0.25534999 0.096111998 0.13101999
0.25575 0.098583996 0.13178
0.25551 0.10056 0.13051
0.32121 0.18438999 0.20976999
0.32243001 0.18640999 0.20951
0.32233 0.18384001 0.21036001
0.25468999 0.061983999 0.13742
0.25547001 0.062419001 0.13776
0.25409999 0.064188004 0.13868999
0.25433001 0.06476 0.14032
0.32317999 0.18404 0.21074
0.25386 0.087604001 0.13411
0.25440001 0.085440002 0.13441999
0.25319999 0.086361997 0.13392
0.25395 0.089731 0.13281
0.25409001 0.091399997 0.13117
0.25421 0.092414998 0.13138001
0.25421 0.095302001 0.13175
0.25398999 0.096157998 0.13028
0.25389001 0.062295999 0.1393
0.25376999 0.064349003 0.1401
0.33137 0.14883 0.14580999
0.28781 0.16435 0.18583
0.25308999 0.061911002 0.13902999
0.25242001 0.063499004 0.13982999
0.27217999 0.19575 0.19425
0.33342999 0.16457 0.16385999
0.33438 0.16393 0.16333
0.25240999 0.062870003 0.14018001
0.30891001 0.18708999 0.23569
0.31937 0.17464 0.1864
0.31759 0.17467 0.18874
0.31838 0.17478999 0.18919
0.296 0.16795 0.16739
0.29574999 0.16695 0.16941001
0.32381999 0.19081999 0.22516
0.33041999 0.15771 0.14727999
0.29725 0.064361997 0.14842001
0.33127001 0.10772 0.16531
0.33363 0.10887 0.16407
0.33292001 0.10731 0.16641
0.27720001 0.19146 0.2013
0.33098999 0.16892 0.1671
0.33274001 0.16887 0.16976
0.29267001 0.1346 0.15362
0.27167001 0.1737 0.18867999
0.27298 0.17272 0.18805
0.27241001 0.17161 0.19159
0.30891001 0.18340001 0.22434001
0.30963999 0.18167 0.22468001
0.30871001 0.18291999 0.2251
0.28841999 0.14733 0.16192999
0.28821 0.14729001 0.16179
0.28966999 0.14708 0.16111
0.27212 0.17462 0.18599001
0.27175 0.17563 0.18539999
0.27311 0.17748 0.18483999
0.27426001 0.17689 0.18821
0.27561 0.178 0.18683
0.28876001 0.18938001 0.18633001
0.27293 0.18172 0.19366001
0.27269 0.18384001 0.19324
0.27368 0.18252 0.19239999
0.27575001 0.17687 0.18485001
0.27632001 0.17642 0.18468
0.27452999 0.17404 0.18430001
0.27821001 0.18092 0.19018
0.2789 0.18038 0.18827
0.27875 0.17828999 0.18824001
0.27507001 0.17942999 0.19087
0.27524 0.18166 0.19069
0.27709001 0.18054999 0.19001999
0.27552 0.17908999 0.18818
0.18288 0.084054001 0.17761
0.18312 0.086023003 0.17754
0.18306001 0.083856001 0.17822
0.31571999 0.18013 0.19779
0.27915999 0.18364 0.19056
0.27968001 0.18291 0.18826
0.27651 0.18720999 0.18973
0.27765 0.18686999 0.18798
0.27764001 0.18506999 0.18859001
0.27936 0.18626 0.18773
0.27952 0.18739 0.18523
0.30487999 0.16786 0.14882
0.18808 0.070122004 0.16932
0.18792 0.070683002 0.16738001
0.18848 0.070081003 0.16832
0.18658 0.069348 0.16808
0.18663999 0.072237998 0.16734
0.18727 0.072167002 0.16665
0.18713 0.07423 0.16797
0.18581 0.07361 0.16711
0.18624 0.076090999 0.16735999
0.18705 0.076289997 0.16590001
0.18679 0.076995999 0.16688
0.18606 0.076369002 0.16637
0.18640999 0.077285998 0.16731
0.1858 0.078790002 0.16616
0.30949 0.19019 0.23638999
0.31154999 0.18968 0.23856001
0.31222001 0.19121 0.23749
0.27230999 0.18212999 0.19238
0.27272001 0.18097 0.19216
0.28220999 0.052227002 0.14257
0.18625 0.078844003 0.16754
0.18592 0.078446001 0.16641
0.1857 0.079535 0.167
0.18610001 0.080026001 0.16572
0.18592 0.081664003 0.16638
0.18758 0.082079999 0.16631
0.18596999 0.082555003 0.16755
0.18674 0.084344 0.16641
0.31296 0.14663 0.13104001
0.28613001 0.07931 0.14599
0.28830999 0.16517 0.17863999
0.31455001 0.14707001 0.13237
0.31299001 0.14939 0.13237999
0.31668001 0.18017 0.1961
0.29163 0.082916997 0.14944001
0.31314999 0.14811 0.13432001
0.31248 0.14911 0.13242
0.31312999 0.14945 0.13177
0.31332999 0.15098 0.13417999
0.31362 0.1956 0.24413
0.31316999 0.19554 0.2441
0.31507 0.19595 0.24326
0.3066 0.16669001 0.14714
0.32210001 0.12315 0.15380999
0.32306999 0.12402 0.15468
0.32315999 0.12288 0.15458
0.32172999 0.16529 0.14582001
0.32170999 0.16214 0.14322001
0.31189999 0.14811 0.13316999
0.31112999 0.14692999 0.13254
0.31202 0.14913 0.13312
0.31095999 0.15121999 0.134
0.30675 0.16128001 0.14267001
0.30802 0.13282999 0.13367
0.30893999 0.13377 0.13165
0.30957001 0.14546999 0.13060001
0.31151 0.14563 0.13149001
0.3105 0.14764 0.13187
0.31101999 0.14789 0.1336
0.31053999 0.15025 0.1354
0.31055 0.15023001 0.13461
0.31198999 0.1531 0.13350999
0.29293999 0.1627 0.17335001
0.29183 0.16469 0.17409
0.28714001 0.13902999 0.15829
0.28709999 0.13895001 0.15869001
0.28862 0.17641 0.17871
0.30902001 0.13528 0.13229001
0.30785999 0.13547 0.13117
0.30118999 0.064809002 0.17913
0.30098999 0.068107001 0.17784999
0.29995 0.067950003 0.17805
0.30847999 0.13905001 0.13169999
0.30805999 0.13842 0.13179
0.3087 0.13919 0.13169999
0.28769001 0.058006 0.1415
0.28775999 0.057285 0.14044
0.30886999 0.14219999 0.13152
0.30730999 0.14233001 0.13176
0.30879 0.14466 0.13354
0.31031999 0.14454 0.13394
0.30978 0.14652 0.13502
0.30851999 0.1478 0.13424
0.31051999 0.15086 0.13304
0.30937001 0.1517 0.13507
0.31005999 0.15286 0.13658001
0.31009999 0.15311 0.13571
0.31095999 0.15521 0.13545001
0.30783001 0.13178 0.13504
0.30792999 0.13278 0.13345
0.30796 0.13474 0.13447
0.30678001 0.13609999 0.13341001
0.30792999 0.13595 0.13194001
0.30759999 0.13775 0.13165
0.30809999 0.14002 0.13184001
0.30667999 0.14099 0.13307001
0.30734 0.14206 0.13335
0.30902001 0.1435 0.13354
0.30774 0.14599 0.1345
0.30949 0.1461 0.13578001
0.30908 0.1477 0.13548
0.31027001 0.14853001 0.13687
0.30822 0.15165 0.13613001
0.30994001 0.15350001 0.13648
0.30976999 0.15388 0.13601001
0.31158999 0.15482999 0.13673
0.29973999 0.068866 0.17808001
0.29863 0.069751002 0.17719001
0.30002001 0.070152 0.17873999
0.27994001 0.18376 0.18621001
0.28081 0.18487 0.18436
0.27796 0.1811 0.18974
0.27849001 0.18365 0.19099
0.28560999 0.058084998 0.14256001
0.27555001 0.17793 0.18714
0.27776 0.17991 0.18997
0.27698001 0.17783999 0.1873
0.30770001 0.12689 0.14621
0.30851999 0.12683 0.14636
0.27790001 0.18068001 0.19115999
0.30555999 0.056786999 0.14545999
0.30541 0.054451 0.14421
0.30515999 0.055399999 0.14371
0.31 0.13056 0.13552
0.30823001 0.13061 0.13519
0.30974999 0.13054 0.13559
0.30702999 0.13309 0.134
0.30561 0.13404 0.13242
0.30724999 0.1353 0.13345
0.30619001 0.13643 0.13383999
0.30671 0.13875 0.13266
0.30689999 0.14023 0.13358
0.30601001 0.14148 0.13368
0.30649 0.14218999 0.13308001
0.30820999 0.14352 0.13278
0.30644 0.14522 0.13449
0.30803999 0.14658 0.13623001
0.30875 0.14967 0.13533001
0.30860999 0.14875001 0.13575
0.30956 0.15071 0.13481
0.3096 0.1533 0.13600001
0.30908 0.15315001 0.13643999
0.30906999 0.15556 0.13716
0.30803999 0.15707999 0.138
0.27555999 0.18183 0.19158
0.27575001 0.18389 0.19236
0.27741 0.18322 0.19209
0.27752 0.18043 0.18942
0.30551001 0.12774 0.14631
0.27706999 0.18502 0.18909
0.27891999 0.18357 0.19031
0.27818999 0.18005 0.18862
0.30755001 0.13091999 0.13567001
0.30963999 0.12914 0.13676
0.31042999 0.13026001 0.13589001
0.31020999 0.12824 0.13749
0.30711001 0.13248999 0.13563
0.30564001 0.13495 0.1346
0.30677 0.13612001 0.13241
0.30577001 0.13696 0.13397001
0.30511999 0.13913999 0.13393
0.30581999 0.13956 0.13428
0.30548999 0.14144 0.13564999
0.30702001 0.14286 0.13494
0.30682999 0.14463 0.1344
0.30717 0.14541 0.13533001
0.30794001 0.14614999 0.13677
0.30778 0.14748 0.1371
0.30816999 0.14896999 0.13556001
0.30871999 0.1503 0.13698
0.30899 0.15328 0.13857
0.30908 0.15343 0.13862
0.30914 0.15598001 0.13731
0.30983999 0.15710001 0.13850001
0.30985999 0.15796 0.13951001
0.32980001 0.13366 0.13752
0.27708 0.18581 0.19228999
0.27663001 0.18545 0.19117001
0.29265001 0.15414 0.17308
0.29321 0.057728998 0.13897
0.2922 0.15288 0.16074
0.29332 0.15344 0.15879001
0.29504001 0.15378 0.16051
0.27395999 0.17671999 0.18581
0.29322001 0.16124 0.17227
0.18568 0.070338003 0.17009
0.18645 0.070058003 0.16912
0.18612 0.072977997 0.16824
0.30805999 0.13156 0.13679001
0.30814001 0.12896 0.13738
0.30715001 0.13259999 0.13553999
0.30575001 0.13398001 0.13420001
0.30421001 0.13642 0.13582
0.30660999 0.13683 0.13423
0.30498999 0.13813999 0.13463999
0.30511001 0.13834 0.13359
0.30462 0.14052001 0.13507
0.30465001 0.1434 0.13350999
0.30693001 0.14399 0.13493
0.30566999 0.14494 0.13596
0.30757999 0.14619 0.13648
0.30691999 0.14836 0.13684
0.30796999 0.14850999 0.13766
0.30897 0.15222 0.13744999
0.30779001 0.15364 0.13835999
0.30892 0.15312 0.13729
0.30796 0.15532 0.13805
0.30924001 0.1569 0.13991
0.30902001 0.15911999 0.13957
0.30906999 0.15869001 0.14001
0.30871999 0.16089 0.13897
0.31042001 0.16057999 0.13957
0.18584 0.074040003 0.16798
0.18516999 0.075686 0.16701999
0.30577001 0.13101999 0.13914999
0.30730999 0.12955 0.13733999
0.30504999 0.13299 0.13665
0.30436 0.13413 0.1364
0.30364999 0.13486999 0.13623001
0.30579001 0.13643999 0.13496
0.30447999 0.13827001 0.13446
0.30344999 0.13899 0.1358
0.30498999 0.1411 0.13601001
0.30605999 0.14257 0.13728
0.3053 0.14387999 0.13732
0.30581 0.14456999 0.13805
0.30656999 0.14634 0.13658001
0.30609 0.14906999 0.13795
0.30541 0.14850999 0.13919
0.308 0.15133999 0.13909
0.30689001 0.15274 0.13955
0.30768001 0.15318 0.13931
0.30836001 0.1539 0.13892999
0.30816001 0.15678 0.13975
0.30691001 0.15876999 0.14050999
0.30761001 0.15983 0.13889
0.30851001 0.1609 0.14057
0.32348001 0.1813 0.20942999
0.32368001 0.18152 0.20894
0.32279 0.18052 0.20711
0.27658999 0.18903001 0.19133
0.27669001 0.18717 0.19064
0.18532 0.076917 0.16716
0.18611 0.078590997 0.16648
0.18514 0.077737004 0.16818
0.18491 0.080245003 0.16674
0.30559 0.1321 0.1384
0.30706999 0.12931 0.13891999
0.30608001 0.13312 0.13753
0.30544001 0.13343 0.13742
0.30478001 0.13452999 0.13723999
0.30425999 0.1373 0.13597
0.30307999 0.13775 0.13692001
0.30539 0.13989 0.13632999
0.30508 0.14049 0.13612001
0.30419999 0.14182 0.13689999
0.30325001 0.14449 0.13744
0.30469999 0.14492001 0.13798
0.30504999 0.14693999 0.13809
0.30678001 0.14727999 0.13934
0.30770999 0.14896999 0.13937999
0.30722001 0.15065999 0.14094999
0.30682001 0.15294001 0.13895001
0.30759999 0.15375 0.14015999
0.30656999 0.15550999 0.14133
0.30693001 0.15725 0.14076
0.30888 0.15795 0.13995001
0.30739999 0.15954 0.14078
0.30993 0.16098 0.14128999
0.30607 0.16152 0.14269
0.18571 0.081735998 0.16899
0.18569 0.083206996 0.16802
0.29427999 0.060501002 0.14127
0.33285999 0.13923 0.14774001
0.3346 0.14189 0.14611
0.3337 0.14105999 0.14648999
0.29344001 0.15808 0.16976
0.29321 0.1622 0.17078
0.29299 0.1594 0.16993
0.30734 0.13191 0.13987
0.3064 0.12927 0.13902
0.30695999 0.12874 0.14057
0.30372 0.13128 0.1393
0.30385 0.13438 0.13968
0.30598 0.13557 0.13710999
0.30230001 0.13544001 0.13733
0.30427 0.13876 0.13714001
0.30452999 0.13916001 0.1382
0.30393001 0.14042 0.13689999
0.3046 0.1425 0.1393
0.30399999 0.14326 0.13784
0.30355 0.1459 0.13902
0.30551001 0.14584 0.13897
0.30610001 0.14898001 0.13950001
0.30660999 0.14815 0.1406
0.30535999 0.15045001 0.14077
0.30754 0.1522 0.14082
0.30576 0.15265 0.14045
0.30643001 0.1557 0.14154001
0.30715001 0.15733001 0.14266001
0.30579999 0.15818 0.14284
0.30724001 0.15958001 0.14184999
0.30688 0.16553 0.14484
0.29328999 0.13127001 0.15197
0.27693999 0.17304 0.18446
0.27452999 0.17477 0.18542001
0.27612001 0.17411999 0.18354
0.30568999 0.13118 0.14119001
0.30656999 0.12823001 0.14077
0.30836999 0.12803 0.14213
0.3035 0.13371 0.14015999
0.30454999 0.13439 0.13942
0.30361 0.13501 0.13898
0.30283001 0.13705 0.13732
0.30292001 0.1375 0.13851
0.30302 0.14 0.13905001
0.30326 0.14195 0.13901
0.30405 0.14300001 0.1392
0.30344 0.14441 0.13824999
0.30476999 0.14569999 0.14008
0.30447999 0.14798 0.14132001
0.30487999 0.14793999 0.14081
0.30511999 0.15011001 0.1409
0.30687001 0.15079001 0.14229999
0.30518001 0.15192001 0.14202
0.30577999 0.155 0.14215
0.30684 0.15557 0.1415
0.30562001 0.1568 0.14255001
0.30676001 0.15793 0.14302
0.30651 0.15864 0.14283
0.30526999 0.16088 0.14306
0.30794999 0.16368 0.14442
0.28938001 0.16487999 0.177
0.29146999 0.16368 0.17532
0.31126001 0.19188 0.24106
0.30645001 0.12998 0.14320999
0.30746999 0.12935001 0.14363
0.30577001 0.13080999 0.14471
0.30884001 0.12886 0.14295
0.30554 0.13088 0.14253999
0.30575001 0.13248999 0.14159
0.3044 0.13282 0.13978
0.30234 0.13569 0.14045
0.30403 0.13597 0.13992
0.30293 0.13826001 0.13961001
0.30340999 0.13868 0.1398
0.30282 0.14041001 0.13999
0.30436 0.14292 0.13906001
0.30344 0.14336 0.14
0.30443999 0.14495 0.14098001
0.30408001 0.14639001 0.1418
0.30487001 0.14767 0.14291
0.30627999 0.15064999 0.14269
0.30504 0.14972 0.14308999
0.30586001 0.15265 0.14300001
0.30634999 0.15402 0.14264999
0.30555001 0.15485001 0.1432
0.3048 0.15627 0.14349
0.30667999 0.15784 0.14359
0.30588001 0.16 0.14351
0.30638 0.17315 0.20056
0.28617001 0.16665 0.18108
0.28668001 0.16617 0.1814
0.28551 0.16709 0.1811
0.30653 0.12838 0.1459
0.30680999 0.12972 0.14534
0.30497 0.13022999 0.14328
0.30366001 0.13327999 0.14216
0.30300999 0.13425 0.14167
0.30296001 0.1345 0.14087
0.30235001 0.13726 0.14081
0.30182001 0.13793001 0.14075001
0.30166 0.14131001 0.14198001
0.30329001 0.14149 0.13891
0.30265 0.14263 0.14065
0.30228999 0.14338 0.14126
0.30287999 0.14531 0.14083
0.3039 0.14651 0.1437
0.30379 0.14673001 0.14295
0.30397001 0.14884 0.14332999
0.30489001 0.15009999 0.14421999
0.30473 0.15217 0.14436001
0.30537999 0.15311 0.14489999
0.30544001 0.15458 0.14343999
0.30408999 0.15624 0.14487
0.30568999 0.15868001 0.1441
0.30566001 0.1595 0.14432
0.30605999 0.16022 0.145
0.30447 0.16123 0.14481001
0.32659999 0.096491002 0.16121
0.32635 0.094338998 0.16133
0.32609999 0.095112003 0.16066
0.27414 0.18358 0.19314
0.27563 0.18456 0.19234
0.27548999 0.18091001 0.19254
0.27627999 0.18256 0.19276001
0.2753 0.18027 0.19142
0.28832 0.15053999 0.17367999
0.29025 0.15001 0.17585
0.33254999 0.13993999 0.14264999
0.18422 0.085363001 0.17066
0.18348999 0.082546003 0.17296
0.30612999 0.12943 0.14511999
0.30353001 0.13032 0.14501999
0.30465999 0.13276 0.14256001
0.30298001 0.13337 0.14385
0.30166 0.13483 0.14137
0.30272001 0.13781001 0.14264999
0.30201 0.13818 0.14273
0.30043 0.14011 0.14206
0.3017 0.14258 0.14114
0.30225 0.1411 0.14338
0.30368999 0.14258 0.14286
0.30311 0.14517 0.14247
0.30338001 0.1472 0.14255001
0.30443001 0.14817999 0.14384
0.30338001 0.14910001 0.14403
0.30559 0.15103 0.14544
0.30434999 0.15268999 0.14576
0.30568001 0.15333 0.14451
0.30509001 0.15383001 0.14453
0.30515 0.15633 0.14618
0.30414999 0.15887 0.14662001
0.30601001 0.16097 0.14582001
0.30519 0.15994 0.14372
0.30471 0.16191 0.14489
0.30410001 0.164 0.14648999
0.30353999 0.16482 0.14588
0.27616 0.18678001 0.19142
0.27483001 0.19047 0.19081999
0.27700999 0.18861 0.19058999
0.27204001 0.17658 0.18897
0.27303001 0.17997 0.19
0.27326 0.17775001 0.19012
0.27419999 0.18079001 0.19134
0.27445999 0.1787 0.18934
0.29986 0.16867 0.14951
0.30127001 0.16831 0.15041
0.27401999 0.18516999 0.19518
0.27327999 0.18577 0.19507
0.27436 0.18611 0.19328
0.29091999 0.15402 0.17827
0.29258001 0.15601 0.17913
0.29288 0.15819 0.16960999
0.29203999 0.15798999 0.16929001
0.30339 0.12648 0.14734
0.30445999 0.12782 0.14614999
0.30458999 0.12986 0.14608
0.30401999 0.13101 0.14545999
0.30182999 0.13221 0.14523
0.30359 0.13319001 0.14413001
0.30160001 0.13484 0.14385
0.30151001 0.13564 0.14343999
0.30089 0.13873 0.14235
0.3012 0.13923 0.14230999
0.30041 0.14161 0.14162999
0.30208999 0.14233001 0.14237
0.30230001 0.14477 0.14337
0.30272001 0.14519 0.14362
0.30237001 0.14616001 0.14496
0.30311999 0.14805999 0.14309999
0.30129999 0.15015 0.14455
0.30348 0.15020999 0.14651
0.30500001 0.15254 0.14719
0.30619001 0.15384001 0.14646
0.30517 0.15474001 0.14692999
0.30366999 0.15592 0.14661001
0.30421001 0.15649 0.14662001
0.30454001 0.15938 0.14621
0.30429 0.16136 0.14638001
0.30436 0.16244 0.14557999
0.27309 0.19546001 0.19269
0.27085 0.19664 0.19496
0.28619999 0.13996001 0.15934999
0.27677 0.18407001 0.19408
0.27585 0.18505 0.19215
0.27368 0.18923999 0.19653
0.31902999 0.16551 0.14292
0.27094001 0.18719 0.2062
0.27349001 0.18753999 0.20632
0.27028999 0.1873 0.20695999
0.30404001 0.12842 0.14872999
0.30303001 0.12981001 0.14636
0.30475 0.13166 0.14675
0.30228001 0.13252001 0.14567
0.30217001 0.13378 0.14436001
0.30055001 0.13523 0.14391001
0.30059999 0.13688 0.14413001
0.30023 0.13634001 0.14236
0.29922 0.14054 0.14323001
0.30087 0.14019001 0.14448
0.30044001 0.14224 0.14218
0.30048001 0.14399 0.14257
0.30247 0.14556 0.14308999
0.30287999 0.14634 0.14348
0.30158001 0.14712 0.14447001
0.30171999 0.14872 0.14474
0.30259001 0.15084 0.14647999
0.30401999 0.15096 0.14718001
0.30447999 0.15447 0.14803
0.30250999 0.15559 0.14857
0.30441001 0.15470999 0.14706001
0.30274001 0.15827 0.1459
0.30463001 0.15917 0.14669
0.30329001 0.16159 0.14764
0.30326 0.16319001 0.14733
0.30340001 0.16542999 0.14521
0.30147001 0.16503 0.14651
0.30256 0.16407999 0.14782999
0.27252001 0.19217999 0.19489001
0.27193001 0.19204 0.19479001
0.29606 0.055721998 0.13832
0.2958 0.053298 0.13710999
0.29385999 0.055886 0.13744999
0.29743001 0.053486001 0.13794
0.29607001 0.056102999 0.13781001
0.29052001 0.15178999 0.17285
0.28946999 0.14968 0.17089
0.30160999 0.13248999 0.14711
0.30373999 0.13052 0.14741001
0.30149999 0.13413 0.14607
0.29966 0.13619 0.14404
0.29947999 0.13812999 0.1435
0.29911 0.13789999 0.14302
0.29914001 0.13971999 0.14439
0.29839 0.14128999 0.14363
0.30008 0.14174999 0.14346001
0.30125999 0.14312001 0.14455999
0.30059999 0.14552 0.14324
0.29998001 0.14723 0.14533
0.30197999 0.14797001 0.14696001
0.30111 0.15042999 0.14636
0.30153 0.15133999 0.1464
0.30276999 0.15173 0.14820001
0.30430999 0.15526 0.14738999
0.30303001 0.15384001 0.14839999
0.30283001 0.15606 0.14833
0.30421001 0.15727 0.14697
0.30366001 0.15888 0.14875001
0.30309999 0.16083001 0.14759
0.30221999 0.1618 0.14752001
0.27993 0.18540999 0.18540999
0.31795001 0.16604 0.14366999
0.29521999 0.052995998 0.13819
0.29425001 0.18159001 0.18209
0.29262 0.17812 0.17884
0.29330999 0.053217001 0.13812999
0.29216999 0.056290999 0.13831
0.18765 0.081247002 0.16566999
0.18811999 0.082280003 0.16422001
0.18743999 0.080271997 0.16448
0.29356 0.15955999 0.17109001
0.29367 0.16017 0.168
0.28323999 0.057553001 0.14297999
0.32563001 0.093175001 0.16507
0.32442001 0.092905998 0.1648
0.32629001 0.093603998 0.16477001
0.30247 0.12988999 0.14861999
0.30004001 0.13333 0.14580999
0.29899001 0.13455001 0.14438
0.29999 0.13537 0.14495
0.29940999 0.13882001 0.14390001
0.29710999 0.13919 0.14357001
0.29914001 0.14101 0.14329
0.29914999 0.14307 0.14410999
0.29978001 0.14309999 0.14624
0.29998001 0.14456999 0.14556
0.30070999 0.14605001 0.14532
0.29971001 0.14822 0.14665
0.30088001 0.14836 0.14672001
0.30063 0.15207 0.14634
0.3012 0.15219 0.14893
0.30340001 0.15335 0.149
0.30287999 0.1576 0.14978001
0.30300999 0.15513 0.14831001
0.30235001 0.1574 0.14781
0.30235001 0.15848 0.14785001
0.30054 0.16041 0.14755
0.30105001 0.16029 0.14725
0.30191001 0.16309001 0.14763001
0.29223999 0.057760999 0.13838001
0.33105001 0.15301 0.14584
0.32988 0.15374 0.14497
0.33063 0.15487 0.14655
0.29164001 0.054947 0.13725001
0.29251 0.055417001 0.13799
0.25738999 0.061709002 0.13597
0.29666999 0.16847 0.15879001
0.18742 0.067059003 0.16975001
0.18574999 0.071327999 0.17072
0.25867 0.062219001 0.13722
0.26377001 0.058722001 0.13282999
0.29903001 0.13420001 0.14715999
0.29890999 0.13496999 0.14573
0.29914001 0.13759001 0.14488
0.29866001 0.13737001 0.14455
0.29866001 0.13878 0.14466999
0.29776999 0.14172 0.14341
0.29764 0.14148 0.1454
0.29773 0.14394 0.14444
0.29776999 0.14544 0.14534
0.29918 0.14591999 0.1464
0.29804999 0.14727999 0.14559001
0.30037001 0.14934 0.14783999
0.29986 0.15023001 0.14802
0.30034 0.15233999 0.14767
0.30144 0.15367 0.14918
0.30254999 0.15366 0.14947
0.30134001 0.15617 0.15018
0.30041 0.15829 0.14937
0.30046999 0.15976 0.1485
0.30034 0.16145 0.14861999
0.30182999 0.16057999 0.14843
0.30083001 0.16278 0.14775001
0.3017 0.16508 0.14822
0.30052999 0.16878 0.1476
0.29407999 0.081563003 0.1506
0.29269001 0.054131001 0.13978
0.29172999 0.054001998 0.1382
0.29051 0.058122002 0.13918
0.28522 0.078103997 0.14526001
0.28656 0.16571 0.18119
0.18532 0.071757004 0.16917001
0.18588001 0.074093997 0.16943
0.32099 0.14681 0.13115001
0.30096999 0.077537 0.16047999
0.30094999 0.077437997 0.16328999
0.29826999 0.076314002 0.16224
0.33436999 0.15919 0.16361
0.33247 0.15970001 0.16222
0.33465001 0.15902001 0.16366
0.29865 0.13158 0.14754
0.29846999 0.13316 0.14677
0.2992 0.13672 0.14539
0.2974 0.13685 0.14568
0.29532999 0.13786 0.14571001
0.29742 0.13764 0.14579999
0.2969 0.14083999 0.14372
0.29646999 0.14219999 0.14545999
0.29764 0.14486 0.14507
0.29786 0.14493001 0.1453
0.29813999 0.14696001 0.1478
0.29916 0.1478 0.14737
0.29828 0.14879 0.14849
0.30017 0.15087999 0.14663
0.29934999 0.15239 0.14947
0.30188999 0.15301999 0.15039
0.30180001 0.15512 0.15005
0.30146 0.15547 0.15048
0.30015999 0.15730999 0.15108
0.30087 0.15974 0.14955001
0.30054 0.15993001 0.14964999
0.30039999 0.16276 0.14940999
0.30059999 0.16412 0.14803
0.29890001 0.16609 0.14869
0.30105001 0.16656999 0.14894
0.28422999 0.074717999 0.14628001
0.29146001 0.055433001 0.13911
0.29069999 0.054209001 0.13827001
0.29089999 0.057500001 0.14071
0.29069 0.059207 0.14049999
0.31031999 0.18066999 0.23949
0.18477 0.073344998 0.16875
0.27511999 0.17468999 0.18402
0.3141 0.12299 0.14641
0.28150001 0.16721 0.18472999
0.26844999 0.054258998 0.13383
0.29427001 0.1679 0.16211
0.29710001 0.13246 0.14868
0.29714999 0.13361 0.14753
0.29635 0.13513 0.14647
0.29890999 0.13703001 0.14658999
0.29596999 0.13907 0.14621
0.29808 0.13852 0.14636999
0.29675999 0.14142001 0.14661001
0.29699999 0.14267001 0.14586
0.29844999 0.14371 0.14489
0.29708999 0.14492001 0.14566
0.29800999 0.14480001 0.14788
0.29585001 0.14828999 0.14826
0.29822001 0.14901 0.14805
0.29890001 0.15072 0.14847
0.29923999 0.15223999 0.14943001
0.30092001 0.15469 0.15026
0.29969999 0.15581 0.15174
0.29901001 0.15639 0.15112001
0.30044001 0.15847 0.15096
0.30037001 0.15938 0.15112001
0.30105001 0.16156 0.15073
0.29942 0.16212 0.15028
0.30081001 0.16382 0.1523
0.29949 0.16664 0.15039
0.29864001 0.16741 0.14983
0.30054 0.16778 0.15133999
0.29940999 0.16850001 0.15251
0.29344001 0.088687003 0.14373
0.29203001 0.088892996 0.14403
0.29306 0.089904003 0.14356001
0.28791001 0.052159 0.13950001
0.28891 0.054896999 0.13835
0.31492001 0.050919998 0.17797001
0.31619999 0.051130999 0.17612
0.28955999 0.056108002 0.14038
0.29115 0.057261001 0.13873
0.29056001 0.058164999 0.1401
0.28259 0.16769999 0.18824001
0.27590999 0.17135 0.18725
0.27539 0.17120001 0.1881
0.27401999 0.17524 0.18511
0.18516999 0.076282002 0.16908
0.18613 0.077583998 0.17043
0.31292 0.1874 0.22184999
0.3116 0.17982 0.24206001
0.33019 0.15029 0.14478
0.33070001 0.14993 0.14372
0.32525 0.1037 0.15575001
0.32550001 0.10101 0.1565
0.32429001 0.10013 0.15655001
0.29668 0.13399 0.14861999
0.29639 0.13416 0.14856
0.29660001 0.13542999 0.14624999
0.29563999 0.13718 0.14826
0.29629001 0.139 0.14658
0.29635999 0.14114 0.1471
0.29519999 0.14319 0.14692999
0.29628 0.14429 0.14753
0.29692 0.14568 0.14813
0.29721001 0.14552 0.14772999
0.29635 0.14785001 0.14881
0.29758 0.14864001 0.14767
0.29824999 0.15015 0.14932001
0.2985 0.15204 0.1504
0.29964 0.15467 0.15091
0.30023 0.15502 0.15114
0.30044001 0.15599 0.15114
0.30059001 0.15724 0.15184
0.29966 0.15795 0.15154999
0.30050001 0.16061001 0.15064
0.30006999 0.16253 0.15308
0.29923001 0.16462 0.15109
0.29995999 0.16498999 0.15117
0.29828 0.16752 0.15136001
0.30017999 0.16834 0.15262
0.29819 0.16703001 0.15432
0.33087 0.11009 0.16215
0.33192 0.11089 0.16237
0.33158001 0.1109 0.16376001
0.28893 0.051346 0.14102
0.2868 0.053881999 0.13928001
0.29032001 0.051601999 0.14129999
0.28927001 0.055240002 0.13947999
0.28827 0.056836002 0.14091
0.28884 0.056662001 0.14027999
0.18543001 0.078878999 0.16814999
0.18497001 0.079759002 0.16886
0.33131 0.10928 0.16204999
0.30212 0.1681 0.14948
0.18173 0.082024001 0.18173
0.29609999 0.13397001 0.15093
0.29629999 0.13175 0.14974999
0.29613 0.13429999 0.14869
0.29637 0.13591 0.14856
0.29486001 0.13943 0.14691
0.29438999 0.14071 0.14699
0.29306999 0.14348 0.1487
0.29429999 0.14232001 0.14684001
0.29541001 0.14357001 0.14662001
0.29466999 0.14545 0.14817999
0.29565001 0.14699 0.14771999
0.29833001 0.14825 0.14906999
0.29697999 0.14911 0.14932001
0.29778001 0.15053999 0.15029
0.29802001 0.15144999 0.15058
0.29813999 0.15272 0.15197
0.29866001 0.15443 0.15409
0.29890001 0.15613 0.15312
0.29835999 0.15764999 0.15200999
0.29912999 0.15904 0.1523
0.29953 0.16101 0.15341
0.29922 0.16225 0.15307
0.29890999 0.16362999 0.15380999
0.29839 0.16311 0.15286
0.29879001 0.16625001 0.15091
0.28963 0.051378999 0.14163999
0.28736001 0.051701002 0.14089
0.28749001 0.055585001 0.14001
0.28852999 0.056343999 0.14079
0.18457 0.080975004 0.16942
0.33521 0.14968 0.16553999
0.33272001 0.14969 0.16666
0.33576 0.14954001 0.16718
0.29622 0.13293999 0.14943001
0.29635 0.13418999 0.14895999
0.29407001 0.13681 0.14793
0.29493999 0.1392 0.14933001
0.29486001 0.13979 0.14865001
0.29558 0.14084999 0.1495
0.29469001 0.14123 0.15019
0.29425001 0.14357001 0.14776
0.29572999 0.14793999 0.14827
0.29517999 0.1461 0.14959
0.29570001 0.14692999 0.14985999
0.29587001 0.14878 0.14978001
0.29635999 0.15132999 0.15039
0.29609999 0.15268999 0.15162
0.29778001 0.15401 0.15214001
0.29706001 0.15407 0.15298
0.29809001 0.15746 0.15182
0.29821 0.15793 0.15343
0.29736 0.15936001 0.15355
0.29909 0.16156 0.15349001
0.29861 0.16128001 0.1534
0.29734001 0.16441999 0.15215001
0.29807001 0.16430999 0.15428001
0.29912999 0.16648 0.15299
0.29565001 0.16684 0.16348
0.29440999 0.16566999 0.16337
0.29491001 0.16777 0.16576
0.28573 0.052898999 0.14052001
0.28613001 0.055091999 0.14056
0.28648001 0.055627 0.14114
0.18589 0.083117999 0.16839001
0.27123001 0.18790001 0.19897
0.27088001 0.19041 0.19828001
0.27131999 0.19114999 0.19876
0.27044001 0.18683 0.19888
0.29545999 0.13354 0.15157001
0.29447001 0.13425 0.1498
0.29473999 0.13646001 0.14877
0.29405999 0.13785 0.15034001
0.29267001 0.13979 0.14805999
0.29391 0.14169 0.14906
0.29403001 0.14302 0.15109
0.29442 0.14343999 0.15012001
0.29497001 0.14461 0.15015
0.29442 0.14497 0.14910001
0.29394999 0.14809 0.15053999
0.29486999 0.14961 0.15177999
0.29556999 0.15012001 0.15104
0.29616001 0.15119 0.15238
0.29569 0.15327001 0.15297
0.29782999 0.15597001 0.15325999
0.29824001 0.15535 0.15397
0.29764 0.15808 0.15341
0.2983 0.15838 0.15397
0.2985 0.16109 0.15419
0.29771 0.16113 0.15249
0.29705 0.16335 0.15447
0.29861 0.16415 0.15407
0.27581 0.19608 0.19296999
0.28389001 0.054737002 0.14004
0.28531 0.054680999 0.14185999
0.28523001 0.055791002 0.1409
0.18413 0.084141999 0.16899
0.18611 0.084568001 0.16937999
0.18283001 0.077895999 0.17877001
0.18313999 0.079585999 0.18088
0.27182001 0.19126999 0.19919001
0.27015001 0.19256 0.19736999
0.27043 0.1939 0.19655
0.27226999 0.19018 0.19608
0.29407001 0.13334 0.15098999
0.29374 0.13621999 0.15095
0.29335999 0.13688999 0.14983
0.29383999 0.13785 0.14972
0.29394001 0.13951001 0.14971
0.29299 0.14086001 0.15101001
0.2947 0.14117999 0.14954001
0.29365 0.14357001 0.14963999
0.29297999 0.14532 0.14974999
0.29363 0.14588 0.14961
0.29491001 0.14737 0.15052
0.29405001 0.14951999 0.15105
0.29464 0.15105 0.15200999
0.2951 0.15198 0.15479
0.29525 0.15378 0.15383001
0.29756999 0.15456 0.1539
0.29635999 0.15756001 0.15422
0.29567999 0.15714 0.15561
0.29686001 0.1587 0.15519001
0.29657999 0.1613 0.15456
0.29552001 0.16156 0.15567
0.29660001 0.16319001 0.1551
0.29791999 0.16541 0.15404999
0.29758999 0.16735999 0.15638
0.29855001 0.16734999 0.15581
0.27688 0.1723 0.18559
0.27809 0.17106 0.18576001
0.28586999 0.051945001 0.14084999
0.28514999 0.057310998 0.14162
0.28424999 0.056940999 0.14269
0.28957999 0.15256 0.17017999
0.31022999 0.18260001 0.21739
0.31051999 0.18229 0.2156
0.30888 0.18269999 0.21763
0.27693 0.18655001 0.18967
0.27623999 0.18578 0.19024999
0.27002001 0.19386999 0.19776
0.27088001 0.19334 0.1962
0.29023001 0.15234999 0.164
0.29014 0.15109 0.16229001
0.29161999 0.1534 0.16494
0.29264 0.13338 0.1517
0.29205999 0.13195001 0.15154999
0.294 0.13531999 0.15148
0.29236999 0.13722999 0.15138
0.29311001 0.13822 0.15008
0.29256999 0.14029001 0.15094
0.29269999 0.14058 0.15022001
0.29179001 0.14328 0.15033001
0.29381999 0.14328 0.15098
0.29322001 0.14545 0.15078001
0.29306 0.14717001 0.15281001
0.29255 0.14778 0.15343
0.29462001 0.14858 0.15248001
0.29407999 0.15025 0.15344
0.29538 0.15324 0.15434
0.29657 0.15253 0.15523
0.29624 0.15513 0.15563001
0.29626 0.15724 0.15645
0.29642001 0.15813001 0.15556
0.296 0.15998 0.15577
0.29638001 0.16074 0.15503
0.29705 0.16133 0.15446
0.29712 0.16062 0.15673
0.29682001 0.16229001 0.15658
0.29734001 0.16716 0.15578
0.29644001 0.16743 0.15659
0.28393999 0.05607 0.14099
0.28433999 0.057014 0.14251
0.28367999 0.057975002 0.14331999
0.18229 0.084311999 0.18122999
0.18221 0.081795998 0.18003
0.26989999 0.19784001 0.19588999
0.26877999 0.19629 0.19564
0.27033001 0.18583 0.19733
0.27000999 0.18684 0.19612999
0.29254001 0.13551 0.15159
0.29203999 0.13639 0.15296
0.29214001 0.13891 0.15283
0.29256999 0.13952 0.15068001
0.29161999 0.13992999 0.15328
0.29139 0.14176001 0.15135001
0.29256001 0.14393 0.15206
0.29181001 0.14475 0.15282001
0.29232001 0.14655 0.153
0.29407999 0.14744 0.15312999
0.29427001 0.14977001 0.15369999
0.29440999 0.15053999 0.15448999
0.29448 0.15118 0.15475
0.29591 0.15482 0.15501
0.29447001 0.15685999 0.15673999
0.29611999 0.15710001 0.15716
0.29434001 0.15897 0.15625
0.29565001 0.16001 0.15611
0.29589999 0.1601 0.15749
0.29414001 0.15855999 0.15772
0.33668 0.14633 0.16218001
0.33497 0.1452 0.16423
0.33509001 0.14376999 0.16395
0.30656999 0.1706 0.20307
0.31277999 0.17398 0.18534
0.31355 0.17291 0.18479
0.31197 0.17279001 0.18446
0.32549 0.096391998 0.16047999
0.32672 0.097845003 0.16125
0.26194 0.060984999 0.13476001
0.27394 0.18851 0.19515
0.29214999 0.13443001 0.15202001
0.29243001 0.13564999 0.15252
0.29155999 0.13818 0.15173
0.29267001 0.13913999 0.15186
0.29183999 0.14128 0.15236001
0.29211 0.14143001 0.15297
0.29183999 0.14394 0.152
0.29038 0.14560001 0.15322
0.29082 0.14713 0.15402
0.29273999 0.14778 0.15460999
0.2922 0.14893 0.15311
0.29411 0.15238 0.15744001
0.29504001 0.15323 0.15712
0.29524001 0.15616 0.15765999
0.29532 0.15708999 0.15779001
0.2728 0.17447001 0.18551999
0.27372 0.1736 0.18617
0.29345 0.15915 0.18131
0.29295999 0.16039 0.18183
0.29255 0.16181999 0.18166
0.32887 0.12277 0.16643
0.27383 0.14071999 0.16717
0.27500001 0.19087 0.19205
0.27509999 0.19205999 0.19225
0.33133 0.14124 0.14009
0.33186001 0.14191 0.14105
0.27373999 0.18810999 0.19482
0.29549 0.16102999 0.16877
0.29458001 0.16158 0.16816001
0.29646 0.16835 0.15779001
0.29618999 0.16879 0.15738
0.29183 0.13443001 0.15426999
0.29141 0.13741 0.15403999
0.29071999 0.13968 0.15296
0.29111999 0.14040001 0.15273
0.29049 0.14066 0.15408
0.29133001 0.14384 0.15257999
0.29069999 0.14538001 0.15294001
0.29126 0.14515001 0.15436
0.29126999 0.14808001 0.15522
0.29155001 0.14861 0.15591
0.29297 0.15023001 0.1568
0.29448 0.15527 0.15914001
0.27221999 0.17546 0.18696
0.27491 0.17030001 0.19147
0.2999 0.069436997 0.17709
0.29951 0.070155002 0.17613
0.29978001 0.067488 0.17714
0.29089999 0.13657001 0.15307
0.28962001 0.1346 0.15425
0.29183999 0.13905001 0.15413
0.29100999 0.13829 0.15501
0.29021001 0.14037 0.15459
0.29095 0.14224 0.15446
0.28961 0.1432 0.15456
0.29163 0.14583001 0.15428001
0.29091999 0.14826 0.15593
0.29141 0.14619 0.15485001
0.29065999 0.15051 0.15700001
0.31977001 0.097562999 0.14842001
0.31856 0.096855 0.14861
0.31920001 0.097599998 0.14855
0.28953001 0.13758001 0.15459999
0.28963 0.13847999 0.15576001
0.28997999 0.14167 0.15434
0.28922999 0.14182 0.15476
0.28845999 0.14216 0.15524
0.29142001 0.1451 0.15488
0.29069 0.14641 0.15643001
0.28981999 0.1487 0.15581
0.30258 0.16694 0.14828999
0.31310999 0.18731 0.22086
0.33522999 0.16164 0.16405
0.27592 0.13875 0.15927
0.30915001 0.18539999 0.24383999
0.29049999 0.13742 0.15662999
0.28931999 0.13928001 0.15527
0.28931999 0.14163999 0.15669
0.28999001 0.14230999 0.15599
0.29023999 0.14274 0.15713
0.28999999 0.14515001 0.15703
0.28926 0.14689 0.15730999
0.28995001 0.14838 0.15741
0.28931001 0.14636 0.15831
0.2895 0.14646 0.15769
0.26207 0.060481001 0.1346
0.27324 0.19007 0.19373
0.27322 0.19369 0.1925
0.28927001 0.13775 0.15748
0.28871 0.13855 0.15764
0.28935999 0.14123 0.15855999
0.28812 0.14227 0.15672
0.28827 0.14478 0.15753999
0.28874999 0.14703999 0.15767001
0.28944001 0.14907999 0.15752
0.27221 0.19346 0.19424
0.27467999 0.19418 0.193
0.31086001 0.1627 0.14031
0.33355999 0.14548001 0.15429001
0.18155999 0.083361998 0.17867
0.18211 0.083907999 0.17953999
0.28924 0.14060999 0.15757
0.28885999 0.14242999 0.15784
0.28861001 0.14196 0.1594
0.28896001 0.1445 0.1587
0.29047 0.14544 0.15981001
0.28881001 0.14703999 0.15964
0.27302 0.18291999 0.19272999
0.27399001 0.18427999 0.19435
0.31055999 0.18747 0.23252
0.31191999 0.18977 0.23325001
0.31279001 0.18877 0.23247001
0.30957001 0.18216 0.22108001
0.29216 0.15268999 0.16056
0.27340999 0.18505 0.19497
0.27476001 0.052150998 0.1389
0.27595001 0.054136001 0.14059
0.27509001 0.051775001 0.14150999
0.27072001 0.18134999 0.19322
0.31154001 0.095758997 0.14542
0.31165001 0.094488002 0.14519
0.31178001 0.094842002 0.14472
0.29491001 0.15674999 0.15831999
0.28808999 0.14124 0.15887
0.28759 0.14392 0.16074
0.28885001 0.14492001 0.16042
0.28817999 0.14486 0.15996
0.18278 0.087563999 0.18190999
0.18446 0.087235004 0.18316001
0.18471999 0.087185003 0.18138
0.18253 0.083747 0.18283001
0.31002 0.19236 0.24462999
0.31134999 0.19351 0.24615
0.30961001 0.19419999 0.24394999
0.27166 0.17388 0.18819
0.18437 0.072350003 0.16904999
0.18525 0.073931001 0.17086001
0.18602 0.074763 0.16977
0.1842 0.076884001 0.16974001
0.18391 0.077808999 0.16976
0.30730999 0.12909 0.14047
0.18409 0.079549 0.17005999
0.18431 0.078714997 0.16926
0.18452001 0.080973998 0.16952001
0.18467 0.081972003 0.16936
0.18454 0.086296998 0.17117999
0.28362 0.17952 0.18325
0.28783 0.14392 0.16035999
0.28713 0.14442 0.16117001
0.28827 0.14542 0.16151001
0.28786001 0.14411999 0.16143
0.27432999 0.17244001 0.18813001
0.29053 0.15372001 0.16997001
0.33133 0.16044 0.15312999
0.33024001 0.15925001 0.15186
0.33079001 0.16126999 0.15345
0.18574999 0.086250998 0.1699
0.32167 0.18192001 0.20657
0.32119 0.18079001 0.20390999
0.32117 0.18204001 0.20280001
0.26356 0.058132999 0.13318001
0.32793999 0.096049003 0.16610999
0.32815 0.095403001 0.16726001
0.18234 0.086871997 0.18095
0.28759 0.050822999 0.14120001
0.27388999 0.1919 0.19422001
0.27257001 0.19167 0.19204
0.27493 0.18838 0.19227
0.27667999 0.18773 0.19388001
0.27474001 0.18855999 0.19178
0.26227999 0.059799001 0.13405
0.27408001 0.18429001 0.19133
0.27522999 0.18449999 0.19562
0.27502 0.18715 0.19338
0.27584001 0.18571 0.19422001
0.27386001 0.19104999 0.19374999
0.31913 0.15526 0.13668001
0.32091001 0.15515999 0.13507
0.18238001 0.079044998 0.18223999
0.32282001 0.18162 0.20654
0.28507 0.050864998 0.14478
0.28762001 0.051364001 0.14432999
0.28648999 0.051490001 0.14647
0.29335001 0.16972999 0.17268001
0.29398999 0.16952001 0.17281
0.18267 0.078514002 0.17763001
0.32953 0.099519998 0.16659001
0.271 0.18486001 0.20519
0.27799001 0.17155001 0.18527
0.28029001 0.16805001 0.19054
0.18416999 0.073927999 0.17094
0.18382999 0.072480001 0.17175999
0.18461999 0.075645998 0.17106999
0.18378 0.076844998 0.17073999
0.18363 0.080338001 0.17005
0.18455 0.068723999 0.1734
0.18435 0.07045 0.17309999
0.29251999 0.16522001 0.17363
0.18342 0.081794001 0.17106
0.18301 0.084205002 0.17193
0.18212999 0.078409001 0.18031
0.18459 0.087993003 0.17959
0.29348999 0.16751 0.17209999
0.29280001 0.16594 0.17206
0.29271001 0.16687 0.17389999
0.29633 0.16804001 0.17103
0.29488 0.16616 0.17109001
0.29508999 0.066127002 0.15103
0.29262 0.067284003 0.15189999
0.30947 0.19069999 0.24173
0.18432 0.083773002 0.17016999
0.31097999 0.19537 0.245
0.27135 0.18358999 0.19675
0.32455 0.18871 0.22059
0.18436 0.077964 0.17273
0.18172 0.078103997 0.17228
0.31014001 0.19052 0.2402
0.2703 0.18432 0.19679999
0.31015 0.18430001 0.24247999
0.30761999 0.18471999 0.24381
0.29398 0.16646001 0.17275999
0.29368001 0.16734999 0.17297
0.29243001 0.16968 0.17299999
0.31218001 0.11562 0.14379001
0.30833 0.18299 0.22590999
0.27903 0.18521 0.18858001
0.27895999 0.18472999 0.18858001
0.32633999 0.092729002 0.16374999
0.29249001 0.1665 0.17460001
0.292 0.16754 0.17411
0.29166001 0.16956 0.17338
0.28534999 0.19013999 0.19091
0.28525001 0.19041 0.19149999
0.26995999 0.19502001 0.19711
0.27616999 0.18591 0.19294
0.29078999 0.16579001 0.17434999
0.29122999 0.16687 0.17516001
0.29124001 0.16959 0.17565
0.29137 0.17118999 0.17557
0.31086001 0.19146 0.24467
0.18358 0.077198997 0.17162
0.18275 0.079979002 0.17937
0.29355001 0.16709 0.17002
0.31163001 0.12603 0.14490999
0.31219 0.1269 0.14472
0.27142 0.17963 0.19027001
0.29039001 0.1653 0.17552
0.28994 0.16611999 0.17572001
0.2915 0.16701999 0.17425001
0.29082 0.16856 0.17488
0.29107001 0.17073999 0.17486
0.30576 0.059622999 0.14686
0.30649 0.058908001 0.14903
0.30741 0.059032001 0.14977001
0.29420999 0.16793001 0.16903
0.29475999 0.16485 0.16889
0.29214999 0.16332 0.17652
0.28924 0.16658001 0.17643
0.29016 0.16712999 0.17654
0.29025999 0.16911 0.17623
0.28994 0.16946 0.17591
0.29085001 0.15346 0.17004
0.29991999 0.070672996 0.17849
0.30013001 0.070845 0.17978001
0.28832 0.1661 0.17662001
0.28981999 0.16743 0.17678
0.29003 0.16924 0.1762
0.29007 0.17016 0.17701
0.28806001 0.17107999 0.17625999
0.33113 0.11057 0.15968999
0.33006001 0.10726 0.16078
0.33112001 0.11085 0.15978999
0.33056 0.11129 0.16148999
0.33133999 0.10958 0.16041
0.32881001 0.1055 0.16060001
0.32861999 0.10226 0.15959001
0.28 0.1671 0.18622001
0.33000001 0.10438 0.15922999
0.33171999 0.10576 0.16158
0.32911 0.10515 0.16069999
0.28988999 0.16648 0.17874999
0.2886 0.16383 0.17852999
0.28806001 0.16751 0.17728999
0.28816 0.16863 0.17756
0.28838 0.17035 0.17676
0.28830001 0.17237 0.17758
0.28935999 0.17205 0.17772999
0.30730999 0.17013 0.19318999
0.30770001 0.17138 0.19415
0.32306999 0.094833001 0.15571
0.32317001 0.096784003 0.15497001
0.32458001 0.096615002 0.15606999
0.18378 0.080661997 0.17288999
0.27745 0.17851999 0.18835001
0.18316001 0.079802997 0.17204
0.32622001 0.095821999 0.16046
0.32556999 0.093915001 0.16240001
0.30906001 0.18832 0.24422
0.30932 0.19134 0.24207
0.30952999 0.18838 0.24334
0.18207 0.081881002 0.17386
0.28814 0.16626 0.17938
0.28887999 0.16763 0.17778
0.28747001 0.16922 0.17856
0.28723001 0.17001 0.17757
0.28849 0.1724 0.17858
0.2888 0.17298 0.17840999
0.28865001 0.17264 0.17794999
0.18323 0.082161002 0.1733
0.28873 0.16395999 0.17925
0.28775001 0.16517 0.18024001
0.28744999 0.16531999 0.17877001
0.28586 0.16783001 0.17811
0.28760999 0.16966 0.17946
0.28658 0.17113 0.17817
0.28635001 0.17099001 0.17918999
0.28600001 0.17290001 0.18016
0.28762001 0.17546999 0.17916
0.28742999 0.16502 0.17994
0.28672999 0.16636001 0.17902
0.28566 0.16982999 0.17891
0.28441 0.17058 0.17782
0.28595001 0.17026 0.17991
0.28569001 0.17316 0.17908999
0.28709999 0.17460001 0.18061
0.28512001 0.16857 0.18197
0.28551 0.16670001 0.17902
0.28477001 0.16749001 0.17995
0.28485 0.17011 0.17998999
0.28481999 0.17177001 0.17918999
0.28582001 0.17355999 0.17967001
0.28593999 0.17501 0.18075
0.28435999 0.17643 0.18065
0.31345999 0.19582 0.24395999
0.33204001 0.11675 0.16732
0.32482001 0.093911 0.16082001
0.32554999 0.094839998 0.16037001
0.28573 0.16823 0.18125001
0.28529999 0.16814999 0.18073
0.28382999 0.17061999 0.1793
0.28349 0.17197999 0.17862
0.28342 0.17384 0.1814
0.28534999 0.1744 0.18154
0.28565001 0.17668 0.1814
0.28625 0.17769 0.18237001
0.33417001 0.16502 0.16514
0.33309001 0.16628 0.16504
0.33381999 0.16735999 0.16663
0.28218001 0.16845 0.18037
0.28380999 0.16648 0.18234
0.28317001 0.17082 0.18076999
0.28323001 0.17188001 0.18018
0.28494 0.1728 0.1798
0.28371999 0.17564 0.18117
0.28420001 0.17745 0.18215001
0.28442001 0.17806 0.18173
0.28472999 0.17995 0.18221
0.31420001 0.053273 0.17577
0.31439999 0.053100999 0.17588
0.31468001 0.053722002 0.17456999
0.28290001 0.16911 0.18167
0.28268 0.16993 0.18087
0.28220999 0.17254999 0.18144999
0.28194001 0.1741 0.18054
0.28193 0.17441 0.18198
0.28371 0.17538001 0.18256
0.28523001 0.17826 0.18317001
0.28455999 0.18137001 0.18292999
0.27283001 0.18232 0.20197999
0.28143001 0.17025 0.18365
0.28123 0.17020001 0.18358
0.28194001 0.17104 0.18094
0.28209001 0.1733 0.1824
0.28093001 0.17431 0.18151
0.28459999 0.17769 0.18328001
0.28314999 0.17816 0.18350001
0.28303 0.17927 0.18336
0.28310001 0.18082 0.18351001
0.32194 0.18682 0.21107
0.32224 0.18494 0.21194001
0.32341 0.18489 0.21126001
0.31027001 0.18215001 0.24321
0.29561001 0.071303003 0.17403001
0.29764 0.069954999 0.1751
0.28079 0.16903 0.18266
0.2807 0.17041001 0.18279
0.28088 0.17218 0.18351001
0.28086001 0.17329 0.18132
0.28038999 0.17566 0.18165
0.28277999 0.1786 0.18350001
0.28108001 0.17631 0.18455
0.28385001 0.17811 0.18535
0.28167999 0.18266 0.18492
0.30952999 0.18519001 0.24188
0.30845001 0.1882 0.24175
0.18686999 0.080162004 0.16508999
0.18688001 0.076539002 0.16574
0.18695 0.079357997 0.16339
0.28162 0.16666999 0.18425
0.28064999 0.17174999 0.18258999
0.28040999 0.16846 0.18435
0.28 0.17020001 0.18325999
0.27961999 0.17326 0.18297
0.28033 0.17387 0.18181001
0.28119999 0.17642 0.18555
0.28117001 0.17735 0.18464001
0.28176001 0.17811 0.18569
0.28134999 0.17962 0.18550999
0.28244999 0.18203001 0.18564001
0.18239 0.077734001 0.18156999
0.32071 0.18412 0.20829999
0.32223001 0.18307 0.20822001
0.28514999 0.13986 0.16157
0.28518999 0.14004 0.16046
0.32201001 0.1798 0.20480999
0.28049001 0.17106999 0.18352
0.28145999 0.17011 0.18342
0.27974001 0.17137 0.18386
0.27928001 0.17399 0.18279999
0.27812999 0.17518 0.1838
0.27930999 0.17887001 0.18246
0.28169999 0.17741001 0.1859
0.28183001 0.18089999 0.18658
0.28127 0.18032999 0.18634
0.28092 0.18288 0.18501
0.33271 0.11572 0.1666
0.32205001 0.19029 0.22243001
0.27774 0.17061999 0.18471
0.27875 0.17223001 0.18393999
0.27699 0.17402001 0.18346
0.27799001 0.17482001 0.18351001
0.27818 0.17545 0.18406001
0.28055999 0.17838 0.18708999
0.28268 0.17896 0.18758
0.28094 0.18121 0.18701001
0.28057 0.18216 0.18739
0.28044999 0.18289 0.18604
0.32286 0.16528 0.14554
0.184 0.087274998 0.17709
0.18460999 0.086113997 0.17651001
0.18427999 0.085331 0.17589
0.28055 0.16850001 0.18466
0.27833 0.17248 0.18607999
0.27691001 0.17377999 0.18364
0.27564999 0.17393 0.18297
0.27678999 0.17662001 0.18532
0.27926999 0.17821001 0.18636
0.27965999 0.17836 0.18798999
0.28011999 0.18071 0.18761
0.27974999 0.18237001 0.18811999
0.27821001 0.18331 0.18814
0.27970999 0.18492 0.18655001
0.28808001 0.085639998 0.14514001
0.28613001 0.084237002 0.14584
0.32945001 0.15803 0.14725
0.32894999 0.1584 0.14681
0.32923999 0.15695 0.14586
0.32361999 0.095181003 0.15790001
0.32251 0.092987999 0.15733001
0.30878001 0.1762 0.21231
0.30704999 0.17601 0.21487001
0.30772001 0.17838 0.21387
0.31029001 0.1798 0.21575999
0.30831 0.1785 0.21532001
0.33598 0.14709 0.16125999
0.32605001 0.099835001 0.16045
0.32905999 0.1016 0.15941
0.32899001 0.10602 0.15904
0.28536999 0.18965 0.19014999
0.28850001 0.18681 0.18972
0.32984999 0.10971 0.15794
0.33146 0.11112 0.15937001
0.33553001 0.14706001 0.16231
0.33467001 0.14941999 0.16309001
0.3326 0.1163 0.16580001
0.33098999 0.11815 0.16670001
0.33072001 0.11969 0.16641
0.33008 0.12141 0.16568001
0.32995999 0.12188 0.16636001
0.32775 0.12271 0.1653
0.32953 0.12315 0.16852
0.30709001 0.17332999 0.21056999
0.30908999 0.17607 0.21111999
0.33219001 0.11429 0.16703001
0.33282 0.11156 0.16551
0.33184001 0.11369 0.16576
0.32951999 0.15199 0.14266001
0.32910001 0.1521 0.14146
0.32848001 0.15277 0.14227
0.30798 0.17516001 0.21127
0.26956999 0.053121001 0.13535
0.26719001 0.052811 0.13412
0.30706 0.17083 0.21024001
0.30880001 0.17376 0.21514
0.30759001 0.17494 0.2147
0.30792001 0.17524 0.21407001
0.30638 0.17621 0.21641999
0.30816001 0.06072 0.17516001
0.30803999 0.060217001 0.17364
0.30897999 0.059395 0.17298
0.33371001 0.14575 0.14961
0.30776 0.17735 0.21668001
0.30899999 0.18053 0.21529
0.33421999 0.14438 0.15426999
0.18238001 0.076734997 0.17304
0.32982001 0.11092 0.1592
0.32971999 0.11165 0.16147999
0.33102 0.16006 0.1538
0.33292001 0.16012 0.15414999
0.33203 0.15987 0.15502
0.32451999 0.12315 0.15843999
0.32552001 0.12346 0.15798
0.32846001 0.10089 0.15842
0.32785001 0.10302 0.15868001
0.31764001 0.13504 0.13274001
0.31781 0.13346 0.13395
0.31889001 0.13417999 0.13054
0.28264001 0.19329999 0.19536
0.32962 0.11932 0.15877999
0.30302 0.055847999 0.14161
0.30366001 0.054567002 0.14123
0.30237001 0.054031 0.14154001
0.29466 0.073406003 0.15668
0.29455 0.075690001 0.15677001
0.29209 0.073159002 0.15884
0.32912999 0.16858 0.15978999
0.32932001 0.16942 0.15782
