# .PCD v0.7 - Point Cloud Data file format
VERSION 0.7
FIELDS x y z
SIZE 4 4 4
TYPE F F F
COUNT 1 1 1
WIDTH 1649
HEIGHT 1
VIEWPOINT 0 0 0 1 0 0 0
POINTS 1649
DATA ascii
0.079126999 0.14296 0.26431999
0.093814 0.18357 0.27437001
0.093474001 0.18198 0.27564001
0.096620001 0.18798 0.27316001
0.097047001 0.18959001 0.27313
0.095711 0.18815 0.27296001
0.093700998 0.19542 0.27177
0.094627999 0.18637 0.27309
0.093808003 0.18656 0.27195999
0.095703997 0.19978 0.27327001
0.094420999 0.19993 0.27329001
0.10031 0.053959999 0.25013
0.091012001 0.18071 0.27541
0.031900998 0.15861 0.22891
0.11195 0.10052 0.25621
0.11166 0.10215 0.25657001
0.1123 0.10226 0.25678
0.097475 0.20006999 0.27331999
0.12178 0.082521997 0.34863001
0.1115 0.17938 0.21197
0.11022 0.17911001 0.21151
0.094571002 0.18528999 0.27329001
0.095118001 0.18973 0.27186999
0.093911 0.18937001 0.27151
0.094942003 0.1881 0.27223
0.094103001 0.19095001 0.27157
0.094991997 0.19134 0.27181
0.091494001 0.18351001 0.2723
0.092090003 0.18098 0.27614999
0.070908003 0.16265 0.22778
0.084941998 0.17134 0.26504001
0.12803 0.090542004 0.31435001
0.077799998 0.062889002 0.25069001
0.053635001 0.051477998 0.23932
0.052152999 0.052147999 0.23952
0.077021003 0.16766 0.26677001
0.077142999 0.16689999 0.26519001
0.083182998 0.17129 0.26076999
0.084438004 0.17249 0.26111001
0.1001 0.19687 0.27342999
0.036943 0.16153 0.22737999
0.035776999 0.16148999 0.22742
0.036894001 0.16289 0.22721
0.095216997 0.19251999 0.27192
0.094136 0.19265001 0.27151999
0.11531 0.18246999 0.21448
0.11467 0.18268 0.21551
0.12207 0.065852001 0.33763
0.032853998 0.10986 0.23085999
0.032859001 0.11116 0.23088001
0.033868998 0.11105 0.23028
0.102 0.12314 0.26607999
0.090999998 0.18223 0.27373001
0.12814 0.091991 0.31428
0.12778001 0.091835998 0.31575999
0.12763999 0.090801001 0.31542999
0.033684999 0.10997 0.23034
0.10063 0.19391 0.27373999
0.032765999 0.13834 0.22521
0.034219999 0.13973001 0.22506
0.087382004 0.18648 0.25953999
0.088468 0.18621001 0.2599
0.12749 0.10553 0.30934
0.12769 0.10594 0.31011
0.037712999 0.094485 0.23349001
0.037115 0.096017003 0.2326
0.038178001 0.096231997 0.23212001
0.085082002 0.17122 0.2658
0.096083 0.19103 0.27236
0.096956998 0.19126 0.2728
0.095990002 0.19238 0.27217999
0.035569001 0.15062 0.22716001
0.036359001 0.15041 0.22657999
0.035746999 0.14922 0.22589
0.075503998 0.096336998 0.23105
0.075704999 0.097824998 0.23074
0.076393999 0.096207999 0.23156001
0.077413999 0.061370999 0.24972001
0.098319001 0.18211 0.27061999
0.097879998 0.18209 0.26962
0.094685003 0.17899001 0.26819
0.035084002 0.14932001 0.22656
0.078213997 0.061556999 0.25071999
0.091188997 0.18780001 0.27077001
0.091300003 0.18951 0.27052999
0.090452 0.18968999 0.26982
0.090570003 0.18816 0.26984999
0.10177 0.20144001 0.27375999
0.10084 0.20172 0.27383
0.1103 0.18065 0.21172
0.11034 0.18224999 0.21191999
0.11115 0.18051 0.21156
0.083038002 0.17174999 0.26030999
0.084862001 0.19577 0.26953
0.10148 0.19701 0.26855999
0.10196 0.19552 0.26844999
0.10073 0.19538 0.26796001
0.10476 0.18663 0.27265
0.035930999 0.15193 0.22797
0.036807999 0.15185 0.22756
0.036226999 0.11094 0.22882
0.096960999 0.19257 0.27239001
0.089974999 0.19269 0.27042001
0.090076998 0.19098 0.26998001
0.036214001 0.15341 0.22815
0.081338003 0.16402 0.22346
0.079469003 0.16497 0.2229
0.12495 0.093607001 0.32267001
0.12428 0.094192997 0.32359999
0.12424 0.092707001 0.32335001
0.10171 0.12255 0.26543999
0.10228 0.12115 0.26514
0.1283 0.093503997 0.31456
0.12781 0.093355 0.31593001
0.096165001 0.18661 0.27410001
0.095872998 0.18686999 0.27329999
0.089971997 0.19426 0.27107999
0.049024001 0.16575 0.22782999
0.048838001 0.16694 0.22807001
0.050253998 0.16543999 0.22808
0.091099001 0.18519001 0.27101001
0.090180002 0.1866 0.27023
0.089823999 0.18519001 0.27059999
0.089527003 0.18377 0.27140999
0.090732001 0.18366 0.27200001
0.10637 0.18363 0.27642
0.1071 0.18295 0.27732
0.096676998 0.19994999 0.27322999
0.096381001 0.19836 0.27314001
0.096795 0.19705001 0.27261999
0.077169001 0.055943999 0.24628
0.076816 0.057162002 0.24671
0.077524997 0.057133999 0.24744
0.069891997 0.1543 0.24853
0.10791 0.050531998 0.27258
0.10638 0.050535001 0.27276
0.10751 0.050560001 0.27116999
0.037064999 0.15313999 0.22792
0.085417002 0.17337 0.26131001
0.084210001 0.17308 0.26039001
0.085258 0.17472 0.25964001
0.10297 0.19857 0.27410001
0.10292 0.19997001 0.27386001
0.084152997 0.093755998 0.24218
0.084481001 0.093672 0.24322
0.10099 0.18252 0.28075999
0.10003 0.18223999 0.28058001
0.096006997 0.18962 0.27217001
0.036339998 0.15478 0.22815
0.036731001 0.15477 0.22782999
0.10194 0.067553997 0.26227
0.03066 0.14522 0.22724999
0.091181003 0.17586 0.26710999
0.1266 0.10799 0.29253
0.12668 0.10631 0.29155001
0.12640999 0.10823 0.29137
0.087572001 0.18967 0.26923001
0.087751999 0.18802001 0.26899999
0.079016 0.086018004 0.24296001
0.07942 0.086121 0.24389
0.078048997 0.084803 0.24456
0.10608 0.18348999 0.28053999
0.10422 0.18378 0.28035
0.10479 0.18208 0.28026
0.10186 0.18525 0.27856001
0.099492997 0.18098 0.28103
0.10117 0.18363 0.27945
0.1027 0.18814 0.27649999
0.103 0.18963 0.27590001
0.10323 0.19115999 0.27572
0.10264 0.19126 0.2755
0.10203 0.18911999 0.27555001
0.088676997 0.17746 0.26100001
0.082235999 0.16954 0.26392999
0.082119003 0.16965 0.26467001
0.10223 0.065834999 0.26203999
0.10095 0.065543003 0.26126999
0.10336 0.067436002 0.26249999
0.10175 0.19264001 0.2746
0.10658 0.17542 0.21703
0.11396 0.19566999 0.27564999
0.11335 0.19414 0.27649999
0.037259001 0.12194 0.23028
0.11991 0.11387 0.3303
0.12022 0.11542 0.32971999
0.11925 0.11548 0.33096999
0.084478997 0.18956999 0.26914999
0.084068999 0.19103999 0.26964
0.077361003 0.084810004 0.24357
0.086497001 0.18783 0.26892
0.10232 0.18696 0.27767
0.10356 0.19256 0.27516001
0.093359001 0.18935999 0.27103999
0.10342 0.19427 0.27482
0.1035 0.19547001 0.27447999
0.10289 0.19561 0.2744
0.10362 0.19731 0.27421001
0.10293 0.19716001 0.27394
0.095242001 0.18495999 0.27399001
0.10164 0.19103999 0.27491999
0.044029001 0.14904 0.22363999
0.083287999 0.17036 0.26809001
0.059227999 0.069789 0.25409001
0.060022 0.070488997 0.25371
0.059560001 0.068984002 0.25382999
0.047231 0.10143 0.22529
0.046112001 0.10147 0.22577
0.046812002 0.10273 0.22476999
0.10394 0.19841 0.27397999
0.087738998 0.17287 0.26655
0.090905003 0.084806003 0.25940001
0.12474 0.090806 0.32222
0.074501 0.12811001 0.23604
0.075112998 0.12921999 0.23689
0.094769999 0.12113 0.25705001
0.088767 0.086208999 0.25470999
0.088431999 0.086799003 0.25421
0.089211002 0.088083997 0.25432
0.073362 0.067103997 0.24882001
0.089185998 0.12725 0.25242999
0.089909002 0.12552001 0.25218999
0.037553001 0.10307 0.23055001
0.10391 0.19984999 0.27406001
0.10207 0.12417 0.26736
0.10148 0.12427 0.26657999
0.076650999 0.11662 0.23344
0.077703997 0.1164 0.23438001
0.077592 0.11491 0.23450001
0.076761 0.11515 0.23391999
0.10982 0.19551 0.27595001
0.086296998 0.17211001 0.26639
0.052028 0.082732998 0.23801
0.051647 0.081610002 0.23868001
0.050629999 0.082695998 0.23763999
0.10278 0.20135 0.27403
0.11533 0.18561 0.21538
0.12637 0.070226997 0.31062999
0.12592 0.070490003 0.31213
0.10944 0.19396999 0.27656999
0.1101 0.1925 0.27693
0.039613999 0.062431 0.26108
0.041005 0.062391002 0.26137999
0.039763 0.061159 0.25940999
0.049541999 0.083237998 0.23789001
0.050138 0.082130998 0.23889001
0.086491004 0.18978 0.2692
0.065306 0.14278001 0.29348999
0.076057002 0.11203 0.23203
0.076398998 0.11378 0.23271
0.1036 0.14289001 0.31569001
0.096932001 0.17757 0.27880001
0.085539997 0.19389001 0.27037999
0.036005002 0.15623 0.22812
0.037090998 0.15622 0.22803
0.069289997 0.15865 0.23754001
0.070059001 0.15955999 0.23751999
0.068472996 0.13789 0.23615
0.068072997 0.13789 0.23525
0.068977997 0.13934 0.23597001
0.068166003 0.11917 0.22821
0.066927999 0.11902 0.22782999
0.067443997 0.12045 0.22849999
0.022407001 0.13211 0.23577
0.022701999 0.13285001 0.23506001
0.023644 0.13285001 0.2348
0.12027 0.11253 0.33030999
0.11956 0.11398 0.33127001
0.12642001 0.10748 0.28922001
0.12645 0.1076 0.28806999
0.085685998 0.17454 0.26054999
0.068819001 0.15216 0.23829
0.064645 0.14947 0.23142999
0.065416001 0.15093 0.23254
0.086556002 0.19396 0.27096
0.085752003 0.19256 0.27021
0.070504002 0.16029 0.2317
0.10989 0.19722 0.27559999
0.039349001 0.11915 0.22806001
0.04019 0.11765 0.22752
0.11135 0.18004 0.21648
0.082303002 0.18968 0.2687
0.073682003 0.11932 0.23182
0.073352002 0.12066 0.23236001
0.074202999 0.12034 0.23284
0.10113 0.054152999 0.25104001
0.087282002 0.18375 0.26973999
0.096293002 0.11561 0.2561
0.082152002 0.090953 0.24225
0.081525996 0.090745002 0.24161001
0.083177 0.092007004 0.24169999
0.086465001 0.18532 0.26894
0.088426001 0.1733 0.27364999
0.087898001 0.17902 0.25953001
0.095660999 0.1184 0.25634
0.064998001 0.148 0.23119999
0.095013 0.11968 0.25670001
0.10669 0.1408 0.29971001
0.10781 0.13992999 0.29949999
0.10717 0.14016999 0.29822001
0.11596 0.19275001 0.21491
0.11606 0.19358 0.21340001
0.1148 0.19419999 0.21455
0.089198999 0.17409 0.26649001
0.10071 0.19257 0.27421999
0.12365 0.10724 0.27713001
0.12404 0.10645 0.27789
0.12372 0.10651 0.27693999
0.094944999 0.16672 0.21626
0.07959 0.084684998 0.24632999
0.048441 0.16931 0.23025
0.068333 0.16057999 0.22932
0.069357 0.16087 0.2291
0.070653997 0.16091 0.22923
0.067045003 0.16051 0.23056
0.023874 0.15985 0.23582
0.023843 0.16023 0.23617999
0.024104999 0.16114999 0.23587
0.075882003 0.1823 0.22066
0.074345998 0.18131 0.22172999
0.073950998 0.18231 0.22297999
0.064055003 0.082236998 0.23794
0.063680001 0.082059003 0.23772
0.063899003 0.083708003 0.23693
0.048914 0.082742997 0.23852
0.038378 0.13297001 0.22421999
0.036688998 0.096185997 0.2335
0.11956 0.062488001 0.33645001
0.11757 0.061184999 0.33790001
0.11671 0.060745001 0.33679
0.097401999 0.18248001 0.27864999
0.077091001 0.16151001 0.23105
0.10818 0.19377001 0.27642
0.040240001 0.15459999 0.22747999
0.086388998 0.18356 0.2692
0.085098997 0.19128001 0.26982999
0.084964998 0.19244 0.27026999
0.085376002 0.18953 0.26912001
0.10573 0.061859999 0.26098999
0.10515 0.061939999 0.25999001
0.088416003 0.14556 0.29049
0.084554002 0.18514 0.26802
0.085674003 0.18522 0.26863
0.084568001 0.18655001 0.26798001
0.085871004 0.18672 0.26842001
0.067567997 0.15826 0.23384
0.094446003 0.17764001 0.26942
0.084374003 0.18824001 0.26846001
0.086078003 0.19136 0.26984999
0.10881 0.19546001 0.27581
0.1088 0.19697 0.27568001
0.053015999 0.084822997 0.2352
0.055009 0.084450997 0.23514999
0.054184999 0.083536997 0.23579
0.10825 0.18385001 0.27880001
0.10886 0.1849 0.27957001
0.076222003 0.18086 0.21931
0.066005997 0.15372001 0.25802001
0.036835 0.098826997 0.23188999
0.079021998 0.11804 0.23475
0.11114 0.20079 0.27438
0.11293 0.19961999 0.27437001
0.097359002 0.16926999 0.21387
0.096538998 0.16785 0.21462999
0.097354002 0.18493 0.26671001
0.074832 0.061151002 0.24817
0.074110001 0.062725 0.24808
0.075172998 0.062872 0.24898
0.12695 0.080628999 0.31213
0.12707999 0.081152998 0.31165999
0.1269 0.082051001 0.31180999
0.078942999 0.16779 0.26526001
0.11685 0.088400997 0.34836999
0.038477 0.065862998 0.26930001
0.039772999 0.067369998 0.27103001
0.11268 0.18926001 0.21663
0.11541 0.19472 0.21365
0.10429 0.1227 0.26977
0.10464 0.12122 0.26969001
0.10643 0.050709002 0.27357
0.078942999 0.090700999 0.23814
0.079354003 0.088959001 0.23914
0.096588001 0.11846 0.25815001
0.096251003 0.11858 0.25727001
0.11207 0.19091 0.21625
0.11 0.18777999 0.27392
0.11446 0.18629999 0.21586999
0.11455 0.18450999 0.21605
0.037535001 0.12309 0.23083
0.036564 0.1234 0.23141
0.037806001 0.12457 0.23113
0.10846 0.1894 0.27846
0.10978 0.18938001 0.27871999
0.10941 0.19079 0.27781999
0.11934 0.084523998 0.35201001
0.099160999 0.1789 0.28013
0.098104 0.17914 0.28049999
0.097228996 0.17806 0.27976999
0.10034 0.17285 0.22014999
0.10414 0.068999 0.26227999
0.10414 0.070106 0.26177999
0.10545 0.068976 0.26271001
0.098962002 0.18682 0.27575999
0.099284999 0.18816 0.27504
0.073192 0.069927998 0.24935
0.074239001 0.069960997 0.2494
0.073655002 0.068511002 0.24902
0.035907 0.093898997 0.23639999
0.092005 0.082106002 0.26093
0.09065 0.18093 0.27483001
0.089569002 0.18049 0.27410999
0.080306001 0.087783001 0.24223
0.080727004 0.087788999 0.24307001
0.11491 0.19259 0.2757
0.089047998 0.19284 0.27059001
0.083936997 0.18667001 0.26819
0.083719 0.18513 0.26780999
0.12125 0.074997 0.34968001
0.065396003 0.15234999 0.25895
0.11519 0.19241001 0.21473999
0.095615 0.19242001 0.26526001
0.096874997 0.19237 0.26556
0.11952 0.10652 0.26648
0.12032 0.10521 0.26699001
0.12009 0.10535 0.26616001
0.094240002 0.17914 0.26732999
0.094935998 0.18083 0.26696
0.042883001 0.087371998 0.23587
0.041985001 0.087536998 0.23664001
0.069040999 0.15391 0.23917
0.10947 0.17557999 0.21552999
0.10145 0.18942 0.27505001
0.12198 0.1173 0.30087
0.12244 0.11563 0.30081001
0.11575 0.11867 0.29076001
0.064944997 0.15701 0.25827
0.12560999 0.095142998 0.32330999
0.1248 0.095292002 0.32398
0.090714 0.18212 0.26122001
0.081602 0.088992998 0.24271999
0.081032 0.089271002 0.24168999
0.069271997 0.15669 0.24292
0.018963 0.13135 0.23688
0.020357 0.13107 0.23717
0.020009 0.13037001 0.23807999
0.070566997 0.10033 0.22688
0.071557 0.10058 0.22764
0.071563996 0.099060997 0.22764
0.10171 0.12096 0.26446
0.10106 0.12274 0.26455
0.11887 0.062243 0.33805001
0.031349 0.060196999 0.26075
0.032037999 0.059709001 0.25964001
0.031413998 0.058626998 0.25977999
0.11986 0.1127 0.3317
0.12659 0.10685 0.29043001
0.064947002 0.15858001 0.25819001
0.050678 0.087080002 0.23405001
0.12671 0.1049 0.28689
0.044605002 0.14356001 0.22282
0.044709999 0.14493001 0.22336
0.045917999 0.14342 0.22288001
0.097103998 0.13180999 0.27063999
0.097956002 0.13211 0.27101001
0.097842 0.13113999 0.27000001
0.12102 0.11376 0.28691
0.12157 0.11327 0.28808999
0.12206 0.11293 0.28626999
0.096574999 0.13597 0.27687001
0.097147003 0.13636 0.27774999
0.097548999 0.13523 0.27642
0.12139 0.076536998 0.35038999
0.096196003 0.11398 0.25578001
0.10681 0.14143001 0.30302
0.10792 0.14027999 0.30254
0.10764 0.14065 0.30162001
0.11527 0.13191 0.31766
0.1152 0.13241 0.31663001
0.11405 0.13326 0.31709
0.068856999 0.15663999 0.24213
0.11548 0.11987 0.33377001
0.11604 0.11959 0.33285999
0.11514 0.12102 0.33309999
0.11235 0.11613 0.27816999
0.12031 0.080596998 0.35179999
0.083659001 0.13964 0.26752999
0.084168002 0.13944 0.26886001
0.084532999 0.13905001 0.26723
0.030531 0.10972 0.23311
0.031230001 0.10864 0.23216
0.087122001 0.18731999 0.25974
0.11119 0.053018998 0.27551001
0.11089 0.053261999 0.27441999
0.11133 0.054586001 0.27513
0.067700997 0.14812 0.23537
0.097089998 0.10831 0.2554
0.097521 0.11837 0.25871
0.095556997 0.16887 0.22167
0.096602 0.17005 0.22186001
0.095912002 0.17026 0.22255
0.030606 0.11139 0.23317
0.031227 0.11099 0.23231
0.031287 0.1096 0.23209
0.12616999 0.073445998 0.31048
0.12568 0.072065003 0.31218001
0.031099999 0.10426 0.23416001
0.032315001 0.10305 0.23391999
0.030912001 0.10564 0.23338
0.031679999 0.10591 0.23255999
0.031989001 0.10474 0.23334
0.058357999 0.14181 0.22606
0.11371 0.1864 0.21173
0.10253 0.064723 0.26067999
0.073535003 0.058582 0.24483
0.074345 0.056990001 0.24495
0.046914998 0.14789 0.22318
0.10284 0.064668 0.26133001
0.047901001 0.15872 0.22718
0.049665999 0.15863 0.22703999
0.048700001 0.15719 0.22637001
0.061267 0.17096999 0.22923
0.060022999 0.17105 0.22969
0.060568001 0.1718 0.22973
0.066725001 0.12169 0.229
0.065693997 0.12216 0.22838999
0.11399 0.056600001 0.33061001
0.090605997 0.18648 0.26113999
0.089684002 0.18643001 0.2606
0.090507001 0.18769 0.26129001
0.082929 0.14004 0.26607001
0.083094001 0.14024 0.26477
0.081878997 0.14117999 0.26552999
0.11408 0.057015002 0.32914999
0.11174 0.055558 0.33127001
0.036254 0.12922999 0.22802
0.035429999 0.13016 0.22743
0.040491 0.15606999 0.22772001
0.041425999 0.15458 0.22731
0.1076 0.17487 0.21615
0.10862 0.17614999 0.21620999
0.1115 0.191 0.27331001
0.11546 0.18965 0.21551
0.11422 0.18925001 0.21562999
0.1145 0.18786 0.21593
0.11398 0.11942 0.28608
0.11439 0.11996 0.28715
0.11428 0.11853 0.28689
0.090023004 0.11093 0.24705
0.089606002 0.111 0.24617
0.090203002 0.11256 0.24675
0.096721001 0.17896 0.28018999
0.065439999 0.14526001 0.23083
0.064641997 0.14511 0.22984999
0.065164 0.14639001 0.2308
0.067446999 0.11446 0.22657
0.066887997 0.11316 0.2261
0.066065997 0.11465 0.22589
0.035886001 0.10028 0.23217
0.040006001 0.11528 0.22683001
0.10866 0.18816 0.27906001
0.11776 0.12263 0.29892001
0.064410001 0.14658 0.23052999
0.11173 0.17764001 0.21295001
0.10363 0.063146003 0.25993001
0.12038 0.092906997 0.33258
0.11979 0.091734998 0.3337
0.12039 0.091712996 0.33295
0.12061 0.094495997 0.33287999
0.12252 0.10653 0.27318001
0.12201 0.10629 0.27208
0.12191 0.1076 0.27268001
0.067354999 0.15415999 0.23544
0.080821 0.12943999 0.24145
0.08106 0.13073 0.24263
0.081753001 0.12969001 0.24236
0.10948 0.1374 0.31957
0.097562 0.2031 0.27221
0.074648 0.058309998 0.24583
0.097139001 0.10993 0.25549001
0.10285 0.11345 0.26357001
0.10181 0.11332 0.26243001
0.087967999 0.10525 0.24368
0.088440999 0.10555 0.24422
0.088395 0.10375 0.24417
0.11427 0.19645 0.21211
0.10587 0.060617998 0.26007
0.098892003 0.057425 0.25102001
0.067515999 0.15985 0.23159
0.10038 0.19111 0.27423999
0.099872001 0.19411001 0.27355
0.036897 0.15752 0.22788
0.074836999 0.064089999 0.24923
0.11038 0.19114 0.27779001
0.1037 0.18172 0.28053999
0.079882003 0.058127999 0.25038999
0.081690997 0.058015998 0.25198999
0.080879003 0.057346001 0.25125
0.075630002 0.094807997 0.23224001
0.076640002 0.094779998 0.23267999
0.10325 0.065943003 0.26251999
0.10618 0.12148 0.27311
0.10546 0.12303 0.27228001
0.062479999 0.14957 0.22926
0.10713 0.1767 0.21769001
0.10015 0.18956999 0.27478999
0.10226 0.11996 0.26418
0.051582001 0.16949999 0.23074
0.099857002 0.19075 0.27419001
0.075528003 0.1135 0.23203
0.034669001 0.16565 0.22770999
0.034887001 0.16682 0.22796001
0.03579 0.16577999 0.22725999
0.085350998 0.064874999 0.25716001
0.085914001 0.065462999 0.25823
0.075453997 0.059712 0.24752
0.075535998 0.061349999 0.2485
0.064223997 0.079544999 0.24044999
0.065428004 0.079452001 0.2406
0.063553996 0.079464003 0.24075
0.064682998 0.094171003 0.22835
0.066083997 0.094360001 0.2282
0.065629996 0.093010999 0.22876
0.068821996 0.14362 0.23611
0.068351999 0.14365999 0.23528001
0.051082 0.053695999 0.24028
0.051024999 0.052398 0.24118
0.050648998 0.053525001 0.24096
0.073533997 0.064044997 0.24864
0.111 0.054967999 0.33054
0.11299 0.055840001 0.32947999
0.068329997 0.1424 0.23518001
0.087885998 0.078890003 0.26120001
0.087568998 0.077505998 0.26122999
0.053994998 0.14319 0.22311001
0.052436002 0.14492001 0.22305
0.053748 0.14480001 0.22341999
0.072167002 0.053950001 0.24157
0.071677998 0.052756 0.24090999
0.071076997 0.054092001 0.24079999
0.085281 0.065996997 0.25920001
0.084817998 0.067451 0.25933
0.082525 0.18674 0.26785001
0.082902998 0.18520001 0.26729
0.083805002 0.18387 0.26797
0.082630999 0.18365 0.26765999
0.081177004 0.18583 0.21818
0.081540003 0.18554001 0.21716
0.080259003 0.18415999 0.21697
0.076306999 0.058626 0.24704
0.076957002 0.058495998 0.24755999
0.099573001 0.18972 0.27436
0.075149 0.1445 0.26269001
0.076737002 0.14410999 0.26241001
0.076104 0.1442 0.26126
0.096276 0.17713 0.27917999
0.036249999 0.10971 0.22856
0.11348 0.18784 0.21187
0.1139 0.18638 0.21647
0.11349 0.18809 0.21625
0.085077003 0.10218 0.23939
0.085386999 0.10222 0.24036001
0.085525997 0.10104 0.24025001
0.075571001 0.12774 0.23656
0.06961 0.15161 0.25457001
0.068957001 0.15214001 0.25477999
0.069462001 0.15092 0.25547999
0.077436998 0.18427999 0.22154
0.078951001 0.18461999 0.2203
0.077849999 0.18437 0.22041
0.084535003 0.069104999 0.25957
0.074766003 0.18088 0.22089
0.11947 0.1179 0.32936001
0.11849 0.11946 0.32945001
0.12321 0.077446997 0.34577
0.036302 0.11523 0.22860999
0.047093 0.095756002 0.22798
0.048315998 0.096100003 0.22755
0.10196 0.11849 0.26388001
0.076788999 0.16408999 0.22457001
0.10204 0.058497999 0.25279999
0.10025 0.059491001 0.25242999
0.10836 0.20272 0.27333999
0.10846 0.20299 0.27243999
0.099022001 0.18009 0.2807
0.098402001 0.18041 0.28051999
0.12113 0.11769 0.29868001
0.10674 0.17517 0.21185
0.10609 0.17336001 0.21224999
0.10564 0.17509 0.21222
0.084514998 0.070405997 0.25957999
0.096813001 0.11135 0.25543001
0.084519997 0.16391 0.22507
0.11405 0.05675 0.32782999
0.087821998 0.10372 0.24365
0.087214001 0.10385 0.24254
0.076190002 0.059966002 0.24812999
0.12054 0.064139999 0.33682001
0.084922001 0.071645997 0.25942999
0.085011996 0.073103003 0.25944
0.085121997 0.074790001 0.25933999
0.099417999 0.1823 0.27111
0.11579 0.061652001 0.34259999
0.034150001 0.13700999 0.22507
0.033259999 0.13697 0.22536001
0.034150001 0.1381 0.22485
0.030854 0.14647999 0.22753
0.031335 0.1014 0.23616
0.030322 0.1058 0.23431
0.029625 0.10916 0.23415001
0.030112 0.11036 0.2333
0.030975999 0.14793 0.2277
0.031451002 0.14933001 0.22807001
0.036162 0.10713 0.2287
0.037060998 0.10433 0.22984999
0.036540002 0.10572 0.22925
0.035427999 0.11648 0.22967
0.035328999 0.11783 0.22973999
0.035776 0.11924 0.23001
0.036492001 0.12066 0.23026
0.036727998 0.12181 0.23104
0.035574 0.10826 0.22892
0.035317998 0.11532 0.22927
0.035440002 0.11271 0.22931001
0.035223 0.11375 0.22934
0.030305 0.14377999 0.22699
0.030223999 0.14104 0.22614001
0.030606 0.14241999 0.22649001
0.043896999 0.16931 0.22982
0.045696001 0.16918001 0.22945
0.066611998 0.15538 0.23489
0.085229002 0.075892001 0.25911999
0.036961 0.12485 0.23190001
0.036970001 0.12605999 0.23164999
0.035333999 0.12295 0.2331
0.034208 0.12315 0.23355
0.035576999 0.12467 0.23291001
0.034832999 0.12927 0.22930001
0.035408001 0.12864999 0.22914
0.034455001 0.12908 0.22999001
0.092777997 0.17648999 0.27895001
0.12273 0.080417 0.3425
0.12244 0.080654003 0.34172001
0.12181 0.081860997 0.34239
0.030484 0.11168 0.23345999
0.030857 0.11245 0.23333
0.019307001 0.1345 0.23543
0.018569 0.13432001 0.23578
0.019223999 0.13552 0.23514
0.039958 0.15325999 0.22707
0.039381001 0.15176 0.22626001
0.024563 0.16023999 0.23486
0.025196999 0.16003001 0.23394001
0.024878001 0.1587 0.23445
0.030466 0.13966 0.22637001
0.031160999 0.12323 0.23766001
0.030071 0.12277 0.23819
0.030358 0.12317 0.2383
0.038554002 0.062565997 0.26120001
0.030324001 0.13811 0.22658999
0.030596999 0.13680001 0.22652
0.030626001 0.13548 0.22717001
0.030855 0.1329 0.22759999
0.030958001 0.13414 0.22717001
0.031332001 0.13169999 0.22861999
0.040268 0.15054999 0.22499999
0.040918 0.15058 0.22487999
0.040566001 0.14921001 0.22432999
0.040316001 0.15186 0.22577
0.039949 0.14904 0.22464
0.041225001 0.15194 0.22516
0.083746001 0.19238 0.26183
0.11258 0.055596001 0.32855999
0.11386 0.056926001 0.32719001
0.030415 0.11871 0.23538999
0.034581002 0.12449 0.23384
0.034623999 0.12587 0.2335
0.030378001 0.16835999 0.23406
0.030871 0.16914 0.23534
0.032033999 0.16923 0.23393001
0.030881001 0.12061 0.23569
0.031635001 0.12167 0.23636
0.1122 0.10323 0.25712001
0.039825998 0.11124 0.22717001
0.034301002 0.14102 0.22514001
0.034194 0.14224 0.22463
0.034991 0.141 0.22438
0.034956999 0.13976 0.22457001
0.039223 0.15063 0.22532
0.034334999 0.1437 0.22495
0.034630001 0.14524999 0.22538
0.035239 0.14369 0.22465999
0.035089999 0.14223 0.22459
0.038045 0.097544 0.23159
0.032545999 0.10708 0.23108
0.032814998 0.10842 0.23041999
0.033723 0.10707 0.23025
0.033532001 0.10858 0.23007999
0.033530999 0.11938 0.23183
0.095320001 0.096938998 0.25659999
0.11653 0.11208 0.26982999
0.11665 0.13083 0.30636001
0.11745 0.12973 0.30592
0.11706 0.12985 0.30486
0.068072997 0.056648999 0.23925
0.035275001 0.16834 0.22898
0.088536002 0.13806 0.27142
0.089772999 0.13756999 0.27061999
0.088973001 0.13733 0.26980999
0.031626001 0.12317 0.23687001
0.087860003 0.13817 0.27046001
0.098373003 0.14196999 0.28775001
0.099624999 0.14101 0.28724
0.0986 0.14104 0.28604999
0.086267002 0.13718 0.26550999
0.087396003 0.13655999 0.26458001
0.086869001 0.13648 0.26403001
0.031872001 0.1242 0.23705
0.031861 0.12592 0.23695999
0.10145 0.18366 0.27215999
0.099940002 0.1196 0.26175001
0.099138997 0.1199 0.26085001
0.099781998 0.12138 0.26190001
0.087741002 0.12361 0.24824999
0.087454997 0.12499 0.24861
0.087929003 0.12536 0.24925999
0.097654 0.1236 0.26179001
0.099266 0.12264 0.26214001
0.098649003 0.1226 0.26137999
0.084031999 0.065766998 0.25731999
0.083567001 0.066184998 0.25681999
0.083851002 0.06763 0.25780001
0.018421 0.13169999 0.23739
0.018541999 0.13066 0.23813
0.017198 0.13158 0.23810001
0.027384 0.13582 0.22916
0.027679 0.13440999 0.22983
0.027034 0.13714001 0.22874001
0.094780996 0.14667 0.29843
0.027044 0.13846999 0.22861999
0.035335999 0.12561999 0.23288999
0.026652001 0.13973001 0.22869
0.027045 0.14133 0.22845
0.058238 0.063948996 0.24865
0.041682001 0.1671 0.22758999
0.038706999 0.094704002 0.2331
0.11741 0.12882 0.30353001
0.11754 0.12752999 0.30316001
0.11743 0.12763999 0.30204999
0.12732001 0.074824996 0.31020001
0.026923999 0.14241 0.22851001
0.027099 0.14396 0.22871999
0.027321 0.14526001 0.22912
0.091715999 0.18916 0.20838
0.093056999 0.18899 0.20814
0.12694 0.073142 0.30982
0.033521 0.097506002 0.236
0.12759 0.076075003 0.31075001
0.12836 0.077356003 0.30605
0.12863 0.077563003 0.30461001
0.027674001 0.14669 0.22950999
0.028138001 0.1479 0.23018
0.028302001 0.14945 0.23072
0.12285 0.11196 0.32455
0.12211 0.11376 0.32570001
0.12221 0.11214 0.32565999
0.086797997 0.064354002 0.25659001
0.085957997 0.064071998 0.25584
0.11131 0.13795 0.30954999
0.11094 0.13792001 0.30838001
0.11006 0.13929 0.30917001
0.084362999 0.064488001 0.25602001
0.11325 0.19276001 0.27678001
0.11235 0.19268 0.27684999
0.10022 0.18047 0.28077
0.028938999 0.15068001 0.23159
0.1278 0.077745996 0.31123
0.12758 0.078929998 0.31101
0.12722 0.083255 0.31107
0.029176001 0.15214001 0.2323
0.12671 0.081951998 0.31301001
0.12081 0.059840001 0.30788001
0.1212 0.061384998 0.30816999
0.12024 0.05979 0.30847999
0.12788001 0.084701002 0.31158999
0.12662999 0.091978997 0.31764999
0.12625 0.092453003 0.31869
0.12601 0.090820998 0.31889001
0.12826 0.085891001 0.31220001
0.033096001 0.11534 0.23092
0.033907998 0.11508 0.23041999
0.033907 0.11376 0.23077001
0.034118 0.11634 0.23049
0.091954999 0.06498 0.25892001
0.091164999 0.065213002 0.25819999
0.089860998 0.065420002 0.25949001
0.032900002 0.11272 0.23097999
0.033185001 0.11392 0.23159
0.033651002 0.11244 0.23068
0.11125 0.079304002 0.26109001
0.11104 0.078243002 0.26122001
0.11072 0.078489996 0.26113001
0.033659 0.13303 0.22623
0.034681 0.13292 0.22589999
0.075497001 0.18137001 0.21996
0.07638 0.18285 0.22055
0.029696999 0.15336999 0.23255999
0.029304 0.15473001 0.23221
0.029172 0.15613 0.23219
0.029302999 0.15726 0.23213001
0.088417001 0.064184003 0.25582001
0.087563001 0.063638002 0.25479999
0.028889 0.15872 0.23201001
0.12837 0.087564997 0.31251001
0.11243 0.191 0.27722001
0.028694 0.16019 0.23151
0.028568 0.16163 0.23091
0.028176 0.16323 0.23085999
0.028817 0.16435 0.2309
0.040449999 0.14782 0.22381
0.042420998 0.13009 0.2252
0.042738002 0.13154 0.22389001
0.028873 0.16566999 0.23168001
0.041862 0.13138001 0.22418
0.042052001 0.13294999 0.22362
0.042401001 0.13278 0.22346
0.034465 0.061335001 0.25999001
0.03579 0.061329 0.25960001
0.039632 0.14793999 0.22404
0.12741999 0.079786003 0.31132999
0.12768 0.078984998 0.3098
0.042984001 0.097365998 0.22875001
0.093767002 0.063183002 0.25393
0.093757004 0.063883997 0.25674
0.094784997 0.063488998 0.25494999
0.12883 0.090158001 0.31151
0.12829 0.090315998 0.31301001
0.12851 0.088987 0.31252
0.086223997 0.17177001 0.26905999
0.029835001 0.16699 0.23265
0.043384001 0.13574 0.22296
0.043398999 0.13682 0.22318
0.044555999 0.13548 0.22287001
0.043519001 0.1381 0.22344001
0.044659 0.13823 0.22329
0.044261999 0.13685 0.22314
0.1204 0.061404999 0.30895001
0.038116001 0.13821 0.22352
0.036913998 0.13826001 0.22400001
0.032969002 0.11657 0.23128
0.095824003 0.13661 0.27853
0.11775 0.11389 0.27743
0.11909 0.11301 0.27649
0.1184 0.11299 0.2755
0.031042 0.16857 0.23287
0.096052997 0.10095 0.25606
0.085637003 0.077426001 0.25909001
0.029587001 0.11191 0.2342
0.030027 0.11314 0.23417
0.042484 0.16974001 0.22989
0.024203001 0.15882 0.23523
0.025022 0.15764 0.23492
0.034304999 0.14907999 0.22707
0.033987001 0.14779 0.22651
0.1233 0.064963996 0.31197
0.12302 0.064701997 0.31327999
0.12423 0.066362999 0.31318
0.12356 0.06645 0.31426999
0.043274 0.13402 0.22319999
0.1198 0.058401 0.30807999
0.11285 0.18792 0.27772
0.0385 0.14653 0.22416
0.023357 0.15601 0.23628999
0.042266998 0.058387 0.25747001
0.043811999 0.058329001 0.25780001
0.043148998 0.057046 0.25685999
0.041859999 0.056889001 0.25676
0.043009002 0.059698999 0.25869
0.043924 0.060856 0.26043999
0.040314998 0.14488 0.22352
0.040374 0.14646 0.22364999
0.041058999 0.16566999 0.22691999
0.044994999 0.062073 0.26196
0.089994997 0.1445 0.28715
0.090504996 0.14477 0.28816
0.091182999 0.14415 0.28685001
0.033473 0.10434 0.23196
0.033052001 0.1056 0.23167001
0.034281999 0.1043 0.23106
0.030188 0.13427 0.22785001
0.045945998 0.063229002 0.26354
0.044798002 0.15304001 0.22504
0.042433001 0.1558 0.22723
0.042688999 0.15731999 0.22744
0.11447 0.19119 0.27546999
0.045763001 0.10832 0.22522999
0.045790002 0.10985 0.22545999
0.046530001 0.10815 0.22496
0.030355999 0.13274001 0.22844
0.12714 0.093602002 0.31797001
0.03534 0.059902001 0.25891
0.10191 0.12922999 0.27254
0.1024 0.12802 0.27204999
0.10144 0.1293 0.27192
0.1268 0.10634 0.28683001
0.12605 0.10807 0.28724
0.10895 0.18640999 0.27950999
0.10803 0.18499 0.27979001
0.04654 0.064753003 0.26462001
0.12017 0.058596998 0.30715999
0.044822 0.13415 0.22284999
0.046440002 0.16689 0.22774
0.047398999 0.16688 0.22797
0.047557 0.16594 0.22791
0.046518002 0.16563 0.22768
0.023689 0.1356 0.23308
0.023091 0.13553999 0.23368999
0.038557 0.14774001 0.22428
0.12211 0.080999002 0.34828001
0.12219 0.081928 0.34746999
0.046811 0.065751001 0.26539001
0.083857998 0.14223 0.27895001
0.084330998 0.14216 0.27985001
0.085358001 0.14161 0.27814999
0.088995002 0.14157 0.28059
0.089473002 0.14195 0.28148001
0.09025 0.141 0.27983999
0.033734001 0.10304 0.23254
0.034761999 0.10286 0.23191001
0.046962999 0.067575999 0.26528001
0.047192998 0.068456002 0.26563999
0.047228001 0.069991 0.26592001
0.034053002 0.11788 0.23091
0.033431001 0.11804 0.23171
0.034203 0.11917 0.23145001
0.047166999 0.071439996 0.26591
0.086304002 0.078891002 0.25883999
0.089835003 0.1761 0.26434001
0.088867001 0.17606001 0.26308
0.042771999 0.11504 0.22548001
0.042024001 0.1533 0.22603001
0.042126998 0.15464 0.22676
0.037666999 0.16434 0.22680999
0.03081 0.10721 0.23323999
0.12675001 0.096615002 0.32001001
0.12642001 0.095344 0.31953001
0.091068 0.14109001 0.28104001
0.091362 0.14031 0.27948999
0.045829002 0.12315 0.22708
0.046149001 0.12452 0.22765
0.047077999 0.12321 0.22707
0.046473999 0.12599 0.22798
0.11137 0.19235 0.27721
0.043074999 0.12888999 0.22628
0.086176999 0.13939001 0.27243
0.087444998 0.13879 0.27167001
0.087144002 0.13885 0.27078
0.030177999 0.12013 0.23627
0.030301999 0.12033 0.2366
0.11206 0.051068 0.29337999
0.11166 0.050978001 0.29251
0.11341 0.050949 0.29251999
0.11939 0.053637002 0.303
0.11845 0.053739998 0.30419001
0.11767 0.052198999 0.30309999
0.10793 0.18647 0.27961001
0.083618 0.071717001 0.25666001
0.12346 0.073638998 0.31854999
0.12319 0.074096002 0.32009
0.12261 0.072673999 0.31895
0.12343 0.072339997 0.31799999
0.043260999 0.12191 0.2273
0.044415001 0.12157 0.22727001
0.044183001 0.12038 0.22677
0.050014 0.16695 0.22826
0.11929 0.05697 0.30689001
0.11944 0.055188 0.30489999
0.11797 0.053684998 0.30522999
0.11976 0.056791 0.30599001
0.11768 0.052276 0.30410001
0.1154 0.19096 0.21528
0.034024 0.1059 0.2306
0.11746 0.11552 0.28828001
0.11755 0.1153 0.28940001
0.11869 0.115 0.28816
0.11151 0.18955 0.27816001
0.1114 0.19125 0.27803001
0.11197 0.12829 0.28815001
0.1128 0.12848 0.28907001
0.11173 0.12774999 0.28769001
0.030879 0.11526 0.23346999
0.029975999 0.11483 0.23416001
0.020553 0.15874 0.2387
0.020946 0.16013999 0.23913001
0.021375 0.1605 0.23853
0.03514 0.13682 0.22454999
0.034926999 0.13808 0.2246
0.11981 0.053865999 0.30214
0.086818002 0.080651999 0.25797999
0.12665001 0.082451999 0.31783
0.12678 0.083494 0.31777
0.12657 0.082431003 0.31906
0.12657 0.085006997 0.31753001
0.12646 0.084137 0.31905001
0.12702 0.094977997 0.31799001
0.09443 0.20056 0.27031001
0.093119003 0.20059 0.27061999
0.12506001 0.098351002 0.32670999
0.12546 0.099748001 0.32705
0.12458 0.098879002 0.32765999
0.1267 0.10115 0.32376
0.12609001 0.10118 0.32492
0.12616 0.099577002 0.32472
0.12515999 0.10119 0.32734001
0.12478 0.10143 0.32817999
0.12454 0.1001 0.32776999
0.12646 0.098033004 0.32350999
0.12684 0.099725001 0.32370001
0.12616 0.098444998 0.32438001
0.12543 0.092412002 0.32115
0.12486 0.092357002 0.32209
0.12526999 0.091072999 0.32113999
0.085703 0.1666 0.21783
0.086870998 0.16659001 0.21743999
0.085904002 0.16569 0.21923
0.12771 0.099574998 0.32124999
0.12716 0.099716999 0.32229
0.089033 0.13794 0.27212
0.10248 0.063646004 0.25926
0.10327 0.062859997 0.25896001
0.10257 0.062763996 0.25766999
0.12565 0.11148 0.31509
0.12547 0.11092 0.31606999
0.12627 0.11022 0.31456
0.12137 0.084562004 0.34755999
0.12147 0.083371997 0.347
0.12147 0.083502002 0.34615001
0.095917001 0.13382 0.27252999
0.096634001 0.13271999 0.27195001
0.09612 0.13293999 0.27107999
0.11333 0.18466 0.21644001
0.12481 0.070850998 0.31455001
0.12423 0.070689 0.31571999
0.12437 0.069530003 0.3154
0.034274001 0.16709 0.22845
0.034382001 0.16846 0.22979
0.12439 0.075276002 0.31931001
0.12364 0.075423002 0.32053
0.049872998 0.1602 0.22788
0.1202 0.053357001 0.30090001
0.11984 0.052680001 0.30045
0.099942997 0.17891 0.27965
0.10419 0.17116 0.21389
0.10288 0.17095 0.21332
0.045334 0.10275 0.22516
0.045648001 0.10451 0.22472
0.04628 0.1044 0.22475
0.033675998 0.063617997 0.26416999
0.074488997 0.11633 0.23168001
0.073844999 0.11768 0.23201001
0.074648 0.1178 0.23246001
0.074677996 0.11905 0.23238
0.066330999 0.17575 0.22583
0.066717997 0.17422 0.22503
0.093794003 0.11396 0.25266999
0.092903003 0.11394 0.25192001
0.093548 0.11543 0.25279
0.1105 0.19362 0.20993
0.10984 0.19464999 0.20947
0.11112 0.19517 0.20952
0.083049998 0.16463999 0.2211
0.081592001 0.16543999 0.22062001
0.082644999 0.16527 0.22022
0.11982 0.052692 0.29914001
0.11823 0.052000001 0.29962
0.11626 0.051738001 0.28964999
0.11767 0.053020999 0.29027
0.11786 0.052767999 0.29104999
0.11407 0.19238999 0.21543001
0.035016999 0.14775001 0.22600999
0.034848999 0.14624999 0.22598
0.045564 0.10578 0.22469001
0.045531999 0.10678 0.22485
0.046378002 0.10599 0.22434001
0.043714002 0.11652 0.22579999
0.044753999 0.11639 0.2255
0.044553 0.11499 0.2255
0.045857999 0.13525 0.22307
0.12426 0.097061999 0.32725999
0.12461 0.097102001 0.32598999
0.12630001 0.086827002 0.32025
0.12624 0.086461999 0.31917
0.126 0.088256001 0.32016
0.12709001 0.10237 0.32394001
0.12616999 0.10277 0.32495999
0.12581 0.090829 0.32010001
0.12594999 0.089272 0.32032001
0.12638 0.087938003 0.31902
0.12620001 0.089281999 0.31882
0.12588 0.092355996 0.32025
0.12074 0.084887996 0.34671
0.10327 0.11224 0.26301
0.10435 0.11112 0.26258001
0.12716 0.073142 0.30856001
0.12620001 0.071528003 0.30932999
0.12791 0.076022997 0.30965999
0.093266003 0.12849 0.26012999
0.093851 0.12701 0.25977001
0.092882998 0.12854999 0.25915
0.12794 0.077725001 0.30989999
0.12755001 0.074539997 0.30908999
0.11226 0.20051999 0.27269
0.11136 0.20142999 0.27324
0.12508 0.072301 0.31446001
0.12428 0.071957998 0.31551
0.1152 0.10742 0.26139
0.11564 0.106 0.26124001
0.11438 0.10738 0.26061001
0.060438 0.13169999 0.22961999
0.11594 0.051887002 0.28753999
0.11587 0.051649 0.28885999
0.11397 0.050882999 0.28812
0.058641002 0.1406 0.22615001
0.061703 0.13632999 0.22841001
0.062665001 0.13507 0.22922
0.068742998 0.15108 0.2376
0.068649001 0.15222999 0.23731001
0.10448 0.061836001 0.25918001
0.031466 0.097222 0.23836
0.031192999 0.098875001 0.23786999
0.03204 0.098788999 0.23733
0.11976 0.1145 0.28731
0.12043 0.11432 0.28832999
0.12735 0.10124 0.32245001
0.044741001 0.11384 0.22547001
0.045607999 0.11503 0.22535001
0.042436 0.16576 0.22718
0.04242 0.16429 0.22657
0.044454001 0.107 0.22527
0.044661 0.10833 0.22526
0.10998 0.12062 0.27790999
0.11047 0.11881 0.27706999
0.10949 0.12051 0.27678001
0.12407 0.10555 0.32892999
0.12343 0.10565 0.32989001
0.12352 0.10413 0.32989001
0.12419 0.10411 0.32896
0.12485 0.073284 0.31437001
0.12530001 0.074708998 0.31501001
0.12422 0.073450997 0.31549001
0.12608001 0.076592997 0.31656
0.12545 0.076529004 0.31757
0.12467 0.075093001 0.31619
0.043926001 0.12741999 0.22777
0.12334 0.059760001 0.30377999
0.1236 0.061003 0.30418
0.12289 0.059563 0.30526999
0.036903001 0.15879001 0.22762001
0.037032999 0.16042 0.22732
0.043393001 0.14108001 0.22299001
0.041163001 0.13557 0.22287001
0.12217 0.11525 0.32578
0.12166 0.11518 0.32673001
0.12184 0.11365 0.32686001
0.12399 0.095473997 0.32681
0.10209 0.11717 0.26409
0.10293 0.11857 0.26473001
0.10314 0.11698 0.26508999
0.12640999 0.085225999 0.31924
0.12606999 0.085522003 0.32034999
0.12856001 0.087757997 0.31119999
0.12835 0.086171001 0.31059
0.12887 0.087448001 0.30994999
0.11521 0.051686 0.28687
0.12688001 0.071765997 0.30809
0.1148 0.051720999 0.2859
0.11323 0.050705001 0.28692001
0.068065003 0.13494 0.23515999
0.068108998 0.1364 0.23514
0.039487001 0.066115998 0.26826
0.12620001 0.084071003 0.32016999
0.12808999 0.077372998 0.30803001
0.12565 0.10237 0.32587999
0.12566 0.10101 0.32585999
0.12568 0.10376 0.32569
0.11079 0.18798999 0.27856001
0.092738003 0.14650001 0.29570001
0.085014001 0.18719 0.214
0.084636003 0.18554001 0.21304999
0.083970003 0.18566 0.2138
0.10276 0.10761 0.25915
0.097806998 0.14187001 0.28637999
0.12405 0.073445 0.31703001
0.044890001 0.1125 0.22547001
0.045607001 0.11361 0.22487999
0.04239 0.16291 0.22691
0.041239999 0.16275001 0.22641
0.12185 0.094549999 0.33072001
0.12101 0.094475001 0.33188999
0.12127 0.092862003 0.33182999
0.12337 0.1069 0.32957
0.1241 0.10677 0.32886001
0.12334 0.10805 0.32957
0.049086999 0.086672999 0.23491
0.12357 0.10821 0.32848001
0.1238 0.10783 0.3274
0.053346001 0.085856996 0.23436999
0.052537002 0.085804 0.23476
0.052967001 0.086919002 0.23341
0.048108999 0.097369 0.22736999
0.046932999 0.097382002 0.22747999
0.048106998 0.098608002 0.22724999
0.043469999 0.067422003 0.26723999
0.042748999 0.067327 0.26802999
0.043675002 0.068691 0.26787999
0.043981999 0.11745 0.22608
0.044201002 0.11929 0.2265
0.045141999 0.11786 0.22581001
0.12477 0.076808996 0.32027999
0.12419 0.076829001 0.32104999
0.11026 0.11736 0.27715001
0.1097 0.11724 0.27636999
0.11021 0.11876 0.27687001
0.045972001 0.12741999 0.22762001
0.046944 0.12717 0.22746
0.054164998 0.061836001 0.24698
0.054393999 0.061730999 0.24803001
0.055957999 0.062770002 0.24709
0.077261001 0.18298 0.21927001
0.056019999 0.14781 0.22515
0.071204998 0.05091 0.23964
0.069706 0.050911002 0.23957001
0.026831999 0.16681001 0.23653001
0.028006 0.16776 0.23689
0.027829999 0.16706 0.23537999
0.10057 0.062314 0.25514999
0.10154 0.061305001 0.25483999
0.10069 0.060970001 0.25360999
0.042682 0.11659 0.22593001
0.042771 0.11783 0.22639
0.046000998 0.11202 0.22531
0.046344999 0.11347 0.22486
0.098104 0.11545 0.25826001
0.046992999 0.098454997 0.22742
0.046642002 0.11242 0.22531
0.122 0.11716 0.32466
0.12217 0.1166 0.32525
0.12248 0.11608 0.32446
0.1245 0.095611997 0.32567
0.12364 0.094080001 0.32638001
0.12673 0.10382 0.32381001
0.12632 0.10402 0.3249
0.12379 0.072400004 0.31650999
0.039476 0.14613 0.22381
0.040171001 0.14362 0.22336
0.040709 0.063583001 0.26295999
0.021748001 0.13294999 0.23501
0.022152999 0.13447 0.23432
0.12627999 0.081097998 0.31856
0.12564 0.080862001 0.31964999
0.1009 0.1243 0.26559001
0.10027 0.12407 0.26449999
0.099753998 0.12540001 0.26523
0.034676999 0.16275001 0.22754
0.12594 0.082415998 0.31975001
0.034894999 0.16165 0.22758
0.035300002 0.1601 0.22759999
0.091545999 0.17515001 0.27748001
0.042624999 0.068536997 0.26837
0.043019999 0.069923997 0.26870999
0.043605998 0.069986999 0.26778999
0.1142 0.089755997 0.34911001
0.11574 0.089125998 0.34996
0.11546 0.089126997 0.34915999
0.091058001 0.18063 0.26225999
0.091335997 0.18197 0.26179999
0.043129999 0.065927997 0.26668
0.024197999 0.14109001 0.2316
0.024359999 0.13986 0.23152
0.12857001 0.091479003 0.31094
0.03387 0.14667 0.22598
0.046796001 0.16834 0.22859
0.047901999 0.16808 0.22849
0.11463 0.051399 0.28499001
0.11293 0.050781999 0.28606001
0.12245 0.075452 0.32407999
0.12244 0.076768003 0.32471001
0.12183 0.075626001 0.32521001
0.12221 0.076894 0.32605001
0.020218 0.13541999 0.23428001
0.021058001 0.13682 0.23434
0.1231 0.078339003 0.32528001
0.12237 0.078607999 0.32626
0.046893999 0.13132 0.22473
0.045423001 0.13119 0.22417
0.045839 0.13259 0.22374
0.12496 0.079472996 0.32071
0.12534 0.081165999 0.32047001
0.12439 0.079792 0.32176
0.12543 0.082808003 0.32146001
0.1021 0.13975 0.28997001
0.10243 0.13956 0.29098001
0.10273 0.13871001 0.28964999
0.12263 0.058784001 0.30221999
0.12339 0.060206 0.30281001
0.037119001 0.16965 0.23108999
0.018230001 0.13553999 0.23540001
0.045694001 0.17005 0.23078001
0.041184001 0.13424 0.22314
0.042247999 0.13541999 0.22316
0.11126 0.11593 0.27667999
0.11067 0.11596 0.27564999
0.10356 0.13684 0.28676999
0.10317 0.13699 0.28593001
0.10212 0.1383 0.28646001
0.056237999 0.062779002 0.24587999
0.046783 0.099950001 0.22701
0.12559 0.084159002 0.32176
0.046034001 0.11087 0.22583
0.047109 0.10955 0.22542
0.037964001 0.13708 0.22366001
0.036665 0.13677999 0.22403
0.037386 0.13424 0.22421999
0.036997002 0.13564999 0.22405
0.037983 0.13584 0.22375999
0.037613001 0.13166 0.22541
0.038235001 0.13424 0.22398999
0.037385002 0.13294999 0.22476
0.038380999 0.14249 0.22381
0.090503 0.17904 0.26247999
0.12456 0.084250003 0.32545
0.12408 0.084310003 0.32686999
0.12347 0.082769997 0.32620001
0.12395 0.093698002 0.32499
0.046833001 0.11514 0.22505
0.12376 0.070712999 0.31665999
0.12472 0.075584002 0.31812
0.12226 0.079874001 0.34704
0.12226 0.080494002 0.34595001
0.104 0.14271 0.31485999
0.044725999 0.11111 0.22556999
0.12593 0.079668 0.31862
0.12537999 0.079631001 0.31961
0.12272 0.07096 0.31858
0.12323 0.070597999 0.31753999
0.020455999 0.13421001 0.23488
0.11136 0.13111 0.28878999
0.11052 0.131 0.28771999
0.10966 0.13199 0.28828001
0.11011 0.13333 0.28966999
0.11082 0.13219 0.28924
0.10912 0.1329 0.28885001
0.098990999 0.14456999 0.29756001
0.10001 0.14397 0.29710999
0.099166997 0.14390001 0.29616001
0.033769999 0.13018 0.22831
0.033615999 0.12965 0.22975001
0.023554999 0.13809 0.23281001
0.024359999 0.13829 0.23208
0.02971 0.12014 0.23712
0.091109 0.19825 0.26828
0.12802 0.076173 0.30820999
0.030804999 0.12186 0.23698001
0.12808999 0.099538997 0.31984001
0.12732001 0.098220997 0.32067001
0.087903 0.081704997 0.25749999
0.1258 0.099648997 0.32573
0.10239 0.11707 0.26424
0.045894001 0.11648 0.22524001
0.113 0.051329002 0.28200001
0.11384 0.051541001 0.28305
0.11207 0.050386999 0.28303
0.069784999 0.10297 0.22648001
0.069753997 0.10185 0.22632
0.067836002 0.10198 0.22596
0.10883 0.050604001 0.27959999
0.10837 0.050887998 0.27858001
0.11026 0.050097998 0.27822
0.068947002 0.15019999 0.25598001
0.068558 0.14968 0.2572
0.033534002 0.14489 0.22589999
0.12739 0.083256997 0.30978999
0.12730999 0.081851996 0.31086001
0.11103 0.11701 0.27787
0.061280999 0.12947001 0.22973999
0.059746001 0.13027 0.22975001
0.10253 0.13781001 0.28749001
0.1015 0.14004999 0.28826001
0.10207 0.13913 0.28799999
0.10094 0.14022 0.28751999
0.068333 0.062252998 0.24495
0.068489 0.061020002 0.24364001
0.03867 0.14928 0.22476999
0.090972997 0.18909 0.20918
0.11892 0.12298 0.30379
0.11966 0.12186 0.30318999
0.1196 0.12218 0.30219999
0.087585002 0.13798 0.26955
0.1258 0.088215001 0.32145
0.12541001 0.089350998 0.32126999
0.051732 0.087140001 0.23334999
0.043731999 0.12302 0.22786
0.044900998 0.13266 0.22318999
0.045807 0.13413 0.22329
0.046386998 0.12846 0.22648001
0.042339001 0.13799 0.22304
0.043364 0.13963 0.22312
0.057438001 0.058800999 0.23972
0.057548001 0.058309998 0.23884
0.056568 0.058596998 0.23984
0.041393999 0.13702001 0.22321001
0.041235 0.13826001 0.223
0.031227 0.12462 0.23773
0.12417 0.08286 0.32499999
0.12338 0.081099004 0.32562
0.12367 0.069370002 0.31626999
0.085786 0.14403 0.28549001
0.11331 0.11564 0.27711001
0.11457 0.11508 0.27674001
0.11375 0.11514 0.27528
0.075098 0.14435001 0.26372999
0.075396001 0.14469001 0.26466
0.076771997 0.14403 0.26438999
0.12605 0.077996001 0.31806001
0.12531 0.078170002 0.31924999
0.047571 0.12843999 0.22623
0.047302999 0.13000999 0.22564
0.046448 0.1072 0.22475
0.12406 0.092673004 0.32481
0.12378 0.093007997 0.32613
0.1238 0.091300003 0.32661
0.12447 0.091398999 0.32532999
0.12427 0.078334004 0.32152
0.12482 0.078103997 0.32029
0.040885001 0.15323 0.2264
0.079402998 0.16774 0.26423001
0.080922998 0.16846 0.26423001
0.11278 0.051748998 0.28154001
0.11145 0.050806999 0.28219
0.12327 0.11234 0.28889
0.12053 0.11937 0.32657
0.12067 0.11956 0.32585001
0.10463 0.050705001 0.27292001
0.10298 0.051118001 0.27329999
0.10394 0.050629001 0.27169001
0.099665999 0.14337 0.29488
0.10036 0.14347 0.29567
0.10065 0.1426 0.29427999
0.10678 0.14176001 0.30223
0.1092 0.14004999 0.30210999
0.10988 0.13929 0.30136999
0.10991 0.13909 0.30070001
0.068599001 0.095211998 0.22846
0.068336003 0.096587002 0.2281
0.069452003 0.096620999 0.22837
0.048776999 0.16426 0.22804999
0.1125 0.1311 0.32686001
0.1137 0.13017 0.32627001
0.11278 0.13131 0.32558
0.12661999 0.093663 0.31896999
0.075750001 0.13022999 0.23774
0.074440002 0.12983 0.23703
0.074242003 0.13146999 0.23757
0.045660999 0.13663 0.2225
0.1206 0.11365 0.32905
0.11514 0.11761 0.28850999
0.1157 0.11748 0.28926
0.11647 0.11631 0.28887001
0.11253 0.051711999 0.28044999
0.11119 0.050804 0.28116
0.035009 0.16426 0.22766
0.12504999 0.11144 0.31849
0.12492 0.11091 0.31928
0.12572999 0.1101 0.31806001
0.071232997 0.14493001 0.24369
0.071519002 0.14353999 0.24349
0.038012002 0.064845003 0.26535001
0.036849 0.065086 0.26611
0.12701 0.098010004 0.32205001
0.059510998 0.068205997 0.25336
0.12818 0.084026001 0.30921
0.12813 0.084510997 0.31028
0.12664001 0.096597999 0.32122999
0.12597001 0.093698002 0.32036
0.12809999 0.085665002 0.31007001
0.12518001 0.10235 0.32703999
0.12497 0.10396 0.32675001
0.1246 0.1042 0.32798001
0.068834998 0.053909998 0.23853999
0.069760002 0.052384 0.23946001
0.046843 0.11116 0.22525001
0.099173002 0.12124 0.26129001
0.026993999 0.13558 0.23013
0.089827001 0.18217 0.26052999
0.031049 0.061438002 0.26225999
0.030266 0.061480001 0.26298001
0.071318001 0.1321 0.23677
0.070629999 0.13354 0.23751999
0.071235001 0.13323 0.23807
0.027966 0.13387001 0.23033001
0.026435001 0.13696 0.22961
0.035129 0.14528 0.22492
0.12372 0.081586003 0.32462999
0.12311 0.079885997 0.32554999
0.042961001 0.1601 0.22803999
0.036873002 0.13962001 0.22386999
0.10131 0.14497 0.30118001
0.10154 0.14480001 0.30224001
0.10237 0.14425001 0.301
0.12788001 0.10459 0.31698
0.1275 0.10494 0.31608
0.12745 0.10612 0.31762999
0.10442 0.14275999 0.29971999
0.10504 0.1426 0.30061001
0.10534 0.1418 0.29934001
0.078363001 0.14171 0.27305999
0.080076002 0.14104 0.27368999
0.12759 0.082997002 0.30814001
0.12512 0.076673999 0.31885999
0.045906998 0.13 0.22533
0.12406 0.089961998 0.32675001
0.12453 0.089644998 0.32562
0.098177999 0.060111001 0.25213999
0.098619998 0.061469998 0.25345999
0.099483997 0.060908001 0.25275999
0.12304 0.11213 0.32315001
0.12348 0.11354 0.32273
0.026081 0.13872001 0.22914
0.11175 0.051670998 0.27948001
0.1111 0.050595 0.28007001
0.11564 0.18599001 0.21556
0.11169 0.051796999 0.27849001
0.11044 0.050840002 0.27917999
0.12341 0.1082 0.27853999
0.026325 0.13976 0.22917999
0.10143 0.1393 0.28681001
0.12323 0.061245002 0.30565
0.114 0.18945999 0.27643001
0.12558 0.086774997 0.32178
0.035523999 0.14758 0.22543
0.12543 0.085555002 0.32174
0.12603 0.095343001 0.32084
0.12548999 0.095260002 0.32216001
0.12627 0.096859999 0.32260001
0.12568 0.097037002 0.32392001
0.12463 0.10262 0.32793
0.10705 0.050487 0.27026001
0.10665 0.050735001 0.26923999
0.11674 0.051247001 0.30098999
0.11763 0.051529001 0.30210999
0.10027 0.10434 0.25716999
