# .PCD v0.7 - Point Cloud Data file format
VERSION 0.7
FIELDS x y z
SIZE 4 4 4
TYPE F F F
COUNT 1 1 1
WIDTH 1572
HEIGHT 1
VIEWPOINT 0 0 0 1 0 0 0
POINTS 1572
DATA ascii
0.098972999 0.079791002 0.36004001
0.10073 0.081726998 0.36019
0.099748001 0.081409998 0.35909
0.098228998 0.064847998 0.35499999
0.10013 0.083001003 0.35964999
0.099044003 0.083265997 0.35903999
0.097442999 0.072104998 0.35786
0.096228004 0.071973003 0.35808
0.099088997 0.065081999 0.35451001
0.086433999 0.17629001 0.26043999
0.069934003 0.095311999 0.34529001
0.057606 0.068657003 0.33377001
0.074643001 0.083111003 0.34617001
0.073661998 0.083608001 0.34507999
0.073881 0.082690001 0.34544
0.079424001 0.099882998 0.34863999
0.079857998 0.102 0.34849
0.078878999 0.10084 0.34808999
0.11934 0.082160003 0.35275999
0.11969 0.082928002 0.35137999
0.12059 0.067749999 0.34454
0.12164 0.069067001 0.34424999
0.087122999 0.18266 0.25960001
0.086877003 0.18483999 0.25942001
0.089169003 0.18562999 0.25924999
0.059567001 0.070556 0.33521
0.05906 0.070037 0.33544999
0.058966 0.063818999 0.33173001
0.087677002 0.1798 0.27427
0.086802997 0.18002 0.27353001
0.084164999 0.17749999 0.27641001
0.099908002 0.19840001 0.27313
0.1156 0.12533 0.32775
0.10086 0.085478999 0.35776001
0.091436997 0.1754 0.27770001
0.091843002 0.17546999 0.27632001
0.090666004 0.17679 0.27884999
0.069715001 0.055029001 0.33735001
0.069609001 0.054933999 0.33746001
0.068713002 0.056915998 0.33715999
0.060001999 0.072036996 0.33579001
0.058892 0.071817003 0.33532
0.098746002 0.17877001 0.27724001
0.074382 0.073342003 0.34347999
0.073762 0.074729003 0.34382999
0.088308997 0.18093 0.27327001
0.11066 0.19431999 0.27711999
0.11165 0.19357 0.27647001
0.073523 0.095383003 0.34759
0.07384 0.097232997 0.34703001
0.073197998 0.095761999 0.34784999
0.012771 0.14679 0.26143
0.038199 0.078290999 0.27974001
0.11688 0.084100001 0.3547
0.066861004 0.16467001 0.2631
0.11253 0.19678999 0.27524
0.11277 0.19520999 0.27595001
0.10903 0.10257 0.3427
0.10813 0.10351 0.34270999
0.059579 0.073167004 0.33695999
0.058224 0.073866002 0.33614999
0.090187997 0.065906003 0.35152
0.090764999 0.064740002 0.35178
0.090663999 0.067252003 0.35299
0.059323002 0.078276001 0.33673
0.057870001 0.079916 0.33724001
0.057445999 0.080086999 0.33574
0.062669002 0.068719998 0.33629
0.063545004 0.069462001 0.33699
0.062913999 0.069603004 0.33737999
0.094695002 0.18362001 0.27583
0.096364997 0.18551999 0.27432001
0.095475003 0.18334 0.27480999
0.063717999 0.070146002 0.33734
0.059218001 0.074294999 0.33614999
0.058756001 0.075245999 0.33583
0.057858001 0.1013 0.33735001
0.056699 0.10135 0.33695
0.056449998 0.10014 0.33643001
0.091154002 0.063648999 0.35065001
0.090756997 0.064709999 0.34964001
0.089593001 0.062394999 0.34959
0.083517998 0.062941998 0.3416
0.059119999 0.075244002 0.33627
0.058742002 0.075350001 0.33566001
0.079305999 0.10215 0.34856001
0.078647003 0.10154 0.34815001
0.078856997 0.10112 0.34856999
0.01404 0.14645 0.26091999
0.012849 0.14715999 0.26089001
0.068976 0.17930999 0.22988001
0.11598 0.12623 0.32674
0.053153999 0.076390997 0.33309999
0.10564 0.11959 0.34079999
0.10462 0.11933 0.34097001
0.10467 0.11874 0.34143999
0.089831002 0.17629001 0.2784
0.089423999 0.17728999 0.27972999
0.087952003 0.17634 0.27829999
0.059006002 0.077073999 0.33561999
0.058357 0.076950997 0.33579999
0.054726999 0.091002002 0.3371
0.055351 0.090954997 0.33783001
0.054182 0.091859996 0.33715999
0.073665999 0.10076 0.34634
0.072648004 0.099666998 0.34646001
0.072360002 0.098861001 0.34632
0.072627001 0.070017003 0.34038001
0.071057998 0.072029002 0.34145001
0.070809998 0.070354 0.34079
0.053957999 0.083123997 0.33645999
0.054359 0.086198002 0.33537999
0.053897001 0.085506 0.33532
0.056015 0.1021 0.33686
0.056056 0.10345 0.33638
0.074023999 0.12431 0.33899999
0.11412 0.096616 0.34029999
0.059175 0.078316003 0.33724999
0.055697002 0.083062001 0.33614999
0.057184 0.070625998 0.33478001
0.056299999 0.072062001 0.33524999
0.055645 0.070949003 0.33374
0.057432 0.072968997 0.33544999
0.055684 0.072783999 0.33517
0.056131002 0.071056999 0.33502001
0.064538002 0.13217001 0.32541999
0.013637 0.14842001 0.26122001
0.013976 0.14973 0.26052999
0.01367 0.14917 0.26023999
0.014237 0.15014 0.26082
0.028543999 0.16745 0.26030001
0.093024999 0.19426 0.271
0.092563003 0.19400001 0.27102
0.092459001 0.19267 0.27092999
0.10931 0.1929 0.27627999
0.10773 0.1921 0.27728999
0.10769 0.19137 0.27748999
0.072105996 0.10944 0.34608001
0.072194003 0.10728 0.34599999
0.053817999 0.11605 0.32497001
0.072760001 0.10436 0.34671
0.072547004 0.10432 0.34718001
0.072581001 0.10564 0.34626001
0.072329998 0.071543999 0.34246999
0.072081998 0.07282 0.34312001
0.071689002 0.073867001 0.34182999
0.099409997 0.096533 0.34795001
0.10061 0.095574997 0.34843001
0.053304002 0.090800002 0.33594999
0.054205999 0.090853997 0.33673999
0.052428 0.091975003 0.33625001
0.061900001 0.12689 0.32407999
0.062063999 0.12661999 0.32495999
0.071664996 0.085849002 0.34452999
0.069940999 0.085896 0.34412
0.070602 0.083768003 0.34369001
0.054106001 0.095141001 0.33614001
0.054451 0.096520998 0.33603999
0.053043 0.095345996 0.33548
0.054237999 0.091989003 0.33570999
0.054037001 0.092913002 0.3362
0.053745002 0.093482003 0.33623999
0.099798001 0.18513 0.27772999
0.099707998 0.18613 0.27614
0.083215997 0.178 0.27566001
0.082370996 0.17837 0.27412999
0.081836998 0.17642 0.27632999
0.083639003 0.070013002 0.34485
0.082030997 0.070064001 0.34433001
0.082304999 0.068057999 0.34452999
0.083324999 0.069022998 0.34444001
0.083168998 0.067984 0.34362999
0.1143 0.19149999 0.27630001
0.11432 0.19261999 0.27654999
0.1134 0.19068 0.27761999
0.10918 0.1068 0.34237999
0.10837 0.10861 0.34301999
0.10857 0.10754 0.34355
0.058926001 0.080358997 0.33774
0.11248 0.12653001 0.33074999
0.058325 0.081606999 0.33745
0.02012 0.16504 0.24718
0.020364 0.16329999 0.24822
0.014051 0.14768 0.26293999
0.014453 0.14625999 0.26188999
0.015377 0.14940999 0.26157999
0.015361 0.15053 0.26120001
0.092817999 0.19541 0.27157
0.092194997 0.19498 0.27224001
0.098102003 0.17851999 0.27410999
0.098146997 0.17802 0.27551001
0.096294999 0.17743 0.27482
0.083246 0.065518998 0.34263
0.10813 0.10878 0.34327
0.055810001 0.1042 0.33717
0.053236999 0.082454003 0.33454999
0.054646999 0.082166001 0.33475
0.053851001 0.084004998 0.33463001
0.024527 0.16046 0.26194999
0.080036998 0.1076 0.34874001
0.079847001 0.10893 0.34858999
0.079623997 0.1083 0.34898001
0.06882 0.10214 0.34549001
0.069937997 0.10187 0.3452
0.069655001 0.10273 0.34549999
0.066343002 0.13112999 0.32677001
0.073466003 0.13101999 0.33397001
0.072238997 0.13012999 0.3346
0.093878999 0.19093999 0.27131
0.092203997 0.19024 0.26995999
0.092735998 0.18957999 0.27037001
0.015821001 0.13268 0.26508
0.015451 0.13421001 0.26503
0.014292 0.14511999 0.26414999
0.013706 0.14532 0.26247999
0.014812 0.14613 0.26321
0.016077001 0.14808001 0.26337999
0.015521 0.14935 0.26159
0.015132 0.15121999 0.26185
0.016789 0.15199 0.26161
0.088583998 0.080996998 0.34865999
0.10939 0.060493998 0.34586999
0.1095 0.061445002 0.34843999
0.060059998 0.16373999 0.26089999
0.059946001 0.16463 0.26144999
0.073932 0.11332 0.34599999
0.074782997 0.11258 0.34595001
0.074409999 0.11375 0.34535
0.070459001 0.10337 0.34525999
0.070322998 0.10342 0.34514001
0.048873 0.13857 0.27155
0.048655 0.13907 0.27175999
0.052958999 0.095578998 0.33557999
0.097498998 0.19819 0.27375001
0.097505003 0.19664 0.27261001
0.10077 0.18388 0.28018001
0.099993996 0.18547 0.27829
0.099797003 0.18379 0.27836001
0.10883 0.18455 0.27748001
0.070028 0.12292 0.33761999
0.036136001 0.052767999 0.30357999
0.066776 0.17605001 0.26295999
0.01531 0.13515 0.26605999
0.014826 0.13691001 0.26637
0.01532 0.13756999 0.26552001
0.014754 0.14013 0.26557001
0.01446 0.13963 0.26499
0.033025999 0.057760999 0.2809
0.031562999 0.057482 0.28029999
0.014767 0.14126 0.26598001
0.015106 0.14214 0.2656
0.016070999 0.14363 0.26391
0.016492 0.14582001 0.26328
0.015756 0.14714 0.26366001
0.017130001 0.14787 0.26249
0.016301 0.14926 0.26241001
0.017808 0.15062 0.26260999
0.016612001 0.15227 0.26043001
0.017170001 0.15399 0.26119
0.017085001 0.15528999 0.26170999
0.068558 0.15846001 0.25330999
0.082419001 0.071258999 0.34553999
0.081419997 0.071704 0.34549001
0.080003999 0.077855997 0.34746
0.079104997 0.077886 0.34693
0.078746997 0.075967997 0.34746
0.075909004 0.064214997 0.34088999
0.075516 0.065981001 0.34086999
0.075520001 0.064846002 0.34040001
0.075998001 0.064126 0.34004
0.073890001 0.094094999 0.34720999
0.071811996 0.075626001 0.34279999
0.07339 0.094306998 0.34704
0.072205998 0.096185997 0.34624001
0.11829 0.12404 0.32497001
0.11914 0.12268 0.32567999
0.063822001 0.063078001 0.33230999
0.064231001 0.062980004 0.33245
0.063359998 0.064094 0.33344001
0.052301999 0.091372997 0.33493
0.051922001 0.088827997 0.33521
0.05288 0.088487998 0.33474001
0.052333001 0.091980003 0.3348
0.016248001 0.13174 0.26352999
0.01674 0.13229001 0.26466
0.016199 0.13387001 0.2656
0.015830999 0.13541999 0.26581001
0.015564 0.13714001 0.26526001
0.015783001 0.13857999 0.26578999
0.01608 0.13922 0.26561999
0.016539 0.14105 0.26655
0.016372001 0.14263999 0.26484999
0.016571 0.14339 0.26536
0.017550001 0.14545 0.26427001
0.017043 0.14675 0.26418999
0.017794 0.14819001 0.26288
0.01788 0.14978001 0.26256001
0.018438 0.1507 0.26222
0.01822 0.15256999 0.26216999
0.018461 0.15341 0.26238999
0.017632 0.15464 0.26106
0.057778999 0.083076999 0.33785
0.073904999 0.13356 0.333
0.072020002 0.13236 0.3328
0.081657998 0.073095001 0.34564
0.081329003 0.073679999 0.34608999
0.079669997 0.11763 0.34465
0.080172002 0.11795 0.34432
0.078630999 0.11875 0.34360999
0.075668 0.18388 0.26653001
0.074427001 0.18402 0.26651999
0.079127997 0.13209 0.33713999
0.078371003 0.13213 0.33622
0.085556 0.11239 0.34863999
0.087476 0.11215 0.34777999
0.086125001 0.11331 0.34786999
0.077959999 0.13168 0.33767
0.061942 0.071310997 0.33823001
0.062066998 0.073347002 0.33945
0.061748002 0.073150001 0.33719999
0.080132 0.18277 0.26721001
0.080315001 0.18386 0.26765001
0.033771999 0.057489 0.28176001
0.079769999 0.17701 0.27017
0.080251001 0.17874999 0.26881
0.078855 0.17814 0.26962
0.051945001 0.079258002 0.33379
0.073302999 0.093640998 0.34678999
0.072628997 0.095048003 0.34638
0.027197 0.12764999 0.25915
0.028240999 0.12669 0.25841001
0.081506997 0.18235999 0.26802
0.061673 0.074943997 0.33668
0.062077999 0.075230002 0.33859
0.061246 0.07615 0.33807001
0.090876997 0.19419999 0.27065
0.091756001 0.19196001 0.27035999
0.098107003 0.079860002 0.35817
0.054003 0.082052 0.33506
0.099399999 0.069613002 0.35703
0.089105003 0.12092 0.34551999
0.089142002 0.12146 0.34426999
0.088466004 0.12266 0.34417
0.062458999 0.085665002 0.33972999
0.062900998 0.085357003 0.34132999
0.061776001 0.086984001 0.34029001
0.053367998 0.10099 0.33533001
0.072360002 0.068356 0.3405
0.070748001 0.068953 0.33961001
0.071814001 0.067098998 0.33930999
0.10254 0.19271 0.27498999
0.10198 0.19322 0.27423
0.10155 0.1938 0.27441999
0.018269001 0.12989999 0.26253
0.017992999 0.13083 0.26458001
0.017488001 0.13 0.26323
0.018134 0.13237999 0.26523
0.017263999 0.13395 0.26642999
0.016386 0.13482 0.26734
0.016316 0.13681 0.26677001
0.017029 0.13871001 0.26712999
0.01722 0.13978 0.26625001
0.016698999 0.14131001 0.26638001
0.018126 0.14210001 0.26539999
0.017626001 0.14334001 0.26543999
0.018895 0.14618 0.2649
0.018237 0.14668 0.26350001
0.018541999 0.14845 0.26361001
0.018130001 0.14878 0.26289999
0.018493 0.1506 0.26297
0.018552 0.15229 0.26234001
0.019107001 0.15441 0.26236001
0.019478001 0.15522 0.26203999
0.019052001 0.15622 0.26231
0.070054002 0.15343 0.24665999
0.078011997 0.11811 0.34430999
0.10742 0.10646 0.34412
0.10767 0.1079 0.34356001
0.10674 0.10552 0.34481999
0.082566001 0.074840002 0.34671
0.081143998 0.075014003 0.34696001
0.081216998 0.094887003 0.34902999
0.079878002 0.093998 0.34931999
0.080124997 0.093838997 0.34867001
0.086222999 0.11144 0.34832001
0.085487999 0.11141 0.34812
0.091539003 0.082194999 0.34895
0.091429003 0.10118 0.34979999
0.091169998 0.099701002 0.34981
0.078726001 0.097465999 0.34889001
0.077358998 0.099064 0.34843001
0.082179002 0.18216 0.26826999
0.082865 0.18392 0.26811001
0.082085997 0.18387 0.26688999
0.057456002 0.075640999 0.33570001
0.057495002 0.077177003 0.33579999
0.10229 0.097828001 0.34746999
0.10174 0.097144 0.34801
0.057746999 0.077696003 0.33597001
0.080600999 0.18038 0.26749
0.078451999 0.13590001 0.33373001
0.079742 0.13318001 0.33500999
0.078367002 0.13343 0.33537999
0.071795002 0.074501 0.34402001
0.066505998 0.079325996 0.34149
0.067267999 0.078959003 0.34198001
0.066811003 0.081358001 0.34093001
0.029362001 0.12694 0.26076999
0.080902003 0.18516999 0.26739001
0.080225997 0.18382999 0.26679
0.080095001 0.17896999 0.26833001
0.058669999 0.084128998 0.33823001
0.074974999 0.086672001 0.34546
0.074743003 0.088891 0.34667999
0.073674999 0.088131003 0.34518
0.059239998 0.085130997 0.3382
0.057863001 0.085676998 0.33829999
0.058125 0.086884998 0.33787
0.058272 0.087715998 0.33818999
0.056859002 0.088601999 0.33809999
0.058371 0.089341 0.33882999
0.057486001 0.089677997 0.33879
0.018193999 0.13116001 0.26460999
0.018657001 0.13019 0.26236999
0.017534001 0.12935001 0.26186001
0.019584 0.12852 0.26214999
0.018897001 0.1329 0.26543999
0.018200001 0.13473 0.26629999
0.018331001 0.13564 0.26684001
0.017890999 0.13782001 0.26780999
0.018443 0.13789 0.26721001
0.017752999 0.13970999 0.26738
0.017641 0.14072999 0.26677999
0.018139999 0.14286 0.26605999
0.018685 0.14396 0.2651
0.019761 0.14509 0.2649
0.019597 0.14670999 0.264
0.019898999 0.1478 0.26431
0.020610999 0.1495 0.26284999
0.019507 0.15048 0.26315999
0.019598 0.15237001 0.26291999
0.020368 0.15426999 0.26223001
0.020701 0.1549 0.26188001
0.020509999 0.15632001 0.26273
0.020068999 0.15888 0.26163
0.080390997 0.093317002 0.34906
0.090968996 0.10279 0.34951001
0.091591999 0.10278 0.34939
0.090314999 0.10128 0.35010001
0.086116999 0.10629 0.34865001
0.086234003 0.10885 0.34935999
0.085092999 0.10867 0.34979999
0.082757004 0.18582 0.26730999
0.082365997 0.18513 0.26767999
0.10042 0.18001001 0.27662
0.058846001 0.15391999 0.26388001
0.10212 0.067405999 0.35679001
0.028564001 0.058293998 0.27612001
0.046507999 0.15391 0.26688999
0.046232998 0.15282001 0.26657
0.047331002 0.15365 0.26618999
0.092247002 0.090233997 0.34961
0.091876999 0.092809997 0.34968999
0.091266997 0.089887001 0.34902999
0.079051003 0.10707 0.34856001
0.077005997 0.10785 0.34816
0.086649999 0.11013 0.34794
0.091590002 0.093216002 0.34895
0.090314999 0.093266003 0.34915999
0.089184001 0.065009996 0.35082999
0.087415002 0.12207 0.34445
0.087420002 0.12334 0.34356001
0.090616003 0.084021002 0.34865999
0.091112003 0.084978998 0.34839001
0.092768997 0.089598998 0.34975001
0.090866998 0.089527003 0.34939
0.090842001 0.087279998 0.34955999
0.091530003 0.086065002 0.34920001
0.090008996 0.086874001 0.34850001
0.092422999 0.088078 0.34897
0.090589002 0.091785997 0.34926
0.078708 0.17693 0.27281001
0.078256004 0.10981 0.34928
0.078762002 0.10924 0.34816
0.077816002 0.11091 0.34772
0.057698 0.16170999 0.26166999
0.10398 0.096378997 0.34731999
0.10192 0.069700003 0.35793999
0.10227 0.070951998 0.35848999
0.10169 0.072535999 0.35922
0.071094997 0.12287 0.3373
0.019904001 0.13093001 0.26402
0.020197 0.13028 0.26266
0.019386001 0.13222 0.26530001
0.018561 0.13481 0.26563999
0.018049 0.13587999 0.26762
0.019376 0.1371 0.26661
0.01918 0.13794 0.26763001
0.01849 0.14026 0.2669
0.019135 0.14125 0.26719999
0.019270999 0.14242999 0.26627001
0.019894 0.14406 0.26638001
0.019504 0.14497 0.2658
0.019756 0.14703999 0.26436001
0.020496 0.1478 0.26365
0.020476 0.14884999 0.26330999
0.02076 0.15073 0.26264
0.020427 0.15275 0.26247001
0.020144001 0.15353 0.26308
0.021162 0.15527 0.26273999
0.021224 0.15696999 0.26229
0.020589 0.15829 0.26176
0.021658 0.15836 0.26161999
0.021741999 0.16099 0.26126
0.020377001 0.1603 0.26023999
0.081517003 0.096515 0.34913999
0.058177002 0.091123 0.33943999
0.057459999 0.090623997 0.33822
0.086158 0.10038 0.34951001
0.086709999 0.099753 0.34895
0.084684998 0.10236 0.35062999
0.086577997 0.10221 0.35005999
0.086379997 0.10317 0.34946001
0.085314997 0.1029 0.34865001
0.092088997 0.10478 0.34935001
0.091164999 0.10436 0.34931999
0.092355996 0.10667 0.34838
0.10227 0.073835 0.35901001
0.10175 0.074074 0.35953999
0.084905997 0.10667 0.34896001
0.092606999 0.10571 0.34909999
0.090855002 0.10661 0.34909001
0.084756002 0.10857 0.34889999
0.10628 0.0973 0.34575999
0.10511 0.097044997 0.34584999
0.10525 0.096023999 0.34577
0.088471003 0.12601 0.34265
0.089151002 0.12592 0.34327
0.049033999 0.11453 0.32508001
0.088803999 0.12467 0.3441
0.088095002 0.12493 0.34378999
0.087530002 0.12042 0.3452
0.088739999 0.12071 0.34597999
0.092344999 0.096377999 0.34942999
0.091017999 0.096579999 0.34878001
0.090875998 0.094925001 0.34935001
0.088768996 0.1185 0.34551001
0.092561997 0.095261998 0.34933001
0.090674996 0.097511001 0.34966999
0.091193996 0.097106002 0.35034001
0.091306999 0.098555997 0.35027
0.099812999 0.094284996 0.34841001
0.061074 0.076297998 0.33733001
0.063833997 0.056855999 0.33219001
0.064668998 0.056338999 0.33316001
0.063598 0.057985 0.33335
0.022172 0.13118 0.26457
0.021012001 0.13003001 0.26350999
0.10066 0.063662 0.35418999
0.098691002 0.063280001 0.35196999
0.10089 0.062737003 0.35231999
0.021116 0.13266 0.26572999
0.020785 0.13443001 0.26653999
0.02052 0.13584 0.26629001
0.020652 0.13692001 0.26668
0.020683 0.13869999 0.26730001
0.020142 0.14044 0.26750001
0.020062 0.14076 0.26721001
0.020176999 0.14241999 0.26666
0.020950001 0.14445999 0.26668999
0.020863 0.14563 0.26539001
0.021283999 0.14662001 0.26422
0.022146 0.14799 0.26403999
0.021943999 0.14935 0.26361001
0.021846 0.15096 0.26260999
0.021911001 0.15257999 0.26339999
0.022066999 0.15414999 0.26300001
0.022648999 0.15507001 0.26234001
0.022203 0.15655001 0.26284999
0.022841999 0.15843 0.2622
0.022391001 0.15933999 0.26262999
0.022678001 0.16101 0.26080999
0.086542003 0.098888002 0.34952
0.084890001 0.099458002 0.34942999
0.091424003 0.10758 0.34897
0.090985999 0.10979 0.34755999
0.075042002 0.077987 0.34573999
0.075765997 0.078953996 0.34483001
0.073509 0.078874998 0.34503001
0.087889001 0.084155999 0.34906
0.085835002 0.084466003 0.34944999
0.082625002 0.19007 0.26910999
0.081198998 0.18767001 0.26822001
0.10203 0.076223999 0.35993001
0.10145 0.077474996 0.35960001
0.10165 0.078837998 0.35995999
0.094394997 0.10562 0.34926999
0.085098997 0.10559 0.34955001
0.091737002 0.10787 0.34792
0.081987999 0.075744003 0.34676
0.081344999 0.076159 0.34715
0.080835 0.077624001 0.34748
0.080591001 0.077867001 0.34828001
0.081211999 0.081462003 0.34841001
0.080352001 0.081643999 0.34849
0.080761001 0.079389997 0.34784999
0.081704997 0.078928001 0.34821001
0.080792002 0.078038998 0.34821999
0.080790997 0.080355003 0.34841999
0.081716001 0.082732998 0.34913
0.080417 0.083217002 0.34852001
0.081339002 0.084452003 0.34852001
0.080522999 0.084620997 0.34806001
0.079961002 0.085286997 0.34839001
0.081637003 0.085367002 0.34939
0.086248003 0.11929 0.34599999
0.081528001 0.087572999 0.34920999
0.080820002 0.086732 0.34850001
0.087412 0.11721 0.34637001
0.087095998 0.11772 0.34606001
0.085805997 0.11604 0.34626001
0.086055003 0.11523 0.34704
0.086093999 0.097657003 0.34964001
0.085000999 0.097921997 0.34856001
0.069085002 0.1023 0.34581
0.068861 0.10262 0.34581
0.10111 0.081315003 0.36035001
0.022721 0.13102999 0.26424
0.022942999 0.12993 0.26363
0.021631001 0.13237 0.2658
0.021774 0.13462999 0.26640999
0.022096001 0.13461 0.26683
0.020957001 0.13616 0.26699999
0.020710999 0.13818 0.26653001
0.021675 0.1388 0.26655999
0.020778 0.14095999 0.26705
0.021769 0.14193 0.26625001
0.020855 0.1434 0.26605001
0.021872999 0.14567 0.26547
0.022512 0.14681999 0.26416001
0.023195 0.1481 0.26427001
0.022234 0.14936 0.26348999
0.022775 0.15053 0.26301
0.022665 0.15364 0.26328999
0.022915 0.15327001 0.26243001
0.023955001 0.15486 0.26291999
0.023514999 0.15685 0.26231
0.022814 0.15847 0.26243001
0.023317 0.15953 0.26251999
0.024 0.15994 0.26168999
0.026342001 0.16026001 0.26205
0.10772 0.097174004 0.34457999
0.10657 0.098088004 0.34496999
0.086632997 0.092413999 0.34880999
0.084429003 0.092437997 0.34919
0.084674001 0.091283001 0.34924999
0.092780001 0.17713 0.27928999
0.096306004 0.19374 0.27232
0.096245997 0.19489001 0.27225
0.095937997 0.19385 0.27279001
0.088284001 0.085339002 0.34924001
0.10147 0.081752002 0.36036
0.10154 0.082833 0.35984001
0.096078001 0.079882003 0.35800001
0.057861 0.092349 0.33998001
0.089748003 0.11069 0.34843001
0.090277001 0.11191 0.34821001
0.092448004 0.10923 0.34834999
0.029332001 0.060789 0.27575001
0.082153998 0.097404003 0.34891
0.085626997 0.10582 0.34876999
0.076975003 0.11475 0.34656999
0.079498 0.11449 0.34581
0.077647001 0.11572 0.34573999
0.079273 0.11655 0.34488001
0.056191001 0.15812001 0.26197001
0.056481 0.1618 0.26197001
0.057016 0.16001 0.26186001
0.080583997 0.12988999 0.34011999
0.081537001 0.12927 0.34028
0.081727996 0.12980001 0.33873999
0.10608 0.11152 0.34305999
0.1054 0.11334 0.34294
0.10545 0.11121 0.34461999
0.080936998 0.12804 0.34064001
0.080977 0.12867001 0.34011999
0.080186002 0.12716 0.34123999
0.081793003 0.12658 0.34136999
0.082562998 0.13134 0.34000999
0.079425998 0.1259 0.34143999
0.081099004 0.12538999 0.34211999
0.080555998 0.12479 0.34231001
0.080760002 0.12439 0.34164
0.081308998 0.088939004 0.34897
0.080151998 0.089997999 0.34832999
0.079704002 0.088294998 0.34825999
0.079485998 0.12187 0.34308001
0.080339998 0.12196 0.34432
0.080467999 0.12346 0.34319001
0.081666 0.088362999 0.34906
0.080851004 0.090830997 0.34849
0.079837002 0.091560997 0.34832001
0.081078999 0.091973998 0.34926999
0.079836003 0.092049003 0.34878999
0.086521 0.095077001 0.34904
0.086634003 0.096199997 0.34957001
0.085763998 0.095314004 0.34988001
0.085421003 0.096579999 0.34924999
0.07745 0.12985 0.33728001
0.10181 0.084294997 0.35962999
0.023778999 0.13086 0.26438999
0.023707001 0.12997 0.26258999
0.022983 0.12922999 0.26140001
0.023298999 0.13240001 0.26499999
0.02224 0.13411 0.26705
0.021818999 0.13425 0.26683
0.022539999 0.13681 0.26694
0.022042001 0.13833 0.26747
0.021841999 0.13961001 0.26714
0.022565 0.14139 0.26688999
0.02258 0.14207 0.26633
0.022651 0.14361 0.26569
0.023172 0.14493001 0.26526001
0.023448 0.14704999 0.26521999
0.023691 0.14741001 0.26453
0.024591001 0.14997999 0.26363
0.023881 0.15105 0.26247001
0.024022 0.15302999 0.26343
0.024173999 0.15394001 0.26262999
0.024642 0.15504 0.26324001
0.024728 0.15651999 0.26253
0.024788 0.15838 0.26249
0.023932001 0.15925001 0.26210999
0.079924002 0.16757999 0.26196
0.080918998 0.16944 0.26273
0.079527996 0.16794001 0.26357001
0.02695 0.16652 0.26012999
0.086584002 0.089100003 0.3495
0.085738003 0.091247998 0.34988999
0.085089996 0.089541003 0.34931001
0.064911999 0.10538 0.34248
0.064023003 0.10525 0.34257001
0.067593999 0.079143003 0.34127
0.066744 0.079095997 0.34239
0.067299999 0.076917 0.34165999
0.095559999 0.074408002 0.35773
0.095578998 0.073964998 0.35828999
0.038756002 0.13228001 0.26975
0.10164 0.086094998 0.35712999
0.10849 0.097171001 0.34469
0.10905 0.097089 0.34369001
0.085804 0.10464 0.34926
0.085004002 0.10399 0.34843001
0.075924002 0.1345 0.33289
0.074957997 0.13643999 0.33298999
0.073446997 0.13389 0.33333999
0.080705002 0.099402003 0.34845999
0.080003999 0.098690003 0.34828001
0.077473998 0.1134 0.34639999
0.078656003 0.11297 0.34740001
0.10599 0.18796 0.27818
0.10507 0.19050001 0.2773
0.10574 0.18686 0.27932
0.10458 0.18679 0.27857
0.10635 0.18980999 0.27761999
0.10644 0.19019 0.27673
0.10652 0.19045 0.27671
0.10559 0.19255 0.27612999
0.10669 0.19322 0.27594
0.10618 0.19411001 0.27586001
0.10685 0.19399001 0.27618
0.10792 0.19632 0.27522001
0.10752 0.1956 0.27555999
0.1078 0.1969 0.27605999
0.10682 0.19724999 0.27555999
0.10793 0.1981 0.27443001
0.10693 0.19867 0.27462
0.080145001 0.12303 0.34257001
0.10605 0.20017999 0.27408999
0.078988001 0.12123 0.34334001
0.079464003 0.11988 0.34428
0.078086004 0.10516 0.34851
0.077267997 0.10638 0.34804001
0.076854996 0.10449 0.34867999
0.078270003 0.10742 0.34799999
0.076777004 0.10738 0.34786999
0.080626003 0.10442 0.34878001
0.080588996 0.10557 0.34911001
0.079549 0.10447 0.34816
0.080911003 0.10727 0.34889999
0.081359997 0.10866 0.34847999
0.086176001 0.093268 0.34968001
0.085580997 0.094329998 0.34865001
0.077335998 0.17337 0.27184999
0.077526003 0.17478999 0.27144
0.076580003 0.17314 0.27061999
0.095487997 0.076352 0.35857999
0.086273998 0.17727999 0.27757999
0.024919 0.13123 0.26388001
0.024807001 0.12958001 0.26269001
0.024156 0.13038 0.2617
0.023923 0.13269 0.26537001
0.023084 0.13334 0.26701
0.023048 0.13510001 0.26675001
0.023250001 0.13631999 0.26694
0.023321999 0.13828 0.26747
0.024269 0.14008 0.26642001
0.023495 0.14055 0.26710999
0.023777001 0.14292 0.26655
0.023879001 0.14418 0.26639
0.024595 0.14546999 0.26594001
0.024184 0.14650001 0.26504999
0.024907 0.14813 0.26385999
0.025335999 0.14959 0.26297
0.025083 0.15121 0.26297
0.025549 0.15207 0.26348999
0.025488 0.15440001 0.2622
0.024789 0.15536 0.26218
0.025374001 0.15572999 0.26238999
0.026256001 0.15806 0.26317999
0.026076 0.15914001 0.26324001
0.026647 0.16088 0.26210999
0.026224 0.16298001 0.26216
0.070991002 0.056065999 0.33733001
0.069366001 0.056417 0.33744001
0.092289999 0.18659 0.27068001
0.092312999 0.18852 0.27103001
0.090484001 0.18651 0.27050999
0.095055997 0.18279 0.27520001
0.093243003 0.1811 0.27697
0.096423998 0.068582997 0.35646001
0.095770001 0.071776003 0.35769001
0.056965999 0.093877003 0.34031999
0.1126 0.064894997 0.3506
0.11198 0.062804997 0.34935001
0.096403003 0.070923001 0.35758999
0.057824001 0.072010003 0.33581001
0.086575001 0.087462999 0.34909001
0.085413001 0.087808996 0.34911001
0.080964997 0.10048 0.34839001
0.077544004 0.11246 0.34703001
0.078155003 0.11253 0.34683999
0.093506999 0.17927 0.28005999
0.092727996 0.17897999 0.27851999
0.10476 0.18848 0.27781999
0.10414 0.18978 0.27706
0.10409 0.18968 0.27680999
0.058449998 0.094737999 0.34077999
0.10466 0.19134 0.27674001
0.10462 0.19140001 0.27682
0.055139001 0.10562 0.33665001
0.056003999 0.10555 0.33649001
0.057746001 0.097153999 0.34011999
0.10483 0.19943 0.27437001
0.11583 0.080416001 0.3563
0.1045 0.19832 0.27472001
0.10594 0.19947 0.27484
0.10491 0.19679999 0.27415001
0.10559 0.19687 0.27480999
0.10693 0.20185 0.27395001
0.10375 0.19611 0.27476001
0.10556 0.19539 0.27454999
0.10369 0.19295999 0.27456999
0.10481 0.19243 0.27632999
0.1044 0.19415 0.27449
0.063161999 0.16391 0.26124999
0.062685996 0.16359 0.26087999
0.10846 0.19967 0.27388
0.10849 0.19919001 0.27495
0.057287998 0.097742997 0.33970001
0.07666 0.10576 0.34913999
0.077018 0.10885 0.34751999
0.079674996 0.10583 0.34952
0.093438998 0.10929 0.34836
0.055077001 0.092377 0.33752999
0.054873001 0.093717001 0.33722001
0.060664002 0.10735 0.33794999
0.060196999 0.10635 0.33954999
0.059689999 0.10579 0.33774
0.025978999 0.12905 0.2613
0.026583999 0.12820999 0.2604
0.027388001 0.12978999 0.26196
0.025847999 0.12812001 0.26072001
0.026488001 0.13101999 0.26376
0.025645001 0.13144 0.26508999
0.025455 0.13409001 0.26552999
0.024746001 0.1357 0.26646999
0.025359999 0.13661 0.26684999
0.024954 0.13744 0.26745
0.024708999 0.13971999 0.26668
0.024769001 0.14105 0.26686999
0.023846 0.14261 0.26609999
0.024618 0.14331 0.26622
0.024713 0.14551 0.26535001
0.025568999 0.14757 0.26554999
0.026578 0.148 0.2633
0.027000001 0.14854001 0.26365
0.027194001 0.15095 0.26343
0.026368 0.15299 0.26192999
0.026520001 0.15387 0.26304001
0.027011 0.15493999 0.26346999
0.026887 0.15649 0.26337999
0.026449 0.15797 0.26361001
0.026319001 0.15937001 0.26231
0.051746 0.098328002 0.33412001
0.074311003 0.13188 0.33364001
0.097891003 0.18374 0.27768001
0.061445002 0.078928001 0.33871999
0.063213997 0.078759998 0.33919999
0.061914999 0.079759002 0.33947
0.058336999 0.074368 0.33541
0.056816 0.072788998 0.33544001
0.096455999 0.068026997 0.35657999
0.070900001 0.083873004 0.34404001
0.073050998 0.082625002 0.34450999
0.073647 0.082060002 0.34492001
0.079080001 0.10386 0.34915
0.067525998 0.075769998 0.34191
0.067708001 0.076339997 0.34130999
0.066642001 0.074648 0.34156999
0.068158001 0.073434003 0.34057999
0.067899004 0.074395999 0.34153
0.066661 0.073390998 0.34051999
0.097526997 0.066491 0.35580999
0.075714 0.12192 0.34116
0.085271999 0.086863004 0.34908
0.086544998 0.086609997 0.34839001
0.080798998 0.10104 0.34898999
0.077242002 0.10405 0.34838
0.076521002 0.1032 0.34863001
0.080906004 0.10306 0.34886
0.080164999 0.10386 0.34854999
0.10391 0.18809 0.27770999
0.10286 0.18652999 0.27717
0.055296998 0.074270003 0.33506
0.056611001 0.074578002 0.33598
0.056005001 0.07559 0.33458
0.070308 0.10793 0.34485999
0.071082003 0.11012 0.34496
0.069908999 0.10851 0.34413999
0.069149002 0.10648 0.34470001
0.070706002 0.10726 0.34514001
0.071703002 0.11022 0.34434
0.069637001 0.1115 0.3443
0.069905996 0.10941 0.34424001
0.071653999 0.11246 0.34395
0.070049003 0.112 0.34369001
0.071043 0.11444 0.34384
0.071586996 0.11454 0.34384999
0.071483001 0.11456 0.34321001
0.070721 0.11498 0.34285
0.072164997 0.11656 0.34252
0.070152998 0.1166 0.3425
0.071987003 0.11799 0.34191999
0.0713 0.11758 0.34119999
0.072921 0.11893 0.34127
0.071565002 0.11953 0.34136
0.10483 0.19365001 0.27575999
0.12102 0.081827998 0.34895
0.077439003 0.066854998 0.34187999
0.077999003 0.066926003 0.34184
0.077248998 0.068640999 0.34276
0.068301998 0.16558 0.26383999
0.069324002 0.16451 0.26264
0.070372999 0.16613001 0.26344001
0.077191003 0.066632003 0.34174001
0.077634998 0.065287001 0.34165001
0.077469997 0.11012 0.34685999
0.029079 0.12784 0.26052001
0.028315 0.12864999 0.2617
0.027037 0.13106 0.26350999
0.026567999 0.13191999 0.26493999
0.026595 0.13335 0.26598001
0.026224 0.13571 0.26596999
0.02551 0.13668001 0.26679
0.025881 0.13816001 0.26745
0.026393 0.13982999 0.26693001
0.025497001 0.14044 0.26626
0.026898 0.14205 0.26626
0.026234999 0.14322001 0.26725999
0.02588 0.14559001 0.26541999
0.026821001 0.14679 0.26468
0.026870999 0.14832 0.26381001
0.027401 0.14906999 0.26339999
0.027836001 0.15104 0.26299
0.027872 0.15256999 0.26295
0.028343 0.15424 0.26311001
0.027883001 0.15436999 0.26271999
0.027132999 0.15618999 0.26241001
0.027071999 0.15858001 0.26227999
0.027365001 0.15944 0.26337001
0.027860999 0.16068999 0.26278999
0.027729999 0.16148999 0.26247001
0.10448 0.18567 0.27985001
0.11689 0.071392998 0.35289001
0.1175 0.072301 0.35292
0.11589 0.071060002 0.35357001
0.062054001 0.069045 0.33498001
0.062159002 0.06859 0.33586001
0.060823999 0.070280999 0.33598
0.097592004 0.064857997 0.35499001
0.078397997 0.095535003 0.34839001
0.079185002 0.093910001 0.34841001
0.091779999 0.19072001 0.27116001
0.084021002 0.18424 0.26842999
0.083930001 0.1842 0.26824
0.083490998 0.18194 0.26912001
0.084734 0.18213999 0.26947999
0.083178997 0.18087 0.26958001
0.068115003 0.081459999 0.3416
0.067973003 0.082502 0.34169999
0.067351997 0.083068997 0.34130999
0.085545003 0.085143 0.35027
0.05672 0.10519 0.33704999
0.057477999 0.10708 0.3369
0.081299998 0.10944 0.34873
0.081681997 0.10992 0.34828001
0.057223 0.075815 0.33574
0.056967001 0.077097997 0.33421999
0.055992998 0.076701 0.33489999
0.078120999 0.061274 0.34055001
0.094607003 0.18848 0.27158001
0.093148999 0.18795 0.27105999
0.093708001 0.18651 0.27184999
0.10388 0.18640999 0.27869999
0.089937001 0.17818999 0.27965
0.098865002 0.18378 0.27794001
0.10977 0.095645003 0.34344
0.098136 0.18244 0.2791
0.099021003 0.18198 0.27958
0.099505998 0.18059 0.28066999
0.062565997 0.1495 0.26282999
0.061781999 0.14972 0.26422
0.067764997 0.15617999 0.25215
0.11624 0.088119999 0.33693999
0.11637 0.088087998 0.33699
0.067859001 0.1603 0.25545001
0.067203 0.15994 0.25580001
0.11485 0.068554997 0.35310999
0.12088 0.078001 0.35043001
0.072091997 0.12026 0.34075999
0.072958998 0.12042 0.34062001
0.072492003 0.12113 0.3391
0.061413001 0.092295997 0.34200999
0.060504999 0.092105001 0.34099999
0.060286999 0.090657003 0.34117001
0.061191 0.096505001 0.34145999
0.060219001 0.09674 0.3416
0.077797003 0.069233 0.34330001
0.10522 0.084505998 0.35932001
0.1074 0.082162999 0.35931
0.078814 0.063823 0.34156999
0.077652 0.065094002 0.34096
0.07694 0.11157 0.34702
0.029304 0.12835 0.26297
0.028601 0.13036001 0.26244
0.027744001 0.13207 0.26532999
0.027210999 0.13331001 0.26486999
0.027515 0.13539 0.26592001
0.027102999 0.13689999 0.26655
0.027310001 0.13850001 0.26682001
0.027105 0.13943 0.26636001
0.027141999 0.14127 0.26694
0.027013 0.14159 0.2667
0.026645999 0.14337 0.26607001
0.028167 0.14557999 0.26539999
0.027174 0.14647 0.26506001
0.028664 0.1472 0.26460001
0.028184 0.14951999 0.26385999
0.028819 0.15096 0.26343
0.029201999 0.15233 0.26280001
0.028255999 0.15350001 0.26277
0.028291 0.15528999 0.26293001
0.029262999 0.15658 0.26302999
0.028453 0.15726 0.2622
0.028276 0.15966 0.26297
0.028935 0.16023999 0.26234999
0.028925 0.16271999 0.26262
0.029354 0.16347 0.26221001
0.030301999 0.16357 0.2626
0.10297 0.12253 0.33972001
0.10247 0.12439 0.33967
0.083727002 0.18803 0.26899001
0.082377002 0.18956 0.26837
0.082051001 0.18832 0.26844999
0.092559002 0.18539999 0.27212
0.092118002 0.18522 0.27177
0.057659 0.099509999 0.33849999
0.057069998 0.098745003 0.3389
0.082362004 0.17766 0.27322
0.083628997 0.18008 0.27123001
0.081485003 0.17827 0.27234
0.083907001 0.18055999 0.26977
0.081963003 0.17896999 0.27026001
0.12242 0.077875003 0.34646001
0.11817 0.086635999 0.35073
0.034786001 0.16788 0.26403001
0.035622001 0.1681 0.26442
0.080224998 0.17671999 0.27456
0.081955999 0.17624 0.27542001
0.081523001 0.17573 0.27519
0.071489997 0.077928998 0.34417999
0.070586003 0.07858 0.34316
0.072724998 0.059246998 0.33846
0.071451001 0.058559 0.33840999
0.087797999 0.18443 0.26954001
0.087724999 0.18539999 0.26912999
0.086760998 0.18677001 0.26873001
0.081690997 0.12216 0.34251001
0.082964003 0.12236 0.34353
0.081285 0.12415 0.34290001
0.084665999 0.082719997 0.34963
0.087240003 0.085721001 0.34872001
0.085496999 0.084077999 0.3495
0.081373997 0.11052 0.34887999
0.079801999 0.11193 0.34737
0.077549003 0.10013 0.34735999
0.076540001 0.10193 0.34850001
0.075703003 0.070092998 0.34272
0.076329999 0.071443997 0.34391999
0.10069 0.204 0.27351001
0.10152 0.20319 0.27344999
0.070637003 0.059002999 0.33847001
0.069597997 0.059234001 0.33750001
0.069844998 0.056938998 0.33719999
0.070289999 0.060520999 0.33761999
0.070520997 0.060231999 0.33866999
0.069783002 0.061216 0.33772001
0.070740998 0.062898003 0.33763
0.069758996 0.063216001 0.33758
0.070768997 0.062899999 0.33785999
0.071107998 0.065339997 0.33842
0.070638999 0.067353003 0.33805999
0.069568001 0.067521997 0.33897001
0.071405999 0.064425997 0.33794999
0.069856003 0.064053997 0.33700001
0.069623999 0.065613002 0.33772999
0.070262 0.068985999 0.33963999
0.064249001 0.15514 0.25994
0.070161 0.070307001 0.34046
0.068783 0.070899002 0.33989
0.056148 0.15832999 0.26203999
0.055194002 0.15832999 0.26339999
0.030323001 0.12658 0.26424
0.076369002 0.13506 0.33386999
0.076155998 0.13621999 0.33318001
0.065816998 0.056694001 0.33456001
0.066261999 0.058026001 0.33574
0.065438002 0.056775 0.33439001
0.11598 0.070409 0.35381001
0.074560001 0.13404 0.33349001
0.075255997 0.13358 0.33498001
0.058612 0.10037 0.33831999
0.056488 0.10067 0.33781999
0.078697003 0.062835 0.34127
0.077443004 0.063276999 0.34060001
0.02919 0.12789001 0.26135001
0.055613998 0.055146001 0.32314
0.030656001 0.12946001 0.26196
0.030065 0.13149001 0.26321
0.028533 0.13299 0.26433
0.029361 0.13417 0.26480001
0.028592 0.13545001 0.26607999
0.028829001 0.13572 0.26589999
0.028633 0.13858999 0.26763001
0.027727 0.13946 0.26688999
0.027993999 0.14157 0.26797
0.028077999 0.14232001 0.26655999
0.028408 0.14284 0.26699999
0.028516 0.14421 0.26570001
0.029243 0.14707001 0.26539001
0.029170001 0.14804 0.26471999
0.029959001 0.14939 0.26515001
0.029399 0.1512 0.26289999
0.029689999 0.15249 0.26339999
0.030431001 0.15391999 0.26212999
0.030161999 0.15481 0.26304001
0.030427 0.15620001 0.26271001
0.029395999 0.15824001 0.26245001
0.030492 0.15876 0.26262999
0.029956 0.16055 0.26304001
0.030277001 0.16216999 0.26354
0.091128998 0.18436 0.27303001
0.090846002 0.18446 0.27168
0.090419002 0.18234999 0.27263999
0.070525996 0.080118999 0.34344
0.07164 0.080793001 0.34424001
0.069773003 0.082268 0.34331
0.071570002 0.087737001 0.34371999
0.069803998 0.090691999 0.34343001
0.070004001 0.088393003 0.34253001
0.072318003 0.062132999 0.33928999
0.086051002 0.1957 0.27096
0.095472999 0.17782 0.27785
0.087959997 0.19775 0.27103001
0.049984999 0.13954 0.27239999
0.084371001 0.18535 0.26767999
0.084216997 0.18558 0.26662999
0.072885998 0.070873998 0.34139001
0.070511997 0.087157004 0.34377
0.069787003 0.086921997 0.34290999
0.069963999 0.085065 0.34336001
0.052412 0.079751998 0.33399001
0.054878 0.085493997 0.33658001
0.055606 0.086282998 0.33618
0.053959999 0.086627997 0.33651999
0.084940001 0.080830999 0.34935001
0.086439997 0.080257997 0.34896001
0.088055998 0.18960001 0.26965001
0.082438 0.11244 0.34852999
0.081899002 0.11396 0.34669
0.077520996 0.071967997 0.34386
0.076058999 0.071957 0.34356001
0.080906004 0.16981 0.25896001
0.081045002 0.16896001 0.2599
0.070811003 0.12101 0.33873999
0.071346998 0.12167 0.33998999
0.11834 0.063109003 0.34294
0.11726 0.062415 0.34415999
0.068474002 0.088018999 0.34309
0.067693003 0.087140001 0.34285
0.067723997 0.087511003 0.34154999
0.020962 0.16593 0.25165999
0.068773001 0.086636998 0.34228
0.097875997 0.19554 0.27324
0.097989999 0.19292 0.27318999
0.098164 0.19316 0.27298
0.098655999 0.18965 0.27383
0.099325001 0.19074 0.27412999
0.097717002 0.18979 0.27344999
0.097810999 0.19115999 0.27239001
0.098168001 0.18795 0.27485999
0.097645 0.18806 0.27386999
0.098630004 0.18646 0.27484
0.096896 0.18629 0.27375999
0.069236003 0.071693003 0.34117001
0.095802002 0.18362001 0.27610001
0.070288002 0.072884001 0.34079
0.067911997 0.071385004 0.34084001
0.069095999 0.074749 0.3418
0.068170004 0.076932997 0.34275001
0.097116001 0.18623 0.26576999
0.097216003 0.18818 0.26543999
0.09725 0.18664999 0.26607999
0.10165 0.18136001 0.28093001
0.10066 0.18116 0.27983001
0.10175 0.17981 0.28081
0.076008998 0.13145 0.33535999
0.074679002 0.13161001 0.33438
0.058389001 0.10127 0.33888
0.030717 0.12806 0.26293999
0.031275999 0.12963 0.26306
0.030587999 0.13096 0.26337001
0.030037999 0.13257 0.26535001
0.029375 0.13395 0.26582
0.028873 0.13559 0.26600999
0.028588001 0.13646001 0.26668
0.028479001 0.13788 0.26786
0.029158 0.13943 0.26774999
0.028867999 0.14061999 0.26754001
0.028687 0.14239 0.26769999
0.029222 0.1435 0.26738
0.029283 0.1451 0.26646999
0.029118 0.14742 0.2656
0.029289 0.14767 0.26504999
0.029919 0.15030999 0.26433
0.030417999 0.1507 0.26374
0.030928999 0.15217 0.26304001
0.031466998 0.15362 0.26282999
0.030282 0.15566 0.26254001
0.030525001 0.15583 0.26260999
0.030673999 0.15804 0.26350999
0.030989001 0.15965 0.26346999
0.030742999 0.16133 0.26302001
0.030761 0.16294 0.26308
0.030756 0.16374999 0.26381999
0.11625 0.064345002 0.34698999
0.085718997 0.078798003 0.34782001
0.032791 0.16498999 0.26436999
0.030959001 0.16364001 0.26409
0.087392002 0.19284 0.27063
0.087324999 0.19089 0.27004999
0.073136002 0.10242 0.34632999
0.072610997 0.10124 0.34582999
0.053465001 0.098312996 0.33502001
0.055108 0.098583996 0.33592999
0.089432001 0.12297 0.34441999
0.090138003 0.12399 0.3436
0.084265001 0.1768 0.27653
0.026071999 0.055433001 0.27434999
0.026571 0.053801998 0.27383
0.026874 0.055822 0.27478001
0.024666 0.055225 0.27252001
0.025384 0.056352001 0.27270001
0.089229003 0.18345 0.26052999
0.079782002 0.1136 0.34746999
0.067667 0.070417002 0.33998001
0.054985002 0.084259003 0.33623001
0.074409999 0.11503 0.34423
0.06129 0.055486001 0.32971001
0.058741 0.10284 0.33858001
0.085708998 0.076885 0.34834
0.082433 0.11473 0.34667
0.077546 0.099284001 0.34863999
0.076426998 0.073210001 0.34461001
0.10836 0.096247002 0.34434
0.069983996 0.12101 0.33969
0.070832998 0.12123 0.34044001
0.068667002 0.089873001 0.34334999
0.066716999 0.089428 0.34411001
0.093872003 0.17664 0.27888
0.072604999 0.16495 0.25395
0.067295 0.1171 0.33947
0.065949 0.11855 0.33869001
0.067018002 0.11908 0.33941999
0.066302001 0.11927 0.33824
0.066463999 0.1094 0.34303001
0.066105001 0.11109 0.34266001
0.067442998 0.12023 0.33739001
0.066850998 0.11989 0.33708999
0.068291999 0.12161 0.33702001
0.065279998 0.065713003 0.33526999
0.064060003 0.067810997 0.33653
0.063662998 0.065647997 0.33414999
0.096409999 0.18561999 0.27601999
0.097213 0.18208 0.27842
0.095960997 0.18257 0.27686
0.068631999 0.086340003 0.34235999
0.10728 0.1118 0.34347001
0.10645 0.11066 0.34371999
0.067126997 0.083430998 0.34185001
0.069141001 0.084037997 0.34237999
0.10295 0.18228 0.28062999
0.10265 0.18370999 0.28046
0.10157 0.18393999 0.28068
0.075112998 0.1292 0.33605
0.10214 0.18223 0.28104001
0.077440999 0.058487002 0.33877
0.078759 0.059500001 0.33908999
0.059191 0.15236001 0.26315999
0.058394998 0.15135001 0.26457
0.031353001 0.13178 0.26447999
0.032198999 0.13057999 0.26341999
0.03142 0.13327999 0.26581001
0.030239999 0.13501 0.26715001
0.030161001 0.13673 0.26762
0.029763 0.13906001 0.26809001
0.029971 0.14009 0.26824
0.029952001 0.14069 0.26795
0.030053999 0.14236 0.26730999
0.029624 0.14426 0.26732001
0.030301001 0.14561 0.26749
0.03052 0.14623 0.26686999
0.030982999 0.14787 0.26557001
0.031266998 0.14935 0.2649
0.030564999 0.1512 0.26403999
0.031458002 0.15203001 0.26414999
0.032915 0.15381999 0.26288
0.032903999 0.15424 0.26278001
0.031943999 0.1564 0.26293001
0.031762 0.15745001 0.26324999
0.030962 0.15873 0.26317999
0.031831 0.16083001 0.26361001
0.031417999 0.16155 0.26392999
0.076091997 0.18533 0.26717001
0.022893 0.16680001 0.25126001
0.090663001 0.069206998 0.35411
0.026396999 0.053606 0.27437001
0.066529997 0.18081 0.25759
0.064289004 0.17913 0.25713
0.027899001 0.054016002 0.27581
0.026800999 0.056226999 0.27634001
0.060068 0.10776 0.33818001
0.079057999 0.096506998 0.34862
0.057502002 0.10375 0.33750999
0.058290999 0.10618 0.33823001
0.075060003 0.080426998 0.34518
0.074906997 0.082119003 0.34522
0.073833004 0.081114002 0.34548
0.098738998 0.081964001 0.35832
0.086514004 0.075144999 0.34801
0.081106 0.11608 0.34645
0.08224 0.11605 0.34592
0.077042997 0.097439997 0.34839001
0.076054998 0.075139001 0.34588999
0.10607 0.12214 0.33899999
0.10568 0.12455 0.33913001
0.056116 0.16019 0.26210001
0.055876002 0.15966 0.26234001
0.10922 0.10587 0.34331
0.069225997 0.11947 0.34027001
0.070444003 0.11976 0.34071001
0.068781003 0.091009997 0.34303999
0.066664003 0.090126999 0.34409001
0.062066 0.074731 0.33958
0.11696 0.085693002 0.35381001
0.093392998 0.18578 0.27340999
0.091458999 0.18337999 0.27307999
0.093466997 0.17768 0.28022
0.092173003 0.17813 0.27903
0.11546 0.096368 0.33941999
0.062387001 0.077045999 0.33947
0.11379 0.11626 0.33761999
0.11248 0.11721 0.33741999
0.058880001 0.10732 0.33820999
0.057886001 0.10672 0.33640999
0.090897001 0.17617001 0.27882999
0.079101004 0.16908 0.25658
0.077237003 0.16735999 0.25802001
0.069300003 0.081854001 0.34196001
0.068069004 0.082711004 0.34254
0.074382 0.13124 0.33532
0.036256 0.056825999 0.28336999
0.10312 0.18598001 0.27921
0.10329 0.1856 0.27915001
0.032214999 0.13075 0.26416999
0.031585999 0.13359 0.2669
0.031601001 0.13517 0.26701999
0.03114 0.13671 0.26765001
0.030920001 0.13767 0.26873001
0.03032 0.13916001 0.26877999
0.03036 0.14050999 0.26888001
0.030684 0.14272 0.26828
0.030111 0.14391001 0.26819
0.031248 0.14523999 0.26833001
0.030862 0.14673001 0.26672
0.031358 0.14811 0.26603001
0.032008 0.14922 0.26550999
0.032800999 0.15064999 0.26567999
0.032106999 0.15223999 0.26367
0.032494001 0.15459 0.26293999
0.033787999 0.15432 0.26242
0.033333998 0.15671 0.26222
0.032568999 0.15798 0.26381999
0.032209001 0.15932 0.26412001
0.032419 0.16114999 0.26460001
0.032102998 0.16297001 0.26495999
0.032233 0.16325 0.26492
0.028551999 0.057270002 0.27654999
0.028772 0.054917 0.27684
0.028764 0.055812001 0.27678999
0.041887999 0.062348001 0.30923
0.066827998 0.15829 0.25617999
0.066003002 0.15922999 0.25639001
0.065963 0.15662999 0.25735
0.045791 0.16776 0.26495999
0.10401 0.066224001 0.35609999
0.084478997 0.17795999 0.27531001
0.083130002 0.17665 0.27599999
0.104 0.071170002 0.35863999
0.091178 0.066353999 0.35325
0.040337998 0.06171 0.30862999
0.086749002 0.073876001 0.34639001
0.080283001 0.11829 0.34628999
0.082618997 0.11785 0.34560001
0.077877998 0.094756998 0.34801999
0.078547999 0.096395001 0.34816
0.076747 0.095528997 0.34739
0.076692998 0.096773997 0.34889999
0.075038001 0.075962 0.34538001
0.076268002 0.076527998 0.34597
0.076899998 0.13548 0.33508
0.077730998 0.13485 0.33460999
0.10687 0.10147 0.34474999
0.070152 0.11782 0.34158
0.069816001 0.1168 0.34130999
0.068038002 0.092362002 0.34408
0.067198001 0.092678003 0.34448001
0.093865998 0.19697 0.27226999
0.061514001 0.083013996 0.33939001
0.094788998 0.19394 0.27142
0.093153998 0.19220001 0.27166
0.096481003 0.19489001 0.27204999
0.095233001 0.19425 0.27215001
0.095516004 0.19472 0.27149001
0.095132001 0.19701999 0.27296001
0.094172001 0.19648001 0.27274001
0.064088002 0.054225001 0.33324
0.064726003 0.065125003 0.33379999
0.064558998 0.063991003 0.33454001
0.063389003 0.067899004 0.33555001
0.095954001 0.19836999 0.27256
0.093976997 0.19828001 0.27327999
0.072042003 0.13919 0.32727
0.11673 0.072398998 0.35405001
0.11483 0.066079997 0.35211
0.092244998 0.18208 0.27483001
0.092543997 0.184 0.27399999
0.092303999 0.1824 0.27432001
0.068411998 0.078625001 0.34182
0.036834002 0.060056999 0.30473
0.059048999 0.10863 0.33790001
0.057340998 0.10849 0.33715001
0.074828997 0.1313 0.33529001
0.032520998 0.13394 0.26712
0.032430001 0.13507999 0.2683
0.031099999 0.13685 0.26846001
0.031397 0.13813999 0.26865
0.031705 0.13977 0.26938999
0.030827999 0.14086001 0.26955
0.031647999 0.14271 0.26853999
0.031241 0.14421 0.26868999
0.031854998 0.1455 0.26866001
0.031835999 0.147 0.26745999
0.032363001 0.14825 0.26718
0.032081999 0.14887001 0.26569
0.03269 0.15121999 0.26627001
0.033089001 0.15200999 0.26396999
0.034246001 0.15279999 0.26425999
0.034437001 0.15522 0.26330999
0.034281 0.15637 0.26328
0.034084 0.15817 0.26405999
0.034035999 0.1591 0.26394999
0.034019001 0.1605 0.26449001
0.032246999 0.1621 0.26455
0.034021001 0.16395 0.26514
0.032508001 0.16543999 0.26436999
0.032680999 0.16649 0.26398
0.067607 0.16136999 0.25755
0.089590997 0.1177 0.34698999
0.028062999 0.054148 0.27816001
0.029487999 0.055142 0.27803999
0.02881 0.056793999 0.27642
0.038654 0.077244997 0.27989
0.097485997 0.20134 0.27405
0.096548997 0.2022 0.27303001
0.11046 0.13671 0.32005
0.11092 0.13692001 0.31942999
0.11078 0.13625 0.31933001
0.12045 0.12081 0.32602999
0.078566998 0.14277001 0.26607999
0.079797 0.14259 0.26532999
0.078098997 0.14244001 0.26440999
0.068190001 0.16441999 0.26278999
0.10337 0.072815999 0.35947999
0.10257 0.073802002 0.36002001
0.092355996 0.065114997 0.35238999
0.094389997 0.18347999 0.27452001
0.094007 0.18188 0.27548999
0.090310998 0.068333998 0.35407001
0.082893997 0.11889 0.34531
0.080294997 0.11899 0.34548
0.075979002 0.077367 0.34558001
0.0086768996 0.1472 0.25314999
0.069989003 0.091487996 0.34443
0.071070001 0.090916 0.34441
0.070148997 0.093365997 0.34498
0.067914002 0.093979001 0.34518
0.067281 0.092797004 0.34362999
0.065895997 0.064443998 0.33406001
0.096791998 0.18787999 0.27384001
0.097475 0.18976 0.273
0.095995001 0.18837 0.27287999
0.091623999 0.17916 0.27792999
0.089973003 0.17953999 0.27717
0.093679003 0.19501001 0.27214
0.067670003 0.064898998 0.3353
0.067002997 0.066474997 0.33586001
0.065984003 0.066256002 0.33548
0.066419996 0.065082997 0.33524999
0.063781999 0.087902002 0.34231001
0.063390002 0.088968001 0.34197
0.063083999 0.089481004 0.34202999
0.063345999 0.087026998 0.34121001
0.062272999 0.088636003 0.34151
0.061216 0.096423 0.34215999
0.062830999 0.097315997 0.34239
0.061808001 0.097848997 0.34233999
0.062748998 0.094889998 0.34220001
0.062302001 0.095082 0.34261999
0.094696 0.1864 0.27158999
0.093865998 0.18674 0.27232999
