# .PCD v0.7 - Point Cloud Data file format
VERSION 0.7
FIELDS x y z
SIZE 4 4 4
TYPE F F F
COUNT 1 1 1
WIDTH 1560
HEIGHT 1
VIEWPOINT 0 0 0 1 0 0 0
POINTS 1560
DATA ascii
0.081101 0.053027999 0.29390001
0.081988998 0.052062999 0.29457
0.10086 0.05223 0.28397
0.10012 0.052492999 0.28457001
0.095303997 0.052234001 0.28738001
0.087530002 0.051888 0.29038
0.17648 0.051295001 0.24473
0.13327 0.053144999 0.26673999
0.13417999 0.051956002 0.26565999
0.10248 0.05308 0.28367999
0.094213001 0.053424001 0.28736001
0.091913998 0.052457999 0.28887001
0.088215001 0.053180002 0.29091999
0.083053999 0.052586999 0.29234001
0.083671004 0.052466001 0.29363999
0.082267001 0.053518999 0.29319
0.090751 0.053268 0.28856
0.090177 0.053408999 0.2897
0.089997001 0.053176001 0.28905001
0.097677998 0.054242 0.28659001
0.094117999 0.053415 0.28758001
0.089015 0.055100001 0.28977999
0.089097001 0.055360999 0.29042
0.17682 0.055064999 0.24478
0.13415 0.054347001 0.26697999
0.094940998 0.055751 0.28712001
0.17589 0.056175999 0.2454
0.17512 0.057245001 0.24671
0.13790999 0.062215 0.2656
0.14206 0.064299002 0.26176
0.17686 0.064098001 0.24549
0.17641 0.065679997 0.24507999
0.14417 0.066018 0.26019999
0.14497 0.065990001 0.26242
0.14451 0.067244999 0.26129001
0.14656 0.068131 0.25972
0.14458001 0.070052996 0.26179999
0.15384001 0.071377002 0.25569999
0.15852 0.070490003 0.25378001
0.15793 0.070523001 0.25589001
0.14053001 0.070748001 0.26381001
0.15305001 0.071511 0.25729001
0.1357 0.072875999 0.26631999
0.15277 0.075255997 0.25843
0.15118 0.076292001 0.25856999
0.15038 0.077367 0.25769001
0.14903 0.078093 0.25972
0.14738999 0.078125998 0.25968999
0.14924 0.078259997 0.25964001
0.14996 0.078334004 0.25920001
0.14948 0.079660997 0.25917
0.14912 0.078087002 0.25926
0.14226 0.079588003 0.26122001
0.1434 0.079512998 0.26210999
0.14515001 0.086320996 0.26056999
0.14635 0.086709999 0.26021001
0.14631 0.087663002 0.25975001
0.14679 0.088041998 0.26089999
0.14661001 0.088335 0.26124999
0.14497 0.087653004 0.26038
0.14476 0.089213997 0.26111001
0.14555 0.088399 0.26131999
0.14559001 0.089300998 0.26120999
0.14396 0.089172997 0.26135999
0.14504001 0.088407002 0.26214001
0.14523999 0.090127997 0.26155999
0.14467999 -0.053238001 0.26063001
0.14578 -0.053194001 0.26063001
0.086058997 -0.051906001 0.29126
0.086939998 -0.052406002 0.29027
0.13963 -0.052211002 0.26332
0.13827001 -0.052979 0.26372999
0.13838001 -0.051679999 0.2626
0.089712001 -0.051321 0.28916001
0.089530997 -0.052680999 0.28871
0.085814998 -0.053036001 0.29063001
0.060208999 -0.052740999 0.30502
0.059983999 -0.050850999 0.30509001
0.084026001 -0.051456001 0.29221001
0.083738998 -0.051959001 0.29231
0.081180997 -0.050200999 0.29267001
0.070606001 -0.048833001 0.29887
0.070904002 -0.049486998 0.30083999
0.069678999 -0.050223 0.30101001
0.13345 -0.049139999 0.26451001
0.13393 -0.049449999 0.26545
0.13305999 -0.048873998 0.26657
0.13312 -0.049221002 0.26789001
0.13301 -0.046668999 0.26666999
0.13086 -0.046252999 0.26794001
0.13067999 -0.045448001 0.26681
0.13026001 -0.045341998 0.26894
0.061682001 -0.043219998 0.30254
0.062669002 -0.042975001 0.30329001
0.12604 -0.041377001 0.27026999
0.12608001 -0.042213999 0.26820999
0.12762 -0.042629998 0.27022001
0.062385999 -0.041051999 0.30181
0.12710001 -0.040098999 0.26995
0.12611 -0.040888 0.2705
0.1261 -0.039631002 0.26995999
0.12316 -0.037393 0.27081999
0.12453 -0.038710002 0.27116001
0.12474 -0.038658999 0.27133
0.065337002 -0.038984001 0.30160001
0.065817997 -0.037744001 0.30136001
0.065482996 -0.036602002 0.30147001
0.065213002 -0.036550999 0.30070001
0.12224 -0.036068998 0.27282
0.065503001 -0.034782 0.30103999
0.065885998 -0.034125 0.29980999
0.12164 -0.034942001 0.27156001
0.067313001 -0.033427998 0.30072999
0.11979 -0.031927001 0.27337
0.12019 -0.034393001 0.27116999
0.066119999 -0.033971999 0.29978999
0.12047 -0.032598 0.27347001
0.118 -0.029395999 0.2744
0.069445997 -0.027987 0.2983
0.11705 -0.026839999 0.27474001
0.11671 -0.026903 0.27384999
0.073128 -0.025645999 0.29739001
0.11466 -0.023726 0.27599001
0.11355 -0.02331 0.27695
0.074052997 -0.023050999 0.29738
0.076110996 -0.019579001 0.29718
0.11418 -0.020249 0.27686
0.15222999 -0.019974999 0.25681001
0.1516 -0.019400001 0.25784001
0.15827 -0.018436 0.25435999
0.15809 -0.018254999 0.25275001
0.15898 -0.018229 0.25336999
0.11205 -0.019568 0.27654999
0.11362 -0.018118 0.27748001
0.11194 -0.018894 0.27744001
0.16164 -0.017519001 0.25235999
0.16198 -0.016801 0.25102001
0.11271 -0.01622 0.27757999
0.16202 -0.01588 0.25145999
0.16329999 -0.016264001 0.25117999
0.1648 -0.015008 0.25099
0.16547 -0.013628 0.24992
0.1655 -0.014068 0.25051001
0.18014 -0.012719 0.24336
0.16764 -0.01159 0.24955
0.16846 -0.010787 0.24815001
0.17843001 -0.010147 0.24431001
0.16834 -0.010112 0.24823999
0.16793001 -0.011313 0.24924
0.17737 -0.0097872997 0.24359
0.17713 -0.01029 0.24355
0.17084 -0.0097703999 0.24786
0.16992 -0.0099975998 0.24784
0.17813 -0.0092869001 0.24371
0.17196 -0.0093782004 0.24738
0.17443 -0.0082767997 0.24617
0.17468999 -0.0086967004 0.2455
0.17387 -0.0082173999 0.24708
0.17208999 -0.0092508001 0.24726
0.17194 -0.0087358998 0.24677999
0.17043 -0.0078697996 0.24775
0.16927999 -0.0090747997 0.24831
0.067703001 -0.010404 0.30000001
0.17415 -0.0080270004 0.2458
0.11011 -0.0084651997 0.27974999
0.10899 -0.0085968003 0.27765
0.17343999 -0.0078453999 0.24561
0.17227 -0.0085922005 0.24668001
0.17159 -0.0062303999 0.24713001
0.17185 -0.0074674999 0.24707
0.17407 -0.0071748998 0.245
0.17197999 -0.0075337999 0.24675
0.17141999 -0.0072682998 0.24661
0.17211001 -0.0078208996 0.24744
0.17167 -0.0070147002 0.24829
0.17118999 -0.0070179999 0.24749
0.066505 -0.0069831 0.30041999
0.066454001 -0.0072655999 0.30145001
0.17251 -0.0058049001 0.24687999
0.17182 -0.0049371002 0.24675
0.17151 -0.0071839001 0.24631999
0.17374 -0.0056384001 0.24517
0.1725 -0.0064587998 0.24546
0.065674998 -0.0048130001 0.30076
0.1076 -0.0046477001 0.28002
0.064230002 -0.0014011 0.30184001
0.10565 -0.0035019999 0.27965
0.10663 -0.0030854 0.27969
0.16464999 0.00038196001 0.25014001
0.16535001 -0.00057109998 0.25077
0.16517 -0.001293 0.25055
0.16549 -0.00057496002 0.25062999
0.16865 -0.00080355001 0.24972001
0.16977 -0.00034507 0.24846999
0.169 -0.00073127 0.24792001
0.16745 0.00051755999 0.25003999
0.16757999 -9.4741001e-05 0.24899
0.16387001 0.0014157 0.2511
0.16378 -0.00092287001 0.25099
0.16056 0.00014401 0.25196999
0.16305999 -0.0011258 0.25213999
0.16388001 0.00011838 0.25163001
0.062029999 -0.00066761998 0.30331999
0.16903 0.00019249 0.24944
0.16802 0.0013336 0.24902999
0.16780999 0.00020004 0.24968
0.16700999 0.0017356999 0.24982999
0.16719 0.0014576 0.2491
0.16651 0.00097600999 0.24952
0.16607 0.00046683999 0.24924
0.1662 0.0016187 0.25024
0.16558 0.00085084001 0.24985
0.16496 0.00021209 0.24993999
0.061871 0.0010344 0.30317
0.16276 0.00029970999 0.25193
0.16234 0.00093624002 0.25213
0.1697 -2.6178001e-05 0.24823999
0.17028999 0.00082730001 0.24683
0.16937999 0.0027703 0.24814001
0.1681 0.0018429999 0.24903999
0.16708 0.0019075 0.24875
0.16224 0.0030006 0.25235
0.16227999 0.0015483 0.25150001
0.16198 0.0023654001 0.25288001
0.16119 0.0016492 0.25235999
0.16001 0.0018428999 0.25253001
0.15823001 0.0025299001 0.25319001
0.17003 0.0026231001 0.24778
0.16987 0.00339 0.24798
0.16802999 0.0032412999 0.24800999
0.15761 0.0021503 0.25441
0.16948999 0.0031576999 0.24902999
0.10461 0.0024021999 0.28053001
0.16959 0.0036426999 0.24874
0.16812 0.0043235002 0.2493
0.15695 0.0031907 0.25492999
0.16891 0.0039196 0.24882001
0.15538 0.0045599001 0.25402001
0.15689 0.0046859998 0.25533
0.16867 0.0045828 0.24917001
0.16869999 0.0042456002 0.24912
0.062116999 0.004677 0.30346999
0.15606 0.0053893002 0.25536999
0.15498 0.0052431999 0.25483
0.16896001 0.0060033002 0.24864
0.15415999 0.0072587002 0.25669
0.15282001 0.0062012002 0.25531
0.15415999 0.0071947998 0.25698
0.16831 0.0075400001 0.24815001
0.16814999 0.0074858 0.24895
0.16963001 0.0071605002 0.24733
0.060782 0.0066626999 0.30399999
0.16979 0.0077526998 0.24782
0.16813 0.0083202003 0.25018999
0.16919 0.0098951999 0.24793001
0.15180001 0.0078403996 0.25661001
0.15205 0.0085415998 0.25762999
0.060736001 0.0082446001 0.30342001
0.17009 0.0079955999 0.24808
0.17071 0.0080909999 0.24728
0.17038 0.0087347999 0.24732
0.1514 0.0088529 0.25768
0.10054 0.0089154001 0.28296
0.10039 0.010263 0.28193
0.15088999 0.0094980998 0.25676
0.059310999 0.0082552005 0.30386999
0.059457 0.0095094005 0.30285999
0.060314 0.0092658997 0.30241999
0.15153 0.0095539 0.25896001
0.1701 0.010292 0.24908
0.16883001 0.010862 0.24796
0.14901 0.010175 0.25764
0.14909001 0.011181 0.25859001
0.099091999 0.01107 0.28354001
0.16987 0.012456 0.24761
0.16881 0.013255 0.24789
0.16732 0.014429 0.25038001
0.16785 0.013708 0.24878
0.16850001 0.014027 0.24739
0.1683 0.013517 0.24804001
0.14776 0.013446 0.25900999
0.098066002 0.014589 0.28511
0.096680999 0.015435 0.28439
0.14577 0.015067 0.25994
0.059535999 0.013188 0.30452999
0.16883001 0.014668 0.24887
0.16761 0.015478 0.2489
0.14651 0.015709 0.26047999
0.14574 0.015819 0.26021999
0.094518997 0.016496001 0.28613999
0.096470997 0.016294001 0.28650999
0.14597 0.015651001 0.26056999
0.16779999 0.016147999 0.24956
0.16769999 0.015391 0.24799
0.14527 0.017774999 0.26104
0.14526001 0.016386 0.26074001
0.058219999 0.016388999 0.30495
0.16666 0.017866001 0.24927001
0.1433 0.017879 0.26135001
0.14407 0.016323 0.26025999
0.14349 0.018438 0.26124001
0.14384 0.018084001 0.26232001
0.16725001 0.021601001 0.2482
0.16577999 0.021183001 0.2499
0.1652 0.020532001 0.24987
0.14129999 0.020536 0.26273
0.14249 0.020412 0.26208001
0.16654 0.022399001 0.24974
0.14106999 0.022551 0.26370001
0.16419999 0.022932 0.25209001
0.13950001 0.022493999 0.26381001
0.058665998 0.022675 0.30434999
0.058591999 0.021252001 0.30368999
0.13989 0.022462999 0.26425001
0.13929 0.022157 0.26416999
0.14014 0.023236999 0.26444
0.13937999 0.022247 0.26413
0.16455001 0.024188001 0.25066999
0.16485 0.024684999 0.25112
0.13883001 0.023939 0.26368999
0.13629 0.025115 0.26431999
0.13673 0.024651 0.26418999
0.1373 0.023932001 0.26471999
0.13705 0.024572 0.26482999
0.13494 0.025002999 0.2658
0.13575 0.026286 0.26631001
0.13542999 0.025563 0.26539999
0.13411 0.027946999 0.26605999
0.1345 0.025834 0.26535001
0.16340999 0.026993001 0.25209999
0.13558 0.027895 0.26569
0.13285001 0.028282 0.26673999
0.13303 0.027420999 0.26655
0.13394 0.029239999 0.26677999
0.13263001 0.029743999 0.26763001
0.062680997 0.029665001 0.30386001
0.060628999 0.028929001 0.30421001
0.061168998 0.030407 0.30278999
0.13303 0.031316999 0.26673999
0.060694002 0.030726001 0.30346999
0.13352001 0.032738 0.26596999
0.061193999 0.031277999 0.30450001
0.17072999 0.032742001 0.24793001
0.17305 0.033596002 0.24679001
0.17422 0.034582 0.24608
0.13338 0.03613 0.26644
0.17274 0.035174999 0.24593
0.17253999 0.035422999 0.24693
0.13302 0.036008999 0.26605001
0.13355 0.036161002 0.26611999
0.065283 0.036332 0.30186999
0.17179 0.036864001 0.24699999
0.064230002 0.037760001 0.30201
0.17174 0.038541999 0.24775
0.064613 0.037161 0.30206999
0.17228 0.039159998 0.24642
0.13179 0.039034002 0.26624
0.11974 0.039349001 0.273
0.11891 0.039248001 0.27526999
0.1185 0.037508 0.27478999
0.065861002 0.03782 0.30164999
0.11855 0.039221998 0.27436
0.11745 0.040293999 0.27471
0.11848 0.040228002 0.27529001
0.11836 0.040061001 0.27497
0.067160003 0.040796999 0.30050999
0.065995 0.040716998 0.30021
0.13249999 0.039108001 0.26786
0.13243 0.042424001 0.26704001
0.17038 0.040623002 0.24717
0.066670001 0.042856999 0.30105999
0.17134 0.042998999 0.24625
0.06786 0.043035999 0.30052999
0.17223001 0.043570999 0.24699
0.1154 0.042498 0.27667001
0.11601 0.042890001 0.27651
0.068365999 0.044610001 0.29886001
0.11351 0.044629999 0.2766
0.11303 0.045398999 0.27739
0.11196 0.044213999 0.27673
0.068925999 0.044544999 0.29894
0.13428 0.045609001 0.26679
0.1328 0.043864001 0.26653999
0.071465001 0.046022002 0.29888999
0.17123 0.046211001 0.2481
0.13402 0.045286 0.26791999
0.11326 0.046231002 0.27704
0.11146 0.046401002 0.27868
0.11314 0.044801001 0.27735999
0.10964 0.045917999 0.27968001
0.1101 0.046512999 0.27943
0.11012 0.045986 0.27781999
0.10891 0.046549 0.27946001
0.073988996 0.047067001 0.29765999
0.073769003 0.047040999 0.29734001
0.075135 0.048822999 0.29651999
0.10931 0.046112001 0.27867001
0.10796 0.049410999 0.27983999
0.075212002 0.048409 0.29640999
0.075158 0.048923999 0.29519999
0.10731 0.048668999 0.28242001
0.1082 0.048980001 0.28083
0.107 0.049135 0.28095001
0.10568 0.047373999 0.28083
0.10558 0.049026001 0.28073001
0.10896 0.049899001 0.27972999
0.17352 0.049830999 0.24672
0.17325 0.050065 0.24647
0.13346 0.049047001 0.26696
0.10775 0.051335 0.27983999
0.10686 0.050184999 0.28016999
0.10665 0.050808001 0.28047001
0.075762004 0.04995 0.29629999
0.13339999 0.05012 0.26587
0.17460001 0.049818002 0.24566001
0.10464 0.050592002 0.2818
0.078953996 0.050634 0.29453
0.081004001 0.0517 0.29390001
0.078310996 0.050565001 0.29653001
0.077344999 0.050246999 0.29462999
0.075474001 0.050645001 0.29655999
0.076079004 0.051895998 0.2949
0.079928003 0.051201999 0.29328999
0.078524001 0.051375002 0.29438001
0.17546999 0.050551001 0.24539
0.17504001 0.051006 0.24527
0.10248 0.051917002 0.28286001
0.099559002 0.051465999 0.28375
0.10217 0.052347999 0.28200999
0.099466003 0.051979002 0.28325999
0.099307001 0.052382 0.28364
0.099803001 0.053027999 0.28525001
0.092926003 0.052172001 0.28630999
0.093909003 0.052042 0.28740999
0.081026003 0.053165 0.29426
0.081260003 0.052836999 0.29431999
0.10193 0.051980998 0.2825
0.10057 0.052134 0.28365001
0.087203003 0.052515 0.29030001
0.085997999 0.052370001 0.29128999
0.086521998 0.051952001 0.29017001
0.085098997 0.052133001 0.29197001
0.083773002 0.052671 0.29161999
0.097677 0.052514002 0.28408
0.17896 0.051674999 0.24411
0.17731 0.052717 0.24458
0.098334998 0.054306 0.28420001
0.084376998 0.053344999 0.29269001
0.17768 0.054260999 0.24442001
0.10026 0.053419001 0.28364
0.10091 0.053335 0.28296
0.097359002 0.053952999 0.28467
0.082364 0.053213999 0.29207
0.096509002 0.054026999 0.28648999
0.094691001 0.0539 0.28667
0.093873002 0.054924 0.28643
0.090076998 0.055245001 0.28870001
0.089612 0.054680999 0.28902
0.088 0.054478999 0.29063001
0.085923001 0.055217002 0.29045001
0.13505 0.054811999 0.26592001
0.13411 0.056876998 0.26541001
0.13546 0.058030002 0.26456001
0.13733 0.061717998 0.26493999
0.1406 0.063097998 0.26379001
0.13982999 0.062964998 0.26374
0.14034 0.063882999 0.26350001
0.14199001 0.063588001 0.26367
0.1768 0.065557003 0.24402
0.14049 0.065429002 0.26244
0.14337 0.064622998 0.26078999
0.17746 0.065415002 0.24448
0.17721 0.065089002 0.24376
0.14357001 0.065132 0.26085001
0.17666 0.065907001 0.24374001
0.14546999 0.066295996 0.26124001
0.14476 0.068212003 0.26012
0.14224 0.069985002 0.26157001
0.14155 0.069475003 0.26255
0.16328 0.070982002 0.25059
0.16329999 0.070675999 0.25202999
0.13947 0.072379999 0.26295999
0.16091 0.069982998 0.25244999
0.15363 0.072881997 0.25749001
0.1552 0.070657998 0.25599
0.15358999 0.072448 0.25659001
0.13897 0.071773998 0.26416999
0.13897 0.071465999 0.26403001
0.13896 0.070905 0.26306999
0.15445 0.072090998 0.25648999
0.15142 0.073062003 0.25784001
0.15281001 0.073266998 0.2568
0.13646001 0.072508998 0.26385
0.13722999 0.072163999 0.26368001
0.13552 0.072884999 0.26535001
0.13614 0.072669998 0.26492
0.13467 0.072935998 0.26567999
0.13232 0.074055001 0.26622999
0.15266 0.074592002 0.25694999
0.15222999 0.075989999 0.25766999
0.15180001 0.075851001 0.25716001
0.15149 0.077413 0.25694999
0.15118 0.078354001 0.25793999
0.15029 0.078468002 0.25768
0.14851999 0.078800999 0.25957999
0.14297999 0.078653 0.26041999
0.15026 0.078913003 0.25824001
0.1514 0.079448 0.25799
0.14986999 0.080300003 0.25863001
0.14999001 0.079751998 0.25894001
0.1498 0.081349 0.25871
0.14951 0.080081001 0.25885001
0.14861 0.080733001 0.25900999
0.14896999 0.081854999 0.25718999
0.14936 0.082154997 0.25915
0.14858 0.082124002 0.25756001
0.14767 0.083140001 0.25915
0.14979 0.082589 0.25906
0.14817999 0.084599003 0.25836
0.14892 0.084778003 0.25828001
0.14813 0.083512999 0.25874999
0.14947 0.083833002 0.25854
0.14895999 0.082094997 0.25896999
0.14833 0.084054001 0.25951001
0.1473 0.084068 0.25893
0.14743 0.083595 0.25907001
0.15007 0.084767997 0.25795999
0.14775001 0.085224003 0.25982001
0.14806999 0.085621998 0.25889
0.14826 0.084565997 0.25949001
0.14695001 0.085555002 0.25926
0.14817999 0.084716998 0.25982001
0.14658 0.084360003 0.25819999
0.14812 0.086772002 0.25827
0.14791 0.086448997 0.26021001
0.14804 0.085455 0.26012999
0.14702 0.084417999 0.26023999
0.14612 0.086240999 0.26115
0.14816999 0.087536998 0.25929001
0.14794999 0.086795002 0.25977999
0.14455 0.086241998 0.26098999
0.14421999 0.086989999 0.26104999
0.14726 0.088072002 0.25900999
0.14811 0.088188 0.25907001
0.14723 0.088766001 0.25929999
0.14647 0.089676 0.25986001
0.14435001 0.089524001 0.26086
0.1443 -0.052701 0.26010999
0.14579 -0.052832998 0.25939
0.14616001 -0.052774001 0.26010001
0.1434 -0.053173002 0.26170999
0.14312001 -0.053224001 0.26120999
0.088119 -0.051541999 0.28918999
0.087355003 -0.052471999 0.28865999
0.086071998 -0.052634999 0.28997999
0.06301 -0.053148001 0.30263001
0.061834 -0.053676002 0.30306
0.061136998 -0.052228 0.30325001
0.14129999 -0.051941998 0.26185
0.062093001 -0.052103002 0.30252001
0.059985001 -0.052538998 0.30316001
0.059966002 -0.050562002 0.30447999
0.084140003 -0.051148001 0.29214001
0.082304001 -0.051369999 0.29242
0.13699 -0.051605999 0.26495001
0.13721 -0.051534001 0.26440999
0.059238002 -0.050430998 0.30592
0.083424002 -0.052351002 0.29291001
0.081625998 -0.050485 0.29435
0.081055999 -0.051070999 0.29238999
0.080652997 -0.050691999 0.29265001
0.081579998 -0.050955001 0.29396999
0.079763003 -0.049690999 0.29341999
0.059027001 -0.050604001 0.30450001
0.13478 -0.050450999 0.26550001
0.13252001 -0.049240999 0.26528999
0.13245 -0.048944999 0.26673999
0.058848999 -0.048255999 0.30423999
0.13163 -0.048315 0.26640001
0.13131 -0.048390001 0.26773
0.13006 -0.048452001 0.26646
0.060959999 -0.045024998 0.30305001
0.061046001 -0.043733001 0.30294001
0.061345 -0.044020999 0.30329001
0.12693 -0.042433999 0.26879999
0.062022001 -0.040909 0.30278
0.12714 -0.041790999 0.27011001
0.064732999 -0.041554 0.30283001
0.063956998 -0.040305 0.30096999
0.12392 -0.039600998 0.27002999
0.12493 -0.039992999 0.26914001
0.064277001 -0.039276 0.30241001
0.065181002 -0.038908001 0.30087
0.06476 -0.037957001 0.30146
0.12337 -0.036070999 0.27208
0.064942002 -0.035681002 0.30182999
0.066756003 -0.034209002 0.30111
0.12196 -0.03387 0.27208
0.12153 -0.034435 0.27208
0.067914002 -0.032159001 0.29936001
0.12038 -0.031575002 0.27147999
0.11994 -0.03108 0.27320999
0.069780998 -0.031635001 0.29951
0.068504997 -0.031539001 0.29932001
0.069291003 -0.031629998 0.2987
0.11862 -0.029832 0.27333
0.11815 -0.028325001 0.27333
0.070022002 -0.029565001 0.29863
0.069709003 -0.029354 0.29866999
0.069698997 -0.030595999 0.29955
0.071349002 -0.028289 0.2994
0.070386998 -0.028612001 0.29752001
0.11727 -0.028431 0.27452999
0.071452998 -0.027372001 0.29883999
0.11583 -0.027416 0.27428001
0.11743 -0.028896 0.27485999
0.071975999 -0.028457999 0.29775
0.071410999 -0.026505999 0.29793
0.072093002 -0.02689 0.29868999
0.11598 -0.026711 0.2757
0.11575 -0.025718 0.27625
0.072352 -0.025449 0.29736999
0.11435 -0.023636 0.27399001
0.11495 -0.023967 0.27410001
0.11508 -0.022553001 0.27691001
0.11383 -0.023302 0.27625
0.073619001 -0.021783 0.29578999
0.073278002 -0.021984 0.29622
0.074789003 -0.020888999 0.29706001
0.1139 -0.020112 0.27699
0.074414 -0.020424999 0.29642001
0.11364 -0.020214001 0.27614
0.11356 -0.019066 0.27702001
0.15355 -0.019283 0.25635001
0.15229 -0.018471001 0.25692001
0.156 -0.019717 0.25455999
0.15449999 -0.020497 0.25527999
0.15132 -0.018575 0.25674999
0.15673 -0.018649001 0.25316
0.15686999 -0.017866001 0.25429001
0.072866999 -0.018593 0.29725999
0.073105 -0.017688001 0.29767001
0.15931 -0.017991001 0.25198999
0.073224001 -0.017642001 0.29758999
0.16232 -0.015799001 0.25075999
0.14755 -0.01749 0.25920001
0.16468 -0.015760999 0.25034001
0.072109997 -0.015594 0.29756001
0.16469 -0.014586 0.25037
0.071176998 -0.015113 0.29806
0.071666002 -0.013648 0.29710001
0.070839003 -0.012608 0.29914001
0.071349002 -0.013079 0.29800001
0.16455001 -0.013839 0.25031
0.16428 -0.014559 0.25053
0.11075 -0.012919 0.27851999
0.11149 -0.014594 0.27774999
0.18028 -0.011914 0.24260999
0.17944001 -0.012161 0.24349
0.16669001 -0.011517 0.24843
0.1793 -0.011008 0.24338999
0.16804001 -0.010581 0.24833
0.17817999 -0.010567 0.24433
0.069514997 -0.011236 0.29907
0.16694 -0.011171 0.24984001
0.17759 -0.0088258004 0.24313
0.16872001 -0.010434 0.24852
0.16919 -0.0098673003 0.24817
0.16778 -0.0091939997 0.24841
0.16775 -0.0087646004 0.24938001
0.17708001 -0.0089208996 0.24382
0.17592999 -0.0093542999 0.24424
0.17649999 -0.0089942999 0.24436
0.17560001 -0.0091131004 0.24507999
0.16978 -0.0086661996 0.24827
0.16823 -0.0092200004 0.2483
0.16827001 -0.0084340004 0.24902999
0.17567 -0.0090496996 0.24627
0.17533 -0.0090872003 0.24495
0.066894002 -0.007731 0.30004001
0.17651001 -0.0087638004 0.24382
0.17393 -0.0087497002 0.2455
0.1095 -0.0078012999 0.27840999
0.067263998 -0.0095400997 0.30059999
0.1753 -0.0074764001 0.2465
0.16753 -0.0081930002 0.24898
0.068209998 -0.0079533998 0.29991999
0.17626999 -0.0069513 0.24393
0.17749999 -0.0080875 0.24316999
0.17665 -0.007007 0.24473999
0.17562 -0.0070623001 0.24524
0.17411 -0.0079584997 0.24541999
0.1717 -0.0071803001 0.24808
0.17036 -0.0086011002 0.24718
0.17058 -0.0071728998 0.24749
0.17612 -0.0064833998 0.24638
0.1749 -0.0060286 0.24604
0.16989 -0.0057009002 0.24728
0.16887 -0.0070786001 0.24684
0.16921 -0.0062071001 0.24866
0.16858999 -0.0058431998 0.24909
0.16896001 -0.0070099002 0.24793001
0.16816001 -0.0065953 0.24958
0.17539001 -0.0059659001 0.24444
0.17374 -0.0050075999 0.24609999
0.10765 -0.0060839001 0.27919
0.17367999 -0.0049538999 0.24751
0.17096999 -0.0055585001 0.24716
0.16926999 -0.0059972 0.24861
0.16672 -0.0049321 0.24933
0.17501999 -0.0042110998 0.24484999
0.17439 -0.0047308002 0.24536
0.1708 -0.0043651001 0.24795
0.17036 -0.0050376998 0.24756999
0.16960999 -0.0047674002 0.24913
0.16663 -0.00514 0.24838001
0.17576 -0.0044904002 0.245
0.17452 -0.0042880001 0.24536
0.17478 -0.0046378002 0.24507999
0.17069 -0.0036106 0.24885
0.17219 -0.0029001001 0.24762
0.17077 -0.003492 0.24886
0.17174999 -0.0048750001 0.24745999
0.1693 -0.0054192999 0.24879999
0.1707 -0.0023681 0.24795
0.16972999 -0.0037948 0.24775
0.17058 -0.0015638 0.24823999
0.17110001 -0.003397 0.24745999
0.10702 -0.0030408001 0.28026
0.17233001 -0.0021515 0.24777
0.17065001 -0.0031502999 0.24856
0.17003 -0.0023443999 0.24932
0.16777 -0.0017190001 0.24869999
0.064707004 -0.0043795998 0.30113
0.064838 -0.0041128001 0.30127001
0.062904 -0.0028746 0.30059001
0.16661 -0.0036684 0.24902999
0.16694 -0.0045155999 0.24914999
0.16906001 -0.0021647001 0.24800999
0.10575 -0.0033062999 0.28046
0.16876 -0.0014666 0.24798
0.17165001 -0.0012756001 0.24775
0.16947 -0.0023161001 0.24807
0.16772 -0.0014187 0.24957
0.16531 -0.001936 0.2502
0.16438 -0.0029619001 0.24978
0.16687 -0.0020155001 0.2492
0.16372 -0.0018938 0.25103
0.16437 -0.0027366001 0.24998
0.062939003 -0.0013871 0.30151999
0.16395999 -0.00023027 0.25161001
0.17016 -0.00047219999 0.24759001
0.16823 -0.0016935 0.24888
0.16699 -0.00076123001 0.24924
0.16298001 -0.0010931001 0.25167
0.16520999 -0.00011813 0.24954
0.062519997 -0.00041927001 0.30294999
0.062917002 -0.00083913998 0.30287999
0.17054 0.00036109 0.24755999
0.10593 0.00093282002 0.28022999
0.17179 -0.0010269 0.24803001
0.17112 0.0010522 0.24709
0.16709 -0.00012089 0.24864
0.16224 -0.0016599 0.25127
0.15955999 0.0019548 0.25264001
0.171 0.00055971002 0.24591
0.17038 0.0020318001 0.24642
0.15888999 0.0026866 0.25277001
0.062614001 0.0020443001 0.30331001
0.15953 0.00090965 0.25255999
0.15913001 -2.1624001e-05 0.25321999
0.15791 0.0016750999 0.25308999
0.15880001 0.0015885 0.25393
0.17099001 0.0031007 0.24735001
0.1705 0.0032665001 0.24698
0.17134 0.0041419999 0.24755999
0.1717 0.003328 0.24702001
0.17220999 0.0035105001 0.24605
0.15651 0.0027919 0.25417
0.061117001 0.0044942 0.30362999
0.16958 0.0051886998 0.24727
0.16889 0.004592 0.24771
0.10274 0.0029596 0.28044999
0.10321 0.0038066001 0.28154999
0.17098001 0.0054549999 0.24771
0.1693 0.0053821998 0.24843
0.17049 0.0064508999 0.24834999
0.1692 0.0057902001 0.24774
0.17036 0.0070723998 0.24751
0.15492 0.0054802001 0.25485
0.15425 0.0060319998 0.25512001
0.15358999 0.0052339002 0.25578001
0.060141999 0.0056787999 0.30293
0.17069 0.0059398999 0.24690001
0.16859999 0.0069539999 0.24898
0.15445 0.006753 0.25514999
0.17049 0.0080878995 0.24841
0.17139 0.0070298002 0.24690001
0.17208999 0.0071353 0.24638
0.171 0.0093993004 0.24617
0.17043 0.0087308995 0.24684
0.16985001 0.011065 0.24772
0.15037 0.0096578002 0.25861001
0.16948 0.010739 0.24816
0.14837 0.011344 0.25839999
0.14796001 0.012222 0.25915
0.14724 0.013136 0.25861999
0.14751001 0.011214 0.2572
0.14723 0.0099363998 0.25808001
0.061012998 0.012158 0.30485001
0.14839999 0.011523 0.25895
0.17027999 0.012575 0.24856
0.14748 0.013162 0.25916001
0.058986001 0.012662 0.30469999
0.058125 0.011951 0.30272999
0.17033 0.01363 0.24804001
0.14778 0.012855 0.25922999
0.14603999 0.014755 0.25854
0.097571 0.015897 0.28652
0.16833 0.014585 0.2482
0.16926 0.015121 0.24818
0.096679002 0.015842 0.28558001
0.094683997 0.015305 0.28534001
0.094153002 0.017151 0.28647
0.058370002 0.016944 0.30414999
0.16779999 0.01729 0.24852
0.16864 0.017982 0.24784
0.059310999 0.016911 0.30357999
0.16717 0.018479999 0.24886
0.16858 0.019084999 0.24909
0.14313 0.018316001 0.26175001
0.16699 0.019305 0.24894001
0.14326 0.019095 0.2613
0.058402002 0.020075001 0.30436
0.14181 0.020602999 0.26155001
0.13899 0.021408999 0.26344001
0.13951001 0.021342 0.26315001
0.059854999 0.019807 0.30465001
0.14045 0.022007 0.26229
0.13977 0.022816001 0.26330999
0.16597 0.022743 0.24951001
0.16456001 0.022409 0.25073001
0.16444001 0.023768 0.25023001
0.059202999 0.024161 0.30456999
0.16451 0.023404 0.25036001
0.13779999 0.023887999 0.264
0.13446 0.02452 0.26602
0.13494 0.023455 0.26572001
0.13636 0.024560001 0.26582
0.1647 0.025349 0.25134999
0.13658001 0.025110999 0.26547
0.059445001 0.023941001 0.30498001
0.16453999 0.025636001 0.25104001
0.13506 0.026582001 0.26668
0.13391 0.02561 0.26492
0.059034999 0.026719 0.30423
0.060286 0.027871 0.30480999
0.060210999 0.02777 0.30385
0.13333 0.02878 0.26679
0.05954 0.029539 0.30417001
0.06061 0.031145999 0.30329001
0.060865998 0.032426 0.30454001
0.060357999 0.031738002 0.30339
0.13289 0.032421 0.26657999
0.060871001 0.032561 0.30281001
0.062075999 0.032786001 0.30258
0.13262001 0.033544 0.26589
0.061916001 0.035278998 0.30349001
0.17239 0.034412 0.24561
0.13323 0.035266001 0.26552999
0.062528998 0.035711002 0.30283999
0.062490001 0.034903999 0.30276999
0.17273 0.034621 0.24482
0.063157998 0.035778001 0.30296999
0.17331 0.035158999 0.24611001
0.17324001 0.037431002 0.2466
0.13281 0.036320999 0.26604
0.13236 0.036952 0.26644999
0.13208 0.037218999 0.26666
0.13296001 0.038972002 0.26719999
0.13287 0.038763002 0.26664001
0.11851 0.037689999 0.27504
0.11953 0.037484001 0.27386999
0.11923 0.037656002 0.27372
0.1194 0.038054001 0.27427
0.17197999 0.037907999 0.24541
0.17195 0.038477998 0.24759001
0.064281002 0.039258 0.30151999
0.11892 0.038210001 0.27397999
0.064425997 0.039308 0.30252001
0.066497996 0.040685002 0.30112001
0.13251001 0.039836001 0.26677001
0.11978 0.040422 0.27296001
0.1204 0.040073998 0.27471
0.11838 0.039935 0.27520001
0.11688 0.039965 0.27562001
0.11743 0.039551001 0.27652001
0.066564001 0.041205 0.30011001
0.16969 0.041521002 0.24656001
0.11943 0.040697001 0.27375999
0.11839 0.041533999 0.27467999
0.11599 0.040461 0.27415001
0.1163 0.040433999 0.27544001
0.13243 0.042553 0.26653001
0.11703 0.041492 0.27425
0.11799 0.042654999 0.27405
0.17188001 0.041944999 0.24765
0.17082 0.042125002 0.24642999
0.067203 0.041377999 0.30068001
0.13332 0.042470001 0.26745
0.11415 0.041747 0.27647999
0.11487 0.043118998 0.27587
0.066964 0.043221999 0.30123001
0.17275 0.042755 0.24598999
0.068107001 0.044101998 0.29929
0.17178001 0.042629998 0.24680001
0.17375 0.043102998 0.24586999
0.17205 0.042918999 0.2466
0.13321 0.044875 0.26578
0.071460001 0.045655999 0.29894
0.11407 0.044766001 0.27662
0.11178 0.045177002 0.27754
0.11246 0.045449998 0.27697
0.11203 0.045531001 0.27829999
0.072218999 0.044638999 0.29797
0.13378 0.045412 0.26552999
0.11246 0.045182999 0.2773
0.1119 0.045527 0.27803001
0.11049 0.045012001 0.27789
0.13327 0.045641001 0.26736999
0.13293999 0.047123 0.26618001
0.1144 0.046746001 0.27548
0.11449 0.047006 0.27509001
0.11345 0.046666998 0.27667001
0.071162999 0.047033001 0.29793
0.11364 0.047316 0.27664
0.072979003 0.046192002 0.29773
0.13345 0.047359999 0.26747999
0.071534999 0.046388999 0.29800999
0.072568998 0.047284 0.29791
0.11291 0.049603999 0.27588001
0.11346 0.047239002 0.27583
0.073981002 0.048464 0.29776001
0.072380997 0.048728999 0.29690999
0.073367 0.047065999 0.29818001
0.073573999 0.047410998 0.29802999
0.10847 0.048464 0.27843001
0.13324 0.048847001 0.26537001
0.10658 0.048501 0.28009999
0.10617 0.049461 0.27965
0.074864 0.049176 0.29524001
0.17354 0.049233001 0.24529999
0.10536 0.050206002 0.27970999
0.10687 0.050583001 0.27925
0.10344 0.050735999 0.28049001
0.17437001 0.050861999 0.24548
0.13409001 0.050384998 0.26598001
0.13395 0.049968001 0.26639
0.10722 0.051288001 0.27906999
0.10649 0.05091 0.28083
0.075390004 0.050746001 0.29653999
0.1753 0.052320998 0.24479
0.10355 0.052049998 0.28218001
0.081220001 0.050648 0.29394999
0.076283999 0.052141 0.29502001
0.17767 0.051484998 0.24453001
0.17764001 0.051587999 0.24269
0.10311 0.051502999 0.28152001
0.080236003 0.051139001 0.29381999
0.099182002 0.051266 0.28400001
0.080080003 0.053073999 0.29334
0.10244 0.052607998 0.28202
0.10019 0.052476998 0.28450999
0.084772997 0.05305 0.29098001
0.080963999 0.053367 0.29389
0.10331 0.053119998 0.28191999
0.097932003 0.053245999 0.28388
0.094191 0.053412002 0.28714001
0.084608003 0.053133 0.29132
0.096515998 0.052997999 0.28422999
0.091481999 0.053541001 0.28720999
0.082979001 0.053659 0.2922
0.17799 0.052429002 0.24323
0.17871 0.053562 0.24303
0.17859 0.053780999 0.24326999
0.13449 0.053353999 0.26594001
0.10233 0.053454001 0.28204
0.10148 0.054340001 0.28301999
0.1007 0.053746 0.28347999
0.09984 0.054462001 0.28420001
0.092931002 0.053415999 0.28722
0.091872998 0.053830002 0.28805
0.087444 0.053778 0.29071
0.086934 0.053776 0.28970999
0.084427997 0.053452 0.29131001
0.083153002 0.054021999 0.29205
0.081345998 0.053654999 0.29280999
0.17697001 0.054097999 0.24437
0.098031998 0.053886 0.28554001
0.091100998 0.053261999 0.28784001
0.086905003 0.054692999 0.29012001
0.17659 0.053863 0.24422
0.13439 0.054196998 0.26649001
0.10038 0.054180998 0.28376001
0.095210001 0.054065 0.28579
0.090682998 0.054200999 0.28794
0.089539997 0.054738998 0.28964001
0.095486999 0.054710999 0.28659999
0.089128003 0.055303998 0.28916001
0.17565 0.056255002 0.24530999
0.094013996 0.054279 0.28599
0.094589002 0.055107001 0.28665999
0.089501999 0.055371001 0.28911999
0.13503 0.055523999 0.26767999
0.13457 0.056623001 0.26567
0.13556001 0.057365 0.26552001
0.13590001 0.059083 0.26464
0.13555001 0.060341001 0.26475999
0.13562 0.059916001 0.26388001
0.13547 0.060270999 0.26402
0.13598999 0.061314002 0.26493001
0.1382 0.062638998 0.26409999
0.1382 0.062277999 0.26438999
0.13806 0.062817 0.26422
0.13955 0.062873997 0.26317999
0.13823999 0.063761003 0.26607999
0.14001 0.064262003 0.26291999
0.14071 0.064909004 0.26190001
0.14278001 0.064997002 0.26199001
0.14205 0.065761 0.2615
0.17721 0.066336997 0.24364001
0.1441 0.066349998 0.26069999
0.1442 0.068660997 0.25988999
0.14588 0.068631999 0.26075
0.14512999 0.068483002 0.25946999
0.1435 0.068352997 0.26155001
0.14326 0.069307998 0.26186001
0.14092 0.071036004 0.26245999
0.16256 0.071061 0.25035
0.1611 0.071254 0.25158
0.15885 0.070316002 0.25466001
0.15665001 0.072140999 0.25327
0.1569 0.071213998 0.25363001
0.15566 0.071685001 0.25540999
0.15567 0.071581997 0.25501999
0.1552 0.071507998 0.25468001
0.13889 0.071168996 0.26354
0.138 0.072385997 0.26504001
0.15234999 0.072719 0.25725001
0.1534 0.072406001 0.25543001
0.15346 0.072981998 0.25608999
0.15302999 0.073867999 0.25556999
0.15263 0.074143 0.25604999
0.15281001 0.075869001 0.25584
0.15257999 0.075612001 0.25573
0.15196 0.075581998 0.25691
0.15260001 0.077349998 0.25643
0.15217 0.077634998 0.25626999
0.15177 0.078302003 0.25711
0.15203001 0.078489996 0.25681001
0.15078001 0.079228997 0.25711
0.15053999 0.078596003 0.25764999
0.14715999 0.080025002 0.25893
0.14622 0.077872999 0.25951999
0.14539 0.078587003 0.25999999
0.14511999 0.078818001 0.26146999
0.14725 0.078869998 0.25986999
0.15188999 0.080294997 0.25736001
0.14856 0.079737999 0.25878
0.14869 0.081035003 0.25938001
0.15015 0.080812 0.25804999
0.15112001 0.08061 0.25711
0.15014 0.081955001 0.25808001
0.14779 0.080416001 0.25852999
0.14927 0.080769002 0.25834
0.14806999 0.082635 0.25871
0.15172 0.081004001 0.2561
0.15005 0.082957998 0.25733
0.15005 0.081900001 0.25751001
0.15183 0.082376003 0.25724
0.14719 0.082549997 0.25850999
0.14779 0.082826003 0.25828001
0.15079001 0.083535001 0.25760999
0.14723 0.082831003 0.25959
0.14691 0.083935998 0.25944999
0.14994 0.084631003 0.25903001
0.14939 0.084481001 0.25771001
0.14985999 0.085309997 0.2577
0.14916 0.085336998 0.25887001
0.14482 0.084980004 0.26093
0.14509 0.085740998 0.26196
0.14426 0.086678997 0.26190999
0.14974 0.086873002 0.25893
0.14825 0.088321 0.25813001
0.14875001 0.086879998 0.25909999
0.14473 0.086957 0.26100999
0.14349 0.087747 0.26107001
0.14822 0.089057997 0.25944
0.14741001 0.089544997 0.26017001
0.14438 0.090383001 0.26179999
0.1464 0.089706004 0.26008001
0.14677 0.089803003 0.25904
0.14426 0.088932 0.25990999
0.14602 0.089754999 0.25973001
0.14443 0.089833997 0.25984001
0.14664 -0.053502999 0.2588
0.14439 -0.053459998 0.25942001
0.14282 -0.053397 0.26208001
0.14215 -0.052808002 0.26006001
0.1399 -0.052388001 0.26332
0.13939001 -0.053188 0.26323
0.13921 -0.053463001 0.26199001
0.088789999 -0.053045999 0.2895
0.085943997 -0.052501999 0.29054999
0.084864996 -0.053153001 0.29021001
0.062146999 -0.052593999 0.30245
0.061818998 -0.052818999 0.30197999
0.061195001 -0.052547999 0.30261001
0.059236001 -0.054136001 0.30329999
0.13844 -0.051973999 0.26275
0.089317001 -0.052042 0.28727999
0.083423004 -0.051392 0.29218
0.080894999 -0.052869 0.29282001
0.082046002 -0.051584002 0.29223001
0.060038999 -0.050549001 0.30430999
0.057985999 -0.051555 0.30491999
0.13627 -0.050080001 0.26530001
0.079448 -0.051431999 0.29227999
0.058417998 -0.049392998 0.30429
0.13516 -0.051251002 0.26460999
0.13334 -0.049539998 0.26517999
0.13321 -0.050088 0.26504999
0.13102999 -0.048103001 0.26686001
0.13214999 -0.048537001 0.26635
0.059932001 -0.046656001 0.30427
0.13116001 -0.047118001 0.2676
0.12845001 -0.044511002 0.26945999
0.12781 -0.044977002 0.26833999
0.12684999 -0.043278001 0.26824999
0.059971999 -0.042858001 0.30364001
0.061643999 -0.042715002 0.30193999
0.12557 -0.042061999 0.26916999
0.12661 -0.041657999 0.26853999
0.063036002 -0.042909 0.30151001
0.063184001 -0.040708002 0.30114999
0.062205002 -0.040555 0.30111
0.063451 -0.040454 0.30159
0.12327 -0.039257001 0.27072001
0.064883001 -0.037439998 0.30138999
0.12352 -0.03819 0.26973999
0.12356 -0.036816001 0.27094999
0.065219998 -0.036251001 0.30019999
0.12155 -0.036371 0.27197999
0.065716997 -0.032694001 0.29982999
0.065508001 -0.034102999 0.30002999
0.066054001 -0.035737999 0.29975
0.12068 -0.033826001 0.27186
0.067336001 -0.032747999 0.29877999
0.11806 -0.031072 0.27314001
0.069153003 -0.030642999 0.29738
0.11694 -0.029340999 0.27296001
0.070072003 -0.028948 0.29791999
0.069105998 -0.028790001 0.29855001
0.071395002 -0.027597999 0.2976
0.071309 -0.027110999 0.29664999
0.073922001 -0.023771999 0.29736999
0.1151 -0.020950001 0.27476999
0.11316 -0.021755001 0.2753
0.072998002 -0.019580999 0.29631999
0.15252 -0.018688001 0.25578001
0.15124001 -0.019779 0.25617999
0.14952999 -0.018756 0.25670999
0.11323 -0.018422 0.27748001
0.074337997 -0.01921 0.29651001
0.1565 -0.01859 0.25418001
0.14969 -0.018227 0.25830001
0.15884 -0.017588999 0.25123
0.11183 -0.018323001 0.27689999
0.11184 -0.017007999 0.27627
0.073349997 -0.019096 0.29571
0.072759002 -0.018642999 0.29675001
0.16166 -0.016395999 0.25226
0.16133 -0.017576 0.25116
0.11174 -0.016505999 0.27616
0.11147 -0.015861999 0.27706999
0.11022 -0.015761999 0.27790999
0.072517 -0.016372001 0.29659
0.070901997 -0.015435 0.29763001
0.16297001 -0.014288 0.25023001
0.16401 -0.014444 0.24984001
0.071565002 -0.014181 0.29708001
0.11067 -0.013378 0.27763
0.11147 -0.015028 0.27836001
0.16564 -0.012491 0.24869999
0.070165999 -0.012767 0.29879001
0.070343003 -0.013224 0.29754999
0.18032999 -0.010863 0.24155
0.18001001 -0.012807 0.24217001
0.16722 -0.011442 0.24903999
0.16602001 -0.010511 0.24922
0.068102002 -0.011536 0.29840001
0.18054 -0.0091425003 0.24304
0.16619 -0.0097773001 0.2498
0.16664 -0.0090434998 0.25048
0.068607002 -0.0094483001 0.29951
0.068561003 -0.0088860001 0.29932001
0.17905 -0.010482 0.24358
0.16597 -0.0080535999 0.24927001
0.17820001 -0.0093267998 0.24336
0.17930999 -0.0074711 0.24270999
0.16927999 -0.0069352002 0.24778999
0.16806 -0.0081917997 0.24756999
0.16835999 -0.0073873 0.24872001
0.17686 -0.0072662998 0.24368
0.16714001 -0.0075809001 0.24929
0.16658001 -0.0065147001 0.25046
0.16683 -0.0067111002 0.24913
0.066712998 -0.0076426999 0.30057001
0.17861 -0.0067842002 0.24415
0.17756 -0.0066718999 0.24354
0.17855 -0.0074602002 0.24191
0.17812 -0.0054528001 0.24279
0.17718001 -0.0060943998 0.24383
0.16682 -0.0072261998 0.24908
0.10782 -0.0052518002 0.27844
0.16666 -0.0054218001 0.24857
0.17702 -0.0047753998 0.24387001
0.17608 -0.0041387998 0.24382
0.065320998 -0.0064482 0.30015001
0.17636999 -0.0045050001 0.24321
0.16553999 -0.0068410002 0.24885
0.1051 -0.0051064002 0.27935001
0.16592 -0.0050357999 0.24857
0.16524 -0.0045091002 0.24952
0.17538001 -0.0038582 0.24584
0.17542 -0.0042039999 0.24468
0.17335001 -0.0033716001 0.24603
0.16439 -0.0037896 0.25007999
0.17488 -0.0036603 0.24368
0.17396 -0.0028009999 0.24634001
0.16418 -0.0036776999 0.25055999
0.064639002 -0.0035266001 0.30153999
0.17476 -0.0024939 0.24506
0.17484 -0.0022885001 0.24482
0.17253 -0.0030749999 0.24665
0.16641 -0.0023687 0.24877
0.17245001 -0.0015279 0.24538
0.16507 -0.0027447999 0.24951001
0.16354001 -0.0030461 0.24957
0.1728 -0.0016120001 0.24680001
0.16618 -0.00091583998 0.24876
0.17223001 -0.0020985999 0.24577001
0.16204 -0.0023620999 0.25104001
0.16301 -0.0017991 0.25123999
0.16101 -0.0019779 0.25094
0.10648 -0.0011854999 0.28123
0.16072001 -0.0011122 0.25174999
0.16068 -0.0016019 0.25138
0.17205 -0.00053712999 0.24567001
0.17308 -0.00043471999 0.24676999
0.17309 -0.00042261 0.24529
0.17367999 0.0011396999 0.24628
0.10512 -0.0020099999 0.27919999
0.10498 -0.00085771998 0.27994999
0.16046999 -0.00079697999 0.25173
0.17285 0.0018817 0.24491
0.17253 0.0017568 0.24561
0.16165 0.00042478001 0.25266001
0.16001999 0.00087486999 0.25283
0.15834001 0.0015464 0.25358
0.061338998 0.002323 0.30366001
0.17264 0.0027294001 0.24587999
0.10307 0.0032017999 0.28095001
0.15756001 0.0024206999 0.2536
0.17301001 0.0028027 0.24541999
0.17116 0.0039840001 0.24591
0.15565 0.0032875999 0.25393999
0.17231999 0.0043237 0.24604
0.17237 0.0042237001 0.24669001
0.17140999 0.0055303001 0.24637
0.1709 0.0056770002 0.24639
0.10252 0.0048341998 0.28064999
0.10279 0.0052844998 0.2809
0.15248001 0.0070421998 0.25619999
0.17206 0.0074749002 0.24594
0.10209 0.0077179 0.28296
0.14995 0.0070608002 0.25681999
0.15098 0.0075059999 0.25644001
0.17181 0.0078753 0.24617
0.14964999 0.0092011001 0.25690001
0.10123 0.0077741002 0.28286999
0.10112 0.0083954995 0.28126001
0.059758 0.010377 0.30384001
0.17086001 0.01034 0.24684
0.14993 0.0091971001 0.25737
0.059328001 0.010887 0.30377999
0.17044 0.010333 0.24837001
0.058738999 0.0090899998 0.30364001
0.17050999 0.010997 0.24654
0.14983 0.010232 0.25760001
0.14875001 0.010354 0.25742
0.16943 0.012163 0.24815001
0.1689 0.012668 0.24715
0.097939 0.012092 0.28259
0.097772002 0.012855 0.28332001
0.16951001 0.015192 0.24707
0.097886004 0.013261 0.28378999
0.057902001 0.013817 0.30373001
0.058472 0.01304 0.30311
0.16835999 0.015299 0.24765
0.095801003 0.014667 0.28479999
0.16859999 0.016426999 0.24719
0.14432999 0.016404999 0.26109999
0.14339 0.01787 0.26067999
0.059388999 0.017521 0.30504
0.16756 0.017461 0.24787
0.14356001 0.018804001 0.26115999
0.14246 0.017882001 0.26078999
0.058189999 0.019461 0.30430999
0.058456 0.016824 0.30533999
0.059542 0.018515 0.30531001
0.16757999 0.019614 0.24939001
0.057539001 0.020513 0.30379
0.058343999 0.019034 0.30535001
0.057603002 0.020181 0.30432999
0.16613001 0.0196 0.24860001
0.1416 0.020454001 0.26187
0.13933 0.021706 0.2631
0.13976 0.021708 0.26319
0.16609 0.021083999 0.2492
0.13754 0.021643 0.26359001
0.13913 0.020915 0.26383001
0.14021 0.02014 0.26196
0.13802999 0.022025 0.26361001
0.058924999 0.021529 0.30368
0.058279 0.022488 0.30397001
0.16644999 0.021756001 0.24959999
0.13744999 0.022939 0.26407999
0.1358 0.022832001 0.26561999
0.13527 0.023269 0.26453999
0.13483 0.023845 0.26481
0.134 0.023530999 0.26411
0.13471 0.025909999 0.26484999
0.16378 0.026872 0.25027001
0.059452001 0.026319999 0.3046
0.061985999 0.031601999 0.30320999
0.16932 0.03393 0.24812999
0.17362 0.034504 0.24564999
0.062279001 0.034784 0.30303001
0.13308001 0.035038002 0.2658
0.062757 0.035037 0.30173001
0.17399 0.035707999 0.24394
0.1736 0.035974 0.24628
0.17475 0.037292998 0.24481
0.17397 0.036685999 0.24586
0.063256003 0.037594002 0.30217001
0.063818999 0.038008999 0.30199999
0.063322999 0.037999999 0.30169001
0.062913999 0.037951998 0.30148
0.13393 0.037145 0.26543999
0.1332 0.038238 0.26549
0.17249 0.037973002 0.24592
0.13264 0.038033001 0.26644
0.063175 0.039453998 0.30186999
0.17105 0.039448 0.24651
0.17315 0.038956001 0.24545
0.17195 0.039916001 0.24617
0.12065 0.039333001 0.27368999
0.12036 0.039007999 0.27160001
0.12029 0.039841998 0.2726
0.11599 0.041060999 0.27563
0.11883 0.042073999 0.27353999
0.11904 0.041361 0.27252999
0.11572 0.041749001 0.27632999
0.11525 0.042084999 0.27573001
0.11553 0.041048001 0.27627
0.11607 0.041283 0.27474001
0.11542 0.042412002 0.27482
0.17295 0.041579999 0.24403
0.17219 0.042869002 0.24562
0.11849 0.042362999 0.27410999
0.11914 0.04383 0.27388999
0.11651 0.042909998 0.27474001
0.11772 0.043568999 0.27522001
0.13252001 0.043228999 0.26492
0.11827 0.04414 0.27318001
0.11791 0.044333 0.27401999
0.065327004 0.042580999 0.30002001
0.11579 0.043412 0.27456
0.11464 0.043960001 0.27559999
0.11431 0.044245999 0.27559999
0.070100002 0.044969998 0.29877999
0.069224998 0.044803001 0.29905
0.068196997 0.044994 0.29909
0.13447 0.045127999 0.26633
0.11455 0.044776 0.27671
0.11619 0.044210002 0.27465999
0.11511 0.045419 0.27575999
0.11172 0.047051001 0.27699
0.11542 0.046413999 0.27463999
0.11503 0.046266999 0.27513
0.11199 0.047183 0.27689999
0.11062 0.048066001 0.27781001
0.13322 0.047764 0.26501
0.11368 0.047497001 0.27684
0.070886001 0.047896001 0.29734001
0.070666 0.047146998 0.29852
0.114 0.048252001 0.27577999
0.10861 0.048881002 0.27809
0.13372999 0.048069999 0.26585001
0.13326 0.047738001 0.26569
0.070647001 0.047687002 0.29692
0.11288 0.049068999 0.27669001
0.075135 0.049809001 0.29554
0.074000999 0.049725 0.29613999
0.071135998 0.048670001 0.29627001
0.10934 0.049869001 0.278
0.10806 0.049732 0.27803999
0.17352 0.050515 0.24515
0.17342 0.049364999 0.24598999
0.17428 0.048737001 0.24563
0.074963003 0.050379001 0.29655001
0.10756 0.051066 0.27922001
0.10554 0.050634 0.28011
0.074395999 0.051130001 0.29624
0.077661999 0.051623002 0.29449999
0.17592999 0.051677 0.24476001
0.10324 0.051527999 0.28174001
0.079443 0.051780999 0.29405001
0.079573996 0.051808 0.29425001
0.077395998 0.052558001 0.29398
0.077685997 0.051484998 0.29567999
0.077049002 0.051538002 0.29447001
0.076330997 0.052097 0.29497999
0.17801 0.051112998 0.24257
0.17824 0.053010002 0.24314
0.13462999 0.051562 0.26453999
0.10275 0.052177999 0.28114
0.086488001 0.053454001 0.28946
0.084895 0.053169001 0.28985
0.17894 0.052751999 0.24350999
0.13367 0.053511001 0.26593
0.098814003 0.054752 0.28498
0.084891997 0.052841 0.29168001
0.079915002 0.054340001 0.29429999
0.081308998 0.052216001 0.29405001
0.13444 0.052852001 0.26598001
0.084510997 0.053265002 0.29043999
0.083135001 0.052219 0.29099
0.081537999 0.054519001 0.29126999
0.17718001 0.054311 0.24297
0.1776 0.054214001 0.24297
0.10122 0.054542001 0.2827
0.098995999 0.054235 0.28334001
0.093020998 0.054783002 0.28771001
0.096726 0.055479001 0.28459999
0.095637001 0.055188 0.28641
0.095183 0.055550002 0.28658
0.093712002 0.054671999 0.28696999
0.094419003 0.054869 0.2863
0.088683002 0.055291999 0.28962001
0.088265002 0.054953001 0.29047
0.13581 0.058616001 0.26429999
0.13557 0.059092 0.26429
0.13647 0.059751 0.26412001
0.13681 0.061142001 0.26297
0.13992 0.064989001 0.26201999
0.14181 0.065263003 0.26161
0.14005999 0.065844998 0.2622
0.17709 0.066018 0.24406999
0.17767 0.065729 0.24304999
0.14218999 0.065384999 0.26185
0.14153001 0.066761002 0.26025
0.14298999 0.068000004 0.2606
0.14458001 0.069287002 0.25933
0.1611 0.070961997 0.25154001
0.16133 0.070877001 0.25161999
0.15987 0.071129002 0.25196999
0.15998 0.071571998 0.25116
0.15955999 0.072431996 0.25263
0.15955999 0.072305001 0.25266999
0.15649 0.071310997 0.25437
0.15903001 0.071544997 0.25371
0.1576 0.071538001 0.25297999
0.1551 0.072103001 0.25424001
0.15347999 0.072300002 0.25587001
0.13753 0.071791999 0.26370999
0.15297 0.074767001 0.25569001
0.15256 0.077418998 0.25635001
0.15295 0.077230997 0.25549001
0.14556 0.078578003 0.25916001
0.14437 0.078657001 0.26076001
0.15157001 0.079645 0.25637001
0.14737 0.079857998 0.25883999
0.15212999 0.080360003 0.25672001
0.14777 0.082162 0.25850999
0.15139 0.082704999 0.25757
0.15118 0.083870001 0.25777
0.14683001 0.083168 0.25795999
0.15082 0.086108997 0.25775
0.14963999 0.086686999 0.25813001
0.14839 0.086956002 0.25874999
0.14688 0.088555001 0.25819999
0.14365999 -0.054021001 0.25974
0.14297 -0.053374998 0.25999001
0.086524002 -0.053429 0.28922999
0.13886 -0.052696001 0.26225999
0.086025998 -0.052258998 0.28953999
0.084645003 -0.052629001 0.29049
0.083857 -0.052852999 0.29039001
0.060408 -0.053594001 0.30355
0.058807001 -0.053270001 0.30403
0.058348 -0.05198 0.3035
0.057611 -0.053553 0.30388001
0.13779999 -0.052175 0.26282001
0.13726 -0.052351002 0.26337001
0.081926003 -0.052453 0.29119
0.058093 -0.051146001 0.30513
0.13642 -0.052354001 0.264
0.13574 -0.051646002 0.26455
0.079501003 -0.049941 0.29317999
0.058563001 -0.050268002 0.30401999
0.13367 -0.049991999 0.26499999
0.058164999 -0.049006999 0.30333
0.13150001 -0.048779 0.26611
0.058297001 -0.049725998 0.30393001
0.12977 -0.046778999 0.26725
0.12955 -0.046369001 0.26633999
0.059528999 -0.046753 0.30434
0.059804998 -0.046464 0.30298999
0.059342001 -0.047104001 0.30307999
0.058596998 -0.045715999 0.30276
0.12918 -0.046275001 0.26787001
0.12933999 -0.044729002 0.26754999
0.12859 -0.045430999 0.26797
0.060378 -0.044229999 0.30344
0.059310999 -0.044652 0.30399001
0.12643 -0.043864999 0.26907
0.062976003 -0.041347001 0.3017
0.062266 -0.042259999 0.30214
0.062890999 -0.041405 0.30111
0.12419 -0.039790001 0.26952001
0.064763002 -0.038081001 0.30181
0.063376002 -0.039381001 0.30184999
0.1228 -0.037684999 0.27110001
0.065003999 -0.036639001 0.30133
0.12311 -0.038403001 0.27193999
0.064429998 -0.037485 0.301
0.12175 -0.036603998 0.27110001
0.065231003 -0.034855999 0.30098999
0.063995004 -0.035854001 0.30074
0.12064 -0.035636 0.27162001
0.11967 -0.033652 0.27265999
0.11932 -0.033135001 0.27254
0.119 -0.032418001 0.27358001
0.067569003 -0.032721002 0.29824999
0.068641998 -0.030726001 0.29980999
0.11892 -0.032106001 0.27351001
0.11791 -0.030207001 0.27324
0.11695 -0.029255999 0.27315
