# .PCD v0.7 - Point Cloud Data file format
VERSION 0.7
FIELDS x y z
SIZE 4 4 4
TYPE F F F
COUNT 1 1 1
WIDTH 1598
HEIGHT 1
VIEWPOINT 0 0 0 1 0 0 0
POINTS 1598
DATA ascii
0.041170001 0.061422002 0.26041999
0.040477999 0.061533 0.25968
0.041204002 0.079994999 0.30858001
0.064874001 0.14282 0.29405001
0.08506 0.1948 0.26945999
0.078755997 0.13097 0.33992001
0.067988999 0.11592 0.34191999
0.064999998 0.099368997 0.34415999
0.065265998 0.059487 0.33544999
0.069238998 0.058649998 0.33739001
0.068818003 0.059794001 0.33673999
0.068403997 0.058557 0.33682001
0.063873999 0.060878001 0.33344999
0.023403 0.13301 0.23526999
0.022631999 0.13213 0.23489
0.023980999 0.13281 0.23478
0.079190999 0.17787001 0.27155
0.087507002 0.19241001 0.27059001
0.087172002 0.19367 0.27109
0.087095998 0.19272 0.27015999
0.022980999 0.16256 0.25955999
0.056568999 0.10861 0.33623001
0.022861 0.14512999 0.23221
0.078789003 0.12967999 0.33923
0.079790004 0.13116001 0.33831999
0.064952001 0.059402 0.33408999
0.069059998 0.0616 0.33864999
0.068360001 0.061207999 0.33680999
0.055225 0.098840997 0.33667001
0.053812999 0.097406 0.33570999
0.042151999 0.060573 0.31136
0.052308001 0.10406 0.33517
0.051647 0.10359 0.33441001
0.065242 0.097594999 0.34371001
0.071506999 0.14383 0.29225001
0.071661003 0.14495 0.29177001
0.086007997 0.17907 0.27326
0.054699 0.11823 0.31959
0.062983997 0.054166999 0.33149999
0.062601998 0.053491998 0.33274001
0.064755999 0.05596 0.33476001
0.037252001 0.053633001 0.29042
0.036045998 0.053073 0.29056001
0.037041001 0.051778998 0.29010001
0.078363001 0.12576 0.34187999
0.079911999 0.12467 0.34276
0.079722002 0.12657 0.34086999
0.080588996 0.12796 0.33919999
0.026656 0.095867001 0.25622001
0.025312999 0.093764 0.25759
0.026799999 0.096721001 0.25705001
0.088118002 0.19326 0.27281001
0.057971999 0.072503999 0.33612001
0.058534 0.073007002 0.33697999
0.064737 0.061516002 0.33418
0.061071999 0.094053999 0.34088001
0.058444001 0.095371 0.34103
0.058538999 0.094329998 0.3407
0.063367002 0.055946998 0.33259001
0.060145002 0.095555 0.33978999
0.061147001 0.097801998 0.34176999
0.071754999 0.17982 0.26418999
0.047207002 0.17042001 0.23052
0.051688999 0.098940998 0.33445001
0.053247999 0.10033 0.33394
0.053183999 0.10471 0.33548999
0.023190999 0.15942 0.23662999
0.023018001 0.16152 0.236
0.022913 0.16137999 0.23652001
0.054579999 0.096188001 0.33708
0.035769001 0.059230998 0.30508
0.062709004 0.058859002 0.33238
0.086778 0.17748 0.27625
0.058991 0.090934999 0.33888999
0.059340999 0.092612997 0.33921
0.058109 0.10902 0.33592001
0.054712001 0.087530002 0.33728999
0.062143002 0.11119 0.33756
0.053194001 0.097202003 0.33541
0.084283002 0.19069 0.26971
0.085496999 0.19187 0.26982
0.035124 0.055125002 0.30325001
0.035523999 0.055193 0.30443001
0.035498001 0.055566002 0.30482
0.036364 0.057328999 0.30565
0.035606001 0.056765001 0.30307001
0.036915999 0.056187 0.30535999
0.036878999 0.058316998 0.30572999
0.049631 0.058591001 0.25711
0.05122 0.058865 0.25845
0.059411 0.097011998 0.34097999
0.060998 0.092233002 0.3405
0.059718002 0.091949001 0.34167001
0.057728 0.074919 0.33647001
0.086349003 0.17618001 0.27792999
0.085166 0.17592999 0.27814999
0.086030997 0.19163001 0.26954001
0.056391001 0.053755999 0.32534999
0.012863 0.15694 0.25350001
0.013733 0.15611 0.25205001
0.085814998 0.17845 0.27794001
0.055627 0.10607 0.33636001
0.036286 0.057092 0.30700001
0.036102001 0.05387 0.30544999
0.082148999 0.18821999 0.26949999
0.081816003 0.18458 0.26723
0.080064997 0.18284 0.26714
0.038887002 0.066734001 0.27041
0.038761999 0.067374997 0.27186
0.037346002 0.057913002 0.30724999
0.037124 0.058412001 0.30759001
0.050225001 0.11946 0.30875999
0.041960999 0.059811 0.31051999
0.095536001 0.20259 0.27362001
0.083555996 0.18640999 0.26773
0.019504 0.13507 0.23647
0.016927 0.13433 0.23574001
0.018124999 0.13676 0.23593
0.058488999 0.070646003 0.33521
0.063447997 0.061411999 0.33175001
0.038642999 0.054938 0.30836001
0.037997998 0.055964999 0.30840999
0.040472001 0.059092999 0.30699
0.043113001 0.11402 0.30182999
0.043974999 0.11369 0.30232999
0.024836 0.11608 0.25775
0.070697002 0.14007001 0.32427999
0.037491001 0.052926999 0.30562001
0.077114001 0.12553 0.33919999
0.075584002 0.12694 0.33967999
0.078534 0.18437 0.26789999
0.078212 0.18076999 0.25444001
0.079441004 0.18131 0.25474
0.080871001 0.18119 0.25538999
0.037705 0.093567997 0.23695999
0.084590003 0.17463 0.27469
0.056458998 0.076191999 0.33633
0.038444001 0.051925 0.30608001
0.077680998 0.19013999 0.25968
0.078296997 0.18835001 0.26014999
0.039167002 0.058708001 0.30805999
0.039521001 0.059489999 0.30823001
0.039106 0.059307002 0.30884001
0.054040998 0.064294003 0.26446
0.05249 0.063631997 0.26357999
0.088244997 0.19006 0.26995
0.057534002 0.093874 0.34196001
0.096891001 0.19103 0.26517999
0.096891999 0.19276001 0.26451999
0.097070999 0.19224 0.26519001
0.039669 0.058595002 0.31011999
0.039921999 0.05892 0.30937001
0.041239001 0.060295001 0.30974999
0.043249 0.088348001 0.23525999
0.04267 0.086607002 0.23733
0.083265997 0.18303999 0.25742999
0.053831 0.11998 0.31442001
0.080046996 0.12861 0.33904001
0.079177998 0.13045999 0.33834001
0.019433999 0.13129 0.23781
0.022422001 0.13075 0.23698001
0.02018 0.12984 0.23771
0.041193001 0.054965001 0.30935001
0.040746 0.057906002 0.30941001
0.040723 0.059416 0.30891001
0.056019999 0.082960002 0.33704001
0.060067002 0.052983001 0.32995
0.062702 0.056072999 0.32984
0.031093 0.06098 0.25993001
0.032625999 0.060757 0.26082999
0.032271001 0.059083 0.25993001
0.078305997 0.12684 0.34136
0.077396996 0.12661999 0.34185001
0.079150997 0.1276 0.34114999
0.085303999 0.18458 0.25748
0.085670002 0.18591 0.25874001
0.041030001 0.05658 0.30994999
0.040679999 0.057397999 0.31121999
0.041308999 0.058318 0.31147
0.055413 0.098623 0.33781001
0.057677999 0.098748997 0.33706999
0.016004 0.13122 0.23926
0.016297 0.13335 0.2378
0.016556 0.13241 0.23713
0.04575 0.1173 0.30335
0.047109999 0.11412 0.30265999
0.078357004 0.13731 0.33208999
0.076865003 0.13897 0.33074999
0.097640999 0.17998999 0.28037
0.030146001 0.10946 0.23406
0.031555001 0.10767 0.23280001
0.086699001 0.18777999 0.26076999
0.043568999 0.054683998 0.31156999
0.041797999 0.055865999 0.31206
0.041595001 0.054170001 0.31077
0.042750001 0.057441998 0.31156999
0.055868 0.085543998 0.33658999
0.055842001 0.086875997 0.33653
0.10359 0.20017 0.27403
0.075638004 0.13790999 0.33137
0.064373001 0.17143001 0.26317
0.028789001 0.11073 0.23286
0.031468 0.11115 0.23215
0.032373998 0.10904 0.23235001
0.031555999 0.10444 0.23559999
0.031993002 0.10335 0.234
0.031022999 0.10689 0.23306
0.031807002 0.10475 0.23232
0.032692 0.10504 0.2342
0.064943001 0.17129999 0.26320001
0.064407997 0.17276999 0.2624
0.042500999 0.054749999 0.31213999
0.043347001 0.056480002 0.31206
0.042316999 0.055996001 0.31084999
0.043880001 0.056366 0.31384999
0.030492 0.095941998 0.24189
0.028991999 0.096148998 0.24033
0.029318999 0.095455997 0.24074
0.091227002 0.18784 0.26109999
0.090239003 0.18709999 0.26087001
0.089950003 0.18742 0.26175001
0.053929999 0.066357002 0.26422
0.10088 0.2013 0.27346
0.033131 0.093952 0.2376
0.034825001 0.094338998 0.23494001
0.060337 0.084944002 0.33857
0.060120001 0.085378997 0.33912
0.05892 0.086277999 0.33855999
0.095275998 0.17631 0.27889001
0.095691003 0.17791 0.28053001
0.065572999 0.17229 0.26225001
0.066785 0.17195 0.26381999
0.066482998 0.17493001 0.26324001
0.043428 0.055633001 0.31154001
0.04403 0.054854002 0.31367999
0.043471001 0.053296 0.31097001
0.042824 0.055606999 0.31211999
0.044886999 0.057743002 0.31294999
0.067694999 0.11075 0.34239
0.067405 0.17428 0.26322001
0.066230997 0.17242999 0.26504001
0.067666002 0.17574 0.26291001
0.058786001 0.094342999 0.34105
0.05847 0.095760003 0.34134999
0.032903001 0.12987 0.2326
0.031286001 0.13032 0.23262
0.033666998 0.12814 0.23068
0.045724001 0.055817001 0.31301999
0.045773 0.057539999 0.31285
0.058313001 0.097594 0.34046
0.059163999 0.099051997 0.34101
0.057080999 0.088656001 0.33846
0.059457 0.10067 0.33996999
0.056497 0.087738 0.33805001
0.067500003 0.17297 0.26431
0.067446999 0.17228 0.26451999
0.067833997 0.17576 0.26412001
0.045449 0.054634001 0.31400001
0.046643 0.055858001 0.31419
0.044659998 0.054313999 0.31217
0.047975998 0.057333 0.31393999
0.09708 0.20113 0.27217001
0.087076999 0.19001 0.26822001
0.032947 0.095873997 0.23882
0.033392001 0.094704002 0.23776001
0.052549001 0.066702999 0.26453
0.053388 0.068443999 0.26341
0.059133001 0.10834 0.33750001
0.061900999 0.10924 0.33869001
0.068571001 0.17347001 0.26501
0.068483002 0.17138 0.26543999
0.067902997 0.17414001 0.26300001
0.070175998 0.17686 0.26346001
0.046597 0.053922001 0.31373
0.047274001 0.055420998 0.31489
0.046994001 0.056256998 0.31459999
0.046271 0.056088999 0.31461
0.069836996 0.056217 0.33706999
0.066462003 0.1013 0.34373
0.033589002 0.094605997 0.23818
0.053948 0.11868 0.31687
0.070428997 0.17208 0.26655
0.069199003 0.17274 0.26697999
0.070394002 0.177 0.26414999
0.070958003 0.17632 0.26422
0.047791 0.056499001 0.31606999
0.046840001 0.057810999 0.31466001
0.050671998 0.16889 0.23116
0.068392999 0.062169001 0.33669999
0.03081 0.095890999 0.23852
0.034449998 0.16617 0.22879
0.035794001 0.16678999 0.22784001
0.036887001 0.16515 0.22764
0.070343003 0.17253999 0.26567
0.070183001 0.1736 0.26818001
0.071171001 0.17684001 0.26536
0.070715003 0.17725 0.26401001
0.071845002 0.17917 0.26514
0.049275 0.054956 0.31621999
0.048227999 0.058100998 0.31584999
0.081698999 0.13322 0.33684
0.080913 0.13394 0.33579999
0.081375003 0.13365 0.33965999
0.069609001 0.17172 0.26769999
0.070433997 0.17463 0.26772001
0.071065001 0.17648 0.26637
0.071479999 0.17840999 0.26497999
0.072301999 0.17913 0.26458001
0.049107 0.056382999 0.31819001
0.048482001 0.055509001 0.31696001
0.049679998 0.057477999 0.31652001
0.071078002 0.14174999 0.32104999
0.081345998 0.18331 0.26833999
0.071635999 0.17191 0.2678
0.072130002 0.17422999 0.26783001
0.071147002 0.17369001 0.26712
0.073279001 0.17936 0.26436999
0.072554998 0.17745 0.26567999
0.073133998 0.18059 0.26436001
0.048530001 0.055764001 0.31672001
0.050379999 0.058003999 0.31661999
0.050425999 0.056841999 0.31817001
0.069301002 0.11124 0.34356001
0.069626004 0.1132 0.34349
0.036536999 0.10999 0.22899
0.058835998 0.071346998 0.25832
0.081982002 0.13044 0.34088999
0.072031997 0.1742 0.26824
0.072159 0.17175999 0.26767999
0.073228002 0.17439 0.26877999
0.072792001 0.17856 0.26585001
0.073932998 0.18065 0.26479
0.049171001 0.054106999 0.31871
0.049307 0.055922002 0.31891999
0.050992999 0.057953 0.31761
0.079718001 0.12509 0.34228
0.069986999 0.10871 0.34514001
0.081817999 0.12879001 0.34101999
0.073344 0.17158 0.26885
0.072322004 0.17326 0.2678
0.072440997 0.1744 0.26953
0.073455997 0.18071 0.26633999
0.075677 0.18221 0.26690999
0.052173998 0.054898001 0.31876999
0.052400999 0.056423001 0.31996
0.050728999 0.058205999 0.31825
0.077926002 0.1199 0.34242001
0.078229003 0.12162 0.34175
0.074314997 0.17236 0.26868001
0.074667998 0.17383 0.27074
0.074915998 0.17558999 0.26998001
0.076632999 0.17535 0.26892999
0.075989999 0.18238001 0.26715001
0.085056998 0.1851 0.25938001
0.086285003 0.18618999 0.2581
0.052173998 0.054606002 0.31891999
0.052181002 0.056999002 0.31872001
0.052586 0.058541998 0.31838
0.041005 0.077219002 0.31360999
0.11 0.20300999 0.27225
0.10803 0.20327 0.27180001
0.10665 0.20293 0.27276999
0.099660002 0.18266 0.28083
0.074075997 0.17249 0.26941001
0.074423 0.17504001 0.26989001
0.075069003 0.17666 0.26969001
0.076687001 0.18396001 0.26721001
0.077738002 0.18243 0.26626
0.054017 0.055132002 0.32027999
0.053619999 0.057243001 0.32067999
0.052193001 0.058223002 0.31992999
0.061128002 0.096706003 0.34103999
0.064594001 0.097039998 0.34432
0.022795999 0.16554999 0.24663
0.10721 0.19987001 0.2737
0.10679 0.20164999 0.27408999
0.10834 0.19914 0.27471
0.076930001 0.17339 0.27079001
0.074872002 0.17462 0.27121001
0.076241001 0.17628001 0.27008
0.078323998 0.18388 0.26719999
0.077751003 0.18456 0.26769999
0.054242 0.054556001 0.32181999
0.053295001 0.056589998 0.32201999
0.051759999 0.053114999 0.31933999
0.036292002 0.084582999 0.27682
0.037183002 0.085201003 0.27774
0.074441001 0.11982 0.34470999
0.097268999 0.19453999 0.27408001
0.019277999 0.15825 0.24059001
0.018947 0.15869001 0.2405
0.018433999 0.15793 0.23886
0.030242 0.095875002 0.23947001
0.030454 0.093882002 0.24087
0.031782001 0.098810002 0.23736
0.033408001 0.1004 0.23625
0.031810999 0.10138 0.23654
0.030665001 0.10527 0.23391999
0.078249998 0.19076 0.26036
0.077201001 0.18753 0.25865999
0.030355999 0.11025 0.23434
0.029973 0.11061 0.23356
0.034182999 0.11212 0.22861999
0.035145 0.11308 0.22985999
0.036006 0.11129 0.22985999
0.044580001 0.16877 0.23136
0.044980999 0.16966 0.22878
0.015053 0.1517 0.24223
0.015636001 0.15041 0.24211
0.015368 0.1531 0.24291
0.035996001 0.051982 0.30017999
0.036582999 0.052731998 0.30162001
0.02098 0.14482 0.23348001
0.035723001 0.12245 0.23259
0.035769999 0.12355 0.23283
0.035383001 0.12454 0.23412
0.022798 0.14444 0.23271
0.030126 0.11226 0.23309
0.031424999 0.11361 0.23376
0.019028001 0.13734999 0.23636
0.020671001 0.134 0.23508
0.018917 0.13619 0.23556
0.024786999 0.15885 0.23541
0.025426 0.16057999 0.23419
0.024734 0.15808 0.23405001
0.031557001 0.122 0.2374
0.029568 0.1235 0.23795
0.03004 0.10126 0.23624
0.030045999 0.10259 0.23635
0.038757998 0.062451001 0.26181
0.010334 0.13367 0.25578001
0.011156 0.13304 0.25692001
0.012208 0.13517 0.25650001
0.083738998 0.19217999 0.26260999
0.033627 0.12836 0.23271
0.033116002 0.12856001 0.23049
0.03506 0.12678 0.23187
0.031086 0.11838 0.23524
0.034743 0.12557 0.23333
0.034850001 0.12587 0.2315
0.035360001 0.12382 0.23288
0.024769001 0.053456999 0.26694
0.026022 0.054811999 0.26563999
0.027294001 0.052666001 0.26473999
0.044222999 0.074349001 0.26666
0.044521 0.074656002 0.26671001
0.044906002 0.073758997 0.26666
0.031152001 0.16931 0.23489
0.030625001 0.17045 0.23488
0.032060001 0.16959 0.23375
0.026206 0.054513 0.27035999
0.025017001 0.053323999 0.27063999
0.024870001 0.054830998 0.27129
0.029859999 0.12058 0.23496
0.031060999 0.12186 0.23633
0.033399001 0.10718 0.22962999
0.032325 0.10782 0.23097999
0.033360999 0.10574 0.23022
0.033031002 0.10782 0.23074999
0.033268001 0.11794 0.23077001
0.034728002 0.096464999 0.23609
0.035110999 0.16813 0.2289
0.031121001 0.12354 0.23831999
0.031002 0.12499 0.23862
0.032372002 0.12574001 0.23658
0.031698 0.12692 0.23643
0.018184001 0.13192999 0.23773
0.018441999 0.12987 0.23754001
0.014839 0.13973001 0.2384
0.027482999 0.13805 0.22748999
0.026108 0.13680001 0.22981
0.027008001 0.13997 0.22736
0.027104 0.14233001 0.22844
0.040920999 0.16715001 0.22707
0.026641 0.14377999 0.22840001
0.026557 0.14354999 0.22916999
0.025 0.14582001 0.22779
0.028336 0.14590999 0.22989
0.028821001 0.14529 0.22869
0.027848 0.14905 0.22961999
0.028139999 0.14977001 0.23089001
0.03932 0.050338 0.29337999
0.038424 0.051835001 0.29319
0.039760999 0.051382001 0.29192001
0.028371001 0.15005 0.23221999
0.028914001 0.15273 0.23203
0.020468 0.15209 0.23661
0.032501999 0.11477 0.23270001
0.034125999 0.11539 0.22971
0.033535998 0.11459 0.22984
0.032878999 0.11196 0.23026
0.033441 0.113 0.23152
0.033661 0.1128 0.23001
0.029841 0.15334 0.23262
0.029925 0.15468 0.23266
0.029073 0.15449999 0.23101
0.028805001 0.15714 0.23259
0.027812 0.15882 0.23282
0.028893 0.16137999 0.23043001
0.027197 0.16214 0.23208
0.029178999 0.16324 0.23127
0.028325999 0.16385999 0.22992
0.030091999 0.16579001 0.23388
0.032690998 0.061733 0.25979999
0.035084002 0.062578 0.25988001
0.030045999 0.16666 0.23271
0.031218 0.16760001 0.23423
0.012891 0.13474999 0.23931
0.01564 0.15196 0.24101
0.016058 0.15467 0.23973
0.029439 0.11235 0.23467
0.031888001 0.11274 0.23405001
0.013485 0.14402001 0.24005
0.014814 0.14619 0.23972
0.043143999 0.055009998 0.25737
0.041753002 0.058079001 0.25666001
0.041841 0.16935 0.22968
0.023944 0.15868001 0.23564
0.024386 0.15773 0.23522
0.023444001 0.15584999 0.23661
0.042101 0.057316002 0.25760999
0.044062 0.059700999 0.25797001
0.046064999 0.060028002 0.25990999
0.042349 0.16569 0.22709
0.045674998 0.060988002 0.26119
0.045402002 0.062077001 0.26412001
0.035135999 0.061701 0.25986001
0.047518 0.064934 0.26532999
0.046190999 0.16797 0.22798
0.047261 0.16698 0.22736
0.046634998 0.16601001 0.22755
0.024052 0.13414 0.2335
0.024073999 0.13517 0.23542
0.047793999 0.064046003 0.26427999
0.048046 0.066701002 0.26565999
0.046801001 0.069119997 0.26394001
0.047734998 0.070118003 0.26655
0.047143001 0.072031997 0.26664001
0.039216001 0.1654 0.22711
0.031497002 0.1073 0.23450001
0.017854 0.15921 0.24094
0.019215999 0.15831999 0.24123
0.055904001 0.068979003 0.26295999
0.054182999 0.068818003 0.26234001
0.054880001 0.070317 0.26322001
0.016336 0.13568 0.23645
0.030273 0.12046 0.23512
0.030737 0.11929 0.23648
0.032168999 0.11777 0.23197
0.033608001 0.11981 0.23092
0.020245001 0.14201 0.23559999
0.019145001 0.14268 0.23422
0.022103 0.14199001 0.23465
0.022653 0.15401 0.23709001
0.050397001 0.16605 0.22776
0.01701 0.14639001 0.23903
0.030285001 0.11592 0.23319
0.028632 0.11441 0.23472001
0.020083999 0.15922 0.23785999
0.021392999 0.16044 0.24041
0.022245999 0.16008 0.24003001
0.094512999 0.19947 0.26989999
0.093021996 0.2007 0.27094999
0.011617 0.14221001 0.23999999
0.033296999 0.089837 0.27482
0.035062 0.089672998 0.27625
0.033303998 0.16671 0.22844
0.034937002 0.16802 0.22916999
0.067567997 0.18256 0.25582999
0.067153998 0.17978001 0.25582001
0.067308001 0.18242 0.25595
0.033339001 0.063418999 0.26311001
0.043104 0.072458997 0.26905
0.043970998 0.072512001 0.26800001
0.044484001 0.070687003 0.26817
0.039962001 0.080187 0.27000999
0.040858001 0.080949999 0.26848999
0.034341 0.054273002 0.29267001
0.036655001 0.055057 0.29198
0.031168001 0.096957996 0.23955999
0.032866001 0.092809997 0.23987
0.031718001 0.096468002 0.23864
0.032338001 0.097382002 0.23837
0.042328998 0.16474999 0.22773001
0.043416999 0.16362999 0.2256
0.062752999 0.17536999 0.24899
0.063840002 0.17665 0.25222999
0.062955 0.17697001 0.25084999
0.029557001 0.098699003 0.23722
0.031877 0.10143 0.23597001
0.026293 0.097327001 0.24944
0.037292998 0.15802 0.22709
0.036973 0.16133 0.2264
0.050020002 0.074983001 0.26069
0.050882999 0.074658997 0.26177999
0.051695999 0.073941 0.26186001
0.038408 0.066081002 0.26804
0.018658999 0.13719 0.23548999
0.029874001 0.10847 0.23329
0.036336999 0.052166 0.30024001
0.015355 0.15454 0.2418
0.016108001 0.15546 0.24218
0.015466 0.15448 0.24156
0.014182 0.14347 0.23789001
0.013198 0.14307 0.23955999
0.013368 0.14229999 0.23807
0.042552002 0.067828998 0.26958001
0.04256 0.066982001 0.26754999
0.043899 0.069054 0.26866001
0.016528999 0.14383 0.23864999
0.015511 0.14416 0.23779
0.026721001 0.16666 0.23669
0.027781 0.16788 0.23681
0.02887 0.16738001 0.23514
0.017130001 0.14913 0.23963
0.019189 0.14985999 0.23947001
0.040057998 0.06402 0.26322001
0.054947998 0.062845998 0.26003
0.054260999 0.063155003 0.25966001
0.05621 0.063919 0.26018
0.021121999 0.13327 0.23534
0.022371 0.13441999 0.23465
0.03424 0.16365001 0.22708
0.015799001 0.13423 0.23582
0.034435999 0.16153 0.22712
0.033604998 0.16043 0.22781
0.016548 0.14279 0.23841
0.014143 0.14241 0.23781
0.014441 0.14504001 0.23932
0.042823002 0.068328999 0.26789999
0.043280002 0.070871003 0.26797
0.044080999 0.070122004 0.26859999
0.024272 0.14918999 0.23507001
0.024394 0.15177 0.23541
0.043646999 0.066028997 0.2676
0.024390001 0.14131001 0.23210999
0.024103999 0.14071 0.23191001
0.055822 0.066229001 0.26143
0.056311 0.065655999 0.26098999
0.055023 0.0647 0.26212999
0.047161002 0.16721 0.22781
0.047166001 0.16863 0.22966
0.020178 0.13482 0.23536
0.021575 0.13685 0.23356999
0.053015999 0.071433999 0.26514
0.052161999 0.070913002 0.26247001
0.052476998 0.071934998 0.26115999
0.037400998 0.16918001 0.22965001
0.045933999 0.16976 0.23221
0.018285001 0.15682 0.24054
0.016927 0.15611 0.24259
0.017089 0.15813001 0.24252
0.040008999 0.16106001 0.22581001
0.054379001 0.073574997 0.26216999
0.056791 0.071094997 0.26255
0.021120001 0.13391 0.23560999
0.02355 0.13940001 0.23198999
0.023302 0.13789 0.23187
0.030344 0.12027 0.23709001
0.091659002 0.1982 0.26787999
0.029663 0.10573 0.23573001
0.030632 0.10653 0.23442
0.030125 0.12178 0.23650999
0.050914001 0.060454 0.26118001
0.018154001 0.14901 0.23928
0.030942 0.12459 0.23731001
0.030005001 0.12711 0.2366
0.054211002 0.060405999 0.25937
0.054467998 0.062948003 0.25753999
0.053642999 0.062396999 0.25896001
0.052429002 0.065027997 0.26480001
0.030851001 0.12774 0.23692
0.030982999 0.12898999 0.23727
0.030489 0.12858 0.23723
0.028385 0.12808999 0.2367
0.034290001 0.16478001 0.22736
0.039471 0.065029003 0.26492
0.034612998 0.065434001 0.26508
0.027543001 0.13685 0.22936
0.027565001 0.13594 0.23035
0.029127 0.13417 0.23101
0.01436 0.13391 0.23935001
0.012288 0.13445 0.23983
0.0112 0.1349 0.23954999
0.032508001 0.061434001 0.26210001
0.030245 0.062245 0.26286
0.026110001 0.1372 0.22922
0.013681 0.139 0.2386
0.050133999 0.072016999 0.26451999
0.051966 0.073934004 0.26324001
0.051824 0.071318999 0.26370999
0.043382 0.074084997 0.26899001
0.043620002 0.074998997 0.26646999
0.026295001 0.13765 0.22885001
0.054032002 0.068446003 0.26330999
0.025924001 0.052857999 0.27226999
0.025985001 0.051729001 0.27195001
0.021074001 0.14476 0.23665
0.019623 0.14746 0.23568
0.016502 0.14652 0.23859
0.026373001 0.13946 0.22971
0.032807 0.15694 0.22972
0.013908 0.13468 0.23710001
0.035145 0.16542999 0.22679
0.026662 0.1628 0.23275
0.027725 0.16178 0.2324
0.028479001 0.16128001 0.23255
0.10549 0.2034 0.27237001
0.10694 0.20374 0.27291
0.025503 0.12565 0.25088999
0.025888 0.12487 0.24725001
0.025283 0.12384 0.24702001
0.021637 0.15911999 0.23799001
0.016905 0.13426 0.23717
0.035657998 0.089977004 0.23965999
0.050499 0.059161998 0.25762999
0.049697999 0.058649 0.25694999
0.03703 0.095429003 0.23287
0.015783999 0.13066 0.23781
0.016248999 0.13006 0.23883
0.025407 0.14047 0.22959
0.026145 0.1418 0.22961999
0.046601001 0.1655 0.22758999
0.019357 0.13303 0.2362
0.031807002 0.089218996 0.2701
0.055709001 0.066650003 0.26126999
0.026164001 0.052319001 0.27344
0.026121 0.054040998 0.27364999
0.055588 0.070376001 0.26323
0.056832001 0.068506002 0.26352999
0.040335 0.051598001 0.29146001
0.038364999 0.051663 0.29001001
0.038511999 0.052930001 0.29014
0.030071 0.12703 0.24078999
0.027629999 0.12779 0.24175
0.027635001 0.12729 0.24041
0.037496999 0.052529 0.28729001
0.027039999 0.14404 0.22936
0.016756 0.14348 0.23713
0.02166 0.14905 0.23625
0.051646002 0.061299998 0.25658
0.053429998 0.060936 0.26133999
0.02256 0.15395001 0.23762
0.022429001 0.14755 0.23441
0.023599001 0.14904 0.23525999
0.054678001 0.069623999 0.26315999
0.055941999 0.071033999 0.26299
0.035772 0.15896 0.22802
0.035666 0.15996 0.22703999
0.026338 0.14641 0.22925
0.092049003 0.18821 0.26309001
0.026424 0.14619 0.22947
0.040803999 0.16449 0.22736
0.035829 0.099319004 0.30799001
0.035967 0.097452998 0.30816999
0.015272 0.15437999 0.24219
0.061829999 0.17554 0.25055999
0.062591001 0.17358001 0.24884
0.061285 0.17347001 0.24977
0.02813 0.1481 0.23049
0.040369 0.051718 0.28470999
0.040174 0.052014999 0.28557
0.037840001 0.052108999 0.28470999
0.039751999 0.055043001 0.25503999
0.036837 0.057275001 0.25646001
0.039618 0.055748999 0.25757
0.01505 0.13249999 0.23688
0.030311 0.10341 0.23540001
0.017352 0.15349001 0.2401
0.026447 0.14952999 0.23141
0.037935 0.090281002 0.2379
0.027877999 0.15132999 0.23277999
0.028284 0.15256999 0.23255
0.028977999 0.15356 0.23367999
0.028000001 0.15496001 0.23383
0.030981001 0.051252 0.27724999
0.011704 0.13349999 0.25479999
0.034444999 0.087830998 0.27605999
0.052772 0.052944001 0.32145
0.041285001 0.16114999 0.22651
0.10902 0.20059 0.27393001
0.052198 0.060683001 0.2622
0.040387001 0.080069996 0.26620001
0.039955001 0.079093002 0.26402
0.041028 0.079117 0.26567
0.029317999 0.15649 0.23359001
0.028153 0.15669 0.23342
0.012957 0.14106999 0.23928
0.013547 0.14176001 0.23796999
0.038369 0.051490001 0.28810999
0.039283 0.052758001 0.28529
0.037865002 0.051895998 0.28781
0.022643 0.14247 0.23232
0.024800001 0.14342999 0.23195
0.053858999 0.065389 0.26392999
0.027197 0.15931 0.23134001
0.032788999 0.16354001 0.22932
0.033429999 0.16159 0.22768
0.027633 0.15975 0.23267999
0.052889001 0.060591999 0.26249999
0.052930001 0.064631999 0.26262999
0.054990001 0.064631999 0.26286
0.040982001 0.16324 0.2273
0.039774001 0.050849002 0.28652999
0.035703 0.051461 0.28461
0.025971999 0.16103999 0.2317
0.027582999 0.16411 0.23202001
0.082709 0.18143 0.25481001
0.081662998 0.18244 0.25723001
0.082856998 0.18148001 0.25694001
0.055507999 0.068264 0.26225999
0.028424 0.16514 0.23318
0.027278 0.16699 0.23338
0.040268999 0.051178999 0.28670999
0.040089998 0.055206999 0.25634
0.040842 0.057099 0.25690001
0.041129999 0.059005 0.25832
0.032694999 0.10763 0.23227
0.041701999 0.061062001 0.25852001
0.077326 0.17942999 0.25396001
0.075136997 0.1795 0.25257999
0.076344997 0.18122999 0.25347
0.041790999 0.061593998 0.26074001
0.053592 0.070670001 0.26508
0.045341998 0.062187001 0.26188001
0.045945 0.06295 0.26223001
0.026689 0.13263001 0.23127
0.028387001 0.13357 0.23096
0.027121 0.13463999 0.23086999
0.046703 0.064917997 0.26372001
0.044925999 0.066872001 0.26657
0.01694 0.15554 0.23996
0.027212 0.12403 0.24518999
0.042385001 0.087902002 0.23356999
0.045345001 0.066861004 0.26558
0.027153 0.095142998 0.24902
0.047212001 0.068038002 0.2665
0.031580001 0.1115 0.2326
0.032143999 0.1132 0.23237
0.047153 0.070023 0.26797
0.033750001 0.16579001 0.22781999
0.046505999 0.071479999 0.26583999
0.025813 0.15198 0.23571
0.021260999 0.14839999 0.23739
0.022886001 0.1592 0.23655
0.017860999 0.15595999 0.23975
0.020098001 0.15049 0.23779
0.020538 0.15296 0.23718999
0.051406 0.060265001 0.25914001
0.042406999 0.070104003 0.26905
0.043843001 0.071847998 0.26877001
0.024259999 0.15399 0.23592
0.037918001 0.060015 0.25931999
0.034515999 0.058463 0.25867999
0.032784 0.058285002 0.25759
0.035895001 0.058977999 0.25865
0.022288 0.13843 0.23388
0.022810999 0.14033 0.23362
0.031454999 0.1123 0.23333
0.032078002 0.11517 0.23334
0.037969001 0.15682 0.22869
0.053119 0.061965998 0.2624
0.043354999 0.070468999 0.27042001
0.02056 0.133 0.23394001
0.036908999 0.059459001 0.25742999
0.037147 0.057463001 0.25766999
0.037730001 0.057372 0.25652999
0.032396998 0.062577002 0.26216999
0.032063998 0.060646001 0.26128
0.014737 0.14825 0.24045999
0.015004 0.14861999 0.24090999
0.014566 0.13428999 0.23847
0.021813 0.1522 0.23559999
0.038910002 0.16884001 0.22927999
0.037175 0.086314 0.27963001
0.035638001 0.086617 0.27673
0.03198 0.093657002 0.23865999
0.029562 0.12503 0.24043
0.030303 0.12389 0.23984
0.028589999 0.12319 0.24015
0.036655001 0.1108 0.22887
0.034841999 0.1077 0.22855
0.055615 0.065090999 0.25803
0.036307 0.1114 0.22995999
0.014317 0.1371 0.23667
0.015821001 0.13631999 0.23634
0.015444 0.1538 0.24240001
0.010707 0.13439 0.24506
0.0096749002 0.13369 0.24532001
0.010019 0.13626 0.2473
0.018735001 0.16268 0.25148001
0.046420999 0.074914999 0.26635
0.046434999 0.074028 0.26596999
0.051484998 0.059794001 0.25813001
0.032480001 0.095803 0.23865999
0.030188 0.096923001 0.23849
0.033891998 0.15270001 0.22954001
0.035753999 0.057427 0.25804001
0.029918 0.099302001 0.23841
0.029208999 0.099546999 0.23887999
0.027177 0.16588999 0.23326001
0.027621999 0.16508 0.23538999
0.027192 0.16597 0.23431
0.065224998 0.055009 0.33482
0.030779 0.10212 0.2379
0.030347999 0.1246 0.24186
0.027108001 0.12301 0.24754
0.026849 0.12508 0.24732
0.02743 0.12426 0.24728
0.095693998 0.20151 0.27125001
0.096350998 0.20285 0.27081999
0.095615 0.20051 0.26861
0.025211001 0.13264 0.2341
0.025374999 0.13391 0.23386
0.02557 0.13333 0.23331
0.038631 0.052878998 0.28652999
0.046902999 0.055075999 0.25672001
0.047246002 0.056557 0.25758001
0.072157003 0.13984001 0.3242
0.040160999 0.079535998 0.26506999
0.040406 0.079651996 0.26295999
0.044675998 0.078910001 0.26539999
0.058605 0.17251 0.23412
0.054595999 0.17228 0.23356
0.053799 0.1717 0.2342
0.052581999 0.17120001 0.23435
0.052839 0.17159 0.2348
0.051447999 0.17174 0.23343
0.049683001 0.17177001 0.23515999
0.048277002 0.17137 0.23526999
0.046271 0.17177001 0.23450001
0.042943001 0.17337 0.24709
0.042101 0.17380001 0.24797
0.048388999 0.17445 0.2446
0.048932001 0.17337 0.24755999
0.046907999 0.17185 0.24713001
0.039065 0.1724 0.24902
0.044806998 0.17366 0.23589
0.043083999 0.17307 0.2366
0.043218002 0.17024 0.23633
0.041689999 0.17167 0.23726
0.039724 0.17237 0.23599
0.040348001 0.17342 0.24899
0.044682 0.17251 0.24749
0.044868998 0.17462 0.24618
0.045063 0.17331 0.24673
0.046415001 0.17433 0.24864
0.045745 0.17367999 0.24726
0.045396999 0.17188001 0.25705001
0.044109002 0.1717 0.2563
0.043063 0.17236 0.25872001
0.038334001 0.17203 0.23648
0.036350001 0.17130999 0.23548999
0.042734999 0.17367999 0.25788999
0.039884999 0.17352 0.25639999
0.039292999 0.17172 0.25830001
0.039370999 0.17012 0.25863001
0.039055999 0.17189001 0.2597
0.036141999 0.17215 0.25727999
0.036223002 0.17214 0.25735
0.035471 0.17126 0.25834
0.035326999 0.17096999 0.25837001
0.033057 0.17188001 0.25613001
0.032480001 0.17041001 0.25714999
0.032494001 0.16926 0.25872999
0.034890998 0.17147 0.23825
0.033911999 0.17204 0.23721001
0.031358 0.16926999 0.25716999
0.030338001 0.16869 0.25679001
0.029167 0.16841 0.25828001
0.033093002 0.16918001 0.25672001
0.028285 0.16901 0.25751999
0.028991001 0.16886 0.25792
0.069348 0.17196999 0.23733
0.066846997 0.17229 0.23796999
0.067321002 0.17068 0.23925
0.026036 0.16604 0.25786999
0.027280999 0.16752 0.25764999
0.023817999 0.167 0.25676
0.024324 0.16764 0.25736001
0.032494001 0.17005999 0.23703
0.032790001 0.16847 0.23583999
0.080697998 0.192 0.26554999
0.077483997 0.19131 0.26475999
0.081285998 0.19014999 0.26563001
0.026156001 0.16868 0.24368
0.02602 0.15338001 0.23504999
0.029083 0.061009999 0.26548001
0.032120001 0.063125998 0.26693001
0.030625001 0.062353 0.26532
0.023659 0.16594 0.25547001
0.023305999 0.16506 0.25724
0.028728001 0.16892999 0.23673999
0.022436 0.16496 0.25637999
0.040668 0.069273002 0.27232
0.039235 0.068520002 0.27225
0.023957999 0.16562 0.25799
0.023081999 0.14726999 0.23342
0.023146 0.14619 0.23291001
0.025700999 0.14891 0.23367999
0.031429999 0.17005 0.25957999
0.037712999 0.072633997 0.28069001
0.024344999 0.13407999 0.23303001
0.022624999 0.13415 0.23492
0.056853 0.1723 0.23833001
0.054101001 0.17228 0.2379
0.044211 0.17294 0.24101
0.042199001 0.17253999 0.24111
0.027078999 0.062886 0.26532
0.02791 0.061944 0.26591
0.032584999 0.17110001 0.25896001
0.030528 0.16847999 0.25988001
0.034637 0.17031001 0.26047
0.029524 0.12382 0.24201
0.039946999 0.070183001 0.27261001
0.039306998 0.071267001 0.26980001
0.031877 0.15468 0.23061
0.030533999 0.15223999 0.23038
0.075413004 0.13749 0.33225
0.032196999 0.17199001 0.24728
0.023545001 0.16714001 0.24811999
0.022260001 0.16654 0.24811
0.076632999 0.18886 0.26107001
0.075323001 0.18916 0.25977999
0.036206 0.060419001 0.30092001
0.039958999 0.071492001 0.27305001
0.040808 0.071670003 0.27092001
0.029829999 0.11699 0.23604999
0.025482999 0.17081 0.25091001
0.024878999 0.16836999 0.24955
0.024944 0.12386 0.25240001
0.02476 0.12203 0.25264001
0.041712999 0.071997002 0.27282
0.042194001 0.072520003 0.27107
0.028163999 0.16911 0.25130001
0.029464999 0.17071 0.25127
0.037041999 0.051442001 0.29218
0.029425999 0.12560999 0.24345
0.043235 0.1126 0.30836001
0.032680999 0.17098001 0.24952
0.030615 0.17145 0.25092
0.059822001 0.17523 0.23598
0.034233 0.17230999 0.24959999
0.061521001 0.17606001 0.23401
0.058885999 0.17299999 0.23265
0.059737001 0.17137 0.23116
0.058671001 0.17467999 0.23326001
0.060578998 0.17297 0.2343
0.056141999 0.17079 0.23274
0.050907001 0.067123003 0.26526999
0.032818999 0.060017999 0.26098999
0.033937 0.060623001 0.2606
0.053284001 0.1705 0.23314001
0.062913001 0.14137 0.30855
0.040185001 0.078047 0.31039
0.036159001 0.061492 0.25797999
0.033759002 0.17196 0.24569
0.033645 0.1724 0.24313
0.033112001 0.17139 0.24586
0.037964001 0.17265999 0.24914999
0.034672 0.17130999 0.25073999
0.036474001 0.17352 0.25026
0.052425999 0.17038 0.23229
0.054892 0.17046 0.23277
0.052850001 0.16991 0.23069
0.049736001 0.17027999 0.23204
0.04871 0.17189001 0.23232999
0.047428999 0.17204 0.23379999
0.044819999 0.16971999 0.23413
0.045673002 0.17058 0.23432
0.043368001 0.17118999 0.23525999
0.023577999 0.14219999 0.23022
0.049901001 0.07017 0.26445001
0.050576001 0.071878999 0.26298001
0.092552997 0.19054 0.26266
0.018728999 0.14459001 0.23571999
0.039547 0.1707 0.26104999
0.039896 0.17117999 0.25911999
0.038931001 0.17068 0.26113999
0.063569002 0.17832001 0.25652999
0.064057998 0.17923 0.25672001
0.038237002 0.17239 0.24857
0.038192999 0.17376 0.25048
0.039512001 0.17241 0.25042
0.040720001 0.17298 0.24939001
0.042856999 0.17426001 0.25011
0.041694 0.17313001 0.24907
0.041538998 0.17208999 0.23409
0.045437999 0.17161 0.24697
0.041134998 0.17186999 0.23513
0.039399002 0.17016 0.23535
0.037126001 0.17151 0.23474
0.035362002 0.1717 0.23571999
0.025779 0.15892 0.23383
0.025493 0.15644 0.23566
0.028736999 0.095375001 0.24139
0.028067 0.097851001 0.24203999
0.055750001 0.11809 0.32084
0.056129001 0.11687 0.32045999
0.058570001 0.17385 0.25863001
0.059749 0.17542 0.25455001
0.058416001 0.17376 0.25487
0.057349999 0.17441 0.25371999
0.055296 0.17347001 0.25468999
0.047401 0.17315 0.24862
0.035185002 0.17056 0.23558
0.034251999 0.17129999 0.23582
0.031184001 0.16966 0.23677
0.038061 0.060373001 0.26006001
0.034688 0.11004 0.23024
0.056699 0.17208999 0.25876999
0.043807 0.072494999 0.26879999
0.044948 0.071096003 0.26822999
0.035381 0.17156 0.26144999
0.035268001 0.16914999 0.26151001
0.028341999 0.1666 0.23413
0.028876999 0.16666999 0.23545
0.05528 0.17188001 0.23784
0.053424999 0.17275999 0.24063
0.040291999 0.074008003 0.27243
0.041104 0.073633999 0.27089
0.02727 0.16509999 0.23508
0.027768999 0.16421001 0.23354
0.039365999 0.090203002 0.23771
0.038493998 0.16962001 0.23095
0.050407998 0.17196999 0.24031
0.048657 0.17248 0.23974
0.048994001 0.061620001 0.26337999
0.030572001 0.12366 0.23875
0.038541 0.092394002 0.23605999
0.080778003 0.18313 0.25639999
0.078387 0.18325 0.25575
0.079522997 0.18532 0.2552
0.03455 0.10967 0.22913
0.040681001 0.087353997 0.23653001
0.035498001 0.12356 0.23303001
0.036525998 0.12556 0.23184
0.036463998 0.1218 0.23175
0.030398 0.1265 0.23977999
0.049431 0.11484 0.32224
0.058196999 0.17158 0.23820999
0.016562 0.14181 0.23895
0.031390999 0.12763999 0.23810001
0.034070998 0.11201 0.23078001
0.037870999 0.17146 0.24189
0.035599999 0.17332999 0.24076
0.034632999 0.17163999 0.24417999
0.029243 0.12975 0.23642001
0.028487001 0.12830999 0.23683
0.082641996 0.13225999 0.33871999
0.03847 0.17094 0.25942001
0.048016001 0.17271 0.23917
0.040143002 0.17313001 0.24087
0.039877001 0.17229 0.24175
0.078074001 0.1904 0.26492
0.050104 0.17267001 0.24048001
0.05091 0.17084999 0.24066
0.045685999 0.17230999 0.25639999
0.045386001 0.17453 0.25446001
0.037774999 0.16892999 0.26431999
0.038495 0.16953 0.26424
0.040564999 0.094221003 0.23273
0.051132001 0.11739 0.31691
0.023688 0.16621999 0.25018999
0.021677 0.16580001 0.24905001
0.021794001 0.14992 0.23619001
0.029748 0.17189001 0.24821
0.040729001 0.075741 0.27188
0.040587999 0.076788999 0.27186999
0.041428 0.075838998 0.27200001
0.040603999 0.077106997 0.27057999
0.025208 0.16796 0.24958999
0.046388999 0.17351 0.25674
0.044482999 0.17298 0.2561
0.041175 0.065467 0.29675999
0.040144999 0.063543998 0.29572001
0.034038 0.063049003 0.26350999
0.035484999 0.17211001 0.243
0.033654999 0.17173 0.24191
0.031523 0.17222001 0.24295001
0.04428 0.056680001 0.25797001
0.044413999 0.054708 0.25806001
0.056736 0.17219999 0.25760999
0.065428004 0.18029 0.26012
0.049164999 0.16997001 0.23096
0.051169999 0.16964 0.23273
0.047910001 0.17113 0.23375
0.045502 0.17077 0.23165999
0.026521999 0.16981 0.25137001
0.02774 0.17096999 0.25189999
0.030397 0.17157 0.25141001
0.032483 0.17084999 0.25227001
0.045212001 0.17027999 0.23263
0.044130001 0.17151999 0.23174
0.042413 0.17024 0.23292001
0.033277001 0.17235 0.25284001
0.044677 0.17415 0.24124999
0.038043 0.17046 0.26205999
0.032581002 0.17079 0.24123
0.031964999 0.17092 0.24223
0.031904999 0.1697 0.24250001
0.025141999 0.13585 0.23009001
0.031580001 0.1714 0.24544001
0.043164998 0.17264999 0.25672999
0.038371 0.17310999 0.25611001
0.037808001 0.1724 0.25738999
0.034162 0.17219 0.25178
0.036446001 0.17152999 0.25066
0.036391001 0.17220999 0.25119999
0.038175002 0.17182 0.25106999
0.040964 0.1719 0.23387
0.039367002 0.16991 0.23416001
0.038112 0.17072999 0.23423
0.035688002 0.1714 0.23401
0.035269 0.17121001 0.23476
0.033013999 0.17035 0.23435
0.039760001 0.17318 0.25051999
0.039666001 0.17305 0.25470999
0.040495001 0.077955998 0.27179
0.1022 0.20201001 0.27344
0.038020998 0.17168 0.25709
0.041467998 0.17483 0.25114
0.042125002 0.17427 0.25112
0.031615 0.16844 0.23236001
0.043359999 0.17314 0.24995001
0.040676001 0.085998997 0.30474001
0.039988 0.086496003 0.30471
0.039930001 0.085469 0.30339
0.031610001 0.16884001 0.25621
0.030689999 0.16926 0.25576001
0.028827 0.16892 0.25619999
0.031842999 0.17151999 0.24496999
0.024529001 0.16741 0.24184
0.038169 0.17348 0.24229001
0.055402 0.17294 0.23706999
0.024599001 0.13749 0.23128
0.033831 0.17133 0.25702
0.046021 0.17327 0.24981999
0.045045 0.17482001 0.25191
0.078328997 0.18866 0.25679001
0.076334998 0.18713 0.25746
0.035535 0.12202 0.23056
0.051397 0.17444 0.24717
0.051093001 0.17313001 0.24724001
0.050797999 0.1732 0.24844
0.051584002 0.17343999 0.24758001
0.025185 0.16733 0.25637001
0.032988001 0.17069 0.25832
0.048360001 0.17329 0.24872001
0.047773998 0.061105002 0.26177999
0.047633 0.058781002 0.26036
0.024642 0.16667999 0.25544
0.037613001 0.17033 0.26075
0.036304999 0.17133 0.26188001
0.052762002 0.17121001 0.23968001
0.046730001 0.17256001 0.24121
0.049382001 0.1733 0.2405
0.033240002 0.11323 0.22959
0.036609001 0.062982 0.26258001
0.025049999 0.13843 0.22991
0.026426001 0.13934 0.22956
0.024955999 0.14097001 0.23066001
0.04727 0.058471002 0.25841001
0.031622998 0.17134 0.25716999
0.027170001 0.095911004 0.24690001
0.025946001 0.096298002 0.24794
0.026038 0.097774997 0.24716
0.038869001 0.079612002 0.27307001
0.047680002 0.17012 0.23044001
0.028338 0.16794001 0.26017001
0.023519 0.16575 0.25549001
0.027774001 0.16574 0.25953001
0.035041001 0.17034 0.25995001
0.032512002 0.17083 0.26183
0.050393 0.066596001 0.26525
0.050239999 0.064997002 0.26446
0.036513999 0.17412999 0.24341001
0.035666998 0.17096999 0.24304999
0.036922999 0.17332999 0.24401
0.049582001 0.17327 0.24289
0.024232 0.16526 0.2458
0.044736002 0.17106 0.23027
0.042626999 0.17042001 0.2315
0.031086 0.16733 0.23036
0.033516001 0.16797 0.23046
0.041823 0.16977 0.23149
0.040282 0.17124 0.23063
0.037716001 0.17022 0.2322
0.036702 0.17027999 0.23248
0.035193998 0.16841 0.23232
0.032616001 0.16825999 0.23218
0.030204 0.16581 0.23041999
0.091155 0.19846 0.26772001
0.09183 0.19842 0.26912001
0.091806002 0.19981 0.26991001
0.032042999 0.16925 0.2622
0.035563 0.11198 0.22972
0.069307998 0.17238 0.23873
0.069167003 0.17455 0.23706999
0.023773 0.16804001 0.25139999
0.042520002 0.078272 0.30770999
0.043203 0.079218 0.30697
0.041492 0.079582997 0.30658001
0.037677001 0.062793002 0.29936001
0.025671 0.16795 0.25207001
0.030781999 0.1715 0.24608999
0.030751999 0.15599 0.22899
0.026629001 0.14372 0.22995999
0.027401 0.1683 0.25156
0.044824999 0.086276002 0.29615
0.026098 0.14563 0.23047
0.032853998 0.17182 0.25457001
0.034169 0.17275999 0.25176999
0.026681 0.14341 0.23129
0.054878999 0.1723 0.25705001
0.032304998 0.17134 0.25141999
0.030115001 0.17047 0.25161999
0.028494 0.16979 0.25301999
0.036793999 0.10214 0.30478999
0.035833001 0.10298 0.30526999
0.035197001 0.10314 0.30418
0.057246 0.17419 0.25273001
0.038178001 0.17332999 0.25176001
0.037923001 0.17283 0.25330001
0.036743 0.17253 0.25358
0.082935996 0.19369 0.26407999
0.028062999 0.17054 0.24657001
0.014327 0.14512999 0.23853
0.049065001 0.17130999 0.24442001
0.058184002 0.17414001 0.23756
0.057240002 0.17182 0.23169
0.031883001 0.06363 0.26515001
0.04259 0.17371 0.25105
0.041556999 0.17294 0.25248
0.039946001 0.17196 0.25200999
0.056288 0.17245001 0.25229001
0.050717 0.17203 0.24425
0.090173997 0.19528 0.26475
0.026169 0.14635 0.23062
0.049323 0.063686997 0.26197001
0.031858001 0.15078001 0.22868
0.032042 0.15093 0.23207
0.047533002 0.11463 0.30483001
0.046025001 0.11584 0.30644
0.058323 0.17462 0.25468999
0.058098 0.17366999 0.25277999
0.064306997 0.17843001 0.25522
0.061287999 0.17580999 0.25312001
0.045026001 0.17218 0.25459
0.042753998 0.1735 0.25599
0.043304 0.1727 0.25104001
0.048788 0.17421 0.25353
0.050251 0.17244001 0.25514999
0.051913999 0.17327 0.25442001
0.051665001 0.17306 0.25483999
0.026856 0.16856 0.24152
0.028325001 0.17163 0.24180999
0.054016002 0.11744 0.31821001
0.037652999 0.17195 0.24681
0.082120001 0.18329 0.25623
0.038862001 0.17283 0.24645001
0.049162 0.17371 0.25279999
0.047226001 0.17185 0.25391001
0.046289001 0.17191 0.25453001
0.045758002 0.17291 0.25163001
0.046634998 0.17366 0.25082999
0.048785001 0.17249 0.25128999
0.040089 0.17196 0.25492001
0.039742 0.17279001 0.25472
0.050014999 0.17287999 0.25024
0.050450999 0.17298999 0.25038001
0.049864002 0.17354999 0.25022
0.087084003 0.1953 0.26515999
0.041616 0.17027999 0.2608
0.032263 0.15602 0.22886001
0.026070001 0.14658 0.23071
0.030735999 0.15943 0.22922
0.015051 0.13448 0.23814
0.038851 0.094214998 0.23336001
0.038605999 0.095169 0.2339
0.038275 0.094890997 0.2323
0.03768 0.17269 0.25622001
0.034986001 0.17117 0.25522
0.028508 0.16946 0.25494
0.027354 0.16938999 0.25483
0.038500998 0.17179 0.25501001
0.020678001 0.15148 0.2394
0.085913002 0.19582 0.26512
0.084847003 0.1937 0.26269001
0.087764002 0.19451 0.26289999
0.088304996 0.19517 0.26482001
0.026569 0.14999001 0.23153999
0.026528001 0.15198 0.23215
0.035168 0.17056 0.25496
0.032094002 0.17147 0.25505999
0.030449999 0.17055 0.25580999
0.046638001 0.16924 0.229
0.032483999 0.17049 0.25512001
0.026900001 0.16852 0.25529
0.027544999 0.15206 0.23360001
0.028557001 0.16774 0.23566
0.061859999 0.17222001 0.24936
0.027784999 0.15391 0.23315001
0.041196998 0.16859999 0.22882999
0.039228 0.17050999 0.23064999
0.028307 0.15553001 0.23513
0.024566 0.16755 0.25566
0.051927 0.11865 0.31648999
0.084040999 0.19345 0.26333001
0.028743999 0.15577 0.23361
0.036355998 0.11258 0.23011
0.02688 0.15721001 0.23235001
0.057326 0.17146 0.23876999
0.023368999 0.16621 0.2538
0.027504001 0.1595 0.23272
0.026128 0.16136999 0.23271
0.042677 0.052496001 0.2888
0.038594 0.051291 0.28828999
0.028305 0.054905001 0.25990999
0.029492 0.055387001 0.25961
0.02963 0.053923 0.25898999
0.039668001 0.051624 0.30665001
0.11177 0.20073999 0.27399001
0.11061 0.20144001 0.27279001
0.10986 0.20105 0.27415001
0.022659 0.16665 0.25255999
0.098214999 0.20383 0.27239001
0.043935999 0.073780999 0.31182
0.023001 0.16742 0.25248
0.028333001 0.16753 0.25163999
0.028124001 0.16835 0.2536
0.025343001 0.1682 0.25369
0.031411 0.16948999 0.25450999
0.039014 0.17083 0.26098999
0.076186001 0.13811 0.33089
0.033479001 0.17009 0.25301
0.031017 0.17112 0.25343999
0.034123 0.17053001 0.25441
0.038812999 0.071814999 0.27858999
0.037108 0.17188001 0.25279999
0.037227999 0.17251 0.25441
0.056510001 0.17321999 0.2518
0.034598999 0.065900996 0.2678
0.030092999 0.10296 0.23717
0.035098001 0.065494001 0.26802999
0.061351001 0.17624 0.25240001
0.059234001 0.17343 0.25170001
0.039512001 0.17308 0.25393999
0.040189002 0.17359 0.2529
0.046248 0.17197999 0.25319999
0.046916001 0.17230999 0.2529
0.043303002 0.17294 0.25158
0.047719002 0.1723 0.25134
0.056056999 0.17254999 0.25323999
0.054370001 0.17321999 0.25136
0.029860999 0.11795 0.23579
0.034713 0.058134999 0.30276
0.042536002 0.17276999 0.25376001
0.050689001 0.17385 0.24541999
0.047834001 0.17332999 0.25130001
0.045276001 0.17244001 0.25240001
0.044709999 0.1726 0.25472
0.043207999 0.17312001 0.25362
0.096667998 0.20216 0.27090001
0.040764999 0.17236 0.25314
0.054315001 0.17444 0.25330999
0.049454998 0.17229 0.25093001
0.045072999 0.17438 0.25382999
0.040532999 0.17248 0.25323999
0.040061999 0.17149 0.25573999
0.047704 0.11517 0.31158999
0.046015002 0.11571 0.31276
0.05119 0.17169 0.25299001
0.039314002 0.17157 0.25488999
0.038201999 0.17268001 0.25573
0.053601 0.17163999 0.24919
0.052774001 0.1716 0.24947999
0.053344 0.17316 0.25034001
0.028724 0.055503 0.26153001
0.028921001 0.061875999 0.26324999
0.054632001 0.17279001 0.25206
0.042204998 0.074624002 0.26846999
0.041784 0.077445 0.26995999
0.043777 0.076123998 0.26851001
0.073763996 0.17738 0.25143
0.074502997 0.17671999 0.25165001
0.071690999 0.17483 0.25170001
0.055819999 0.072636001 0.26141
0.030138001 0.057987001 0.26104999
0.029947 0.061392002 0.26133999
0.036386002 0.1728 0.25509
0.059043001 0.17292 0.25086001
0.058400001 0.17199001 0.24773
0.055688001 0.17275 0.25005001
0.058322001 0.17304 0.25051999
0.058196001 0.17279001 0.24807
0.056540001 0.17209999 0.24911
0.034991998 0.17165001 0.25396001
0.033794999 0.17194 0.25454
0.031945001 0.17094 0.25519001
0.044128001 0.17191 0.26175001
0.043508999 0.17083 0.26172999
0.043581001 0.17084 0.2608
0.089328997 0.19886 0.26977
0.086502001 0.14815 0.29820001
0.060288999 0.17285 0.24909
0.064005002 0.17904 0.25339001
0.062862001 0.17566 0.25239
0.03049 0.16999 0.25400999
0.047166001 0.071677998 0.26504999
0.075102001 0.1372 0.32980001
0.040178999 0.058453001 0.25753999
0.039147001 0.057744998 0.25645
0.024034999 0.16704001 0.25345999
0.025895 0.16789 0.25446001
0.029557001 0.17048 0.25380999
0.028462 0.1693 0.25591001
0.040697999 0.060045999 0.25836
0.057349 0.071061 0.25983
0.058892999 0.17202 0.23839
0.042048 0.060481001 0.25903001
0.047509 0.080706 0.2969
0.046608999 0.080493003 0.29787001
0.046154998 0.081708997 0.29548001
0.042358998 0.089234002 0.29837
0.041553002 0.092629999 0.29714
0.043065 0.092626996 0.29754999
0.045279 0.078369997 0.29861999
0.044050999 0.080591999 0.29960001
0.046813998 0.080851004 0.29947999
0.046725001 0.075925998 0.29923001
0.046347 0.076003999 0.29833001
0.045352001 0.076916002 0.29793
0.045299001 0.11331 0.30519
0.036864001 0.096842997 0.30127001
0.036481 0.098780997 0.30145001
0.038056001 0.09984 0.30066001
0.091233 0.18931 0.26277
0.090159997 0.18987 0.26223001
0.034051999 0.054191001 0.30191001
0.045827001 0.17151 0.25911
0.043671001 0.17138 0.25841001
0.043115001 0.062475 0.26245999
0.021312 0.14988001 0.23645
0.079544999 0.13792001 0.33168
0.078252003 0.13867 0.33205
0.10308 0.20128 0.27487001
0.044537999 0.063677996 0.26284
0.044117998 0.092286997 0.29409
0.053511001 0.11541 0.32332
0.077583998 0.13834 0.33127999
0.078073002 0.13902999 0.33236
0.044916999 0.063961998 0.26504999
0.074619003 0.13844 0.32997999
0.025852 0.093750998 0.25823
0.025343001 0.092133 0.25775
0.044496 0.065614 0.2667
0.053629 0.11726 0.32275
0.052774999 0.11657 0.32260999
0.050542001 0.11572 0.32288
0.037772998 0.054288998 0.28933001
0.037776001 0.054984 0.29102001
0.079962 0.13903999 0.33160999
0.080766 0.13905001 0.33068001
0.081217997 0.14048 0.33213001
0.076808996 0.13977 0.33069
0.053543001 0.11721 0.32315001
0.051731002 0.11606 0.3231
0.050776001 0.11614 0.32312
0.042578001 0.073739998 0.30974001
0.082944997 0.14059 0.33039999
0.081638999 0.13970999 0.32973999
0.081496999 0.13965 0.33063
0.084086001 0.14153001 0.3317
0.080115996 0.14053001 0.32914999
0.077997997 0.14069 0.32888001
0.076067999 0.139 0.32872
0.076834999 0.13901 0.33002999
0.048779 0.11555 0.32325
0.096693002 0.20062999 0.27079999
0.033027999 0.057936002 0.30039999
0.034242999 0.057631001 0.30195001
0.034681 0.056981999 0.3008
0.054737002 0.1168 0.32188001
0.051724002 0.11728 0.32295999
0.049600001 0.11537 0.32189
0.048643999 0.11435 0.32115
0.010053 0.13429999 0.25979999
0.01264 0.13711999 0.25764
0.038635999 0.060586002 0.25799
0.078905001 0.1415 0.32899001
0.098563999 0.20196 0.27059001
0.053513002 0.11657 0.31999001
0.051984999 0.11709 0.31979001
0.049286 0.11623 0.32030001
0.047031999 0.11599 0.31992
0.062403999 0.17544 0.24970999
0.061783001 0.1751 0.25055
