# .PCD v0.7 - Point Cloud Data file format
VERSION 0.7
FIELDS x y z
SIZE 4 4 4
TYPE F F F
COUNT 1 1 1
WIDTH 1605
HEIGHT 1
VIEWPOINT 0 0 0 1 0 0 0
POINTS 1605
DATA ascii
0.11689 0.058733001 0.090278
0.23052999 0.070805997 0.089812003
0.13212 0.052273002 0.11159
0.13334 0.051669002 0.11159
0.11755 0.061925001 0.094904996
0.11751 0.061195999 0.095888004
0.1176 0.062252 0.095242001
0.15306 0.065246001 0.12271
0.15353 0.065154001 0.12301
0.22574 0.088509999 0.066655003
0.18316001 0.072522998 0.14645
0.14444 0.063277997 0.12164
0.14364 0.063569002 0.12081
0.14331 0.063000001 0.12144
0.11546 0.070137002 0.092234001
0.11534 0.070964001 0.091825001
0.19532 0.085900001 0.13007
0.12328 0.054338999 0.10578
0.12257 0.055109002 0.10705
0.12256 0.055110998 0.10576
0.12075 0.065539002 0.11017
0.12011 0.065604001 0.10988
0.1723 0.078327 0.13767999
0.17156 0.077752002 0.13762
0.19659001 0.083617002 0.13438
0.23431 0.062157001 0.094454996
0.23316 0.063284002 0.095325001
0.23305 0.062135 0.095261998
0.22678 0.078727998 0.077912003
0.16756 0.079369999 0.11966
0.14365999 0.056464002 0.12442
0.23238 0.065343 0.093864001
0.18252 0.090126999 0.12336
0.13959 0.060957 0.12125
0.13964 0.061976001 0.12099
0.23754001 0.058164001 0.090732999
0.2367 0.057757001 0.091509998
0.16548 0.036017999 0.1119
0.16565 0.035716001 0.11313
0.15737 0.050979 0.12953
0.22606 0.081758 0.063450001
0.22521 0.082560003 0.064240001
0.22717001 0.060823999 0.10109
0.22694001 0.060219001 0.10198
0.2278 0.059661999 0.10196
0.16191 0.063308999 0.13819
0.16598 0.078377001 0.12726
0.16665 0.078325003 0.12874
0.1304 0.069656 0.10934
0.12999 0.070349 0.1085
0.12917 0.064539999 0.11367
0.1293 0.065656997 0.1136
0.16455001 0.066903003 0.089959003
0.16481 0.065683 0.089892998
0.15821999 0.095489003 0.090342
0.23469 0.071080998 0.088344
0.17473 0.072636999 0.14229
0.17565 0.073748998 0.14202
0.17478 0.073638998 0.14196999
0.19543 0.080399998 0.13996001
0.19454999 0.080586001 0.1401
0.19457 0.079697996 0.14064001
0.15896 0.071323998 0.12344
0.15994 0.071930997 0.1238
0.15917 0.091906004 0.088900998
0.15809999 0.092266999 0.089230999
0.16697 0.079415001 0.12468
0.16764 0.08044 0.12462
0.16694 0.079444997 0.12344
0.12624 0.055236999 0.11159
0.12551001 0.055606999 0.1115
0.14972 0.056306999 0.12875
0.14875001 0.056396998 0.12828
0.14849 0.055087 0.12835
0.19348 0.082385004 0.13854
0.19316 0.082023002 0.13931
0.19418 0.081772 0.13903999
0.16728 0.083778001 0.096148998
0.15791 0.068800002 0.11299
0.17068 0.055257998 0.14573
0.23281001 0.073775001 0.085478
0.23303001 0.073175997 0.085933998
0.11314 0.069025002 0.084492996
0.11323 0.068988003 0.083067
0.11305 0.068768002 0.083530001
0.20434 0.075940996 0.13652
0.16704001 0.078876004 0.12596001
0.14959 0.054122999 0.12868001
0.15033001 0.054265 0.12891001
0.22443999 0.087250002 0.070717998
0.12435 0.074221998 0.099432997
0.14106999 0.048128001 0.11505
0.141 0.048101 0.1138
0.15291999 0.049263999 0.12735
0.15324 0.050517 0.12797999
0.15279999 0.050439999 0.12783
0.11549 0.073307 0.079223
0.17061 0.078465998 0.13604
0.16989 0.077901997 0.13598999
0.16392 0.093195997 0.085199997
0.16403 0.093786001 0.085501
0.16436 0.093711004 0.086049996
0.16202 0.051922001 0.13675
0.16155 0.050708 0.13578001
0.16235 0.05046 0.13677999
0.17083 0.082841001 0.10549
0.19687 0.088636003 0.085161
0.19738001 0.080946997 0.13778
0.19674 0.080946997 0.13833
0.19744 0.080089003 0.13875
0.16211 0.087350003 0.090989001
0.16108 0.087194003 0.091389
0.18313 0.073307 0.14639001
0.18264 0.073751003 0.14591999
0.17591999 0.086181998 0.12828
0.17478 0.085712001 0.12851
0.15747 0.065601997 0.12249
0.15627 0.065482996 0.12176
0.1802 0.071710996 0.14553
0.18885 0.091743 0.084229998
0.18931 0.092487998 0.084547997
0.18976 0.092805997 0.084004
0.16791999 0.032407999 0.13037001
0.22973 0.074463002 0.086214997
0.12506001 0.067037001 0.11287
0.13232 0.056295998 0.11465
0.13298 0.054992002 0.11494
0.14816 0.048027001 0.12439
0.17381001 0.084858 0.12995
0.12176 0.063097998 0.11153
0.1674 0.071624003 0.082680002
0.16635001 0.076013997 0.088964
0.16599999 0.075814001 0.090035997
0.16651 0.077137999 0.090273
0.16667999 0.038841002 0.13079999
0.16639 0.039379001 0.13089
0.16569 0.039184 0.12983
0.18606 0.068076 0.14808001
0.18578 0.069054998 0.14740001
0.12698001 0.073579997 0.10224
0.12613 0.073661 0.10241
0.16927999 0.069908001 0.14189
0.16962001 0.070202 0.14198001
0.12953 0.069734 0.10929
0.16865 0.077319004 0.13418999
0.12305 0.083129004 0.082667001
0.12212 0.083379 0.082521997
0.1121 0.060908999 0.083006002
0.22566 0.081867002 0.054737002
0.22506 0.081396997 0.054203
0.14302 0.066261999 0.11226
0.14406 0.066 0.11222
0.14372 0.066202998 0.1115
0.11751 0.066917002 0.10113
0.11731 0.065669999 0.1014
0.11782 0.066950999 0.10214
0.18006 0.089799002 0.1042
0.17873 0.089838997 0.10445
0.1803 0.089888997 0.10578
0.17215 0.084913999 0.11748
0.17275 0.085236996 0.11746
0.16077 0.043671999 0.12868001
0.1611 0.043187 0.12873
0.17045 0.036910001 0.13456
0.17066 0.037799001 0.13579001
0.16985001 0.037792001 0.13454001
0.19341999 0.074745998 0.14485
0.22861999 0.077852003 0.078865997
0.22886001 0.077224001 0.079150997
0.15692 0.059785001 0.12967999
0.20834 0.070404001 0.13392
0.20811 0.071281999 0.13346
0.19776 0.094350003 0.082175002
0.19754 0.094047002 0.082552999
0.16319001 0.074111998 0.12084
0.2244 0.085082002 0.063789003
0.22500999 0.083830997 0.064661004
0.16728 0.049426001 0.14162999
0.16682 0.049552999 0.14094
0.16704001 0.048278999 0.14043
0.14554 0.050988998 0.12442
0.16754 0.033312999 0.12548999
0.18323 0.089543998 0.10832
0.2307 0.076081 0.082056001
0.23063 0.076052003 0.080906004
0.16175 0.055195 0.13697
0.16182999 0.056428 0.13826001
0.16141 0.056394 0.13726
0.16704001 0.076904997 0.087636001
0.16664 0.076719999 0.089146003
0.16662 0.077272996 0.088719003
0.18962 0.066601999 0.14824
0.18819 0.067056 0.14813
0.18890999 0.087902002 0.13034999
0.18973 0.087609001 0.13087
0.17659999 0.089616001 0.1051
0.15496001 0.046572998 0.12212
0.15422 0.046647001 0.12298
0.17252 0.083649002 0.099352002
0.17140999 0.083646998 0.098021999
0.22382 0.082511 0.072362997
0.15588 0.049975 0.12854999
0.23652001 0.062201001 0.093037002
0.14202 0.066220999 0.1126
0.14304 0.066426001 0.1132
0.16989 0.081459001 0.13096
0.17560001 0.088076003 0.11921
0.16914 0.080417 0.13021
0.16843 0.079226002 0.13154
0.16123 0.060559001 0.13797
0.16418 0.042082001 0.13262001
0.16295999 0.042401999 0.13304999
0.16271 0.042373002 0.13186
0.23291001 0.078148998 0.077687003
0.15466 0.053968001 0.12959
0.16001 0.054703001 0.13271999
0.15981001 0.055571001 0.13242
0.15952 0.054724999 0.13164
0.13986 0.068364002 0.10365
0.13902999 0.068884 0.10354
0.1398 0.067658998 0.10482
0.162 0.084977001 0.093505003
0.16687 0.050613999 0.14137
0.18449999 0.073581003 0.1461
0.18465 0.074412003 0.14573
0.18398 0.075061001 0.14538001
0.18888 0.088497996 0.089176998
0.11596 0.064498 0.093974002
0.22368 0.089613996 0.065136001
0.16382 0.068784997 0.098351002
0.16385999 0.069115996 0.097016998
0.17911001 0.089541003 0.10604
0.15101001 0.048595 0.12651999
0.15053999 0.049315002 0.12712
0.13871001 0.060702998 0.12112
0.13783 0.060187999 0.12111
0.16061001 0.047727998 0.13033
0.22455999 0.081959002 0.056876998
0.22452 0.081408001 0.057624999
0.19067 0.089475997 0.11718
0.18939 0.089814998 0.11743
0.15595999 0.095541 0.085339002
0.1549 0.095776998 0.085506
0.15528999 0.095967002 0.085299
0.19509 0.096343003 0.081225999
0.19622999 0.096109003 0.081707999
0.20666 0.073801003 0.13469
0.20632 0.073333003 0.13530999
0.1208 0.071602002 0.10513
0.12072 0.071413003 0.10407
0.18353 0.082805 0.13947
0.18256 0.081699997 0.13959999
0.16263001 0.049490999 0.1367
0.16260999 0.048091002 0.13563
0.13211 0.067980997 0.11173
0.16545001 0.060865 0.14178
0.1825 0.089594997 0.12620001
0.18132 0.088776998 0.12695
0.17553 0.085914001 0.097135998
0.17666 0.086310998 0.097006001
0.12036 0.058010999 0.1098
0.12007 0.058791999 0.10962
0.15937001 0.090752997 0.089826003
0.16047999 0.090572998 0.089502998
0.16554999 0.078235 0.10948
0.16515 0.078326002 0.11095
0.19145 0.092843004 0.085621998
0.1925 0.093215004 0.085477002
0.19461 0.093263999 0.085004002
0.19451 0.093925998 0.084526002
0.19372 0.093199 0.085597001
0.17516001 0.087171003 0.11674
0.17380001 0.086346999 0.11676
0.17422 0.087024003 0.11727
0.12888999 0.067896999 0.11246
0.12871 0.067195997 0.11299
0.12890001 0.066665001 0.11311
0.16732 0.072105996 0.13842
0.13710999 0.053808998 0.12062
0.12389 0.054758999 0.10766
0.15593 0.094903998 0.085721999
0.15606999 0.094316997 0.086865
0.13368 0.070739001 0.10688
0.13409001 0.070588 0.10667
0.14428 0.050923001 0.12351
0.12351 0.076057002 0.092556
0.1221 0.076020002 0.093267001
0.12355 0.075747997 0.093327001
0.16779 0.079553001 0.11847
0.16771001 0.079682998 0.11764
0.16775 0.059691001 0.14429
0.23566 0.067906998 0.091853999
0.23614 0.068354003 0.091342002
0.22781 0.07559 0.084380999
0.18621001 0.084816001 0.13626
0.13877 0.057608999 0.12203
0.11452 0.069246002 0.073374003
0.11407 0.069081999 0.074529
0.11417 0.069329001 0.074207999
0.16667999 0.078213997 0.10771
0.20905 0.073562004 0.13154
0.22852001 0.085922003 0.073458001
0.22829001 0.086306997 0.072347999
0.14902 0.046197001 0.1213
0.1219 0.078791 0.088780001
0.12225 0.079181999 0.087805003
0.12114 0.079426996 0.088605002
0.19558001 0.094846003 0.083329998
0.20006999 0.078098997 0.13857999
0.17048 0.070983998 0.14146
0.16506 0.074376002 0.095973998
0.16511001 0.074386999 0.095613003
0.12066 0.062123001 0.11018
0.18272001 0.074684002 0.14541
0.18182001 0.073531002 0.14577
0.11756 0.059654001 0.092809997
0.11895 0.059468001 0.093610004
0.1534 0.063680001 0.12527999
0.15383001 0.063244 0.12591
0.15807 0.096979 0.088831998
0.15717 0.096456997 0.089093998
0.16221 0.095587 0.086604998
0.15355 0.047575999 0.12483
0.16941001 0.033744998 0.13245
0.12532 0.064493999 0.11399
0.12601 0.064632997 0.11403
0.13409001 0.053112999 0.11471
0.11292 0.068255 0.084550001
0.11234 0.067584999 0.084592998
0.11275 0.06786 0.085877001
0.16265 0.085046999 0.093933001
0.16632 0.077790998 0.11804
0.16157 0.049795002 0.13524
0.16225 0.049562 0.13564999
0.17534 0.088202 0.10849
0.1736 0.087099999 0.1073
0.15694 0.068985999 0.12304
0.15747 0.067809999 0.12235
0.15701 0.068415999 0.12311
0.16798 0.063378997 0.14368001
0.16892999 0.063046001 0.1443
0.16128001 0.069444999 0.13376001
0.18973 0.087213002 0.13185
0.19006 0.086801998 0.13246
0.22273999 0.088115998 0.061319001
0.13759001 0.050469 0.11024
0.13686 0.050533 0.11133
0.1364 0.050581001 0.11056
0.11477 0.060038 0.090889998
0.16147 0.073043004 0.12282
0.16119 0.073083997 0.12166
0.16922 0.08196 0.11341
0.16963001 0.082588002 0.11345
0.16899 0.081795998 0.11229
0.11971 0.080634996 0.082979001
0.23052999 0.064505003 0.094474003
0.22954001 0.063763998 0.095091999
0.23052999 0.063919999 0.094550997
0.16819 0.026411001 0.1211
0.16797 0.026649 0.12167
0.16789 0.027464001 0.12188
0.15859 0.049711 0.12907
0.13606 0.069893003 0.10801
0.13563 0.070235997 0.10686
0.11346 0.061453 0.089243002
0.15582 0.066129997 0.11704
0.15482999 0.065926999 0.1164
0.14391001 0.049892001 0.12224
0.11757 0.076247998 0.076245002
0.11788 0.076465003 0.077211998
0.11933 0.076155998 0.076696999
0.22401001 0.084247001 0.061377
0.1868 0.088563003 0.082277
0.18629 0.088013001 0.082787998
0.16768 0.031074001 0.11975
0.16768999 0.031055 0.12086
0.11602 0.062302999 0.093221001
0.11949 0.076529004 0.074239999
0.11943 0.076661997 0.073188998
0.16376001 0.037588 0.12131
0.17986999 0.087756999 0.12988999
0.16321 0.076636001 0.1116
0.16305999 0.076587997 0.11089
0.1627 0.076091997 0.11137
0.17134 0.026528999 0.13668001
0.17125 0.025648 0.13654999
0.17220999 0.02668 0.13744
0.16227999 0.040243 0.10928
0.16224 0.040165 0.11034
0.16145 0.0414 0.10972
0.16709 0.056781001 0.14208999
0.1654 0.075409003 0.092390999
0.1699 0.083789997 0.097580999
0.22477999 0.085459001 0.067622997
0.16362 0.084922001 0.093979999
0.23806 0.066638 0.091263004
0.2376 0.066758998 0.09166
0.13428 0.062107999 0.11543
0.13365 0.061174002 0.11575
0.13445 0.061271001 0.11588
0.16474999 0.041962001 0.13488001
0.1646 0.041940998 0.13391
0.11923 0.068917997 0.10674
0.11851 0.068939999 0.10553
0.11832 0.068466 0.10601
0.11443 0.068847999 0.090136997
0.14875001 0.061437 0.12657
0.19062001 0.093294002 0.083911002
0.19008 0.093029998 0.084710002
0.19095001 0.093305998 0.084917001
0.16805001 0.079249002 0.13022
0.15928 0.059721999 0.13402
0.15948001 0.055507001 0.13177
0.19089 0.088497996 0.12784
0.19017 0.088137001 0.12907
0.19163001 0.088152997 0.12876
0.1656 0.047123998 0.13917001
0.16599 0.046383999 0.13889
0.16652 0.047005001 0.13954
0.16669001 0.034306001 0.11656
0.16717 0.033539999 0.11772
0.16045 0.062137 0.13632999
0.1953 0.076854996 0.1425
0.19481 0.078093998 0.14218999
0.17766 0.075547002 0.1428
0.23282 0.066358 0.093372002
0.16782001 0.072535999 0.081805997
0.16787 0.071460001 0.081513003
0.16191 0.086236 0.093487002
0.17261 0.059778001 0.14702
0.17242999 0.058683999 0.14703999
0.17342 0.059723001 0.14725
0.16512001 0.034735002 0.11553
0.16636001 0.034828998 0.11528
0.16891 0.082966 0.10858
0.13315 0.070615001 0.10771
0.12318 0.053100999 0.10098
0.12337 0.053236999 0.10197
0.11735 0.058591001 0.088235997
0.11891 0.058536001 0.087798998
0.16711999 0.062137 0.074835002
0.16385999 0.070909001 0.099413
0.16415 0.071451001 0.10017
0.16411 0.071336001 0.099132001
0.15820999 0.089847997 0.090544
0.16429999 0.076793 0.11587
0.16367 0.076497003 0.11601
0.19066 0.072310999 0.14636999
0.19148 0.072341003 0.14650001
0.19138999 0.072692998 0.14622
0.18971001 0.081641003 0.14046
0.19076 0.081699997 0.14015
0.18975 0.082539 0.13993999
0.14105999 0.064673997 0.11887
0.14083 0.065312997 0.11839
0.15873 0.044874001 0.12097
0.15909 0.044302002 0.1208
0.15959001 0.044133998 0.1208
0.15278 0.065825 0.12169
0.12322 0.065640002 0.11255
0.16516 0.065692998 0.14047
0.16603 0.066569999 0.14071999
0.1655 0.066542 0.14052001
0.16823 0.057581998 0.14365999
0.16879 0.058026999 0.14452
0.19599999 0.078201003 0.14157
0.16865 0.078980997 0.099592
0.16782001 0.077891998 0.099081002
0.16865 0.078699999 0.10042
0.13139001 0.050875999 0.10926
0.13019 0.051256001 0.10914
0.1301 0.051027 0.1085
0.13655999 0.061106998 0.11863
0.13651 0.060074002 0.11977
0.13677 0.06103 0.1197
0.16452999 0.075998001 0.11837
0.14534 0.065917 0.1163
0.11802 0.067547999 0.10088
0.1182 0.068224996 0.10108
0.18228 0.069580004 0.14642
0.11883 0.071346 0.095913999
0.11812 0.07158 0.095112003
0.13711999 0.050106 0.11279
0.13742 0.049277 0.11378
0.17522 0.082111999 0.13505
0.17389999 0.081684001 0.13485999
0.19822 0.093372002 0.080793001
0.19833 0.093734004 0.081280999
0.19846 0.092932001 0.081589997
0.15559 0.096239999 0.088226996
0.11811 0.058867 0.095225997
0.11825 0.058619998 0.095968999
0.23199999 0.068129003 0.091852002
0.19535001 0.087527998 0.12563001
0.1965 0.087197997 0.12536
0.12823001 0.073567003 0.10194
0.12809999 0.073968999 0.1008
0.12715 0.073946998 0.10155
0.23871 0.061218999 0.089758001
0.12616 0.05345 0.10887
0.11708 0.059849001 0.091696002
0.19783001 0.086428002 0.12613
0.19715001 0.086673997 0.12648
0.22606 0.080337003 0.064221002
0.22565 0.079896003 0.065343998
0.22522999 0.080187 0.065972
0.13221 0.054838002 0.11424
0.22315 0.085372001 0.061675001
0.22287001 0.085193001 0.060472999
0.1636 0.075839996 0.11371
0.16458 0.077264003 0.1133
0.16320001 0.076614998 0.11251
0.20900001 0.069672003 0.13423
0.20924 0.068857998 0.13422
0.1524 0.058782 0.12867001
0.11373 0.069862001 0.081800997
0.11418 0.070372999 0.081574
0.11429 0.069946997 0.080866002
0.12292 0.072480999 0.10338
0.12239 0.072659001 0.10284
0.12141 0.072221003 0.10261
0.16909 0.081947997 0.12183
0.16998 0.082929 0.12282
0.16996001 0.082846999 0.12167
0.12283 0.05762 0.11194
0.12416 0.072359003 0.10414
0.12394 0.072846003 0.10313
0.15974 0.092065997 0.092262
0.15989999 0.090778001 0.092520997
0.163 0.074633002 0.12942
0.16368 0.074436001 0.13033
0.16718 0.051316001 0.14187001
0.16738001 0.050701998 0.14161
0.19001 0.088899001 0.088955998
0.1128 0.064591996 0.087999001
0.22453 0.089455001 0.068163998
0.18520001 0.086672001 0.13311
0.14304 0.050354999 0.12175
0.14395 0.048755001 0.12036
0.14495 0.048046999 0.12033
0.14585 0.047270998 0.11877
0.14524999 0.047607999 0.1188
0.23714 0.070949003 0.088416003
0.23771 0.070776001 0.088030003
0.13268 0.070641004 0.1083
0.16867 0.033608001 0.13027
0.16823 0.033018 0.12905
0.16847999 0.033229001 0.1302
0.16994999 0.053243998 0.14395
0.12687001 0.068861999 0.10955
0.12822001 0.069075003 0.11008
0.12323 0.082635999 0.083126001
0.12342 0.081882998 0.083934002
0.12356 0.082051001 0.083343998
0.16482 0.094554998 0.091315001
0.16553999 0.074551001 0.097721003
0.15937001 0.089566 0.090765998
0.23105 0.083773002 0.073918
0.22983 0.085239001 0.072991997
0.2298 0.084854998 0.073816001
0.16515 0.040591002 0.1313
0.16487999 0.040378999 0.1301
0.16516 0.039928999 0.13001999
0.22327 0.087219 0.067607999
0.22369 0.088579997 0.068658002
0.22293 0.088527001 0.067654997
0.16677999 0.089635 0.094512999
0.16557001 0.089509003 0.094976999
0.16739 0.082723998 0.088712998
0.16777 0.082672 0.089879997
0.16455001 0.068040997 0.092863001
0.16449 0.06797 0.093625002
0.16699 0.038017001 0.13063
0.11285 0.058968 0.077900998
0.11309 0.058672 0.077248
0.14478999 0.063265003 0.12253
0.14543 0.064675003 0.12115
0.16969 0.083529003 0.11264
0.16943 0.082648002 0.11223
0.17084 0.072416998 0.14050999
0.11772 0.058625001 0.10373
0.11786 0.058630999 0.10441
0.16224 0.041317001 0.12491
0.16207001 0.042089 0.12622
0.16152 0.042064 0.12509
0.1673 0.060988002 0.14356001
0.16802 0.062165 0.14408
0.17758 0.089247003 0.12309
0.17859 0.089079998 0.12422
0.17806 0.088993996 0.12288
0.15036 0.046661999 0.12274
0.2326 0.081853002 0.074493997
0.23301999 0.081113003 0.074166998
0.23269001 0.081991002 0.073527999
0.1715 0.056403 0.14601
0.18810999 0.073294997 0.14602
0.16551 0.071107 0.089417003
0.16500001 0.071551003 0.090194002
0.1656 0.072502002 0.090423003
0.14622 0.047045 0.11961
0.14724 0.046884999 0.11941
0.1793 0.088545002 0.12718999
0.17908999 0.087820999 0.12779
0.13802999 0.048845999 0.11561
0.13772 0.048609 0.11487
0.23617999 0.071268 0.088022001
0.23543 0.070744 0.088987999
0.23643 0.070836 0.088918
0.11553 0.075299002 0.086214997
0.11709 0.059905998 0.10485
0.11696 0.061172999 0.10496
0.16903999 0.064686 0.14390001
0.16212 0.075084999 0.11628
0.16225 0.075052001 0.11793
0.11963 0.07423 0.094241001
0.11865 0.074836999 0.093744002
0.17242999 0.083934002 0.098476999
0.16134 0.055086002 0.13592
0.17089 0.084891997 0.11034
0.17129 0.085175 0.11161
0.13429999 0.071684003 0.10155
0.13415 0.071796998 0.10065
0.15813001 0.065649003 0.12594
0.23291001 0.059709001 0.094639003
0.16838001 0.0337 0.12898
0.16918001 0.082645997 0.11103
0.16951001 0.083057001 0.11087
0.16949999 0.082823001 0.10996
0.18053 0.087003 0.13149001
0.18020999 0.086493 0.13195001
0.16003001 0.04366 0.12311
0.15245 0.047412999 0.1249
0.14658 0.054058 0.12707999
0.14643 0.053633999 0.1266
0.17239 0.08168 0.13411
0.17144001 0.081454001 0.13299
0.11818 0.075110003 0.092606001
0.19241001 0.080294997 0.14144
0.19128001 0.080634996 0.14117999
0.19136 0.080023997 0.14181
0.19363999 0.095550999 0.080403998
0.17084 0.082370996 0.12878001
0.20023 0.075884998 0.13951001
0.20044 0.075030997 0.14055
0.20088001 0.075098999 0.13981999
0.1769 0.089078002 0.11015
0.16619 0.034435 0.12146
0.16105001 0.040966 0.11948
0.19035 0.070226997 0.14714
0.23094 0.073528998 0.087066002
0.23017 0.073028997 0.087738998
0.18031999 0.084616996 0.13512
0.23975 0.066768996 0.088422
0.23962 0.065659001 0.089097999
0.24015 0.065622002 0.088386998
0.17158 0.080633998 0.13440999
0.11418 0.060097001 0.089083001
0.16513 0.065517999 0.091995999
0.16459 0.066806003 0.092146002
0.1648 0.065659001 0.090608001
0.13981999 0.065128997 0.11788
0.13835999 0.06521 0.11722
0.13832 0.049098 0.1171
0.15622 0.058641002 0.12986
0.15731999 0.058777001 0.12975
0.15790001 0.089547001 0.091485001
0.15851 0.089492001 0.091390997
0.20474 0.078368001 0.13368
0.2041 0.078654997 0.13418999
0.18472999 0.079279996 0.14329
0.1857 0.079195999 0.14334001
0.1578 0.045770001 0.12033
0.13989 0.064544998 0.11867
0.13970999 0.064985998 0.11811
0.11331 0.058754001 0.078239001
0.19561 0.096178003 0.082065001
0.12673 0.074045002 0.096173003
0.17120001 0.082757004 0.11633
0.17112 0.083072998 0.11755
0.15895 0.069234997 0.11006
0.15825 0.068676002 0.11091
0.16752 0.064413004 0.14302
0.16672 0.064352997 0.14247
0.23989999 0.063236997 0.088238001
0.23969001 0.064600997 0.088509999
0.23938 0.063284002 0.089093998
0.23222999 0.074101001 0.08591
0.17501999 0.070326 0.14449
0.12873 0.055015001 0.1126
0.12917 0.056124002 0.11343
0.16531 0.035695001 0.11937
0.13914999 0.067033999 0.11021
0.13934 0.067712002 0.1081
0.13850001 0.067598 0.10965
0.12975 0.067817003 0.1122
0.15801001 0.068902001 0.11674
0.11847 0.058634002 0.10708
0.11872 0.059202 0.10747
0.17506 0.072242998 0.14275999
0.17518 0.071500003 0.14381
0.17647 0.072687998 0.14365999
0.19934 0.080530003 0.13664
0.15847 0.096197002 0.089932002
0.15931 0.096605003 0.089772999
0.1604 0.073673002 0.11585
0.15938 0.073298998 0.11608
0.11872 0.057512 0.10095
0.11855 0.056657001 0.099967003
0.11892 0.056892 0.10086
0.13982999 0.066831 0.10838
0.13935 0.067592002 0.10721
0.19259 0.080866002 0.14102
0.19216 0.081156 0.14049999
0.18700001 0.078805998 0.14369
0.18742 0.077968001 0.14408
0.17625 0.087546997 0.11645
0.16731 0.032311 0.11987
0.16701999 0.033337999 0.11886
0.1309 0.073427998 0.09883
0.1566 0.060378999 0.12927
0.18523 0.074538 0.14578
0.18792 0.083916001 0.13823999
0.18876 0.084686004 0.13668001
0.19009 0.074492998 0.14565
0.19009 0.073583998 0.14603999
0.17323001 0.085187003 0.097765997
0.17239 0.084858 0.097756997
0.12132 0.076459996 0.092572004
0.19142 0.088982001 0.12332
0.19196001 0.088973999 0.12266
0.23617999 0.072745003 0.084321998
0.23568 0.072743997 0.084974997
0.16163 0.050581001 0.13518
0.15020999 0.066310003 0.11739
0.13152 0.054271001 0.11273
0.22561 0.078466997 0.076434001
0.22623 0.078157 0.077482
0.23404001 0.075938001 0.077381
0.23474 0.075733997 0.076315001
0.23434 0.075951003 0.076610997
0.11358 0.069160998 0.087876
0.11317 0.06876 0.087612003
0.15992001 0.043756001 0.117
0.21112999 0.062794998 0.13349999
0.21125001 0.062058002 0.13378
0.16389 0.069000997 0.094659999
0.16417 0.070000999 0.095854998
0.125 0.082721002 0.081335999
0.12445 0.082800001 0.081666999
0.1245 0.082161002 0.081905998
0.16767 0.066699997 0.1424
0.1682 0.067844003 0.14203
0.16779999 0.068167999 0.14134
0.20694 0.069218002 0.13795
0.20745 0.068917997 0.1372
0.11754 0.066674002 0.10028
0.22824 0.085233003 0.067307003
0.22857 0.085403003 0.068271004
0.22939 0.085266002 0.068126
0.16678999 0.073285997 0.13702001
0.16610999 0.072435997 0.13711999
0.14278001 0.055268999 0.124
0.20343 0.079361998 0.13416
0.20310999 0.079880998 0.1338
0.15992001 0.087090001 0.091893002
0.16012 0.088584997 0.092454001
0.14724 0.059535 0.12678
0.1479 0.050602999 0.1266
0.14817999 0.049853999 0.12634
0.16235 0.075374 0.11594
0.17863999 0.089472003 0.11692
0.17779 0.089143001 0.11739
0.19242001 0.083327003 0.13772
0.16106001 0.062302999 0.13747001
0.18746001 0.089432999 0.12299
0.18858001 0.089561999 0.1225
0.18685 0.089666001 0.12164
0.16689999 0.081453003 0.095149003
0.11729 0.064565003 0.096428998
0.16467001 0.084031999 0.092109002
0.16347 0.085017003 0.091879003
0.16447 0.084902003 0.091311
0.15817 0.071428999 0.11646
0.15848 0.071787 0.1173
0.22014 0.087660998 0.059153002
0.22058 0.087738 0.059735999
0.22041 0.088156 0.059218001
0.23118 0.068658002 0.091608003
0.23109999 0.068014003 0.091952004
0.16999 0.041368999 0.1408
0.16949999 0.041168999 0.13964
0.11412 0.068934001 0.075724997
0.11449 0.071567997 0.082548
0.11452 0.070441 0.082722001
0.20305 0.081502996 0.12919
0.20213 0.082259998 0.12948
0.20261 0.082143001 0.12958001
0.12358 0.079152003 0.086240001
0.12275 0.080206998 0.086209998
0.12343 0.079318002 0.086641997
0.14669 0.057569999 0.12664001
0.14689 0.058749001 0.12665001
0.16738001 0.071379997 0.085294999
0.1134 0.067078002 0.076200999
0.11316 0.067911997 0.076494999
0.11383 0.067911997 0.075727999
0.15234999 0.059579998 0.12841
0.2383 0.057859 0.089470997
0.16343001 0.066285998 0.13781001
0.16387001 0.066843003 0.13772
0.20658 0.072277002 0.13669001
0.20740999 0.071392998 0.13522001
0.20716 0.072341003 0.13539
0.17665 0.085505001 0.13185
0.17715999 0.085997 0.13146999
0.19211 0.088544004 0.083231002
0.19302 0.089041002 0.083419003
0.19320001 0.088521004 0.083595999
0.11856 0.061149001 0.10775
0.16080999 0.056138001 0.13501
0.16057 0.057224002 0.13521001
0.16034 0.056536999 0.13459
0.15279999 0.066161998 0.11681
0.11768 0.078123003 0.086712003
0.11784 0.077917002 0.088059999
0.11808 0.078593999 0.088
0.17047 0.068089999 0.14318
0.17169 0.068971999 0.14365999
0.17041001 0.069158003 0.14292
0.16062 0.096445002 0.090428002
0.15967 0.096038997 0.090526
0.11935 0.070694998 0.096957996
0.1274 0.054889999 0.11197
0.16143 0.051697001 0.13500001
0.16083001 0.051995002 0.13337
0.16140001 0.05156 0.13376001
0.19986001 0.081781 0.1339
0.19978 0.082226999 0.13331001
0.16285001 0.074954003 0.12579
0.147 0.050145999 0.12509
0.14749999 0.049562 0.12563001
0.16222 0.073330998 0.12943999
0.15311 0.058628 0.12912001
0.16373 0.039623 0.1256
0.1654 0.046241999 0.13828
0.12755001 0.071171999 0.10679
0.16439 0.076725997 0.12444
0.23398 0.074248001 0.084109999
0.17885 0.082353003 0.13805
0.16140001 0.096635997 0.088182002
0.16171999 0.096321002 0.089229003
0.23560999 0.073211998 0.08348
0.16515 0.037877001 0.12763999
0.13641 0.049998 0.11687
0.16393 0.037268002 0.12224
0.16787 0.037785999 0.13195001
0.16773 0.036906 0.13026001
0.16825999 0.036757 0.13158999
0.20881 0.071525998 0.13235
0.20935 0.070547 0.13274001
0.15114 0.066101 0.11613
0.1508 0.065631002 0.11463
0.14993 0.066085003 0.11507
0.16053 0.050560001 0.13231
0.1428 0.053994998 0.12409
0.14327 0.054634999 0.12447
0.12457 0.052926999 0.10549
0.12366 0.053514998 0.10533
0.1183 0.076245002 0.091848001
0.11864 0.075765997 0.092609003
0.1336 0.072173998 0.10279
0.1347 0.071494997 0.10369
0.13222 0.057682 0.11507
0.1428 0.048583999 0.11925
0.15085 0.047247 0.1245
0.18754999 0.066232003 0.14873999
0.18729 0.065502003 0.14884999
0.22458 0.081821002 0.070329003
0.22446001 0.082581997 0.070961997
0.23603 0.062119 0.093654998
0.23598 0.061278999 0.093523003
0.11518 0.069848001 0.074290998
0.11526 0.069643997 0.073694997
0.11714 0.077054001 0.087982997
0.11677 0.076943003 0.086824998
0.20092 0.077891998 0.13786
0.20178001 0.078695998 0.13706
0.17336001 0.061046999 0.147
0.15846001 0.069121003 0.12614
0.1662 0.056395002 0.14105999
0.16661 0.054900002 0.14161
0.12692 0.064542003 0.11413
0.12792 0.064461 0.11384
0.14639001 0.065126002 0.12152
0.23138 0.075465001 0.083228
0.11424 0.071278997 0.085382998
0.23904 0.065645002 0.089890003
0.11722 0.061122999 0.096444003
0.15906 0.052016001 0.13019
0.11325 0.067783996 0.079608001
0.11291 0.066678002 0.079535
0.16596 0.069886997 0.13812999
0.19193 0.077058002 0.1435
0.19261 0.076853998 0.14380001
0.16734 0.078234002 0.096121997
0.16085 0.070357002 0.13097
0.22412001 0.082079001 0.073000997
0.14744 0.050864 0.1265
0.16926 0.029060001 0.13384999
0.16909 0.029844999 0.13273001
0.1868 0.087609999 0.081409998
0.18596999 0.087350003 0.082643002
0.22706001 0.086222999 0.067887999
0.22767 0.087475002 0.06893
0.22763 0.086369 0.068374
0.16658001 0.079423003 0.11176
0.16602001 0.079057001 0.11311
0.16616 0.079582997 0.1128
0.14382 0.048505001 0.11918
0.15871 0.064723998 0.13079999
0.16870999 0.063924998 0.077552997
0.22385 0.084803998 0.062564999
0.13522001 0.063282996 0.11543
0.13632999 0.063732997 0.11562
0.1547 0.052678999 0.12937
0.1557 0.052561 0.12966
0.23221999 0.062475 0.095385
0.1982 0.078351997 0.14056
0.16145 0.051692002 0.13595
0.23641001 0.070630997 0.089542001
0.16435 0.070322998 0.096446998
0.16439 0.071429998 0.096502997
0.17196999 0.085809 0.11248
0.17586 0.089102998 0.10476
0.17608 0.088698998 0.10377
0.12187 0.080228001 0.086712003
0.16542999 0.044750001 0.13710999
0.16587999 0.043944001 0.13761
0.16609 0.044651002 0.13812999
0.16192999 0.043170001 0.13179
0.16076 0.048480999 0.1312
0.16029 0.048588 0.13031
0.16666 0.077018999 0.098357998
0.16784 0.078060001 0.098058999
0.15563001 0.058940999 0.12958001
0.12537999 0.071529999 0.10547
0.22842 0.086208999 0.07006
0.22815 0.086268999 0.068962
0.22798 0.086758003 0.069899999
0.13932 0.05249 0.12104
0.13954 0.053196002 0.1211
0.19395 0.091743998 0.086489998
0.19405 0.092684001 0.085937999
0.19232 0.088908002 0.12214
0.17858 0.068981998 0.14683001
0.17848 0.070005998 0.14656
0.13376001 0.056444 0.11605
0.13398001 0.056866001 0.11666
0.134 0.057231002 0.11655
0.13107 0.053126998 0.1118
0.13085 0.053991999 0.11232
0.11844 0.059386 0.092584997
0.14406 0.056249 0.12515999
0.16606 0.079124004 0.092704996
0.16519 0.079447001 0.092667997
0.16580001 0.079412997 0.091779999
0.20421 0.079341002 0.13262001
0.20508 0.079162002 0.13194001
0.16742 0.030262999 0.12689
0.16753 0.031129001 0.12820999
0.13195001 0.051459 0.11043
0.13124 0.051343001 0.10978
0.11872 0.069840997 0.099881999
0.12689 0.054598 0.11095
0.12696999 0.054125998 0.11036
0.16881999 0.028961999 0.1197
0.16878 0.027659001 0.11939
0.16113 0.095201999 0.091568999
0.13309 0.072407 0.10162
0.13174 0.073150001 0.10176
0.17827 0.088638999 0.11566
0.17936 0.089120001 0.11562
0.17872 0.089046001 0.11536
0.12256 0.056704 0.11186
0.17352 0.085072003 0.12886
0.22423001 0.087371998 0.066101998
0.13531999 0.069089003 0.10956
0.13541 0.068723001 0.11074
0.16324 0.088950999 0.089019001
0.16371 0.075787 0.12605
0.16301 0.074836999 0.12472
0.176 0.072981 0.14309999
0.17622 0.073587999 0.14257
0.11928 0.078897998 0.088969998
0.16938999 0.080448002 0.097686
0.16927999 0.080738001 0.096904002
0.17137 0.070184 0.14316
0.17067 0.069891997 0.14273
0.15852 0.063706003 0.13206001
0.18314999 0.082874 0.13865
0.18237001 0.082764 0.13854
0.16097 0.042582002 0.12640999
0.12479 0.052983999 0.10658
0.12601 0.051913001 0.10597
0.14406 0.047463998 0.11556
0.12977 0.072029002 0.10564
0.1118 0.060949001 0.077753998
0.17163 0.076699004 0.13898
0.16621 0.075892001 0.10218
0.16605 0.074955001 0.10196
0.16566999 0.074882999 0.10278
0.23068 0.069940999 0.090516001
0.23164 0.070817001 0.089530997
0.11911 0.069975004 0.1033
0.1305 0.062856004 0.11436
0.11241 0.065479003 0.084559001
0.19089 0.090713002 0.079002
0.19171999 0.090612002 0.078417003
0.19140001 0.090453997 0.079942003
0.23225001 0.072136998 0.087659001
0.23217 0.07254 0.086824
0.14994 0.066257998 0.11631
0.14884 0.066266 0.11646
0.13668001 0.062128 0.11744
0.13635001 0.062368002 0.11638
0.17815 0.085764997 0.13226999
0.17472 0.074772 0.14144
0.17431 0.075677 0.14099
0.13181999 0.058566999 0.11482
0.22875001 0.073422998 0.087420002
0.12296 0.068232 0.11055
0.22208001 0.086406 0.058752999
0.22198001 0.087442003 0.058504999
0.22282 0.087447003 0.058644999
0.15884 0.055022001 0.13049001
0.16777 0.078284003 0.10047
0.16765 0.077804998 0.10081
0.22419 0.085243002 0.069706
0.13269 0.056511 0.11505
0.11283 0.068181999 0.080746002
0.22126 0.088436 0.059659
0.22266001 0.088535003 0.060391001
0.22239 0.088574998 0.059684999
0.11278 0.060109999 0.073538996
0.11316 0.059850998 0.072957002
0.13571 0.068389997 0.11103
0.18205 0.090106003 0.11674
0.18108 0.089936003 0.1171
0.18104 0.09031 0.11771
0.11299 0.060938999 0.087916002
0.17434999 0.085529 0.097365998
0.17366999 0.084857002 0.098483004
0.14451 0.063933998 0.12061
0.11422 0.068053 0.073003002
0.11265 0.066225 0.080775
0.11238 0.066664003 0.081283003
0.16891 0.072999001 0.081137002
0.17261 0.080634996 0.13519999
0.17317 0.081239 0.13511001
0.12902001 0.058894001 0.114
0.13146999 0.050533 0.10813
0.23187 0.069206998 0.090557002
0.23289999 0.068792999 0.089884996
0.20110001 0.081286997 0.1344
0.20022 0.081175998 0.13459
0.13406999 0.051451001 0.11086
0.1336 0.05136 0.11027
0.16134 0.053819999 0.13603
0.16129 0.053043999 0.13489
0.12931 0.063464999 0.11384
0.18832 0.065604001 0.14875001
0.19575 0.082957998 0.13598999
0.1957 0.082321003 0.13718
0.12508 0.054524001 0.10958
0.12773 0.066953003 0.11337
0.16825999 0.063336998 0.075299002
0.18911 0.092560001 0.082834996
0.13365 0.067506 0.11245
0.13322 0.068204001 0.11135
0.11703 0.076952003 0.085897997
0.1167 0.075813003 0.085925996
0.1425 0.047743998 0.11584
0.17073999 0.082659997 0.11595
0.17020001 0.082617 0.11543
0.17205 0.061524 0.14670999
0.19627 0.095326997 0.077598996
0.19761001 0.095322996 0.078469001
0.19061001 0.089497998 0.12216
0.18999 0.089538999 0.1232
0.17013 0.083600998 0.12298
0.17092 0.083880998 0.12246
0.12499 0.074022003 0.093474001
0.12489 0.074850999 0.093110003
0.16136 0.040185999 0.11569
0.16189 0.039092001 0.11651
0.16159999 0.039889 0.11673
0.16071001 0.049748 0.13209
0.16097 0.050932001 0.13322
0.18925001 0.092047997 0.081984997
0.19277 0.068983003 0.14677
0.19165 0.069954999 0.14683001
0.14365999 0.061083999 0.12292
0.14433999 0.06075 0.12374
0.16064 0.064521998 0.13497999
0.12266 0.061996002 0.11225
0.16756 0.048191998 0.14159
0.23701 0.071374997 0.087810002
0.14766 0.062049001 0.12548
0.14787 0.062633 0.12518001
0.16443001 0.067786999 0.13722
0.12597001 0.068251997 0.11125
0.16671 0.079654001 0.093447
0.16579001 0.079960003 0.093137003
0.20694999 0.074933998 0.13323
0.17611 0.088823996 0.109
0.1355 0.070662998 0.10589
0.1362 0.070464998 0.10553
0.13504 0.070987001 0.10474
0.16388001 0.070083998 0.099050999
0.16424 0.071428001 0.098151997
0.16813 0.061283 0.069169998
0.16742 0.060913999 0.069868997
0.16722 0.061136998 0.071148001
0.12124 0.078653999 0.089497998
0.11846 0.068981998 0.097153001
0.11842 0.06882 0.097691998
0.19345 0.089570999 0.088059001
0.11957 0.056446001 0.1017
0.12037 0.055516001 0.1018
0.18918 0.071066998 0.14689
0.18808 0.071629003 0.14669
0.1882 0.069980003 0.1468
0.16231 0.073739998 0.11905
0.19513001 0.081541002 0.13854
0.19486 0.082235001 0.13772
0.19468001 0.082742997 0.13758001
0.17724 0.080632001 0.13880999
0.17629001 0.080216996 0.13858999
0.11436 0.063147999 0.091352999
0.17897999 0.073849998 0.14454
0.12241 0.078151003 0.088945001
0.16919 0.081680998 0.096877001
0.20128 0.075843997 0.13852
0.17151999 0.039397001 0.13783
0.18069001 0.072391003 0.14590999
0.12234 0.081988998 0.084500998
0.15737 0.095431 0.090136997
0.18855 0.089275002 0.12740999
0.18704 0.089236997 0.12659
0.22773001 0.087369002 0.070013002
0.12706999 0.071993001 0.10546
0.16144 0.065390997 0.13586999
0.16174001 0.064336002 0.13687
0.16203 0.065398999 0.13609999
0.17651001 0.086257003 0.095925003
0.15386 0.065575004 0.12135
0.11712 0.06208 0.094010003
0.18460999 0.087420002 0.13070001
0.185 0.087502003 0.13206001
0.16575 0.048124 0.13965
0.16632999 0.048640002 0.14016999
0.16622999 0.075723998 0.13353001
0.22902 0.066264004 0.094114996
0.22923 0.065663002 0.094453
0.16378 0.053773001 0.14004999
0.16395 0.05288 0.13981
0.13873 0.064916998 0.11805
0.12049 0.064915001 0.11046
0.13696 0.062160999 0.11983
0.13812 0.061978001 0.12053
0.13796 0.063259996 0.11974
0.13072 0.051984999 0.11069
0.16367 0.069052003 0.13681
0.16468 0.069092996 0.13726
0.16606 0.026396999 0.12378
0.16922 0.087954 0.095059998
0.16813 0.088303998 0.095389001
0.16965 0.081782997 0.11915
0.16906001 0.081063002 0.11837
0.16405 0.076399997 0.11488
0.16467001 0.076903999 0.12676001
0.16256 0.068898 0.13576999
0.13144 0.070059001 0.1091
0.14677 0.064838 0.12196
0.14587 0.064245 0.12204
0.20413999 0.076947004 0.13618
0.16756 0.073569 0.085178003
0.16806 0.073415004 0.084200002
0.1371 0.062849998 0.11912
0.18224999 0.077018999 0.14365999
0.18319 0.077242002 0.14351
0.16241001 0.062242001 0.13918
0.11683 0.063389003 0.10068
0.13036001 0.073627003 0.096785001
0.17488 0.087160997 0.11571
0.13433 0.070909999 0.10612
0.167 0.032612 0.12021
0.12639 0.069917001 0.10844
0.19 0.072561003 0.14650001
0.16487999 0.094025999 0.091936
0.16362 0.094196998 0.092439003
0.16453999 0.093061 0.092605002
0.15806 0.067643002 0.10944
0.16501001 0.072314002 0.097833
0.16456001 0.072532997 0.098990001
0.20004 0.075273998 0.14005999
0.19690999 0.096069001 0.081431001
0.14390001 0.055103 0.12517001
0.14478999 0.053902999 0.12549999
0.23597001 0.058853 0.092808001
0.23579 0.05773 0.09262
0.13775 0.064790003 0.11475
0.15911999 0.068512 0.10899
0.15786 0.066357002 0.12502
0.15806 0.065681003 0.12482
0.16355 0.077315003 0.11129
0.16418 0.090535 0.094503999
0.16356 0.090651996 0.094228998
0.12172 0.072930001 0.10121
0.12263 0.073013 0.102
0.12232 0.073310003 0.10096
0.16799 0.054044001 0.14264999
0.13770001 0.069858998 0.1027
0.16426 0.083708003 0.094368003
0.16416 0.085087001 0.094711997
0.11513 0.058823001 0.087575004
0.11411 0.059197001 0.087451003
0.17057 0.065798998 0.14428
0.17027 0.064897999 0.14447001
0.14737999 0.046581998 0.12026
0.1647 0.071120001 0.090989999
0.12774999 0.054072998 0.11138
0.11431 0.072515003 0.082548998
0.18678001 0.070196003 0.14698
0.18561999 0.070090003 0.14693999
0.1638 0.081685998 0.093851998
0.17799 0.089268997 0.12186
0.1778 0.08907 0.12066
0.13576999 0.052940998 0.11665
0.18073 0.086243004 0.1332
0.13468 0.067755997 0.1121
0.13457 0.068198003 0.1115
0.15905 0.071404003 0.11469
0.15876999 0.070046 0.11381
0.18889999 0.088744 0.12826
0.14631 0.062162001 0.12451
0.14689 0.061996002 0.12495
0.19492 0.084913999 0.13285001
0.23724 0.062192999 0.092528999
0.23644 0.061012 0.093131997
0.22386999 0.089498997 0.068239003
0.1675 0.080512002 0.1106
0.1698 0.081652999 0.12785
0.16965 0.082713999 0.12627999
0.13743 0.048962001 0.11607
0.13585 0.052081 0.11891
0.12916 0.073417999 0.10048
0.16850001 0.087249003 0.095790997
0.16106001 0.070335999 0.13240001
0.16186 0.073064998 0.1235
0.16943 0.066661999 0.14332999
0.16845 0.065669 0.14326
0.16075 0.072750002 0.12525
0.16015001 0.072212003 0.12542
0.16676 0.027566999 0.12477
0.16629 0.027708 0.12357
0.17369001 0.065746002 0.14573
0.15761 0.071160004 0.11785
0.23553 0.060026001 0.093575999
0.23619001 0.059849001 0.092965998
0.14221001 0.054196998 0.12372
0.16699 0.046114001 0.13936
0.16756 0.045811001 0.14022
0.16734999 0.047309 0.14057
0.22513001 0.077007003 0.076440997
0.16378 0.075038999 0.1294
0.16455001 0.044752002 0.13614
0.15715 0.067929998 0.12416
0.15771 0.066629 0.12383
0.17873 0.089574002 0.11201
0.17746 0.089273997 0.1134
0.17899001 0.089585997 0.11309
0.16669001 0.078460999 0.11752
0.16599 0.072292 0.089735001
0.16619 0.072495997 0.088988997
0.22993 0.077059001 0.079109997
0.23038 0.076674998 0.079471998
0.23122001 0.076591 0.079190001
0.13723999 0.063759997 0.11573
0.13811 0.064662002 0.11602
0.16429 0.069927998 0.092069
0.16427 0.069017 0.092151001
0.18471999 0.068917997 0.14760999
0.1125 0.062201999 0.085899003
0.13907 0.051654998 0.12019
0.16491 0.036311001 0.12155
0.1514 0.066362999 0.11722
0.15474001 0.094625004 0.087526001
0.19098 0.084730998 0.13629
0.19 0.084904 0.13649
0.16680001 0.032189 0.12218
0.11185 0.062116001 0.082294002
0.19668999 0.084977999 0.13098
0.11794 0.074405998 0.093456998
0.16407 0.074771002 0.1197
0.16359 0.075190999 0.11916
0.16565999 0.041857999 0.13478
0.15245999 0.056449 0.12922999
0.14564 0.048266001 0.12229
0.14241 0.066060998 0.11566
0.18806 0.090848997 0.085693002
0.18904001 0.091072999 0.086531997
0.11881 0.076619998 0.075843997
0.22956 0.074096002 0.086535998
0.16575 0.080550998 0.093824998
0.16126999 0.074417002 0.11738
0.16106001 0.073686004 0.11781
0.16340999 0.068985 0.10055
0.16230001 0.067941003 0.10111
0.11398 0.070350997 0.085433997
0.11326 0.069127001 0.086782999
0.18994001 0.088926002 0.12749
0.18991999 0.088451996 0.12820999
0.16294 0.096161 0.089642003
0.12179 0.080735996 0.085991003
0.18934 0.071842998 0.14685
0.18807 0.072313003 0.14621
0.1585 0.090749003 0.091376998
0.15857001 0.092182003 0.091291003
0.18795 0.089707002 0.12041
0.18646 0.089736998 0.11956
0.1868 0.089699 0.12072
0.11275 0.064898998 0.085694
0.16508 0.067501001 0.13953
0.22962999 0.075676002 0.082401998
0.22823 0.076328002 0.081652001
0.19781999 0.079121001 0.14
0.1972 0.079600997 0.13981
0.14602999 0.06628 0.11365
0.15200999 0.061110001 0.12738
0.15087999 0.060513999 0.12748
0.15624 0.063400999 0.12658
0.15527999 0.062948003 0.1267
0.16969 0.026372001 0.13445
0.16996001 0.026632 0.13497999
0.16272999 0.086245999 0.093952
0.16179 0.08743 0.093561999
0.16003001 0.095005997 0.091567002
0.16772 0.040872999 0.13533001
0.1806 0.079733998 0.1416
0.17051999 0.081381001 0.098277003
0.17086001 0.081868999 0.098572999
0.16275001 0.074341998 0.12346
0.16227999 0.073632002 0.12394
0.17732 0.069256 0.14663
0.11986 0.076151997 0.075525999
0.11938 0.076355003 0.076043002
0.19453 0.086998001 0.12792
0.19502001 0.086557999 0.1292
0.1953 0.086749002 0.12859
0.16308001 0.073959999 0.13016
0.16592 0.075770997 0.090876997
0.16627 0.076564997 0.091557004
0.17931999 0.071526997 0.14527
0.19665 0.094118997 0.083214998
0.16987 0.080982998 0.13015001
0.16379 0.071358003 0.10047
0.18189999 0.08574 0.13436
0.1969 0.084351003 0.13119
0.12736 0.058827002 0.11353
0.16034999 0.094171003 0.084645003
0.1604 0.065908 0.13420001
0.16489001 0.042663999 0.13612001
0.1661 0.041598 0.1357
0.2352 0.064517997 0.094253004
0.23538999 0.065438002 0.093751997
0.23425999 0.064570002 0.094362997
0.17629001 0.071828 0.14399
0.15178999 0.062146999 0.12666
0.17750999 0.089142002 0.11968
0.19729 0.083555996 0.13441999
0.14967 0.057601999 0.12847
0.14974999 0.058667999 0.12818
0.14876001 0.057698999 0.12819
0.18266 0.089690998 0.10994
0.12247 0.077882998 0.089886002
0.12792 0.063165002 0.11411
0.11737 0.064586997 0.10601
0.22189 0.088248998 0.058532
0.17607 0.064508997 0.14797001
0.17763001 0.064392999 0.14796001
0.17777 0.065527 0.14782
0.11747 0.067225002 0.098848
0.11762 0.066946998 0.097205997
0.16377001 0.081803001 0.092669003
0.16464999 0.081638999 0.092208996
0.16487999 0.080757998 0.092147999
0.23422 0.061069001 0.094862998
0.113 0.063051999 0.089198999
0.168 0.030004 0.13022999
0.16859999 0.029836001 0.13170999
0.14743 0.055013999 0.12788001
0.16068999 0.041769002 0.11938
0.16101 0.041547999 0.12054
0.16864 0.027868999 0.12056
0.16833 0.026806001 0.1207
0.22431 0.082200997 0.054574002
0.22362 0.082111001 0.055567998
0.16801 0.062514998 0.073025003
0.16774 0.062015999 0.072117999
0.16701999 0.061999001 0.073308997
0.15256999 0.062497001 0.12667
0.15317 0.062119 0.1268
0.16272999 0.055312999 0.13839
0.16858999 0.081851996 0.11014
0.16861001 0.082377002 0.10939
0.14193 0.063029997 0.12066
0.14252 0.062886 0.12132
0.19205 0.081877999 0.13976
0.16857 0.072530001 0.080031998
0.16773 0.072417997 0.080620997
0.1165 0.075598001 0.084955998
0.13728 0.063171998 0.11823
0.22660001 0.080842003 0.076695003
0.22744 0.081234001 0.076872997
0.15813001 0.096247002 0.085501999
0.17489 0.085634001 0.094929002
0.17444 0.085578002 0.095230997
0.20661999 0.070382997 0.13707
0.20739999 0.069964997 0.13603
0.20648 0.071321003 0.13683
0.22604001 0.088981003 0.067987002
0.16701999 0.057622999 0.14269
0.16914 0.034492999 0.13152
0.13675 0.067914002 0.11131
0.14608 0.061452001 0.12489
0.14552 0.061971001 0.12462
0.16655999 0.03963 0.1318
0.16526 0.072572 0.091420002
0.16512001 0.073643997 0.092115
0.16536 0.043871999 0.13711999
0.16227999 0.039289001 0.11398
0.16192999 0.039292 0.11541
0.16179 0.039457999 0.11455
0.23966999 0.064824998 0.089074001
0.17073999 0.081409 0.099962004
0.13465001 0.062757999 0.11501
0.23025 0.082976997 0.076270998
0.16554999 0.068003997 0.13966
0.16603 0.067651004 0.14035
0.16737001 0.067841999 0.14027999
0.11976 0.057748999 0.10874
0.12044 0.057227001 0.10869
0.15518001 0.064882003 0.12347
0.22748999 0.072756998 0.088435002
0.22848 0.072855003 0.088096
0.12208 0.082474001 0.084127001
0.15047 0.061105002 0.12715
0.11898 0.073620997 0.094816998
0.12014 0.073959 0.095041998
0.13507 0.060586002 0.11665
0.17128 0.076907001 0.13811
0.17054 0.076497003 0.13798
0.11334 0.058502998 0.073844999
0.11362 0.058437999 0.074753001
0.22648001 0.087632999 0.070662998
0.1122 0.061299 0.084583998
0.11251 0.061331999 0.085842997
0.11706 0.065364003 0.098139003
0.11737 0.065578997 0.097209997
0.18628 0.075804003 0.14474
0.18612 0.076863997 0.14428
0.18489 0.075829998 0.14447001
0.1576 0.070840001 0.12028
0.17553 0.085894004 0.13063
0.16967 0.084977001 0.096777
0.17002 0.084628999 0.097214997
0.17091 0.085143 0.097384997
0.14696001 0.061122999 0.12548999
0.14734 0.061170001 0.12544
0.17727999 0.088872001 0.1219
0.12183 0.073106997 0.098885
0.12206 0.073357001 0.10009
0.24002001 0.067755997 0.086801
0.23962 0.068343997 0.087173
0.11993 0.055197999 0.098168001
0.11419 0.07254 0.086452
0.18638 0.077987 0.14431
0.22877 0.067974001 0.092713997
0.19433001 0.086704001 0.12898999
0.22508 0.088628002 0.069605999
0.16968 0.082869001 0.12393
0.16952001 0.081881002 0.1237
0.16881999 0.081611998 0.12452
0.16903999 0.080421999 0.11612
0.12508 0.082419001 0.080293
0.12455 0.083838001 0.079071
0.12532 0.083025999 0.079755001
0.14359 0.066009998 0.11442
0.11703 0.076695003 0.089345999
0.11795 0.077013999 0.090267003
0.11748 0.077439003 0.089321002
0.16658001 0.064503998 0.1416
0.16607 0.065091997 0.14098001
0.16508 0.064395003 0.14091
0.16689999 0.088783003 0.095252998
0.22688 0.058642998 0.10339
0.22594 0.059496 0.10366
0.19033 0.079922996 0.14207999
0.16745999 0.065508999 0.14236
0.22693001 0.081497997 0.054776002
0.15905 0.047357 0.1279
0.12444 0.083568998 0.080900997
0.12391 0.083949998 0.081290998
0.16004001 0.072728999 0.11837
0.11647 0.076576002 0.088808998
0.12061 0.072627999 0.099188
0.12054 0.072506003 0.098168999
0.16407 0.095547996 0.089750998
0.16337 0.095963001 0.090479001
0.16776 0.039324 0.13309
0.16677999 0.050014999 0.14122
0.11966 0.079975002 0.086251996
0.11833 0.072676003 0.094857
0.11892 0.072393999 0.095743001
0.17508 0.067638002 0.14634
0.15388 0.048009999 0.12605
0.15493 0.047793999 0.12583999
0.13846999 0.062945001 0.12008
0.13953 0.062231999 0.12063
0.1674 0.038214002 0.13172001
0.1672 0.038805999 0.13211
0.11517 0.07395 0.081375003
0.1337 0.057852 0.116
0.13461 0.057774998 0.11705
0.19058999 0.088799998 0.12564
0.19085 0.088765003 0.12676001
0.21018 0.073509999 0.12861
0.16563 0.078729004 0.11075
0.16584 0.078470998 0.11161
0.17325 0.087255001 0.10613
0.1737 0.088339999 0.10632
0.17363 0.088163003 0.10544
0.19551 0.074840002 0.14417
0.16528 0.064502999 0.086713001
0.15695 0.067524001 0.11348
0.15693 0.067810997 0.11436
0.11707 0.065658003 0.1003
0.17651001 0.089010999 0.11123
0.13779999 0.064382002 0.11739
0.13784 0.064313002 0.11817
0.22431999 0.080399998 0.071131997
0.2247 0.079434998 0.071234003
0.17104 0.052992001 0.14495
0.22747 0.078217998 0.078677997
0.22578 0.077041999 0.077409998
0.12702 0.074161999 0.10073
0.22352 0.087443002 0.062903002
0.16869999 0.062387001 0.072544999
0.16858 0.062224999 0.071791999
0.12413 0.080278002 0.081321999
0.12464 0.081919 0.081160001
0.12485 0.081326 0.081771001
0.18207 0.086211003 0.13409001
0.18122 0.085977003 0.13406
0.16346 0.075955003 0.12705
0.19806001 0.083907001 0.13071001
0.12051 0.078197002 0.082116
0.11492 0.071056999 0.089952998
0.18109 0.079241998 0.14219999
0.18606 0.090383001 0.12215
0.11936 0.05607 0.10058
0.11958 0.055580001 0.099766001
0.13759001 0.057939 0.12143
0.16526 0.075010002 0.094327003
0.16462 0.081320003 0.093886003
0.23939 0.066650003 0.089313
0.18442 0.083140001 0.13956
0.18864 0.081375003 0.1411
0.18784 0.081090003 0.14119001
0.17471001 0.083801001 0.13224
0.17487 0.083044998 0.13326
0.22751001 0.079092003 0.077907003
0.22835 0.075204 0.084596999
0.23831999 0.061627999 0.090654001
0.15918 0.044526 0.11613
0.15933999 0.044358999 0.11708
0.1666 0.062261999 0.075776003
0.16704001 0.062452 0.075484
0.17294 0.085625999 0.096341997
0.17307 0.085478999 0.096764997
0.12797999 0.059870999 0.11386
0.16297001 0.076018997 0.11269
0.15763 0.066021003 0.1215
0.14596 0.063744999 0.12346
0.14647 0.064234003 0.12315
0.15924001 0.073214002 0.11396
0.15873 0.072816998 0.1147
0.19441999 0.083981 0.13618
0.19561 0.083832003 0.13493
0.12409 0.054855 0.1087
0.17786001 0.089438997 0.11447
0.23367999 0.080522999 0.074349001
0.23356 0.080310002 0.075349003
0.16122 0.093004003 0.092701003
