# .PCD v0.7 - Point Cloud Data file format
VERSION 0.7
FIELDS x y z
SIZE 4 4 4
TYPE F F F
COUNT 1 1 1
WIDTH 1636
HEIGHT 1
VIEWPOINT 0 0 0 1 0 0 0
POINTS 1636
DATA ascii
0.0098722 0.17552 0.20554
0.0094937999 0.17734 0.20564
0.010939 0.18038 0.20537999
0.036035001 0.18110999 0.19062001
0.034875002 0.18248001 0.19133
0.025831001 0.18542001 0.19598
0.028844001 0.18457 0.19501001
0.02978 0.18463001 0.19420999
0.020935999 0.18835001 0.19904999
0.022583 0.18718 0.19859999
0.013631 0.19592001 0.20339
0.011763 0.19994 0.20415001
0.013248 0.20601 0.20341
0.019960999 0.21600001 0.19972
0.020283001 0.21713001 0.19956
0.021987 0.21933 0.19937
0.026164001 0.22279 0.1961
0.032637 0.22294 0.19306999
-0.012196 0.059372 0.21807
-0.00073460001 0.061508998 0.21099
0.00028524999 0.061314002 0.21176
0.0012503 0.061255999 0.21156
-0.014434 0.062928997 0.21882001
-0.014698 0.063937001 0.21938001
0.032304 0.079309002 0.19241001
0.031628001 0.079443999 0.19169
-0.0079581998 0.079759002 0.21515
-0.0094093001 0.079926997 0.2157
0.041418999 0.083475001 0.18832999
-0.0022757 0.085294999 0.21254
0.0066308999 0.089279003 0.20773999
0.015761999 0.098410003 0.20252
0.013793 0.10066 0.20352
0.012466 0.10211 0.20394
0.0096771996 0.10463 0.20601
0.0043465998 0.11509 0.20847
0.0027519001 0.13048001 0.20938
0.00079558999 0.13395 0.21069001
-0.0026785 0.13958 0.21262001
-0.00023238 0.13899 0.21128
-0.00045615001 0.13828 0.21104001
-0.00032237 0.14895999 0.21139
0.013924 0.18184 0.20379999
0.034207001 0.18267 0.19241001
0.026443001 0.18434 0.19652
0.027347 0.18438999 0.19557001
0.031342998 0.18601 0.19365001
0.031346999 0.18461999 0.19385999
0.021559 0.18772 0.19937
0.018058 0.19049001 0.20141
0.01502 0.19366001 0.20247
0.012651 0.19636001 0.20316
0.013222 0.20448001 0.20514999
0.015127 0.20961 0.20213
0.029805001 0.22322001 0.19453
-0.0098869 0.055149999 0.21781
-0.013328 0.060947999 0.21892001
0.039793 0.079456002 0.18957999
0.039863002 0.080178 0.18906
0.030986 0.07925 0.19335
-0.0048282002 0.083593003 0.21389
0.012147 0.10309 0.20448001
0.0087598003 0.10907 0.20667
0.0043318002 0.13260999 0.20863
-0.0013535999 0.13823999 0.21196
-0.0014744001 0.13937999 0.21219
0.0083146999 0.16737001 0.20698
0.035147 0.18122 0.19167
0.014771 0.18266 0.20331
0.017424 0.18298 0.20186999
0.036334999 0.22060999 0.19069
0.035494 0.22126999 0.19046
0.034747001 0.22168 0.19143
-0.013976 0.064271003 0.2201
-0.014751 0.067354999 0.21957
-0.013551 0.068672001 0.22048999
-0.0051899999 0.080269001 0.21512
-0.0048191999 0.083117001 0.21526
0.01336 0.10138 0.20394
0.011089 0.10473 0.2052
0.0084560998 0.1064 0.20636
0.0087928995 0.10738 0.20693
0.0083285999 0.11216 0.20640001
0.0086952997 0.11348 0.20663001
0.0088018999 0.11505 0.20686001
0.0051064002 0.11662 0.20952
0.0047443998 0.11509 0.20937
0.0056178002 0.14712 0.20829
0.0056806002 0.14751001 0.20818999
0.0063672001 0.1478 0.20912001
0.0016101 0.16079 0.21058001
0.0056532002 0.16057 0.20945001
0.0061897999 0.16142 0.20937
0.016663 0.18313 0.20215
0.030130001 0.18359999 0.19467001
0.029381 0.18361001 0.19527
0.016805001 0.19166 0.20287
0.014073 0.19571 0.20477
0.023437001 0.22007 0.19921
0.022135001 0.21864 0.19995999
0.02331 0.2207 0.19847
-0.0040169 0.057247002 0.21448
-0.0051501999 0.057973001 0.21323
-0.010095 0.057918001 0.21799
-0.0042770002 0.058538999 0.21377
-0.010524 0.058736 0.21842
-0.012904 0.061356999 0.21971001
-0.013403 0.069890998 0.21996
-0.01237 0.071188003 0.21923999
-0.010908 0.078829996 0.21871001
-0.010903 0.077454001 0.21878
0.040747002 0.080009997 0.18972
-0.0037791 0.084202997 0.21424
0.044581 0.084425002 0.18796
0.0074924999 0.087839 0.2071
0.0070884 0.088425003 0.20796999
0.022546001 0.092234999 0.19919001
0.020531001 0.093278997 0.20122001
0.019973001 0.09426 0.20099001
0.019669 0.094848 0.2018
0.018100999 0.096298002 0.20269001
0.017619999 0.096698001 0.20249
0.016144 0.099140003 0.20345999
0.015218 0.099986002 0.20322999
0.014257 0.10211 0.20451
0.012043 0.1046 0.20497
0.012898 0.10387 0.20463
0.01105 0.10661 0.20523
0.0082419999 0.1105 0.20661999
0.0092233997 0.10948 0.20647
0.0093542999 0.11195 0.20676
0.0089693004 0.1109 0.20649
0.0042397999 0.1139 0.20856
0.0042694001 0.11337 0.20993
0.0091663999 0.11354 0.20682999
0.0043850001 0.11652 0.21026
0.0092065996 0.11643 0.20657
0.0051310002 0.1192 0.20965999
0.0037954999 0.11899 0.20995
0.0060049999 0.12379 0.20853999
0.0028078 0.12977 0.20998999
0.0051918998 0.13202 0.20906
0.0015758 0.13293999 0.21063
0.0016382 0.13389 0.21196
-0.00018819 0.13435 0.21177
0.00089367002 0.13661 0.21063
-0.0021027999 0.13753 0.21304999
-0.0021466999 0.14002 0.21283001
0.0041632 0.14148 0.20995
-0.00077609002 0.14069 0.21302
0.0029304 0.14121 0.21066999
0.0052391998 0.14225 0.20957001
0.0057020001 0.1437 0.20907
0.0068854 0.14647 0.20901
0.00018937 0.14989001 0.2121
-0.0011847001 0.15238 0.21253
7.2825002e-05 0.15711001 0.21148001
0.00031982001 0.15817 0.21156999
0.0012654 0.15979999 0.21166
0.0029047001 0.16068 0.21080001
0.0066511999 0.16416 0.20852
0.0084538003 0.16661 0.20794
0.0092080999 0.16819 0.20712
0.011298 0.17146 0.20625
0.01063 0.17084999 0.20554
0.010552 0.17120001 0.20565
0.011134 0.17244001 0.20614
0.011335 0.17992 0.20579
0.016807999 0.18307 0.20314001
0.020160001 0.18321 0.20042001
0.021761 0.18346 0.19958
0.022027999 0.18257 0.20049
0.031017 0.18358 0.19418
0.023023 0.18253 0.19949999
0.024390999 0.18256 0.19886
0.016028 0.1837 0.20288
0.025420001 0.1838 0.19764
0.02643 0.18373001 0.19683
0.028109999 0.18357 0.19600999
0.031652998 0.18374 0.19410001
0.03229 0.18463001 0.1936
0.033332001 0.18557 0.19415
0.017771 0.19102 0.2026
0.016192 0.19253001 0.20321
0.016036 0.19314 0.20352
0.013166 0.19735999 0.20507
0.016643999 0.2103 0.20344999
0.020834001 0.21704 0.19982
0.025502 0.22153001 0.19814
0.027117001 0.22198001 0.19794001
-0.0037998999 0.054342002 0.21498001
-0.0044459999 0.054099999 0.21505
-0.01064 0.056836002 0.2186
-0.012816 0.070781998 0.22005001
-0.0096485997 0.073471002 0.21815
-0.010873 0.072475001 0.21875
0.040860001 0.079182997 0.19006
0.033147 0.079618998 0.19309001
0.033996001 0.079538003 0.19261999
0.036442 0.079630002 0.19213
0.036938999 0.079411 0.19112
-0.0074836002 0.080057003 0.21639
-0.0059582 0.079952002 0.21602
0.040943999 0.081301004 0.18932
0.047363002 0.081459001 0.18663
0.047632001 0.081436999 0.18538
0.047377001 0.081595004 0.18414
0.042263001 0.081848003 0.18934
-0.0053471001 0.081901997 0.2155
0.042265002 0.083439998 0.18862
0.043761 0.084145002 0.18844
-0.0028691001 0.084958002 0.21404
-0.00087711 0.086223997 0.21325999
-8.8351997e-05 0.086562 0.21261001
0.0018205 0.087614998 0.21135999
0.00082025002 0.086778998 0.21242
0.0041403999 0.088564999 0.21012001
0.0067578 0.089016996 0.20902
0.015306 0.10058 0.20400999
0.013003 0.1047 0.20478
0.0099464003 0.10603 0.20626999
0.0098928995 0.10765 0.20615999
0.01031 0.10743 0.20593999
0.011117 0.1074 0.20554
0.012086 0.10686 0.2051
0.011792 0.10774 0.2051
0.01012 0.10924 0.20592
0.011564 0.10936 0.20563
0.011176 0.10874 0.20534
0.0023117 0.10979 0.21054
0.010093 0.11059 0.20646
0.0031447001 0.11179 0.21036001
0.0037773 0.11232 0.21009
0.0035876001 0.1113 0.2098
0.0042496999 0.11475 0.21015
0.0093921004 0.11527 0.20657
0.0051877 0.11766 0.20953999
0.0047793998 0.12055 0.20926
0.0031707 0.1219 0.20999999
0.0042796 0.12054 0.21017
0.0053945002 0.12223 0.2097
0.0031146 0.12675001 0.21084
0.0032969001 0.12485 0.21103001
0.0026901001 0.12953 0.21073
0.0028210001 0.1309 0.21078999
0.0035921 0.13203999 0.20998
0.0040472001 0.13067 0.21013001
0.0011266 0.13208 0.21162
0.0026839001 0.13219 0.21101999
0.0023598 0.13358 0.21091001
0.00010631 0.13353001 0.21194001
-0.00089423999 0.13413 0.21280999
0.0062878998 0.13377 0.20894
0.0053754002 0.1349 0.20816
0.0015781 0.13533001 0.21157999
0.00059980998 0.13659 0.21253
-0.00058311003 0.13759001 0.21208
0.0037376999 0.13906001 0.20918
0.0042420002 0.13947999 0.21035001
0.00022716 0.14126 0.21255
0.0013908 0.14142001 0.21095
0.0056139999 0.14964999 0.20900001
0.001511 0.14995 0.21167
0.0013118 0.14920001 0.21036001
0.00042120999 0.15534 0.21253
0.0040866998 0.16053 0.21044999
0.0048408001 0.1605 0.20961
0.0066422001 0.16486 0.20805
0.011034 0.17426001 0.20651001
0.010954 0.17313001 0.20656
0.010861 0.17813 0.20646
0.013086 0.18092 0.20473
0.015326 0.18136001 0.20406
0.034460001 0.18144 0.19328
0.017827 0.18232 0.20213
0.015302 0.18268 0.20399
0.020856 0.1831 0.20108999
0.029312 0.18260001 0.19577
0.031904999 0.18314999 0.19481
0.030813999 0.18273 0.19561
0.034033999 0.18208 0.19328
0.034352999 0.18437999 0.19345
0.025017999 0.1829 0.19843
0.027836001 0.18268 0.19672
0.019092999 0.18375 0.20111001
0.015685 0.18415 0.20315
0.020427 0.18867999 0.20118
0.014387 0.19475999 0.20421
0.013599 0.20544 0.20506001
0.01473 0.20798001 0.20386
0.015448 0.20891 0.20405
0.017174 0.2111 0.20263
0.017876999 0.212 0.20209
0.020088 0.21455 0.20117
0.021644 0.21737 0.20054001
0.032341 0.22273 0.19374
-0.01119 0.055782001 0.21867
-0.011433 0.059438001 0.21877
-0.00086927001 0.061503999 0.21314999
-0.013423 0.061721999 0.21939
-0.014385 0.066269003 0.22
-0.011832 0.072099 0.21902999
-0.0097487001 0.074491002 0.21787
-0.0098738996 0.075746998 0.21822999
-0.010599 0.076402001 0.21836001
0.039632998 0.079264998 0.19076
0.041882001 0.079676002 0.18995
-0.0096813999 0.079568997 0.21822
0.031776 0.079489999 0.19473
0.033353999 0.079562999 0.19439
0.035654999 0.079709001 0.19288
0.03827 0.079407997 0.19178
0.038362 0.079437003 0.19084001
-0.0089093996 0.079784997 0.21754
0.047017999 0.083001003 0.18646
0.045623999 0.084260002 0.18719
-0.0018911 0.085318998 0.21382
0.0052872002 0.088992 0.20974
0.021861 0.091816001 0.20039
0.021027001 0.092252001 0.20089
0.017082 0.097639002 0.20315
0.016342999 0.098474003 0.20361
0.014461 0.10116 0.20367999
0.014113 0.10339 0.20502999
0.013104 0.10625 0.20522
0.013131 0.10798 0.20563
0.012972 0.10887 0.20533
0.0029808001 0.1106 0.21062
0.011739 0.11061 0.20534
0.010143 0.11231 0.20627999
0.011344 0.11223 0.20584001
0.011737 0.11344 0.20565
0.0097963 0.11384 0.2066
0.010101 0.11514 0.20645
0.011458 0.11472 0.20570999
0.010301 0.11682 0.20633
0.010484 0.11791 0.20616999
0.0041288999 0.11799 0.20995
0.010099 0.11908 0.20625
0.011547 0.12066 0.20552
0.010322 0.12063 0.20632
0.011528 0.11916 0.20582999
0.0032287999 0.11939 0.21071
0.0033231999 0.12091 0.21074
0.011479 0.1223 0.20536999
0.0033923001 0.12228 0.21114001
0.010659 0.12209 0.20609
0.003607 0.1238 0.2105
0.0069634002 0.12646 0.20886999
0.00064523 0.12833001 0.21201
0.00055171998 0.12931 0.21204001
0.0013003 0.12796 0.21178
0.0014428 0.12931 0.21167
0.0027185001 0.1279 0.21077999
0.00049397 0.13075 0.21238001
0.0014607999 0.13084 0.21138
0.0053886999 0.13084 0.20967001
0.00012903 0.13251001 0.21235999
-0.00039175001 0.13291 0.21267
-0.0010005001 0.13528 0.21283001
0.0068832999 0.13492 0.20858
-0.00078340998 0.13653 0.21329001
0.0011167 0.13605 0.21145
0.0069212001 0.13609999 0.20849
-0.0020269 0.13662 0.21321
0.0078777 0.13688 0.20851
-0.00092169002 0.13762 0.21264
0.0074896002 0.13759001 0.20843001
0.00034396999 0.13909 0.21264
0.0014815 0.13861001 0.21187
0.0015295 0.13849001 0.21121
0.0055407002 0.1388 0.20919
0.0053547998 0.13898 0.20986
0.0031912001 0.13925 0.21097
-0.00095293002 0.13961001 0.2131
0.00069409999 0.14199001 0.21245
0.001609 0.14202 0.21202999
0.0028863 0.14203 0.21153
0.0056635998 0.14522 0.20891
0.0064762002 0.14545 0.20918
-0.00066150998 0.15085 0.21255
-0.00088102999 0.15386 0.21262001
0.00076584 0.15933 0.21162
0.0067890999 0.16261999 0.20913
0.0077736001 0.16531 0.20835
0.0089327004 0.16773 0.20784
0.010322 0.17693999 0.20685001
0.0098765995 0.17565 0.20618001
0.011598 0.17877001 0.20668
0.012649 0.18002 0.20586
0.014405 0.18086 0.20435999
0.017937001 0.18139 0.2025
0.019362999 0.18307 0.20186999
0.026581001 0.18302999 0.19743
0.033418 0.18414 0.19406
0.034704 0.18557 0.19330999
0.025807001 0.18689001 0.19876
0.024840999 0.18715 0.19924
0.023088999 0.1876 0.19960999
0.021578999 0.18849 0.2006
0.019564999 0.18965 0.20186999
0.018639 0.19046 0.20251
0.015213 0.19404 0.20421
0.012996 0.19852 0.20541
0.012535 0.20182 0.20555
0.01297 0.20339 0.20539001
0.013898 0.20641001 0.20485
0.0146 0.20742001 0.20446
0.019664999 0.21332 0.20186999
0.020765999 0.21589001 0.20061
0.024482001 0.2207 0.19930001
0.033516999 0.22204 0.19452
0.033537 0.22268 0.19316
0.028495001 0.2227 0.19645
0.029576 0.22299001 0.19629
0.031628001 0.22318 0.19475999
0.030886 0.22330999 0.19549
-0.0061611999 0.053991001 0.21569
-0.0085712001 0.054458998 0.21748
-0.0084852995 0.054738998 0.21653
-0.012137 0.060304001 0.21928
0.0014519 0.061379001 0.2137
-0.013493 0.063049003 0.22018
-0.014244 0.065443002 0.22059
0.051057 0.079683997 0.18441001
0.049205001 0.079437003 0.18408
0.049747001 0.079332002 0.18527
0.029973 0.079288997 0.19420999
0.050799999 0.079512998 0.18321
0.051498 0.079222001 0.184
0.047217999 0.080287002 0.18637
-0.0041534002 0.083919004 0.21484999
0.043582998 0.083246 0.18905
0.046037 0.083467998 0.18739
0.0029275001 0.088248 0.21096
0.019036001 0.095627002 0.20209
0.01304 0.11053 0.20552
0.011588 0.11648 0.20577
0.011607 0.11835 0.20577
0.0061205998 0.12338 0.20938
0.010655 0.12486 0.20558
0.011073 0.12413 0.20547999
0.011839 0.12353 0.20570999
0.011649 0.12503999 0.20545
0.011808 0.12632 0.20572001
0.010581 0.1259 0.20589
0.0092267003 0.12939 0.20722
0.0094809998 0.12896 0.20586
0.0099144997 0.12895 0.20716
0.0040675001 0.12938 0.21021
0.00041631001 0.15084 0.21266
0.0015407 0.1568 0.21194001
0.0014367 0.15821999 0.21167
0.012473 0.17092 0.20724
0.013927 0.18031 0.20527001
0.012778 0.20008001 0.20557
0.028221 0.22239 0.19711
-0.0099750999 0.057682998 0.21844
-0.0036669001 0.058306001 0.21472
-0.014267 0.067561001 0.22043
0.041668002 0.079599999 0.19014999
0.031135 0.079260997 0.19593
0.034952998 0.079318002 0.19347
0.014753 0.10132 0.20466
0.0141 0.10479 0.20524
0.012955 0.11359 0.20588
0.013216 0.11465 0.20602
0.013254 0.11648 0.20579
0.013091 0.12096 0.20584001
0.01297 0.1222 0.20569
0.011411 0.12757 0.20675001
0.010804 0.12669 0.20599
0.010485 0.12782 0.20654
0.0054802001 0.12952 0.20995
0.0065361001 0.13076 0.20995
0.0067336001 0.13215999 0.20938
0.0060761999 0.14934 0.20937
0.0043588001 0.15242 0.21033999
0.0050216001 0.15093 0.20951
0.0053221001 0.15212999 0.21006
0.00047631 0.15379 0.21262001
0.0015264 0.15587001 0.21212
0.0030393 0.15724 0.2113
0.0028442999 0.15826 0.21153
0.0028533 0.15965 0.21159001
0.019327 0.1812 0.20215
0.028303999 0.18175 0.1971
0.021292999 0.21473999 0.20236
0.022886001 0.21918 0.20057
0.026565 0.22087 0.19971
0.029064 0.22208001 0.19813
-0.0056389002 0.053730998 0.21706
-0.0093783 0.054949999 0.21841
-0.0023872 0.061452001 0.21389
-0.0024596001 0.060672998 0.21447
-0.0030459 0.059873998 0.21444
-0.012932 0.069830999 0.22082999
-0.010524 0.072075002 0.21996
-0.0087815998 0.074153997 0.21873
-0.0093262997 0.07621 0.21958999
0.042899001 0.079259001 0.1902
0.029247001 0.079145998 0.19617
0.032885 0.079441004 0.19517
0.036001999 0.079511002 0.19372
0.050434001 0.079627 0.18528
-0.0050104 0.081280999 0.21600001
0.0034491001 0.087756 0.21217
0.024656 0.099322997 0.19997001
0.024529001 0.097382002 0.19921
0.025223 0.098709002 0.19943
0.016925 0.097594 0.2043
0.014201 0.10666 0.20522
0.014052 0.10729 0.20554
0.013977 0.10913 0.20562001
0.032662001 0.11036 0.19627
0.031730998 0.11102 0.19614001
0.031109 0.11081 0.1954
0.012904 0.11187 0.20570999
0.012804 0.11772 0.20586
0.013179 0.11897 0.20581999
0.013495 0.12217 0.20627999
0.01272 0.12346 0.20581
0.012774 0.12512 0.20614
0.012563 0.12591 0.20595001
0.0020285 0.12684999 0.21167
0.0046807001 0.12813 0.21044999
0.0052556 0.12837 0.21012001
0.0087126996 0.1337 0.20919
0.0074141002 0.13422 0.20875999
0.0076577002 0.13491 0.20844001
0.0044137998 0.14163999 0.21087
0.0060339998 0.14372 0.20942
0.0071836999 0.14395 0.21001001
0.0026829999 0.15004 0.21086
0.0032647001 0.15075999 0.21131
0.0002029 0.15243 0.21276
0.0044676 0.15971 0.21052
0.010294 0.16914 0.20714
0.010696 0.16952001 0.20681
0.017996 0.18092 0.20382001
0.017632 0.18156999 0.20322999
0.024715999 0.18156999 0.19987001
0.023728 0.18208 0.2
0.025792001 0.18189 0.19866
0.026986999 0.18195 0.19798
0.029482 0.18205 0.19687
0.033183999 0.18298 0.1946
0.015869001 0.19419999 0.20527001
0.031854998 0.22263999 0.19543999
0.031452999 0.22206999 0.19687
-0.0087454002 0.054848999 0.2194
-0.0089873997 0.057383001 0.21953
-0.010534 0.059734002 0.21997
-0.011816 0.061512999 0.22073001
-0.01286 0.064101003 0.22092
0.048425 0.079586998 0.18526
0.048312999 0.079645999 0.18587001
0.040371999 0.079485998 0.19191
0.038987 0.079593003 0.19278
0.046519998 0.082304001 0.18731
0.046572 0.082975999 0.18810999
0.044045001 0.083048001 0.18933
0.044326998 0.081514999 0.18975
-0.0035612001 0.084082998 0.21585
0.0022622 0.087461002 0.21297
0.0011995001 0.086755998 0.21355
0.0027489001 0.088012002 0.21168999
0.0051795002 0.088619001 0.21128
0.0058932002 0.088279001 0.21099
0.021482 0.092348002 0.20113
0.019950001 0.093346998 0.20196
0.019943999 0.093074001 0.20296
0.025505001 0.098890997 0.19831
0.025054 0.099838004 0.19955
0.016163001 0.099159002 0.20499
0.016045 0.10034 0.20496
0.014273 0.11068 0.20654
0.013908 0.11224 0.20619
0.030208999 0.11186 0.19547001
0.031137001 0.11208 0.19647001
0.013875 0.11349 0.20660999
0.0048393002 0.12076 0.21106
0.01357 0.12057 0.20630001
0.013249 0.12356 0.20655
0.012682 0.1266 0.20716
0.0038771001 0.12758 0.21133
0.0044374 0.1266 0.21096
0.0056333998 0.12763 0.2103
0.002012 0.12939 0.21313
0.0030600999 0.13191 0.21213999
0.0087617999 0.13495 0.20933001
0.0010061 0.13528 0.21337999
0.0070190001 0.14948 0.20993
0.0075098998 0.14794999 0.20975
0.0016948 0.15062 0.21245
0.0036685001 0.15197 0.21104001
0.0063395002 0.15263 0.21055999
0.00082134001 0.15246999 0.21328001
0.0059318999 0.15379 0.21054
0.0042698001 0.15398 0.21073
0.0021444 0.15519001 0.21223
0.0042673 0.15696 0.21077
0.0043648002 0.15824001 0.21047001
0.0057720002 0.15815 0.21059
0.0059822998 0.15971 0.21021999
0.0089440998 0.16666 0.20857
0.011581 0.17811 0.20738
0.012041 0.17942999 0.20631
0.015199 0.18064 0.20491999
0.036136001 0.18021999 0.19291
0.034990001 0.18003 0.19459
0.017702 0.18144 0.20437001
0.034382999 0.1812 0.19452
0.032076001 0.18223 0.19555999
0.016944 0.18252 0.20439
0.015495 0.19459 0.20554
0.013856 0.19757 0.20609
0.013828 0.1988 0.20654
0.021796999 0.21592 0.20195
-0.0040537999 0.05319 0.21676999
-0.0040322002 0.053619999 0.21605
-0.010249 0.056448001 0.21958999
-0.0022594 0.059388999 0.21544001
-0.0018879001 0.060045 0.2154
-0.01118 0.060536001 0.22056
0.00045518999 0.06134 0.21592
0.0013274 0.061615001 0.21465001
-0.012491 0.062701002 0.22089
-0.012888 0.067286 0.22144
-0.01133 0.071303003 0.22040001
-0.0091808001 0.072938003 0.21946
0.041604001 0.079223 0.1917
0.043664999 0.079824999 0.18985
0.042727999 0.080003999 0.18968999
0.047913998 0.079563998 0.1877
0.049647 0.079456002 0.18698999
0.051256999 0.079691999 0.18566
0.047031999 0.080366999 0.18842
0.047033999 0.081377 0.18813001
0.043033 0.081657 0.18966
-0.0043274998 0.083154999 0.21657
0.045189999 0.083508 0.18934
0.045281999 0.084275998 0.18883
0.019769 0.094929002 0.20275
0.019204 0.095381998 0.20259
0.018456999 0.095701002 0.20355
0.017034 0.096120998 0.20422
0.014638 0.10672 0.20602
0.032703001 0.1092 0.19576
0.032579001 0.1077 0.19469
0.031516999 0.10883 0.19528
0.030431001 0.11339 0.19575
0.0049978001 0.11805 0.21099
0.0047883 0.11921 0.2112
0.013685 0.11822 0.20635
0.013391 0.11922 0.20652001
0.0054251999 0.12354 0.21055999
0.0034376001 0.12478 0.21190999
0.013346 0.12484 0.20663001
0.0038433 0.12605 0.21229
0.0023967 0.12667 0.21247999
0.0042304001 0.12626 0.21116
0.0056876 0.12621 0.2103
0.0021901 0.12808 0.2128
0.0062993001 0.12921 0.21001001
0.011737 0.12751999 0.20757
0.010473 0.12891001 0.20772
0.011283 0.12842 0.20791
0.0070652999 0.12933999 0.21001001
0.00095825002 0.13075 0.21322
0.0075277002 0.13057999 0.20977999
0.0074188998 0.13187 0.20951
0.0085535003 0.13241 0.20934001
0.00049924001 0.13394 0.21334
0.0007344 0.13273001 0.21311
-0.00027245999 0.13553999 0.21333
-0.00012267 0.13597 0.21353
0.00081514998 0.13953 0.213
0.0010989 0.14106999 0.21304999
0.003431 0.14229 0.21204001
0.0075033 0.14506 0.2097
0.0081829997 0.14573 0.20943999
0.0082822004 0.14665 0.20964999
0.0070337998 0.15103 0.21052
0.0021673001 0.15124001 0.2123
0.0012893 0.15155999 0.21280999
0.0030590999 0.15144999 0.21173
0.0034379 0.15239 0.21164
0.0039980002 0.15368 0.2114
0.0033392 0.15369999 0.21168
0.0011238999 0.15332 0.21277
0.0018083 0.15401 0.21246
0.0047853999 0.15558 0.21032
0.0031943 0.15542001 0.21166
0.0040063001 0.15544 0.21101999
0.0055053998 0.15558 0.21066999
0.0033784001 0.15621001 0.21173
0.0046437001 0.15988 0.21114001
0.0035313 0.15989999 0.21144
0.0074307001 0.16415 0.20953999
0.012394 0.17017999 0.20788001
0.012389 0.1725 0.20743001
0.011452 0.17439 0.20749
0.01117 0.17552 0.2078
0.013592 0.17967001 0.20614
0.016364999 0.18042 0.20558999
0.018540001 0.18014 0.20390999
0.019989001 0.17983 0.20333
0.02097 0.18153 0.20208
0.026357001 0.18162 0.19984999
0.016625 0.18138 0.20475
0.016277 0.18232 0.20455
0.020886 0.18232 0.20194
0.033714999 0.18235999 0.19505
0.034533001 0.18613 0.19411001
0.017555 0.19167 0.20412999
0.016666999 0.19312 0.20529
0.014783 0.19594 0.20592
0.013612 0.20037 0.20663001
0.014419 0.2061 0.20625
0.015727 0.20796999 0.2053
0.018939 0.21156 0.20378999
0.020014999 0.21279 0.20285
0.024085 0.2189 0.20117
0.025076 0.22014999 0.20029999
0.026608 0.22147 0.19873001
-0.0063300999 0.053952999 0.21800999
-0.0028732 0.054397002 0.21596
-0.0076776999 0.054242 0.21832
-0.010314 0.055505 0.2199
-0.0029489 0.055622 0.21603
-0.0038578999 0.055775002 0.21496999
-0.0093109999 0.058433998 0.21932
-0.0098887002 0.059124 0.21971001
-0.0013982001 0.061251 0.21484999
-0.012621 0.066041 0.22138999
-0.011866 0.070492998 0.22113
-0.0097522 0.072668999 0.22008
-0.0096824002 0.076972 0.21962
-0.010004 0.078514002 0.21946
0.040548 0.079677001 0.19156
0.032150999 0.079544999 0.19656
0.037510999 0.079401001 0.19316
0.050337002 0.079425 0.18630999
-0.0063459999 0.079944 0.21799
-0.0054505002 0.079926997 0.21714
0.033922002 0.079618998 0.19502001
-0.0049016001 0.081523001 0.21719
-0.0047026998 0.082566001 0.21701001
0.045876998 0.084408998 0.18847001
-0.0028072 0.084339 0.21556
0.0087265996 0.085730001 0.20756
0.0087315002 0.086379997 0.20952
0.009052 0.084314004 0.20849
-0.0013031 0.085331999 0.21487001
0.0069891 0.088423997 0.21007
0.0072483001 0.087622002 0.21025001
0.021937 0.093392 0.20121001
0.021515001 0.093160003 0.20242999
0.023879999 0.097749002 0.20112
0.024055 0.097516999 0.20012
0.016316 0.097654998 0.20509
0.024016 0.098860003 0.20111001
0.025250999 0.1007 0.20025
0.015103 0.10187 0.20596001
0.015022 0.10346 0.20573001
0.019687001 0.10154 0.20299
0.021024 0.10189 0.20184
0.020887 0.10312 0.20198999
0.022024 0.10337 0.20112
0.014811 0.10465 0.20645
0.032478999 0.10465 0.19598
0.031645 0.10465 0.19661
0.032694999 0.10632 0.19609
0.014494 0.10904 0.20640001
0.014504 0.10758 0.20652001
0.033583 0.10761 0.1952
0.031303 0.11318 0.1965
0.031261999 0.11528 0.19701
0.030371999 0.1151 0.19527
0.013833 0.115 0.20635
0.013784 0.11661 0.20651001
0.0041022999 0.1194 0.21188
0.0038066001 0.12058 0.21182001
0.0048555001 0.12227 0.21168999
0.0040290998 0.1218 0.21168
0.0052503999 0.12246 0.21033999
0.0039667999 0.1236 0.21173
0.0061252001 0.1249 0.21046001
0.0026236 0.12571999 0.21233
0.004611 0.12511 0.21156999
0.0063541001 0.12625 0.20998999
0.0069646002 0.12766001 0.20956001
0.0037463999 0.1278 0.21209
0.0034944001 0.12928 0.21227001
0.0083560999 0.12952 0.20929
0.0074380999 0.12838 0.20840999
0.010041 0.12925 0.20898999
0.0013542 0.12969001 0.21281999
0.0032885999 0.13078 0.21214999
0.0020137001 0.1323 0.21312
0.0018727001 0.13371 0.21292
0.0018206 0.13502 0.21291
0.00049752003 0.13646001 0.21313
0.0089389002 0.13636 0.20935
0.0083513996 0.13784 0.20982
0.0024949999 0.13946 0.21329001
0.0021416 0.13897 0.21257
0.0034260999 0.13874 0.21255
0.0036549999 0.13878 0.21174
0.0048746001 0.13902999 0.21142
0.0061133001 0.13974001 0.21107
0.0048115002 0.14216 0.21183001
0.0021621999 0.14216 0.21278
0.0062016998 0.14233001 0.21077999
0.0065036998 0.15142 0.21049
0.0021844001 0.15253 0.21231
0.0056822002 0.15705 0.21069001
0.0070079002 0.16123 0.21043999
0.0076203002 0.16259 0.21021
0.0084651997 0.16455001 0.20957001
0.0088799996 0.16535001 0.20928
0.0096653998 0.1671 0.20883
0.01033 0.16783001 0.20853999
0.011458 0.16960999 0.20765001
0.011297 0.17693999 0.20758
0.012538 0.17854001 0.20742001
0.014898 0.17947 0.20608
0.021278 0.18004 0.20231999
0.034051001 0.18144999 0.19562
0.02737 0.1815 0.19889
0.024955999 0.18156999 0.20051999
0.028813999 0.18161 0.19845
0.023747001 0.18199 0.20142999
0.030103 0.18195 0.19755
0.022349 0.18223 0.20174
0.031303 0.18222 0.19667
0.03269 0.18152 0.19598
0.025136 0.18737 0.20062999
0.026074 0.18722001 0.19949
0.027636999 0.18729 0.19881
0.024155 0.18764 0.20056
0.023809001 0.18805 0.20113
0.022358 0.1886 0.20179
0.020931 0.18877999 0.20258
0.019927001 0.19008 0.20327
0.018993 0.1904 0.20361
0.013712 0.20329 0.20677
0.013356 0.20166001 0.20679
0.016517 0.20883 0.20528001
0.020894 0.21364 0.20268001
0.027894 0.22172 0.19881999
0.034368001 0.22132 0.19425
0.033957999 0.22145 0.19529
0.030223999 0.22211 0.19773
0.032428 0.22194999 0.1963
-0.0028703001 0.057197999 0.2156
-0.012528 0.068570003 0.22149999
-0.0080583999 0.074643001 0.21915001
-0.0081147002 0.075280003 0.21917
-0.0097994003 0.077350996 0.21981999
0.044132002 0.079241 0.19021
-0.0091137001 0.079814002 0.21912
-0.0077860001 0.079838 0.21875
0.03548 0.079708003 0.19489001
0.0082981 0.086502001 0.20822001
-2.6141e-05 0.086322002 0.2145
0.022322999 0.094936997 0.20164999
0.021586999 0.094734997 0.20296
0.017437 0.095023997 0.20473
0.01891 0.094352998 0.20381001
0.016675999 0.096418001 0.20522
0.021276001 0.10023 0.20209
0.031750001 0.10644 0.19672
0.030187 0.10661 0.19757
0.030552 0.10695 0.19608
0.03063 0.10721 0.19755
0.031589001 0.10791 0.19663
0.030781999 0.10727 0.19572
0.032473002 0.11208 0.19683
0.021218 0.11923 0.20248
0.021596 0.11782 0.20229
0.022531001 0.11941 0.20169
0.0049009002 0.12372 0.21119
0.0021058 0.13072 0.21324
0.0021200001 0.14117999 0.21296
0.011013 0.16876 0.20821001
0.013984 0.17896999 0.20682999
0.034828998 0.18043999 0.19538
0.013978 0.20437001 0.20664001
0.014417 0.20522 0.20654
0.015221 0.20731001 0.20592999
0.017085999 0.21004 0.20456
0.022574 0.21747001 0.20141999
0.02307 0.21838 0.20126
-0.0085816998 0.054267 0.22014
-0.0097639998 0.054768 0.22025999
-0.00048280999 0.061092999 0.21449
-0.0093494998 0.079103 0.21975
0.027796 0.079232 0.1974
0.028275 0.079384997 0.19787
0.030073 0.079557002 0.19753
0.031532001 0.079484999 0.19689
-0.0014569 0.085019998 0.21534
0.00074063003 0.086598001 0.21387
0.0044148001 0.088125996 0.21229
0.019184999 0.093757004 0.20373
0.022856999 0.096271001 0.20155001
0.022923 0.097111002 0.20200001
0.015191 0.10046 0.20568
0.015647 0.099180996 0.20608
0.018699 0.10051 0.20388
0.018284 0.10145 0.20395
0.017499 0.10017 0.20505001
0.018510001 0.10327 0.20401999
0.017338 0.10198 0.20479999
0.030879 0.11656 0.19734
0.030591 0.11617 0.19704001
0.030959001 0.11805 0.19733
0.0086665004 0.13078 0.20964
0.0071818 0.14285 0.21084
0.0068398998 0.15211999 0.21075
0.0068278001 0.15997 0.21063
0.011954 0.17369001 0.208
0.022631001 0.18153 0.20214
0.022422001 0.17969 0.20216
0.031681001 0.18169001 0.19702999
0.018298 0.19117001 0.20439
0.017193001 0.19250999 0.20537999
0.014797 0.19726001 0.20654
0.015423 0.19844 0.20739999
0.022156 0.21642999 0.20223001
0.024605 0.21927001 0.20037
0.027455 0.22059999 0.19925
-0.0047773002 0.053169001 0.21749
-0.011796 0.062371999 0.22132
-0.010394 0.071235001 0.22154
0.045184001 0.079636 0.18986
0.046018001 0.080041997 0.19001
0.045184001 0.081795998 0.18977
0.021531001 0.098998003 0.20303001
0.022330999 0.10053 0.20248
0.018811001 0.098825999 0.20444
0.017477 0.10356 0.20497
0.017913001 0.10456 0.20503999
0.019083999 0.1047 0.20398
0.018848 0.10626 0.20387
0.017991999 0.10628 0.20522
0.032680001 0.1164 0.19792999
0.012641 0.12525 0.20749
0.0033863999 0.14091 0.21297
0.0086669 0.14765 0.21004
0.0091159996 0.16389 0.21076
0.014987 0.17913 0.20651001
0.032607 0.18047 0.19647001
0.031663001 0.18016 0.19743
0.019789999 0.21224 0.20354
0.020517001 0.21232 0.20448001
0.022046 0.21509001 0.20305
0.022231 0.21461 0.20347001
0.028076001 0.22062001 0.20013
0.031741001 0.22121 0.19828001
-0.0073668999 0.054000001 0.21995001
-0.010939 0.061165001 0.22161999
-0.0095448997 0.060145002 0.22103
-0.011671 0.064176999 0.22218999
-0.011995 0.065756999 0.22251
-0.0096757999 0.071847998 0.22127999
-0.0075070001 0.075897999 0.21981999
-0.0081292996 0.076324001 0.22007
0.029408 0.079815 0.19825999
0.027458001 0.079237998 0.19856
0.045363002 0.079327002 0.18994001
0.045876 0.079461999 0.19017
0.041251 0.079756998 0.19296999
0.051759999 0.079389997 0.18674
0.047164999 0.080160998 0.18966
0.048223998 0.079506002 0.18889999
0.045788001 0.081651002 0.19001999
-0.0042873002 0.082681999 0.21797
-0.003456 0.083089001 0.21775
-0.0020866999 0.084175996 0.21704
-0.0010054 0.084747002 0.21638
0.0081350002 0.087122999 0.20929
0.017473999 0.099315003 0.20509
0.018144 0.097484998 0.20547
0.016741 0.10168 0.20558999
0.016206 0.10041 0.20579
0.016793 0.10354 0.20551001
0.026107 0.1017 0.1999
0.027527999 0.10347 0.19950999
0.027809 0.10186 0.19956
0.016217999 0.10311 0.20624
0.016796 0.1049 0.20546
0.030920999 0.10617 0.19848
0.028734 0.10582 0.19822
0.031856 0.10609 0.19808
0.017971 0.10784 0.20508
0.028222 0.11208 0.20038
0.0274 0.11216 0.19904
0.027244 0.11094 0.19964001
0.032501999 0.11507 0.19791999
0.032543 0.11387 0.19728
0.014191 0.11694 0.20759
0.013942 0.12087 0.2076
0.012993 0.12507001 0.20841999
0.0096592 0.13036001 0.20964
0.0092676999 0.1443 0.21064
0.0079297004 0.153 0.21148001
0.0079495003 0.15956999 0.21161
0.0084274001 0.16237999 0.21122
0.011865 0.16823 0.20939
0.012956 0.16993 0.20857
0.012439 0.17438 0.20885
0.012243 0.17443 0.20857
0.015902 0.17868 0.20688
0.035822 0.17851 0.19608
0.036864001 0.17869 0.19425
0.024165999 0.17858 0.20217
0.024367001 0.18025 0.20159
0.023519 0.17966001 0.20189001
0.017121 0.17985 0.20629001
0.030822 0.1812 0.19826999
0.016102999 0.19566 0.20663001
0.014752 0.20023 0.20739
0.014635 0.20423 0.20719001
0.015889 0.206 0.20691
0.018066 0.21022999 0.20552
0.02335 0.21586999 0.20308
0.023353999 0.21714 0.20247
0.025728 0.21897 0.20124
0.030808 0.22122 0.19836999
0.033093002 0.221 0.19708
-0.0024164999 0.053266998 0.2172
-0.0094807995 0.054568999 0.22103
-0.002266 0.054083999 0.2167
-0.0096033998 0.056019999 0.22096001
-0.0085966 0.056825001 0.22069
-0.0082505001 0.058761999 0.22033
-0.00041499999 0.060359001 0.21619999
-0.011803 0.063151002 0.22179
-0.011673 0.067685001 0.22293
-0.011946 0.068630002 0.22214
-0.011043 0.070059001 0.22197001
-0.0095547 0.072007999 0.22025
-0.0084630996 0.072902001 0.22056
-0.0073819002 0.074380003 0.22013
-0.0088580996 0.077071004 0.22059
-0.0088903997 0.078786001 0.22093999
0.043685 0.079085 0.19151001
0.044753999 0.079361998 0.19093999
-0.0079982001 0.079565004 0.22012
0.029429 0.079567 0.19933
0.031125 0.079590999 0.19884001
0.050806999 0.079650998 0.18742
-0.0057954001 0.079935998 0.21875
-0.0072316001 0.079634003 0.21971001
0.034384999 0.079811998 0.19616
-0.0047432999 0.080127001 0.21827
0.047331002 0.081628002 0.18915001
0.045954999 0.082997002 0.18971001
0.046817999 0.082905002 0.18959001
8.6890004e-06 0.085280001 0.21578
0.0082746996 0.086139001 0.21132
0.0087911999 0.085387997 0.21044999
0.0016891001 0.086488001 0.21491
0.007559 0.087145001 0.21134999
0.0029931001 0.087081 0.21396001
0.0047781002 0.087618999 0.2132
0.0055383998 0.087871 0.21286
0.0069805002 0.087807 0.21184
0.020831 0.093318 0.2044
0.019680999 0.093566999 0.20471001
0.021334 0.09341 0.20326
0.019509001 0.094595999 0.20495
0.021588 0.094892003 0.20367
0.017995 0.095317997 0.20568
0.01794 0.095833004 0.20562001
0.016842 0.096175998 0.20556
0.021999 0.096098997 0.20332
0.022674 0.096422002 0.20265
0.016903 0.097517997 0.20579
0.023159999 0.097576998 0.20269001
0.016819 0.099078 0.20592
0.023249 0.098784 0.20298
0.018758999 0.098307997 0.20451
0.01936 0.097181998 0.20465
0.020423001 0.097878002 0.20403001
0.020214001 0.098618001 0.20337
0.021670001 0.097501002 0.20338
0.024226001 0.099365003 0.20201001
0.022063 0.098628998 0.20334999
0.017605999 0.098623 0.20541
0.015851 0.099863999 0.20642
0.025603 0.10039 0.2017
0.015349 0.1007 0.2068
0.023259001 0.10055 0.20273
0.027106 0.10108 0.2008
0.026055001 0.10086 0.2005
0.015398 0.102 0.20701
0.016302999 0.10203 0.20622
0.023402 0.10156 0.20235001
0.027086001 0.10158 0.20092
0.027899001 0.10195 0.20008001
0.02753 0.10084 0.20015
0.027427001 0.10123 0.19960999
0.015657 0.10331 0.20705999
0.028379999 0.10318 0.20006999
0.028951 0.10366 0.19891
0.029417001 0.1033 0.19941001
0.016306 0.10456 0.20595001
0.029756 0.10471 0.19954
0.031948 0.10507 0.19785
0.032903999 0.10522 0.19722
0.030427 0.10511 0.19918001
0.016666001 0.10633 0.20625
0.014822 0.10766 0.20792
0.032044999 0.10742 0.19826999
0.016533 0.10769 0.20604999
0.031019 0.10689 0.19795001
0.033367001 0.10752 0.19716001
0.034150999 0.10779 0.19648001
0.014712 0.10909 0.208
0.017227 0.10843 0.20559999
0.014706 0.11057 0.20784999
0.027849 0.11076 0.20033
0.033431999 0.11215 0.19735
0.033068001 0.11359 0.19783001
0.027564 0.11504 0.19896001
0.02734 0.11352 0.19924
0.028378 0.11346 0.20011
0.028426001 0.11491 0.19994
0.014126 0.11498 0.20784999
0.014477 0.11354 0.20795999
0.013973 0.11788 0.20776001
0.014088 0.11917 0.20815
0.014039 0.12269 0.20818999
0.013942 0.12324 0.2077
0.031095 0.1222 0.19860999
0.030987 0.12215 0.19783001
0.031114999 0.12211 0.19665
0.031371001 0.12353 0.19805001
0.031528 0.1239 0.19726001
0.013582 0.12377 0.20856
0.032306999 0.1252 0.19807
0.03204 0.12453 0.19724
0.011346 0.12788001 0.20946001
0.011279 0.12841 0.20945001
0.0105 0.12921999 0.21013001
0.010021 0.13106 0.20997
0.01021 0.13229001 0.21016
0.0094520999 0.13377 0.20992
0.0095464 0.13494 0.21027
0.010335 0.13518 0.21038
0.010282 0.13689999 0.20988999
0.010476 0.13736001 0.21001001
0.0092131998 0.13795 0.21055
0.0081316 0.13841 0.21066999
0.0042261998 0.13948999 0.21336
0.0053659002 0.13868 0.2129
0.0055676 0.13923 0.21299
0.0069172001 0.13906001 0.21066
0.0079648998 0.13935 0.2114
0.0065175998 0.13924 0.21187
0.0040786001 0.14101 0.21294001
0.0041264002 0.14212 0.21332
0.0067902999 0.14256001 0.21211
0.0054954998 0.1424 0.21274
0.0077801999 0.14266001 0.21153
0.0082863001 0.14354999 0.21111999
0.0093389004 0.14516 0.21055999
0.0094352998 0.14661001 0.21043999
0.0088010002 0.14766 0.21052
0.0082644997 0.14988001 0.21089
0.0083613005 0.15118 0.21135999
0.0072066998 0.15443 0.21126001
0.0078040999 0.15515 0.21176
0.0069148 0.15571 0.21122999
0.0069947001 0.15679 0.21109
0.010951 0.16644999 0.21006
0.010713 0.16769999 0.20953999
0.013462 0.17110001 0.20817
0.01309 0.17275 0.20861
0.012444 0.17566 0.20918
0.012209 0.17689 0.20881
0.012906 0.17738 0.20886999
0.038693 0.17736 0.19445001
0.039806001 0.17692 0.19377001
0.037741002 0.17851 0.19332001
0.014305 0.17822 0.20779
0.036872 0.17831001 0.1952
0.037733 0.17801 0.19452
0.019391 0.17883 0.20502999
0.020736 0.17838 0.20466
0.021751 0.1786 0.20342
0.017114 0.17899001 0.20657
0.019073 0.17974 0.20521
0.031284999 0.17972 0.19755
0.033380002 0.18018 0.19687
0.034875002 0.18028 0.19663
0.035383001 0.17986999 0.19593
0.030812999 0.18009999 0.19807
0.018391 0.18021999 0.20598
0.0244 0.18131 0.20139
0.017890001 0.18100999 0.20548999
0.03119 0.18082 0.19796
0.034260999 0.18081 0.19637001
0.026844 0.18115 0.20028999
0.025615999 0.18141 0.20097999
0.028499 0.18102001 0.2
0.029306 0.18121 0.19894999
0.026101001 0.18753999 0.20126
0.02644 0.18775 0.20079
0.024302 0.18791001 0.20200001
0.022088001 0.18904001 0.20355
0.023167999 0.18873 0.20291001
0.020753 0.18979 0.20446
0.019732 0.19067 0.20467
0.018857 0.19137 0.2052
0.018561 0.19187 0.20566
0.018053999 0.19298001 0.206
0.017041 0.19333 0.20602
0.016830999 0.19441 0.20631
0.01595 0.19699 0.207
0.014798 0.19942001 0.20727
0.014596 0.20280001 0.20728
0.014617 0.20167001 0.2075
0.01542 0.20467 0.20731001
0.015984001 0.20689 0.20665
0.017044 0.20761999 0.20694
0.017188 0.20859 0.20613
0.017798999 0.20933001 0.20584001
0.019586001 0.21137001 0.20468
0.020852 0.21298 0.20392001
0.021632001 0.21323 0.20388
0.024236999 0.21776 0.20231
0.026941 0.22003999 0.2007
0.029483 0.22059999 0.19957
0.033365998 0.22070999 0.19775
0.034582 0.22066 0.19642
0.029340001 0.22155 0.19896001
-0.0042936001 0.052836999 0.21826001
-0.0062175998 0.053681999 0.21911
-0.0016433001 0.055349 0.21674
-0.00095155998 0.058442 0.21641
-0.011221 0.062442001 0.22208001
-0.0075854999 0.073820002 0.21998
0.028455 0.079428002 0.20039999
0.042163 0.079627998 0.19245
0.038249001 0.079704002 0.19385999
-0.0047352002 0.081707999 0.21822999
-0.0024719001 0.083963998 0.21742
0.0092644002 0.084553003 0.21075
0.00079840998 0.085790001 0.2155
0.019160001 0.096193001 0.20494001
0.014623 0.10334 0.20773
0.015929 0.1063 0.20691
0.016773 0.10908 0.20616999
0.018087 0.10932 0.20509
0.018310999 0.1105 0.20558
0.014483 0.11214 0.20766
0.03325 0.11448 0.19806001
0.027596001 0.11639 0.199
0.028557001 0.11639 0.19972999
0.032109 0.1178 0.19784001
0.030422 0.12359 0.19867
0.012382 0.12581 0.20863
0.0079896003 0.15365 0.21194001
0.0075437999 0.15845001 0.21194001
0.0081065996 0.16135 0.21126001
0.0097893002 0.16506 0.21043
0.010339 0.16587999 0.21065
0.039236002 0.17711 0.19271
0.01331 0.17806 0.20830999
0.029593 0.17985 0.19934
0.030819001 0.17855 0.1989
0.031969 0.17879 0.19821
0.025870999 0.17855 0.20163999
0.025668999 0.17990001 0.20091
0.033202998 0.17885999 0.19766
0.019115999 0.21077 0.20548999
0.037221 0.21778999 0.19510999
0.036648002 0.21908 0.19386999
0.036826 0.21898 0.19503
0.024886999 0.21822999 0.20158
0.027031999 0.21921 0.20104
0.034818999 0.22093 0.19566999
-0.0019338001 0.056692999 0.21653999
-0.0088940999 0.059237 0.22085001
0.0011087999 0.061276998 0.2165
0.049924999 0.079374 0.18799999
0.033043001 0.079515003 0.19764
0.037682001 0.079740003 0.19503
0.03971 0.079288997 0.19408
0.0090691 0.082787 0.20958
0.0091848001 0.083373003 0.21025001
0.0090738004 0.081401996 0.21055
0.020541999 0.09629 0.20415001
0.024416 0.10066 0.20228
0.024312999 0.10188 0.20232999
0.014545 0.10177 0.20809001
0.024491999 0.10323 0.20225
0.025745001 0.10467 0.20185
0.024897 0.10393 0.20166001
0.014797 0.10626 0.20776001
0.016097 0.10721 0.20744
0.016170001 0.10928 0.20736
0.017278001 0.11094 0.20635
0.018371001 0.11669 0.20616999
0.018497 0.11498 0.20608
0.019266 0.1164 0.20517001
0.031984001 0.12037 0.19822
0.031091001 0.12076 0.19815999
0.010115 0.13421001 0.21026
0.0054695001 0.14089 0.21304999
0.010342 0.14517 0.21066999
0.013787 0.17139 0.20830999
0.026839999 0.18000001 0.20097999
0.026711 0.1789 0.20101
0.028247001 0.17848 0.20028
0.029967001 0.17899001 0.19976
0.035445999 0.17897999 0.19675
0.028354 0.17992 0.19994
0.027088 0.18783 0.20123
0.025594 0.18787 0.20173
0.028664 0.18795 0.2005
0.016942 0.19565 0.2071
0.015284 0.20290001 0.20761999
0.030831 0.22099 0.19889
-0.0074980999 0.079526998 0.2207
0.041462999 0.079474002 0.19284
0.020667 0.094780996 0.20444
0.025789 0.10187 0.20173
0.016138 0.11058 0.20739
0.01433 0.11218 0.20871
0.014296 0.1128 0.20867001
0.019455999 0.11355 0.20485
0.018331001 0.11341 0.20569
0.028749 0.11794 0.19966
0.028992999 0.11818 0.20021001
0.029385 0.11933 0.19968
0.011903 0.12683 0.20925
0.0090594003 0.14955001 0.21118
0.010096 0.16268 0.212
0.0090402998 0.16289 0.21115001
0.01116 0.16557001 0.21122
0.035494 0.21975 0.19662
0.035135001 0.219 0.19752
0.035969999 0.2192 0.19638
-0.0012384 0.053872 0.21783
-0.0018579999 0.052944001 0.21811
-0.010041 0.061942 0.22273999
-0.010306 0.064185999 0.22311001
-0.011189 0.067230001 0.22314
-0.01112 0.066113003 0.2234
-0.010558 0.068475001 0.22361
-0.0074212998 0.078873001 0.22155
0.030332999 0.079559997 0.20017999
0.035831001 0.07965 0.19643
0.047846001 0.079559997 0.19056
-0.0015050001 0.083342999 0.21797
0.0088731004 0.084652998 0.21258
0.0024357999 0.085946001 0.2164
0.0010876 0.085809998 0.21649
0.0035858001 0.086466998 0.21534
0.0074836002 0.087245002 0.21285
0.026019 0.10335 0.20201001
0.027291 0.10329 0.20128
0.028362 0.10488 0.20062
0.027386 0.10443 0.20111001
0.031521998 0.10627 0.19983999
0.027881 0.1095 0.20025
0.028488999 0.11047 0.20134
0.016085999 0.11219 0.20762999
0.016803 0.11236 0.20649999
0.028483 0.1134 0.20136
0.028706999 0.11211 0.20133001
0.016341001 0.11301 0.20721
0.017111 0.11355 0.20688
0.029191 0.11625 0.20136
0.029425001 0.11767 0.2009
0.033927999 0.11765 0.19836999
0.032214999 0.11902 0.19811
0.030082 0.11916 0.20056
0.02956 0.1207 0.19938999
0.032127 0.12209 0.19842
0.032945 0.12053 0.19847
0.030068999 0.12255 0.19909
0.031539001 0.12361 0.20018999
0.030449999 0.12495 0.1988
0.031328 0.12497 0.20029999
0.031159 0.12667 0.20006
0.012057 0.12627 0.21038
0.011852 0.12794 0.21093
0.011099 0.13789 0.21089999
0.010432 0.14445999 0.21035001
0.011068 0.14388999 0.21139
0.01111 0.14691 0.21137001
0.0085706003 0.15149 0.21178
0.0088731004 0.15252 0.21211
0.0088761002 0.15386 0.21234
0.0089419996 0.15689 0.21263
0.0090092001 0.16101 0.21195
0.0087748002 0.15936001 0.21238001
0.010044 0.16403 0.21174
0.011358 0.1666 0.21037
0.012625 0.16816001 0.21033999
0.013565 0.16848999 0.21018
0.013822 0.17414001 0.21025001
0.013512 0.17518 0.21001001
0.014898 0.17750999 0.20946001
0.030128 0.17815 0.19977
0.029389 0.17797001 0.20017999
0.016248001 0.17802 0.2079
0.017614 0.17801 0.20698
0.019001 0.17878 0.20742001
0.035576001 0.17851 0.1978
0.017612999 0.19611 0.20726
0.015611 0.20011 0.2077
0.038332 0.21619 0.1943
0.037836 0.2172 0.19458
0.037889 0.21639 0.19627
0.026712 0.21843 0.20215
0.027725 0.21863 0.20181
0.029084999 0.21994001 0.20068
0.028914999 0.21912999 0.20152999
0.034892 0.21991 0.19738001
0.032085001 0.22079 0.19844
-0.0068589002 0.053635001 0.22078
-0.0079509998 0.053989001 0.22153001
-0.0087144002 0.054267999 0.22249
-0.00062164001 0.054843001 0.21763
-0.0087246997 0.055569999 0.22235
-0.00029401001 0.055447001 0.21775
-0.0078717005 0.055803001 0.22199
-0.0076556001 0.056892 0.22114
-0.00039132001 0.057220999 0.21752
-0.0068782 0.05799 0.22114
-0.0088919001 0.060313001 0.22203
-0.0091364002 0.061198 0.22271
-0.011178 0.068282999 0.22295
-0.010139 0.069904998 0.2229
-0.0089862999 0.071539 0.22245
-0.0094309002 0.070721 0.22296999
-0.0079440996 0.072773002 0.22126
-0.0067659002 0.073131002 0.22144
-0.0057712002 0.074406996 0.22093
-0.0063096001 0.075852998 0.22116999
-0.0076774 0.077178001 0.22156
0.042920999 0.079637997 0.19397999
-0.0064584999 0.079542004 0.2209
-0.0052323998 0.080086999 0.22031
0.032340001 0.079452999 0.19859999
0.032497998 0.079726003 0.19912
0.051605001 0.079657003 0.18887
0.050420001 0.079742 0.18931
-0.0042270999 0.080334 0.21996
-0.0038981 0.081959002 0.21946
0.0096359001 0.083244003 0.21179999
0.0091247 0.081762001 0.21166
-0.0028569 0.083008997 0.21898
-0.00035697999 0.084569998 0.21743999
-0.0014555 0.084154002 0.21737
0.00025248999 0.085120998 0.21654999
0.0086706998 0.085827 0.21242
0.0051038 0.086557999 0.21468
0.0064074998 0.086865999 0.21381
0.014201 0.10062 0.20824
0.014971 0.10187 0.20889001
0.014452 0.10098 0.20893
0.015319 0.10331 0.20904
0.016210999 0.10353 0.20813
0.026512999 0.10465 0.20179
0.014601 0.10504 0.20787001
0.014934 0.10449 0.20900001
0.027398 0.10493 0.20144001
0.030069999 0.10516 0.1998
0.030918 0.10512 0.19977
0.014926 0.10653 0.20911001
0.01591 0.10515 0.20857
0.01584 0.10668 0.20855001
0.015641 0.10765 0.20862
0.032483999 0.10666 0.1988
0.026012 0.10548 0.20149
0.027811 0.10619 0.20157
0.026384 0.10639 0.20087001
0.027775001 0.10757 0.20194
0.027067 0.10781 0.20074999
0.014851 0.10757 0.20896
0.016148999 0.10904 0.20877001
0.014581 0.10911 0.20912001
0.028125999 0.10916 0.20164999
0.027563 0.10862 0.20023
0.015895 0.11051 0.20856
0.014666 0.11042 0.20908999
0.035190001 0.11225 0.19787
0.034542002 0.11077 0.19775
0.034339 0.11069 0.19671001
0.016102999 0.11214 0.20840999
0.034232002 0.11322 0.19765
0.016233999 0.11325 0.20788001
0.0141 0.11492 0.20973
0.014069 0.11329 0.2098
0.033921 0.11478 0.19802
0.016380999 0.11458 0.20807
0.029159 0.1149 0.20117
0.016960001 0.11477 0.20722
0.017521 0.11605 0.20671999
0.016956 0.1156 0.20758
0.013847 0.11658 0.20981
0.034100998 0.11659 0.19848999
0.013811 0.11779 0.20952
0.033689 0.11936 0.19847
0.013639 0.12207 0.20917
0.013968 0.12042 0.20871
0.032908998 0.12225 0.19882999
0.030772001 0.12059 0.20062999
0.031341001 0.12222 0.20005
0.013349 0.12359 0.20949
0.032974001 0.12356 0.19933
0.032458998 0.12492 0.19938999
0.013029 0.12462 0.20959
0.012505 0.12495 0.21048
0.032527 0.12658 0.19939999
0.032373998 0.12587 0.19789
0.011363 0.12914 0.21088
0.011285 0.13049001 0.21131
0.011188 0.13196 0.21091001
0.011342 0.13372999 0.21069001
0.011475 0.13508999 0.21044999
0.011562 0.13659 0.21049
0.0061491001 0.13941 0.21348999
0.010135 0.13844 0.21161
0.0096431002 0.13947999 0.21224
0.0075214999 0.13936999 0.21326999
0.0085155005 0.13974001 0.21247999
0.0063875001 0.14069 0.21289
0.0064772 0.14202 0.21308
0.0075563001 0.14244001 0.21315999
0.0087388996 0.14301001 0.21273001
0.010042 0.14329 0.2119
0.011431 0.14557 0.21085
0.01045 0.16473 0.21132
0.014097 0.16979 0.20962
0.014947 0.17127 0.2087
0.014089 0.17337 0.20946001
0.013728 0.17702 0.20986
0.038729001 0.17699 0.1955
0.037751 0.17693999 0.19652
0.015185 0.17787001 0.20848
0.02142 0.17686 0.20587
0.020198001 0.17843001 0.20640001
0.032559 0.17816 0.19857
0.033886001 0.1785 0.19842
0.036235999 0.17820001 0.19689
0.034132998 0.17927 0.19791
0.018687 0.17997 0.2066
0.019523 0.17952 0.20658
0.034892999 0.17935 0.19749001
0.024749 0.18869001 0.2032
0.029031999 0.18853 0.20126
0.023768 0.18919 0.20404001
0.022537 0.18975 0.20491999
0.022632999 0.18919 0.20411
0.021749999 0.19025999 0.20537999
0.020602999 0.19062001 0.20565
0.020174 0.19148 0.20630001
0.018971 0.1921 0.20619
0.018812001 0.19275001 0.20702
0.018823 0.19418 0.20732
0.017864 0.19447 0.20720001
0.016468 0.19876 0.20784999
0.015678 0.20159 0.20776001
0.016277 0.20294 0.20765001
0.016471 0.20412 0.20764001
0.017297 0.20603 0.20731001
0.017568 0.2075 0.20687
0.018821999 0.20891 0.20677
0.018901 0.20994 0.20632
0.020283001 0.21043 0.20599
0.020033 0.21100999 0.20566
0.021133 0.21185 0.20475
0.022427 0.21342 0.20446
0.022898 0.2141 0.20383
0.023934999 0.21486001 0.20404001
0.023946 0.21551999 0.20358001
0.025541 0.21635 0.20373
0.025175 0.2176 0.20296
0.037152 0.21715 0.19656
0.026631 0.21757001 0.20285
0.036777001 0.21783 0.19674
0.033874001 0.22 0.19801
0.029956 0.21966 0.20024
0.031613 0.22034 0.1998
0.032574002 0.22033 0.19921
-0.0077899001 0.059870999 0.22205
-0.0075432998 0.058851998 0.22123
0.00062095001 0.060219001 0.21701001
-0.010215 0.062669002 0.22285999
0.043669999 0.079535 0.19330999
0.046682999 0.079304002 0.19134
0.045552999 0.079323001 0.19212
0.028595001 0.079692997 0.20133001
0.026861999 0.079552002 0.20087001
0.02737 0.079467997 0.20216
0.036336001 0.079828002 0.19704001
0.034931 0.079653002 0.19757
0.041671999 0.079823002 0.19417
0.048953999 0.079815999 0.18985
0.0092219999 0.080204003 0.21086
0.0036996 0.086975001 0.21477
0.028533 0.10647 0.20084
0.030168001 0.10638 0.20043001
0.034010999 0.11047 0.19859999
0.014232 0.11253 0.20964999
0.014281 0.11077 0.20998999
0.017208001 0.11661 0.20723
0.016511999 0.11649 0.20816
0.017252 0.11802 0.20744
0.013885 0.11909 0.20976
0.010172 0.14833 0.21145999
0.010015 0.14929 0.21161
0.0097944997 0.15049 0.21229
0.0087743001 0.15535 0.21232
0.014993 0.17259 0.20951
0.026333001 0.17719001 0.20257001
0.027682001 0.17713 0.20212001
0.017251 0.17759 0.20776001
0.030562 0.17777 0.1998
0.027683999 0.18877999 0.20208
0.026246 0.18898 0.20286
0.017481999 0.19722 0.20746
0.017603001 0.19879 0.20750999
0.016408 0.20001 0.20778
0.016507 0.20198999 0.20812
0.017744999 0.2018 0.20717999
