# .PCD v0.7 - Point Cloud Data file format
VERSION 0.7
FIELDS x y z
SIZE 4 4 4
TYPE F F F
COUNT 1 1 1
WIDTH 1538
HEIGHT 1
VIEWPOINT 0 0 0 1 0 0 0
POINTS 1538
DATA ascii
0.21082 0.070064999 -0.025009001
0.19029 0.069317997 -0.016178001
0.19087 0.069752 -0.01497
0.20971 0.070777997 -0.023598
0.19284999 0.070455 -0.017128
0.20697001 0.070542999 -0.023387
0.19578999 0.071713001 -0.017885
0.20484 0.071211003 -0.021829
0.20529 0.071156003 -0.023174999
0.19894999 0.071075 -0.020199001
0.19811 0.071831003 -0.018766001
0.19299001 0.050297 -0.016481001
0.19299001 0.051002 -0.017033
0.19305 0.052462 -0.016667999
0.19449 0.054804999 -0.017368
0.19968 0.058279999 -0.01942
0.20664001 0.058600001 -0.022448
0.18909 0.061269 -0.013543
0.21399 0.064896002 -0.027127
0.186 0.065925002 -0.01432
0.18731999 0.067424998 -0.013292
0.18818 0.069072001 -0.013457
0.21295001 0.068674996 -0.025687
0.19362 0.070890002 -0.017514
0.19472 0.071851 -0.017076001
0.19158 0.051553998 -0.014593
0.19382 0.053948998 -0.016272999
0.19698 0.054480001 -0.018505
0.20687 0.055266999 -0.022668
0.20424999 0.058221001 -0.020814
0.19268 0.058548 -0.015571
0.21295001 0.061705001 -0.025729001
0.21475001 0.063198 -0.025374999
0.18657 0.063970998 -0.013807
0.20840999 0.071016997 -0.023635
0.19241001 0.049874 -0.015643001
0.19225 0.051467001 -0.015985999
0.19102 0.054044999 -0.015953001
0.20355 0.054582998 -0.021245001
0.20480999 0.055245999 -0.022127001
0.19938 0.055128999 -0.01977
0.20279001 0.055438999 -0.020491
0.20784 0.053759001 -0.021551
0.20124 0.054563001 -0.019903
0.20781 0.055840001 -0.023043999
0.19546001 0.058938999 -0.017828001
0.19463 0.059852 -0.017831
0.20747 0.059746999 -0.022861
0.19038001 0.060026001 -0.014154
0.18923 0.060973 -0.014187
0.21044999 0.060743 -0.025862999
0.21299 0.061574999 -0.025397001
0.18658 0.062848002 -0.013128
0.18535 0.066108003 -0.012365
0.18711001 0.069188997 -0.012709
0.21473999 0.068282999 -0.026082
0.18904001 0.069370002 -0.013532
0.21284001 0.069651 -0.025105
0.18967 0.069231004 -0.014486
0.19215 0.070400998 -0.015667001
0.20035 0.074100003 -0.017309999
0.19834 0.076167002 -0.018503999
0.20082 0.075654 -0.018466
0.19983999 0.076254003 -0.018652
0.19836999 0.076617002 -0.018523
0.1999 0.077055 -0.019769
0.19722 0.077028997 -0.017594
0.19882999 0.078495003 -0.018833
0.20097999 0.077960998 -0.020028001
0.20006999 0.075902998 -0.019587001
0.20182 0.077915996 -0.020551
0.20305 0.075888999 -0.021261999
0.19765 0.076826997 -0.018076001
0.20359001 0.077078998 -0.021540999
0.20014 0.078276001 -0.019231999
0.20111001 0.078818999 -0.019678
0.2026 0.078610003 -0.020571001
0.1972 0.078441001 -0.017778
0.19823 0.079089999 -0.017916
0.19633 0.05015 -0.016261
0.19760001 0.050563 -0.017245
0.19377001 0.048921 -0.015193
0.19106001 0.050671 -0.014663
0.19083001 0.050437 -0.015048
0.1908 0.052581999 -0.014019
0.19163001 0.054414999 -0.01519
0.19859999 0.055399999 -0.018231999
0.19281 0.058529001 -0.015234
0.19058999 0.059271999 -0.013843
0.19179 0.059939001 -0.015565
0.21217 0.060380999 -0.025056999
0.18917 0.060899999 -0.012912
0.18545 0.064061999 -0.012987
0.21471 0.065684997 -0.026574001
0.18488 0.066914 -0.012537
0.21592 0.066793002 -0.026913
0.19078 0.071015 -0.015213
0.21071 0.071382999 -0.023274001
0.21039 0.071212001 -0.02341
0.20695999 0.071180001 -0.022616999
0.1961 0.074499004 -0.016805001
0.19577 0.076514997 -0.015941
0.20399 0.075934999 -0.021042001
0.2041 0.076963 -0.019838
0.20452 0.076251999 -0.020865999
0.1955 0.077754997 -0.017130001
0.20611 0.077399999 -0.022127001
0.19566 0.078392997 -0.017074
0.2033 0.078114003 -0.021042001
0.20562001 0.077941999 -0.02125
0.19508 0.049603999 -0.016388001
0.191 0.049777001 -0.013751
0.19197001 0.049830999 -0.014676
0.20242 0.050607 -0.018917
0.20329 0.052873999 -0.019932
0.18975 0.052912001 -0.013968
0.18990999 0.052832 -0.013476
0.20607001 0.054235999 -0.021873999
0.20841999 0.053808998 -0.02159
0.19158 0.054368 -0.014784
0.19541 0.055302002 -0.016424
0.19509999 0.055574998 -0.0154
0.19577 0.055411 -0.017778
0.20695999 0.055796999 -0.021749999
0.19803999 0.056237999 -0.018703001
0.20042001 0.056113001 -0.019058
0.20186999 0.056533001 -0.018531
0.20868 0.05635 -0.021919999
0.20971 0.055640999 -0.022812
0.20028999 0.058097001 -0.018619999
0.20017999 0.058488999 -0.018890999
0.20259 0.058187999 -0.019716
0.20403001 0.058036 -0.020466
0.19651 0.057905 -0.016992001
0.19520999 0.057978999 -0.015842
0.20512 0.058839001 -0.02114
0.20781 0.057948001 -0.022138
0.20654 0.057882 -0.020710001
0.20894 0.059344999 -0.022950999
0.20959 0.058559999 -0.021941001
0.21049 0.059112001 -0.023154
0.21208 0.059588999 -0.024245
0.21249001 0.058802001 -0.023176
0.18976 0.060134001 -0.013388
0.21368 0.058972001 -0.024668001
0.18648 0.062451001 -0.012884
0.18782 0.061746001 -0.01287
0.2163 0.062633 -0.026185
0.21495 0.063652001 -0.025884001
0.18544 0.062510997 -0.011259
0.21667001 0.064297996 -0.026776001
0.186 0.068069004 -0.012047
0.18610001 0.068781003 -0.011898
0.2129 0.070348002 -0.024444001
0.19014999 0.071033999 -0.014003
0.18806 0.070028 -0.012816
0.19044 0.071704 -0.01395
0.18912999 0.070946001 -0.012832
0.20924 0.071806997 -0.023155
0.19347 0.072364002 -0.015660999
0.19549 0.071854003 -0.015305
0.1952 0.072272003 -0.016590999
0.19735 0.072136 -0.017763
0.20464 0.071644999 -0.020811999
0.20649 0.071813002 -0.021559
0.20491999 0.072741002 -0.021682
0.20239 0.072002999 -0.019959999
0.20285 0.072578996 -0.020157
0.19786 0.075450003 -0.017741
0.20130999 0.075401001 -0.019091999
0.20197 0.075184003 -0.018888
0.19489001 0.076030999 -0.015628001
0.19525 0.077210002 -0.016239
0.20536999 0.075732 -0.021640999
0.20611 0.075756997 -0.021413
0.20635 0.078001 -0.021608001
0.20654 0.076926 -0.022218
0.20646 0.077540003 -0.022751
0.20636 0.078086004 -0.021307999
0.19492 0.077445 -0.016894
0.19454999 0.078743003 -0.016832
0.19772001 0.078589 -0.016489999
0.19866 0.079599999 -0.017981
0.20382001 0.079426996 -0.019850001
0.20163 0.079423003 -0.019107001
0.20313001 0.078619003 -0.019175
0.20083 0.050005998 -0.017635999
0.19036999 0.050701 -0.013068
0.18953 0.050774999 -0.014144
0.18997 0.052436002 -0.013777
0.20544 0.053264 -0.021837
0.19246 0.055417001 -0.01518
0.19351999 0.055815 -0.015002
0.19821 0.056067999 -0.01794
0.20336001 0.056490999 -0.019154999
0.20412999 0.056138001 -0.019905001
0.20533 0.055824999 -0.021483
0.19735999 0.057643998 -0.017364999
0.19904999 0.057580002 -0.018449999
0.19238999 0.059202999 -0.014795
0.19242001 0.058239002 -0.015022
0.18803 0.060605001 -0.012061
0.21469 0.061092 -0.025619
0.21644001 0.062215999 -0.025738999
0.21627 0.064395003 -0.026431
0.21696 0.066215001 -0.025884001
0.18434 0.064673997 -0.010941
0.18469 0.065766998 -0.011537
0.18422 0.066638999 -0.010871
0.21687999 0.067470998 -0.026315
0.18508001 0.067349002 -0.011662
0.21568 0.068930998 -0.024985
0.18692 0.069640003 -0.012292
0.18692 0.069626004 -0.012778
0.21562 0.069574997 -0.025142999
0.2111 0.07124 -0.023957999
0.19278 0.071956001 -0.014305
0.20002 0.073864996 -0.017966
0.2001 0.072913997 -0.018294999
0.20155001 0.072663002 -0.018983999
0.20776001 0.076325998 -0.021237999
0.19403 0.076081 -0.015555
0.19413 0.076918997 -0.015913
0.19321001 0.076200999 -0.015047
0.19306999 0.078175999 -0.014551
0.20799001 0.079136997 -0.021661
0.20818999 0.078382999 -0.022638001
0.19497 0.078682996 -0.016256999
0.19712 0.078863002 -0.015433
0.20567 0.079614997 -0.020697
0.20037 0.079148002 -0.018727999
0.19949 0.049313001 -0.017217999
0.20163 0.050326001 -0.018235
0.18780001 0.053231001 -0.01208
0.19109 0.054311998 -0.014471
0.1913 0.055034 -0.013812
0.19637001 0.056079 -0.016398
0.20031001 0.056731001 -0.018018
0.20171 0.056542002 -0.018948
0.21475001 0.059987001 -0.02502
0.18607999 0.060151 -0.010987
0.18593 0.062077999 -0.011716
0.18476 0.063519001 -0.011917
0.21225999 0.070533 -0.023654999
0.20849 0.070968002 -0.022094
0.20661999 0.072719999 -0.020767
0.19870999 0.072999999 -0.017441999
0.20913 0.076950997 -0.022150001
0.20835 0.075612999 -0.022453001
0.19224 0.077702001 -0.015054
0.20982 0.078827001 -0.022506
0.20715 0.078213997 -0.021570999
0.20281 0.051236998 -0.019038999
0.18904001 0.051743001 -0.012552
0.18844 0.054102 -0.012185
0.19673 0.056628 -0.0162
0.19792999 0.056878 -0.018633001
0.20464 0.057266999 -0.019880001
0.20264 0.057482 -0.019277999
0.19742 0.057248998 -0.016502
0.20501 0.056101002 -0.021071
0.21053 0.058867 -0.022654001
0.21404999 0.058718 -0.023899
0.21704 0.062725998 -0.026419999
0.18491 0.062775999 -0.010003
0.21718 0.064955004 -0.026164999
0.18348999 0.065498002 -0.010056
0.21870001 0.066219002 -0.026425
0.18415 0.068483002 -0.01038
0.21743 0.068453997 -0.026272999
0.18595 0.069519997 -0.011879
0.21685 0.070201002 -0.024808001
0.21323 0.071043 -0.023895999
0.20885 0.072258003 -0.021097001
0.20691 0.072989002 -0.021508001
0.19599999 0.072795004 -0.01639
0.19564 0.072719 -0.015526
0.19753 0.073321998 -0.01675
0.205 0.071842 -0.019607
0.19904999 0.073562004 -0.017648
0.19739 0.073743999 -0.016496999
0.20238 0.074461997 -0.018949
0.20207 0.074424997 -0.018699
0.19282 0.076094002 -0.014365
0.21115001 0.077440001 -0.022507999
0.21137001 0.075825997 -0.022771001
0.19146 0.076889999 -0.014449
0.19329999 0.078837998 -0.014604
0.18967 0.050159 -0.012851
0.2066 0.053684 -0.02098
0.20699 0.056733999 -0.021625999
0.19141001 0.058635 -0.012935
0.19049001 0.059372999 -0.012768
0.18475001 0.062148001 -0.010345
0.18396001 0.064447001 -0.010306
0.21916001 0.066147 -0.027012
0.18347 0.067388996 -0.010444
0.21472 0.071001999 -0.024567001
0.18929 0.071551003 -0.012252
0.19291 0.071897 -0.01372
0.19408 0.073114999 -0.015152
0.20487 0.074000999 -0.019748
0.20582999 0.074959002 -0.019693
0.19138999 0.077827998 -0.013942
0.21144 0.078809001 -0.022776
0.18697 0.053087 -0.011522
0.18764 0.052003998 -0.012299
0.19514 0.057080001 -0.015678
0.20837 0.056929 -0.020561
0.21088 0.056597002 -0.022134
0.20992 0.056563001 -0.021543
0.20984 0.056147002 -0.021931
0.19148 0.058662001 -0.012899
0.19025999 0.058525998 -0.011387
0.18892001 0.058928002 -0.012386
0.21634001 0.060378 -0.024824999
0.18663999 0.060176998 -0.010953
0.21707 0.061391 -0.026234999
0.21885 0.063873999 -0.026473001
0.21879999 0.063197002 -0.025926
0.18311 0.067166999 -0.0088830004
0.21872 0.068806 -0.026184
0.18489 0.068746999 -0.0099432999
0.21613 0.068765 -0.025312999
0.18696 0.071024001 -0.010535
0.19077 0.072347999 -0.013403
0.19074 0.072732002 -0.01253
0.21117 0.072581001 -0.022845
0.19712 0.073715001 -0.015860001
0.20664001 0.074210003 -0.021217
0.19484 0.074809 -0.015387
0.19475999 0.074654996 -0.015277
0.20969 0.075089 -0.021885
0.21213 0.075332999 -0.021922
0.21218 0.078299001 -0.02283
0.21127 0.077623002 -0.023064001
0.19982 0.079015002 -0.016607
0.20104 0.050854001 -0.016611001
0.18706 0.053741001 -0.011704
0.19069999 0.055376001 -0.011977
0.19128001 0.056016002 -0.013533
0.19153 0.056428999 -0.013164
0.19438 0.056949999 -0.014491
0.19318999 0.057011999 -0.013818
0.20829999 0.057523999 -0.021044999
0.20995 0.057222001 -0.021746
0.19227 0.057859 -0.013619
0.21194001 0.058169998 -0.022697
0.21604 0.059053998 -0.023615001
0.21789999 0.059551999 -0.024829
0.18359999 0.062638998 -0.0089101
0.18522 0.061009999 -0.0095862001
0.18365 0.063704997 -0.0098997001
0.18303999 0.065585002 -0.0092729004
0.18232 0.066068001 -0.0087110996
0.22131 0.066904999 -0.025722001
0.18542001 0.069675997 -0.0091636004
0.21232 0.072518997 -0.022260999
0.19464999 0.072894998 -0.014585
0.21201 0.07587 -0.023218
0.21235 0.075919002 -0.023104999
0.19147 0.075678997 -0.01336
0.19056 0.076686002 -0.012183
0.19021 0.078477003 -0.012559
0.19198 0.079603001 -0.012736
0.21146999 0.078974999 -0.021926999
0.2005 0.079717003 -0.017259
0.20711 0.078916997 -0.020321
0.19072001 0.049787998 -0.011144
0.18976 0.050547998 -0.011724
0.18678001 0.052246001 -0.0098938001
0.18573 0.052793 -0.010432
0.18753999 0.054276999 -0.011402
0.18809 0.054846 -0.01173
0.18989 0.055420998 -0.012082
0.21162 0.056469001 -0.021415001
0.21009 0.05759 -0.023132
0.2113 0.058068998 -0.02208
0.21408001 0.05875 -0.022237999
0.21724001 0.059505999 -0.02465
0.18675999 0.058828 -0.0098722
0.21794 0.060782 -0.025527
0.18389 0.062735997 -0.0085715996
0.21904001 0.061797999 -0.025683001
0.22051001 0.062419001 -0.025601
0.18152 0.062724002 -0.0078298002
0.21926001 0.063639 -0.025903
0.22059 0.065316997 -0.025943
0.21924999 0.067250997 -0.026131
0.18321 0.068754002 -0.0082077999
0.21987 0.068838 -0.025251999
0.2182 0.068388 -0.024925999
0.21797 0.070353001 -0.025428999
0.21604 0.070472002 -0.023799
0.18691 0.071919002 -0.01096
0.2147 0.071575001 -0.023231
0.19175 0.072802998 -0.012444
0.19264001 0.073514998 -0.013842
0.20925 0.072714999 -0.020862
0.20906 0.073550001 -0.020989001
0.19519 0.073638 -0.01526
0.20785999 0.073909 -0.019938
0.20856 0.074616998 -0.020823
0.20984 0.074973002 -0.021828
0.19238 0.074669003 -0.01347
0.19375999 0.075653002 -0.013977
0.19317 0.074164003 -0.013329
0.19167 0.075993001 -0.012129
0.19101 0.075474001 -0.011613
0.19103999 0.076941997 -0.013187
0.21357 0.075708002 -0.022774
0.18904001 0.077499002 -0.012003
0.18943 0.078699 -0.011079
0.21234 0.079118997 -0.022955
0.19058 0.078267001 -0.011914
0.20969 0.079157002 -0.021546001
0.19168 0.049481001 -0.012259
0.19481 0.049844999 -0.013999
0.19588999 0.049819 -0.014897
0.18856999 0.050813999 -0.01095
0.20238 0.051197998 -0.017604999
0.18797 0.051082999 -0.011194
0.20648 0.053676002 -0.019425999
0.20567 0.052965 -0.020415001
0.18628 0.054432001 -0.0095439004
0.20734 0.054577 -0.020524999
0.20919 0.053783 -0.020562001
0.2106 0.054809999 -0.020316999
0.19189 0.055706002 -0.013444
0.19177 0.057457998 -0.01186
0.19251999 0.056407999 -0.013621
0.1893 0.058354001 -0.011233
0.18722001 0.05895 -0.011071
0.18828 0.058419999 -0.0091465004
0.22089 0.064487003 -0.025776001
0.22059 0.063337997 -0.02544
0.18262 0.064561002 -0.0087636001
0.18255 0.068167001 -0.0077642002
0.18613 0.070857003 -0.0098126996
0.21606 0.071410999 -0.024141001
0.18876 0.072219998 -0.011652
0.21504 0.072737999 -0.022973999
0.21172 0.072963998 -0.021455999
0.1944 0.074258998 -0.014175
0.18895 0.076526001 -0.01072
0.21453001 0.07739 -0.023437999
0.21334 0.078782 -0.023406999
0.20291001 0.078809999 -0.017894
0.20310999 0.079072997 -0.017767999
0.20916 0.079359002 -0.020726999
0.19322 0.079411998 -0.013298
0.19362 0.078887001 -0.01363
0.19577999 0.078620002 -0.015246
0.19839001 0.078504004 -0.015142
0.20468999 0.079025999 -0.018559
0.19337 0.050863001 -0.013209
0.21368 0.057342999 -0.022203
0.18513 0.060332999 -0.0074983998
0.18277 0.068580002 -0.0077803
0.22139999 0.068627 -0.026079999
0.21931 0.069526002 -0.025434
0.21165 0.074520998 -0.021803999
0.18821999 0.078566 -0.0106
0.19693001 0.079556003 -0.015427
0.19035 0.057312999 -0.010875
0.2119 0.056272998 -0.022281
0.18729 0.058306001 -0.0099446001
0.21695 0.059083998 -0.024114
0.22015999 0.061912 -0.024994999
0.182 0.065860003 -0.0066462001
0.18192001 0.067011997 -0.0070916
0.18374 0.070396997 -0.0088892998
0.21789999 0.071065001 -0.023848999
0.1909 0.073155999 -0.012139
0.21207 0.071985997 -0.022733999
0.21292 0.074755996 -0.021365
0.2155 0.077609003 -0.024406999
0.21471 0.076197997 -0.022388
0.189 0.077422 -0.010643
0.21493 0.078786001 -0.023057001
0.20651001 0.079907 -0.018052001
0.19955 0.049947999 -0.015464
0.18948001 0.051093999 -0.0095988
0.18542001 0.052494001 -0.0088125998
0.18609001 0.054680001 -0.0090963002
0.18819 0.054306 -0.010364
0.21319 0.056667998 -0.021481
0.21720999 0.059170999 -0.024267999
0.1858 0.060075 -0.0085231001
0.21941 0.059427999 -0.024995999
0.18143 0.062880002 -0.0068254001
0.22174001 0.066073999 -0.025884001
0.22145 0.067708001 -0.026464
0.21997 0.070317 -0.024498999
0.18565001 0.071111999 -0.0095256995
0.18908 0.072062999 -0.011506
0.21414 0.072337002 -0.021939
0.19231001 0.075359002 -0.011942
0.18796 0.075009003 -0.0094271004
0.18751 0.075694002 -0.0098307002
0.21651 0.077022001 -0.023381
0.19075 0.079085998 -0.01055
0.19036999 0.050641 -0.010489
0.19265001 0.051316999 -0.011841
0.18975 0.050533 -0.010176
0.18528999 0.054582 -0.0091746002
0.18896 0.056101002 -0.010143
0.18955 0.057672001 -0.011537
0.21454 0.056979999 -0.022081999
0.18962 0.057581 -0.010981
0.18915001 0.057709999 -0.010196
0.21541999 0.057383001 -0.02297
0.21720999 0.058132999 -0.022794001
0.18722001 0.058203999 -0.0083512003
0.21923 0.058377001 -0.023754001
0.18340001 0.061092 -0.0068915999
0.222 0.064268999 -0.025769001
0.19137999 0.074606001 -0.010564
0.21306001 0.074059002 -0.021400999
0.21731 0.078125 -0.024031
0.18869001 0.051805999 -0.0097618997
0.18521 0.05263 -0.0086196996
0.18672 0.052026 -0.008831
0.18741 0.051780999 -0.0096044997
0.18534 0.053759001 -0.0077312002
0.1849 0.053516999 -0.0071283998
0.18683 0.055597 -0.0089106997
0.18769 0.05497 -0.0089734998
0.21326999 0.055950001 -0.020346001
0.2141 0.057291999 -0.021113999
0.18866999 0.059537001 -0.0098719997
0.21908 0.059234999 -0.023757
0.18562999 0.058793999 -0.0078011998
0.21958999 0.059500001 -0.024715001
0.18448 0.059574999 -0.0082772998
0.18520001 0.059508 -0.0078141997
0.22139999 0.061122999 -0.025234001
0.22197001 0.063511997 -0.026154
0.18144999 0.064191997 -0.0070464001
0.18156999 0.064009003 -0.0066816998
0.18121 0.065761 -0.0073229
0.22273999 0.066271 -0.026147
0.18122 0.068001002 -0.0065577999
0.22283 0.067304 -0.025915001
0.18237001 0.069191001 -0.0064376001
0.22234 0.068994999 -0.02506
0.18239 0.069417998 -0.0073417998
0.18298 0.070565 -0.005715
0.22123 0.070260003 -0.025347
0.18426999 0.070178002 -0.0076581999
0.18454 0.070791997 -0.007803
0.18612 0.071346998 -0.0089469003
0.21857999 0.071552999 -0.02375
0.18594 0.072228 -0.0088480003
0.18801001 0.072902001 -0.010129
0.21535 0.073312998 -0.021989999
0.19 0.073362999 -0.0099879
0.21637 0.071912996 -0.022779001
0.21331 0.073872998 -0.021699
0.19137 0.073717996 -0.010914
0.21456 0.073896997 -0.022575
0.18996 0.075317003 -0.010022
0.21452001 0.075615004 -0.022147
0.21593 0.076296002 -0.02368
0.21664 0.076369002 -0.023522999
0.18771 0.077270001 -0.0091284998
0.18746001 0.077486001 -0.0087192003
0.21728 0.077921003 -0.023588
0.18717 0.07863 -0.0087155001
0.21586999 0.078865997 -0.02286
0.1886 0.078952998 -0.010266
0.21483 0.079542004 -0.021640999
0.19001999 0.078863002 -0.010788
0.19208001 0.078835003 -0.011605
0.19361 0.079359002 -0.011843
0.19779 0.078671999 -0.014243
0.20088001 0.079720996 -0.015678
0.20656 0.079369001 -0.018936999
0.20558999 0.079190999 -0.017673001
0.20738 0.078773998 -0.019009
0.21163 0.078977004 -0.021615
0.21371 0.078782998 -0.020362999
0.19535001 0.050523002 -0.013024
0.19401 0.050214998 -0.011998
0.19537 0.050340999 -0.01145
0.20112 0.050212 -0.016003
0.20152999 0.050480999 -0.014908
0.20683999 0.054113999 -0.018928001
0.21008 0.05463 -0.018844999
0.21125001 0.054908 -0.020531001
0.21142 0.055535 -0.019950001
0.18828 0.056093998 -0.0097997999
0.22160999 0.060842 -0.024478
0.18278 0.062035002 -0.0063502998
0.22215 0.063395999 -0.026338
0.22376999 0.065834001 -0.026046
0.18093 0.066597998 -0.0060255001
0.22402 0.066182002 -0.026154
0.22358 0.066854998 -0.025548
0.22067 0.068374 -0.025976
0.21766999 0.071726002 -0.022813
0.18993001 0.074828997 -0.010225
0.18737 0.076393999 -0.0094884001
0.21822 0.076355003 -0.023499999
0.21879999 0.077481002 -0.023566
0.20167001 0.079368003 -0.015951
0.20965999 0.078585997 -0.019417999
0.20967001 0.080041997 -0.019444
0.19847 0.050643001 -0.014225
0.19972999 0.050507002 -0.01463
0.20048 0.050097 -0.015104
0.20353 0.051456999 -0.016541
0.1881 0.057064999 -0.0090587996
0.21644001 0.05799 -0.022358
0.22246 0.061462998 -0.025287
0.18128 0.064589001 -0.0060663
0.18099 0.067198001 -0.0065229
0.22183999 0.069146998 -0.025156001
0.18816 0.072627001 -0.0081914002
0.21639 0.073435001 -0.021672999
0.21619999 0.074198999 -0.022697
0.18616 0.077675 -0.0079509001
0.18611 0.078515999 -0.0082101002
0.19593 0.078864001 -0.012457
0.20366 0.079635002 -0.016931999
0.19397999 0.050868999 -0.011407
0.19836999 0.050781999 -0.013201
0.19762 0.050847001 -0.012774
0.19741 0.050159 -0.013893
0.20574 0.052592002 -0.017584
0.18564001 0.055371001 -0.0078352001
0.18359999 0.060003001 -0.0067448998
0.22332001 0.062247001 -0.026867
0.18124001 0.063224003 -0.0061245002
0.18093 0.068516001 -0.0050507998
0.18231 0.069481 -0.0069662002
0.22015999 0.070680998 -0.024184
0.18686999 0.072961003 -0.0082647996
0.18596999 0.075985998 -0.0085888999
0.21763 0.079130001 -0.023691
0.19874001 0.078447998 -0.014366
0.20280001 0.079461001 -0.016821001
0.19338 0.051454999 -0.010102
0.19695 0.051353 -0.013343
0.19106001 0.051240001 -0.0088144001
0.21708 0.058307 -0.021538001
0.1851 0.058703002 -0.0062392
0.22096001 0.058860999 -0.023220001
0.18278 0.059677001 -0.0057941
0.22262 0.060504001 -0.024716999
0.22408 0.061225001 -0.025542
0.22481 0.068402 -0.025404001
0.2233 0.068869002 -0.025381999
0.18751 0.074207 -0.0081535997
0.21665999 0.075060003 -0.022645
0.18821 0.076025002 -0.0088499002
0.21915001 0.077041999 -0.023538999
0.1964 0.079596996 -0.011162
0.19118001 0.050404001 -0.0097428998
0.18713 0.051663 -0.0079297004
0.18889 0.052494001 -0.0082179997
0.18625 0.052745 -0.0070038
0.18535 0.052625999 -0.0066757998
0.18450999 0.053918 -0.0062381998
0.18519001 0.054942001 -0.0066144001
0.18675999 0.056294002 -0.0073286998
0.2138 0.055691998 -0.019771
0.18788999 0.057788 -0.0081831003
0.18762 0.056820001 -0.0078820996
0.21561 0.056237001 -0.020248
0.21653999 0.056825001 -0.021323999
0.18785 0.057631001 -0.0080530001
0.18652 0.057583001 -0.0068513001
0.22164001 0.059232 -0.023589
0.1848 0.059354998 -0.0060851998
0.22223 0.060105 -0.024332
0.18221 0.060196001 -0.0053713
0.22282 0.060422 -0.023522999
0.18216 0.061269 -0.0047843
0.22431 0.061225999 -0.025488
0.18196 0.062070999 -0.0042892001
0.22453 0.062392998 -0.02548
0.22499999 0.065655999 -0.026642
0.22567999 0.065521002 -0.025852
0.18014 0.065876998 -0.0051950002
0.18025 0.067612 -0.0045750998
0.22384 0.068395004 -0.025582001
0.22571 0.066514999 -0.025095999
0.18145999 0.068251997 -0.003573
0.18223999 0.069927998 -0.0058044
0.18154 0.06989 -0.0036513
0.22243001 0.070514999 -0.024305999
0.22141001 0.071355999 -0.023518
0.18354 0.070491999 -0.0051330002
0.18335 0.07113 -0.0053146998
0.18528999 0.071633004 -0.0064595002
0.22048 0.071754001 -0.023229999
0.18623 0.071846001 -0.0075802999
0.2183 0.07322 -0.022771001
0.21831 0.072474003 -0.022865999
0.18886 0.072525002 -0.0081083998
0.18889999 0.074550003 -0.0088959998
0.1882 0.074873999 -0.0082481001
0.21636 0.073377997 -0.021453001
0.21709 0.075094 -0.022514001
0.21782 0.074662 -0.022737
0.21909 0.075901002 -0.023895999
0.18647 0.075828999 -0.0068775001
0.18572 0.075776003 -0.0055908998
0.22006001 0.077607997 -0.023678999
0.21889 0.07869 -0.022048
0.22070999 0.079147004 -0.022755999
0.18534 0.078712001 -0.0063415002
0.18540999 0.076683998 -0.0065746
0.21819 0.079043001 -0.021731
0.18814 0.079276003 -0.0079022003
0.18617 0.079314001 -0.0070218001
0.18946999 0.078973003 -0.0079659
0.19047 0.079813004 -0.0099350996
0.19246 0.079190001 -0.01026
0.20241 0.079014003 -0.014677
0.20728999 0.079327002 -0.016687
0.20845 0.078424998 -0.017202999
0.21344 0.078994997 -0.019704999
0.21644001 0.079387002 -0.022076
0.18921 0.051920999 -0.0081150001
0.20315 0.051729999 -0.016859001
0.20491 0.051224001 -0.015528
0.21077 0.05404 -0.018058
0.21056999 0.055679001 -0.018565999
0.18756001 0.056522001 -0.0076845
0.21852 0.057728 -0.022156
0.21932 0.057718001 -0.022604
0.18069001 0.062431 -0.0049991002
0.22577 0.064727001 -0.026651001
0.17994 0.064925998 -0.0036948
0.17975999 0.066703998 -0.0041362001
0.22461 0.069188997 -0.024812
0.18614 0.072701998 -0.0069189998
0.22002999 0.075914003 -0.023104001
0.19377001 0.079336002 -0.0093059
0.20626999 0.078511 -0.016248001
0.21224 0.078877002 -0.019204
0.21256 0.055759002 -0.019386001
0.18667001 0.057466 -0.0065553999
0.18404 0.059367999 -0.0053090001
0.22606 0.062555 -0.025412001
0.21967 0.073288999 -0.021799
0.18831 0.074194998 -0.0072523998
0.20084 0.079414003 -0.013354
0.20062999 0.079705 -0.013626
0.20216 0.079962999 -0.013987
0.19035999 0.050829999 -0.0088628
0.19265001 0.050884001 -0.0078101
0.19481 0.051284999 -0.011144
0.19445001 0.051918998 -0.0089755002
0.18416999 0.055103999 -0.0051266998
0.18367 0.053810999 -0.0061113001
0.22552 0.059500001 -0.024351999
0.18077999 0.068457998 -0.0036231
0.22596 0.069196001 -0.025013
0.21991 0.074207999 -0.021702001
0.22152001 0.077394001 -0.023050999
0.19584 0.079879999 -0.011711
0.19431999 0.079365999 -0.010409
0.20508 0.079374 -0.015899001
0.2142 0.078930996 -0.020478001
0.18785 0.053217001 -0.0061821002
0.21122999 0.054361999 -0.017635999
0.21363001 0.05579 -0.017317999
0.1846 0.059252001 -0.0055828001
0.18200999 0.060028002 -0.0042367
0.18039 0.062964998 -0.0037864
0.22679 0.062477 -0.024227001
0.22674 0.064250998 -0.024546999
0.17930999 0.065447003 -0.0034206
0.18245 0.071162999 -0.0043863999
0.22318999 0.071429998 -0.023162
0.18566 0.072263002 -0.0050948998
0.18544 0.072231002 -0.0046863002
0.1859 0.072232999 -0.0062851999
0.18697 0.073959999 -0.0068191998
0.18437 0.077725999 -0.0056873001
0.18696 0.079425 -0.0060463999
0.19833 0.079279996 -0.011746
0.2103 0.079622999 -0.01804
0.20671 0.088563003 -0.015954999
0.20656 0.090424001 -0.016185001
0.20742001 0.090515003 -0.017205
0.20774999 0.088767 -0.016497999
0.18997 0.052021001 -0.0070603001
0.20692 0.051585 -0.0156
0.20612 0.052372999 -0.013837
0.18598001 0.054303002 -0.0045624999
0.18622001 0.053596999 -0.0055196998
0.18461999 0.054648999 -0.0040564998
0.18512 0.055339999 -0.0050377999
0.18569 0.056650002 -0.0053319
0.21977 0.057992999 -0.020967999
0.21938001 0.057199001 -0.020346001
0.22244 0.058765002 -0.022042001
0.22490001 0.059732001 -0.023995999
0.22521 0.061278 -0.024046
0.18107 0.061572 -0.0041061002
0.22702 0.063166 -0.024488
0.17938 0.063789003 -0.0024901
0.2261 0.067162998 -0.024653999
0.17884 0.066767 -0.0023121
0.22818001 0.067433 -0.024744
0.18054999 0.069535002 -0.0037710001
0.18117 0.069931999 -0.0022805
0.22562 0.070652001 -0.023740999
0.18127 0.071185 -0.0031157001
0.18301 0.072276004 -0.0043261
0.22149 0.072113998 -0.021609001
0.18427999 0.071673997 -0.0054958998
0.21987 0.072866999 -0.022527
0.22048 0.072443001 -0.02173
0.2209 0.075615004 -0.022244999
0.18547 0.075570002 -0.0052228998
0.18441001 0.076682001 -0.0052888002
0.18412 0.075479999 -0.0042280001
0.18416999 0.078602999 -0.0049922001
0.18414 0.077939004 -0.0051365001
0.22205999 0.078419998 -0.0228
0.18653999 0.078858003 -0.0052462998
0.19772001 0.079364002 -0.010736
0.20184 0.078764997 -0.011572
0.21144 0.079352997 -0.018529
0.21943 0.078677997 -0.021194
0.20689 0.086537004 -0.015682001
0.20753001 0.087615997 -0.014734
0.20795 0.088013001 -0.016119
0.20406 0.088909999 -0.015261
0.20867001 0.089170001 -0.016682001
0.20898999 0.087885 -0.015519
0.20869 0.090317003 -0.016871
0.20475 0.090741001 -0.014153
0.20489 0.091720998 -0.014037
0.20543 0.092165001 -0.015648
0.20637999 0.092776 -0.015923999
0.20824 0.091310002 -0.016355
0.20853999 0.091279998 -0.016278001
0.19848999 0.051029 -0.011057
0.19776 0.051773001 -0.010103
0.18864 0.052076999 -0.0056761
0.1838 0.055872999 -0.0043847999
0.21297 0.055096 -0.018603001
0.2157 0.055718999 -0.018177001
0.21620999 0.057383001 -0.020026
0.18465 0.058102001 -0.0040532998
0.22324 0.058311 -0.023228001
0.1832 0.059305999 -0.0033892
0.18271001 0.059694 -0.0042033
0.18124001 0.060826998 -0.0033638
0.18025 0.061701 -0.0020581
0.17959 0.062597997 -0.0026775999
0.22836 0.063971996 -0.024614001
0.17959 0.066 -0.0017398
0.2271 0.066574998 -0.024567001
0.22488999 0.071203999 -0.023531999
0.22262 0.071396001 -0.022577999
0.21994001 0.073317997 -0.020845
0.18692 0.072851002 -0.0059397002
0.18742 0.074570999 -0.0066268002
0.22121 0.073435999 -0.021538001
0.22057 0.075278997 -0.021955
0.18618999 0.074817002 -0.0057713999
0.22253001 0.075750999 -0.022748001
0.22188 0.076990001 -0.022741999
0.22135 0.079319999 -0.021981001
0.19196001 0.078583002 -0.0071633998
0.20006999 0.078442998 -0.010739
0.21758001 0.079591997 -0.019582
0.20682 0.086635001 -0.01421
0.20692 0.086092003 -0.014882
0.20480999 0.086069003 -0.01455
0.20595001 0.087388001 -0.014209
0.20554 0.087592997 -0.014817
0.20434 0.087645002 -0.013659
0.20404001 0.089025997 -0.01424
0.20405 0.089587003 -0.014112
0.20389 0.089716002 -0.014411
0.21041 0.088789999 -0.016541
0.20364 0.090603001 -0.013357
0.21051 0.089311004 -0.016706999
0.20992 0.092936002 -0.016256999
0.20732 0.093134001 -0.015483
0.20576 0.092449002 -0.01518
0.2054 0.093730003 -0.014217
0.19329 0.049885999 -0.0095023997
0.19430999 0.050625999 -0.0086481003
0.19126999 0.051640999 -0.0074697998
0.19942001 0.051929001 -0.011953
0.19189 0.051724002 -0.0062958002
0.20352 0.051796999 -0.013303
0.18987 0.052522 -0.0066962
0.21447 0.057050001 -0.019708
0.21574 0.056442 -0.01902
0.1841 0.058993001 -0.0030983
0.22668 0.059525002 -0.023634
0.17974 0.063134 -0.0021452
0.17895 0.064140998 -0.0021953001
0.22765 0.065996997 -0.025436999
0.22658999 0.068649001 -0.023886001
0.22417 0.072085999 -0.022474
0.22040001 0.073671997 -0.02179
0.22386 0.077528 -0.022980001
0.2228 0.079031996 -0.022647999
0.18386 0.077439003 -0.0038711
0.18285 0.077733003 -0.0032108
0.19634999 0.078860998 -0.0097644003
0.19942001 0.079461001 -0.011465
0.20208 0.079345003 -0.013711
0.21802001 0.079002999 -0.020300001
0.20378 0.085911997 -0.014258
0.20254 0.088361003 -0.013439
0.20991001 0.088246003 -0.016135
0.20417 0.091311999 -0.013287
0.2075 0.093335003 -0.015575
0.19785 0.052255999 -0.010539
0.20048 0.051592998 -0.011789
0.20128 0.051723 -0.013059
0.20130999 0.052460998 -0.012133
0.20637999 0.053709 -0.015184
0.18358999 0.055555999 -0.0034058001
0.21855 0.057673998 -0.020129999
0.22141001 0.057792999 -0.020693
0.22786 0.062988997 -0.024767
0.22812 0.068419002 -0.024050999
0.1798 0.067680001 -0.0011389001
0.22643 0.070017003 -0.02397
0.18251 0.071497001 -0.0023368001
0.22177 0.072746001 -0.021896999
0.18628 0.074372001 -0.0042109
0.22372 0.076502003 -0.023267001
0.22421999 0.077344999 -0.022805
0.19225 0.080326997 -0.0079263998
0.2059 0.079370998 -0.014378
0.21303999 0.079057999 -0.017243
0.20321999 0.085607 -0.014011
0.20321 0.086755 -0.012531
0.20765001 0.087187 -0.015402
0.20982 0.088340998 -0.016302999
0.21145 0.090749003 -0.016427999
0.21245 0.088474996 -0.017200001
0.21160001 0.092177004 -0.01616
0.20875999 0.092767999 -0.015722999
0.20671999 0.094396003 -0.01478
0.20657 0.13365 -0.01468
0.20513 0.13323 -0.014991
0.20642 0.1355 -0.015082
0.20607001 0.13485 -0.014716
0.20597 0.13616 -0.014228
0.2079 0.13519999 -0.015830001
0.20728 0.13643999 -0.015675999
0.20799001 0.13775 -0.016117999
0.20636 0.13790999 -0.01567
0.2077 0.13876 -0.015629999
0.20587 0.13796 -0.014398
0.20645 0.14040001 -0.015265
0.20657 0.13902999 -0.015938001
0.18246 0.059195999 -0.0033392
0.22867 0.066446997 -0.024762999
0.2225 0.075273998 -0.020997999
0.18288 0.077719003 -0.0034177999
0.18757001 0.078906998 -0.0061872001
0.21472999 0.079793997 -0.018691
0.21641999 0.079382002 -0.018903
0.20296 0.090194002 -0.013064
0.20900001 0.094691999 -0.016427999
0.20607001 0.094627999 -0.014934
0.20614 0.1304 -0.014882
0.20585001 0.12917 -0.01404
0.20581 0.12953 -0.014361
0.20453 0.13022 -0.013162
0.20480999 0.13237 -0.013724
0.20513999 0.1323 -0.015213
0.20725 0.13273001 -0.015346
0.20867001 0.13207 -0.014855
0.20816 0.13388 -0.016027
0.20372 0.13422 -0.013555
0.20359001 0.13457 -0.013681
0.20951 0.13721 -0.015144
0.2044 0.13688 -0.012997
0.20403001 0.13784 -0.014338
0.20946001 0.13827001 -0.016155001
0.20511 0.13954 -0.013945
0.20958 0.13998 -0.016278001
0.20962 0.14086001 -0.016271999
0.20394 0.13936999 -0.012777
0.20386 0.14046 -0.013323
0.20668 0.14034 -0.01538
0.20556 0.14105 -0.014652
0.20799001 0.14149 -0.015624
0.20838 0.14229999 -0.015976001
0.20935 0.14284 -0.016042
0.20688 0.14319 -0.016269
0.20840999 0.14365 -0.014784
0.19915999 0.051929001 -0.011148
0.18463001 0.057255 -0.0040989998
0.22818001 0.061838999 -0.024405999
0.18004 0.061106 -0.0013269
0.2286 0.065672003 -0.024277
0.22881 0.064162999 -0.024172001
0.1786 0.065807 -0.00064521999
0.23018 0.066987999 -0.024085
0.22882 0.068239003 -0.023192
0.22977 0.069098003 -0.023111001
0.18482 0.073119 -0.0049300999
0.18481 0.075785004 -0.0037557001
0.19424 0.079433002 -0.0076021999
0.20321 0.079613 -0.013147
0.20836 0.078628004 -0.015152
0.20725 0.079141997 -0.014212
0.21117 0.079161003 -0.017178001
0.21141 0.078932002 -0.016833
0.20435999 0.089345999 -0.01126
0.20532 0.12735 -0.013105
0.20421 0.12842 -0.013302
0.20697001 0.12808999 -0.014351
0.20646 0.12910999 -0.014663
0.20379999 0.12898 -0.01305
0.21437 0.12978999 -0.018004
0.21389 0.12817 -0.017843001
0.21385001 0.12971 -0.017457001
0.20341 0.12999 -0.012825
0.20341 0.13086 -0.012526
0.21477 0.1302 -0.018497
0.21378 0.13101999 -0.018022001
0.21325 0.13154 -0.017725
0.20823 0.13095 -0.014024
0.21405999 0.13244 -0.018731
0.21554001 0.13119 -0.01914
0.20262 0.13225999 -0.013665
0.20293 0.13472 -0.013575
0.21479 0.13406 -0.017681999
0.21586999 0.13406 -0.018374
0.20907 0.13424 -0.015978999
0.20231999 0.13483 -0.011791
0.21574999 0.13571 -0.018366
0.20929 0.13551 -0.015955999
0.21479 0.13505 -0.01856
0.21067999 0.13700999 -0.015885999
0.21014 0.13806 -0.016442999
0.21103001 0.13956 -0.015464
0.21041 0.14145 -0.015426
0.21022999 0.1427 -0.015569
0.20499 0.14184999 -0.014028
0.20412 0.14196999 -0.012386
0.20971 0.14373 -0.015246
0.20636 0.14438 -0.014098
0.20602 0.14374 -0.013957
0.20668 0.14445999 -0.01468
0.20849 0.14404 -0.015133
0.21153 0.14537001 -0.015011
0.20922001 0.14504001 -0.01523
0.1934 0.051718 -0.0072474
0.19705001 0.053160001 -0.0092040002
0.19932 0.053475998 -0.010979
0.20220999 0.053994998 -0.011498
0.20302001 0.053856999 -0.012835
0.18368 0.055013999 -0.0040051001
0.21458 0.055422001 -0.016852999
0.18246 0.056201 -0.0026507
0.18355 0.058045998 -0.0020802
0.22707 0.060832001 -0.023186
0.22677 0.060401998 -0.023108
0.22851001 0.061751001 -0.023761
0.17959 0.070799999 -0.00081016001
0.17975 0.069686003 -0.0016928
0.22759999 0.069606997 -0.023309
0.18048 0.070675999 -0.001683
0.22491001 0.072149999 -0.021791
0.18471 0.072056003 -0.0032442999
0.18593 0.074167997 -0.0038075
0.22431 0.075264998 -0.020998999
0.18387 0.076135002 -0.0037227999
0.22407 0.076925002 -0.022301
0.22511999 0.075539 -0.021468
0.22458 0.078086004 -0.022128001
0.22464 0.078836001 -0.021780999
0.18512 0.079948999 -0.0023047
0.19346 0.078873001 -0.006476
0.21019 0.079346001 -0.015975
0.19272999 0.086147003 -0.0079936003
0.19329999 0.087035999 -0.0066924999
0.19377001 0.087723002 -0.0079282997
0.19354001 0.086874001 -0.0080378996
0.20331 0.086758003 -0.011421
0.20816 0.088473998 -0.015255
0.21106 0.088606998 -0.016186001
0.21308 0.088257998 -0.016639
0.21281999 0.088276997 -0.016511999
0.21394999 0.088661999 -0.017269
0.20852 0.088529997 -0.01389
0.21056999 0.089511998 -0.015344
0.21294001 0.088624999 -0.017099001
0.21274 0.089785002 -0.017666999
0.20595001 0.093502998 -0.013149
0.20857 0.094200999 -0.014882
0.20675001 0.095408 -0.015144
0.20896 0.096514001 -0.015057
0.2131 0.12521 -0.016666999
0.21337 0.12509 -0.017028
0.21243 0.12445 -0.016889
0.21302 0.12661 -0.016107
0.21416999 0.12605 -0.018502999
0.20524 0.12582 -0.013559
0.20429 0.1265 -0.01362
0.21467 0.12803 -0.018045001
0.20355999 0.12645 -0.012242
0.2027 0.12748 -0.012575
0.20656 0.12732001 -0.013766
0.21597999 0.12589 -0.018252
0.21513 0.1256 -0.018112
0.21458 0.12716 -0.018183
0.20776001 0.1304 -0.014786
0.21620999 0.12999 -0.018103
0.21678001 0.13080999 -0.018483
0.20923001 0.13150001 -0.014792
0.20964999 0.13142 -0.014913
0.20891 0.13275 -0.014905
0.21401 0.13287 -0.017658999
0.21610001 0.13551 -0.018762
0.21105 0.13696 -0.015546
0.21492 0.13639 -0.017981
0.21433 0.13799 -0.017687
0.21681 0.13815001 -0.019037001
0.20341 0.13706 -0.012907
0.20136 0.1372 -0.011985
0.2027 0.13778 -0.011983
0.21605 0.1373 -0.017659999
0.21156 0.14179 -0.015431
0.20480999 0.14335001 -0.013462
0.20994 0.1441 -0.016032999
0.20794 0.14703 -0.014075
0.20629001 0.14521 -0.014335
0.20562001 0.14588 -0.01322
0.20924 0.14663 -0.016117999
0.20739999 0.14776 -0.01469
0.19296999 0.051259998 -0.0063505
0.19564 0.051514 -0.0074514002
0.19055 0.051684 -0.0054071001
0.19631 0.051525999 -0.0094630998
0.18724 0.053502999 -0.0034198
0.20039 0.053971998 -0.010299
0.20501 0.054352 -0.013716
0.20618001 0.054419 -0.014663
0.20421 0.053753 -0.01284
0.20394 0.055300001 -0.012478
0.2049 0.054657001 -0.014095
0.20637999 0.056042999 -0.013384
0.20400999 0.056692 -0.012569
0.18421 0.057027001 -0.0025887
0.21735001 0.056868002 -0.017542001
0.21709 0.056331001 -0.017496999
0.18438999 0.057379 -0.0028337999
0.22046 0.058065001 -0.020164
0.21893001 0.056821998 -0.018603001
0.22371 0.057638999 -0.020881001
0.22504 0.059634998 -0.022289
0.22584 0.058228001 -0.022293
0.18195 0.059976 -0.0022342999
0.18198 0.060318001 -0.001881
0.22737999 0.060300998 -0.022895999
0.18085 0.060203001 -0.0012153001
0.22934 0.063211001 -0.024079001
0.22909001 0.063307002 -0.024166999
0.17761999 0.067174003 -0.0001496
0.17837 0.065663002 3.2037002e-05
0.17805 0.066119999 0.0013714
0.22687 0.070022002 -0.023186
0.2262 0.070367001 -0.022069
0.22476999 0.071613997 -0.022653
0.18174 0.071854003 -0.001236
0.18363 0.072118998 -0.0038796
0.22322001 0.07316 -0.021399001
0.223 0.073922001 -0.020297
0.18505999 0.073881 -0.0029521999
0.18431 0.075851001 -0.0020911
0.18219 0.077439003 -0.0016207
0.18375 0.079263002 -0.0023294
0.18829 0.079328001 -0.0044505
0.18922 0.079085 -0.0050960998
0.19002999 0.079205997 -0.0066899001
0.19185001 0.079273999 -0.0061209002
0.19052 0.078625001 -0.0053617
0.20383 0.078787997 -0.011715
0.22302 0.079535998 -0.020781999
0.19298001 0.084946997 -0.0073684999
0.19292 0.085715003 -0.0071475999
0.20446 0.08636 -0.011749
0.19525 0.085295998 -0.0087823998
0.19183999 0.085608996 -0.0059929001
0.20730001 0.087233998 -0.013303
0.19605 0.087077998 -0.0082582999
0.1946 0.087596998 -0.0082261004
0.20779 0.086726002 -0.014238
0.19146 0.086847998 -0.0067579001
0.19189 0.087714002 -0.0074224002
0.19520999 0.089561999 -0.0084562004
0.19357 0.088343002 -0.0055069998
0.21269999 0.087912999 -0.015467
0.21423 0.088009998 -0.016742
0.20302001 0.086916 -0.01187
0.20147 0.089368999 -0.012287
0.21456 0.088793002 -0.017410999
0.21386001 0.090112001 -0.01674
0.21322 0.090283997 -0.016833
0.21179999 0.091752 -0.016907999
0.21103001 0.092377998 -0.015
0.21022999 0.092811003 -0.015605
0.2111 0.092652 -0.015636999
0.20919 0.094448999 -0.014289
0.20816 0.094945997 -0.014786
0.20756 0.095168002 -0.013639
0.21174 0.12234 -0.015931999
0.21285 0.12205 -0.0166
0.21331 0.12198 -0.016647
0.21183001 0.12371 -0.015545
0.21279 0.12445 -0.016298
0.21355 0.12306 -0.016757
0.21338999 0.1244 -0.016790001
0.21174 0.12538999 -0.016669
0.20412999 0.12492 -0.012944
0.20348001 0.12471 -0.011449
0.20313001 0.127 -0.013198
0.20550001 0.12567 -0.013219
0.21469 0.12451 -0.017742001
0.2138 0.12736 -0.017253
0.20736 0.12646 -0.013234
0.2017 0.12815 -0.01117
0.20266999 0.1285 -0.011515
0.21257 0.12757 -0.015348
0.21309 0.12857001 -0.016346
0.20888001 0.12710001 -0.013882
0.20898999 0.13 -0.014922
0.21247 0.12988999 -0.016895
0.21651 0.12755001 -0.017597999
0.21635 0.12915 -0.018375
0.20135 0.12954 -0.011742
0.21582 0.13083 -0.018874999
0.20799001 0.13032 -0.014406
0.21289 0.13072 -0.016349001
0.21386001 0.13198 -0.017538
0.21798 0.13183001 -0.018593
0.2174 0.13187 -0.018205
0.21371999 0.13454001 -0.016723
0.21343 0.13513 -0.016758
0.21152 0.13504 -0.015641
0.21032999 0.13500001 -0.016061001
0.21732999 0.13719 -0.018685
0.2031 0.13606 -0.011944
0.21763 0.13819 -0.018821999
0.21515 0.13628 -0.017555
0.2034 0.13884 -0.012372
0.21236999 0.13834 -0.016140001
0.21596999 0.13918 -0.018030999
0.21565001 0.13950001 -0.017671
0.20279001 0.13925999 -0.012409
0.21602 0.14004 -0.019327
0.21565001 0.14149 -0.018193001
0.21732 0.14134 -0.018355999
0.20285 0.14067 -0.012326
0.20300999 0.14266001 -0.011842
0.21126001 0.14121 -0.016067
0.20455 0.14234 -0.012836
0.20403001 0.14255001 -0.013146
0.20309 0.14342999 -0.012197
0.21261001 0.14204 -0.016479
0.21156999 0.14384 -0.016323
0.21103001 0.14613999 -0.015919
0.21089 0.14634 -0.016193001
0.20652001 0.14631 -0.013179
0.20593999 0.14713 -0.014154
0.20943999 0.14768 -0.015614
0.20993 0.14677 -0.015489
0.20746 0.14820001 -0.014586
0.20893 0.14878 -0.014705
0.19539 0.051723 -0.0077761002
0.18797 0.053812001 -0.0041545001
0.20874 0.054109 -0.0144
0.18556 0.053789999 -0.0031701
0.18421 0.054862998 -0.0022324999
0.21315999 0.055004001 -0.01565
0.21359999 0.055073999 -0.016201001
0.2182 0.057018999 -0.018456999
0.18431 0.058458999 -0.0036881
0.22048999 0.057645999 -0.019410999
0.18291999 0.058984 -0.00091475999
0.17929 0.062433999 -0.0010345
0.22927999 0.061271999 -0.023525
0.17783 0.063905999 0.0007648
0.23038 0.065549999 -0.023907
0.17929 0.068603002 -6.1118997e-05
0.17848 0.068731003 -0.0010171999
0.22927999 0.069606997 -0.02283
0.1811 0.071350999 -0.00091196998
0.18367 0.072704002 -0.001607
0.18423 0.072562002 -0.002353
0.22524001 0.074845001 -0.020842999
0.22536001 0.077772997 -0.021609999
0.18223 0.077737004 -0.0028905
0.18224999 0.078431003 -0.0015581
0.22499999 0.079057999 -0.021931
0.18477 0.079430997 -0.0033608
0.20521 0.079501003 -0.012928
0.20686001 0.078520998 -0.01321
0.21180999 0.078979999 -0.015392
0.22119001 0.079213001 -0.020315001
0.20582999 0.086779997 -0.012551
0.19631 0.086782001 -0.0083811004
0.19722 0.085658997 -0.0087024998
0.19227 0.088734001 -0.0053721
0.21178 0.089647003 -0.015537
0.20299999 0.089134999 -0.011212
0.20283 0.087586001 -0.011348
0.19647001 0.088683002 -0.0082809003
0.21545 0.091240004 -0.016926
0.20356999 0.090565003 -0.012594
0.20486 0.091596998 -0.011914
0.20550001 0.092127003 -0.012737
0.20641001 0.094549999 -0.013159
0.20714 0.095821999 -0.012293
0.20929 0.095902003 -0.014921
0.21127 0.11634 -0.015457
0.21087 0.11759 -0.015347
0.21245 0.11783 -0.016326001
0.21087 0.1195 -0.015753999
0.21223 0.11908 -0.017464001
0.21154 0.12067 -0.01517
0.21204001 0.12034 -0.01598
0.21381 0.12104 -0.016236
0.21185 0.12246 -0.015604
0.2154 0.12304 -0.017759999
0.21515 0.12348 -0.017504999
0.20499 0.12231 -0.01248
0.20302001 0.12325 -0.010952
0.20466 0.12376 -0.013573
0.20604999 0.12351 -0.012929
0.20644 0.12543 -0.013318
0.21191999 0.12640999 -0.015969001
0.20249 0.1266 -0.011142
0.20861 0.12632 -0.013876
0.2141 0.12916 -0.016754
0.21777 0.13014001 -0.018898999
0.20265999 0.13056 -0.010959
0.20162 0.13132 -0.010997
0.20935 0.13275 -0.015946999
0.20237 0.13432001 -0.013127
0.21166 0.13372999 -0.01565
0.21781 0.13436 -0.0187
0.20119999 0.13479 -0.010761
0.21481 0.13546 -0.016466999
0.21904001 0.13441999 -0.018247999
0.20223001 0.13612001 -0.011502
0.20224001 0.13738 -0.011706
0.21099 0.13969 -0.016174
0.21819 0.13909 -0.019359
0.21306001 0.13995001 -0.015161
0.21495 0.14103 -0.016883999
0.21281999 0.14103 -0.016011
0.21641999 0.14226 -0.018626999
0.20280001 0.14594001 -0.01172
0.20449001 0.14499 -0.013316
0.21191999 0.14585 -0.015883001
0.20517001 0.14664 -0.012666
0.20592 0.14781 -0.013381
0.21207 0.14792 -0.015749
0.20675001 0.14951 -0.012973
0.20972 0.14973 -0.014829
0.20872 0.14892 -0.014447
0.20106 0.056960002 -0.011372
0.20333999 0.056322001 -0.011786
0.20113 0.057131998 -0.010911
0.20897 0.056682002 -0.013982
0.21008 0.055596001 -0.014287
0.20998 0.056325 -0.014671
0.20062 0.055373002 -0.01087
0.22197001 0.058431 -0.020484
0.22419 0.058373 -0.020822
0.17969 0.061117999 -0.00038310999
0.17874999 0.062001999 0.0010596
0.18218 0.075576 -0.0021941999
0.19887 0.079337999 -0.0091428999
0.19978 0.078528002 -0.0092366999
0.20129 0.079731002 -0.0097291004
0.20217 0.079204001 -0.011406
0.20832001 0.079517998 -0.013965
0.21039 0.079641998 -0.014888
0.22055 0.079241998 -0.020126
0.2189 0.078879997 -0.017703
0.20764001 0.086717002 -0.01366
0.19378 0.089527003 -0.0069154999
0.21630999 0.089254998 -0.017333999
0.21674 0.090108998 -0.017726
0.21439999 0.091328003 -0.016619001
0.20877001 0.097172998 -0.014614
0.20709001 0.098137997 -0.012701
0.21238001 0.11662 -0.016222
0.20322999 0.12236 -0.011393
0.20128 0.124 -0.011421
0.2025 0.12515 -0.010934
0.21665999 0.12456 -0.017511001
0.21052 0.1276 -0.014533
0.21160001 0.13134 -0.015503
0.21268 0.13246 -0.016119
0.21292999 0.13393 -0.016091
0.20187999 0.13399 -0.011168
0.21362001 0.13563 -0.016688
0.21270999 0.13647 -0.015676999
0.21861 0.13669001 -0.019509999
0.2186 0.13833 -0.019794
0.2016 0.14022 -0.011203
0.20157 0.14196999 -0.010983
0.21816 0.14262 -0.017921999
0.21958999 0.14286999 -0.018955
0.20176999 0.14208999 -0.010718
0.20152 0.14376999 -0.010631
0.21876 0.14418 -0.018529
0.21653999 0.14335001 -0.017357999
0.20303001 0.14577 -0.01056
0.21225999 0.14669999 -0.016052
0.20264 0.14691 -0.011757
0.20455 0.14828999 -0.012796
0.20626999 0.14972 -0.012678
0.20949 0.15084 -0.014452
0.21074 0.14927 -0.015243
0.20829 0.15076999 -0.013785
0.21111999 0.055397999 -0.014687
0.20818 0.058809001 -0.014023
0.22819 0.061121002 -0.023056
0.23014 0.065669 -0.023962
0.22464 0.072617002 -0.022186
0.19616 0.079512998 -0.0081212996
0.21496999 0.079126 -0.017480999
0.21444 0.079080999 -0.016364999
0.21676999 0.079025999 -0.01737
0.19034 0.085864998 -0.0053626001
0.19836999 0.086087003 -0.0090035005
0.19826999 0.087819003 -0.0082321996
0.19016001 0.086975001 -0.0064687999
0.21128 0.088772997 -0.013805
0.2175 0.089945003 -0.017938999
0.21792001 0.089123003 -0.018804001
0.21129 0.094865002 -0.01534
0.21145 0.11074 -0.014771
0.20971 0.10991 -0.014544
0.21116 0.11177 -0.015211
0.2096 0.11185 -0.014559
0.21148001 0.11324 -0.015957
0.21014 0.11255 -0.014993
0.21018 0.11441 -0.014168
0.21087 0.11553 -0.015205
0.21214999 0.11319 -0.01553
0.21319 0.11547 -0.015518
0.2142 0.11852 -0.016275
0.21447 0.11908 -0.016625
0.21514 0.12069 -0.017148999
0.20225 0.11885 -0.010931
0.20191 0.12012 -0.011013
0.20363 0.12114 -0.011659
0.20524999 0.12109 -0.011553
0.20238 0.12184 -0.010619
0.20613 0.1218 -0.012722
0.20678 0.12349 -0.013313
0.208 0.12339 -0.013093
0.20866001 0.12531 -0.013141
0.21116 0.12627 -0.014762
0.2104 0.12706 -0.014352
0.20045 0.12599 -0.010367
0.2001 0.12737 -0.010088
0.21026 0.12965 -0.014929
0.21106 0.12937 -0.015496
0.21335 0.13143 -0.015721001
0.21111 0.13124999 -0.015398
0.20102 0.13263001 -0.011034
0.21919 0.13289 -0.018865
0.21896 0.13364001 -0.018617
0.21216001 0.13594 -0.015721001
0.20031001 0.13538 -0.0098791998
0.21950001 0.13478 -0.019086
0.22024 0.13644999 -0.018993
0.21441001 0.13783 -0.016836001
0.21983001 0.13766 -0.019297
0.20012 0.13754 -0.0098879999
0.20094 0.13942 -0.0098809004
0.21378 0.14064001 -0.017603001
0.22014 0.14050999 -0.019481
0.2194 0.14 -0.018888
0.21517 0.14137 -0.016821001
0.21569 0.14415 -0.016714999
0.21765 0.14519 -0.018633001
0.21695 0.14557999 -0.017615
0.21671 0.14638001 -0.017209999
0.20358001 0.14786001 -0.011256
0.21254 0.14820001 -0.016775999
0.21211 0.15035 -0.015662
0.20687 0.15125 -0.013785
0.21286 0.15041 -0.015531
0.19494 0.052322 -0.0079691997
0.19734 0.053619999 -0.0077185002
0.20956001 0.053991999 -0.014573
0.18268 0.056060001 -0.0016824
0.183 0.056938998 -0.00041655
0.1842 0.057034001 -0.0023546999
0.19905999 0.057344001 -0.0086540002
0.19784001 0.056111 -0.0088932002
0.19975001 0.056373 -0.0090186996
0.20962 0.058284 -0.013708
0.20885 0.060481999 -0.013291
0.18164 0.058573 -0.0014934
0.22860999 0.059199002 -0.022297001
0.17936 0.061212 -6.3913001e-05
0.17911001 0.062022001 -2.7409001e-06
0.17847 0.068604 -0.00085431
0.22964001 0.069752999 -0.023184
0.18476 0.074826002 -0.0022741
0.18179999 0.077687003 -0.0012959
0.19453999 0.080095001 -0.0070973001
0.18991999 0.088550001 -0.0051473998
0.21430001 0.088058002 -0.015683001
0.19789 0.087885998 -0.0091057997
0.20122001 0.088412002 -0.0088649997
0.19137999 0.089624003 -0.0055351998
0.21907 0.089865997 -0.018107999
0.21894 0.088729002 -0.018694
0.21264 0.092981003 -0.015565
0.20657 0.095329002 -0.012656
0.21163 0.095955998 -0.014649
0.20578 0.096224003 -0.013062
0.20967001 0.097727999 -0.014355
0.20972 0.099473998 -0.013588
0.20711 0.099376999 -0.013549
0.20990001 0.10665 -0.014523
0.20871 0.10643 -0.014073
0.20993 0.10792 -0.014091
