# .PCD v0.7 - Point Cloud Data file format
VERSION 0.7
FIELDS x y z
SIZE 4 4 4
TYPE F F F
COUNT 1 1 1
WIDTH 1636
HEIGHT 1
VIEWPOINT 0 0 0 1 0 0 0
POINTS 1636
DATA ascii
0.16766 0.046599001 0.23092
0.16601001 0.046797998 0.23176
0.16531 0.047392 0.2318
0.1654 0.047215 0.2314
0.16411 0.047067001 0.23366
0.18502 0.051796999 0.22227
0.18426999 0.052285001 0.22136
0.18561 0.052801002 0.22109
0.18375 0.052843001 0.22330999
0.18282001 0.052602001 0.22293
0.18323 0.054257002 0.22226
0.18511 0.054265 0.22131
0.18288 0.054988001 0.2234
0.18624 0.055794999 0.22057
0.18743999 0.055624999 0.22074001
0.18501 0.053975001 0.22037999
0.18782 0.056051001 0.22077
0.1926 0.060973 0.21813001
0.19357 0.061565999 0.21786
0.19532 0.06177 0.21615
0.19465999 0.060963999 0.21715
0.19231001 0.061609 0.21649
0.1964 0.063303001 0.21663
0.19459 0.064001001 0.21544001
0.19492 0.063977003 0.21526
0.19558001 0.064923003 0.2159
0.19723 0.065676004 0.21663
0.18827 0.064216003 0.22130001
0.17606001 0.065416001 0.2264
0.18898 0.064741001 0.22060999
0.18888 0.065214999 0.21851
0.17794 0.065871999 0.22579999
0.19616 0.066379003 0.21641
0.1901 0.066241004 0.21874
0.17595001 0.066545002 0.2262
0.17552 0.066964 0.22638001
0.17467999 0.065690003 0.22748999
0.17412999 0.066400997 0.22731
0.18679 0.065889001 0.22111
0.17926 0.066524997 0.22487
0.17817999 0.066675998 0.22418
0.19554 0.067042999 0.21534
0.19275001 0.068241 0.21865
0.1911 0.067680001 0.21896
0.1868 0.066657998 0.22129001
0.18675999 0.067144997 0.22156
0.18648 0.066907004 0.22168
0.1841 0.067703001 0.22228999
0.19584 0.067562997 0.21608999
0.18386 0.067932002 0.22223
0.1851 0.068000004 0.2216
0.18223 0.068419002 0.22289
0.17996 0.068058997 0.22462
0.19282 0.067852996 0.21777999
0.18641999 0.069638997 0.22171
0.18459 0.068400003 0.22341
0.18450999 0.066862002 0.22183999
0.17257001 0.067971997 0.22764
0.19246 0.068107001 0.21871001
0.18502 0.068733998 0.22253001
0.18319 0.068575002 0.22326
0.18260001 0.068044998 0.22325
0.17155001 0.068443999 0.22803
0.19351 0.067887999 0.21759
0.19307999 0.069211997 0.21741
0.18464001 0.069435 0.22166
0.18426999 0.069606997 0.22158
0.1833 0.06944 0.22276001
0.18336 0.068092003 0.22338
0.18602 0.068265997 0.22069
0.17273 0.068907999 0.22849999
0.17123 0.070248999 0.22788
0.17068 0.071617998 0.22842
0.16981 0.071547002 0.22861999
0.17023 0.073069997 0.22831
0.16846 0.072474003 0.22943
0.13641 0.072935998 0.24651
0.1648 0.072480999 0.23032001
0.16571 0.072894 0.23153999
0.13528 0.072590001 0.24822
0.16439 0.072356999 0.23286
0.15881 0.074304 0.23504999
0.14334001 0.073480003 0.24426
0.14259 0.072503 0.24333
0.14153001 0.074100003 0.2428
0.13583 0.07361 0.24745999
0.13338999 0.072466999 0.24683
0.13368 0.073054999 0.24814001
0.13416 0.073551998 0.24821
0.16126999 0.073605999 0.23342
0.15845001 0.073776998 0.23532
0.14177001 0.073458001 0.24416
0.14075001 0.073904 0.24427
0.14034 0.074316002 0.24350999
0.14076 0.073983997 0.24481
0.14041001 0.074662 0.24492
0.13955 0.074914999 0.24607
0.13898 0.075211003 0.24549
0.13168 0.075214997 0.24876
0.13277 0.074546002 0.24781001
0.13158999 0.075122997 0.24877
0.13978 0.075530998 0.24608
0.13762 0.076972999 0.24517
0.13661 0.074995004 0.24608
0.1375 0.076442003 0.24602
0.13330001 0.077058002 0.24911
0.13600001 0.078123003 0.24753
0.13289 0.078235 0.24766999
0.13512 0.077221997 0.24664
0.13387001 0.078552 0.24776
0.13243 0.079282001 0.24812999
0.13424 0.079102002 0.24739
0.13358 0.078259997 0.24895
0.13232 0.078362003 0.24886
0.1714 -0.051715001 0.22653
0.17151 -0.051509999 0.2289
0.17371 -0.049984999 0.22837999
0.17512999 -0.049293999 0.22590999
0.18303999 -0.036424 0.22253001
0.18263 -0.034054 0.22297999
0.18437 -0.02978 0.2225
0.18492 -0.025029 0.22126999
0.18542001 -0.026231 0.22217
0.18446 -0.021753 0.22156
0.18517999 -0.023391001 0.22041
0.18478 -0.022221999 0.22104
0.18492 -0.018981 0.22069
0.18449999 -0.012811 0.22266001
0.18285 -0.011654 0.22171
0.18448 -0.010918 0.22147
0.18296 -0.0068282001 0.2225
0.18229 -0.0035852999 0.22336
0.17816 0.0064897002 0.22477999
0.17456 0.0096591003 0.2265
0.17428 0.012488 0.22751001
0.17347001 0.01051 0.22601999
0.16848999 0.016867001 0.22976001
0.16571 0.019438 0.23084
0.15834001 0.027287001 0.23389
0.19438 0.031270001 0.21597999
0.19182 0.032054 0.21713001
0.18791001 0.032031 0.21968
0.1857 0.032997001 0.22057
0.19625001 0.032855999 0.21579
0.19563 0.03356 0.21659
0.19475999 0.035546999 0.2175
0.19454999 0.035046998 0.21506999
0.19493 0.036033001 0.21671
0.19272 0.035131998 0.21724001
0.19264001 0.037034001 0.21766999
0.19149999 0.036777001 0.21807
0.19215 0.038217999 0.21852
0.19169 0.036713 0.21610001
0.19042 0.039501999 0.21872
0.19074 0.039005999 0.2193
0.18978 0.039957002 0.21847001
0.18991999 0.041804999 0.21833
0.18824001 0.040669002 0.22
0.17636 0.041598 0.22676
0.17470001 0.044222999 0.22701
0.18544 0.045136001 0.2218
0.17146 0.045028999 0.22847
0.18447 0.045474 0.22099
0.16498999 0.046294998 0.23131
0.18448 0.051495999 0.22236
0.18453 0.053250998 0.22098
0.18239 0.053741001 0.2219
0.18392999 0.053357001 0.22239999
0.18544 0.054903999 0.22014999
0.18878999 0.057208002 0.21831
0.18798999 0.056345999 0.2193
0.19169 0.061590999 0.21659
0.1899 0.066041999 0.21972001
0.18649 0.067110002 0.21984001
0.18732999 0.065840997 0.21988
0.18756001 0.067799002 0.22086
0.17913 0.067047 0.22483
0.18062 0.068430997 0.22326
0.19092999 0.067566 0.21873
0.18692 0.068801999 0.22079
0.18012001 0.068355002 0.22356001
0.18305001 0.069095001 0.2221
0.18148001 0.070156001 0.22223
0.19385999 0.069348 0.21679001
0.19197001 0.069518 0.21684
0.19114 0.07 0.21743
0.18415999 0.068209 0.22205
0.18203001 0.069248997 0.22269
0.18438999 0.069779001 0.22081
0.18396001 0.070349 0.22172999
0.18391 0.071023002 0.22203
0.13609999 0.071364999 0.24643999
0.13485 0.072807997 0.24706
0.16776 0.072518997 0.23022
0.13381 0.071781002 0.24608
0.16688 0.072949 0.2308
0.14369 0.072605997 0.24307001
0.14444 0.072313003 0.24265
0.13427 0.07316 0.24766999
0.16168 0.073953003 0.23328
0.16176 0.073207997 0.23353
0.16001999 0.074031003 0.23413
0.13925 0.075175002 0.24501
0.13792001 0.076844998 0.24552999
0.13694 0.078565001 0.24583
0.1349 0.076787002 0.24778999
0.17016 -0.051752999 0.22799
0.17267001 -0.050547 0.22510999
0.17286 -0.050085999 0.22589999
0.17095999 -0.051194999 0.22806001
0.17106999 -0.050255999 0.22597
0.17283 -0.050145999 0.22569001
0.17758 -0.047455002 0.22438
0.17746 -0.046294998 0.22425
0.17894 -0.045024 0.22434001
0.17832001 -0.045587 0.22394
0.17987999 -0.041448999 0.22222
0.17895 -0.041097 0.22217999
0.18204001 -0.038022999 0.22149999
0.18314999 -0.035096999 0.22215
0.18440001 -0.031443998 0.22087
0.184 -0.025037 0.22052
0.18457 -0.019270999 0.22105999
0.18345 -0.01846 0.22015999
0.18437999 -0.018955 0.22133
0.18430001 -0.01701 0.22024
0.18489 -0.01458 0.22182
0.18169001 -0.0063395002 0.22316
0.18208 -0.0067214002 0.22235
0.18152 -0.0019023 0.22344001
0.18006 0.0016056 0.22369
0.16247 0.021299001 0.23117
0.16438 0.021354999 0.23119
0.1621 0.02318 0.23169
0.15921 0.023366001 0.23291001
0.15907 0.025551001 0.23356999
0.15793 0.025883 0.23518001
0.15737 0.025717 0.23475
0.1578 0.026518 0.2348
0.19566 0.031122999 0.2156
0.1911 0.03215 0.21893001
0.18864 0.032051001 0.21913999
0.18971001 0.032997001 0.21841
0.18203001 0.032876 0.22127999
0.18258999 0.032791 0.22269
0.1833 0.032674 0.22359
0.18350001 0.033248 0.22084001
0.19705001 0.034529001 0.21472
0.19623999 0.035321999 0.21592
0.19448 0.035238001 0.21578
0.19487999 0.035572998 0.21537
0.19414 0.036637999 0.21592
0.19154 0.037767 0.21778999
0.18955 0.040849 0.21992999
0.18025 0.040959001 0.22321001
0.17989001 0.041248001 0.22188
0.18858001 0.041494999 0.21969999
0.18754999 0.041429002 0.21856999
0.18095 0.040617999 0.22318999
0.17716999 0.041409001 0.22437
0.18700001 0.042242002 0.21991999
0.17567 0.041999999 0.22627001
0.17583001 0.042748999 0.22495
0.17487 0.043234002 0.22533999
0.18647 0.042606998 0.22005001
0.18481 0.042206999 0.22088
0.18644001 0.043471999 0.22108001
0.18446 0.043164998 0.22047
0.17471001 0.043074001 0.22559001
0.17422 0.044629 0.22558001
0.18407001 0.043892998 0.22138999
0.18158001 0.043919999 0.22143
0.17312001 0.044137001 0.22586
0.17158 0.044904999 0.22739001
0.16940001 0.04614 0.22914
0.16676 0.045304999 0.2313
0.16701999 0.046273999 0.22984
0.18495999 0.053126 0.22108001
0.18511 0.052531999 0.22251
0.18352 0.055018999 0.22138
0.18481 0.054109 0.22114
0.18806 0.056536 0.21972001
0.19 0.058740001 0.21938001
0.18994001 0.057077002 0.22022
0.19379 0.062042002 0.21594
0.19320001 0.062490001 0.21644001
0.19476999 0.062279001 0.21599001
0.19594 0.063955002 0.21565001
0.1948 0.065081 0.21573
0.19517 0.064910002 0.21546
0.18779001 0.066864997 0.21961001
0.17759 0.066464998 0.22531
0.19597 0.066930003 0.21523
0.18736 0.067584001 0.21941
0.17775001 0.067737997 0.22279
0.17922001 0.067790002 0.2246
0.17223001 0.066606998 0.22819
0.17276999 0.066992 0.22763
0.17182 0.067930996 0.22628
0.18606 0.069303997 0.22031
0.17145 0.068859003 0.22757
0.18550999 0.070225 0.22025999
0.18548 0.069165997 0.21992999
0.18258999 0.069508001 0.2226
0.18149 0.069580004 0.22303
0.18278 0.069169998 0.22239
0.17127 0.070364997 0.22789
0.16955 0.072305001 0.22916999
0.16024999 0.073207997 0.23355
0.15897 0.073789001 0.23435999
0.15791 0.073155001 0.23359001
0.13786 0.076986 0.24302
0.13327 0.079623997 0.24751
0.16870999 -0.053018998 0.22921
0.16958 -0.051883001 0.22734
0.16834 -0.052593999 0.22847
0.17494 -0.049272999 0.22668999
0.17651001 -0.048009999 0.22542
0.18009 -0.042665001 0.22362
0.18143 -0.039252002 0.22233
0.18076999 -0.041607998 0.22226
0.18204001 -0.037503 0.22175001
0.1821 -0.037469 0.22267
0.18226001 -0.038001001 0.22192
0.18268999 -0.035808001 0.22164001
0.18364 -0.032389 0.22209001
0.18458 -0.031199001 0.22025999
0.18348999 -0.030950001 0.2208
0.18392999 -0.030122999 0.22223
0.18311 -0.027681001 0.22059999
0.18432 -0.027778 0.21944
0.18433 -0.027425 0.21991999
0.18526 -0.024734 0.22043
0.18513 -0.021561 0.22191
0.18355 -0.017119 0.22059999
0.18452001 -0.015848 0.22177
0.18345 -0.01284 0.22081
0.18311 -0.011951 0.22077
0.18265 -0.0089584999 0.22074001
0.18253 -0.0088985004 0.22150999
0.18134999 -0.0052307001 0.22239
0.18155999 -0.0035453001 0.22225
0.18086 -0.0053784 0.22247
0.18111999 -0.0027421999 0.22249
0.18097 -0.0028784 0.22251
0.18026 -0.0011869 0.22247
0.18023001 -0.00080564001 0.22323
0.18009 -3.3240001e-05 0.22358
0.17905 0.0022702999 0.22318999
0.17891 0.0039658002 0.22443999
0.17737 0.0034543001 0.22362
0.17745 0.0038055 0.22515
0.17728999 0.0044996999 0.22492
0.17583001 0.0052717002 0.22513001
0.17643 0.0066918 0.22541
0.17463 0.0071161999 0.22504
0.17589 0.0076748002 0.22547001
0.17522 0.0091102999 0.22542
0.1741 0.0092821 0.22544999
0.17416 0.0090129999 0.22658999
0.17265999 0.010519 0.22687
0.17285 0.012235 0.2271
0.17296 0.012784 0.22768
0.1697 0.013711 0.22695
0.17068 0.014309 0.22753
0.17092 0.013796 0.22768
0.17167 0.013584 0.22629
0.16977 0.013687 0.22599
0.17041001 0.014294 0.22622
0.16897 0.015039 0.22707
0.16787 0.015063 0.22855
0.16991 0.015998 0.22811
0.16865 0.016453 0.22898
0.16807 0.017093999 0.22831
0.16844 0.017411999 0.22894
0.16725001 0.017254001 0.2298
0.16680001 0.017292 0.22984
0.16507 0.018733 0.23035
0.16603 0.020011 0.23117
0.16377001 0.019428 0.23058
0.16536 0.020262999 0.2307
0.16203 0.020424001 0.23105
0.16415 0.019902 0.23066001
0.16444001 0.021996999 0.23179001
0.16144 0.023094 0.23236001
0.1603 0.022203 0.23357999
0.15968999 0.025198 0.23379999
0.15725 0.027348001 0.23537
0.19354001 0.030507 0.21596999
0.19464999 0.031086 0.21489
0.19332001 0.031562999 0.21691
0.19548 0.031259 0.21551
0.19647001 0.032444 0.21501
0.19338 0.032195002 0.21713001
0.19474 0.033939 0.21434
0.18968999 0.032949999 0.21902999
0.18994001 0.033048 0.21946999
0.19659001 0.032917 0.21446
0.19678999 0.034743 0.21353
0.19555999 0.034309998 0.21396001
0.19569001 0.035030998 0.21523
0.19439 0.036579002 0.21628
0.19410001 0.035939999 0.21585999
0.19227 0.037014998 0.21623001
0.19349 0.037308 0.21736
0.19256 0.037291002 0.21777999
0.19235 0.037574001 0.21575999
0.19238999 0.038858999 0.21664999
0.19077 0.038715001 0.21687999
0.19005001 0.040018 0.21852
0.19052 0.040061001 0.21768001
0.18998 0.040525999 0.21883
0.18972 0.041586 0.21949001
0.17873999 0.041019 0.22429
0.18962 0.040805999 0.21946
0.18843 0.043219 0.22014999
0.023363 0.041531 0.30447
0.022950999 0.041214 0.30289
0.18956999 0.041960999 0.21754999
0.18972 0.042886 0.21736
0.18854 0.043269999 0.21867
0.18746001 0.042343002 0.21933
0.024852 0.042769998 0.30243
0.17614999 0.042020001 0.22551
0.18893 0.044532999 0.21841
0.18825001 0.044171002 0.21884
0.1759 0.043492001 0.22519
0.18483 0.044610001 0.22088
0.18283001 0.042845 0.22003999
0.17343999 0.043869 0.22563
0.17249 0.044879999 0.22683001
0.16633999 0.046126001 0.22994
0.16542999 0.047194999 0.22996999
0.16412 0.046868 0.23115
0.18449999 0.053580001 0.22127999
0.18416999 0.052955002 0.22054
0.18314999 0.052896 0.22184999
0.18489 0.054678001 0.22044
0.18407001 0.055599999 0.22239
0.18735 0.055052001 0.21922
0.18876 0.054141 0.21878
0.18797 0.055190999 0.21960001
0.18607999 0.053946 0.21922
0.1856 0.055183999 0.22031
0.18572 0.055158999 0.22062001
0.18437999 0.055417001 0.22098
0.18867999 0.05618 0.21878999
0.18907 0.056294002 0.21737
0.18885 0.057491001 0.21867999
0.18954 0.058022 0.21878
0.19006 0.058837999 0.21841
0.19085 0.058240999 0.21901999
0.19043 0.059048001 0.21796
0.19334 0.062150002 0.21622001
0.19449 0.063798003 0.21596999
0.18801001 0.067259997 0.21852
0.18854 0.06696 0.21971001
0.1875 0.066022001 0.2191
0.17733 0.066078 0.22481
0.17704999 0.066886 0.22483
0.17854001 0.067217 0.22507
0.17583001 0.066912003 0.22561
0.17515001 0.066692002 0.22519
0.17436001 0.066280998 0.22556999
0.17374 0.066211 0.22641
0.17229 0.067180999 0.22684
0.17326 0.065770999 0.22632
0.19563 0.067267001 0.21559
0.18782 0.066797003 0.21883
0.18734001 0.067086004 0.21975
0.17609 0.067414999 0.22472
0.1725 0.066892996 0.22723
0.19468001 0.067589 0.21565001
0.18717 0.067837 0.21782
0.19552 0.068755001 0.21569
0.18678001 0.068742 0.21931
0.17792 0.067419998 0.22337
0.1945 0.069137998 0.21507999
0.18043 0.069692999 0.22348
0.19379 0.068305999 0.21462999
0.19345 0.068673998 0.21557
0.1912 0.068521 0.2165
0.18739 0.069893003 0.21966
0.17902 0.069555998 0.22435001
0.19335 0.070234999 0.21618
0.19251999 0.068903998 0.21601
0.19174001 0.069590002 0.21769001
0.18604 0.069779001 0.22098
0.18052 0.070125997 0.22237
0.1795 0.069959 0.22303
0.18092 0.069507003 0.22166
0.18381 0.070146002 0.22167
0.18228 0.070436001 0.22227
0.18413 0.069801003 0.22089
0.18431 0.071870998 0.22193
0.18368 0.071088001 0.22113
0.17057 0.071392 0.22860999
0.16987 0.070665002 0.22746
0.17072 0.071038999 0.22733
0.1679 0.072760001 0.22815
0.16988 0.073260002 0.22791
0.16753 0.072605997 0.22947
0.16707 0.072244003 0.22879
0.16648 0.072181001 0.23002
0.16686 0.072122999 0.22955
0.16655 0.072842002 0.22996999
0.16586 0.072586998 0.23112001
0.16349 0.072980002 0.23116
0.16482 0.072492003 0.23028
0.14328 0.072558001 0.2411
0.163 0.072756998 0.23195
0.16214 0.072117999 0.23192
0.16051 0.073376998 0.23229
0.14147 0.073220998 0.24141
0.14185999 0.073577002 0.24366
0.14114 0.074372001 0.24293
0.13382 0.073582999 0.24706
0.13326 0.074933998 0.24702001
0.14049 0.074024998 0.24308001
0.13992 0.074832998 0.24344
0.13976 0.075367004 0.24409001
0.13857 0.076883003 0.24421
0.13637 0.076912999 0.24562
0.13696 0.077720001 0.24501
0.13154 0.076854996 0.24657001
0.13241 0.077262998 0.24739
0.13493 0.078635 0.24539
0.13493 0.078368999 0.24544001
0.13246 0.078515999 0.24758001
0.13377 0.078985997 0.24625
0.13293 0.078726001 0.24672
0.13242 0.07773 0.24743
0.13377 0.078405 0.24721999
0.16805001 -0.052384 0.22930001
0.16768999 -0.053509001 0.22785001
0.17081 -0.051298998 0.22777
0.17057 -0.051153 0.22637001
0.17072999 -0.050354 0.22587
0.1744 -0.049013 0.22472
0.17793 -0.045382001 0.22407
0.17857 -0.045396999 0.22466999
0.17914 -0.043584999 0.22330999
0.17953999 -0.042468999 0.22342999
0.17908999 -0.040867001 0.22163001
0.17912 -0.042335 0.22222
0.18014 -0.040116001 0.22231001
0.1813 -0.037471998 0.22125
0.18218 -0.03782 0.22144
0.18258999 -0.032614999 0.2208
0.1848 -0.021028999 0.22115999
0.18374 -0.014316 0.22075
0.18441001 -0.015308 0.22064
0.18404 -0.015799999 0.22096001
0.18328001 -0.013843 0.22058
0.1841 -0.013496 0.22042
0.18161 -0.010482 0.22116999
0.18318 -0.0075421999 0.22318999
0.18357 -0.0061834999 0.22160999
0.18224999 -0.0073052002 0.22119001
0.18234999 -0.0074772001 0.22146
0.18137001 -0.0060178 0.22126
0.18042 -0.0029756001 0.22154
0.17906 0.0018274999 0.22336
0.17713 0.0052689998 0.22256
0.1767 0.0049915002 0.2236
0.17608 0.0057847998 0.22390001
0.17491999 0.0087030996 0.22589999
0.175 0.0079370998 0.22554
0.1732 0.01037 0.22465999
0.17302001 0.011067 0.22668
0.16922 0.015802 0.22969
0.16505 0.018315 0.22935
0.16732 0.017477 0.22885001
0.16568001 0.018162001 0.23063999
0.1637 0.020710001 0.22947
0.16505 0.018231999 0.22999001
0.16285001 0.021919999 0.23025
0.16324 0.021623001 0.23129
0.16006 0.024351999 0.23351
0.15737 0.026066 0.23355
0.15651 0.026598999 0.23512
0.15577 0.026474999 0.2349
0.15573999 0.027736001 0.23495001
0.15563001 0.027518 0.23455
0.19306999 0.031677999 0.21732
0.19186001 0.032538 0.21628
0.19670001 0.033709001 0.21539
0.18765999 0.033408001 0.21998
0.18761 0.033420999 0.21794
0.19582 0.036123 0.21455
0.19509 0.035852998 0.21510001
0.19585 0.036148001 0.21468
0.19324 0.036433 0.21603
0.19237 0.038114998 0.21644001
0.18941 0.040995002 0.21788
0.18983001 0.041680001 0.21591
0.19023 0.042463001 0.21721999
0.18758 0.042405002 0.21960001
0.18964 0.042146999 0.21792001
0.18966 0.044023 0.21786
0.17557 0.044413999 0.22386
0.17218 0.044647001 0.22517
0.16497 0.045726001 0.22915
0.16445 0.046868 0.23054001
0.18598001 0.056671001 0.21976
0.1919 0.059684001 0.21675
0.19081999 0.060449 0.21726
0.18984 0.059756 0.21821
0.19476999 0.063575 0.21531001
0.19566 0.063844003 0.21483999
0.19596 0.06521 0.21473999
0.19577999 0.066462003 0.21495
0.19512001 0.066022001 0.21477
0.18811999 0.066606998 0.21817
0.17863999 0.069261998 0.22398999
0.17772 0.068512 0.22258
0.19414 0.068903998 0.21537
0.18777999 0.068581998 0.21787
0.17147 0.068540998 0.22668
0.19084001 0.068856001 0.21584
0.19199 0.069705002 0.21782
0.19163001 0.069246002 0.2158
0.17124 0.068625003 0.22725999
0.1841 0.071075998 0.22014
0.18537 0.071461 0.21986
0.18171 0.071111999 0.22251999
0.18190999 0.071928002 0.22246
0.18038 0.071194999 0.22247
0.17054 0.070459001 0.22798
0.16945 0.070485003 0.22729
0.1838 0.071822003 0.21975
0.16426 0.072495997 0.2307
0.14177001 0.073803999 0.24158999
0.14183 0.073982 0.24185
0.13912 0.075216003 0.24236999
0.14008 0.074882001 0.24338
0.14032 0.074552998 0.24302
0.1391 0.075880997 0.24439999
0.13737001 0.075861998 0.24361999
0.13228001 0.076977 0.24684
0.13422 0.078064002 0.24587999
0.17317 -0.050409999 0.22545999
0.17561001 -0.048721001 0.22384
0.17655 -0.045405999 0.22373
0.1763 -0.046875 0.22436
0.17775001 -0.045219 0.22355001
0.17759 -0.044859 0.22314
0.17903 -0.043249998 0.22211
0.17918999 -0.043379001 0.22182
0.18032999 -0.042644002 0.22333001
0.18069001 -0.039434999 0.22149
0.18138 -0.039191999 0.22096001
0.18009999 -0.038167 0.22088
0.18327001 -0.035861 0.22194
0.18345 -0.033844002 0.22014999
0.18302999 -0.033151999 0.22077
0.18258999 -0.032180998 0.22024
0.18358999 -0.032297 0.22077
0.18379 -0.031197 0.21968
0.18452001 -0.029216001 0.22098
0.18352 -0.025712 0.22031
0.1859 -0.020306 0.21941
0.18407001 -0.020455999 0.21957999
0.18382999 -0.017805999 0.2193
0.18189 -0.011733 0.22081
0.18266 -0.0086083002 0.22057
0.18092 -0.0046600001 0.22220001
0.18107 -0.0039956998 0.22352
0.18043 -0.0030542 0.22104
0.18017 -0.0024582001 0.22172
0.17929 -0.00050199003 0.22166
0.17918 0.00079447997 0.22318999
0.17653 0.0063863001 0.22472
0.17640001 0.0071387002 0.22441
0.17397 0.0083932001 0.22503
0.17396 0.0092535997 0.22510999
0.1728 0.0093783 0.22565
0.17292 0.011974 0.22614001
0.17149 0.01154 0.22536001
0.17211001 0.012934 0.22724
0.17189001 0.013503 0.22801
0.168 0.014666 0.2281
0.16867 0.016047001 0.22869
0.1649 0.018911 0.22998001
0.16295999 0.021825001 0.23209
0.16046 0.022028999 0.23169
0.16001999 0.023119001 0.23142999
0.15932 0.022877 0.23209
0.16031 0.023561001 0.23266999
0.15911999 0.022731001 0.23325001
0.15959001 0.025280001 0.23434
0.15771 0.026681 0.23494001
0.19405 0.031084999 0.21407001
0.19509999 0.032494001 0.21432
0.19578999 0.032763999 0.21476001
0.19403 0.032315001 0.21538
0.19518 0.033163 0.21416999
0.19171 0.033725001 0.21606
0.192 0.032189 0.21694
0.1963 0.033597 0.21407001
0.19686 0.034770001 0.21258
0.18686999 0.034159001 0.21989
0.18621001 0.032737002 0.22002
0.18621001 0.034368999 0.22002999
0.19679999 0.034161001 0.21317001
0.19780999 0.035537001 0.21375
0.19653 0.035179999 0.21461999
0.19596 0.036915999 0.21275
0.19599 0.036125999 0.21353
0.19345 0.037365001 0.21548
0.19325 0.03743 0.21534
0.1938 0.037493002 0.21521001
0.19318999 0.039772999 0.21540999
0.19257 0.039673999 0.21699999
0.19281 0.039397001 0.21685
0.19216 0.038863 0.21557
0.19209 0.039852001 0.21608999
0.19142 0.039367002 0.21736
0.19137999 0.040380999 0.21647
0.19167 0.040380999 0.21616
0.19088 0.042819999 0.21695
0.18522 0.041448999 0.22013
0.18528999 0.042461999 0.21954
0.18941 0.043753002 0.21646
0.18628 0.042833 0.21841
0.17572001 0.042704999 0.22353999
0.17714 0.043850999 0.22348
0.18964 0.04346 0.21782
0.18707 0.044031002 0.21802001
0.18311 0.042771 0.21999
0.18357 0.041896001 0.22056
0.18275 0.044526 0.22118001
0.18847001 0.044799998 0.21776
0.18865 0.043935999 0.21843
0.18802001 0.043145999 0.21693
0.17433 0.043745 0.22555
0.17396 0.044532999 0.22495
0.17189001 0.044698 0.22653
0.17185999 0.045513 0.22786
0.17027 0.045403998 0.22732
0.16605 0.046052001 0.22908001
0.16745 0.046866 0.22871999
0.1666 0.046735998 0.22861999
0.16305999 0.046409 0.23010001
0.16367 0.047649 0.23010001
0.16455001 0.047037002 0.2305
0.18701001 0.056203999 0.21785
0.18831 0.055968001 0.21857999
0.18639 0.055748999 0.21911
0.18592 0.056892 0.2201
0.18723001 0.055904001 0.21844
0.18932 0.057509001 0.21881001
0.18878999 0.057468999 0.21696
0.18919 0.059214 0.21708
0.19055 0.060293 0.21679001
0.19351999 0.062564999 0.21583
0.19365001 0.063105002 0.21578
0.19475999 0.062940001 0.21459
0.17183 0.066174001 0.22571
0.17285 0.066274002 0.22536001
0.19654 0.067314997 0.21472999
0.17551 0.067873999 0.22480001
0.17230999 0.06679 0.22699
0.17404 0.067015 0.22566999
0.17154001 0.067524999 0.22626001
0.19536 0.068071 0.21491
0.18816 0.066785999 0.21856999
0.18736 0.068825997 0.2186
0.19499999 0.068446003 0.21514
0.17124 0.069147997 0.22679
0.17169 0.067869 0.22623
0.19456001 0.070221998 0.21459
0.18679 0.069440998 0.21960001
0.18619999 0.069262996 0.21896
0.19276001 0.068720996 0.21509001
0.19299001 0.069622003 0.21563999
0.19046 0.069522999 0.21636
0.1901 0.068988003 0.21679001
0.18649 0.068694003 0.21995001
0.19284 0.068502001 0.21545
0.18613 0.070399001 0.2194
0.17816 0.069334999 0.22248
0.17776 0.069199003 0.2238
0.1785 0.069408 0.22176
0.18519001 0.071445003 0.21877
0.18023001 0.070101999 0.22382
0.17990001 0.070517004 0.22313
0.18122 0.071659997 0.22199
0.16992 0.072077997 0.22744
0.18291999 0.071640998 0.22026999
0.18442 0.070757002 0.22
0.183 0.070739999 0.22098
0.18325 0.071910001 0.22095001
0.18141 0.071275003 0.22202
0.16925 0.071419999 0.22754
0.18447 0.073218003 0.22044
0.16772 0.072564997 0.22822
0.16508999 0.071847998 0.22965001
0.16424 0.071690001 0.22973
0.16283 0.071523003 0.23164999
0.1637 0.073036999 0.2307
0.16230001 0.072829001 0.23106
0.14295 0.072704002 0.24189
0.13706 0.076977998 0.24376
0.13344 0.077770002 0.24608999
0.13316999 0.076711997 0.24632999
0.13338 0.077659003 0.24654
0.13565999 0.077831 0.24395999
0.13555001 0.077310003 0.24431001
0.13456 0.077514 0.24411
0.13496 0.078566 0.2445
0.13316 0.078068003 0.24673
0.13449 0.079249002 0.24639
0.13372999 0.079451002 0.24506
0.13278 0.077859998 0.24703
0.17776 -0.045039002 0.2225
0.17739999 -0.045317002 0.22248
0.18339001 -0.035146002 0.21998
0.18263 -0.031096 0.2191
0.18327001 -0.028979 0.21969
0.18368 -0.026167 0.22086
0.18504 -0.023197999 0.2199
0.18475001 -0.024065999 0.21950001
0.18440001 -0.022115 0.21968
0.18440001 -0.016047001 0.22019
0.1824 -0.012174 0.22091
0.18409 -0.0087997997 0.22045
0.18271001 -0.0082494002 0.22075
0.18174 -0.0053035999 0.22040001
0.18041 0.00077888003 0.22357
0.17532 0.0064278999 0.22344001
0.17096999 0.012546 0.22589999
0.1689 0.014684 0.22713999
0.16893999 0.014674 0.22846
0.16551 0.018650999 0.22946
0.16294 0.019378999 0.22891
0.16482 0.020663001 0.23035
0.16046999 0.024119001 0.23277
0.15714 0.024688 0.23312999
0.1551 0.027081 0.23462
0.15542001 0.028136 0.23468
0.19428 0.032012999 0.21403
0.19415 0.031946 0.21568
0.19662 0.035913002 0.21280999
0.19681001 0.036224 0.21360999
0.19478001 0.036692999 0.2146
0.19231001 0.038961001 0.21606
0.19027001 0.043616001 0.2175
0.18785 0.042810999 0.21705
0.17636 0.043972999 0.22315
0.17682999 0.042319 0.22364999
0.18821 0.043308999 0.2182
0.18719 0.043395001 0.21879999
0.16879 0.046045002 0.22774
0.16708 0.046365999 0.22826999
0.18767001 0.056008998 0.2189
0.18704 0.056926999 0.21949001
0.18625 0.057023 0.21987
0.18722001 0.058761999 0.2176
0.18963 0.058396999 0.21748
0.19405 0.063868001 0.21516
0.19388001 0.065428004 0.21452001
0.17377999 0.067001998 0.2256
0.18799999 0.068962 0.21857999
0.19412 0.069215998 0.21397001
0.18977 0.069650002 0.2172
0.18104 0.071750998 0.22152001
0.18217 0.072732002 0.22127999
0.18311 0.073178999 0.22163001
0.14159 0.072967 0.2412
0.14388999 0.073011003 0.24151
0.14155 0.073559999 0.24153
0.13912 0.075041004 0.24289
0.16992 -0.050235 0.22603001
0.17222001 -0.049858999 0.22535001
0.17098001 -0.049982999 0.22587
0.17199001 -0.049814001 0.22415
0.17380001 -0.04919 0.22481
0.17396 -0.04857 0.22417
0.17766 -0.045361001 0.22325
0.18048 -0.040414002 0.22284999
0.1803 -0.039682999 0.22024
0.18173 -0.04022 0.22086
0.1815 -0.036304001 0.22023
0.18223 -0.033369999 0.22001
0.18242 -0.03294 0.21954
0.18342 -0.032589 0.21963
0.1833 -0.030977 0.21822999
0.18395001 -0.017100999 0.21885
0.18287 -0.011476 0.21991999
0.18031 -0.00025002001 0.2216
0.17691 0.0041691 0.22294
0.17591 0.003181 0.22323
0.17586 0.0048239999 0.22254001
0.17538001 0.0082999999 0.22344001
0.17508 0.0065728999 0.22393
0.17282 0.010969 0.22566999
0.1696 0.015458 0.22739001
0.16874 0.014472 0.22589999
0.16738001 0.017331 0.22831
0.16788 0.017215 0.22707
0.16616 0.01787 0.22847
0.16520999 0.018513 0.22894
0.16455001 0.019866001 0.22894999
0.16347 0.020603999 0.22887
0.16184001 0.020896001 0.23064999
0.16173001 0.020895001 0.22968
0.15944999 0.023716001 0.23184
0.15851 0.022857999 0.23232999
0.15832999 0.024271 0.23254
0.15744001 0.024711 0.23266
0.15658 0.025211999 0.23276
0.15647 0.02619 0.23376
0.15437999 0.027881 0.2351
0.19433001 0.032607999 0.21388
0.19475 0.033934001 0.21342
0.19468001 0.033323001 0.21408001
0.19169 0.034570001 0.21563999
0.19065 0.033225 0.21652
0.19057 0.032756001 0.21731
0.19021 0.033751 0.21604
0.18999 0.035730999 0.21645001
0.18851 0.034575 0.21636
0.19709 0.035457 0.21307001
0.19688 0.035473999 0.21336
0.19525 0.037540998 0.21528
0.19685 0.036715001 0.213
0.19442999 0.03822 0.21455
0.19426 0.038594 0.21468
0.19340999 0.040442999 0.21538
0.1936 0.039707001 0.21454
0.19374999 0.040328 0.21441001
0.19114 0.039416 0.21502
0.19176 0.041823 0.21615
0.19155 0.042521998 0.21462999
0.18399 0.042601999 0.22001
0.19013999 0.042872 0.21679001
0.18221 0.042971 0.22082999
0.18327001 0.042970002 0.2212
0.18302999 0.042658001 0.21872
0.1831 0.043662999 0.22160999
0.17488 0.044617001 0.22538
0.17208 0.044190999 0.22532
0.17109001 0.044943999 0.22574
0.17132001 0.044491999 0.22543
0.16678999 0.046273999 0.22781
0.16596 0.045591999 0.22724999
0.16339 0.046767998 0.23006999
0.18785 0.057096001 0.21787
0.18754999 0.056837 0.21793
0.18928 0.060339 0.21664999
0.19044 0.060291 0.21690001
0.1885 0.060518999 0.21543001
0.19507 0.065039001 0.21377
0.19491 0.066087 0.21338999
0.19485 0.066873997 0.21258
0.19495 0.068095997 0.21354
0.17044 0.067590997 0.22539
0.17004 0.067382999 0.22643
0.18753999 0.068834998 0.21701001
0.1954 0.068425 0.21467
0.18780001 0.068709001 0.21694
0.16942 0.069623999 0.22698
0.16914 0.068543002 0.22645999
0.19233 0.070061997 0.21472999
0.19243 0.070724003 0.21478
0.17899001 0.070165001 0.22239
0.1691 0.069576003 0.22742
0.17005999 0.069399998 0.22743
0.17889 0.070973001 0.22138999
0.18003 0.072392002 0.22147
0.16802 0.070876002 0.22682001
0.16858 0.070593998 0.22803999
0.18144999 0.071900003 0.22035
0.17967001 0.071526997 0.22171
0.17963 0.072057001 0.22070999
0.18287 0.072861999 0.22116999
0.16248 0.072511002 0.23030999
0.14102 0.074190997 0.24168999
0.13293 0.075029999 0.24484
0.13357 0.076563999 0.24519999
0.13936 0.075248003 0.24367
0.13590001 0.077221997 0.24429999
0.13654 0.077509999 0.2438
0.16862001 -0.051895998 0.22589999
0.17091 -0.051017001 0.22599
0.17394 -0.049357999 0.22415
0.17437001 -0.048521999 0.22473
0.17535999 -0.047394 0.22457001
0.17504001 -0.045759 0.22323
0.17591999 -0.045150001 0.22240999
0.17827 -0.043880999 0.22242001
0.17824 -0.042667001 0.22134
0.17872 -0.042197999 0.22177
0.1796 -0.041882001 0.22130001
0.18079001 -0.038570002 0.21912999
0.18152 -0.035050001 0.22062001
0.1823 -0.034903001 0.21971001
0.18357 -0.028571 0.2192
0.18362001 -0.026218001 0.21917
0.18253 -0.025286 0.21894
0.18426999 -0.02496 0.21895
0.18238001 -0.019742999 0.21866
0.18334 -0.018704001 0.21889
0.18313 -0.017873 0.21885
0.1833 -0.016628999 0.21949001
0.18341 -0.014277 0.22036
0.18369 -0.0149 0.21848001
0.18243 -0.012411 0.21951
0.18194 -0.01228 0.21996
0.18278 -0.0095272996 0.21942
0.18275 -0.0088842995 0.22045
0.18174 -0.0087952996 0.21995001
0.18117 -0.0047319001 0.21954
0.18068001 -0.0054560001 0.22066
0.18048 -0.0039419001 0.22115999
0.17946 -0.0025663001 0.22048
0.18012001 -0.0013398 0.2219
0.1788 -0.0010952 0.22142
0.17897999 0.00021545999 0.22228999
0.17813 0.0024590001 0.22267
0.17692 0.0025432999 0.22245
0.17666 0.0062205 0.22356001
0.17572001 0.0063450001 0.22259
0.17567 0.0068434002 0.22366001
0.17309999 0.0089886999 0.22435001
0.17341 0.0094152996 0.22473
0.17178001 0.01001 0.22463
0.17316 0.011292 0.22509
0.17242999 0.012937 0.22513001
0.17247 0.011582 0.22544
0.17185999 0.012864 0.22578
0.16963001 0.016334999 0.22708
0.16711999 0.015309 0.22631
0.1662 0.017851001 0.22815999
0.16649 0.018405 0.22803999
0.16398001 0.020368 0.22825
0.16281 0.020414 0.22955
0.16259 0.020226 0.22944
0.16094001 0.022360999 0.23038
0.15944 0.023449 0.23164
0.15922999 0.022491001 0.23225001
0.15918 0.024106 0.23231
0.15785 0.022668 0.23228
0.15549999 0.025303001 0.23425999
0.15673999 0.025536999 0.23363
0.19538 0.032931 0.21416
0.19564 0.033652 0.21328001
0.19255 0.033780001 0.21393999
0.19351999 0.034038998 0.21367
0.19549 0.033498999 0.21348999
0.19683 0.033826999 0.21176
0.19194999 0.034871999 0.21559
0.19087 0.034168001 0.21603
0.19712 0.034182001 0.21224
0.18909 0.035362002 0.21703
0.18837 0.035188999 0.21800999
0.18967 0.033511002 0.21641
0.18862 0.034506999 0.21630999
0.19636001 0.035365999 0.21262001
0.19724 0.03596 0.21198
0.19644 0.036587998 0.21165
0.1952 0.037276998 0.21272001
0.19706 0.038164999 0.21309
0.19436 0.036906999 0.21272001
0.19473 0.038070001 0.2128
0.19441 0.038228001 0.21457
0.1944 0.039462999 0.21378
0.19289 0.038936999 0.21454
0.1921 0.040934999 0.21443
0.19406 0.041145001 0.21454
0.19272999 0.041412 0.21499
0.19162001 0.041827001 0.21431001
0.19137 0.042505998 0.21599001
0.19087 0.043954998 0.215
0.19062001 0.042787001 0.21549
0.18903001 0.043892 0.21685
0.1892 0.043042 0.21683
0.18802001 0.044279002 0.21662
0.18697999 0.043428998 0.21713001
0.18859001 0.043402001 0.21789999
0.18618999 0.042938001 0.21796
0.18995 0.043885 0.21506
0.19041 0.043861002 0.21495
0.18751 0.043877002 0.21799
0.18221 0.042932998 0.22054
0.18208 0.043017998 0.22111
0.17633 0.044626001 0.22278
0.17592999 0.042927999 0.22335
0.1741 0.045228999 0.22421999
0.17366999 0.045235001 0.22386999
0.17383 0.044275999 0.22431999
0.16881999 0.046721999 0.22634999
0.16542 0.045977999 0.22909001
0.16495 0.046420999 0.22836
0.16388001 0.047529999 0.22793999
0.16319001 0.048342001 0.23019999
0.18799999 0.058194999 0.21831
0.18851 0.058154002 0.21692
0.19008 0.057893999 0.21629
0.18867999 0.058446001 0.21701001
0.18689001 0.058639001 0.21780001
0.18738 0.059728 0.21851
0.1856 0.058842 0.21874
0.19119 0.060865998 0.21578
0.18898 0.060749002 0.21594
0.19177 0.061105002 0.21605
0.19347 0.064222001 0.21423
0.19389001 0.065994002 0.21476001
0.19408 0.065127 0.21403
0.19407 0.064687997 0.21319
0.16999 0.069117002 0.2265
0.19422001 0.068190999 0.2131
0.18798999 0.069495998 0.21656001
0.18623 0.068800002 0.21741
0.19461 0.068793997 0.21443
0.19420999 0.070229001 0.21346
0.19046 0.070197001 0.21673
0.18988 0.069784999 0.21588001
0.18491 0.069077998 0.21799999
0.18561999 0.069532 0.21797
0.19016001 0.069808997 0.21597999
0.18368 0.072063997 0.21785
0.17713 0.070788004 0.2218
0.17865001 0.070482999 0.22178
0.1857 0.071415998 0.21958999
0.16993999 0.070981003 0.22654
0.18475001 0.071998 0.21836001
0.18111999 0.071768001 0.22157
0.16774 0.072163001 0.22671001
0.16739 0.072549999 0.22774
0.18461999 0.072336003 0.2189
0.18034001 0.073664002 0.22150999
0.16394 0.071199 0.2295
0.16348 0.07164 0.22874001
0.18441001 0.073247001 0.2189
0.18237001 0.072093002 0.2193
0.18148001 0.072800003 0.22006001
0.1436 0.073045 0.24059001
0.14334001 0.072472997 0.24053
0.14256001 0.073037997 0.24093001
0.14196999 0.073555999 0.24053
0.14071 0.075290002 0.24137001
0.13997 0.074074 0.24089999
0.14014 0.075423002 0.24051
0.14002 0.075237997 0.24166
0.13428 0.074188001 0.24420001
0.13413 0.074419998 0.24437
0.13389 0.076360002 0.24530999
0.13346 0.075712003 0.2447
0.13832 0.077221997 0.24241
0.1364 0.076632001 0.24285001
0.1328 0.077582002 0.24539
0.13496999 0.077803001 0.24376
0.13427 0.079162002 0.2445
0.13316 0.077114001 0.24582
0.13302 0.077757999 0.24501
0.13432001 0.078833997 0.24535
0.16971999 -0.052297998 0.22645
0.1735 -0.050198 0.22462
0.17231999 -0.049277 0.22346
0.1789 -0.041195001 0.22060999
0.17941 -0.039671 0.22033
0.18036 -0.039669 0.22023
0.18121 -0.036628 0.22013
0.1815 -0.037315998 0.22001
0.18179999 -0.037687 0.22032
0.18257 -0.031539001 0.21957999
0.18312 -0.029328 0.21852
0.18340001 -0.026897 0.21878
0.18458 -0.023156 0.2185
0.18416999 -0.021708 0.2182
0.18357 -0.019780001 0.2189
0.18289 -0.012837 0.21873
0.18292999 -0.012831 0.21773
0.18093 -0.010449 0.2203
0.18125001 -0.0071529001 0.21936999
0.17959 -0.0021931001 0.22144
0.17873 0.0021879 0.22138
0.16987 0.013941 0.22559001
0.16677999 0.016860999 0.2272
0.1666 0.015101 0.22695
0.16707 0.015848 0.22758
0.16354001 0.018118 0.22878
0.15919 0.022913 0.23055001
0.15609001 0.024572 0.23383
0.19386999 0.033966001 0.21349999
0.19178 0.03455 0.21443
0.19404 0.03765 0.21359999
0.19410001 0.040431999 0.21283001
0.19318999 0.040415999 0.21421
0.19215 0.043439001 0.21417999
0.17572001 0.044247001 0.22321001
0.16643 0.046374001 0.22833
0.16223 0.047731001 0.22966
0.19087 0.064691 0.21448
0.19502001 0.066174999 0.21376
0.17014 0.067267001 0.22509
0.18961 0.070430003 0.21673
0.18866999 0.068589002 0.21664999
0.19217999 0.070390001 0.21464001
0.19080999 0.069953002 0.21404
0.18519001 0.071070999 0.21841
0.17798001 0.072752997 0.2209
0.1821 0.072535001 0.21966
0.18303999 0.073980004 0.21864
0.1823 0.073082998 0.21909
0.18189999 0.073977999 0.22028001
0.13423 0.076485001 0.24270999
0.13412 0.076706 0.24472
0.16648 -0.053374 0.22722
0.17611 -0.047341 0.22218999
0.1771 -0.046078999 0.22148
0.17923 -0.043526001 0.22126999
0.18193001 -0.035078999 0.21889
0.18139 -0.034153 0.21895
0.18313999 -0.031552002 0.21837001
0.18204001 -0.031042 0.21816
0.18296 -0.026837001 0.21960001
0.18231 -0.02641 0.21826001
0.18328001 -0.024861 0.21800999
0.18323 -0.019388 0.21814001
0.18291 -0.017484 0.21788
0.18279 -0.018371001 0.21874
0.18299 -0.016650001 0.21832
0.18172 -0.010847 0.21852
0.18178999 -0.010915 0.21884
0.18186 -0.007611 0.21944
0.18185 -0.0068734 0.21904001
0.17887001 -0.0038693999 0.22066
0.17925 0.00041971001 0.22127999
0.17608 0.0026501 0.2221
0.17522 0.0042674998 0.22155
0.17554 0.0075774998 0.22221
0.17407 0.0090028998 0.22346
0.17120001 0.010066 0.22310001
0.17205 0.012624 0.22391
0.16445 0.017428 0.22766
0.16527 0.018758001 0.22658999
0.16266 0.021299999 0.22972
0.15865999 0.022325 0.23109999
0.15753999 0.023452999 0.23202001
0.15652999 0.023158001 0.23206
0.15704 0.024196001 0.23293
0.15575001 0.025064999 0.23221
0.15549999 0.025302 0.23272
0.15406001 0.027660999 0.23456
0.19426 0.034520999 0.21278
0.19292 0.034591001 0.21374001
0.19728 0.036506999 0.21156999
0.19679999 0.035144001 0.21021999
0.19711 0.037992999 0.21156
0.19622999 0.038084999 0.21071
0.19573 0.038252 0.21122
0.19634999 0.037732001 0.21294001
0.1953 0.038872998 0.21348
0.1955 0.038679998 0.21379
0.18483 0.041023001 0.21853
0.18282001 0.040846001 0.21851
0.18282001 0.040513001 0.21936999
0.18404 0.041537002 0.21896
0.19134 0.041053999 0.21402
0.19266 0.041379999 0.21362001
0.19164 0.042022999 0.21385001
0.19212 0.042753 0.21450999
0.18708999 0.044018 0.21625
0.18492 0.042080998 0.21627
0.18535 0.041900001 0.21829
0.18880001 0.042783 0.2156
0.19034 0.043919999 0.21551
0.19159999 0.044537 0.21446
0.19002999 0.044119 0.21414
0.19086 0.044516001 0.21498001
0.19068 0.043467999 0.21424
0.17504001 0.043602001 0.22253001
0.17308 0.044013999 0.22443999
0.16835 0.045037001 0.22701
0.16735999 0.045455001 0.22544
0.16553 0.045614999 0.22661
0.16457 0.046037 0.22733
0.16373999 0.046815 0.22843
0.16321 0.046537999 0.22856
0.18764 0.059342001 0.21654999
0.18831 0.059034999 0.21617
0.19318999 0.064828999 0.21457
0.19245 0.065139003 0.21292999
0.19306 0.066729002 0.21362001
0.19386999 0.066439003 0.21198
0.16891 0.067662999 0.22593001
0.16949999 0.067752004 0.2251
0.19396 0.067236997 0.21218
0.18604 0.068957001 0.21707
0.18513 0.069620997 0.21791001
0.18726 0.069716997 0.21663
0.19162001 0.070157997 0.21457
0.19167 0.070799999 0.21465001
0.19041 0.071376003 0.21495
0.19077 0.072420001 0.21341
0.13609 0.072325997 0.24304
0.13686 0.071957 0.24288
0.13604 0.074000999 0.24221
0.13655999 0.072284997 0.24240001
0.1846 0.073515996 0.21755999
0.18381 0.073660001 0.21789999
0.18361001 0.075018004 0.21714
0.18103001 0.074192002 0.21890999
0.18267 0.073485002 0.21916001
0.1407 0.073756002 0.23952
0.18280999 0.074353002 0.21907
0.14049999 0.074299 0.24018
0.14054 0.074667998 0.23997
0.13973001 0.074617997 0.24109
0.13928001 0.074138999 0.24131
0.13789 0.076205999 0.24164
0.13676 0.076103002 0.24255
0.13559 0.077545002 0.24392
0.16779 -0.051706001 0.22531
0.16594 -0.053592 0.22721
0.16926999 -0.050707001 0.22641
0.17061 -0.051245999 0.22442999
0.17089 -0.050220001 0.2238
0.17117999 -0.049775001 0.22454999
0.17066 -0.050592002 0.22486
0.17271 -0.049541 0.22261
0.17395 -0.047745001 0.22301
0.17489 -0.047495998 0.22209001
0.17422 -0.046505999 0.22281
0.17513999 -0.046780001 0.22225
0.17577 -0.046255 0.22201
0.17529 -0.045111999 0.2209
0.17444 -0.046737 0.22194999
0.17802 -0.043471001 0.22123
0.17733 -0.044256002 0.22194999
0.17784999 -0.043262001 0.22175001
0.17736 -0.042993002 0.22015999
0.17897999 -0.041786 0.22130001
0.17939 -0.038717002 0.21988
0.18134999 -0.037949 0.21918
0.18258999 -0.033840999 0.21907
0.18227001 -0.032745 0.21913999
0.18347999 -0.032258 0.21878
0.18228 -0.025481001 0.21898
0.18357 -0.025481001 0.21928
0.18404999 -0.024157999 0.2176
0.18393999 -0.015401 0.21798
0.18341 -0.01444 0.21832
0.18129 -0.0082631996 0.21856999
0.18088999 -0.0096961996 0.21868999
0.18111999 -0.0090007 0.21811999
0.18286 -0.0098214997 0.21886
0.18169001 -0.0080522997 0.21932
0.18198 -0.005785 0.21999
0.17918999 -0.0047199 0.21915001
0.17942999 -0.0050035999 0.21921
0.17989001 -0.0063296999 0.21904001
0.17901 -0.0041740998 0.22008
0.1789 -0.0032134 0.22074001
0.17924 -0.0017638 0.2208
0.17929 8.1281003e-05 0.22088
0.17869 0.00061361998 0.22195999
0.17868 0.0011783 0.22105999
0.17687 0.0020985999 0.22126
0.17474 0.005783 0.22226
0.17516001 0.0050335 0.22195999
0.17451 0.0067236 0.2218
0.17389999 0.0078478996 0.22312
0.17275999 0.0099061001 0.22345001
0.17219 0.0099780997 0.22227
0.17241 0.0089381998 0.22402
0.17155001 0.011883 0.22361
0.17183 0.011338 0.22495
0.17138 0.011803 0.22321001
0.16948999 0.01341 0.22555999
0.16846 0.013155 0.22442
0.16895001 0.01447 0.22517
0.16737001 0.015001 0.22585
0.16856 0.013736 0.22516
0.16684 0.014072 0.22535001
0.16735999 0.013664 0.22589
0.16548 0.017450999 0.22739001
0.16580001 0.018247001 0.22781999
0.16492 0.019312 0.22849
0.16303 0.018285001 0.22947
0.16305999 0.018564001 0.22865
0.16094001 0.021214001 0.22874001
0.16105001 0.021375 0.23018
0.16099 0.022895999 0.23058
0.15897 0.022421001 0.23009001
0.15603 0.024177 0.23117
0.15437999 0.026112 0.23344
0.15312999 0.025251999 0.2334
0.15403 0.02634 0.23345999
0.15358999 0.025959 0.23306
0.15297 0.026347 0.23415001
0.1963 0.033392999 0.21241
0.19655 0.035197999 0.21265
0.19447 0.032772999 0.21222
0.19707 0.034915 0.21121
0.19024999 0.035659 0.21435
0.19156 0.034915 0.21344
0.18915001 0.034876 0.2155
0.19667999 0.035572 0.21141
0.19835 0.036901001 0.21006
0.1981 0.037705 0.21184
0.19722 0.037818 0.21095
0.19847 0.037238002 0.20990001
0.19682001 0.038261 0.21061
0.1961 0.038651001 0.21265
0.19417 0.040126 0.2124
0.19457 0.040738001 0.21229
0.19378 0.042218 0.21334
0.18802001 0.042576998 0.21595
0.19153 0.042868 0.21468
0.1919 0.043618001 0.21405999
0.18949001 0.043260001 0.21584
0.18125001 0.043912001 0.21998
0.1813 0.043290999 0.21929
0.18088999 0.042741999 0.21992999
0.18075 0.043356001 0.21916001
0.177 0.044236001 0.22127999
0.17735 0.044737 0.2226
0.17580999 0.044208001 0.22181
0.17619 0.04501 0.22256
0.17351 0.044946998 0.22249
0.17321999 0.044606999 0.22438
0.17388999 0.04487 0.22395
0.17135 0.045065001 0.22416
0.16991 0.045428999 0.22634
0.16732 0.045790002 0.22686
0.16378 0.047373999 0.22774
0.16670001 0.046824999 0.22708
0.18841 0.057941001 0.21526
0.18890999 0.058701001 0.21577001
0.18888 0.059659 0.21529999
0.18787 0.059145 0.21606
0.18931 0.059657998 0.21562999
0.18888 0.060075 0.21514
0.1903 0.060756002 0.21652
0.18890999 0.061069999 0.21543001
0.18974 0.063552998 0.2146
0.19378 0.065985002 0.21287
0.19346 0.067487001 0.21222
0.17106 0.067997001 0.22573
0.16888 0.067818999 0.22498
0.19341999 0.067589998 0.21261001
0.19325 0.068301998 0.21251
0.1937 0.068626001 0.21353
0.16822 0.068916999 0.22633
0.19325 0.069806002 0.21270999
0.18709999 0.070496 0.21629
0.18621001 0.070078999 0.2174
0.16853 0.068227001 0.22671001
0.16933 0.067965999 0.22663
0.16785 0.069678999 0.2261
0.1857 0.070912004 0.21755999
0.19413 0.070766002 0.21344
0.18912999 0.070928 0.21513
0.19264001 0.071053997 0.21462999
0.18816 0.070119001 0.21554001
0.18464001 0.071120001 0.21856999
0.16838001 0.069996998 0.22565
0.19142 0.070432 0.21371999
0.18539 0.072545998 0.21728
0.1674 0.070104003 0.22566999
0.16558 0.070187002 0.22737999
0.18449 0.072310999 0.21718
0.17881 0.072690003 0.2208
0.14264999 0.072123997 0.23898999
0.14335001 0.072700001 0.23981
0.14206 0.072438002 0.23918
0.13766 0.071851999 0.24357
0.18093 0.074446999 0.21983001
0.17982 0.074018002 0.22086
0.18087 0.074064001 0.21931
0.13877 0.074033998 0.24162
0.13514 0.075038999 0.24443001
0.1344 0.075585 0.2432
0.13373999 0.076425001 0.24386001
0.13591 0.076729998 0.24195001
0.13371 0.076915003 0.24345
0.13555001 0.077005997 0.24206001
0.13502 0.077354997 0.24304
0.13426 0.078956001 0.24279
0.13268 0.078335002 0.24417999
0.13259 0.07767 0.24409001
0.13315 0.077839002 0.24510001
0.16765 -0.052609 0.22496
0.16852 -0.051706001 0.22664
0.17215 -0.049479 0.2235
0.17649999 -0.044695999 0.22197001
0.17808001 -0.043900002 0.2194
0.17648 -0.044364002 0.22053
0.17974 -0.042013001 0.22037999
0.17869 -0.040823001 0.21972001
0.17900001 -0.041106999 0.21966
0.17731 -0.040883001 0.21938001
0.17889 -0.040635001 0.21916001
0.17968 -0.038759999 0.21902999
0.17995 -0.039608002 0.21980999
0.17985 -0.037036002 0.22009
0.18244 -0.032457002 0.21834999
0.18277 -0.027998 0.21823999
0.18193001 -0.026919 0.21735001
0.18138 -0.0263 0.21769001
0.18285 -0.025663 0.21842
0.18252 -0.024165999 0.21718
0.18285 -0.021571999 0.2183
0.18353 -0.023158001 0.21764
0.18328001 -0.021419 0.21838
0.18357 -0.020741999 0.21754
0.18325 -0.016427999 0.21686999
0.18190999 -0.015197 0.21702
0.18195 -0.012699 0.21844
0.18212999 -0.012553 0.21802001
0.18055999 -0.012042 0.21953
0.17905 -0.0026711 0.21952
0.17852999 -0.00094052003 0.21926001
0.17904 -0.00025891999 0.22111
0.17892 0.00051059999 0.22012
0.17742001 0.0019252 0.22048
0.17730001 0.0015103 0.22059999
0.17551 0.0076712002 0.22149999
0.17332 0.0091519002 0.22244
0.16986001 0.012189 0.22448
0.1696 0.012923 0.22468001
0.16765 0.015186 0.22600999
0.16698 0.01508 0.22555999
0.16604 0.016438 0.22590999
0.16265 0.018508 0.22755
0.16222 0.018143 0.22791
0.16145 0.019432001 0.22875001
0.16237999 0.020529 0.22829001
0.16178 0.020795001 0.22999001
0.16263001 0.020200999 0.22865
0.15952 0.022332 0.23039
0.15591 0.025235999 0.23229
0.15467 0.024859 0.23157001
0.15353 0.027276 0.23341
0.19678 0.035207 0.21151
0.19236 0.034545999 0.2146
0.1908 0.035314001 0.21302
0.19786 0.034502 0.21016
0.1972 0.035530999 0.21015
0.19054 0.034993999 0.21448
0.19496 0.039115999 0.21232
0.19373 0.041379001 0.2121
0.19492 0.041331001 0.21247999
0.19266 0.042741999 0.21303
0.19222 0.043850999 0.21328001
0.18944 0.044356 0.21402
0.18937001 0.043187998 0.21511
0.17711 0.043949001 0.22044
0.17776 0.043200001 0.2216
0.17787001 0.045233 0.22221
0.17222001 0.044546001 0.22188
0.17235 0.045189001 0.22327
0.17053001 0.045115001 0.22454
0.16637 0.045906 0.22722
0.16405 0.046633001 0.22770999
0.16292 0.046785999 0.22788
0.16135 0.047398001 0.22965001
0.16271 0.04628 0.22842
0.18746001 0.060001001 0.21687999
0.18673 0.06019 0.21548
0.18886 0.060499001 0.215
0.18908 0.060621999 0.21495
0.19204 0.065555997 0.21409
0.16734 0.068478003 0.22654
0.18677001 0.070138998 0.21776
0.1673 0.068678997 0.22605
0.16680001 0.068853997 0.22535001
0.1673 0.070407003 0.22635999
0.18790001 0.071139999 0.21620999
0.18523 0.071392998 0.21686999
0.14341 0.071181998 0.2385
0.18476 0.073325001 0.21736
0.14094999 0.073297001 0.23891
0.17862 0.073181003 0.22012
0.13781001 0.075364999 0.24144
0.13821 0.074643001 0.2414
0.13547 0.076017998 0.24167
0.13473 0.076433003 0.24303
0.17017999 -0.051373001 0.22486
0.17093 -0.049362998 0.22347
0.17272 -0.048486002 0.22203
0.17359 -0.048726998 0.22253001
0.17293 -0.048450001 0.22172
0.17443 -0.048473001 0.22307999
0.17226 -0.048250001 0.22279
0.17354 -0.047347002 0.22175001
0.17567 -0.045954999 0.22126
0.17649999 -0.044594001 0.22057
0.17702 -0.042691 0.22005001
0.17805 -0.042688001 0.21983001
0.17949 -0.038504999 0.21853
0.17928 -0.037781 0.21878999
0.1807 -0.034088999 0.21743
0.18097 -0.035103999 0.21883
0.18084 -0.033204999 0.21778999
0.18268999 -0.03221 0.21843
0.18268 -0.030103 0.21724001
0.18309 -0.024086 0.21727
0.18294001 -0.021909 0.21802001
0.18184 -0.018897001 0.21710999
0.18280999 -0.018319 0.21725
0.18314999 -0.015603 0.21667001
0.18203001 -0.014376 0.21759
0.18170001 -0.011775 0.21736
0.18121 -0.013279 0.21743
0.18079001 -0.011006 0.21849
0.18039 -0.0094617 0.21899
0.17964999 -0.0078999 0.21861
0.18152 -0.0074209999 0.21885
0.18117 -0.0066657001 0.21878999
0.17893 -0.0030606999 0.21874
0.17896 -0.0024536001 0.21974
0.17828999 -0.0023564999 0.22002999
0.17791 -0.00044788001 0.22026999
0.17964 -0.00052366999 0.21992999
0.17808001 -0.00051725999 0.22059999
0.17823 0.00011941 0.2199
0.17699 0.0027266999 0.22028001
0.17653 0.0025005001 0.22
0.17603999 0.003786 0.22156
0.17557 0.003951 0.22073001
0.17538001 0.0051282002 0.22107001
0.17545 0.0060200002 0.22172999
0.17453 0.0078296 0.22228999
0.17133 0.0083023002 0.22271
0.17125 0.011541 0.22393
0.17098001 0.0081877997 0.22265001
0.17002 0.013177 0.22371
0.16915999 0.012301 0.22448
0.16762 0.014189 0.22588
0.16665 0.015117 0.22573
0.16514 0.018011 0.22615001
