# .PCD v0.7 - Point Cloud Data file format
VERSION 0.7
FIELDS x y z
SIZE 4 4 4
TYPE F F F
COUNT 1 1 1
WIDTH 1644
HEIGHT 1
VIEWPOINT 0 0 0 1 0 0 0
POINTS 1644
DATA ascii
0.11021 0.11209 0.16430999
0.086666003 0.11211 0.12846
0.086294003 0.11176 0.12826
0.085965998 0.11368 0.12819999
0.087223001 0.11223 0.12978999
0.11251 0.1142 0.16814999
0.10791 0.11187 0.1611
0.088979997 0.11321 0.13237999
0.094382003 0.11285 0.13851
0.10708 0.1135 0.16073
0.090177 0.11377 0.13493
0.090233997 0.1132 0.13421001
0.090308003 0.11406 0.13427
0.090043001 0.11439 0.13324
0.089574002 0.11419 0.13346
0.087232001 0.11617 0.12887
0.10724 0.1165 0.16024999
0.10829 0.11671 0.16259
0.10827 0.11749 0.16371
0.1109 0.11747 0.16719
0.087650999 0.11827 0.12982
0.087610997 0.11945 0.12999
0.089230001 0.11903 0.1331
0.089194998 0.11877 0.13423
0.090085998 0.1194 0.13609999
0.10938 0.11894 0.16458
0.11045 0.11975 0.16629
0.088696003 0.12097 0.13225999
0.088716 0.12029 0.13307001
0.10951 0.12059 0.16487999
0.11239 0.12091 0.1681
0.11285 0.12216 0.16878
0.11224 0.12279 0.16766
0.10942 0.1235 0.16466001
0.11286 0.12322 0.16898
0.11303 0.12386 0.16935
0.11151 0.12361 0.16592
0.11225 0.12405 0.16798
0.11225 0.1249 0.16904999
0.085031003 0.12315 0.12737
0.084141001 0.12541001 0.12581
0.087998003 0.12391 0.13167
0.089014001 0.12429 0.13236
0.089703999 0.12482 0.13313
0.089729004 0.12474 0.13184001
0.088894002 0.12822001 0.13143
0.089286998 0.12845001 0.13088
0.087127 0.12954 0.13056999
0.088060997 0.12928 0.13201
0.082858004 -0.035987001 0.12323
0.079581998 -0.034240998 0.11863
0.10888 -0.012471 0.16487999
0.082345001 0.010789 0.12167
0.082622997 0.015266 0.1233
0.083330996 0.014146 0.12266
0.088662997 0.021330999 0.1314
0.090067998 0.039599001 0.13462
0.091750003 0.041701999 0.13462999
0.089735001 0.043046001 0.13411
0.090380996 0.043368001 0.13492
0.090628996 0.048452001 0.13583
0.090434 0.048964001 0.13545001
0.091038004 0.054094002 0.13692001
0.092309996 0.053893 0.13733999
0.092476003 0.058582999 0.13841
0.10516 0.062647998 0.15717
0.10264 0.065986998 0.15470999
0.10088 0.065528996 0.15164
0.095367 0.067505002 0.14266001
0.095449999 0.067423001 0.14368001
0.097443998 0.066480003 0.14506
0.098392002 0.067812003 0.14804
0.098692998 0.067936003 0.14702
0.10245 0.068791002 0.15364
0.10055 0.068203002 0.15008999
0.10333 0.068934999 0.15478
0.096391998 0.068870001 0.14507
0.097373001 0.068984002 0.14580999
0.095059998 0.069533996 0.14273
0.095774002 0.071420997 0.14207999
0.096787997 0.072664998 0.14409
0.10195 0.074610002 0.15155999
0.1025 0.074543998 0.15332
0.096363001 0.074651003 0.14462
0.097595997 0.074267998 0.14590999
0.10093 0.074038997 0.15098999
0.099198997 0.075343996 0.14861999
0.098612003 0.075705998 0.14779
0.098422997 0.094443999 0.14785001
0.10164 0.094608001 0.15257999
0.097603001 0.096500002 0.14625999
0.10249 0.094430998 0.15403999
0.10303 0.094743997 0.15620001
0.10362 0.096761003 0.15533
0.096585996 0.096405998 0.14519
0.096458003 0.097296998 0.14380001
0.094916999 0.097659998 0.14241
0.10445 0.098759003 0.15764999
0.094153002 0.10031 0.14129999
0.093570001 0.1006 0.13993999
0.1051 0.1018 0.15739
0.093832999 0.1015 0.13992999
0.10547 0.10472 0.15861
0.092156 0.10579 0.13789999
0.091963001 0.10769 0.13891999
0.1064 0.10908 0.15807
0.10711 0.10764 0.16043
0.10619 0.10823 0.16024999
0.10703 0.10873 0.16083001
0.11192 0.10941 0.16823
0.11084 0.10736 0.16682
0.10643 0.10917 0.15922
0.10603 0.11019 0.15893
0.11052 0.10869 0.16561
0.10294 0.11101 0.15407
0.092116997 0.11049 0.13767999
0.096423 0.11071 0.14244001
0.097570002 0.11131 0.14614999
0.10901 0.11063 0.16372
0.10858 0.10907 0.16340999
0.10919 0.11038 0.16398001
0.095811002 0.1115 0.1427
0.10071 0.11248 0.15157001
0.10712 0.11038 0.16085
0.10658 0.11208 0.1591
0.086589001 0.11193 0.12915
0.086470999 0.11048 0.12925
0.086179003 0.11021 0.12794
0.10214 0.1117 0.1534
0.10074 0.11234 0.15238
0.10361 0.11154 0.15493
0.10584 0.11182 0.15908
0.11266 0.11192 0.16858
0.10745 0.11121 0.16068999
0.087039001 0.11025 0.13043
0.10489 0.11284 0.15684
0.10557 0.11216 0.15701
0.093103997 0.11364 0.13871001
0.1038 0.11314 0.15605
0.092399999 0.11292 0.13684
0.093060002 0.11486 0.13907
0.085445002 0.11481 0.1285
0.086774997 0.11772 0.13
0.11056 0.11784 0.16569
0.090883002 0.11789 0.13635001
0.090922996 0.11947 0.13671
0.10892 0.11847 0.163
0.088099003 0.12012 0.13145
0.10813 0.12202 0.16320001
0.10865 0.12421 0.16323
0.11269 0.12182 0.17028999
0.11299 0.12377 0.17066
0.11049 0.12262 0.16564
0.10959 0.125 0.16479
0.085997999 0.12358 0.12803
0.11155 0.12471 0.16700999
0.084377997 0.12386 0.12612
0.11246 0.12509 0.17004
0.088734001 0.12317 0.13388
0.083131 0.015769999 0.12465
0.081940003 0.015453 0.12206
0.087186001 0.016931999 0.13038
0.086112998 0.016062999 0.12854999
0.087306 0.018763 0.13039
0.08822 0.019435 0.13129
0.088882998 0.018645 0.13153
0.087360002 0.019606 0.13098
0.087819003 0.020912999 0.13091999
0.086815 0.022355 0.13097
0.090250999 0.038607001 0.13466001
0.090048999 0.039689001 0.13485999
0.089267001 0.041581001 0.13493
0.089351997 0.043650001 0.13471
0.086414002 0.053585 0.12921
0.085088 0.054494001 0.1284
0.091063999 0.055287998 0.13693
0.086468004 0.059392001 0.12828
0.088532999 0.059705 0.13307001
0.092588 0.061397001 0.13888
0.10271 0.065504 0.15592
0.097723998 0.067685001 0.14625999
0.10392 0.070510998 0.15583
0.10439 0.068097003 0.15655001
0.104 0.069771998 0.15791
0.094901003 0.068533003 0.14315
0.094402999 0.070027001 0.14111
0.093912996 0.071525998 0.14239
0.10387 0.071441002 0.15635
0.095394 0.072848998 0.1426
0.10374 0.072871 0.15419
0.10296 0.073224999 0.15587001
0.096258 0.075631 0.14469001
0.10149 0.075804003 0.15062
0.097516999 0.075213 0.14542
0.10197 0.075958997 0.1524
0.099572003 0.077945001 0.14997
0.097824 0.075864002 0.14603999
0.099647999 0.077353999 0.14898001
0.098288998 0.076679997 0.14721
0.099386998 0.092808999 0.14963
0.10016 0.093139999 0.15028
0.10158 0.092586003 0.15192001
0.097695999 0.094126001 0.14661001
0.10015 0.093749002 0.15114
0.096326001 0.094439 0.14526001
0.10142 0.092753001 0.15414999
0.096106999 0.096046001 0.14391001
0.10424 0.097149 0.15617999
0.094039999 0.097185999 0.1418
0.094351001 0.099101 0.14139
0.10504 0.10146 0.15884
0.093245 0.1033 0.13947999
0.10504 0.10342 0.15866999
0.10592 0.10654 0.15838
0.10577 0.10489 0.16164
0.10585 0.10389 0.16
0.10643 0.10509 0.15954
0.1068 0.10594 0.16121
0.10609 0.10661 0.15918
0.10981 0.1075 0.16602001
0.11141 0.10787 0.16804001
0.11257 0.10773 0.17031001
0.11217 0.10874 0.16962001
0.10781 0.10918 0.16226999
0.086130999 0.10893 0.12803
0.092003003 0.10972 0.13751
0.096538 0.11205 0.14697
0.098609999 0.11225 0.14869
0.096132003 0.11226 0.14397
0.097061999 0.11218 0.14501999
0.091357 0.11039 0.13593
0.092032999 0.11189 0.13756999
0.088673003 0.11203 0.13312
0.091362998 0.11275 0.1364
0.094361 0.1132 0.14145
0.088524997 0.11193 0.13232
0.090080999 0.11237 0.13521001
0.090273 0.11202 0.13383
0.10527 0.11324 0.15891001
0.10677 0.114 0.1592
0.090988003 0.11354 0.13653
0.10645 0.11521 0.16016001
0.11145 0.1148 0.16853
0.11162 0.11531 0.16723999
0.092228003 0.1148 0.13767999
0.091131002 0.11493 0.13598
0.093281001 0.11472 0.14035
0.086221002 0.11622 0.12830999
0.083639003 0.11647 0.12468
0.084512003 0.11456 0.12587
0.083330996 0.11489 0.12455
0.091403998 0.11723 0.13677
0.084633999 0.11597 0.12560999
0.085424997 0.11703 0.12687001
0.084717996 0.11763 0.12648
0.084916003 0.11854 0.12694
0.10694 0.1175 0.16226
0.10652 0.1177 0.16126999
0.11053 0.11879 0.16693
0.085634999 0.11979 0.12693
0.085542001 0.11797 0.12813
0.085729003 0.11979 0.12827
0.086599998 0.11896 0.12961
0.084530003 0.11925 0.12612
0.1084 0.12077 0.16322
0.11193 0.12081 0.16887
0.086813003 0.12338 0.12878001
0.11223 0.12402 0.17022
0.11 0.12567 0.16593
0.11096 0.12703 0.16737001
0.11119 0.12574001 0.16870999
0.084398001 0.12647 0.12632
0.088333003 0.12935001 0.13251001
0.087806001 0.13052 0.13149001
0.1064 -0.012131 0.1601
0.086373001 0.015636999 0.12996
0.087387003 0.015929 0.12898999
0.086290002 0.014143 0.12971
0.081920996 0.017049 0.12219
0.082517996 0.015930001 0.12394
0.086585 0.018331001 0.12921
0.087144002 0.023398999 0.13141
0.088001996 0.028139001 0.13251001
0.088035002 0.028011 0.13275
0.090888999 0.050522 0.13643999
0.090420999 0.052262001 0.13565999
0.089663997 0.050863001 0.1348
0.091559 0.057711001 0.13602
0.09093 0.058821 0.13662
0.10557 0.062486999 0.15832999
0.10576 0.0612 0.15700001
0.10484 0.063560002 0.15769
0.10258 0.067305997 0.15436999
0.10228 0.066729002 0.15522
0.093896002 0.067631997 0.14198001
0.10165 0.067482002 0.15231
0.096116997 0.068428002 0.14454
0.10407 0.068506002 0.1577
0.093138002 0.069643997 0.13989
0.094779998 0.068667002 0.14144
0.10403 0.070997 0.15747
0.093772002 0.071282998 0.14013
0.10246 0.074243002 0.15474001
0.10148 0.076258004 0.15384001
0.096075997 0.075595997 0.14368001
0.096276999 0.077145003 0.14565
0.10012 0.077255003 0.15075
0.10218 0.077606998 0.15281001
0.097199 0.077628002 0.14681
0.098076001 0.078887001 0.14751001
0.099157996 0.078391999 0.14963
0.098765001 0.089638002 0.14895
0.099225998 0.091544002 0.14918
0.099721998 0.091604002 0.15006
0.10133 0.091302998 0.15164
0.099826001 0.091761999 0.15092
0.098344997 0.092514999 0.14788
0.097466998 0.093084998 0.14659999
0.095459998 0.094873004 0.14433999
0.094769001 0.094281003 0.14331999
0.095004998 0.095040999 0.1425
0.10299 0.096056998 0.15639
0.092711002 0.10269 0.13887
0.10649 0.10337 0.16147
0.11223 0.1061 0.16835999
0.11051 0.10502 0.16756
0.11053 0.10594 0.16671
0.11209 0.10608 0.17031001
0.10685 0.10726 0.1622
0.10795 0.10628 0.16349
0.10884 0.10804 0.16357
0.090301998 0.10674 0.1374
0.090989999 0.10924 0.13665
0.087162003 0.10934 0.12976
0.10915 0.10951 0.16461
0.084386997 0.11096 0.12710001
0.098099999 0.11139 0.14754
0.090558998 0.11075 0.13536
0.090535 0.10988 0.13449
0.099822998 0.1117 0.15098999
0.10209 0.11268 0.15448
0.095677003 0.11268 0.14385
0.095602997 0.11374 0.14302
0.11167 0.11166 0.16982999
0.10439 0.11456 0.15676001
0.1052 0.115 0.15842
0.083784997 0.11311 0.12519
0.083512999 0.11394 0.12434
0.085003003 0.11471 0.12702
0.091957003 0.11721 0.13827001
0.11163 0.11609 0.16861001
0.11151 0.11829 0.16823
0.083682999 0.11782 0.1242
0.10803 0.11857 0.16187
0.085891001 0.12061 0.12786999
0.086676002 0.12066 0.12918
0.087462001 0.1202 0.13055
0.090030998 0.12045 0.13369
0.088058002 0.12239 0.1332
0.087692998 0.12232 0.13255
0.10686 0.12166 0.16236
0.087651998 0.12168 0.13090999
0.086843997 0.12212 0.12954
0.10732 0.12419 0.16292
0.10877 0.12486 0.16368
0.10928 0.12679 0.16542999
0.081822999 -0.036123998 0.12337
0.081228003 -0.035921998 0.12296
0.080238998 -0.035039999 0.12142
0.10528 -0.011816 0.15859
0.10631 -0.012215 0.16168
0.080333002 0.013081 0.12166
0.080658004 0.010829 0.1218
0.084103003 0.011977 0.12582999
0.080632001 0.013387 0.12129
0.083783999 0.014543 0.12594999
0.083953001 0.014452 0.12578
0.082009003 0.015822001 0.12434
0.086493999 0.018169001 0.12932
0.089598998 0.049546 0.13411
0.089493997 0.052806001 0.13440999
0.084158003 0.055029001 0.12634
0.090117998 0.056154002 0.13527
0.089256003 0.055718999 0.13383999
0.090346001 0.056520998 0.1357
0.084604003 0.057640001 0.1278
0.083926998 0.058044001 0.12779
0.090865001 0.057996001 0.13575
0.091091 0.060973 0.13744999
0.091381997 0.059512999 0.13779999
0.093216002 0.065954 0.14124
0.10338 0.067103997 0.15686999
0.10289 0.067033999 0.15798
0.093385004 0.068365999 0.1399
0.092468999 0.068898 0.13933
0.092543997 0.070234001 0.13976
0.093700998 0.072493002 0.14094
0.093456998 0.072826996 0.14117
0.094511002 0.074236996 0.14216
0.095293 0.073899001 0.14287999
0.094737001 0.075949997 0.14308999
0.10335 0.075159997 0.15514
0.095654003 0.077048004 0.14448
0.1019 0.077218004 0.15412
0.10093 0.078633003 0.15272
0.10093 0.078570999 0.15125
0.097774997 0.078229003 0.14645
0.096092999 0.078348003 0.14490999
0.099809997 0.077919997 0.14963999
0.099521004 0.080310002 0.14915
0.1001 0.080284998 0.15121
0.097352996 0.079231001 0.14658
0.098356999 0.079760998 0.1481
0.096355997 0.079447001 0.14568999
0.099890999 0.080661997 0.15096
0.099864997 0.08151 0.14917
0.097732998 0.08162 0.14667
0.098917 0.082565002 0.14841001
0.098072998 0.081559002 0.14775001
0.098499998 0.088853002 0.14933001
0.098168001 0.090153001 0.14763001
0.099082001 0.088949002 0.14985999
0.099416003 0.089810997 0.14974999
0.10061 0.090098999 0.15183
0.097488999 0.090512998 0.14659999
0.10162 0.089960001 0.15255
0.10131 0.091018997 0.15407
0.097122997 0.091563001 0.14664
0.095514998 0.090938002 0.14498
0.10233 0.091987997 0.15334
0.095858999 0.093349002 0.14445999
0.096950002 0.092997 0.14598
0.10276 0.094056003 0.15473001
0.10237 0.094237998 0.15592
0.10347 0.097468004 0.15658
0.094149001 0.099353999 0.14055
0.093440004 0.098021999 0.14074001
0.10564 0.10243 0.16037001
0.11131 0.1037 0.16835999
0.11152 0.10416 0.16877
0.11133 0.10468 0.16918001
0.092023 0.10521 0.13857
0.11017 0.1064 0.16703001
0.10746 0.10598 0.16282
0.086649999 0.10813 0.12962
0.085600004 0.10741 0.12811001
0.084307998 0.10782 0.12754001
0.085972004 0.10936 0.12783
0.088823996 0.10964 0.13443001
0.088567004 0.11086 0.13307001
0.085166 0.11199 0.1275
0.083921 0.1118 0.12624
0.084046997 0.11112 0.12558
0.083178997 0.1123 0.12461
0.10271 0.11365 0.15528999
0.11232 0.11344 0.16959
0.094196998 0.11501 0.142
0.1132 0.11523 0.17075001
0.11313 0.11382 0.17126
0.11337 0.11496 0.17227
0.11227 0.11535 0.16926999
0.11198 0.11655 0.16996001
0.092450999 0.11623 0.13986
0.10625 0.11658 0.16006
0.11259 0.11673 0.17104
0.11126 0.11757 0.16968
0.11131 0.11895 0.16867
0.083607003 0.1186 0.12476
0.084288999 0.12138 0.12704
0.084985003 0.12217 0.12738
0.085432 0.12155 0.12834001
0.089202002 0.12222 0.13438
0.090066001 0.12048 0.13549
0.10731 0.12059 0.16246
0.11185 0.12124 0.16903999
0.10901 0.12585001 0.16522001
0.077535003 -0.034260001 0.11924
0.086246997 0.013096 0.12885
0.085721001 0.012591 0.12952
0.085853003 0.015525 0.12876999
0.085665002 0.013723 0.12943999
0.080600999 0.015105 0.12164
0.080141 0.016852001 0.12165
0.082544997 0.01708 0.12558
0.085624002 0.018069999 0.12957001
0.086019002 0.020583 0.13112
0.086851999 0.025486 0.13277
0.088606998 0.038180999 0.13343
0.089074999 0.038989 0.13434
0.089258999 0.043368001 0.13503
0.089249 0.045552 0.13549
0.089284003 0.046719 0.13494
0.089636996 0.048110001 0.13434
0.088780999 0.049125999 0.134
0.088908002 0.049552999 0.13406
0.087435998 0.048849002 0.13401
0.087246999 0.053346999 0.13106
0.087720998 0.054283999 0.13424
0.087571003 0.053491998 0.1327
0.082897 0.054630999 0.12685999
0.083153002 0.055311002 0.12616
0.083593003 0.054423001 0.12617999
0.090117998 0.059827 0.13677
0.086416997 0.060148001 0.13209
0.091375999 0.061473001 0.13806
0.092358001 0.062801003 0.13936999
0.091774002 0.069026999 0.13935
0.10508 0.068659 0.15843999
0.10469 0.070168003 0.15809999
0.092409998 0.071884997 0.13959999
0.093190998 0.074128002 0.14097001
0.10255 0.074690998 0.15725
0.094235003 0.074922003 0.14264999
0.094764002 0.077815004 0.14373
0.10161 0.079071999 0.15398
0.095744997 0.07846 0.14394
0.095983997 0.079805002 0.14443
0.10088 0.079952002 0.15285
0.10119 0.079971001 0.15355
0.10076 0.081044003 0.15216
0.096337996 0.081361003 0.14559001
0.096066996 0.082966 0.14545999
0.099159002 0.083107002 0.15072
0.10005 0.082952999 0.15196
0.097231001 0.083416 0.14669
0.10035 0.081882 0.15205
0.098165996 0.083039001 0.14806999
0.098863997 0.083015002 0.14847
0.098388001 0.084486999 0.14881
0.097433001 0.08523 0.14608
0.098899998 0.084784999 0.14992
0.10036 0.083861999 0.15075
0.097680002 0.084583998 0.14819001
0.098091997 0.085556999 0.14859
0.097689003 0.085744999 0.14699
0.098978996 0.085895002 0.1504
0.098831996 0.087153003 0.14851999
0.097474001 0.086753003 0.14689
0.099959999 0.08721 0.15020999
0.097150996 0.087835997 0.14655
0.097782999 0.088372 0.14796001
0.097611003 0.089364998 0.14651
0.10063 0.087924004 0.15152
0.10015 0.087986998 0.15188999
0.10087 0.089171 0.15273
0.096510001 0.089091003 0.14607
0.096337996 0.090507001 0.14512999
0.094746999 0.093245 0.14305
0.10341 0.094787002 0.15665001
0.094281003 0.096215002 0.14176001
0.092231996 0.097955003 0.14029001
0.093041003 0.098966002 0.14035
0.10433 0.097827002 0.15838
0.092127003 0.099993996 0.14008
0.10618 0.10048 0.16061001
0.10579 0.10059 0.16147
0.10667 0.1027 0.16088
0.10571 0.10155 0.16196001
0.11186 0.10147 0.16983999
0.11127 0.10206 0.16859999
0.11205 0.10295 0.16906001
0.11061 0.10407 0.16773
0.10878 0.10443 0.16671
0.091567002 0.10438 0.13804001
0.10746 0.1055 0.16340999
0.10755 0.10488 0.16321
0.085561 0.10654 0.12797999
0.084381998 0.10642 0.12813
0.090859003 0.10664 0.13598999
0.090499997 0.10627 0.13767
0.10956 0.10585 0.16636001
0.085615002 0.1059 0.12948
0.10818 0.10785 0.16462
0.086641997 0.10891 0.1301
0.087131999 0.1094 0.13054
0.086921997 0.10898 0.13146999
0.088899001 0.10786 0.13389
0.087554999 0.1088 0.13341001
0.089772001 0.1087 0.1357
0.089883998 0.10969 0.13519999
0.088528 0.1102 0.13467
0.087173 0.11098 0.13181999
0.11276 0.11186 0.17089
0.11356 0.11088 0.17111
0.11218 0.11027 0.17058
0.11265 0.1121 0.17163
0.082929999 0.11169 0.12534
0.098807998 0.11321 0.14996
0.099477001 0.1133 0.15248001
0.099514 0.11239 0.15169001
0.084700003 0.11365 0.12711
0.095371999 0.11237 0.14636
0.099149004 0.11331 0.15353
0.10155 0.1126 0.15344
0.11305 0.11312 0.17217
0.10223 0.1144 0.15561999
0.10258 0.1141 0.15491
0.094531998 0.11444 0.14271
0.10265 0.11487 0.15666001
0.10438 0.11543 0.15808
0.10439 0.11497 0.15933
0.093423001 0.11532 0.13999
0.092978999 0.11547 0.14046
0.091117002 0.11829 0.13899
0.10495 0.11724 0.16135
0.10593 0.11824 0.16126999
0.11161 0.1177 0.16997001
0.083221003 0.12029 0.12602
0.091537997 0.1203 0.13636
0.090745002 0.11937 0.13687
0.084430002 0.12049 0.12666
0.1108 0.12032 0.16913
0.088830002 0.12381 0.13447
0.083126999 0.12461 0.12536
0.10597 0.12491 0.16314
0.11102 0.12461 0.16963001
0.089354001 0.12657 0.13616
0.089580998 0.12441 0.13649
0.089685999 0.12633 0.13462999
0.11018 0.12575001 0.16824
0.085276 0.12732001 0.12692
0.084241003 0.12804 0.12784
0.10932 0.12812001 0.16662
0.10898 0.12720001 0.1666
0.11099 0.12705 0.16725001
0.085741997 0.12937 0.13079999
0.088095002 0.13067 0.13282
0.087530002 0.13052 0.13423
0.083016001 0.14633 0.12496
0.082510002 0.14744 0.12571999
0.083199002 0.14689 0.12596001
0.084434003 0.14668 0.12725
0.083943002 0.1479 0.12574001
0.084794 0.14752001 0.12741999
0.082204998 0.14861999 0.12476
0.082636997 0.14892 0.12567
0.079733998 -0.00075489999 0.12131
0.080499999 -0.0013149 0.12246
0.081073001 -0.0019954999 0.12113
0.080807 -0.00016929999 0.12205
0.081416003 -0.0012101 0.12269
0.085594997 0.0098441998 0.12909999
0.085757002 0.01048 0.12988
0.086066999 0.010644 0.13007
0.086657003 0.0088520003 0.12985
0.086708002 0.0077582998 0.13001999
0.083515003 0.010117 0.12650999
0.079644002 0.010393 0.12128
0.086592004 0.011773 0.12921999
0.080039002 0.013734 0.12164
0.083544001 0.013703 0.12616
0.084376998 0.014904 0.12863
0.085417002 0.013496 0.12898
0.079594001 0.015101 0.12082
0.080218002 0.016902 0.12138
0.084606998 0.016584 0.12817
0.080678999 0.017743001 0.1231
0.080767997 0.017364999 0.12207
0.085683003 0.017374 0.12964
0.086092003 0.020396 0.13080999
0.087169997 0.025899 0.13358
0.087491997 0.035089999 0.13248
0.087638997 0.036787 0.13354
0.087564997 0.038242001 0.13422
0.088428997 0.041026998 0.13467
0.088684998 0.044757999 0.13451999
0.088871002 0.045821 0.13458
0.088179 0.047088999 0.13330001
0.088422999 0.047318 0.13327
0.087071002 0.050073002 0.13415
0.085151002 0.053162001 0.12989999
0.088747002 0.054281 0.13431001
0.087686002 0.059190001 0.13366
0.090103999 0.062070001 0.13652
0.091121003 0.062719002 0.13831
0.091513999 0.063367002 0.1398
0.091787003 0.063809 0.13978
0.092918001 0.064929999 0.14066
0.10416 0.065330997 0.15790001
0.10404 0.064957 0.15926
0.1035 0.067258999 0.15717
0.093923002 0.068201996 0.14189
0.093287997 0.067465998 0.14194
0.10433 0.067331001 0.15769
0.1043 0.067005001 0.15983
0.091587 0.066653997 0.13946
0.092141002 0.068490997 0.13892999
0.093464002 0.068480998 0.14065
0.091383003 0.068833999 0.13779999
0.092372999 0.068490997 0.13823999
0.092651002 0.067506999 0.14142001
0.10463 0.068535998 0.16055
0.10511 0.068981998 0.15921
0.091528997 0.070514999 0.13795
0.092549004 0.071268 0.13969
0.092077002 0.073195003 0.13953
0.092771001 0.072361 0.14077
0.10287 0.072379999 0.1574
0.10351 0.072683997 0.15768
0.091211997 0.074778996 0.14007001
0.092701003 0.074876003 0.14087
0.10351 0.074482001 0.15756001
0.10351 0.074166998 0.15719999
0.093303002 0.075007997 0.14143001
0.094414003 0.075975999 0.14263
0.10286 0.076526999 0.15673999
0.093249001 0.078063004 0.14211001
0.10225 0.077863 0.15581
0.094026998 0.078685999 0.14221001
0.10204 0.078636996 0.15479
0.094788998 0.078736998 0.14263999
0.094310999 0.080476999 0.14353999
0.094567001 0.080487996 0.14399
0.10202 0.079672001 0.15465
0.10155 0.082359001 0.15389
0.095983997 0.081836998 0.14410999
0.094848 0.082640998 0.14335001
0.10067 0.083789997 0.15262
0.095688999 0.083737999 0.14441
0.1008 0.084407002 0.15246999
0.096220002 0.084068999 0.14489
0.099335 0.086029001 0.1516
0.10055 0.084932998 0.15254
0.1007 0.086037003 0.15367
0.095624 0.085752003 0.14591999
0.096008003 0.087543003 0.14515001
0.10106 0.086530998 0.15291999
0.095959999 0.088685997 0.14515001
0.10068 0.088528998 0.1534
0.10163 0.088770002 0.15385
0.10139 0.089626998 0.15452
0.095145002 0.089538999 0.14481001
0.095252 0.090594999 0.14425001
0.095085002 0.091807999 0.14439
0.094057001 0.091454998 0.14269
0.10241 0.091568999 0.15587001
0.094008997 0.093593001 0.14283
0.10315 0.093667001 0.15654001
0.093420997 0.094821997 0.14218999
0.093497999 0.095376998 0.14195
0.094208002 0.095862001 0.14162
0.092432 0.095848002 0.14123
0.10429 0.098915003 0.15936001
0.11086 0.10087 0.16879
0.1113 0.10143 0.17027999
0.11146 0.1002 0.17005
0.091568999 0.10342 0.13831
0.11205 0.10341 0.1707
0.11096 0.10245 0.1679
0.10917 0.10286 0.16804001
0.091585003 0.10366 0.13872001
0.089965999 0.10426 0.13689999
0.10647 0.10389 0.1622
0.10772 0.10478 0.16429
0.083740003 0.10363 0.12754001
0.084409997 0.10433 0.12796
0.085276 0.10439 0.1286
0.084165998 0.10525 0.12756
0.10744 0.10443 0.1629
0.10827 0.10586 0.16423
0.11233 0.10702 0.17041001
0.084358998 0.10602 0.12682
0.085810997 0.10575 0.12906
0.10908 0.10655 0.16547
0.089372002 0.10742 0.13665999
0.089541003 0.10585 0.13506
0.088583 0.10769 0.13445
0.084383003 0.1082 0.12706999
0.083894998 0.10917 0.12628999
0.11278 0.10918 0.1706
0.11249 0.10882 0.17087001
0.11291 0.10874 0.17269
0.082826003 0.10961 0.12487
0.082634002 0.1104 0.12471
0.082989 0.10971 0.12519
0.084408 0.11116 0.12687001
0.086397998 0.10895 0.13236
0.084210001 0.11046 0.12651999
0.081113003 0.11117 0.12468
0.081859998 0.11186 0.12448
0.084904999 0.112 0.12707999
0.096757002 0.11409 0.14861
0.097681001 0.1129 0.14928
0.096919 0.11235 0.14656
0.096155003 0.11334 0.14737
0.096946001 0.11249 0.14793
0.081914999 0.11305 0.12471
0.11289 0.1135 0.17247
0.10317 0.1136 0.1565
0.10211 0.11561 0.15699001
0.094017997 0.11539 0.14323001
0.094039001 0.11526 0.14178
0.10328 0.11647 0.15859
0.082365997 0.11501 0.12508
0.082539998 0.11568 0.12468
0.081869997 0.11613 0.12511
0.10552 0.11654 0.16045
0.091236003 0.11824 0.13894001
0.10504 0.11742 0.16023999
0.082676001 0.11938 0.12484
0.1072 0.11873 0.16219001
0.11082 0.12006 0.16951001
0.10607 0.11984 0.16176
0.089486003 0.12109 0.13629
0.083439998 0.12242 0.12676001
0.084459998 0.12155 0.12710001
0.089757003 0.12274 0.13631
0.10712 0.1212 0.16215
0.10682 0.12206 0.16147
0.11252 0.12151 0.17195
0.089213997 0.12368 0.13541999
0.082390003 0.12502 0.1258
0.10771 0.12559 0.16417
0.11008 0.12555 0.16926999
0.082734004 0.12615 0.12632
0.10805 0.12806 0.16525
0.10844 0.12754001 0.16497
0.084678002 0.1295 0.1284
0.082709 0.14731 0.12474
0.082469001 0.14568999 0.12483
0.083392002 0.14447001 0.12608001
0.083934002 0.14638001 0.12756
0.084221996 0.14906999 0.12748
0.083971001 0.14774001 0.12822001
0.082974002 0.14940999 0.12694
0.082896002 0.14944001 0.12572999
0.080458 -0.035163999 0.12266
0.078951001 -0.035287999 0.11982
0.10671 -0.011768 0.16256
0.10811 -0.012219 0.16517
0.10722 -0.011565 0.16425
0.078957997 -0.0011973 0.12093
0.080444001 -0.0017857 0.12055
0.081963003 -0.00050641998 0.12331
0.081390001 0.00015317999 0.12364
0.079747997 0.0098216003 0.12269
0.080231003 0.010102 0.12161
0.079286002 0.011001 0.12078
0.079099998 0.01196 0.12067
0.084475003 0.011034 0.12853
0.084628999 0.012783 0.12836
0.083421998 0.011844 0.12685999
0.083240002 0.015592 0.12621
0.081791997 0.018121 0.12501
0.08162 0.017351 0.12382
0.080922998 0.017976001 0.12367
0.079740003 0.017013 0.12202
0.085234001 0.018426999 0.12854999
0.08433 0.018916 0.12886
0.085794002 0.019613 0.13022999
0.085980996 0.022295 0.13150001
0.086461999 0.023841999 0.13157
0.10248 0.024263 0.15683
0.10324 0.023810999 0.15639
0.10385 0.023956999 0.15758
0.087104999 0.033514999 0.13428
0.087710001 0.039413001 0.13462
0.087871999 0.040984999 0.13449
0.088129997 0.045527998 0.13372
0.08501 0.053111002 0.12887999
0.0876 0.052850001 0.13344
0.083912 0.053270001 0.12766001
0.085773997 0.052765001 0.13179
0.083962999 0.053399 0.12717
0.083939001 0.058956001 0.12886
0.084898002 0.060111001 0.13034
0.085922003 0.061358001 0.13181999
0.091613002 0.061640002 0.13811
0.090837002 0.066546999 0.13898
0.090590999 0.06803 0.13652
0.089872003 0.066864997 0.13669001
0.10505 0.067336001 0.16016001
0.089851998 0.070203997 0.13787
0.10423 0.069803998 0.15988
0.10469 0.071901999 0.15914001
0.1039 0.071973003 0.15817
0.092932999 0.076337002 0.14166
0.10274 0.077390999 0.15681
0.093783997 0.078658998 0.14196999
0.093047999 0.081151001 0.14193
0.093672998 0.082218997 0.14235
0.093892999 0.084129997 0.14287999
0.10173 0.083118998 0.15515
0.10111 0.084154002 0.15462001
0.093668997 0.084737003 0.14338
0.095233999 0.083719999 0.1442
0.094485998 0.085226998 0.14464
0.10089 0.087525003 0.15473001
0.094122998 0.087782003 0.14375
0.094870001 0.087610997 0.14431
0.093515001 0.088122003 0.14331999
0.1011 0.090069003 0.15549999
0.1028 0.092670999 0.15567
0.093007997 0.093362004 0.14194
0.091692001 0.098727003 0.13925
0.10542 0.099491999 0.16035999
0.11074 0.10011 0.16892999
0.091332003 0.10105 0.1392
0.090796001 0.10223 0.13869999
0.10963 0.10197 0.16784
0.10672 0.10277 0.16188
0.11193 0.10386 0.17132001
0.10731 0.10177 0.16419999
0.10717 0.10352 0.16434
0.089580998 0.10315 0.1374
0.083314002 0.10318 0.12654001
0.083136 0.10475 0.12651999
0.085115001 0.10326 0.12937
0.10911 0.10399 0.16708
0.11176 0.10449 0.17082
0.111 0.10477 0.17117
0.1121 0.1065 0.17181
0.082826003 0.10656 0.12627999
0.085041001 0.10501 0.13016
0.10859 0.10489 0.16515
0.085951999 0.10733 0.13095
0.087514997 0.10609 0.13328999
0.11201 0.10842 0.17075001
0.082468003 0.10698 0.12695
0.086329997 0.10762 0.13104001
0.087256998 0.10686 0.1339
0.083150998 0.10902 0.12622
0.097478002 0.1127 0.15001
0.11332 0.11163 0.17332
0.095280997 0.11394 0.1446
0.093947001 0.11452 0.14538001
0.10177 0.11488 0.1559
0.092890002 0.11574 0.14262
0.1048 0.11599 0.15981001
0.091945998 0.11642 0.14050999
0.11227 0.11843 0.17208999
0.11255 0.11712 0.17227
0.081486002 0.11785 0.12429
0.081339002 0.11945 0.12457
0.090085 0.12146 0.13748001
0.10582 0.12056 0.1621
0.082009003 0.12094 0.12535
0.081799001 0.1231 0.12475
0.083255999 0.12348 0.12597001
0.10644 0.12442 0.16173001
0.081973001 0.12388 0.12525
0.10711 0.12383 0.16198
0.1114 0.12425 0.17056
0.10677 0.12688001 0.16456001
0.082423002 0.12646 0.12650999
0.10933 0.12685999 0.16804001
0.084023997 0.12673 0.12728
0.089996003 0.12738 0.13514
0.087820001 0.12829 0.13415
0.10752 0.12799001 0.16405
0.084698997 0.12805 0.12861
0.086505003 0.13 0.13132
0.088239998 0.12918 0.13361
0.087050997 0.13045 0.13277
0.083844997 0.14609 0.12741999
0.081064001 0.14669999 0.12397
0.08117 0.14827 0.12376
0.084343001 0.14935 0.1288
0.078469001 -0.033346001 0.11814
0.080686003 2.3885999e-05 0.12281
0.082625002 0.00047003999 0.12487
0.080716997 0.0018156 0.12424
0.082548 0.0018507 0.12537
0.085019998 0.0093106003 0.12901001
0.086583003 0.024215 0.13207
0.087800004 0.028563 0.13327
0.087159999 0.042927999 0.13330001
0.087921999 0.04394 0.13278
0.086438 0.043527 0.13281
0.087151997 0.045464002 0.13259999
0.086632997 0.046863001 0.13303
0.086987004 0.051086999 0.13316
0.082872003 0.057071 0.12694
0.082987003 0.058192998 0.12782
0.085060999 0.05962 0.12904
0.089291997 0.060467001 0.13677
0.088533998 0.061262999 0.13671
0.089645997 0.062820002 0.13702001
0.091829002 0.065655999 0.13959
0.10421 0.066096999 0.16023999
0.089596003 0.068738997 0.13674
0.088963002 0.066574 0.13641
0.090517998 0.071635 0.13888
0.10359 0.073666997 0.15909
0.10349 0.076715998 0.15828
0.091863997 0.077367 0.14105999
0.10291 0.078658998 0.15684
0.10229 0.079750001 0.15535
0.10254 0.078717999 0.15671
0.10164 0.081523001 0.15622
0.093595996 0.086034 0.14320999
0.10095 0.085747004 0.1548
0.094177999 0.089860998 0.14307
0.10199 0.088714004 0.15636
0.1024 0.092216998 0.15628
0.093092002 0.091453999 0.1428
0.092260003 0.094362997 0.14126
0.091674998 0.097025 0.14045
0.10542 0.097355001 0.16080999
0.11228 0.097618997 0.1716
0.11109 0.097433001 0.17034
0.11108 0.099044003 0.16992
0.11119 0.098995999 0.17114
0.11092 0.099192001 0.16937999
0.11202 0.099831 0.17092
0.10626 0.10129 0.16322
0.10998 0.10055 0.16782001
0.083621003 0.10224 0.12791
0.083081 0.10042 0.12649
0.082901001 0.10219 0.12661
0.089722998 0.10042 0.13758001
0.089808002 0.10196 0.13766
0.10801 0.1031 0.16531
0.089594997 0.10485 0.13741
0.08828 0.10319 0.13507
0.088698998 0.10506 0.1355
0.11279 0.10479 0.17272
0.090062998 0.10607 0.13659
0.11207 0.10632 0.1733
0.087847002 0.10539 0.13383999
0.085836001 0.10646 0.13135999
0.086755998 0.10741 0.13265
0.081951 0.10769 0.12538999
0.081703 0.10917 0.12526
0.10405 0.11728 0.15974
0.1052 0.11881 0.16099
0.082762003 0.12772 0.127
0.083292998 0.12901001 0.12779
0.085314997 0.13065 0.1312
0.084174998 0.13073 0.12922999
0.082480997 0.14388999 0.12489
0.081494004 0.14496 0.1234
0.084434003 0.14695001 0.12891001
0.11161 0.14793999 0.17117999
0.11203 0.14617001 0.17101
0.1111 0.14718001 0.17056
0.11176 0.14825 0.17045
0.084875003 0.14834 0.13018
0.082121998 -0.036791999 0.12438
0.083812997 0.011768 0.1279
0.084046997 0.013862 0.12778001
0.082509004 0.016788 0.12603
0.087219 0.028650001 0.13368
0.085798003 0.02994 0.13270999
0.088385999 0.029785 0.13278
0.086886004 0.043426 0.13242
0.085704997 0.060540002 0.13154
0.090751 0.064672999 0.13817
0.090213001 0.066257 0.13801999
0.10624 0.067031004 0.16175
0.088744 0.070040002 0.1371
0.090479001 0.073425002 0.13916001
0.090820998 0.076003999 0.13968
0.090939 0.074767001 0.1399
0.10286 0.078529999 0.15792
0.092527002 0.078101002 0.14098001
0.092616998 0.080085002 0.14142001
0.10216 0.081417002 0.15676001
0.092880003 0.082943 0.14245
0.10166 0.083199002 0.156
0.10242 0.083584003 0.15758
0.092963003 0.084798999 0.14269
0.093253002 0.085552998 0.14271
0.10088 0.087252997 0.1559
0.093486004 0.088936001 0.14289001
0.11061 0.089348003 0.17113
0.11045 0.090152003 0.17055
0.11189 0.090291999 0.17093
0.11051 0.091513 0.17103
0.11168 0.091480002 0.17137
0.11133 0.093177997 0.17061999
0.11085 0.093434997 0.17106
0.092290998 0.094132997 0.14176001
0.10247 0.093484998 0.15837
0.1119 0.094736002 0.17169
0.11113 0.094717003 0.17034
0.11099 0.096680999 0.17072999
0.11182 0.096247002 0.17104
0.091263004 0.096842997 0.14084999
0.11001 0.098194003 0.16912
0.083278 0.099417001 0.12847
0.082791001 0.098678 0.12703
0.083617002 0.099927001 0.12786999
0.090579003 0.10084 0.13891
0.089639001 0.099342003 0.13816001
0.10607 0.10061 0.16327
0.084680997 0.10154 0.12888999
0.081560001 0.10582 0.12542
0.086142004 0.10672 0.13236
0.10522 0.12478 0.16230001
0.083803996 0.13077 0.12762
0.081161998 0.1445 0.12426
0.082540996 0.14438 0.12677
0.11162 0.1461 0.17183
0.11035 0.14689 0.16914999
0.11033 0.14862999 0.16935
0.10813 0.14812 0.16760001
0.10895 0.1496 0.16847999
0.11028 0.14915 0.16965
0.11139 0.14848 0.17061999
0.085179001 0.14985999 0.13075
0.083861999 0.01069 0.12804
0.079175003 0.014068 0.12112
0.083526999 0.014498 0.12773
0.079031996 0.015848 0.12036
0.079278998 0.016457999 0.12148
0.083397999 0.016445 0.12786999
0.085124999 0.020559 0.13105001
0.086456001 0.034033999 0.13275
0.087137997 0.035542998 0.13333
0.086893 0.036362998 0.13343
0.086386003 0.041586 0.13264
0.085704997 0.042807002 0.13262001
0.086461 0.047892999 0.13316
0.087004997 0.049894001 0.13323
0.087021999 0.052065998 0.13414
0.082690999 0.053344 0.12630001
0.082116999 0.053970002 0.12605
0.084435999 0.058843002 0.12942
0.088146999 0.060183998 0.13542999
0.088376001 0.060740001 0.13563
0.089662999 0.064134002 0.13793001
0.090494998 0.066090003 0.13909
0.10444 0.065915003 0.1613
0.088705003 0.066799 0.13651
0.10527 0.065816998 0.16246
0.088150002 0.066862002 0.13617
0.087739997 0.065807 0.13617
0.090066001 0.071249001 0.13766
0.090291999 0.073945999 0.13971999
0.10321 0.075041004 0.15943
0.10326 0.077018 0.15897
0.11157 0.077191003 0.17253999
0.11192 0.075595997 0.17129
0.11161 0.077334002 0.1716
0.091542996 0.077055 0.14023
0.11179 0.078263 0.17191
0.11135 0.080867998 0.17225
0.10258 0.080334999 0.15857001
0.091765001 0.081234001 0.14132001
0.11117 0.085970998 0.17253999
0.11182 0.085863002 0.17202
0.11167 0.087399997 0.17185
0.092825003 0.086365998 0.14258
0.11073 0.087907001 0.17151999
0.11215 0.088669002 0.17159
0.092894003 0.090319 0.14217
0.10123 0.089230999 0.15789001
0.10226 0.090037003 0.15825
0.11079 0.090268999 0.1726
0.10305 0.094683997 0.15753999
0.083168998 0.096253999 0.12734
0.081736997 0.097402997 0.12576
0.083394997 0.097374 0.12644
0.080971003 0.095458999 0.1257
0.10948 0.095679998 0.16966
0.082469001 0.098522998 0.12624
0.083057001 0.097383 0.12827
0.090186998 0.099129997 0.13917001
0.10965 0.099209003 0.16822
0.083544001 0.10051 0.12907
0.1063 0.10001 0.16445
0.084449999 0.1016 0.12993
0.10799 0.1017 0.16610999
0.084872998 0.10302 0.12978999
0.087867998 0.10415 0.13433
0.088968001 0.10294 0.13601001
0.11271 0.10296 0.17236
0.080750003 0.10613 0.12483
0.082126997 0.10447 0.12525
0.081517003 0.10434 0.12529001
0.086000003 0.10523 0.13133
0.081762999 0.10715 0.12515
0.10049 0.11376 0.15485001
0.10247 0.11601 0.15764999
0.08021 0.11778 0.12517001
0.081128001 0.12069 0.12504999
0.10485 0.12111 0.16161001
0.089782 0.12224 0.13747001
0.10574 0.12681 0.16413
0.082253002 0.12947001 0.1274
0.088434003 0.13018 0.13479
0.085727997 0.13087 0.13225999
0.084441997 0.13283999 0.13080999
0.083567999 0.13203 0.12784
0.084565997 0.13305999 0.12937
0.082194999 0.14234 0.12644
0.081485003 0.14297 0.12596001
0.1123 0.14544 0.17327
0.11062 0.14369 0.17143001
0.1108 0.14531 0.17044
0.080182001 0.14644 0.1234
0.1093 0.14511999 0.16994999
0.11048 0.14601 0.16914999
0.11241 0.14706001 0.17380001
0.080761999 0.14783999 0.1237
0.11232 0.14827 0.17275999
0.11134 0.14911 0.17141999
0.081179999 0.14859 0.12461
0.083061002 0.15016 0.1274
0.083342999 0.15059 0.12813
0.083769999 0.15065999 0.12913001
0.077993996 -0.0019367 0.12089
0.078230001 -0.00078002998 0.12189
0.080222003 0.0094178002 0.12314
0.080040999 0.0077050002 0.12347
0.082847998 0.017694 0.12838
0.082800001 0.019797999 0.12890001
0.084743001 0.021988999 0.13198
0.085914999 0.041324001 0.13186
0.084833004 0.042594999 0.13196
0.086176999 0.045187999 0.13252001
0.086585999 0.048675001 0.13302
0.085998997 0.051137999 0.13327999
0.082579002 0.05305 0.12793
0.089319997 0.062148999 0.13744
0.088247001 0.064332999 0.13680001
0.10551 0.067140996 0.16275001
0.088192001 0.069411002 0.13668001
0.1118 0.068683997 0.17225
0.1117 0.067952998 0.17214
0.11199 0.069617003 0.17307
0.11114 0.071644999 0.17143001
0.11166 0.071856 0.17303
0.089405999 0.072922997 0.13795
0.11189 0.073761001 0.17135
0.11182 0.073100999 0.17216
0.11061 0.072644003 0.17110001
0.10995 0.076118998 0.17087001
0.11147 0.076081 0.17337
0.091568999 0.078996003 0.14158
0.11064 0.079791002 0.17096999
0.11167 0.081133999 0.17155001
0.10267 0.080674998 0.15791
0.092573002 0.083521001 0.14189
0.10287 0.082447998 0.15902001
0.11122 0.084670998 0.17111
0.1108 0.084073 0.17225
0.11138 0.083167002 0.17172
0.10235 0.084293999 0.15679
0.11093 0.082832001 0.17095999
0.11123 0.085036002 0.17143001
0.11075 0.085381001 0.17151999
0.10335 0.084747002 0.15876
0.10163 0.084996 0.15741999
0.10263 0.086140998 0.15796
0.092202999 0.0854 0.14269
0.10251 0.087522 0.15883
0.091812998 0.092786998 0.14247
0.081243999 0.094411001 0.12563001
0.082264997 0.094570003 0.12523
0.082010001 0.093163997 0.12532
0.10312 0.093165003 0.16023999
0.10395 0.095027 0.16065
0.10471 0.093505003 0.16026001
0.091778003 0.093921997 0.14149
0.083051004 0.094751999 0.1268
0.10971 0.095118999 0.16956
0.1113 0.096341997 0.17182
0.11115 0.094587997 0.17207
0.082870997 0.097104996 0.12874
0.11067 0.097415 0.1726
0.11085 0.099247001 0.17219999
0.090158001 0.097517997 0.13903999
0.10866 0.099301003 0.16774
0.081818998 0.10132 0.12579
0.10709 0.10105 0.16531
0.11241 0.10158 0.17301001
0.087963 0.10158 0.13548
0.087104 0.10215 0.13418999
0.089040004 0.10154 0.13674
0.088766001 0.10159 0.13631
0.1077 0.1027 0.16672
0.10821 0.10234 0.16745
0.086232997 0.10342 0.13426
0.086762004 0.10526 0.13346
0.11104 0.10753 0.17287999
0.11271 0.10757 0.17235
0.095579997 0.11295 0.14951999
0.094931997 0.1139 0.14796001
0.099477999 0.11468 0.15499
0.11137 0.1185 0.17233001
0.11236 0.11806 0.17287
0.11194 0.11762 0.17213
0.080503002 0.1204 0.12527999
0.080467001 0.12233 0.12478
0.10375 0.12176 0.16131
0.10463 0.12324 0.16124
0.10429 0.12474 0.16266
0.10506 0.12647 0.16337
0.087490998 0.12864 0.13555001
0.087881997 0.12751999 0.13637
0.083026998 0.13052 0.12716
0.085973002 0.13091999 0.13354
0.082479998 0.13214 0.12655
0.082938001 0.13294999 0.12843999
0.083475001 0.13335 0.12894
0.082791999 0.13327999 0.12785999
0.080793001 0.14349 0.12452
0.11256 0.14429 0.1734
0.11235 0.14371 0.17325
0.083172001 0.14431 0.12804
0.11064 0.14323001 0.17226
0.11185 0.14477 0.17183
0.079654001 0.14500999 0.12359
0.080697 0.1455 0.12336
0.079008996 0.14662001 0.12345
0.084192999 0.14791 0.1309
0.084550999 0.15054999 0.12947001
0.10586 -0.011793 0.16497999
0.10745 -0.012495 0.16642
0.10782 -0.012751 0.16745999
0.077924997 -0.0034992001 0.12137
0.077238999 -0.0037858 0.11973
0.079136997 -0.0041537001 0.12034
0.078938998 0.00053523999 0.12234
0.079062 0.00086604001 0.12349
0.079974003 0.0019538 0.12514
0.080461003 0.0036051001 0.12526999
0.081859998 0.0040724999 0.12497
0.081316002 0.0059998999 0.12553
0.080512002 0.0080990996 0.12317
0.080412 0.0075718001 0.12465
0.078576997 0.010134 0.12124
0.078156002 0.01063 0.12171
0.078015998 0.012735 0.12077
0.077719003 0.013698 0.12136
0.077544004 0.014339 0.12091
0.077722996 0.016671 0.12078
0.083001003 0.017596001 0.12852
0.078317001 0.017902 0.12238
0.081546001 0.018002 0.12612
0.082608998 0.018022001 0.12762
0.079092003 0.01843 0.12321
0.079926997 0.019045999 0.124
0.080752999 0.017974 0.12497
0.082696997 0.019437 0.12977
0.083824001 0.020539001 0.1309
0.084150001 0.020873999 0.13135
0.084771 0.021662001 0.13191999
0.084533997 0.023708001 0.13222
0.085651003 0.024997 0.13260999
0.085946001 0.027022 0.13249999
0.085882001 0.027915001 0.13312
0.085924 0.029851999 0.13256
0.085624002 0.031087 0.13304999
0.087123998 0.031300001 0.13263001
0.086184002 0.032935999 0.13267
0.086276002 0.032430999 0.13275
0.085979998 0.034058999 0.13225
0.086294003 0.035284001 0.13308001
0.085771002 0.036791001 0.13416
0.086972997 0.037841 0.13409001
0.086531997 0.038421001 0.13386001
0.086869001 0.039244998 0.13364001
0.086377002 0.039620001 0.13366
0.085276 0.040950999 0.13211
0.084950998 0.039246 0.13213
0.085337996 0.044264 0.1318
0.086055003 0.049934998 0.13294999
0.082059003 0.051938001 0.12747
0.081515998 0.053490002 0.12582
0.082098998 0.054503001 0.12572999
0.080669999 0.055486001 0.12626
0.081730001 0.055737998 0.12646
0.081240997 0.057220999 0.12740999
0.082650997 0.056988001 0.12791
0.083839998 0.059117001 0.12925
0.082466997 0.058090001 0.12892
0.083897002 0.059138998 0.13106
0.084251001 0.060307 0.131
0.084160998 0.061197001 0.13236
0.08501 0.060343999 0.13198
0.086057998 0.061016001 0.13304
0.085455999 0.060867999 0.13347
0.086234003 0.060470998 0.13281
0.087001003 0.060144 0.13546
0.087636001 0.061218999 0.13564
0.087589003 0.061622001 0.13600001
0.088174999 0.062684 0.13664
0.088256001 0.064434998 0.13709
0.089602999 0.064580999 0.13751
0.089620002 0.064695001 0.13754
0.10475 0.066404998 0.16294
0.10506 0.065505996 0.1637
0.11189 0.066046998 0.17175999
0.11062 0.065886997 0.17228
0.087095 0.066288002 0.13551
0.087219 0.067464001 0.13508999
0.11088 0.067093 0.17242999
0.087199003 0.068979003 0.13597
0.11069 0.068791002 0.17297
0.088343002 0.069110997 0.1362
0.10982 0.070027001 0.17137
0.11036 0.069546998 0.17283
0.11089 0.073475003 0.17273
0.11148 0.074914999 0.17245001
0.089385003 0.074674003 0.13821
0.090090998 0.076229997 0.139
0.1112 0.074262999 0.17140999
0.10374 0.076125003 0.16005
0.11096 0.077579997 0.17282
0.1032 0.076871 0.16016001
0.090400003 0.077964999 0.14035
0.091059998 0.078432001 0.14056
0.089190997 0.079187997 0.13934
0.11185 0.078740999 0.17296
0.11007 0.077409998 0.17104
0.11052 0.079043999 0.17051999
0.11137 0.080012999 0.17244001
0.091256 0.080268003 0.1408
0.090975001 0.080844 0.14106999
0.10983 0.080361001 0.17093
0.11121 0.082245 0.17287999
0.10968 0.081428997 0.171
0.10249 0.081270002 0.15948001
0.11185 0.083015002 0.17274
0.10318 0.084050998 0.15846001
0.10971 0.083233997 0.17076001
0.091316998 0.084452003 0.14148
0.091516003 0.08354 0.14106999
0.1028 0.083691001 0.15922999
0.11006 0.084358998 0.17102
0.11186 0.084611997 0.17293
0.092515998 0.085170999 0.14223
0.10096 0.084838003 0.15575001
0.10182 0.08484 0.15637
0.10092 0.086002998 0.15821999
0.10928 0.086245999 0.1701
0.10093 0.085836001 0.15685
0.10289 0.086268 0.15893
0.10328 0.085396998 0.16021
0.10313 0.087059997 0.16001
0.10286 0.086934999 0.15954
0.1096 0.087016001 0.1701
0.10132 0.088877998 0.15649
0.10133 0.087393999 0.15676001
0.080824003 0.089690998 0.12535
0.080911003 0.088900998 0.12583999
0.080876999 0.087399997 0.12554
0.091706999 0.087564997 0.14232001
0.092468001 0.088303998 0.14217
0.10265 0.089156002 0.15835001
0.10252 0.088924997 0.15873
0.10295 0.088875003 0.15975
0.10342 0.087439999 0.16006
0.11 0.088688001 0.17038
0.11089 0.087278999 0.17262
0.11121 0.089110002 0.17271
0.10963 0.090049997 0.17366999
0.1096 0.089755997 0.1709
0.081178002 0.090763003 0.12511
0.080709003 0.089899004 0.12529001
0.092208996 0.090315998 0.14221001
0.10351 0.090037003 0.15951
0.081266999 0.089565001 0.12593
0.10331 0.090756997 0.15954
0.10424 0.090420999 0.15976
0.081418999 0.092226997 0.12533
0.079997003 0.091484003 0.12549999
0.091495998 0.091470003 0.14184
0.10364 0.091389999 0.1585
0.1033 0.091853999 0.1596
0.081670001 0.092045002 0.12563001
0.10373 0.091435 0.16
0.081605002 0.092220999 0.12728
0.1035 0.091972001 0.161
0.1103 0.091724001 0.17053001
0.10408 0.092666 0.16057
0.080346003 0.092979997 0.12599
0.091752 0.093253002 0.14172
0.10257 0.093436003 0.15848
0.082666002 0.094339997 0.12706
0.090860002 0.093428001 0.14105
0.10271 0.094448 0.15955
0.10421 0.094587997 0.16156
0.090623997 0.095114 0.14091
0.080040999 0.096212998 0.12635
0.090852998 0.095794998 0.14063001
0.10491 0.095905997 0.16102
0.10463 0.096115001 0.16176
0.10464 0.095854998 0.16231
0.089275002 0.096322998 0.13824999
0.090121001 0.095849 0.13891
0.088486001 0.097434998 0.13770001
0.089824997 0.098384999 0.13850001
0.090765998 0.096295998 0.14025
0.081270002 0.097753003 0.12593
0.081220001 0.099237002 0.12612
0.088379003 0.099209003 0.13747001
0.10641 0.099030003 0.16502
0.10652 0.099425003 0.16396999
0.1108 0.10056 0.17252
0.081018999 0.10029 0.12625
0.088453002 0.10055 0.13652
0.087994002 0.098934002 0.13684
0.084822997 0.10172 0.13131
0.088138998 0.10027 0.13693
0.10696 0.1002 0.1655
0.081332996 0.10179 0.12579
0.087704003 0.10112 0.13535
0.086401999 0.10236 0.13454001
0.081308998 0.10196 0.12526
0.080879003 0.1018 0.12526
0.10752 0.10167 0.16625001
0.081449002 0.10335 0.1251
0.080587998 0.10397 0.12529001
0.081887998 0.10291 0.12646
0.088859998 0.10305 0.13637
0.085073002 0.10344 0.13125999
0.079384997 0.10476 0.12483
0.11182 0.10477 0.17365
0.11188 0.10347 0.17325
0.086663999 0.10446 0.13344
0.085789002 0.10375 0.13327
0.11196 0.10628 0.17299999
0.11162 0.10915 0.17346001
0.081285998 0.10784 0.12504999
0.080540001 0.109 0.12488
0.096018001 0.11361 0.15058
0.097253002 0.11351 0.15149
0.098546997 0.11342 0.15357
0.099059999 0.11302 0.15356
0.080688 0.11466 0.1247
0.10055 0.11504 0.1567
0.10187 0.11653 0.15763
0.10219 0.11639 0.15876
0.080599003 0.11693 0.12593
0.10182 0.11722 0.15916
0.10336 0.11835 0.15925001
0.10309 0.1191 0.16046
0.079797998 0.11898 0.12530001
0.11194 0.11945 0.17383
0.10414 0.11924 0.16125999
0.10406 0.12044 0.16072001
0.088707998 0.12198 0.1384
0.10533 0.12213 0.16162001
0.080302998 0.12358 0.12491
0.10324 0.12355 0.16188
0.080718003 0.12344 0.12541001
0.10469 0.12402 0.16216999
0.11004 0.12282 0.17249
0.11049 0.12383 0.17138
0.080724999 0.1248 0.12572999
0.11008 0.12575001 0.17091
0.088766001 0.12459 0.13767
0.089514002 0.12443 0.13765
0.088431001 0.12635 0.13765
0.10944 0.12530001 0.17009
0.080836996 0.12667 0.12556
0.1049 0.12576 0.16299
0.1053 0.12843999 0.16368
0.10664 0.12833001 0.16621999
0.108 0.12797 0.16685
0.082154997 0.12890001 0.12654001
0.10629 0.12834001 0.16444001
0.086989 0.12976 0.13556001
0.080646999 0.13067 0.12574001
0.081059001 0.12954 0.1261
0.084818996 0.13089 0.13237
0.087168999 0.13099 0.13552
0.082259998 0.13089 0.12651999
0.087001003 0.13142 0.13439
0.081996001 0.13066 0.12613
0.081292003 0.13239001 0.12625
0.085088998 0.13244 0.13131
0.084104002 0.13395999 0.13061
0.083137996 0.13392 0.12938
0.082543999 0.13355 0.12681
0.081373997 0.13342001 0.12601
0.082851 0.13439 0.12828
0.08337 0.13446 0.12805
0.083451003 0.13544001 0.12888999
0.081837997 0.1355 0.12773
0.082359001 0.13692001 0.12853
0.082068004 0.1407 0.12622
0.081455 0.14205 0.12609001
0.082363002 0.14055 0.12643
0.082147002 0.14155 0.12678
0.080641001 0.14193 0.1252
0.082258001 0.14328 0.127
0.080737002 0.14377999 0.12363
0.079558998 0.14425001 0.12369
0.11095 0.14251 0.17341
0.11008 0.14454 0.17015
0.10944 0.14595 0.16897
0.10858 0.14656 0.16847
0.11235 0.14670999 0.17451
0.11189 0.14769 0.17367999
0.079437003 0.14869 0.12298
0.1081 0.14836 0.16790999
0.1069 0.14781 0.16706
0.084752999 0.14910001 0.13225
0.11086 0.14876001 0.17402001
0.080691002 0.15057001 0.12614
0.085143998 0.14997 0.13149001
0.10867 0.14946 0.16705
0.10792 0.14997 0.16684
0.11097 0.14986999 0.17194
0.11069 0.15014 0.17098001
0.10978 0.14974 0.17064001
0.10824 0.15171 0.16732
0.081913002 0.14999001 0.12704
0.084335998 0.15078001 0.13064
0.10956 0.14957 0.16765
0.10855 0.15072 0.16828001
0.082576998 0.15087999 0.12845001
0.083166003 0.15119 0.12973
0.10989 0.14997999 0.16927999
0.079810001 -0.035985 0.12338
0.077550001 -0.034938999 0.12206
0.078585997 -0.00074967998 0.12241
0.079076 0.009602 0.12216
0.081294 0.018371001 0.12734
0.085423 0.026032999 0.13256
0.084913999 0.027117001 0.13188
0.084789 0.028155999 0.13224
0.084555 0.029502001 0.13183001
0.085240997 0.031484 0.13203999
0.084563002 0.032345001 0.13202
0.085325003 0.033470001 0.13271999
0.085487999 0.037622001 0.13265
0.084426999 0.038412999 0.13260999
0.085732996 0.047169998 0.13315
0.083180003 0.053445 0.12986
0.087116003 0.062146999 0.13605
0.087470002 0.063963003 0.13574
0.086543001 0.064166002 0.13474999
0.086319998 0.066458002 0.13443001
0.10981 0.067672998 0.17169
0.11105 0.068418004 0.17213
0.087954 0.071341 0.13761
0.089029998 0.071819 0.13723999
0.1099 0.072005004 0.17072
0.089413002 0.073932998 0.13846
0.10349 0.074675001 0.16052
0.089236997 0.076971002 0.13921
0.11125 0.079403996 0.17238
0.10298 0.080287002 0.15958001
0.091578998 0.081661001 0.1415
0.090065002 0.08151 0.1406
0.090297997 0.082465999 0.14041001
0.090535998 0.083871 0.14189
0.091309004 0.085771002 0.14195
