# .PCD v0.7 - Point Cloud Data file format
VERSION 0.7
FIELDS x y z
SIZE 4 4 4
TYPE F F F
COUNT 1 1 1
WIDTH 1481
HEIGHT 1
VIEWPOINT 0 0 0 1 0 0 0
POINTS 1481
DATA ascii
0.25505999 0.092735 0.055054002
0.26315999 0.058192998 0.080379002
0.26163 0.058369 0.080200002
0.26326999 0.05804 0.079650998
0.23115 0.049617998 0.029974001
0.23192 0.049555998 0.031566001
0.23069 0.049378999 0.031153999
0.3202 -0.042041998 0.043235999
0.31931001 -0.041854002 0.043467
0.30642 0.026234999 0.033537999
0.30671999 0.026463 0.032389
0.30645999 0.027711 0.03238
0.22662 0.056800999 0.040171999
0.30948001 0.072866999 0.10518
0.30901 0.073142 0.10581
0.30875999 0.073517002 0.10509
0.23365 0.049582999 0.032435998
0.27208999 0.067097999 0.070262
0.27219999 0.067947999 0.070196003
0.32323 -0.024087001 0.046994001
0.32280001 -0.025211001 0.047015
0.32306001 -0.024769001 0.046326
0.28946 0.016128 0.042160999
0.28869 0.015371 0.041745
0.26754999 0.038134001 0.044075999
0.26752001 0.037555002 0.043809999
0.3003 0.079216003 0.039680999
0.21638 0.065810002 0.041120999
0.30019999 0.048331998 0.054425001
0.271 0.018278999 0.033080999
0.27098 0.017491 0.033002
0.31737 -0.025041999 0.049823001
0.31838 -0.025045 0.049299002
0.31751001 -0.024107 0.050119001
0.26251999 0.066739 0.062251002
0.26324001 0.066482 0.062763996
0.26837999 0.032834999 0.035994001
0.26826999 0.033188999 0.036660001
0.29729 0.035866 0.047148
0.29758999 0.035526 0.046068002
0.27335 -0.033408001 0.019428
0.31195 -0.051401999 0.039461002
0.31154001 -0.051086999 0.038187999
0.31189001 -0.051646002 0.038608
0.32131001 -0.014629 0.050089002
0.2994 0.058871999 0.056449998
0.29971999 0.059698999 0.056767002
0.29852 0.059732001 0.057303
0.21919 0.079585999 0.046576001
0.27246001 -0.01523 0.017472001
0.27189001 -0.015997 0.018580001
0.27217999 -0.015923999 0.017408
0.26328 0.073215999 0.033126
0.26317 0.074947998 0.032652002
0.31751999 0.053093001 0.083630003
0.28292999 0.054614 0.052776001
0.28235 0.055124 0.052738
0.27316999 0.053268999 0.067602001
0.27276999 0.053729001 0.067881003
0.21967 0.081569999 0.047212001
0.22044 0.082750998 0.04755
0.28035 0.071350001 0.066261999
0.23568 0.067829996 0.034945998
0.23591 0.066659003 0.034802999
0.31421 0.054058999 0.083227001
0.31422001 0.055108 0.081981003
0.31398001 0.054154001 0.082618997
0.31474999 -0.029765001 0.046815999
0.28094 0.066491 0.067323998
0.28128999 0.065736003 0.067287996
0.29008999 0.078679003 0.050239999
0.28961 0.078506999 0.051148001
0.29034999 0.078267001 0.051661
0.27309999 0.028793 0.039641
0.26715001 0.016167 0.030084001
0.26747999 0.016969999 0.030142
0.2793 0.011489 0.038495999
0.27856001 0.011909 0.037758
0.24437 0.054078002 0.03159
0.28402001 0.066793002 0.065194003
0.28400001 0.065776996 0.064733997
0.31606001 0.015865 0.037496001
0.31584001 0.015289 0.038879
0.31641999 0.015273 0.037941001
0.29561001 0.0094216997 0.042185001
0.29657999 0.0096404003 0.042753998
0.29629999 0.010573 0.042649001
0.24571 0.058747001 0.031043001
0.26155001 0.041209001 0.036628999
0.23228 0.057822 0.036952998
0.23298 0.058642998 0.036595002
0.30961999 0.071193002 0.042215001
0.30908999 0.071809001 0.041467
0.28759 0.011721 0.040557001
0.28821999 0.011329 0.040038999
0.31549999 -0.012652 0.054536
0.31538999 -0.011384 0.054652002
0.29545999 0.0059631001 0.040897999
0.29502001 0.0071705999 0.041168001
0.29392001 0.0067396001 0.039992999
0.3197 0.051220998 0.079268999
0.31547001 0.017003 0.034588002
0.31534001 0.016781 0.033744998
0.27318999 0.084775001 0.023025
0.27362001 0.084848002 0.021733999
0.28786001 0.091922998 0.069346003
0.28878 0.092041999 0.069822997
0.30423999 0.079411 0.036196999
0.3035 0.080402002 0.035992
0.30325001 0.079547003 0.037305001
0.25760999 -0.027877999 0.019505
0.28608999 0.083807997 0.058412999
0.28738999 0.054993 0.053203002
0.26207 -0.0381 0.01498
0.26155001 -0.036938 0.014129
0.26227999 -0.037514001 0.014082
0.30399001 0.068894997 0.051291
0.29581001 0.057624999 0.056169
0.29484001 0.056586001 0.055787001
0.29616001 0.056473002 0.056069002
0.32086 0.069197997 0.10103
0.32019001 0.069098003 0.1027
0.32038999 0.068815 0.10203
0.31105 0.065881997 0.054382
0.30996001 0.065913998 0.054791
0.2841 0.088624999 0.066523001
0.28288001 0.087215997 0.066097997
0.30462 0.079225004 0.035096999
0.30636001 0.078263998 0.034858
0.31013 -0.042075001 0.034926001
0.29690999 -0.00081234 0.030261001
0.21739 0.085470997 0.048737001
0.21799999 0.084077001 0.049132999
0.21766999 0.084926002 0.049311001
0.32236999 0.0025977001 0.042027999
0.22539 0.087341003 0.042390998
0.30088001 0.060949001 0.056129999
0.30105001 0.062128998 0.056132
0.26975 0.029061001 0.021653
0.26956001 0.029878 0.021082999
0.26934999 0.030228 0.019820999
0.2638 0.071924999 0.063963003
0.26247001 0.066476002 0.059487998
0.26264 0.067922004 0.059618998
0.28839999 0.049114998 0.056713998
0.26355001 0.049369 0.043200999
0.26416999 0.049357001 0.043806002
0.30836999 0.022849999 0.031916
0.30825999 0.023165001 0.030410999
0.30807 0.023273 0.031560998
0.29883 -0.001136 0.040247999
0.29896 -0.0023930001 0.040070999
0.26855999 0.041434001 0.046959002
0.26782 0.041795 0.046347
0.23052 0.051791001 0.036596
0.22991 0.051360998 0.036049999
0.26082 0.086089 0.058678001
0.31582999 0.073403001 0.1043
0.30579001 -0.021430001 0.045212999
0.30539 -0.021798 0.044659998
0.26198 0.067699999 0.062127002
0.26163 0.069040999 0.062224001
0.28204 0.093420997 0.068847999
0.28220999 0.093946002 0.067965999
0.2333 0.074405 0.03579
0.25951001 -0.028883001 0.021439999
0.27768999 -0.033080999 0.0133
0.27763 -0.034015998 0.013379
0.22481 0.055550002 0.038077999
0.22443999 0.055656001 0.037744999
0.29955 0.048177 0.054581001
0.31419 -0.053222999 0.050992001
0.31468001 -0.052735001 0.05125
0.32754999 -0.045945998 0.048510998
0.29021999 0.030986 0.045301002
0.29108 0.029983999 0.044665001
0.29102001 0.030780001 0.044906002
0.25591999 0.088582002 0.048751999
0.26526001 0.016249999 0.026595
0.26526999 0.017395001 0.025976
0.26328999 0.04042 0.039824001
0.26377001 0.040084999 0.040608998
0.31044999 -0.050393 0.030289
0.29131001 0.012817 0.040787999
0.29243001 0.012822 0.041361
0.29203999 0.013628 0.041547999
0.29012999 0.0054976 0.031613
0.29082 0.0049637002 0.030431001
0.29102001 0.0052566999 0.031392999
0.26855999 0.064474002 0.073206998
0.28670001 0.087335996 0.065375
0.28773001 0.087256998 0.066013001
0.28345001 0.040520001 0.053396001
0.28349999 0.039356999 0.053107001
0.21348 0.072586 0.049736999
0.31380999 0.061530001 0.10784
0.31299999 0.061195001 0.10794
0.25424001 -0.018177999 0.025599999
0.25400999 -0.017240001 0.026395001
0.32038999 0.010895 0.038256001
0.26969001 0.030208999 0.030203
0.26927 0.030337 0.029626001
0.23243999 0.066702999 0.036740001
0.28083 0.027380001 0.044300999
0.28069001 0.027604001 0.044659
0.28097999 0.026752001 0.044665001
0.26899001 0.033914 0.040731002
0.26993001 0.033845 0.040932
0.26966 0.034345001 0.041469
0.29949999 0.010349 0.044424001
0.29876 0.0094482005 0.043956999
0.31277999 -0.045614999 0.042576998
0.31303999 -0.046183001 0.043391999
0.26155999 0.091982 0.054531001
0.26148999 0.092173003 0.053401001
0.26045999 0.092822 0.053985
0.31663999 -0.052877001 0.062267002
0.30673 0.032214001 0.031079
0.30952001 0.013068 0.044971
0.30893001 0.077563003 0.029107001
0.30858001 0.077844001 0.029522
0.31792 -0.045278002 0.049841002
0.31819999 -0.044978 0.049655002
0.29686999 0.0048401002 0.042831998
0.25928 0.057374001 0.074624002
0.31033999 -0.038706999 0.041122999
0.27158001 0.037728 0.046447001
0.27173999 0.036942001 0.045816001
0.25760001 -0.0029792001 0.029788001
0.25645 -0.0032194001 0.029518001
0.27506 -0.048912998 0.014851
0.27548999 -0.047696002 0.01385
0.27473 -0.048029002 0.014968
0.26244 -0.01098 0.028977999
0.21528 0.069141001 0.046721
0.21579 0.068576001 0.045963999
0.28740999 0.015154 0.041581001
0.30278999 -0.0089528002 0.035191
0.30324 -0.0081406999 0.036019001
0.27013001 0.027326001 0.026681
0.28196999 0.0084205 0.038874
0.28261 0.0080533 0.039066002
0.31636 -0.012785 0.0546
0.2599 -0.029715 0.021336
0.28312999 0.042631 0.053817
0.29108 0.060853001 0.054756001
0.29139999 0.062212002 0.054621
0.28231999 0.094309002 0.066946
0.28198001 0.093735002 0.066770002
0.27206001 0.070992 0.069821
0.27237001 0.071961001 0.069681004
0.29613999 0.049647 0.056763001
0.30105999 -0.0063768001 0.032347001
0.30046001 -0.0058904998 0.032504
0.30030999 -0.0056296 0.032193001
0.29574999 0.048145 0.056660999
0.29688001 0.04865 0.05638
0.30465001 0.062031001 0.056198999
0.30368999 0.062063001 0.055771001
0.27454001 -0.022984 0.02077
0.27480999 -0.023167999 0.019915
0.32056999 -0.025017001 0.048672002
0.32128999 -0.025022 0.048544001
0.27792999 -0.032081999 0.012677
0.23542 0.063304 0.035436001
0.23488 0.062206998 0.035394002
0.23648 0.062403999 0.034623999
0.27193001 0.017147001 0.033999
0.27189001 0.01612 0.033799998
0.30423 0.075669996 0.039404999
0.30335999 0.075836003 0.039852001
0.30406001 0.075223997 0.040173002
0.27746999 0.071652003 0.068663999
0.28224 0.075937003 0.06464
0.28312001 0.075773999 0.063892998
0.28292 0.077076003 0.063560002
0.26899001 0.051484998 0.066418998
0.25382 0.093102999 0.055916999
0.25351 0.093543001 0.056662001
0.25869 0.065779001 0.035427
0.32111001 0.061193001 0.10288
0.29304999 0.024363 0.042732
0.29313999 0.02547 0.042388
0.31283 0.05573 0.075843997
0.31224 0.054924998 0.075848997
0.24517 0.045892 0.027279001
0.24569 0.046461001 0.028499
0.24439999 0.046032 0.028376
0.31152001 -0.040833998 0.040534001
0.31115001 -0.040084001 0.041177999
0.31027001 -0.039953001 0.040171999
0.30456001 0.016209999 0.042555999
0.3053 0.015732 0.042982001
0.27456 0.067033999 0.069591999
0.21442001 0.081685998 0.054306999
0.2147 0.081381001 0.054919001
0.25889 0.088160001 0.055457
0.30958 -0.026985001 0.04724
0.31075001 -0.02727 0.047444999
0.26074001 -0.03438 0.016586
0.26161 -0.035356 0.016816
0.26153001 -0.034207001 0.017615
0.25762999 -0.021633999 0.024231
0.29640001 0.034974001 0.04544
0.29554 0.033881001 0.045426
0.28647 0.040545002 0.054768998
0.28636 0.041448999 0.055023
0.32804999 0.066919997 0.085490003
0.32835001 0.065739997 0.085561
0.32820001 0.066881001 0.084293
0.26717001 0.01521 0.030042
0.26714 0.016267 0.029553
0.26497999 0.036655001 0.037284002
0.26538 0.036183 0.038214002
0.25898001 -0.045024 0.011783
0.25863999 -0.044730999 0.012677
0.25957 -0.044597998 0.01324
0.28116 0.090136997 0.043940999
0.28219 0.089945003 0.044688001
0.28165999 0.089822002 0.042622
0.30627 0.017183 0.041113999
0.21612 0.079402 0.052515
0.31826001 -0.023537001 0.050551999
0.31720999 -0.023553001 0.050058
0.31854001 -0.023813 0.050004002
0.32275999 -0.033025999 0.044004001
0.32269999 -0.033016 0.042916998
0.32297999 -0.032008 0.043141
0.27868 0.0014621 0.025264001
0.27827001 0.00020217001 0.025084
0.27845001 0.00025350999 0.024031
0.30406001 -0.001219 0.048861001
0.30393001 -0.0021325999 0.048928
0.30502 -0.00089779001 0.049587999
0.2915 0.028748 0.043471999
0.29085001 0.029061001 0.044346999
0.29462999 0.055071998 0.055454001
0.29218999 0.015373 0.042371999
0.29312 0.014049 0.041568
0.27913001 0.088983998 0.025358001
0.27061 -0.030169999 0.022592001
0.27004001 -0.02956 0.023195
0.26442 0.079423003 0.057043999
0.26394001 0.078112997 0.057681002
0.26446 0.078675002 0.057275001
0.30401999 0.0023624001 0.049155999
0.25329 0.094194002 0.050359
0.25391999 0.094127998 0.050422002
0.21709 0.072389998 0.046852998
0.21759 0.073514 0.046631001
0.21683 0.07322 0.046928
0.29638001 0.037404999 0.049341999
0.29629999 0.065357998 0.057387002
0.29707 0.065728001 0.057163998
0.31378001 0.065289997 0.10699
0.32113001 -0.021782 0.049791999
0.32041001 -0.021256 0.050384
0.31544 -0.044353001 0.045010999
0.31650001 -0.043873999 0.045575
0.31593001 -0.043648001 0.044803999
0.30397999 0.033167999 0.035204999
0.31997001 0.0058045001 0.044764999
0.29030001 0.024220999 0.043218002
0.29113999 0.025679 0.043117002
0.29727 0.041584 0.053275999
0.29809001 0.042479001 0.053658001
0.29725 0.042213 0.053645
0.25881001 -0.0082320003 0.029849
0.25896001 -0.0088815996 0.029276
0.29216 0.0064186999 0.035693001
0.29159001 0.0066181999 0.036184002
0.28086999 0.089827999 0.039115001
0.32216001 -0.010063 0.047944002
0.32205001 -0.011079 0.048843998
0.32247999 -0.011198 0.047685001
0.27686 0.086173996 0.050946999
0.3204 -0.03105 0.046231002
0.32100001 -0.030636 0.046897002
0.30283999 -0.0053051999 0.046645001
0.30254 -0.0045008999 0.046353001
0.31610999 0.055089999 0.087998003
0.31488001 0.055181 0.087252997
0.26993999 0.035907999 0.044266
0.26822999 -0.023974 0.024425
0.26716 -0.024910999 0.024259999
0.26855001 -0.025118001 0.024387
0.28103 0.077078 0.065169998
0.28224999 0.076755002 0.064099997
0.2818 0.077193998 0.064195998
0.31028 -0.013374 0.049708001
0.31604999 0.016672 0.035347998
0.31595001 0.016542999 0.036242001
0.24815001 0.045116 0.026843
0.24755 0.045267999 0.027101999
0.30410999 0.047010001 0.051332999
0.30513999 0.047515001 0.051539999
0.27072001 0.077266999 0.062353998
0.30236 -0.0076498999 0.032838002
0.30246001 -0.0083402004 0.034304
0.2367 0.059858002 0.034905002
0.23675001 0.059036002 0.035076998
0.21323 0.070331998 0.048245002
0.21225999 0.070322998 0.048094001
0.25793999 -0.044925001 0.017336
0.26427999 0.075929999 0.060403999
0.26514 0.075948 0.061363
0.25933999 -0.032974999 0.016690999
0.25924 -0.032589 0.017917
0.25871 -0.032085001 0.017064
0.31055 -0.046541002 0.037393
0.26879001 -0.01272 0.025028
0.27131999 -0.023693001 0.023372
0.25196999 0.047954001 0.030703999
0.26383999 0.043662 0.043740999
0.26405999 0.044797 0.043962002
0.26877999 -0.011082 0.025677999
0.26949999 -0.011369 0.024824001
0.31363001 0.0080516003 0.048840001
0.2269 0.082438998 0.041960999
0.21217 0.072760999 0.050824001
0.21261001 0.073375002 0.051027998
0.30529001 -0.018472999 0.038265999
0.26394999 0.054938 0.073238999
0.26291999 0.066946998 0.063580997
0.27711999 0.0075236 0.033199999
0.27002999 0.026985001 0.027296999
0.2701 0.026463 0.027897
0.32060999 -0.012509 0.053328998
0.31997001 -0.011249 0.053863999
0.25244999 0.062945001 0.027466999
0.25297999 0.062399 0.028367
0.27432001 0.040293999 0.048287001
0.27566001 0.040491 0.047711998
0.29477 0.057604998 0.055983
0.30238 0.051775999 0.055661999
0.3012 0.051630002 0.055071
0.31167001 0.063441001 0.074776001
0.31163001 0.062242001 0.074715003
0.26352999 0.058784999 0.081497997
0.26427001 0.012948 0.02844
0.31242999 -0.051316001 0.043536998
0.31257999 -0.05243 0.042502001
0.31275001 -0.052646 0.043565001
0.26872 -0.0077 0.028091
0.27287 -0.032219 0.020432999
0.24697 0.047022998 0.030528
0.24748001 0.046459999 0.030081
0.24762 0.046248 0.029496999
0.30803999 -0.035064999 0.040236998
0.30720001 -0.034216002 0.039714999
0.30715999 -0.035390999 0.038596999
0.2872 0.045880001 0.056170002
0.28773999 0.029068001 0.045527998
0.2886 0.028504999 0.044553
0.26054001 0.042612001 0.033831
0.26045999 0.043869 0.033050001
0.27643999 0.075002998 0.066813998
0.27693999 0.074353002 0.066436999
0.30564001 0.0814 0.029215001
0.27145001 0.033209 0.040015001
0.27124 0.033714999 0.040587001
0.31107 -0.01462 0.050124999
0.31092 -0.015175 0.049667999
0.30546001 0.080182001 0.030731
0.30711001 0.079145998 0.030142
0.24721 0.061967999 0.027636001
0.31253999 0.062070999 0.082943
0.31255999 0.062236 0.082355
0.31935999 -0.028719001 0.047876999
0.31885001 -0.029464001 0.048319001
0.29227999 0.037928 0.052625999
0.28841999 0.085111 0.063997999
0.29449999 -0.0024383001 0.0069145001
0.29567999 -0.0023882999 0.0077574002
0.28338 0.083550997 0.062905997
0.26471001 0.018485 0.021857999
0.26424 0.017867999 0.021415999
0.22487999 0.073629998 0.040879998
0.30741999 -0.013586 0.043637998
0.30687001 -0.012618 0.043657999
0.32043999 -0.013277 0.053098001
0.32067001 -0.013463 0.052324001
0.27257001 0.086133003 0.035190001
0.27237001 0.086065002 0.036554001
0.27292001 0.086510003 0.036725
0.26100999 0.048317999 0.041308999
0.31310999 -0.027310001 0.047483999
0.31272 0.075363003 0.10148
0.26036999 0.058738999 0.078048997
0.26131999 0.057734001 0.078186996
0.22244 0.089477003 0.047355998
0.21603 0.067991003 0.045164
0.29003999 0.069206998 0.058844998
0.28894001 0.069103003 0.059840001
0.28296 0.089506999 0.043322001
0.28331 0.089469001 0.044893
0.27972999 0.040119998 0.049734
0.30507001 -0.029805999 0.038461
0.31470001 0.070115998 0.10471
0.31542999 0.070196003 0.1039
0.26989001 0.051573999 0.067120999
0.30599999 0.048216999 0.054940999
0.27311 0.075893998 0.065594003
0.25751999 -0.0092451004 0.029215001
0.26172999 0.078308001 0.051908001
0.26102 0.079274997 0.051066
0.26122999 0.07818 0.051006999
0.26381001 0.066586003 0.064092003
0.26418 0.066339999 0.064824998
0.3091 -0.040541001 0.035461999
0.27542999 0.086308002 0.043026999
0.2809 0.089625001 0.027558999
0.28184 0.090063997 0.028122
0.30649999 0.061071999 0.060035001
0.31558999 0.058921002 0.087840997
0.28797999 0.095308997 0.074023001
0.28887001 0.095867001 0.074643999
0.28869 0.09589 0.074307002
0.25475001 0.096124001 0.052910998
0.25411999 0.096047997 0.051808
0.26600999 -0.0042209001 0.030772001
0.26571 -0.0033201999 0.030835001
0.26455 -0.004499 0.030555001
0.27548999 0.081380002 0.060157001
0.27594 0.081074998 0.061636001
0.27656999 0.081867002 0.060479
0.26271001 0.056876998 0.077119999
0.31630999 -0.0041397 0.052848
0.3152 0.057381999 0.087553002
0.31474999 0.057225 0.088150002
0.32784 0.071552999 0.080582999
0.32738 0.071402997 0.081409
0.21422 0.076981999 0.04888
0.33243999 -0.05043 0.049830999
0.33219001 -0.049031001 0.050478999
0.33379999 -0.05125 0.053621002
0.33300999 -0.052549999 0.053525999
0.31729001 0.053197999 0.084403001
0.31347001 0.060484 0.10602
0.31323001 0.061011001 0.10672
0.30691001 0.057991002 0.061650001
0.30482 -0.0092110997 0.042978
0.30722001 0.016795 0.040977001
0.31415001 0.073611997 0.10552
0.31246999 0.0063005998 0.049988002
0.28850001 0.090755999 0.068222001
0.28712001 0.090549 0.067869
0.32277 -0.00075597002 0.043892
0.31373 0.068957999 0.097351998
0.31355 0.069334999 0.097650997
0.29548001 0.078079 0.049040999
0.29705 0.078326002 0.048195999
0.27135 -0.0077109002 0.025396001
0.27168 -0.0066149002 0.025875
0.25522 0.051272001 0.032198999
0.31107 0.067933999 0.11032
0.31286001 0.057601001 0.077444002
0.28740999 0.013836 0.041289002
0.31452999 -0.050103001 0.054163001
0.31472 -0.049676999 0.054391999
0.26354 -0.044714998 0.021001
0.26322001 -0.044771001 0.022391001
0.28404 0.0095234001 0.040057
0.28307 0.0093419999 0.039600998
0.32085001 -0.0087011 0.052258998
0.32051 -0.0089442004 0.053773999
0.32085001 -0.010014 0.053479001
0.28683001 0.018741 0.042438999
0.28751001 0.018378001 0.042259999
0.27687001 -0.02495 0.016938001
0.27651 -0.024956999 0.017955
0.32387 -0.044652998 0.048425999
0.32335001 -0.044567998 0.049350999
0.25852001 0.065531 0.030413
0.25724 0.064484999 0.029933
0.25812 0.064811997 0.030585
0.32038 -0.047623001 0.052232001
0.32043001 -0.046870001 0.051778998
0.26549 0.082479998 0.055980001
0.26532 0.082961001 0.056310002
0.26514 0.082042001 0.056295998
0.27348 0.027491 0.035714999
0.27307999 0.027324 0.034428
0.21888 0.060968 0.036770001
0.21854 0.062081002 0.037705
0.28830999 0.094841003 0.073642001
0.28891 0.094244003 0.072554
0.25029001 0.063845001 0.023453999
0.25066 0.064057 0.023108
0.25071001 0.064322002 0.021995001
0.29958999 0.079657003 0.040587999
0.29898 0.079499997 0.041452002
0.2568 -0.0083256001 0.028794
0.25674 -0.0090867998 0.028351
0.26637 0.066393003 0.069743
0.26613 0.065976001 0.070347004
0.27695 -0.025210001 0.015497
0.27700999 -0.02492 0.014316
0.28623 0.032253999 0.046974
0.28648999 0.032444999 0.046769001
0.32365 -0.052524 0.058442999
0.32426 -0.05291 0.058988001
0.32418999 -0.052581999 0.060049001
0.25870001 -0.027337 0.021648999
0.25922 -0.02757 0.022357
0.25917 -0.027047999 0.022745
0.27022001 0.022074001 0.030061999
0.26980001 0.022271 0.029371001
0.30968001 0.081793003 0.097620003
0.30875999 0.082645997 0.098249003
0.30338001 0.064699002 0.054088
0.30399001 0.065316997 0.053286001
0.28270999 0.0047243 0.029407
0.28285 0.0043410999 0.028279999
0.31290999 0.069205001 0.10895
0.31400999 0.068828002 0.10816
0.31384999 0.069357 0.10827
0.26326999 0.086167999 0.057909001
0.26449001 0.085998997 0.056529999
0.26431999 0.087096997 0.056407001
0.31154001 0.063469999 0.078385003
0.31180999 0.063353002 0.079692997
0.29381001 0.078326002 0.049779002
0.31814 0.014031 0.034628
0.31805 0.013776 0.035842001
0.30737999 -0.015325 0.039374001
0.30761001 -0.014704 0.038904998
0.26298001 0.039087001 0.032334998
0.26269999 0.039772999 0.033131
0.33254999 -0.049375001 0.054655001
0.33355001 -0.050066002 0.055194002
0.30353001 -0.0067318999 0.043402001
0.30994001 -0.0012492 0.052416999
0.278 -0.030694 0.012454
0.33315 -0.052120999 0.057105001
0.25589001 0.094314002 0.05051
0.25571001 0.094935998 0.050809
0.23965999 0.067682996 0.027109001
0.24007 0.067056999 0.027388001
0.23976 0.067322001 0.026639
0.28549999 0.059285 0.054768998
0.28470001 0.060077999 0.055266
0.28388 0.059393998 0.055312999
0.26975 0.0449 0.047977
0.26868001 0.043777 0.047355
0.28753 0.074343003 0.059767999
0.28744 0.074552 0.060199998
0.26332 0.0058464999 0.030645
0.27340001 -0.0066046999 0.024302
0.31955999 -0.052361999 0.058995001
0.30743 0.051307999 0.060630001
0.25645 0.065309003 0.020793
0.25593999 0.065093003 0.021725999
0.25646001 0.065899 0.022048
0.26304999 0.062242001 0.039864
0.29602 0.010402 0.042091001
0.29552999 0.011727 0.042594999
0.28058001 -0.050135002 0.0074701002
0.28033 -0.050124999 0.0083181998
0.28042999 -0.051029999 0.0084028998
0.32437 -0.020265 0.046259001
0.32352999 -0.021707 0.047139
0.32393 -0.021733001 0.045959
0.31044 -0.042133 0.036419999
0.26664999 0.03647 0.041839
0.29277 0.064473003 0.058008
0.29265001 0.065578997 0.058189001
0.29229999 0.065370001 0.058389999
0.27645999 -0.038965002 0.014114
0.27654999 -0.039677002 0.013154
0.28891 0.096777998 0.069824003
0.2895 0.096520998 0.070410997
0.26998001 0.027435999 0.020439999
0.26993999 0.026551001 0.021215999
0.29635 0.001405 0.032552999
0.29592001 0.0016117 0.033346999
0.30585 -0.025172999 0.044557001
0.30691999 -0.026221 0.045313999
0.27090001 -0.031078 0.021952
0.27686 0.0026014 0.027899001
0.27750999 0.0021701001 0.027276
0.27785999 0.0025775 0.027477
0.26833001 0.083002001 0.053394001
0.2676 0.083329 0.053640999
0.31404999 -0.019299001 0.051630002
0.31485999 -0.018378001 0.052304
0.31398001 -0.018107001 0.051679999
0.27243999 0.072168998 0.068841003
0.27279001 0.072438002 0.069174998
0.27320999 0.072991997 0.068015002
0.26016 0.0070178001 0.028992999
0.26778001 0.022448 0.025931999
0.26703 0.021617999 0.025034999
0.24981999 0.056756001 0.031152001
0.25490001 0.051936999 0.032386001
0.32152 0.067906998 0.1017
0.32185999 0.067589 0.1016
0.32196 0.067915 0.10044
0.23762999 0.068485998 0.034922998
0.23744 0.069069996 0.035292
0.28808001 0.085376002 0.063020997
0.25961 0.047244001 0.035994001
0.25964001 0.046255 0.035764001
0.25977999 0.047013 0.037094001
0.30046001 0.078034997 0.041333001
0.31331 0.066914998 0.087702997
0.26797 0.076839 0.060807001
0.26719001 0.078204997 0.059312001
0.29300001 0.073445 0.053100001
0.2784 0.040162001 0.048138998
0.30858001 0.067744002 0.10874
0.25194001 -0.0075077 0.022436
0.22734 0.055215999 0.039212
0.31783 0.053865001 0.085486002
0.26260999 0.074711002 0.031885002
0.26326001 0.075672001 0.031567
0.26312 0.074868999 0.031029999
0.23078001 0.06222 0.037682001
0.23138 0.063353002 0.037278
0.23074999 0.063137002 0.037819002
0.31084999 0.069159001 0.044032998
0.31094 0.068319 0.043850999
0.28016999 0.050558001 0.049424
0.31420001 0.055063002 0.084807001
0.31413999 0.055403002 0.085447997
0.32431999 -0.019322 0.046291001
0.22076 0.087802999 0.051215999
0.32221001 0.0047778999 0.038897
0.26086 0.080220997 0.05085
0.26165 0.079182997 0.051833
0.29119 0.072466999 0.055792
0.29146001 0.071627997 0.056033999
0.29177001 0.072586998 0.055022001
0.26276001 0.062369999 0.077711999
0.31061 0.067391999 0.078225002
0.31015 0.068029001 0.077831998
0.23419 0.050331 0.034967002
0.23364 0.050834 0.035649002
0.23239 0.051024001 0.035548002
0.31738999 0.051405001 0.081051998
0.29099 0.0068164002 0.035824001
0.29118001 0.0064198002 0.035480998
0.3071 0.073014997 0.040991001
0.30642 0.072835997 0.041873999
0.30500001 0.063130997 0.055293001
0.30465999 0.062546 0.055762999
0.29506999 0.081726998 0.043715999
0.29484001 0.082901001 0.043609001
0.29477999 0.081928 0.044723
0.28786001 0.033767998 0.049003001
0.28714001 0.033734001 0.048629999
0.28727001 0.033741001 0.047584001
0.29596999 0.0049840999 0.041237
0.29550999 0.0051744999 0.041005
0.25804999 0.045662001 0.027814001
0.26598999 0.055004001 0.073982
0.26550999 0.054843001 0.074801996
0.31488001 0.080436997 0.098596998
0.30077001 0.026688 0.038275
0.30138999 0.026629001 0.037854999
0.30142999 0.027657 0.037829001
0.31169999 0.069355004 0.10901
0.27836999 -0.037322 0.0091035003
0.27807999 -0.038802002 0.010186
0.27821001 -0.038566001 0.0092623001
0.26181 0.063459001 0.057854
0.29541001 0.0027053 0.034743
0.22163001 0.080588996 0.045975
0.30059999 0.059707001 0.056467999
0.25641999 0.091234997 0.055562001
0.25538 -0.026381999 0.015682001
0.25509 -0.026356 0.016634
0.25527999 -0.024962001 0.016797001
0.22443999 0.065582 0.041200999
0.22432999 0.066687003 0.040826
0.25870001 -0.03317 0.01416
0.25889 -0.033183001 0.013177
0.30796999 0.052576002 0.063056
0.30790001 0.066229001 0.049044002
0.30799001 0.065985002 0.050363999
0.27721 0.016536999 0.038385998
0.278 0.016247001 0.039910998
0.28725001 0.092817999 0.070568003
0.28647 0.092823997 0.070344001
0.2863 0.092154004 0.069798
0.21967 0.071650997 0.043786
0.22071999 0.071056999 0.043347999
0.31935999 -0.012059 0.054202002
0.27746001 0.085644998 0.047203001
0.27776 0.086051002 0.048905
0.27851 0.086333998 0.047545999
0.31231999 0.076335996 0.10487
0.31294 0.076491997 0.104
0.31186 0.076218002 0.10356
0.32102001 0.0096477997 0.036935002
0.32091999 0.0093170004 0.037501998
0.32122999 0.0088691004 0.036288999
0.26846999 0.034515001 0.041260999
0.2922 -0.00075324997 0.0068409001
0.29276001 -0.0013363 0.0075484999
0.28038001 0.016813001 0.041614
0.30755001 0.02637 0.031337
0.25993001 0.0062040999 0.029646
0.27090999 0.082659997 0.056848999
0.25895 0.013795 0.018045999
0.25938001 0.013949 0.019567
0.25982001 0.014243 0.018447001
0.30464 -0.023789 0.043915
0.30540001 -0.024389001 0.044822
0.30579001 -0.023740999 0.045396
0.30989 0.017537 0.038644001
0.30932 0.018510001 0.038646001
0.21977 0.084090002 0.050549999
0.29545 0.082776003 0.042502001
0.27443001 0.019646 0.036568001
0.31884 0.0080310004 0.044985
0.26212999 0.088875003 0.057303
0.26256999 0.088191003 0.056820001
0.32857999 -0.045363002 0.046402
0.32793 -0.044922002 0.046833999
0.32821 -0.045209002 0.047602002
0.3003 0.030849 0.039537001
0.30122 0.031246999 0.038828
0.26381999 -0.0086415997 0.029699
0.26363999 -0.0089622997 0.029616
0.30827999 0.060633 0.062197
0.30814001 0.061216999 0.062964998
0.27153999 0.070014998 0.069636002
0.30939999 0.076498002 0.10506
0.30934 0.076663002 0.10607
0.26763001 0.061746001 0.077990003
0.26837 0.062139001 0.077454999
0.29543 0.036894999 0.050158001
0.27265999 -0.023332 0.022515999
0.27298999 -0.025229 0.02258
0.31408 0.054334 0.079577997
0.27669999 0.061020002 0.070949003
0.27709001 0.062075999 0.069678001
0.30452999 0.037448999 0.040755
0.31185001 0.074473999 0.10125
0.31161001 0.073693998 0.10139
0.29866001 0.076871 0.049217999
0.29818001 0.076278999 0.049609002
0.29909 0.075998999 0.04944
0.21811 0.072430998 0.045986
0.26469001 0.056318998 0.077087998
0.26298001 0.056905001 0.077643998
0.28452 0.053018998 0.051392999
0.30316001 0.023099 0.039597001
0.30324 0.022278 0.039785001
0.31709999 -0.0091987001 0.055436
0.28399 0.045021001 0.054834999
0.28393 0.045958001 0.054754999
0.27868 -0.053049002 0.010105
0.27816001 -0.053355999 0.010075
0.27937999 -0.053013999 0.0089192996
0.24821 0.045761 0.028186001
0.24710999 0.045862999 0.027873
0.29262 0.0041314 0.032258999
0.27285999 0.020817 0.034914002
0.27379999 0.01957 0.035491999
0.27371001 0.02073 0.035085
0.25997999 0.051676001 0.038562998
0.25940999 0.050691001 0.036929
0.26977 0.024374001 0.026791001
0.27009001 0.025207 0.027141999
0.26977 0.02568 0.026536001
0.29121 0.074780002 0.054419
0.29183 0.074791998 0.053560998
0.2915 0.075441003 0.053502999
0.31898999 -0.022562999 0.050946001
0.31935 -0.022585999 0.050280001
0.31957999 -0.021645 0.050404999
0.26225001 0.066933997 0.058481
0.27142 -0.016803 0.019735999
0.271 -0.015628999 0.020510999
0.27081999 -0.016957 0.02059
0.26135999 -0.017344 0.026927
0.29824999 0.040302001 0.051109001
0.29875001 0.040204 0.050283
0.28503001 0.075214997 0.062444001
0.26357999 0.069982 0.031750001
0.26356 0.071176 0.031835999
0.26300001 0.071286999 0.031383999
0.26660001 0.055892002 0.077440001
0.27118999 0.020746 0.032063
0.22333001 0.085545003 0.045196
0.30989999 0.0062023001 0.050445002
0.31062999 0.0059866998 0.050725002
0.27079001 -0.01017 0.024154
0.30068001 0.071346998 0.049651001
0.30015999 0.071144998 0.050569002
0.30107 0.070386998 0.050104
0.26137999 0.067896001 0.055282
0.26170999 0.068158999 0.056251001
0.2879 0.085105002 0.062159002
0.30252999 0.059615999 0.056037001
0.30342001 0.059819002 0.056263998
0.32255 0.00024412 0.044075001
0.26807001 -0.012246 0.025641
0.23932 0.065986998 0.033923998
0.23944999 0.065318003 0.034106001
0.23999999 0.066794001 0.033603001
0.21934 0.085010998 0.051137999
0.22012 0.085316002 0.051603001
0.21966 0.085575998 0.052145001
0.32466 -0.046379 0.051323999
0.31413001 -0.039923999 0.042934999
0.2339 0.072416998 0.036729001
0.31248 0.060871001 0.080493003
0.31257001 0.060977001 0.081299998
0.33026999 0.068889 0.080178
0.33000001 0.068912998 0.081258997
0.33035001 0.068549 0.081357002
0.26949999 0.031424999 0.03362
0.32356 0.069196999 0.096003003
0.26418 0.054099001 0.071638003
0.26482999 0.054182 0.070711002
0.2401 0.066913001 0.032304998
0.24045999 0.066629 0.031312998
0.23941 0.068031996 0.030982001
0.27937999 0.028872 0.045359001
0.27987999 0.027406 0.044461001
0.30412999 -0.027201001 0.038947999
0.30101001 0.017306 0.043152999
0.30008999 0.017522 0.043168999
0.29940999 0.061127 0.056906998
0.29857999 0.061009001 0.057459999
0.25703999 0.066030003 0.021034
0.31373999 0.071603 0.1044
0.31307 0.072187997 0.10519
0.31255001 0.071870998 0.10469
0.32424 -0.048179999 0.057417002
0.32521999 -0.047727 0.057962
0.31490001 0.066008002 0.052328002
0.31494999 0.065982997 0.051414002
0.31219 0.051667999 0.067254998
0.31237 -0.028643001 0.047040999
0.31112 -0.028665001 0.04707
0.31310999 0.051475 0.074217997
0.31378001 0.051387001 0.074504003
0.30524001 -0.0091952002 0.042289
0.21991999 0.078730002 0.045979999
0.22920001 0.063355997 0.038293
0.22855 0.064337999 0.038795002
0.29908001 0.034306001 0.042876001
0.29931 0.033441 0.041462999
0.29446 0.01616 0.042746
0.29437 0.015156 0.042206999
0.29543 0.016123001 0.042339999
0.3107 -0.049006 0.032937001
0.32104 0.0094998004 0.038603999
0.27366999 0.087325998 0.038144
0.27463001 0.088193998 0.038888
0.27496001 0.087904997 0.038378999
0.28599 0.090198003 0.030421
0.27173001 0.021056 0.033050999
0.27886 0.086124003 0.046438001
0.28389001 0.090092003 0.028565999
0.28347 0.090318002 0.029732
0.28437001 0.089801997 0.030160001
0.27267 0.058538999 0.075324997
0.27230999 0.057866 0.075111002
0.27267 0.057472002 0.074197002
0.33028999 -0.047696002 0.049001001
0.33072999 -0.047704998 0.050073002
0.33107001 -0.047981001 0.049139999
0.33377001 -0.051591001 0.056483001
0.33322001 -0.051470999 0.057239
0.33357 -0.052012 0.057069
0.27652001 0.072632998 0.069284
0.27654001 0.071501002 0.069560997
0.28878999 0.086430997 0.064314
0.28836 0.086071 0.063956
0.25512001 0.0022181999 0.026167
0.25584 0.0020105999 0.027106
0.25580999 0.0024969 0.027073
0.24755 0.062290002 0.026055999
0.2473 0.061979 0.026819
0.24873 0.061928 0.027308
0.25933999 -0.020164 0.025131
0.25821 -0.020094 0.025001001
0.31961 -0.0032267 0.050452001
0.31898001 -0.0033128001 0.050992999
0.31893 -0.0045706001 0.051459
0.31733 0.011693 0.043302
0.32113999 -0.0067198002 0.048988
0.29951 0.034694999 0.044463001
0.29875001 0.034825999 0.043928999
0.31804001 -0.010567 0.055149999
0.26146001 0.057045002 0.077540003
0.32894 -0.047095001 0.049578
0.29539999 0.0027723999 0.035704002
0.28327999 0.051784001 0.051015999
0.28301001 0.051589001 0.050503999
0.28266999 0.050912 0.051112
0.27375999 0.084541999 0.054125
0.30120999 -0.0034123999 0.045680001
0.21712001 0.076027997 0.047803
0.21862 0.075788997 0.047157999
0.28898999 0.063323997 0.055259001
0.28753 0.062238 0.055231001
0.30467001 0.048425999 0.053862002
0.31981 0.052184999 0.082016997
0.27443999 -0.030591 0.019636
0.33146 -0.048967 0.054303002
0.33052999 -0.049235001 0.053796001
0.33019 -0.050133001 0.054269999
0.32517999 -0.043327 0.042668
0.32464001 -0.042465001 0.041140001
0.29390001 0.017685 0.042918999
0.29451999 0.017181 0.042762
0.31516001 -0.023515999 0.050434001
0.29074001 0.070951998 0.058045
0.29078001 0.071918003 0.057432
0.29027 0.071526997 0.058258999
0.32089999 0.052963998 0.084590003
0.32146001 0.052951001 0.083749004
0.28952 0.089971997 0.068274997
0.22574 0.052283 0.030446
0.22504 0.052687 0.029815
0.22619 0.051844001 0.030200999
0.30074999 0.076651998 0.044934999
0.30129001 0.076182 0.045214001
0.25896999 0.01293 0.015507
0.25835001 0.012085 0.015245
0.25646999 -0.0065521002 0.029053999
0.31812999 0.052328002 0.082630001
0.30858001 0.01664 0.040302001
0.30906001 0.016573001 0.040089
0.29242 0.062936001 0.055411
0.28152001 0.029002 0.046365
0.28 0.029118 0.045896001
0.27632999 0.0043623 0.030716
0.25802001 0.089893997 0.054042
0.25793001 0.089960001 0.055493999
0.25756001 0.090236001 0.054384999
0.26451001 0.080539003 0.057092
0.32144001 -0.051073998 0.054575
0.32189 -0.051183 0.055553999
0.26828 0.0051151002 0.031440001
0.27888 0.062318999 0.066918001
0.27946001 0.062619001 0.066799
0.30318999 0.059021 0.056287002
0.22339 0.062903002 0.042693
0.26953 0.00031952001 0.031410001
0.27063 0.00014879 0.031334002
0.27113 0.0094421003 0.032187
0.27241999 0.0093451003 0.033020001
0.21980999 0.058483999 0.032407001
0.22028001 0.057355002 0.031374
0.22037999 0.057861 0.032511
0.30816999 0.045019999 0.044055998
0.30766001 0.044374999 0.044149999
0.30719 0.043859001 0.043696001
0.27000999 0.026365999 0.022318
0.26991001 0.027712001 0.021555001
0.30041 0.051605999 0.055057999
0.29326001 0.026497001 0.042589001
0.29442 0.025555 0.042220999
0.29446 0.026655 0.042321
0.26005 0.067690998 0.038194999
0.24827 0.063092999 0.022352999
0.33114001 -0.051429 0.055296
0.33057001 -0.051408999 0.054074999
0.29741001 0.043846 0.054368999
0.29754001 0.042789999 0.054398
0.28726 0.078955002 0.054961
0.28753999 0.078005999 0.055500999
0.28768 0.078879997 0.054398999
0.31577 -0.045871001 0.051004998
0.31650001 -0.046071 0.051495001
0.31239 0.019193999 0.033194002
0.31439999 0.0037084999 0.051190998
0.27588001 -0.049162999 0.014213
0.27575001 -0.050032999 0.013935
0.27642 -0.048994999 0.013554
0.28108001 0.037170999 0.047226001
0.27085999 -0.0011009 0.030709
0.27122 -0.0019189999 0.029402999
0.27133 -0.0012567 0.030092999
0.31584001 -0.025896 0.049548
0.31531 -0.025854001 0.049194999
0.31608 -0.026226001 0.049738001
0.32774001 0.067459002 0.085313
0.32756001 0.068317004 0.085074998
0.31053999 -0.049019001 0.030407
0.27518001 0.0057072998 0.031812999
0.26890999 0.031305999 0.02715
0.22385 0.056157999 0.038251001
0.22051001 0.070093997 0.042911001
0.21995001 0.070377 0.043827999
0.31720001 -0.014893 0.053178001
0.31869 -0.014965 0.052737001
0.31614 0.061007001 0.10928
0.28615001 0.0056647998 0.035928
0.28453001 0.0052832998 0.036033001
0.28472999 0.0050268001 0.035555001
0.24018 0.066163003 0.033746
0.24044999 0.065834999 0.033622999
0.29247001 0.00018328 0.0087390998
0.25312999 0.057599999 0.031191001
0.25431001 0.059096999 0.031583998
0.25312999 0.058814999 0.030967999
0.31380001 -0.046774 0.047554001
0.31568 -0.034076001 0.045017
0.31647 -0.034313999 0.045619
0.31628001 -0.033682998 0.046006002
0.22158 0.079424001 0.045609001
0.22059999 0.079217002 0.046105999
0.31150001 0.01393 0.043409001
0.31560001 -0.053077001 0.051213
0.25881001 0.013384 0.019099999
0.25824001 0.012946 0.019102
0.31060001 0.047830001 0.059719
0.25892001 0.058632001 0.070541002
0.31343001 -0.047086 0.048521999
0.31352001 -0.047789998 0.049118001
0.25249001 0.093321003 0.051125001
0.25231999 0.093788996 0.050331
0.25288999 0.093091004 0.050331999
0.32308 -0.026209 0.045735002
0.32284999 -0.027377 0.045628
0.29021001 0.096343003 0.072190002
0.26102999 -0.0065355999 0.030146001
0.26241001 -0.0064751999 0.030462001
0.26210001 -0.0055999998 0.030773001
0.27347001 0.077105001 0.064219996
0.22996999 0.068313003 0.037841
0.27048999 0.072306 0.065870002
0.27145001 0.072469003 0.066375002
0.27146 0.073641002 0.066257998
0.31569999 -0.0060745999 0.054386001
0.26467001 0.044633999 0.044806
0.26539001 0.046333 0.045255002
0.26486999 0.046114001 0.045003999
0.32168001 -0.033101998 0.045308001
0.32249999 -0.032094002 0.044128999
0.32187 -0.031746 0.045155998
0.26302999 0.012403 0.028046001
0.26403999 0.011773 0.028795
0.27546 0.086952999 0.026232
0.27452001 0.086515002 0.027139001
0.26616001 0.043556999 0.04583
0.26543999 0.043697 0.045026999
0.25771001 0.059733 0.034306001
0.25740001 0.059469 0.033369001
0.29714999 0.00028740001 0.038456
0.31215 -0.052359998 0.038449999
0.21981999 0.080447003 0.046606999
0.22115999 0.07987 0.046344999
0.30344 0.061071001 0.056090999
0.23716 0.058706999 0.035659999
0.23582999 0.058515001 0.035654001
0.27789 0.084992997 0.065168999
0.27840999 0.086011998 0.065987997
0.25404999 0.056506999 0.032053001
0.25421 0.057551999 0.031819999
0.27924001 0.01387 0.03929
0.27937001 0.012848 0.039588999
0.25979 -0.014125 0.027824
0.21665999 0.078913003 0.051073
0.21622001 0.078091003 0.049803998
0.27162999 -0.050124001 0.017012
0.2458 0.051584002 0.031605002
0.27630001 -0.034154002 0.016417
0.26817 0.039298002 0.045568001
0.31097001 0.065843001 0.0557
0.31242001 0.066202998 0.054963
0.26209 0.078210004 0.055688001
0.28154001 0.067984998 0.066404
0.28064001 0.068804003 0.066661
0.31876001 0.070064001 0.10283
0.31819999 0.070338003 0.10269
0.31779 0.069781996 0.10349
0.32528999 -0.032988999 0.039184999
0.32447001 -0.034200002 0.040118001
0.32477999 -0.033925999 0.038965002
0.29593 0.025534 0.041526999
0.2974 0.026621001 0.040759001
0.29591 0.026478 0.041538
0.30689999 0.015775001 0.042078
0.30660999 0.015441 0.042690001
0.26581001 -0.038633998 0.015679
0.26675001 -0.039338 0.015639
0.26673001 -0.038876999 0.016085001
0.31309 0.059629001 0.081935003
0.30013999 0.081826001 0.036989
0.30043 0.082998998 0.035980001
0.29951999 0.082635999 0.036827002
0.30230001 -0.0065722 0.035518002
0.30726001 -0.014941 0.040151
0.30717 -0.014806 0.041147999
0.28935999 0.092102997 0.066253997
0.2897 0.090671003 0.065747999
0.32449999 -0.046760999 0.053653002
0.24099 0.063252002 0.034267999
0.24101999 0.06222 0.034313001
0.24135999 0.063575 0.033064
0.31000999 0.074537002 0.035076998
0.31015 0.074509002 0.033622999
0.29717001 0.055270001 0.056152001
0.29671001 0.055987 0.056315999
0.22352999 0.077054001 0.042810999
0.22339 0.078436002 0.042828001
0.27017 0.082448997 0.056411002
0.25365999 -0.0056803999 0.026869001
0.25756001 0.085065 0.049835
0.25863999 0.083897002 0.050012
0.25872001 0.085124001 0.050349999
0.32343999 0.064652003 0.098484002
0.27252001 -0.030882001 0.021260001
0.27293 -0.030998999 0.020821
0.27232999 0.081735998 0.058451999
0.27279001 0.082442999 0.058827002
0.2728 0.082691997 0.058139
0.22381 0.089428 0.044580001
0.30138999 0.0085961996 0.046606999
0.30059001 0.0072426 0.045543998
0.30608001 0.015569 0.042672001
0.30693999 -0.01267 0.042054001
0.30675 -0.012178 0.043133002
0.30954999 0.048509002 0.061429001
0.31075001 0.048741002 0.062346
0.30957001 0.048824001 0.062228002
0.27880001 0.073674001 0.066726997
0.27976 0.073220998 0.065647997
0.27958 0.073811002 0.065941997
0.29179999 0.018641001 0.042452
0.30118001 -0.0047275 0.040270001
0.30102 -0.0044141999 0.040828001
0.27000001 0.026629999 0.024905
0.26988 0.025834 0.025683001
0.30834001 -0.023907 0.047516
0.30965 -0.024966 0.047088001
0.27689999 0.020718001 0.040410001
0.27605 0.020677 0.039106
0.24593 0.048037 0.030869
0.30610999 0.033560999 0.030853
0.30581 0.033112001 0.031810001
0.30662999 0.033025999 0.031142
0.31391001 0.047274001 0.057941001
0.31423 0.047639001 0.059372999
0.31334999 0.047281999 0.059197001
0.27465001 0.0016281001 0.029855
0.26875001 0.075309999 0.063991003
0.30704999 0.067400001 0.11093
0.30357999 0.0093500996 0.047309998
0.22633 0.054476 0.038394
0.22750001 0.055039998 0.038653001
0.26837 0.034855001 0.041804001
0.26945999 0.034743998 0.042284999
0.26918 0.035418 0.043159001
0.26808 0.016334999 0.030831
0.26795 0.014943 0.030995
0.28859001 0.074717 0.058054
0.27513999 0.024084 0.040461998
0.27570999 0.023150001 0.039942
0.28845999 0.089489996 0.067693003
0.26368999 0.016364001 0.023604
0.26484999 0.017440001 0.024397001
0.26409999 0.017509 0.022950999
0.31068 0.021303 0.031688001
0.31044 0.021365 0.032297999
0.30386999 -0.023887999 0.039838001
0.26596001 0.044783998 0.045650002
0.26655999 0.044778999 0.046301
0.27667999 0.062116001 0.070795
0.22449 0.087456003 0.046121001
0.22465 0.088499002 0.045040999
0.22431 0.088609003 0.045837
0.31299001 -0.035167001 0.044810999
0.30184001 0.0036154999 0.047722001
0.28442001 0.039228 0.053622
0.23932999 0.052885 0.033481002
0.23929 0.053180002 0.034894999
0.29897001 0.073450997 0.049749002
0.25854 0.066267997 0.01908
0.25917 0.066716 0.019459
0.26225999 0.054125998 0.071115002
0.26097 0.055372 0.071378
0.31242001 -0.035475999 0.044815999
0.31176001 -0.034196001 0.044840001
0.31071001 -0.035151001 0.044179998
0.31117001 -0.0046987999 0.052650001
0.21188 0.075223997 0.053761002
0.21166 0.075934 0.053881001
0.21118 0.074782997 0.053619999
0.31413001 0.057502002 0.082184002
0.31503001 0.056983002 0.083687
0.27236 -0.035452999 0.018865
0.25924 0.050574999 0.035360001
0.31639999 -0.044482 0.046562999
0.31676 -0.044833001 0.04764
0.31727001 -0.044357002 0.047208998
0.26512 0.067812003 0.067296997
0.26422 0.068933003 0.065954
0.21857999 0.06357 0.038543999
0.2184 0.064560004 0.039014
0.28156 0.083049998 0.064135998
0.28591999 0.067685001 0.062790997
0.28648001 0.067896001 0.062233999
0.25308001 -0.019414 0.022903999
0.25288999 -0.019125 0.023945
0.22295 0.076068997 0.042831
0.31720999 0.059055001 0.10643
0.31663001 0.058754999 0.1069
0.25856999 0.088358 0.056786999
0.25764 0.089713998 0.056341998
0.25815001 0.089410998 0.056136999
0.26203999 0.050464001 0.042319998
0.26247001 0.040442999 0.035810001
0.32977 0.058506999 0.082726002
0.30792999 0.041708998 0.039113
0.30893999 0.042130001 0.038299002
0.30858999 0.041893002 0.039145999
0.28554001 0.0082985004 0.039958
0.29201001 0.031073 0.044806
0.31134 -0.041852001 0.038812
0.31123 -0.042339999 0.037948001
0.26688999 0.041264001 0.045880999
0.29660001 0.00072682003 0.033449002
0.27265 0.0081668999 0.032634001
0.32475001 -0.041958999 0.038771
0.32480001 -0.042172998 0.037466001
0.32458001 -0.041159 0.037712999
0.27269 0.084674001 0.024179
0.27364001 0.085262001 0.024335001
0.28169 0.066855997 0.066659003
0.28162 0.065674998 0.066947997
0.28038999 -0.052487999 0.0081567001
0.27979001 -0.052395001 0.0091308998
0.28095999 0.088483997 0.070224002
0.30142 -0.0068055 0.033913001
0.28294 0.071315996 0.064741999
0.28399 0.071870998 0.064381003
0.28402999 0.072279997 0.064154997
0.31599 0.053073 0.084156998
0.31683999 0.053723998 0.085063003
0.27522999 0.023171 0.039269999
0.23599 0.063166998 0.034692999
0.26462001 -0.015732 0.026239
0.26427001 -0.014999 0.026759
0.26409999 -0.016193001 0.026613001
0.31806001 -0.0057378998 0.054141998
0.25757 0.056868002 0.034180999
0.25795001 0.056340002 0.034564
0.26157999 0.063470997 0.063248999
0.26234001 0.063965 0.063193999
0.28005001 0.0013712 0.023519
0.28022 0.0015578 0.022283999
0.27546 0.029025 0.043494999
0.27542999 0.028473999 0.042909998
0.27621001 0.028548 0.043579999
0.27228001 -0.038981002 0.016434999
0.22384 0.075769 0.042431001
0.22439 0.075033002 0.041657999
0.31927001 0.012761 0.03655
0.31279999 0.017593 0.034917999
0.32330999 0.052829001 0.082354002
0.31068 -0.051058002 0.034035001
0.32052001 0.075410001 0.098383002
0.28444001 0.058768999 0.054636002
0.33052 0.059920002 0.08303
0.33076999 0.061177999 0.083029002
0.25847 0.087301999 0.059064999
0.30281001 0.07502 0.045720998
0.30331999 0.074882999 0.044597998
0.29142001 0.079319999 0.049263
0.29221001 0.080498002 0.049585
0.29082 0.077284001 0.051837999
0.29069999 0.077784002 0.050545
0.27015001 0.013379 0.032368001
0.26776999 -0.0041561001 0.030169999
0.24213 0.056517001 0.032258999
0.24248999 0.054997001 0.032071002
0.31452999 0.016694 0.033218
0.31434 0.016967 0.033376001
0.31485 0.016836001 0.033551
0.27232 -0.0069733001 0.024907
0.2726 -0.0063339001 0.025087999
0.32591999 -0.031897001 0.036281999
0.32595 -0.030425999 0.036045998
0.28459001 0.0055445 0.036770001
0.28591999 0.030223999 0.047244001
0.31174001 0.065682001 0.040840998
0.31277999 0.046967 0.057739999
0.31248999 0.046526 0.057271
0.31964001 0.0087893 0.042642999
0.31887001 0.0092230998 0.043749001
0.27726999 -0.0052266 0.020273
0.31417999 -0.047024 0.050880998
0.25775 0.066267997 0.024692999
0.2321 0.051798001 0.036499001
0.30590001 0.033613 0.031808
0.27124 0.081579 0.057968002
0.30845001 0.055222999 0.064717002
0.29093999 0.017375 0.042252999
0.29199001 0.017213 0.042245999
0.30871001 0.043733999 0.041751999
0.21806 0.064436004 0.037870999
0.21789999 0.064990997 0.038658001
0.24879 0.06219 0.026132001
0.26989001 -0.038619999 0.017728001
0.26894999 -0.038582999 0.017027
0.27054 -0.039058998 0.016883001
0.27750999 -0.052558001 0.011993
0.32060999 0.0033745 0.047072999
0.32111999 0.0035558001 0.045898002
0.31823999 -0.018719001 0.051681001
0.25784001 0.083889 0.048861001
0.30230001 0.013743 0.044581998
0.30138001 0.013279 0.044218
0.32234001 0.0034377 0.042741999
0.32225999 0.0032852001 0.042135
0.22724999 0.052053999 0.034407001
0.30809999 -0.035746001 0.040835999
0.26666 -0.0020506 0.031291001
0.26754999 -0.0010897 0.031332999
0.26673999 -0.00088648999 0.031613
0.30941001 -0.0090936003 0.050239
0.30860001 -0.0089964001 0.049681
0.25297999 -0.0044411002 0.025741
0.25389001 -0.0045599001 0.026738999
0.25354001 -0.0045369002 0.026505001
0.25979 -0.026010999 0.023343001
0.31551999 0.055716 0.088413
0.27774999 -0.051267002 0.012543
0.27851 -0.051126 0.011381
0.25547001 0.095674999 0.054329
0.26045999 0.053856 0.038339999
0.26041999 0.054740001 0.038256999
0.27443001 -0.020181 0.017294999
0.27428001 -0.019236 0.017262001
0.24708 0.062775999 0.022986
0.26062 0.068386003 0.038784999
0.26675001 -0.046537999 0.020755
0.28079 0.081857003 0.064880997
0.27787 0.082603998 0.062472001
0.27756 0.082847998 0.061195001
0.30991 0.016089 0.040982001
0.31088001 0.015815999 0.041182
0.23771 0.051699001 0.035296999
0.30269 0.034336999 0.039136998
0.30548 0.040961999 0.043852001
0.31156 0.059643 0.074538
0.27184999 0.044794001 0.048818
0.25948 0.067129001 0.038585
0.25885001 0.065598004 0.038306002
0.32841 -0.050330002 0.052538
0.32940999 -0.050216001 0.053578001
0.32949999 -0.048932001 0.053008001
0.27325001 0.030948 0.041901
0.27287 0.031160001 0.041175
0.27239001 0.030877 0.040545002
0.31527999 0.015171 0.039744999
0.21732 0.086152002 0.048987001
0.2174 0.085969001 0.047984
0.31079 0.020148 0.034295999
0.3197 -0.0045381002 0.050469998
0.25692001 0.089565001 0.051392
0.24970999 0.046500001 0.029805001
0.27212 -0.0092113996 0.02372
0.27197 -0.0097361999 0.023685001
0.27246001 -0.010003 0.022361999
0.30924001 0.019942001 0.037248001
0.32218 -0.040844001 0.042215999
0.28261 0.038947001 0.052207999
0.28268 0.039836999 0.052896999
0.30974001 0.083694004 0.098867998
0.30855 0.083938003 0.098475002
0.26447001 0.018201999 0.020008
0.26475999 0.058710001 0.080775999
0.26422 0.058469001 0.080343001
0.27320001 0.079617001 0.062605001
0.27469 0.080127001 0.062532
0.27333 0.080188997 0.061988
0.28499001 0.065672003 0.063294999
0.2843 0.065641999 0.064043999
0.31336999 0.069656998 0.10058
0.26106 -0.026767001 0.02338
