# .PCD v0.7 - Point Cloud Data file format
VERSION 0.7
FIELDS x y z
SIZE 4 4 4
TYPE F F F
COUNT 1 1 1
WIDTH 1487
HEIGHT 1
VIEWPOINT 0 0 0 1 0 0 0
POINTS 1487
DATA ascii
0.2789 -0.047155 0.0117
0.27794001 -0.046569999 0.013044
0.32438001 -0.053199001 0.055826999
0.32293001 -0.052972998 0.056618001
0.32460001 -0.054499 0.054471001
0.28726 0.057117999 0.054368
0.24413 0.045773 0.028031001
0.24530999 0.04662 0.031484
0.30157 0.036557999 0.041749001
0.30897999 0.0098508997 0.049247
0.31902 0.00099207996 0.049796
0.26045999 0.086369 0.054664001
0.26091 0.087536998 0.055651002
0.32771 -0.052182 0.055066001
0.32813999 -0.052462999 0.055971
0.32717001 -0.053468999 0.054811001
0.30531999 0.063882001 0.053364001
0.32148001 0.0015322 0.046728998
0.32172 0.0016384 0.044764001
0.31848001 0.00070481998 0.050592002
0.30932 -0.018516 0.048932001
0.29148 0.049803998 0.057530001
0.28110999 -0.047904 0.0044821999
0.28180999 0.049469002 0.049472999
0.30682999 0.068952002 0.047564
0.30061999 0.010505 0.045260999
0.29471999 0.055989001 0.055739999
0.29385 0.055468999 0.055507999
0.25496 0.0057183998 0.022431999
0.25512999 0.0066566998 0.023274999
0.31061 0.069002002 0.082431003
0.27513 0.03633 0.044263002
0.27584001 0.035866 0.045276999
0.25424999 0.0023459999 0.023875
0.25466999 0.002569 0.024462
0.26808 0.083240002 0.050802
0.26905999 0.083763003 0.050489001
0.28051999 0.080105998 0.064654998
0.28172001 0.080297001 0.062637001
0.25968999 0.050159998 0.036453001
0.25966999 0.049991 0.036465
0.27862 0.015393 0.040989999
0.29176 0.011398 0.039608002
0.29262 0.0098393997 0.04112
0.27395999 0.013114 0.034951001
0.24102999 0.064019002 0.033119999
0.24163 0.063302003 0.031606998
0.32567999 0.058120001 0.086084001
0.32571 0.056655001 0.086097002
0.3263 0.057638001 0.084687002
0.31086999 0.019554 0.036724001
0.26104999 -0.0038658001 0.031528998
0.30105001 0.021423001 0.040227
0.31775999 -0.00078483002 0.052308001
0.26535001 -0.021515001 0.023957999
0.30061001 0.031443998 0.039825
0.30072001 0.032138001 0.040373001
0.25601 0.064746998 0.025134001
0.25516 0.064521 0.022568
0.27028 0.0072828 0.031133
0.26910001 0.0070296 0.032419
0.31597999 -0.041990999 0.04253
0.29684001 0.051755998 0.055934999
0.22516 0.062550001 0.040500998
0.22504 0.061338998 0.041294001
0.30895001 0.065823004 0.074266002
0.30937999 0.064168997 0.074818999
0.25615001 0.045522001 0.028721999
0.26326001 0.071134001 0.063132003
0.26264 0.072132997 0.062859997
0.25038001 0.051268999 0.031254999
0.27381 0.056921002 0.072640002
0.27430999 0.058171999 0.070839003
0.26693001 -0.022646001 0.024569999
0.26602 -0.024342 0.025272001
0.26769 -0.024288001 0.024292
0.21878 0.060538001 0.037983999
0.30864999 -0.015673 0.048785999
0.31009001 -0.016403999 0.048112001
0.31121999 -0.016184 0.050037
0.27711001 0.011559 0.035480998
0.27465999 -0.048413999 0.016656
0.27087 -0.047775999 0.017154999
0.27674001 0.083035 0.060651999
0.27801999 0.082592003 0.059971999
0.22832 0.077660002 0.037772998
0.22826999 0.078057997 0.036494002
0.28352001 0.031252 0.046018001
0.28303 0.030750999 0.047224
0.32938999 -0.053355999 0.053955
0.30236 0.046425 0.051750001
0.30002999 0.046974 0.052889001
0.30105001 0.045258999 0.052315999
0.22871 0.067139998 0.038656
0.22932 0.065663002 0.038139001
0.26109999 -0.025407 0.023179
0.26109999 0.067840002 0.037177999
0.26028001 0.068122998 0.040227
0.30473 0.0065787998 0.048964001
0.28501999 0.033775002 0.047026999
0.28558001 0.034637 0.046154998
0.31028 0.073469996 0.10613
0.27974999 0.077229999 0.065167002
0.28156999 0.076002002 0.066264004
0.25964999 0.046948999 0.036339
0.27564999 0.059714001 0.072062999
0.27597001 0.059655 0.071735002
0.32328001 0.068457 0.097028002
0.32291001 0.069269001 0.099063002
0.30467001 0.0429 0.046275999
0.30111 0.048030999 0.053805999
0.21819 0.062178999 0.036364
0.2183 0.060302 0.036286999
0.26126 -0.031156 0.021337001
0.28782001 0.069397002 0.062623002
0.28668001 0.070119001 0.061138999
0.31016999 0.082551003 0.097263001
0.31044999 0.082735002 0.097015999
0.30925 0.082106002 0.095141001
0.27643001 -0.038460001 0.01439
0.27682999 0.085934997 0.051516999
0.29712 0.035478 0.048407
0.29633999 0.072939999 0.050655
0.29618001 0.072273001 0.05164
0.31176999 0.046188999 0.056589
0.31075001 0.046489999 0.05353
0.32782999 0.065540999 0.086726002
0.26019001 0.044381998 0.038894001
0.26194999 0.044408001 0.039762001
0.31452 -0.026106 0.048485
0.31380001 -0.025723999 0.048399001
0.32372999 -0.045853999 0.047644001
0.32606 -0.044165999 0.047655001
0.24498001 0.063354999 0.020922
0.26679999 0.069564998 0.068334997
0.26694 0.069904 0.065889001
0.26725 0.070657998 0.067268997
0.28964999 0.086957 0.066744
0.28985 0.088579997 0.065043002
0.259 -0.049947999 0.027348001
0.25766999 -0.050680999 0.027778
0.26694 0.079195999 0.059039999
0.26719999 0.079671003 0.058649
0.27329001 -0.0017254 0.028008001
0.27289 -0.0013274 0.028237
0.27210999 -0.0013054 0.027907001
0.32416001 -0.022016 0.043384999
0.32593 -0.024651 0.042734001
0.32482001 -0.024335001 0.043595001
0.24355 0.059356999 0.031019
0.24278 0.061468001 0.029859999
0.27179 -0.0046740002 0.025704
0.31446999 -0.045591 0.050145
0.29916 -0.00041082001 0.042911001
0.32672 -0.049552001 0.057092
0.32591999 -0.049651999 0.058993999
0.28148001 0.041441001 0.051589999
0.28037 0.039129999 0.051461
0.30237001 0.075753003 0.046999
0.26427001 -0.046620999 0.025134999
0.30983999 0.023063 0.029144
0.30829 0.024815001 0.029929999
0.3145 0.0079113003 0.048220001
0.3163 0.0092920996 0.046406001
0.26370001 0.043499 0.043147001
0.26413 0.043049999 0.043489002
0.31029999 -0.012793 0.048728999
0.27526999 -0.00097769999 0.027295001
0.27541 -0.0011012 0.027749
0.27557999 -0.0002278 0.027347
0.28597999 0.081897996 0.059912
0.26909 -0.021713 0.023870001
0.27017999 -0.022325 0.02362
0.31714001 0.013675 0.036345001
0.31795999 0.014819 0.037739001
0.29798999 0.022847001 0.042459
0.29776999 0.022806 0.041692
0.28961 0.023576001 0.043488
0.28918001 0.021848001 0.042273
0.29005 0.024114 0.044402
0.27844 0.060240999 0.062942997
0.27731001 -0.025636001 0.019167
0.2764 -0.02737 0.017561
0.27715001 -0.02588 0.019241
0.27344 -0.017534001 0.016278001
0.27327999 -0.019319 0.017336
0.28558999 0.084563002 0.065810002
0.30463001 0.023426 0.037108
0.30493999 0.023713 0.038704
0.30537 0.023638999 0.037133001
0.26466 0.064223997 0.073775001
0.26567 0.064516999 0.072461002
0.26221001 0.0096479999 0.027813001
0.25996 0.0098631997 0.027363
0.26131001 0.0097238999 0.027264999
0.26157999 0.057849001 0.078878
0.26166001 0.058775 0.07897
0.27555001 -0.037140001 0.015788
0.30598 0.071358003 0.047029998
0.30572 0.071131997 0.047086
0.26923999 0.028171999 0.030119
0.26944 0.028170001 0.029359
0.22055 0.087986998 0.053748999
0.22288001 0.087112002 0.053714
0.22123 0.087512001 0.05463
0.31626001 0.075556003 0.099812999
0.31578001 0.076598004 0.10106
0.25639999 0.045832001 0.029478
0.25622001 0.046333 0.027214
0.31687999 0.057721 0.08326
0.27279001 0.032621 0.041221
0.27373001 0.032590002 0.040273
0.27417001 0.033160999 0.042936001
0.31026 -3.6304999e-05 0.051871002
0.27096999 -0.012333 0.023189999
0.29787999 0.0060854 0.042047001
0.31456 0.068736002 0.10796
0.25409999 0.061482999 0.032559
0.25350001 0.058805998 0.031318001
0.28183001 0.068600997 0.065041997
0.26447999 0.061404999 0.078468002
0.26407999 0.060667999 0.079827003
0.27708 0.078966998 0.062941998
0.30125999 0.069914997 0.051096998
0.31896001 0.070605002 0.10242
0.31815001 0.070367999 0.1019
0.20941 0.076208003 0.051194001
0.20859 0.074142002 0.048983
0.20987 0.075029001 0.050267
0.31377 0.078395002 0.094361
0.31584001 0.079884999 0.093140997
0.31463 0.080186002 0.093479998
0.28985 0.05257 0.058090001
0.27447999 -0.0053115999 0.023388
0.27399999 -0.0049403999 0.024696
0.29093 0.080968998 0.049371
0.29034001 0.079709001 0.049090002
0.22979 0.052593999 0.036766
0.27902001 0.071969002 0.067194
0.29603001 0.045559 0.056791998
0.29631999 0.044840001 0.055594001
0.29668999 0.045113999 0.055675
0.31191 -0.051628001 0.033790998
0.31072 -0.045974001 0.039030001
0.31191 -0.045485999 0.039611999
0.28018001 0.062879004 0.062533997
0.26201001 -0.0055096 0.030848
0.26151001 -0.0039352998 0.030367
0.27122 0.0028253 0.032086998
0.27507001 0.018198 0.037294999
0.27548 0.018344 0.035702001
0.27590001 -0.0013932 0.027288999
0.27599999 -0.00019114 0.026509
0.26824 -0.051943999 0.023194
0.27162999 -0.013175 0.020436
0.27243 -0.012539 0.020640001
0.27974999 0.016448 0.042160001
0.28411999 0.089353003 0.033087
0.28307 0.089763001 0.035842001
0.31424999 0.067671999 0.10824
0.31600001 0.067818001 0.1065
0.31621 0.068020999 0.10656
0.32598001 -0.052425999 0.061716001
0.32596001 -0.050174002 0.062537
0.27667001 -0.053148001 0.012249
0.27506 -0.052411001 0.012325
0.22337 0.086134002 0.045304
0.27671999 -0.051578999 0.0133
0.27698001 -0.052583002 0.013019
0.27660999 -0.051504001 0.012644
0.33202001 0.061071001 0.079853997
0.31112 -0.050037999 0.036889002
0.30403 0.022945 0.037512999
0.30303001 0.023658 0.037778001
0.26016 0.015078 0.018068001
0.26179001 0.015205 0.018222
0.26054001 0.01539 0.017905001
0.32012001 0.078277998 0.096849002
0.32045001 0.077188998 0.095227003
0.31939 0.078267001 0.095807999
0.30412 -0.024189999 0.038798001
0.30434999 -0.026303001 0.038107999
0.30649999 -0.018993 0.046668001
0.29922 0.0065994998 0.044509001
0.31984001 -0.021992 0.048884001
0.28729001 0.051856 0.054168999
0.28762001 0.053109001 0.054740999
0.31093001 0.067364998 0.073802002
0.30932 0.065266997 0.072511002
0.26144999 0.075354002 0.056665
0.26414999 0.073742002 0.055569001
0.28821999 0.095646001 0.068375997
0.28819999 0.096946999 0.067208
0.28883001 0.094671004 0.068677001
0.26519999 -0.035999998 0.016155001
0.26234999 -0.036570001 0.015399
0.27748999 0.086854003 0.065978996
0.27871001 0.087944001 0.065847002
0.27900001 0.087678999 0.064779997
0.2714 0.0069233999 0.031443
0.30974999 0.054586001 0.070684001
0.29962 0.028116999 0.039662998
0.26179001 0.016028 0.018495001
0.22352999 0.061553001 0.042342
0.25933999 0.082773998 0.058889002
0.30789 0.066454001 0.044307999
0.27574 0.015163 0.035760999
0.27529001 0.015409 0.036911
0.27102 0.083701 0.052772999
0.31303999 0.017932 0.034648001
0.266 0.079388998 0.056697
0.26618001 0.081288002 0.056820001
0.26668 0.082079001 0.057342
0.26278999 -0.028831 0.022794999
0.30649 0.073839001 0.037404999
0.23017 0.066472001 0.038688999
0.23019999 0.063764997 0.037698999
0.22909001 0.066564001 0.037330002
0.31626999 -0.037105002 0.044379
0.28244001 0.047782999 0.052099001
0.28549001 0.048361 0.053931002
0.28206 0.049359001 0.053784002
0.31366 -0.018893 0.052097
0.31277001 -0.01761 0.051160999
0.29459 0.065072 0.058761999
0.29402 0.064824 0.058182999
0.25885001 0.064326003 0.038054001
0.25892001 0.062281001 0.039014
0.26683 0.073177002 0.063804999
0.30662999 0.039421 0.037698999
0.28257999 0.094351999 0.070960999
0.29286999 0.016597999 0.042387001
0.29234001 0.017299 0.042564001
0.31004 0.054148 0.067515999
0.31136999 0.057027001 0.068166003
0.29809999 0.068669997 0.055066999
0.29767001 0.067447998 0.054489002
0.3017 0.059858002 0.055238001
0.30261001 0.059905 0.057071
0.28027001 -0.050870001 0.011483
0.30638 0.076701 0.037154
0.27167001 0.031660002 0.036703002
0.26122999 -0.044604 0.018989
0.26111001 -0.0449 0.021202
0.29034999 0.011732 0.041223999
0.32122001 0.051132999 0.078707002
0.32003 0.050793 0.076527998
0.32098001 0.052088998 0.078195997
0.28687 0.095931999 0.069141001
0.28538001 0.096854001 0.066643998
0.31535 0.071043 0.10565
0.22284 0.057810999 0.037755001
0.22402 0.056435999 0.037891999
0.30522001 0.037482001 0.040064
0.26453999 -0.032972999 0.01832
0.26074001 -0.033987001 0.018154999
0.26271999 -0.03528 0.017175
0.28198999 0.070863999 0.064992003
0.31198001 -0.047892001 0.034306001
0.23164999 0.069007002 0.036446001
0.26657 -0.049513999 0.023794999
0.22205 0.068475001 0.041296002
0.23898 0.054566 0.036667999
0.27167001 0.032850001 0.038672
0.27135 0.032706 0.036214001
0.30603999 0.02369 0.034260001
0.27248001 -0.0012864 0.029281
0.27314001 -0.0010845 0.02874
0.27320999 0.0011559 0.029759999
0.26214999 0.062020998 0.069151998
0.26188001 0.062601998 0.070321001
0.26238 0.063698001 0.070061997
0.32537001 -0.050655 0.062447999
0.26440001 0.016147001 0.017826
0.2631 0.017028 0.018467
0.26302001 0.018301999 0.018959999
0.29512 0.0015928 0.03297
0.29605001 0.0021881999 0.033218998
0.27767 0.00092217 0.025195001
0.21754 0.069504 0.045407001
0.30855 -0.022081999 0.047844999
0.30818 -0.018942 0.047770999
0.30823001 -0.020857001 0.046964999
0.32233 -0.029310999 0.046190999
0.24356 0.061085001 0.029550999
0.29885 0.071558997 0.052602001
0.30004999 0.069274999 0.052843999
0.29888999 0.070609003 0.052609999
0.28283 0.089546002 0.069367997
0.28219 0.087968998 0.070196003
0.27166 0.025351999 0.032884002
0.27309 0.02465 0.032737002
0.27368999 0.084787004 0.052901
0.21791001 0.084600002 0.048679002
0.21855 0.082557999 0.047141001
0.22138 0.081785001 0.044879999
0.22150999 0.082796 0.044417001
0.31600001 -0.050480999 0.053994998
0.26065999 0.067858003 0.026664
0.25957999 0.068355002 0.023714
0.28647 0.027019 0.046133
0.28667 0.028696001 0.046422001
0.28601 0.02864 0.046696998
0.30188 0.0092059001 0.046316002
0.30484 0.010096 0.048638999
0.26245001 0.078455001 0.053513002
0.29743999 0.057091001 0.056186002
0.29842001 0.054478001 0.057124
0.25777999 0.088143997 0.060157001
0.25768 0.088853002 0.058038
0.25718999 0.088808998 0.058487002
0.27078 0.063079 0.071768001
0.25690001 0.0082256999 0.025141999
0.25694999 0.0084864004 0.024549
0.22521 0.082285002 0.041204002
0.31970999 -0.016316 0.051695999
0.31852999 -0.015555 0.052898001
0.31400001 -0.051224999 0.053325001
0.25858 0.059739999 0.032559
0.26786 -0.051844001 0.020986
0.31371999 0.012771 0.042475
0.26284999 0.043104999 0.041503999
0.26131001 0.087500997 0.056024998
0.25843 0.085933 0.057530999
0.31312001 0.069191001 0.10801
0.31312999 0.070110999 0.10886
0.3193 0.078074999 0.095792003
0.3193 0.076802999 0.097199
0.26323 -0.043885 0.019276001
0.27508 0.029962 0.043845002
0.27619001 0.031463999 0.044093002
0.31196001 0.069343999 0.039554
0.24033 0.066651002 0.034189999
0.27408999 0.082841001 0.058279
0.27382001 0.083194003 0.057170998
0.27226999 0.084461004 0.056118
0.27105001 0.026748 0.030223001
0.27113 0.025567999 0.030763
0.26984 0.063309997 0.074495003
0.26251999 0.040126 0.039209001
0.27770999 -0.034807999 0.010696
0.27857 -0.035085998 0.0094304001
0.27772 -0.034766 0.010802
0.26894 -0.035960998 0.020719999
0.26793 -0.035501 0.019117
0.2669 -0.036161002 0.019921999
0.29811999 0.060966 0.056639999
0.23319 0.060392998 0.03734
0.23265 0.060144 0.037411001
0.2321 0.059811 0.036469001
0.29358 0.067281 0.057868
0.29593 0.067833997 0.055617999
0.31329 0.016937001 0.038267002
0.31281 0.016628999 0.037145998
0.25825 0.0056054001 0.029292
0.25933 0.0066077001 0.028942
0.32021001 0.071167998 0.099954002
0.25297001 -0.010738 0.023259999
0.24897 0.049709 0.029781001
0.27469 0.016968001 0.035562001
0.22627001 0.059333 0.041655999
0.22605 0.058665998 0.042613
0.22723 0.060442999 0.041662998
0.27801999 0.018851001 0.041963
0.27825999 0.084960997 0.068081997
0.27042001 0.082483999 0.056476001
0.27006 0.081271999 0.055645999
0.26872 0.060936999 0.078029998
0.26791999 0.060052998 0.079337001
0.22335 0.053920999 0.034678999
0.22402 0.054916002 0.033445999
0.22367001 0.053279001 0.032726999
0.2764 0.076664001 0.066252001
0.26993999 0.041719999 0.047371
0.27414 0.072963998 0.069124997
0.27636001 0.073175997 0.068100996
0.27498999 0.072155997 0.068581
0.26826 0.0092701996 0.03193
0.26629999 0.0081006 0.031474002
0.26811999 0.0083606001 0.031214001
0.30950999 0.065681003 0.051623002
0.27070999 0.059746999 0.078436002
0.27652001 0.080555998 0.062167998
0.26153001 0.061124001 0.069898002
0.26267999 0.063451998 0.071069002
0.26111999 -0.016373999 0.027944
0.31755999 0.068954997 0.10484
0.31825 0.066760004 0.10408
0.26594001 -0.0014757999 0.030343
0.26453 -0.003272 0.031175001
0.26574999 -0.0024276001 0.031374998
0.28641 0.078449003 0.057925001
0.23634 0.065357 0.033606999
0.2369 0.063648 0.035769001
0.21175 0.075924002 0.053201001
0.21256 0.077633001 0.052450001
0.25865999 0.0027379999 0.030265
0.25652999 0.0027451999 0.028543999
0.31344 0.070247002 0.035255
0.22717001 0.082378998 0.040605001
0.28015 0.038465001 0.047472998
0.26407 0.012015 0.029402999
0.26565 0.012052 0.029842
0.27461001 0.025836 0.041618001
0.27658001 0.025946001 0.041414
0.27649999 -0.053387001 0.0093385996
0.30803999 0.029015999 0.028063999
0.30759001 0.030319 0.029383
0.26284999 0.088327996 0.057165999
0.28672999 0.028558001 0.045648001
0.28799999 0.030327 0.045938
0.29563999 0.079264998 0.045767002
0.29813999 0.079732001 0.044261001
0.29626 0.079485998 0.046238001
0.32256001 -0.029899999 0.045674998
0.23547 0.056627002 0.036938
0.2626 0.011633 0.027941
0.27342999 0.063528001 0.072205
0.31672001 0.0075587002 0.048997998
0.31722999 0.0074233999 0.04733
0.25167 -0.0067118998 0.023195
0.33307999 -0.050887 0.054958999
0.33359 -0.050728001 0.055558998
0.27968001 0.037825 0.046588998
0.27232999 0.031005001 0.040376
0.27182999 0.030036001 0.038541
0.27217999 0.029888 0.040408999
0.22054 0.084011003 0.047876
0.22154 0.073505998 0.044445999
0.30598 0.060359001 0.059863001
0.30632001 0.059983999 0.058809999
0.30862001 0.033195 0.025628
0.31081 -0.043200001 0.037652001
0.31156999 -0.045026999 0.036100999
0.27592 -0.038304999 0.016607
0.25971001 -0.014513 0.028139001
0.24978 0.048114002 0.031514
0.2489 0.047858998 0.030781999
0.25444001 0.055698 0.032214999
0.26414001 -0.014042 0.028308
0.25735 0.053599 0.034384001
0.25856999 0.056054 0.034520999
0.25791001 0.053892002 0.034604002
0.23196 0.058768999 0.037037998
0.23718999 0.072561003 0.034883
0.23508 0.072235003 0.036490001
0.2368 0.071808003 0.035767999
0.28825 0.069705002 0.059882998
0.28843999 0.071530998 0.060396001
0.31698999 -0.025988 0.048278
0.31704 -0.027501 0.049511999
0.26372001 -0.034309 0.017129
0.26754001 -0.0048822002 0.031316001
0.26659 -0.0051596002 0.031241
0.26628 -0.0070201 0.029975999
0.27055001 -0.015831999 0.021364
0.26947001 -0.01501 0.023435
0.2694 -0.018061001 0.020718999
0.31084999 -0.035636 0.043896999
0.26304999 0.017424 0.020602999
0.26377001 0.01695 0.022141
0.27342001 -0.036903001 0.017189
0.31251001 -0.030680999 0.047178
0.25839999 0.051778 0.037289001
0.31619999 0.079888999 0.095234998
0.31521001 0.079852998 0.094562002
0.29692999 0.023251001 0.040438
0.29774001 0.021980001 0.04146
0.3213 0.054783002 0.087310001
0.32135001 0.054935999 0.088333003
0.28095001 0.089123003 0.029070999
0.28018001 0.088593997 0.029575
0.28167 0.089652002 0.030128
0.31382 0.011912 0.043754
0.31376001 0.013191 0.045626
0.28959 0.029127 0.046250999
0.29043001 0.030232999 0.044829998
0.2735 -0.016966 0.016054999
0.27245 -0.015295 0.017421
0.27199 -0.016086999 0.017131001
0.26078001 0.058929998 0.037423
0.26631001 -0.0055586002 0.029875999
0.28755999 0.077241004 0.057449002
0.28633001 0.078175999 0.056662001
0.28645 0.077269003 0.057601999
0.26343 0.075345002 0.058816001
0.26350999 0.075117998 0.059432998
0.26510999 0.075976998 0.059491001
0.31927001 -0.013346 0.055252999
0.32009 -0.012706 0.054237001
0.31937 -0.0096457005 0.055571001
0.24834 0.060215998 0.030239001
0.24796 0.061762001 0.02932
0.31369999 0.018079 0.033151999
0.31033 -0.046131998 0.029666999
0.31191999 -0.046541002 0.029812999
0.31048 -0.046519 0.031544
0.29743999 -0.0012436 0.029325999
0.31088999 0.018926 0.036951002
0.31287 0.068516999 0.087952003
0.31391001 0.067289002 0.090233997
0.31314 0.068089001 0.087843999
0.26822999 0.018650999 0.027695
0.26762 0.019389 0.027573001
0.29284999 -0.0030555001 0.0082946001
0.29440001 -0.0022547001 0.0050316001
0.24009 0.049128 0.028222
0.21298 0.074392997 0.051174
0.21229 0.075069003 0.050113998
0.26793 0.084426001 0.051949002
0.30601999 0.019601 0.041606002
0.24935 0.045108002 0.02414
0.25095001 0.044822998 0.025682
0.25883999 -0.017713999 0.026391
0.25944 -0.016347 0.027308
0.257 -0.017014001 0.026299
0.26322001 0.00091157999 0.031207001
0.25865999 0.093584999 0.050127
0.25885001 0.091530003 0.049077
0.25913 0.092541002 0.049575999
0.25465 -0.01045 0.027448
0.31079999 -0.012409 0.049633998
0.31395 -0.017792 0.049943998
0.31481001 -0.0153 0.051463999
0.31285 -0.016464001 0.051302999
0.31872001 -0.0096075004 0.054407999
0.30930001 -0.033840001 0.043412998
0.27630001 0.085516997 0.042815998
0.30996001 -0.012543 0.049155001
0.31044999 -0.0083069 0.052838001
0.29525 0.075196996 0.050172001
0.29514 0.076810002 0.049803998
0.28205001 0.086361997 0.065448999
0.28173 0.086860001 0.064066999
0.30572 0.059943002 0.056543998
0.30483001 0.057668 0.057620998
0.30581 0.059186 0.057914998
0.26335999 0.084142998 0.059300002
0.26405001 0.083985999 0.056844998
0.26265001 0.013892 0.025438
0.26223001 0.060617998 0.038846999
0.26109999 0.063178003 0.040293001
0.26124999 0.061866999 0.038915001
0.31220999 -0.051127002 0.041845001
0.31979999 0.049044002 0.077119
0.31827 0.050601002 0.077234998
0.31011 0.071919002 0.10453
0.31097999 0.071624003 0.10294
0.32190001 0.00058027002 0.046978999
0.32124999 0.00021316 0.047853
0.32207 0.00049317 0.048057001
0.27513 0.072915003 0.068094999
0.27612999 0.073270001 0.068968996
0.31626001 -0.035191 0.045933001
0.28404999 0.018199001 0.042080998
0.28417 0.017704999 0.041908
0.29813999 0.0019948001 0.042158999
0.23004 0.057172999 0.039455
0.30746001 -0.035652999 0.035861
0.30777001 -0.036993001 0.036497999
0.30741999 -0.036827002 0.036828
0.26166001 0.065168001 0.056581002
0.26192999 0.065104999 0.057080001
0.28494999 0.079403996 0.062523
0.28582001 0.078948997 0.060819998
0.28433001 0.080815002 0.062398002
0.30353999 0.014873 0.044721998
0.30542001 0.03087 0.034625001
0.30495 0.031785 0.032791
0.26831001 -0.047444001 0.019521
0.26952001 -0.047370002 0.01969
0.26894 -0.048512999 0.020664001
0.21743 0.071383998 0.047053002
0.28648999 0.043517999 0.054655999
0.28669 0.042672999 0.055530999
0.22434001 0.059411 0.041464001
0.32565999 -0.027519001 0.040938001
0.26538 0.020811999 0.022038
0.26596999 0.020431999 0.022671999
0.22066 0.061005 0.039809
0.32551 0.069509998 0.085493997
0.22451 0.065384001 0.040410001
0.30276 -0.0051778001 0.045457002
0.25419 -0.0020153001 0.024253
0.27149999 -0.0016245 0.029581999
0.29491001 -0.003304 0.0042198999
0.29596001 -0.00496 0.0046752002
0.29666999 0.029048 0.041595999
0.29451001 0.027125999 0.043861002
0.24845 0.058019999 0.031853002
0.2482 0.059817001 0.030872
0.24771 0.059149001 0.031546999
0.32758999 -0.052290998 0.061062001
0.30166 0.085461996 0.029769
0.26524001 0.078520998 0.052157
0.26222 0.063772 0.039848998
0.26036999 0.063248001 0.040383998
0.26054001 0.062613003 0.039797999
0.27133 -0.012044 0.02111
0.27116999 -0.012465 0.022001
0.27590999 0.0025758001 0.027626
0.27774 0.0016823 0.026571
0.29442999 0.0015803 0.031884
0.29462001 0.0035454 0.029707
0.27726001 0.085114002 0.056589998
0.27546999 0.085740998 0.056076001
0.29027 0.024769001 0.042033002
0.3159 -0.048407 0.055599
0.31463999 -0.050778002 0.056442998
0.31817001 -0.048659999 0.058341999
0.22251999 0.089033 0.046146002
0.30691999 0.0011924 0.051883999
0.28534001 0.088758998 0.066706002
0.31377 0.057666 0.074165002
0.31323999 0.057082001 0.075998999
0.30708 0.074539997 0.037071001
0.30842 0.075053997 0.039987002
0.30559999 0.061820999 0.057387002
0.30666 0.062359001 0.057700001
0.30504 0.062997997 0.057009
0.26804999 -0.049773999 0.019641999
0.24715 0.050151002 0.03067
0.24799 0.049582001 0.031665999
0.26962 0.0082288999 0.031118
0.31871 0.079135999 0.093314998
0.31894001 0.078676999 0.093671001
0.27135 0.018298 0.033326998
0.27351999 0.019234 0.034232002
0.28011999 0.0063613001 0.030057
0.28024 0.0069963001 0.032113001
0.30467999 -0.0024651 0.050113998
0.30633 -0.0017753 0.049187001
0.30945 0.044114999 0.037737001
0.27122 0.084402002 0.047554001
0.26651999 0.019586001 0.028674001
0.31059 0.0612 0.073441997
0.30976999 0.061675001 0.073099002
0.30464 -0.0067555001 0.047102001
0.27167001 -0.052276 0.017742001
0.28707999 0.092156999 0.072366998
0.2247 0.056699 0.040026002
0.22442 0.055293001 0.039882999
0.22628 0.056442998 0.039292999
0.25926 0.055695999 0.036837999
0.25944 0.055495001 0.035533
0.31200001 -0.020801 0.050974
0.31167999 -0.019027 0.049879
0.31496999 -0.0037684999 0.053094
0.31244999 0.050262 0.066794001
0.31294999 0.05119 0.066891998
0.27397999 0.070997998 0.071277
0.31725001 0.061101999 0.10664
0.29075 0.076214999 0.054106001
0.29006001 0.075491004 0.054244999
0.30871001 -0.037916001 0.037703998
0.30901 -0.037326001 0.036720999
0.30856001 -0.039278999 0.03661
0.30989999 0.065972999 0.060332
0.31150001 0.065077998 0.059287999
0.21115001 0.069619 0.047219001
0.21055 0.070064999 0.047688998
0.24547 0.048468001 0.031068999
0.32234001 0.0055028 0.040759999
0.25014001 0.054605 0.031466
0.32729 0.070923999 0.083725996
0.26256001 0.065608002 0.056591
0.26267001 0.066898003 0.057390999
0.31602001 -0.037285 0.043590002
0.26219001 0.01242 0.026301
0.27153999 0.058100998 0.076989003
0.27298 0.058426 0.076151997
0.32117 0.065760002 0.10042
0.24616 0.044817999 0.024657
0.24766999 0.045773 0.026210999
0.24680001 0.045736998 0.026713001
0.25490999 0.086225003 0.049483001
0.25613999 0.084568001 0.049284998
0.31286001 0.072318003 0.10599
0.31143999 0.072194003 0.10656
0.32247999 -0.0088534998 0.04764
0.29153001 0.079158999 0.049699999
0.32257 -0.037234999 0.044978
0.3224 -0.035948999 0.044066001
0.29155999 0.020262999 0.043207001
0.28196001 0.030714 0.046645001
0.31036001 0.069031 0.11104
0.29519001 0.040169999 0.052997001
0.25850999 -0.030375 0.018782999
0.28211001 0.087783001 0.066344999
0.25883999 0.064902999 0.039857
0.21950001 0.086540997 0.054001
0.2192 0.087661996 0.054019
0.21906 0.087413996 0.053010002
0.28194001 0.078583002 0.064400002
0.2949 0.072728001 0.051933002
0.31286001 0.077705003 0.1027
0.30897999 -0.01592 0.045777
0.28725001 0.078553997 0.053353999
0.28861001 0.077776 0.055977002
0.2251 0.085959002 0.043508001
0.31851 0.069265999 0.10431
0.26163 0.069670998 0.052042998
0.26012 0.066588998 0.036798
0.32155001 -0.026009001 0.047524001
0.32156 -0.025269 0.048374001
0.28064999 0.079318002 0.064746998
0.27607 -0.020729 0.012347
0.26054999 0.068411998 0.036281001
0.26023999 0.068985 0.038120002
0.26186001 0.069011003 0.036591001
0.22119001 0.088643998 0.051909
0.22059 0.088303 0.052705999
0.21992999 0.089245997 0.052572001
0.29762 0.0020951 0.042415999
0.23298 0.059044998 0.037338
0.23179001 0.059691001 0.037020002
0.30338001 0.045301002 0.049502999
0.30445001 0.045766 0.050450001
0.30796 0.066753 0.051437002
0.30656999 0.064726003 0.052136
0.31413999 0.059723999 0.11048
0.31376001 0.058878999 0.11093
0.27471 -0.053339001 0.014849
0.27441999 -0.052398998 0.015069
0.27348 -0.053791001 0.014001
0.27167001 0.033493999 0.039751001
0.27193999 0.033589002 0.041717
0.27235001 0.033601999 0.041618999
0.29043999 0.077937998 0.052510001
0.32332999 0.060206 0.098614998
0.28584999 0.045154002 0.055167001
0.26129001 -0.045972001 0.021932
0.26056999 -0.046285 0.022644
0.26175001 -0.046278 0.022674
0.31231999 0.069329001 0.10898
0.30599001 -0.028790001 0.044447001
0.31889999 0.066665001 0.10394
0.32030001 0.066610999 0.10442
0.21452001 0.078091003 0.047536999
0.21201 0.076614 0.048269998
0.27263001 0.064709 0.071286999
0.22352999 0.077459998 0.043024
0.22414 0.077738002 0.042523999
0.27070999 0.027267 0.02812
0.25766999 0.064956002 0.034019999
0.25692001 0.063895002 0.034672
0.30465999 0.016858 0.041161999
0.3048 0.016435999 0.041067999
0.27682 0.066234 0.068783
0.30616999 -0.0088376002 0.045467
0.27160001 0.063111 0.073730998
0.30383 -0.02909 0.037645999
0.30443999 -0.029445 0.039147999
0.27338001 0.085423999 0.050503001
0.31423 0.055762 0.078103997
0.25299999 -0.0094056996 0.025614999
0.25319001 -0.0077354 0.023753
0.25299001 -0.0089832004 0.024902999
0.21051 0.074639 0.051608998
0.27116999 -0.051821999 0.012791
0.27395001 -0.052843001 0.012499
0.26063001 0.092473 0.053782001
0.25152001 0.046121001 0.028197
0.25207001 0.045701001 0.027815999
0.26846999 0.02303 0.024954
0.26859 0.024021 0.024126999
0.26796001 0.022407999 0.025033999
0.27495 0.033902999 0.046239998
0.27585 0.033243999 0.045773
0.27728 0.034531001 0.045529999
0.26837 -0.01497 0.023514999
0.2872 0.057957999 0.054272
0.28749001 0.060010999 0.053785
0.23296 0.057434998 0.037804998
0.23232 0.055319998 0.037315
0.29776001 0.048464999 0.055303998
0.29262 0.034777999 0.046727002
0.29185 0.033307001 0.047486
0.31970999 0.077379003 0.097641997
0.31830999 0.076604001 0.099074997
0.26328 0.016728999 0.018371999
0.25174001 0.06146 0.029781001
0.25001001 0.059613001 0.030621
0.25097999 0.05993 0.030692
0.32444 -0.047862999 0.057280999
0.31691 -0.050838999 0.060612999
0.31885999 -0.051497001 0.059602998
0.31805 -0.050131001 0.059429001
0.27513999 -0.040194999 0.014389
0.27472001 -0.041237999 0.012412
0.25295001 0.0016148 0.019401001
0.25327 0.0012044 0.01901
0.30712 0.012902 0.045699999
0.3075 0.013521 0.045106001
0.28288001 0.062057 0.059496999
0.28290999 0.060174 0.059618998
0.28288001 0.061932001 0.058715999
0.28837001 0.095200002 0.069794998
0.26672 0.039345 0.0447
0.266 0.039737001 0.044548001
0.2667 0.039221998 0.045681
0.22612999 0.061576001 0.042566001
0.29567999 0.082114004 0.041143999
0.29584 0.082217 0.041460998
0.26604 0.019647 0.023291999
0.26600999 0.02091 0.025853001
0.26592001 0.019850999 0.025116
0.28417 0.061857 0.057507001
0.28231001 0.059739999 0.056487001
0.28281 0.095273003 0.066992
0.27610001 -0.047072999 0.01397
0.25211 0.094167002 0.052409001
0.27877 0.011149 0.037303999
0.27393001 0.068545997 0.070826001
0.30943 -0.015307 0.048852
0.30113 0.083051004 0.036086001
0.29999 0.083774 0.036353
0.24344 0.061565001 0.029165
0.24574 0.061094001 0.02767
0.26298001 0.080057003 0.054428998
0.28165001 0.015337 0.040594999
0.28162 0.013973 0.040893
0.303 0.050937999 0.056361999
0.25244001 -0.013243 0.026303001
0.25297999 -0.01191 0.025854001
0.29106 0.062272999 0.054356001
0.27566001 0.012713 0.034088001
0.27677 0.013433 0.034480002
0.27574 0.013703 0.034616001
0.30317 0.038635001 0.046009999
0.30235001 0.039269 0.045444001
0.30340999 0.039444 0.045657001
0.24367 0.062705003 0.019319
0.29752001 0.0023894999 0.038943999
0.29732999 0.0029797 0.039758999
0.31323001 0.078498997 0.098936997
0.31156999 0.078872003 0.098385997
0.31268999 0.078474998 0.097308002
0.26045999 0.067947 0.029391
0.26969001 0.051162001 0.068112999
0.31510001 -0.049256001 0.055441
0.31467 -0.050735999 0.055783
0.26087001 0.092524 0.057062
0.24656001 0.045341 0.029905001
0.26769999 0.044847999 0.046208002
0.26640001 0.04555 0.047591999
0.26120999 -0.046158001 0.020652
0.26050001 -0.046289001 0.021664999
0.26062 -0.046512999 0.021552
0.26023999 0.084983997 0.056216002
0.25867 0.085679002 0.058534
0.26339 -0.023892 0.025916999
0.21888 0.06543 0.04163
0.2208 0.068058997 0.042745002
0.28082001 -0.048675001 0.0053625
0.259 0.052005999 0.033530001
0.26901001 0.081505001 0.056148
0.21754 0.068818003 0.044893
0.21716 0.068371996 0.044590998
0.28920999 0.025992 0.043869998
0.30362001 0.073285997 0.047866002
0.31760001 -0.043802999 0.04507
0.22668 0.051656 0.035882998
0.28442001 0.079714999 0.062011998
0.28562999 0.080242999 0.062093999
0.28233001 0.074143 0.06487
0.28051999 0.075225003 0.065504
0.28138 0.074692003 0.064508997
0.26242 -0.050190002 0.025535
0.26113999 0.071209997 0.024511
0.26126999 0.070381001 0.02493
0.26238999 0.071946003 0.02651
0.25735 -0.022803999 0.022888999
0.21963 0.072913997 0.044185001
0.29065001 0.06955 0.059002999
0.28838 0.071197003 0.059315
0.26273 0.0050925999 0.030925
0.32358 -0.021354999 0.044806998
0.32328999 -0.020223999 0.044826001
0.32062 -0.046231002 0.051863
0.32304999 -0.046902999 0.052685998
0.32482001 -0.041827001 0.040826999
0.32462001 -0.040275998 0.038272001
0.26137999 0.05717 0.037204999
0.26087999 0.01378 0.023135999
0.25955001 0.012443 0.023452999
0.26025999 0.012713 0.02337
0.27695999 0.075039998 0.066689
0.27610001 0.075869001 0.067445002
0.25917 -0.024334 0.024838001
0.27555001 0.085473001 0.054772999
0.27796999 0.084797002 0.056148
0.27798 0.085607998 0.053952999
0.26036 0.067794003 0.029153001
0.27906999 0.056363001 0.054593999
0.27965999 0.059310999 0.059319001
0.28033 0.058706 0.058855001
0.28104001 0.061167002 0.058727
0.30362001 0.074143998 0.044672001
0.30410999 0.075078003 0.044636998
0.23599 0.059078999 0.035025001
0.26396999 -0.051784001 0.024959
0.25856999 0.066042997 0.026992001
0.25902 0.069142997 0.025381999
0.32029 -0.0075582 0.052065
0.30982 0.023407999 0.026741
0.3091 0.023681 0.026163001
0.21977 0.075093001 0.045274999
0.21781 0.075709 0.046843
0.25791001 0.0072037 0.027833
0.28782001 0.017083 0.041575
0.26317999 0.056609001 0.076054998
0.30160001 0.070111997 0.049036998
0.32393 0.064263001 0.093993999
0.32453001 0.062675998 0.094559997
0.32341999 0.0024655999 0.044371001
0.30759001 0.065796003 0.051786002
0.30882001 0.065722004 0.052416001
0.31121999 0.010524 0.048524
0.31200999 0.01244 0.047224
0.22841001 0.059593 0.039818
0.30623999 -0.024917999 0.045584001
0.23187999 0.059294999 0.037062999
0.27632999 0.018588001 0.037555002
0.27654001 0.019605 0.038465001
0.27506 0.018541999 0.036853001
0.27687001 -0.030888001 0.016479
0.27684 -0.030526999 0.018007001
0.26080999 0.056635998 0.075686
0.26153001 0.086774997 0.057743002
0.31457999 0.059326999 0.086994998
0.30785999 -0.03011 0.046
0.30603999 0.046704002 0.047217
0.31518 0.078313001 0.092170998
0.31608999 0.079065003 0.092992
0.31703001 0.078826003 0.092809997
0.30529001 -0.030657001 0.038282
0.32082 -0.0050708 0.048896
0.30434 0.055121999 0.059700001
0.31369999 0.081350997 0.09589
0.28979999 0.095807001 0.070391998
0.29034001 0.095858999 0.068801001
0.30522999 -0.028562 0.041460998
0.30546001 -0.029423 0.042904001
0.26466 0.044739 0.044881999
0.25781 0.050409999 0.034515001
0.25817001 0.049988002 0.034807
0.27234 0.0074383002 0.032290999
0.27357 0.0094371997 0.031702999
0.22326 0.06301 0.042532001
0.21693 0.066774003 0.042406
0.26519999 -0.048907001 0.025397999
0.27698001 0.0050860001 0.030119
0.27748001 0.0034389 0.029653
0.25639999 -0.045120999 0.0113
0.25490999 -0.046705998 0.012373
0.25481001 -0.045506999 0.013284
0.25793999 -0.010336 0.027968001
0.25801 -0.010517 0.028356001
0.22141001 0.058908999 0.038015999
0.22258 0.058938999 0.039937999
0.30937999 0.056290001 0.066928998
0.27497 0.054784998 0.066450998
0.27638 0.056116998 0.066969
0.25408 -0.023391001 0.016534001
0.25497001 -0.024356 0.015526
0.21298 0.079111002 0.048475001
0.27305001 0.040254999 0.048186999
0.2818 0.020045999 0.044073001
0.24607 0.044059999 0.026877999
0.31127 -0.020065 0.049267001
0.28185001 0.02836 0.045203999
0.28237 0.02806 0.044349
0.28266999 0.026881 0.046615999
0.25455001 0.0064996998 0.025150999
0.25222 0.059886999 0.028834
0.25038001 0.059959002 0.030363999
0.22482 0.071866997 0.041368999
0.22473 0.071451999 0.040137
0.27925 0.082923003 0.066666
0.29030001 0.012171 0.039650999
0.32174999 -0.024104999 0.049536001
0.31534001 0.062707998 0.089424998
0.31384999 0.061971001 0.088808
0.28415999 0.050716002 0.051888
0.26230001 0.042686999 0.037554
0.25968 0.042068999 0.037090998
0.32627001 -0.019313 0.040504999
0.32585999 -0.019489 0.042071
0.26111001 -0.037122 0.011573
0.26115999 -0.037238002 0.01232
0.31 0.076352 0.030239999
0.32641 -0.052969001 0.062242001
0.32686999 -0.052317001 0.062654004
0.27908 0.085312001 0.065652996
0.27353999 -0.0086139003 0.022394
0.27270001 -0.0087403003 0.023153
0.27912 0.033560999 0.047352999
0.27939001 0.032614 0.045917001
0.31395999 0.0067516998 0.051461998
0.29212999 0.037108999 0.054308999
0.29102001 0.039216001 0.052583002
0.30792001 -0.039650001 0.035989001
0.30835 -0.038152002 0.033438999
0.27546 0.060389999 0.072733
0.27564001 0.058812 0.070782997
0.29190999 0.039664999 0.053630002
0.25599 -0.027508 0.018345
0.27039 0.053757999 0.06961
0.27612001 0.087681003 0.043804999
0.27704 0.088420004 0.044743001
0.26203999 0.011341 0.026775001
0.32233 0.0015367999 0.04417
0.27184999 0.019608 0.034954
0.26605999 -0.054448999 0.020863
0.26637 -0.054065999 0.021670001
0.26725999 -0.05415 0.020014999
0.27689001 0.024707001 0.041274998
0.27860001 0.024917001 0.041939002
0.21647 0.081992999 0.051392
0.27201 -0.019312 0.018348999
0.27173001 0.024436001 0.031722002
0.27063 0.02531 0.031098001
0.25672999 0.065798998 0.027441001
0.25676 0.064828999 0.028634001
0.28172001 0.0042138998 0.030827999
0.28229001 0.0055196998 0.028729999
0.30432001 0.025800999 0.036396001
0.26458001 -0.038849998 0.014534
0.26295999 -0.041407999 0.014138
0.26304999 -0.039765 0.013391
0.22554 0.053351 0.036736
0.22587 0.053803001 0.036890998
0.2261 0.054281 0.037540998
0.25982001 0.085194997 0.051566999
0.26118001 0.084743999 0.051651999
0.26071 0.084389001 0.053107001
0.30662999 0.063180998 0.059491001
0.30754 0.063500002 0.059273999
0.25406 -0.0011557 0.025768001
0.25375 -0.0025746 0.027039999
0.26089999 0.069343001 0.028518001
0.26041999 0.069399998 0.026009001
0.25961 0.083301999 0.051066998
0.26006001 0.083394997 0.050864998
0.23740999 0.056088001 0.037296999
0.2361 0.055546999 0.038341001
0.23709001 0.055764999 0.038387001
0.29824999 0.082298003 0.038276002
0.29707 0.081511997 0.041030999
0.23824 0.063242003 0.033780999
0.24016 0.066022001 0.033911001
0.23861 0.066207998 0.034295999
0.31615001 0.012761 0.044611
0.30085 0.076759003 0.046580002
0.25242999 0.094425 0.054926001
0.26085001 -0.023252999 0.023998
0.25999999 -0.023980999 0.023870001
0.30594 0.054544002 0.060809001
0.32137999 -0.0085220002 0.045883
0.32113999 -0.0088550998 0.045600001
0.22982 0.057859 0.039788
0.25273001 -0.0028078 0.020783
0.25150999 -0.003608 0.019315001
0.25867 0.01336 0.018860999
0.30737001 0.077698998 0.036208
0.25172001 0.064686999 0.027841
0.26264 -0.043301001 0.014563
0.26277 -0.041848 0.013788
0.28093001 0.047290999 0.052666001
0.28262001 0.047274001 0.053417999
0.29969999 0.0053290999 0.045217998
0.25821999 -0.015356 0.027325001
0.25819999 -0.016097 0.024509
0.25758001 -0.016264001 0.026407
0.26137 -0.0018361 0.031089
0.26019999 -0.0026956 0.031466
0.30976 0.022991 0.028407
0.27812999 0.073276997 0.067552
0.30785999 0.053063001 0.062112998
0.28374001 0.033020999 0.047139
0.25479001 -0.0074180998 0.027417
0.25516999 -0.0068633999 0.02878
0.22509 0.052808002 0.035076998
0.22538 0.053366002 0.035101
0.22547001 0.052021001 0.034113001
0.30974999 -0.040451001 0.038596999
0.31009001 -0.040690999 0.039607
0.27375001 -0.036901999 0.017019
0.32866001 0.063680001 0.087316997
0.30287999 0.022120999 0.039767999
0.23540001 0.071183003 0.033746999
0.27965999 0.046420999 0.050655998
0.27998 0.044394001 0.051780999
0.28088999 0.044723999 0.052666001
0.22050001 0.059597 0.041549999
0.30462 0.047336001 0.050377999
0.25336 0.0039977999 0.022673
0.26602 0.081864998 0.054063
0.30113 0.023646999 0.038803
0.30147001 0.024427 0.038851
0.30111 0.025207 0.03847
0.26743001 -0.034933999 0.021267001
0.28274 0.051536001 0.051645
0.30118001 0.032212 0.039622001
0.26267999 0.057101998 0.079533003
0.23574001 0.071406998 0.035461001
0.29603001 0.0027503001 0.040674001
0.29611999 0.00082030997 0.041687999
0.26710001 0.083893999 0.051371001
0.25579 0.0035935999 0.025655
0.3267 -0.026347 0.040318999
0.32517001 -0.026526 0.040171999
0.32561001 -0.026497999 0.040102001
0.24729 0.063461997 0.01942
0.2466 0.063054003 0.019432001
0.31154001 0.0072452002 0.049348999
0.2114 0.069068 0.043981999
0.21160001 0.069385 0.045022
0.21261001 0.069017 0.046263002
0.30592999 -0.0080115004 0.044849001
0.30164 0.068259999 0.052863002
0.27900001 0.035501 0.047045998
0.27688 0.036864001 0.0462
0.29113999 0.023212999 0.043811001
0.29153001 0.022081999 0.043710001
0.29100999 0.023069 0.043237999
0.31999001 -0.053234 0.057872999
0.28792 0.072584003 0.058463998
0.29025999 0.071558997 0.057707999
0.26197001 0.084636003 0.056524999
0.26142001 0.083662003 0.054471999
0.26032999 0.084299996 0.056088001
0.27891001 0.086553 0.062760003
0.28165001 0.079026997 0.063564003
0.28264001 0.078143999 0.063738003
0.28408 0.024356 0.045609001
0.28356999 0.022836 0.044344999
0.27311 -0.026963999 0.021334
0.27465001 -0.028376 0.020191001
0.27489999 -0.027221 0.02101
0.28586 0.025612 0.0458
0.28557 0.027378 0.045917001
0.27243 -0.017255999 0.018138999
0.26851001 -0.029983999 0.023024
0.26973999 -0.028903 0.022871001
0.31182 0.066404998 0.042578999
0.31174001 0.065954 0.041243002
0.31421 -0.00098003994 0.053757999
0.31231999 -0.001774 0.052917
0.25988001 0.062245 0.068879999
0.26093 0.062135 0.070588998
0.29883 0.078175001 0.048859
0.27739 0.059944 0.066468
0.26089001 0.0071748998 0.029792
0.22544999 0.076020002 0.039852001
0.2252 0.076481998 0.040948
0.28874999 0.083754003 0.061659001
0.28733999 0.084371999 0.059980001
0.25184 -0.0049828999 0.020832
0.28709 0.041221 0.055236999
0.28791001 0.039636999 0.054611001
0.26958999 0.016930999 0.030950001
0.27046999 0.017144 0.032823998
0.29703999 0.043001998 0.055546001
0.29734001 0.045566 0.055509001
0.32295999 -0.042709 0.046780001
0.25863999 -0.030958001 0.015007
0.25781 -0.031182 0.013344
0.25881001 -0.032738999 0.015524
0.29701999 0.046243999 0.056014001
0.29868999 0.046061002 0.054512002
0.29767999 0.047577001 0.055854999
0.28455001 0.071259998 0.064340003
0.27309 0.0049218 0.029434999
0.27002001 0.040771 0.047228999
0.32012999 0.072105996 0.10222
0.27878001 -0.043611001 0.0086174998
0.27897 -0.045417 0.0090800999
0.26537001 -0.01142 0.028225999
0.26811001 -0.010467 0.026652001
0.30849001 -0.032728001 0.041448999
0.28654999 0.082041003 0.062252
0.28336999 0.039763998 0.052037001
0.28426999 0.05342 0.052322
0.30932 0.075906001 0.10502
0.30937001 0.076256998 0.10449
0.25477001 0.046154 0.029926
0.31595999 -0.028959 0.047054
0.26811999 0.033952001 0.040227
0.32624999 -0.049219001 0.058068
0.32284001 -7.4295996e-05 0.041007999
0.32350999 0.00033184001 0.041340999
0.29589999 0.032703001 0.042807002
0.29543 0.030177999 0.04304
0.29326999 0.0048694001 0.035186
0.30445001 -0.020005001 0.039946999
0.30140999 -6.2639003e-05 0.046386998
0.25538999 0.061965 0.032246999
0.25417 0.096709996 0.053675
0.26352999 -0.00011448 0.030971
0.24179 0.061971001 0.032591
0.30390999 0.048351999 0.055768002
0.30577001 0.050351001 0.056472
0.22728001 0.051495001 0.035886999
0.31244001 0.077405997 0.10222
0.27745 -0.045033 0.0095079998
0.25529999 -0.0097941998 0.025939999
0.27241001 0.032508001 0.038603
0.31242999 -0.050384 0.039854001
0.31292999 -0.051566999 0.039753001
0.31501999 0.059611 0.10469
0.2947 0.081340998 0.045738999
0.26618999 0.018802 0.02438
0.26475 0.018181 0.023845
0.26554 0.017758001 0.026396999
0.27304 -0.041627999 0.01457
0.30346 0.081050001 0.031532001
0.30320001 0.083203003 0.032655999
0.31323999 -0.033631001 0.045612998
0.26056001 0.059358001 0.081316002
0.26148999 0.044771999 0.042682
0.26348001 0.043533999 0.042714
0.26276001 0.044856999 0.042711001
0.26266 0.049249001 0.043871999
0.27105999 0.07079 0.068576001
0.29725999 0.0058225002 0.042337999
0.29508001 0.007272 0.041714001
0.2983 0.070666 0.052937001
0.32547 -0.029223001 0.039806999
0.30792001 -0.037039999 0.038469002
0.30801001 -0.037168 0.038681999
0.21833999 0.060571998 0.035475999
0.29335999 0.055018999 0.053817
0.29344001 0.056380998 0.055078998
0.26774001 0.046326 0.048351001
0.25876001 0.046645001 0.039900001
0.27842 -0.052512001 0.011262
0.31406 0.070317999 0.035259001
0.30651 0.073715001 0.039652999
0.31643 0.068784997 0.10523
0.32717001 0.057574999 0.082291998
0.32742 0.057355002 0.085015997
0.28380999 0.035188001 0.047228001
0.31683001 0.0025805 0.050864
0.26594001 0.054931 0.074135996
0.31553999 -0.017581001 0.051252
0.31560001 -0.018342 0.051651999
0.28171 0.037122998 0.050204001
0.30961999 -0.010575 0.048756
0.30897 -0.0094721001 0.047683999
0.27401 0.058444001 0.071544997
0.25459999 -0.020049 0.021932
0.25481999 -0.020972 0.022667
0.30056 0.029699 0.039831001
0.30057001 0.030145001 0.037399001
0.32031 -0.00074315001 0.048893999
0.3206 -0.0020310001 0.049582001
0.32143 -0.0014009 0.049040999
0.32449999 -0.031520002 0.041051999
0.2379 0.049773999 0.030285001
0.23222999 0.053984001 0.039193001
0.2314 0.055904999 0.038802002
0.31992 -0.021427 0.051440001
0.32016 -0.020647001 0.051231001
0.29894 -0.00023741 0.040323999
0.26929 -0.0056528002 0.025767
0.25858 0.061136998 0.034729
0.25712001 0.060699999 0.034283001
0.25714999 0.061423 0.034545999
0.33368 -0.053341001 0.054007001
0.30824 0.072072998 0.038412999
0.31018001 0.072383001 0.039211001
0.30382001 0.027523 0.036710002
0.30360001 0.026838999 0.038387001
0.31898001 -0.028821999 0.046870999
0.30717 0.072417997 0.046812002
0.26293001 0.076651998 0.058692001
0.26315999 0.077490002 0.059044998
0.26174 0.077202998 0.058123
0.29866999 0.061685 0.057778001
0.23096 0.049307 0.029995
0.26119 0.064196996 0.041285001
0.26069999 0.065100998 0.042197999
0.26804999 0.022663999 0.022565
0.26693001 -0.037368 0.017674999
0.26721001 -0.037951998 0.017541001
0.27171999 0.040865999 0.047325
0.22724 0.077679001 0.036947001
0.33131999 -0.053142998 0.049621001
0.32971999 -0.053479999 0.049442999
0.33058 -0.052901998 0.051142
0.31553 0.017002 0.036575001
0.31206 0.076311 0.094907001
0.29870999 0.016752001 0.043230001
0.26273999 -0.043983001 0.017367
0.28871 0.016891999 0.041703001
0.26574999 0.064627998 0.071055003
0.31399 0.059354998 0.10706
0.30987999 0.075934 0.035068002
0.29464999 0.018562 0.043395001
0.31127 -0.002776 0.052142002
0.27888 0.012418 0.037601002
0.27934 0.012438 0.038555
0.21797 0.061395999 0.035269
0.21808 0.061664999 0.034618001
0.31251001 0.068732999 0.043416001
0.31139001 0.067015998 0.042973001
0.24111 0.051378001 0.031762
0.26010001 0.085919999 0.056469999
0.26118001 0.086545996 0.055668999
0.27653 -0.0055122999 0.018410999
0.27654001 -0.0044145002 0.018239999
0.26732001 -0.052498002 0.024772
0.25448 0.060874999 0.03112
0.31099999 0.053463001 0.074481003
0.31117001 0.054443002 0.074643001
0.28619999 0.062514998 0.055654
0.28696999 0.062565997 0.054997999
0.29949999 0.078780003 0.042512
0.28272 0.072426997 0.064713001
0.29692999 -0.0025518001 0.0098890001
0.29550999 -0.0029790001 0.0087529998
0.32607001 -0.049015 0.058704998
0.30847999 -0.0038852999 0.052239001
0.24845999 0.052593 0.032639999
0.31492999 -0.041960999 0.042050999
0.28602999 0.070349 0.063511997
0.28547001 0.069879003 0.063409001
0.21975 0.079158999 0.046459001
0.27991 -0.049132999 0.010254
0.28004 -0.050402001 0.0091394996
0.26436001 0.016868001 0.020178
0.30109999 0.0036828001 0.046684999
0.32216001 0.062508002 0.10066
0.26122001 0.087089002 0.058049001
0.32049 -0.0057218 0.050202001
0.30098 0.063662 0.056421001
0.30024999 0.063700996 0.057425998
0.30083001 0.062144 0.056543998
0.31028 -0.035760999 0.042723
0.31018001 -0.035422001 0.044186998
0.31005999 -0.038531002 0.041397002
0.30394 0.036047 0.039976001
0.29626 0.00045784001 0.041294001
0.27219999 -0.053608999 0.016076
0.29065999 0.094994001 0.072540998
0.25457001 -0.0071732998 0.028135
0.30215001 0.031468 0.037489999
0.26232001 0.081955999 0.055640001
0.26287001 0.082390003 0.054908998
0.32115999 0.062096 0.10359
0.31084999 0.06814 0.10762
0.31150001 0.019811001 0.030111
0.3114 0.020780001 0.031530999
0.26862001 -0.0090001002 0.028577
0.32506999 -0.033838 0.039560001
0.32350999 -0.033805002 0.041615002
0.27634001 0.080941997 0.061512999
0.27327999 0.034339 0.041340999
0.31639999 -0.050886001 0.055385001
0.31564999 -0.051589999 0.058222
0.32036999 -0.0040775998 0.046613
0.32124001 -0.0027647 0.046836
0.3035 0.073853001 0.041521002
0.30359 0.074038997 0.043090999
0.30498999 -0.031468 0.036522999
0.25746 -0.0017168 0.029945999
0.29197001 0.040828001 0.055748999
0.21724001 0.064531997 0.037923999
0.31689 -0.041843001 0.043327998
0.31558001 -0.041379999 0.042606
0.31624001 -0.048526999 0.057190999
0.26429 0.089914002 0.052777998
0.26181 0.090839997 0.051082
0.23695 0.050714001 0.034418002
0.26199999 0.043736 0.039703
0.26480001 0.013277 0.028822999
0.26664999 0.012224 0.028448001
0.26524001 0.013614 0.02895
0.3109 0.076977 0.10521
0.28509 0.080431998 0.061682999
0.30484 0.074635997 0.045272
0.30439001 0.073899001 0.045614
0.32071 0.068498001 0.099229001
0.32207999 0.069291003 0.10004
0.26769999 -0.015409 0.023353999
