# .PCD v0.7 - Point Cloud Data file format
VERSION 0.7
FIELDS x y z
SIZE 4 4 4
TYPE F F F
COUNT 1 1 1
WIDTH 1639
HEIGHT 1
VIEWPOINT 0 0 0 1 0 0 0
POINTS 1639
DATA ascii
0.24315 0.17237 -0.015873
0.23993 0.17254999 -0.014432
0.18757001 0.1728 0.0099266004
0.20119999 0.17246 0.0036210001
0.18761 0.17399999 0.0096413
0.23985 0.1736 -0.014434
0.20133001 0.1742 0.0036675001
0.23382001 0.17264999 -0.01206
0.23417 0.17411999 -0.011762
0.24291 0.17404 -0.01564
0.18855 0.17531 0.0087789996
0.19389001 0.17404 0.0063792001
0.23434 0.17526001 -0.012188
0.1948 0.17564 0.0069038998
0.24336 0.17636999 -0.016555
0.18994001 0.17691 0.0083486997
0.2392 0.17565 -0.014174
0.24365 0.17692 -0.015985999
0.19036999 0.17862 0.0089191999
0.20039 0.17705999 0.0037920999
0.24303 0.17837 -0.016193001
0.19950999 0.17849 0.0041418001
0.19627 0.17815 0.0058753998
0.23538999 0.17684001 -0.012322
0.23635 0.17821001 -0.012982
0.19133 0.17910001 0.0082524
0.19724 0.1786 0.0060748002
0.23546 0.17845 -0.01327
0.23630001 0.17913 -0.013429
0.23773 0.17839 -0.013648
0.24277 0.18013 -0.015812
0.19151001 0.17992 0.0083478
0.19729 0.17957 0.0047800001
0.24164 0.17991 -0.015902
0.19913 0.1797 0.0038335
0.19178 0.18136001 0.0082123
0.24167 0.18127 -0.015402
0.19114999 0.18232 0.0081011001
0.24191 0.18254 -0.015142
0.19076 0.18255 0.0082091996
0.18817 0.18440001 0.0098133003
0.18934999 0.18288 0.0089721
0.24183001 0.18406001 -0.015442
0.18832 0.18542001 0.0090731001
0.18881001 0.18595 0.0093983002
0.19032 0.18758 0.0091578001
0.19042 0.18833999 0.0090244003
0.24345 0.18786 -0.01681
0.24372 0.18885 -0.016331
0.18968999 0.18968999 0.0085645998
0.24454001 0.18948001 -0.01709
0.24538 0.18999 -0.017062999
0.18909 0.19006 0.0093732001
0.18816 0.19163001 0.0099940002
0.18827 0.19156 0.0090616997
0.24414 0.19453999 -0.016457999
0.24357 0.19616 -0.016771
0.24369 0.1969 -0.016329
0.24395999 0.19865 -0.016166
0.24364001 0.20172 -0.016535999
0.24431001 0.20438001 -0.016576
0.18904001 0.20313001 0.0095058996
0.21368 0.20643 -0.0027309
0.21279 0.20739 -0.0017554
0.21373001 0.20733 -0.0022555999
0.21143 0.20766 -0.0010376
0.21479 0.20754001 -0.0031287
0.22449 0.20851 -0.0077526001
0.21154 0.20835 -0.0012378
0.21509001 0.20911001 -0.0036193
0.21016 0.20911001 -0.00059541001
0.22683001 0.20923001 -0.0086586
0.24415 0.21031 -0.016775001
0.21520001 0.21042 -0.0032323999
0.22334 0.20936 -0.0074433
0.22333001 0.20998999 -0.0072657
0.22753 0.21015 -0.0084054004
0.21623001 0.21055 -0.0040632999
0.24448 0.21191999 -0.016646
0.22211 0.21219 -0.0067357002
0.21667001 0.21190999 -0.0041069998
0.21768001 0.21195 -0.0049530999
0.22040001 0.21212 -0.0061063999
0.22191 0.21332 -0.0059814998
0.22040001 0.21324 -0.0056807999
0.21809 0.21314 -0.0044001001
0.2192 0.21291 -0.0052375002
0.18927 0.21337 0.0094371997
0.20637999 0.21456 0.001396
0.20566 0.21547 0.0013592
0.20532 0.21619999 0.0020332001
0.20478 0.21742 0.0022171999
0.20448001 0.21866 0.0016159
0.20341 0.21867999 0.0026122001
0.20305 0.21967 0.0021468
0.20241 0.22052 0.0029944
0.18963 0.21862 0.0092182001
0.23351 0.22076 -0.011552
0.2023 0.22126999 0.0031179001
0.19960999 0.22189 0.0046806
0.23499 0.22316 -0.011942
0.23453 0.22257 -0.012073
0.19776 0.22420999 0.0049231998
0.23593 0.22516 -0.012568
0.23576 0.22457001 -0.012789
0.23666 0.22709 -0.013361
0.24620999 0.23198 -0.015654
0.24567001 0.23479 -0.017387999
0.19493 0.23521 0.0055179
0.21694 0.23442 -0.0034719999
0.21546 0.23470999 -0.0026322999
0.24589001 0.2335 -0.016679
0.24641 0.23502 -0.016004
0.21434 0.23509 -0.0024002001
0.21777999 0.23492999 -0.0046993
0.22051001 0.23514999 -0.0050714999
0.22096001 0.23611 -0.0057095001
0.24606 0.23769 -0.017289
0.21143 0.23759 -0.0010244
0.22166 0.23758 -0.0063862
0.21055999 0.23825 -0.0010224
0.2361 0.2387 -0.012559
0.24582 0.23898999 -0.017678
0.22262 0.23865999 -0.0066879001
0.22329 0.23943 -0.0063792001
0.23492 0.2395 -0.012309
0.23388 0.24026 -0.011887
0.24533001 0.24041 -0.016858
0.19695 0.2395 0.0055551999
0.22356001 0.24029 -0.0073255999
0.24292 0.24117 -0.015964
0.24137001 0.24079999 -0.015121
0.23281001 0.24096 -0.0113
0.22491001 0.24119 -0.0081096003
0.22448 0.24108 -0.0073751998
0.23946001 0.24108 -0.014259
0.18827 0.24222 0.0095894001
0.18769 0.24062 0.0099534001
0.19248 0.24123999 0.0061983
0.20238 0.24218 0.0033557999
0.20863 0.24192999 0.00015269
0.20784 0.24257 0.00013164
0.22587 0.24196 -0.0079680998
0.18919 0.24209 0.0092727002
0.21122 0.24207 -0.001699
0.21041 0.24257 -0.00072916999
0.22642 0.24252 -0.0083472999
0.20325001 0.24270999 0.0025533999
0.2052 0.24315999 0.0019298
0.21008 0.24282999 -0.00074585999
0.21139 0.24356 -0.0011152
0.22186001 0.24333 -0.0059614
0.22232001 0.24259999 -0.0067431
0.22291 0.2427 -0.0064277998
0.22744 0.24319001 -0.0083643002
0.23473001 0.24281999 -0.013059
0.23621 0.24331 -0.012645
0.23658 0.24246 -0.013432
0.23479 0.24357 -0.012492
0.20622 0.24335 0.0013286
0.20917 0.24363001 0.00016661
0.22846 0.24333 -0.0092618
0.22994 0.24302 -0.0099004004
0.20852999 0.24451999 0.00028936
0.21201999 0.24439 -0.0015189
0.22070999 0.245 -0.0056818998
0.23238 0.24445 -0.011424
0.20134 0.24439999 0.0036877
0.23173 0.24437 -0.010698
0.22477999 0.24435 -0.0075315
0.21231 0.24523 -0.0016923
0.22586 0.24477001 -0.0077804001
0.20264 0.24479 0.0030679
0.23145001 0.24483 -0.010307
0.21954 0.24574 -0.0052670999
0.20363 0.24597999 0.0026895001
0.20794 0.24551 0.0004207
0.22686 0.24631999 -0.0084068002
0.23017 0.24553999 -0.010184
0.22991 0.24664 -0.0096747
0.21402 0.24671 -0.0026562
0.21954 0.24589001 -0.004772
0.21805 0.24662 -0.0039777998
0.21561 0.24664 -0.0029728999
0.21693 0.24665 -0.0037020999
0.20428 0.24710999 0.0018569001
0.20463 0.24756999 0.0017654001
0.20592 0.24744999 0.0010877
0.20653 0.24681 0.0010698
0.22902 0.24742 -0.0091920001
0.22802 0.24676 -0.0092316996
0.22946 0.24733999 -0.0098714
0.22987001 0.060476001 -0.0098788003
0.243 0.063091002 -0.016091
0.17724 0.070459999 0.014824
0.17906 0.077174 0.014418
0.21123999 0.078950003 -0.001206
0.21399 0.078984 -0.0021919999
0.22327 0.079572 -0.0068568001
0.22837999 0.079292998 -0.0092078997
0.19401 0.079393998 0.0062759998
0.19320001 0.079752997 0.0070400001
0.19713999 0.080059998 0.005599
0.22243001 0.084146 -0.0067270002
0.22348 0.084423997 -0.0065794
0.20878001 0.089243002 0.00031795999
0.22473 0.096032001 -0.0071820999
0.22537 0.096171997 -0.0077216998
0.24026 0.097621001 -0.014244
0.23810001 0.098145001 -0.013979
0.22867 0.098727003 -0.0093218004
0.18903001 0.10155 0.0095285997
0.23521 0.10231 -0.013286
0.23603 0.10179 -0.012583
0.18795 0.10306 0.010036
0.19165 0.11512 0.008289
0.18572 0.12042 0.01123
0.18299 0.12052 0.011853
0.18612 0.12407 0.010995
0.23641001 0.12358 -0.012803
0.23672 0.12634 -0.012844
0.18461999 0.12928 0.011669
0.23668 0.12808999 -0.01335
0.18463001 0.13071001 0.011253
0.1929 0.12917 0.0076132999
0.1851 0.13097 0.011431
0.18598001 0.13637 0.011028
0.2379 0.13473 -0.014134
0.19349 0.13794 0.0076354002
0.19383 0.13789999 0.0064678001
0.24044999 0.14413001 -0.014683
0.19468001 0.15392999 0.0067161
0.24214999 0.15695 -0.015368
0.19434001 0.15827 0.0068246
0.19768 0.16024999 0.0045534
0.20024 0.16523001 0.0043580998
0.24236999 0.16549 -0.015996
0.24225999 0.16717 -0.016093001
0.234 0.1698 -0.012318
0.20168 0.17115 0.0036555
0.24131 0.1697 -0.015283
0.23396 0.1714 -0.011916
0.18822999 0.17539001 0.0096135
0.18943 0.17688 0.009478
0.19874001 0.17845 0.0052899001
0.18989 0.18679 0.0091124
0.18829 0.19036999 0.0098983999
0.18884 0.19599 0.0093962997
0.2438 0.19972999 -0.016241999
0.24459 0.20606001 -0.016618
0.21428999 0.20897 -0.0026448001
0.22487 0.21066999 -0.0071215001
0.20886999 0.21036001 0.0002425
0.21706 0.21347 -0.0037203
0.24405999 0.21276 -0.016151
0.24329001 0.2147 -0.015959
0.24359 0.21806 -0.016263001
0.24406999 0.21935 -0.016367
0.24416 0.21874 -0.015098
0.20116 0.22155 0.0036807
0.18915001 0.2245 0.0093598999
0.19767 0.22473 0.0054747998
0.19676 0.22653 0.0055494001
0.18884 0.22766 0.0094221998
0.19656 0.22705001 0.0059247999
0.18748 0.23531 0.0085586002
0.18798999 0.235 0.0099676996
0.21362001 0.23538999 -0.002238
0.19592001 0.23755001 0.0061976002
0.21036001 0.23898999 -0.00089550001
0.19992 0.24084 0.0041773999
0.23992001 0.24063 -0.014888
0.19042 0.24134 0.0084531996
0.2009 0.24097 0.0041081998
0.20113 0.24144 0.0036929999
0.19046 0.24223 0.0090651
0.20390999 0.24297 0.0026546
0.22466999 0.24393 -0.0069841002
0.20307 0.24559 0.0025490001
0.23654 0.056581002 -0.012723
0.21430001 0.060743999 -0.00043558
0.21426 0.060929999 -0.0023749999
0.21615 0.061211001 -0.001604
0.24358 0.065642998 -0.016373999
0.24391 0.066027999 -0.015877999
0.20383 0.079930998 0.0023992001
0.20627999 0.079048 0.0013928
0.20886999 0.078877002 0.00054197002
0.18880001 0.079396002 0.0091217002
0.21543001 0.084376998 -0.0030856
0.22208001 0.086332999 -0.0065965001
0.22743 0.098613001 -0.0085490001
0.23499 0.11215 -0.012162
0.18933 0.11339 0.0094694002
0.23586001 0.12205 -0.012508
0.23698001 0.12218 -0.011482
0.18509001 0.13219 0.011334
0.23782 0.13402 -0.013594
0.23865999 0.13429999 -0.013307
0.23890001 0.13452999 -0.01311
0.18634 0.13506 0.012438
0.19431999 0.15539999 0.0070703998
0.19427 0.15699001 0.0066812998
0.24149001 0.16257 -0.015193
0.24160001 0.16388001 -0.015178
0.24196 0.16552 -0.01521
0.19416 0.16575 0.0074443002
0.24157999 0.16685 -0.015388
0.24181999 0.16854 -0.015333
0.23451 0.16962001 -0.011875
0.19284 0.16966 0.0076115001
0.24168 0.17105 -0.01481
0.23468 0.17445999 -0.011643
0.24293 0.18117 -0.015405
0.22400001 0.21180999 -0.0067818002
0.20821001 0.21084 0.00099652004
0.21514 0.21170001 -0.0031357999
0.18898 0.21191999 0.0097855004
0.2183 0.21456 -0.0040660999
0.22087 0.21479 -0.0052383998
0.20413999 0.21797 0.0029986
0.20293 0.21942 0.0031781001
0.1895 0.22044 0.0088790003
0.18885 0.2263 0.009149
0.24482 0.22713 -0.016571
0.23795 0.23345999 -0.013365
0.23823 0.23210999 -0.013629
0.23514999 0.24478 -0.012101
0.23641001 0.24523 -0.012938
0.23709001 0.24492 -0.013147
0.23638999 0.24611001 -0.012698
0.23538999 0.05652 -0.011946
0.24214 0.058729999 -0.013628
0.2413 0.059110001 -0.014903
0.17667 0.069323003 0.015558
0.2427 0.070427999 -0.014587
0.17831001 0.071071997 0.014591
0.17979001 0.072451003 0.015454
0.23964 0.072420999 -0.014356
0.24106 0.075737998 -0.013177
0.23973 0.075214997 -0.013468
0.21255 0.079159997 -0.0020186
0.2272 0.079093002 -0.0084405998
0.20788001 0.079380997 0.00088861003
0.21002001 0.078930996 -0.00022784001
0.21663 0.079847001 -0.0031564999
0.23364 0.079352997 -0.011271
0.19259 0.079402998 0.0077604
0.19546001 0.079712003 0.0061850999
0.20144001 0.079847001 0.0037656
0.21608999 0.080784 -0.0029849999
0.22462 0.080113001 -0.0067738001
0.18331 0.088343002 0.012654
0.18476 0.089827999 0.012159
0.18977 0.095795996 0.0095690005
0.23506001 0.096933998 -0.011761
0.23231 0.098357998 -0.010492
0.23598 0.10268 -0.012486
0.18814 0.10451 0.010079
0.18667001 0.10522 0.0098448005
0.18803 0.10623 0.010158
0.18674 0.10668 0.0098756999
0.18697999 0.10704 0.0099424999
0.18927 0.11082 0.0096349996
0.19047999 0.11311 0.0091009997
0.18772 0.11459 0.010306
0.18629 0.11795 0.011019
0.18640999 0.11878 0.0113
0.19253001 0.1194 0.0081968997
0.18351001 0.11919 0.012157
0.2367 0.12076 -0.011484
0.18351001 0.12217 0.012299
0.18362001 0.12345 0.012296
0.18649 0.12484 0.011101
0.1874 0.13090999 0.010368
0.18767001 0.12925 0.01053
0.23905 0.13511001 -0.013014
0.19175 0.13872001 0.0087168999
0.24284001 0.14303 -0.01439
0.18584 0.14548001 0.011127
0.18663 0.14419 0.010893
0.24349 0.14514001 -0.014798
0.24376 0.15244 -0.014916
0.2432 0.15377 -0.013993
0.18715 0.15398 0.010745
0.24222 0.15809999 -0.01507
0.24202999 0.15963 -0.015141
0.19794001 0.16062 0.0056488002
0.19938 0.16358 0.0053714998
0.23778 0.16421001 -0.013109
0.23476 0.17075001 -0.011656
0.24349 0.17578 -0.015827
0.19984999 0.17735 0.0048099998
0.23585001 0.17766 -0.012247
0.24597999 0.19019 -0.016003
0.24544001 0.19168 -0.015970999
0.24462999 0.19289 -0.015121
0.24365 0.19582 -0.015912
0.24350999 0.1971 -0.015928
0.24361999 0.20028999 -0.015985999
0.21315999 0.20902 -0.0015751
0.21414 0.21047001 -0.0022311001
0.21444 0.21174 -0.0022614
0.22468001 0.21184 -0.0067377998
0.20676 0.21329001 0.0016975
0.2238 0.21324 -0.0062751998
0.21739 0.21489 -0.0029769
0.21955 0.21510001 -0.0045170998
0.24541999 0.22356001 -0.015474
0.18851 0.22959 0.0094566001
0.24542999 0.22796001 -0.015781
0.24533001 0.22969 -0.01571
0.18762 0.23608001 0.0095843999
0.21359999 0.23558 -0.0017491
0.22126999 0.23672999 -0.0054861
0.2238 0.23957001 -0.0052834
0.22543 0.24135999 -0.0075634001
0.22349 0.24314 -0.0067030001
0.23117 0.2421 -0.010664
0.23049 0.24288 -0.0099176001
0.2376 0.24349999 -0.013428
0.19618 0.24472 0.0062842001
0.19575 0.24338999 0.0066348999
0.22166 0.24478 -0.0054941
0.22657 0.24484 -0.0069613
0.22765 0.24566001 -0.0072478
0.21315999 0.24522001 -0.00027858
0.23763999 0.24602 -0.012903
0.22084001 0.24605 -0.0052668001
0.23596001 0.24602 -0.012229
0.2052 0.24695 0.003583
0.23823 0.056487001 -0.012249
0.23687001 0.056451 -0.012258
0.24266 0.060665999 -0.015013
0.24467 0.064351998 -0.015096
0.17607 0.067287996 0.016634
0.24359 0.070088997 -0.014594
0.24217001 0.071575999 -0.013928
0.24097 0.072273001 -0.014286
0.17953999 0.078465998 0.015516
0.22645999 0.079204001 -0.0066256998
0.22542 0.079199001 -0.0065842001
0.21348999 0.078902997 -0.00033293999
0.21194001 0.078907996 4.6769001e-05
0.23002 0.079596996 -0.0095763998
0.23154999 0.079203002 -0.010501
0.23508 0.079222001 -0.012217
0.18052 0.079425998 0.014974
0.20239 0.079957001 0.0031009
0.22446001 0.081395 -0.0066348002
0.22317 0.086115003 -0.0065377001
0.18368 0.089022003 0.013541
0.18402 0.089365996 0.012811
0.23976 0.098853 -0.012659
0.22915 0.099219002 -0.0075976001
0.23702 0.10358 -0.011319
0.18971001 0.10324 0.010751
0.18895 0.10297 0.010286
0.18875 0.10522 0.010388
0.18889 0.10377 0.010364
0.23604 0.10494 -0.011565
0.23597001 0.10624 -0.01113
0.23553 0.11056 -0.011228
0.23587 0.11658 -0.011198
0.18325 0.11802 0.011896
0.18636 0.12144 0.011189
0.19272999 0.12248 0.0082993004
0.23729999 0.12766001 -0.01265
0.23834001 0.12961 -0.012015
0.18540999 0.13084 0.012021
0.18843 0.13217001 0.010933
0.18659 0.13785 0.012273
0.18668 0.13968 0.011916
0.18759 0.14218 0.011966
0.18776 0.14247 0.010873
0.18595 0.14456999 0.011519
0.24323 0.14831001 -0.014804
0.18752 0.14758 0.011055
0.18797 0.148 0.011558
0.19772001 0.16113999 0.0072519002
0.19591001 0.16277 0.0081932005
0.1952 0.16102999 0.0072798999
0.19848 0.16313 0.0063666999
0.20088001 0.16754 0.0049116001
0.24064 0.16700999 -0.014372
0.20111001 0.16832 0.0048536998
0.18759 0.16998 0.010558
0.235 0.17290001 -0.011564
0.23553 0.17456 -0.010971
0.18821 0.17546999 0.011193
0.18877999 0.17688 0.011117
0.19515 0.17628001 0.0067230999
0.18878999 0.17645 0.01023
0.23679 0.17648999 -0.011521
0.24394999 0.17983 -0.01494
0.24402 0.17859 -0.014795
0.18988 0.18292999 0.010584
0.24499001 0.186 -0.015164
0.24338999 0.18392 -0.014623
0.18973 0.19595 0.010489
0.18955 0.19453999 0.011068
0.24439999 0.20057 -0.014757
0.21315999 0.20997 -0.0012066
0.22590999 0.21021999 -0.0076572001
0.24508999 0.21175 -0.015786
0.20736 0.21201999 0.0024409001
0.22251 0.21432 -0.0055819
0.24387001 0.21596999 -0.014958
0.20254999 0.22050001 0.0046938001
0.23762 0.23511 -0.013406
0.23864999 0.23511 -0.012519
0.24669001 0.23617999 -0.015931999
0.19762 0.23977 0.0067665
0.19812 0.24009 0.0066593001
0.22516 0.24056999 -0.0064268
0.2447 0.2412 -0.015205
0.2431 0.24097 -0.015243
0.23165999 0.24233 -0.0090603
0.2307 0.24263 -0.0087350998
0.21096 0.24313 0.00073054002
0.19746 0.24496 0.0058872998
0.23167001 0.24477001 -0.0087209996
0.23233999 0.24428 -0.0096747996
0.20863999 0.24512 0.0016456
0.22781 0.24605 -0.007522
0.20801 0.24609999 0.0019741
0.20716999 0.24702001 0.0022654
0.2138 0.24658 -0.00075467001
0.23039 0.24721999 -0.0088849002
0.22939 0.24713001 -0.0085159997
0.23706999 0.056411002 -0.01151
0.23938 0.056883 -0.012862
0.24112999 0.058001999 -0.013405
0.24239001 0.059392001 -0.014342
0.23336001 0.059744999 -0.0094817001
0.23225001 0.059551001 -0.010408
0.24356 0.062535003 -0.015402
0.24379 0.061742 -0.014487
0.24392 0.062872 -0.014946
0.24467 0.067069001 -0.015099
0.17658 0.068668 0.01678
0.24476001 0.068196997 -0.014685
0.24417999 0.068614997 -0.015432
0.17719001 0.069916002 0.016616
0.17846 0.071358003 0.015838001
0.17918 0.072117001 0.015834
0.18057001 0.073054001 0.015143
0.24089 0.072549999 -0.013082
0.23957001 0.073298998 -0.013508
0.24005 0.074152 -0.013155
0.21732 0.079813004 -0.0025327001
0.18181001 0.079398997 0.014094
0.18611 0.079572998 0.012194
0.18793 0.079472996 0.010751
0.19061001 0.079504997 0.0092708999
0.24088 0.078965999 -0.013523
0.23969001 0.079149999 -0.013146
0.20468 0.079479001 0.0028723001
0.22503 0.080021001 -0.0061885002
0.21726 0.081754997 -0.0021983001
0.22412001 0.086264998 -0.0058824001
0.18278 0.087352999 0.013736
0.18463001 0.090072997 0.012931
0.2405 0.096432999 -0.013142
0.23996 0.096225001 -0.013258
0.23819 0.096533999 -0.012522
0.24078999 0.097764999 -0.013117
0.22653 0.097466998 -0.0068795001
0.22533999 0.096206002 -0.0062895999
0.23432 0.097847998 -0.010635
0.23560999 0.097770996 -0.011082
0.24016 0.097445004 -0.012658
0.23806 0.1002 -0.012241
0.23728 0.10077 -0.012566
0.18972 0.10181 0.010264
0.18993001 0.10032 0.010542
0.23631001 0.1046 -0.011405
0.18876 0.10618 0.010334
0.18951 0.1091 0.010201
0.19036999 0.11107 0.0095496001
0.19072001 0.11084 0.010051
0.19004001 0.11247 0.010338
0.18862 0.11238 0.010607
0.18855999 0.11347 0.011231
0.18986 0.11359 0.010695
0.19086 0.11373 0.0095993001
0.18762 0.11428 0.011113
0.19119 0.1143 0.0089381998
0.18729 0.1148 0.011879
0.18875 0.11503 0.010965
0.19112 0.11509 0.0097128004
0.18615 0.11533 0.01254
0.18519001 0.11575 0.011946
0.19171 0.11653 0.0090386001
0.23613 0.118 -0.011239
0.18455 0.1178 0.012898
0.18483999 0.11608 0.012685
0.19239999 0.11799 0.0092952996
0.18748 0.11796 0.0113
0.19255 0.11914 0.0091386
0.23596001 0.1189 -0.011859
0.18460999 0.11895 0.012766
0.1847 0.12067 0.012702
0.18703 0.12078 0.011703
0.18430001 0.12243 0.012503
0.18622001 0.12232 0.011061
0.18709999 0.1223 0.011394
0.19232 0.12219 0.0096332999
0.18465 0.12367 0.012823
0.18739 0.12317 0.011711
0.19284999 0.12354 0.0092225997
0.1928 0.12481 0.0093087004
0.1873 0.12637 0.011651
0.18735 0.12467 0.011866
0.18487 0.1251 0.013121
0.18481 0.12649 0.012614
0.19249 0.12653001 0.0094732
0.1874 0.12795 0.011867
0.1926 0.12759 0.0087380996
0.18877 0.12802 0.011259
0.18819 0.12916 0.011096
0.19293 0.12915 0.0084789004
0.18574999 0.12942 0.012134
0.18872 0.13104001 0.011283
0.19326 0.13133 0.0085373996
0.18605 0.13231 0.012296
0.23914 0.13346 -0.01249
0.18843 0.1329 0.011197
0.19302 0.13414 0.0082417997
0.1899 0.13387001 0.010275
0.18901999 0.13395999 0.010148
0.18613 0.13375001 0.012559
0.19309001 0.13513 0.0085410997
0.18989 0.13519999 0.010084
0.1911 0.13624001 0.0096498001
0.18609001 0.1366 0.01221
0.19277 0.13767 0.0091714999
0.19262999 0.13885 0.0086404001
0.23961 0.13955 -0.013022
0.18753999 0.14117 0.01172
0.23983 0.14199001 -0.013197
0.23985 0.14122 -0.01301
0.24178 0.14338 -0.014125
0.18728 0.14364 0.011507
0.18583 0.1435 0.012573
0.24063 0.14362 -0.013923
0.24378 0.14369 -0.015029
0.18649 0.14534999 0.012218
0.18725 0.14676 0.011592
0.24315 0.14674 -0.014827
0.24433 0.1487 -0.015823999
0.24527 0.14821 -0.015155
0.18858001 0.14955001 0.010761
0.18773 0.1487 0.010589
0.24537 0.14962 -0.015900001
0.24521001 0.15042999 -0.015786
0.18818 0.15110999 0.011268
0.24457 0.15114 -0.015242
0.18738 0.15285 0.011709
0.18675999 0.15361001 0.011343
0.18630999 0.15524 0.011495
0.18656 0.15522 0.012108
0.24225999 0.15526 -0.013942
0.24301 0.15485001 -0.014608
0.18677001 0.15699001 0.012153
0.24201 0.1567 -0.013842
0.19600999 0.15787999 0.0068317
0.18716 0.15836 0.012089
0.19735999 0.15982001 0.0063979002
0.24150001 0.15939 -0.014109
0.18771 0.1596 0.011821
0.24127001 0.16041 -0.014468
0.19498 0.16388001 0.0082011996
0.19937 0.16372 0.0060231001
0.24045999 0.16418 -0.014094
0.19461 0.1653 0.0084285
0.23848 0.16508999 -0.012353
0.18829 0.16425 0.011582
0.1998 0.16444001 0.0056018
0.23667 0.16568001 -0.01153
0.24047001 0.16541 -0.014059
0.19995999 0.16529 0.0057226
0.23948 0.16547 -0.01307
0.19412 0.16638 0.0077677001
0.20069 0.16675 0.0055674999
0.23587 0.16715001 -0.010937
0.19392 0.16733 0.0080348002
0.23525999 0.16847999 -0.010917
0.1876 0.16858 0.010892
0.23526999 0.17138 -0.010965
0.23522 0.16971999 -0.010964
0.24064 0.17268001 -0.013988
0.20125 0.17137 0.0051381998
0.23535 0.17284 -0.010794
0.19403 0.17238 0.0086222999
0.19373 0.17136 0.0087304004
0.24279 0.1741 -0.014777
0.23578 0.17544 -0.011391
0.20069 0.17572001 0.0048933001
0.20067 0.17549001 0.0054204999
0.19983999 0.17640001 0.0053526
0.19559 0.17654 0.0079725999
0.19743 0.17743 0.0069038002
0.19632 0.17704 0.0076573999
0.18994001 0.17859 0.010666
0.18975 0.17821001 0.0097812004
0.19791999 0.17764001 0.0060338001
0.19046 0.17851 0.0094143003
0.19117001 0.18122999 0.01018
0.19124 0.18144 0.0092145996
0.24336 0.18249001 -0.014251
0.18821 0.18416999 0.011042
0.24492 0.18671 -0.015216
0.19005001 0.18711001 0.010318
0.24498001 0.18841 -0.015539
0.1891 0.18903001 0.011432
0.24428999 0.19596 -0.015142
0.24391 0.19502001 -0.015217
0.24445 0.19726001 -0.014998
0.24391 0.20203 -0.015201
0.2436 0.2031 -0.014968
0.24405 0.20456 -0.014816
0.24411 0.20476 -0.015396
0.24446 0.20589 -0.015512
0.24501 0.20738 -0.015119
0.21065 0.20888001 0.00055954
0.21182001 0.20904 -7.2950999e-05
0.20907 0.2101 0.0011476
0.20977999 0.20957001 0.0012255
0.20832001 0.21061 0.0019139
0.24476001 0.2103 -0.015361
0.20761999 0.21117 0.0018885999
0.21584 0.21337 -0.0025017001
0.24462 0.21351001 -0.015228
0.24375001 0.21458 -0.015
0.20636 0.21295001 0.0026042
0.21593 0.21455 -0.0017926
0.21673 0.215 -0.0025834001
0.22324 0.21393 -0.0059401998
0.22411001 0.21488 -0.0057100998
0.20558 0.21502 0.002259
0.20543 0.21479 0.0031711
0.20501 0.21594 0.0031266999
0.21839 0.21604 -0.0030255001
0.22126999 0.21615 -0.004247
0.20522 0.21726 0.0028035999
0.20457999 0.21724001 0.0038260999
0.20305 0.2191 0.0043855999
0.20014 0.22147 0.0053968998
0.19938999 0.22237 0.0061849002
0.23741999 0.2261 -0.0119
0.23656 0.22487 -0.011288
0.24539 0.22590999 -0.015285
0.19661 0.22782999 0.0071224002
0.23789001 0.2277 -0.012006
0.19622 0.22923 0.0078159003
0.19575 0.23067001 0.0077900998
0.23865999 0.23191001 -0.01297
0.23903 0.23338 -0.012553
0.2388 0.23387 -0.012818
0.19496 0.23365 0.0077903001
0.21731 0.23425999 -0.0024127001
0.2184 0.23433 -0.0037257001
0.21867999 0.23384 -0.002813
0.22002 0.23388 -0.0036927999
0.21641999 0.23401 -0.0016847
0.22093 0.2348 -0.0043274001
0.19547001 0.23509 0.0078397002
0.21459 0.23499 -0.001416
0.21386001 0.23543 -0.00084936002
0.21329001 0.23616999 -0.00056335999
0.22178 0.23587 -0.0044682999
0.22282 0.23766001 -0.0049048001
0.2221 0.23666 -0.0047372002
0.23827 0.23636 -0.012167
0.24676999 0.23935001 -0.015944
0.21222 0.2379 -0.00020906
0.21176 0.23864999 0.00025032001
0.23734 0.23811001 -0.011692
0.21107 0.23973 0.00020623
0.20965999 0.24000999 -0.00015311
0.21046001 0.24047001 0.00072019
0.19879 0.24016 0.0063437
0.20046 0.24055 0.0054686
0.24082001 0.24084 -0.01353
0.24194001 0.24149001 -0.013766
0.23408 0.2404 -0.010384
0.24653 0.24106 -0.015768999
0.22634 0.24241 -0.0071729999
0.20125 0.24089999 0.0052079
0.18982001 0.24364001 0.010614
0.18877999 0.24213 0.011408
0.18932 0.24308001 0.0098013002
0.1954 0.24343 0.0072786999
0.19452 0.24177 0.0073095001
0.22785001 0.24333 -0.0072454
0.19495 0.24349 0.008165
0.21173 0.2438 1.3725e-05
0.22385 0.24311 -0.0055665001
0.22296 0.24339999 -0.0047622002
0.23826 0.24213 -0.012541
0.23825 0.24331 -0.012766
0.20695999 0.24353001 0.0025853
0.20550001 0.24372999 0.0030789999
0.19580001 0.24527 0.0073588998
0.22225 0.24489 -0.0048221
0.19930001 0.24417999 0.0057119001
0.1989 0.24484 0.0062501999
0.20187999 0.24438 0.0050494
0.2094 0.24455 0.0015591
0.23329 0.24412 -0.0098061999
0.23445 0.24411 -0.01002
0.23486 0.24449 -0.010633
0.23868001 0.24471 -0.012965
0.23544 0.24518 -0.010874
0.1981 0.24469 0.0060043
0.20249 0.24483 0.0044076
0.20356999 0.24553999 0.003827
0.2309 0.24637 -0.0086658997
0.23604 0.24593 -0.011147
0.23871 0.24654 -0.01258
0.22136 0.24651 -0.0038195001
0.22029001 0.24673 -0.0032245
0.21866 0.24687999 -0.0031896001
0.23684999 0.2463 -0.011783
0.21481 0.24727 -0.0010008001
0.22922 0.24666999 -0.0075702001
0.20667 0.24724001 0.002626
0.23458 0.055829 -0.010272
0.23556 0.055929001 -0.010354
0.24088 0.057273 -0.013039
0.24315999 0.060178 -0.014324
0.24474999 0.066128999 -0.015368
0.17748 0.070396997 0.016325001
0.24124999 0.077448003 -0.014247
0.17942999 0.077348001 0.015628999
0.20573001 0.079212002 0.0029080999
0.18436 0.079593003 0.012592
0.21616 0.079080001 -0.0021347001
0.23334 0.079630002 -0.0096725998
0.183 0.079255998 0.013693
0.18967 0.079271004 0.010227
0.19246 0.079522997 0.0085925004
0.23841999 0.079470001 -0.012154
0.20187999 0.079818003 0.005047
0.20045 0.079889998 0.0057969
0.20423999 0.079595998 0.0036226001
0.19897 0.080159001 0.0060884999
0.21694 0.082915001 -0.0023741
0.22515 0.083031997 -0.0062330002
0.21619999 0.084446996 -0.0019342999
0.22526 0.084385 -0.0058598001
0.18720999 0.091945998 0.01174
0.18556 0.090671003 0.012617
0.23691 0.096625999 -0.01203
0.23868001 0.098995 -0.01266
0.23720001 0.10182 -0.011877
0.18993001 0.10639 0.010303
0.23582999 0.109 -0.010637
0.23594999 0.10772 -0.010826
0.18997 0.10783 0.010358
0.19011 0.10898 0.01025
0.19064 0.10908 0.010169
0.19038001 0.11155 0.010032
0.23569 0.11181 -0.010974
0.23571 0.11335 -0.011137
0.18841 0.11639 0.011341
0.18781 0.1162 0.010942
0.23582999 0.11515 -0.01105
0.18724 0.11927 0.011503
0.23672 0.11893 -0.011198
0.19247 0.12084 0.0093860002
0.18466 0.12789001 0.012397
0.23786999 0.12772 -0.012053
0.19281 0.1296 0.0094643002
0.19246 0.13106 0.0093938997
0.19324 0.13253 0.0084958998
0.19311 0.13654999 0.0087900003
0.23958001 0.13661 -0.012727
0.19131 0.13772 0.0092639001
0.19305 0.13759001 0.0086866003
0.24341001 0.14878 -0.015054
0.2457 0.14918999 -0.015743
0.24178 0.15815 -0.013996
0.19599 0.15865 0.0073691001
0.19608 0.15988 0.0071802
0.24081001 0.16102 -0.013862
0.24113999 0.16158 -0.014338
0.19839001 0.16158 0.0062362999
0.20045 0.16698 0.0046349
0.19396999 0.16989 0.0088226004
0.19414 0.16858999 0.0086208005
0.20137 0.16993999 0.0050303
0.19406 0.17427 0.0083024995
0.24105 0.17411 -0.013525
0.19497 0.17576 0.0081995996
0.19448 0.17445999 0.0081908004
0.20108999 0.17412999 0.0052014999
0.24327999 0.17539001 -0.014698
0.24318001 0.17675 -0.014223
0.19868 0.17798001 0.0055848002
0.24361999 0.1813 -0.014495
0.24236999 0.18255 -0.014899
0.24525 0.19183999 -0.015039
0.19002999 0.19701 0.010155
0.24459 0.19892 -0.014645
0.24481 0.2089 -0.015512
0.21287 0.21021 -0.00027108
0.21332 0.21168 -0.00070886
0.22774 0.21182001 -0.0073639001
0.22758 0.21036001 -0.0079541998
0.2146 0.212 -0.0014781
0.22661 0.2123 -0.0070782001
0.21457 0.21324 -0.0012813
0.22654 0.21358 -0.0065684002
0.22526 0.21322 -0.00666
0.21535 0.2137 -0.0018882999
0.22255 0.21483999 -0.0055229999
0.22281 0.21599001 -0.0049243001
0.21956 0.21529999 -0.0042400002
0.24435 0.21732 -0.014916
0.19 0.22024 0.010335
0.23411 0.22054 -0.010331
0.24537 0.22031 -0.013547
0.24524 0.22155 -0.013584
0.20242 0.22135 0.0043164999
0.19896001 0.22299001 0.0064997999
0.23578 0.22308999 -0.011319
0.18965 0.22582 0.010511
0.19817001 0.22454 0.0067811999
0.23851 0.22922 -0.012029
0.18922 0.22936 0.010728
0.19563 0.23227 0.0083355
0.24620999 0.23382001 -0.016015001
0.21561 0.23465 -0.0019352
0.18782 0.23766001 0.010144
0.18854 0.23671 0.011758
0.19569001 0.23664001 0.0078101
0.19589999 0.23575 0.0079287002
0.24671 0.23776001 -0.016246
0.23774999 0.23712 -0.012272
0.23662999 0.23895 -0.011892
0.22401001 0.24011 -0.0058924002
0.23337001 0.24135 -0.010293
0.20220999 0.24163 0.0047816001
0.20306 0.24239001 0.0040078
0.19136 0.24245 0.0093786996
0.19125 0.24359 0.0099465
0.20979001 0.24405 0.0016463
0.2254 0.24369 -0.0060596
0.20042001 0.24412 0.0054100002
0.19647001 0.24642999 0.0075495001
0.19754 0.24628 0.006937
0.19784001 0.24564999 0.0060433
0.20417 0.2464 0.0038626001
0.24434 0.062010001 -0.014399
0.24052 0.074778996 -0.012706
0.21084 0.079278 0.00050491001
0.21498001 0.079002 -0.0013591
0.207 0.079104997 0.0024965
0.21731 0.079356998 -0.0020765001
0.23676001 0.079304002 -0.011811
0.23492 0.079320997 -0.0099456003
0.19473 0.079786003 0.0077593001
0.22527 0.081597999 -0.0063191
0.19492 0.086686 0.0081780003
0.19422001 0.086871997 0.0087636001
0.19433001 0.086560003 0.0068240999
0.20789 0.089101002 0.00042549
0.20849 0.089157 0.0016592999
0.20919 0.089235999 0.0015598
0.186 0.090888999 0.01227
0.24081001 0.098306 -0.012992
0.23035 0.099326 -0.0086650997
0.23785999 0.10135 -0.011704
0.18993001 0.10475 0.010539
0.18977 0.11511 0.010362
0.23741999 0.1239 -0.011506
0.23735 0.12497 -0.012104
0.23774999 0.12523 -0.011359
0.1856 0.12808999 0.012056
0.1927 0.12803 0.0095592001
0.23889001 0.13163 -0.01235
0.19086 0.13539 0.0099477004
0.19259 0.13623001 0.0091746002
0.23954999 0.13773 -0.012601
0.24049 0.14253999 -0.012991
0.24049 0.15962 -0.013276
0.19626001 0.16103999 0.0078496002
0.18781 0.16286001 0.011092
0.18780001 0.16673 0.010751
0.18873 0.16599 0.011396
0.18885 0.16677 0.01147
0.18878999 0.16813 0.011092
0.18861 0.16954 0.010901
0.20137 0.17303 0.0051783998
0.24199 0.17436001 -0.014112
0.24169999 0.17302001 -0.01437
0.19905999 0.17670999 0.0062704999
0.18849 0.19016001 0.011044
0.18866999 0.19258 0.011232
0.19069999 0.19864 0.010019
0.19001999 0.19833 0.0098559996
0.21378 0.21276 -0.00012886
0.2255 0.2146 -0.0060012001
0.20598 0.21371999 0.0034777001
0.21742 0.21602 -0.0023270999
0.20365 0.21849 0.0038995
0.2454 0.22476999 -0.015331
0.19732 0.22614001 0.0072317999
0.19728 0.22656 0.0083707999
0.18922 0.22745 0.010222
0.18844999 0.23071 0.0097291004
0.24609999 0.23028 -0.01556
0.18854 0.23137 0.0095680002
0.18904001 0.23164999 0.010864
0.18934999 0.23095 0.011154
0.18870001 0.23338 0.010784
0.18884 0.23468 0.011253
0.18844 0.23762999 0.011691
0.24733999 0.23759 -0.014665
0.19238999 0.24202 0.0092502004
0.18909 0.24287 0.011322
0.20804 0.24307001 0.0020776
0.19528 0.2448 0.0083231004
0.23909 0.24307001 -0.012481
0.23912001 0.24513 -0.0123
0.21708 0.24713001 -0.0026813999
0.2058 0.2473 0.0036430999
0.21839 0.24717 -0.0023914
0.21773 0.2472 -0.0019052
0.17577 0.067332998 0.017371001
0.24315999 0.071020998 -0.013902
0.24239001 0.077536002 -0.013396
0.22796001 0.078950003 -0.0069964002
0.20841999 0.079162002 0.0021406
0.22975001 0.079388 -0.0086891996
0.23183 0.079285003 -0.0089074997
0.18692 0.079522997 0.011418
0.19325 0.079701997 0.0087740002
0.23582999 0.079086997 -0.011099
0.20339 0.079810999 0.0045933998
0.22609 0.081448004 -0.0059385002
0.22641 0.080064997 -0.0060542002
0.21707 0.084876001 -0.0023818
0.18269999 0.086131997 0.014228
0.20949 0.089896001 0.0019725
0.23838 0.097243004 -0.011655
0.23681 0.097180001 -0.011108
0.23485 0.098443002 -0.010177
0.23914 0.099949002 -0.011998
0.23667 0.11185 -0.0096803997
0.23672 0.11504 -0.010016
0.19142 0.11656 0.0097401002
0.2366 0.11668 -0.010447
0.18866999 0.11789 0.011498
0.18875 0.11931 0.011324
0.23644 0.11769 -0.010591
0.18616 0.12096 0.012515
0.18615 0.12225 0.012239
0.23778 0.12647 -0.01186
0.18865 0.12636 0.011416
0.18589 0.1265 0.012338
0.18729 0.12947001 0.012034
0.23857 0.1309 -0.01228
0.1926 0.13243 0.0098211998
0.19018 0.13202 0.010968
0.23913001 0.13265 -0.012155
0.19235 0.1339 0.0097473003
0.24043 0.13499001 -0.011459
0.2406 0.13666999 -0.011475
0.18629 0.13888 0.012142
0.24245 0.14286 -0.013836
0.18697 0.14566 0.012298
0.24579 0.14835 -0.015267
0.18653999 0.1538 0.012674
0.24273001 0.15423 -0.01373
0.24098 0.15800001 -0.013193
0.19572 0.16246 0.0080206003
0.19841 0.16260999 0.0067826002
0.18853 0.1629 0.011658
0.20096 0.16863 0.00581
0.20087001 0.17418 0.0057736002
0.24237999 0.17563 -0.013527
0.23701 0.17588 -0.011334
0.24575999 0.18916 -0.015387
0.24435 0.20132001 -0.015107
0.2122 0.21041 0.00010586
0.21278 0.21111999 0.00042105999
0.22535001 0.21573 -0.0054939999
0.2202 0.2165 -0.0039570001
0.20486 0.21631999 0.0038171001
0.24494 0.21665999 -0.013442
0.23691 0.22288001 -0.0098842001
0.23507001 0.22178 -0.010692
0.24571 0.22306 -0.013695
0.18993001 0.22453 0.010454
0.18963 0.23054001 0.011392
0.24639 0.23045 -0.014424
0.21278 0.23752999 -6.0276001e-05
0.19411001 0.24225999 0.0091183996
0.19299001 0.24121 0.0085439002
0.23924001 0.24222 -0.012282
0.19238999 0.24315999 0.0098372996
0.23932 0.24568 -0.012125
0.19878 0.24605 0.0066971998
0.21588001 0.24676 -0.0014023
0.24180999 0.078502998 -0.013524
0.21007 0.078815997 0.0016543
0.22920001 0.078994997 -0.0076024001
0.18856999 0.079278998 0.011419
0.21834999 0.081703 -0.0015134
0.22504 0.086030997 -0.0054747001
0.2308 0.099866003 -0.0073544001
0.23656 0.11353 -0.010114
0.18978 0.11653 0.010549
0.19126999 0.11775 0.010386
0.19 0.11764 0.010807
0.18867999 0.12015 0.011613
0.18889 0.12221 0.011425
0.18903001 0.12357 0.011619
0.18605 0.1237 0.012749
0.18884 0.12499 0.011593
0.18588001 0.12486 0.012727
0.18743999 0.13077 0.01191
0.19014999 0.13063 0.011232
0.19136 0.13378 0.010396
0.19284 0.13523 0.0097949998
0.19561 0.16565999 0.0095519004
0.19468001 0.1665 0.0086559998
0.24112 0.17558999 -0.012746
0.24507 0.19867 -0.013634
0.24499001 0.20152999 -0.013635
0.22769 0.21326999 -0.0062945001
0.21518999 0.21437 -0.00085502001
0.22666 0.21461999 -0.0059588002
0.22446001 0.21589001 -0.0053514
0.21661 0.21613 -0.0012923999
0.22623 0.21635 -0.0047721001
0.22186001 0.21702 -0.0039793998
0.22288001 0.21683 -0.0045420001
0.2386 0.23011 -0.012578
0.23932 0.23177999 -0.012296
0.24668001 0.23173 -0.014423
0.24715 0.23671 -0.014798
0.24728 0.23481999 -0.014404
0.24694 0.23833001 -0.016191
0.24355 0.24132 -0.014229
0.24512 0.24142 -0.014847
0.20942 0.24518999 0.0032907999
0.24161001 0.056874 -0.011904
0.2427 0.058437999 -0.01274
0.17622 0.067197002 0.018648
0.17636 0.068168998 0.017588001
0.2462 0.067363001 -0.014228
0.24557 0.068522997 -0.013679
0.1769 0.069172002 0.017541001
0.17881 0.071736 0.017661
0.24292 0.071872003 -0.01292
0.24178 0.07277 -0.012354
0.24150001 0.074446 -0.012175
0.24247999 0.078713998 -0.01244
0.2124 0.079550996 0.0017046999
0.19142 0.079223998 0.010202
0.19284 0.079161003 0.0094370004
0.19619 0.079719 0.0079041999
0.20524999 0.079595998 0.0046108998
0.19798 0.079750001 0.0072881002
0.2262 0.082487002 -0.0060518002
0.18291 0.087076001 0.015601
0.18506999 0.090391003 0.014231
0.18562999 0.091131002 0.013308
0.18802001 0.092421003 0.011117
0.18806 0.093080997 0.013469
0.19005001 0.10205 0.012071
0.19042 0.10339 0.012132
0.23740999 0.1049 -0.01031
0.19104999 0.10932 0.011179
0.19013 0.11918 0.011062
0.19158 0.1191 0.010533
0.19166 0.12041 0.010515
0.18601 0.11963 0.013113
0.2376 0.12062 -0.010585
0.23784 0.12203 -0.010421
0.19004001 0.12949 0.01112
0.18723001 0.13221 0.011986
0.19165 0.13194001 0.010533
0.23999999 0.13348 -0.011671
0.18752 0.13968 0.013241
0.2406 0.14068 -0.011953
0.1866 0.14476 0.013653
0.2447 0.1513 -0.013425
0.24099 0.15662 -0.012808
0.18817 0.1613 0.011901
0.18944 0.16084 0.012459
0.19972 0.16403 0.0077694999
0.23813 0.16396999 -0.010138
0.23739 0.16292 -0.011602
0.23739 0.16395999 -0.011646
0.19576 0.16398001 0.0092986999
0.19424 0.16708 0.0097265998
0.19419 0.16829 0.0096294004
0.19464 0.16964 0.0095541999
0.19463 0.17129999 0.0099946
0.20095 0.17306 0.0065386002
0.19521999 0.17294 0.0091912001
0.19507 0.17313001 0.0086540002
0.19562 0.17422999 0.0094344998
0.24267 0.17701 -0.013537
0.19583 0.17567 0.0095213996
0.19678 0.17692 0.0090846
0.24444 0.18403 -0.013492
0.24427 0.18265 -0.013159
0.24582 0.18698999 -0.014212
0.24614 0.19114 -0.014574
0.21103001 0.20941 0.0017331
0.20730001 0.21178 0.004249
0.20614 0.21321 0.0041697999
0.24491 0.21461 -0.013677
0.24563 0.21359 -0.014178
0.2448 0.21565001 -0.013848
0.24507999 0.21765999 -0.013473
0.20263 0.22167 0.0063439002
0.20027 0.2221 0.0074131
0.19932 0.22304 0.0079659
0.24596 0.22511999 -0.013874
0.23779 0.22483 -0.010267
0.23855001 0.22669999 -0.010361
0.19634999 0.23206 0.0095188003
0.21934 0.23331 -0.0018985
0.22176 0.23497 -0.0026231001
0.22363999 0.23779 -0.0033221999
0.21312 0.23791 0.001604
0.21228001 0.23904 0.0018205
0.20106 0.24041 0.0070564002
0.20265999 0.24151 0.0054502999
0.20241 0.24096 0.0061932001
0.24569 0.24172001 -0.015319
0.24548 0.24221 -0.013584
0.19430999 0.24297 0.0092406003
0.22608 0.24356 -0.0047980002
0.21142 0.24327999 0.0019551001
0.22609 0.24377 -0.0060280999
0.22668999 0.2438 -0.0053468999
0.23525 0.24405999 -0.0088956999
0.20971 0.24440999 0.0027067
0.24034999 0.24353001 -0.011413
0.2031 0.24474999 0.0059441002
0.19979 0.24496999 0.0077360002
0.19568001 0.24606 0.0086671999
0.22861999 0.24587999 -0.0065922001
0.23771 0.24631 -0.010401
0.2208 0.24703 -0.0021301999
0.23142 0.24690001 -0.0069090999
0.21872 0.2473 -0.0017589
0.23855001 0.055872001 -0.010909
0.24207 0.058189999 -0.012556
0.24337 0.059227001 -0.013202
0.24394999 0.060398001 -0.013435
0.24538 0.062678002 -0.013938
0.24571 0.064067997 -0.014306
0.24484 0.069936998 -0.013459
0.17726 0.070159003 0.018506
0.24397001 0.071259998 -0.012844
0.18024001 0.072780997 0.017077001
0.18080001 0.073279001 0.016198
0.24291 0.077381998 -0.012524
0.2427 0.076286003 -0.012256
0.20634 0.079109997 0.0043131001
0.20728999 0.079171002 0.0039725001
0.22706001 0.079138003 -0.0060299002
0.22834 0.079102002 -0.0059447
0.17975 0.078955002 0.016930999
0.21758001 0.079355001 -0.0010259
0.24150001 0.079380997 -0.012355
0.18117 0.079392001 0.016279999
0.18264 0.079540998 0.015502
0.18761 0.079565004 0.012116
0.22693001 0.079870999 -0.0058515002
0.23483001 0.079649001 -0.0094659999
0.19420999 0.079738997 0.0097140996
0.21864 0.080219999 -0.00095811998
0.22728001 0.081611 -0.005717
0.22621 0.084965996 -0.005293
0.226 0.086117998 -0.004981
0.22497 0.086645998 -0.0052916999
0.19554 0.086779997 0.0094156004
0.18331 0.087990001 0.015127
0.1839 0.089005999 0.0147
0.18647 0.09155 0.013342
0.18738 0.092510998 0.012816
0.18881001 0.093457997 0.012011
0.242 0.097424001 -0.012034
0.23869 0.098017998 -0.011002
0.24058001 0.097698003 -0.01117
0.24144 0.099276997 -0.011896
0.22747999 0.098440997 -0.0068941
0.22716001 0.097530998 -0.0050459001
0.23705 0.097838998 -0.010761
0.23614 0.098764002 -0.0098253004
0.24033999 0.099473 -0.011883
0.23806 0.10266 -0.011191
0.23692 0.10613 -0.010388
0.23681 0.10657 -0.010297
0.19104999 0.10771 0.011739
0.19051 0.10809 0.010887
0.19098 0.11169 0.011116
0.19111 0.11189 0.011706
0.19047999 0.11353 0.011857
0.18933 0.11442 0.012451
0.18792 0.11461 0.013084
0.18655001 0.11485 0.013764
0.18520001 0.11642 0.014474
0.18571 0.11778 0.01399
0.23712 0.1179 -0.010164
0.19011 0.12052 0.011102
0.18774 0.12064 0.012841
0.19137 0.12223 0.010781
0.18753 0.1221 0.012931
0.18987 0.12205 0.011197
0.18758 0.1237 0.013002
0.19019 0.1234 0.011333
0.18999 0.12335 0.011478
0.18785 0.12513 0.012827
0.19236 0.12482 0.010244
0.19238999 0.12384 0.010438
0.18782 0.1267 0.012868
0.18976 0.12547 0.011341
0.18815 0.12795 0.012467
0.23886999 0.12634 -0.010654
0.19257 0.12814 0.01089
0.18991999 0.12795 0.011503
0.18805 0.12942 0.012514
0.23875999 0.12837 -0.011147
0.2392 0.1295 -0.011426
0.18911 0.13071001 0.012384
0.19155 0.12964 0.010791
0.19159 0.13071001 0.010586
0.18894 0.13229001 0.01224
0.18716 0.13302 0.012307
0.18807 0.13378 0.01257
0.18691 0.13637 0.01357
0.24053 0.13767999 -0.012116
0.2405 0.13956 -0.012071
0.24162 0.14224 -0.011933
0.18645 0.1428 0.013833
0.24295001 0.14282 -0.012296
0.18618999 0.14365 0.013959
0.24408001 0.14301001 -0.013385
0.24444 0.14523 -0.013663
0.18826 0.14662001 0.013295
0.18881001 0.14806999 0.012632
0.24442001 0.14663 -0.013388
0.24435 0.14742 -0.0137
0.24628 0.14813 -0.014024
0.18864 0.14948 0.012705
0.24526 0.15056001 -0.014081
0.18798 0.15097 0.013225
0.18709999 0.15249 0.013806
0.24251001 0.15378 -0.013075
0.18765999 0.15516999 0.013245
0.18776 0.15652999 0.013094
0.24132 0.15569 -0.01275
0.18810999 0.15775999 0.012614
0.18939 0.1584 0.012882
0.19667 0.16268 0.0088082999
0.19817001 0.1628 0.0081495997
0.23781 0.16306999 -0.01096
0.20021001 0.16491 0.0071132001
0.23746 0.16512001 -0.010133
0.18914001 0.16502 0.01146
0.18912999 0.16423 0.011814
0.23724 0.16686 -0.0098957
0.19463 0.16675 0.0090888999
0.20112 0.16690999 0.0066936002
0.20123 0.16571 0.0071073002
0.2014 0.16866 0.0063752001
0.23641001 0.16763 -0.010535
0.23638999 0.16983999 -0.0098171001
0.23638 0.16828001 -0.01007
0.20112 0.17026 0.0059652999
0.20121001 0.16936 0.0060037998
0.20118999 0.17205 0.0059555001
0.23634 0.17283 -0.0097454004
0.20094 0.17449 0.0067363
0.23673999 0.17456999 -0.0098281996
0.23782 0.17518 -0.010008
0.1894 0.17675 0.012354
0.18911 0.17539001 0.012016
0.24135999 0.17623 -0.013036
0.24147999 0.17703 -0.012305
0.24243 0.17750999 -0.012934
0.19813 0.17682999 0.0081668003
0.24338999 0.17872 -0.013364
0.24414 0.17995 -0.013412
0.24614 0.1892 -0.014725
0.24572 0.18832999 -0.014123
0.24627 0.19013 -0.014303
0.24552999 0.19142 -0.013908
0.24493 0.19271 -0.013882
0.24516 0.19719 -0.013811
0.24487001 0.19577 -0.013672
0.24508999 0.20310999 -0.01349
0.24428999 0.20344999 -0.014018
0.24433 0.20426001 -0.013774
0.24487001 0.20564 -0.013465
0.24454001 0.20633 -0.014135
0.24481 0.20764001 -0.013989
0.21051 0.20964 0.0023941
0.21004 0.20957001 0.0028229
0.21285 0.21157999 0.0011389001
0.24575 0.21155 -0.014068
0.2131 0.21216001 0.00085527002
0.22916 0.213 -0.0078205997
0.2139 0.21447 0.00075742003
0.22837 0.21446 -0.005632
0.24451999 0.21476001 -0.014087
0.22699 0.21517 -0.0055454001
0.21549 0.21566001 0.00057570997
0.22714999 0.21563999 -0.0049029002
0.21625 0.21620999 -0.00082318002
0.21703 0.2167 -0.0011267
0.21807 0.21754999 -0.00105
0.21798 0.21678001 -0.0020583
0.22447 0.21747001 -0.0042710002
0.22014 0.2176 -0.0026374001
0.2192 0.21806 -0.0020764
0.21933 0.21719 -0.0029561999
0.22205 0.21795 -0.0033217999
0.22097 0.2186 -0.0020643999
0.24535 0.21934 -0.013863
0.23507001 0.22037999 -0.0091642998
0.23469 0.22125 -0.010472
0.23637 0.22156 -0.0091097001
0.23781 0.22570001 -0.010679
0.23894 0.22772001 -0.01098
0.19022 0.22906999 0.012117
0.24595 0.22806001 -0.01429
0.24654999 0.22905999 -0.013828
0.19723 0.22775 0.0087126
0.23944999 0.22917999 -0.01088
0.1962 0.23018 0.0091725001
0.18929 0.2335 0.011584
0.24665 0.23314001 -0.014165
0.21684 0.23372 -0.00044408999
0.21800999 0.23341 -0.001179
0.22104 0.23373 -0.0026296999
0.19609 0.23497 0.0090437997
0.22116999 0.23415001 -0.0030735999
0.21551999 0.23524 0.00032973001
0.19616 0.23581 0.0091043999
0.21447 0.23656 0.00056706998
0.22211 0.23603 -0.0033668999
0.23906 0.23649 -0.010857
0.19629 0.23668 0.0092123002
0.22272 0.23688 -0.0031198999
0.23862 0.23733 -0.010488
0.21325 0.23751999 0.00090604002
0.22418 0.23927 -0.0039224001
0.22363999 0.23853 -0.0039980002
0.24738 0.23913001 -0.014649
0.21183001 0.23978999 0.0019817001
0.21125001 0.24026 0.0019506
0.24676 0.24135 -0.014364
0.19288 0.2438 0.0099534998
0.19433001 0.24372 0.0093783997
0.22705001 0.24247 -0.0051759998
0.22468001 0.24293 -0.0043143001
0.20772 0.24355 0.0040056999
0.19052 0.2437 0.012053
0.19093999 0.24406999 0.010788
0.19202 0.24459 0.011603
0.20095 0.24427 0.0067210998
0.20044 0.24423 0.0071300999
0.22758 0.24443001 -0.0051861
0.23627999 0.24496999 -0.0095923003
0.20452 0.24563999 0.0054906001
0.22251999 0.24609999 -0.0031395999
0.22311001 0.24503 -0.0035822999
0.23204 0.24612001 -0.0073338998
0.23221999 0.24483 -0.0075886999
0.24037001 0.24491 -0.011469
0.19554999 0.24671 0.0090949005
0.19874001 0.24665 0.0081845
0.19926 0.24635001 0.0079151001
0.24022999 0.24616 -0.011169
0.19712999 0.24677999 0.0090082996
0.20837 0.24596 0.0032654
0.20767 0.24692 0.0036228001
0.23891 0.24693 -0.010836
0.21427999 0.24676999 -0.00032088999
0.2194 0.24717 -0.0022416001
0.21509001 0.24733 -0.0001851
0.21813001 0.24755 -0.00088516
0.23627999 0.055705 -0.0096431002
0.23738 0.055638999 -0.010106
0.24003001 0.056529999 -0.011549
0.24454001 0.060977001 -0.013487
0.24496 0.061760999 -0.013734
0.24564999 0.065858997 -0.014139
0.24534 0.069541998 -0.013488
0.17812 0.070983 0.018301999
0.24162 0.075414002 -0.012332
0.20906 0.079239003 0.0031138
0.21702 0.079210997 -0.00058082998
0.23125 0.079287 -0.0073523
0.18803 0.079195 0.01315
0.19045 0.079492003 0.011365
0.19117001 0.079476997 0.011052
0.19615 0.079700999 0.0094846999
0.22702 0.08337 -0.0053670001
0.21861 0.083102003 -0.0011953
0.24018 0.10043 -0.011182
0.23898999 0.10101 -0.011427
0.18973 0.10041 0.011653
0.23923001 0.10187 -0.010789
0.23865999 0.10268 -0.010194
0.23687001 0.10909 -0.0096169002
0.18638 0.11908 0.013589
0.18795 0.11914 0.013089
0.19160999 0.12141 0.01079
0.23776001 0.12343 -0.010999
0.1917 0.12372 0.010589
0.19033 0.12507001 0.011078
0.23857 0.12513 -0.010473
0.23908 0.12357 -0.0094846003
0.23842999 0.12327 -0.0107
0.19155 0.12498 0.010643
0.19001999 0.12602 0.011689
0.19162001 0.12661999 0.011137
0.19171999 0.12813 0.011264
0.19036999 0.12804 0.011281
0.18887 0.13406999 0.012226
0.18792 0.13506 0.012769
0.18938001 0.13503 0.012454
0.18674999 0.13786 0.013944
0.24121 0.14099 -0.011424
0.24459 0.14363 -0.01392
0.24524 0.14384 -0.013411
0.18746001 0.14561 0.013328
0.24566001 0.14789 -0.014116
0.24627 0.14940999 -0.014351
0.24597 0.15008999 -0.013835
0.18854 0.1508 0.012218
0.18694 0.15195 0.01278
0.24214 0.15469 -0.013021
0.24137001 0.15497001 -0.012517
0.18959001 0.16282 0.01205
0.19021 0.16531999 0.01152
0.19140001 0.16532999 0.010884
0.19203 0.16662 0.010744
0.24029 0.17704999 -0.011352
0.19947 0.17653 0.0078625996
0.24448 0.1814 -0.013349
0.24525 0.18595 -0.013996
0.24514 0.20003 -0.014016
0.21233 0.21077 0.0013828001
0.24642 0.21225999 -0.013896
0.24643999 0.21322 -0.014222
0.21345 0.21328001 0.0013047
0.21402 0.21333 0.00055691
0.21503 0.21505 0.00023659
0.20517001 0.21633001 0.0052713002
0.20465 0.21701001 0.0051024002
0.22306 0.21780001 -0.0039539002
0.21991 0.21781 -0.0026608
0.22183 0.21854 -0.0027373
0.23571 0.22084001 -0.0093965996
0.23735 0.22363 -0.0098417997
0.24611001 0.22618 -0.01391
0.24635001 0.22737999 -0.013665
0.19035999 0.22750001 0.011882
0.19049001 0.22619 0.012048
0.19641 0.22951999 0.0090116998
0.19023 0.23049 0.012258
0.24008 0.23325001 -0.011277
0.2397 0.23449001 -0.011269
0.18966 0.2351 0.011756
0.21486001 0.23571 1.33e-05
0.22507 0.23998 -0.0043986002
0.22555 0.24097 -0.0044963001
0.1893 0.2423 0.012595
0.1885 0.24072 0.011579
0.18923 0.24084 0.01257
0.24297 0.24191 -0.012609
0.24428999 0.24205001 -0.013139
0.24033 0.24184 -0.011786
0.19436 0.24534 0.010024
0.20517001 0.24613 0.0047840001
0.237 0.24616 -0.0098336004
0.21446 0.24676999 0.00073143002
0.22220001 0.24702001 -0.0024891
0.20686001 0.24743 0.0039976002
0.21651 0.24715 -0.00046039
0.20645 0.24732 0.0044471999
0.17656 0.068366997 0.018797001
0.21117 0.079099 0.0021327001
0.21543001 0.079322003 8.7546003e-05
0.18506999 0.079411 0.014458
0.189 0.079613999 0.012715
0.19718 0.079767004 0.0088600004
0.227 0.084678002 -0.0050280001
0.183 0.085945003 0.015355
0.19504 0.086708002 0.0098131001
0.18889 0.094857998 0.012623
0.2377 0.098499 -0.0098658996
0.24237999 0.098761998 -0.012202
0.23503999 0.098687999 -0.0092010004
0.19078 0.10476 0.012224
0.18635 0.11766 0.013884
0.18934 0.12924001 0.012578
0.18955 0.12805 0.012782
0.23954999 0.13059001 -0.011153
0.23980001 0.13225 -0.011269
0.19072001 0.13534001 0.012055
0.18805 0.13602 0.013505
0.24181999 0.15391999 -0.011816
0.19039001 0.16261999 0.012124
0.19043 0.16381 0.011701
0.19172999 0.16254 0.011493
0.19168 0.16403 0.011439
0.19165 0.16816001 0.010901
0.193 0.16733 0.010636
0.19306 0.16870999 0.01065
0.19189 0.16971999 0.010878
0.23633 0.17106 -0.0096618002
0.19036999 0.17110001 0.011094
0.19165 0.17129 0.010972
0.19152001 0.1728 0.011328
0.20211001 0.17287999 0.0068021999
0.19058 0.17557 0.011889
0.19014999 0.17456999 0.011697
0.23728999 0.17445 -0.0095841
0.24267 0.17873 -0.012501
0.24187 0.17827 -0.011818
0.24471 0.1848 -0.013161
0.21168 0.21039 0.0021842001
0.24481 0.21032999 -0.013722
0.21676999 0.2168 -0.00034160999
