# .PCD v0.7 - Point Cloud Data file format
VERSION 0.7
FIELDS x y z
SIZE 4 4 4
TYPE F F F
COUNT 1 1 1
WIDTH 1698
HEIGHT 1
VIEWPOINT 0 0 0 1 0 0 0
POINTS 1698
DATA ascii
0.20242999 0.16243 0.28771001
0.20394 0.16276 0.28681999
0.25003001 0.17145 0.25874001
0.25084001 0.17106999 0.25972
0.25141001 0.17226 0.25835001
0.26798999 0.13411 0.23935001
0.19011 0.17927 0.28264999
0.25400001 0.097580001 0.26486999
0.25296 0.096612997 0.26444
0.23156001 0.18083 0.24774
0.23486 0.18467 0.24654999
0.23689 0.18463001 0.24628
0.23612 0.18461999 0.24539
0.24783 0.16038001 0.26447999
0.24653 0.15899 0.26561001
0.26335001 0.15037 0.25231999
0.26251 0.14938 0.25286001
0.24391 0.050958999 0.27801999
0.24293 0.05105 0.27744001
0.24247999 0.050422002 0.27645999
0.2613 0.18585999 0.24246
0.21301 0.17576 0.28895
0.21144 0.17553 0.28990999
0.21252 0.17417 0.28997001
0.24571 0.19359 0.22989
0.24556001 0.19419999 0.23091
0.24648 0.19431999 0.23054001
0.24837001 0.10507 0.26947001
0.24901 0.10384 0.26969999
0.24891999 0.10549 0.26916999
0.22164001 0.15893 0.28873
0.22150999 0.15994 0.28924
0.24075 0.176 0.25687999
0.26440999 0.11833 0.24242
0.26499999 0.11877 0.24161001
0.26460999 0.11909 0.24273001
0.25112 0.065208003 0.27002001
0.25143 0.065200001 0.26908001
0.2464 0.16388001 0.26600999
0.24687 0.16366 0.26622999
0.26264 0.054455001 0.25601
0.26255 0.052944999 0.25782001
0.23213001 0.16964 0.27133
0.23112001 0.17011 0.27197
0.19893999 0.16405 0.28459001
0.20061 0.1629 0.28496999
0.2243 0.17375 0.27923
0.22390001 0.17357001 0.27768999
0.28246999 0.10422 0.23146001
0.28123 0.10504 0.23195
0.24943 0.19174001 0.24161001
0.25009999 0.19177 0.24219
0.25007001 0.19241001 0.24096
0.23857 0.19063 0.24089999
0.24033 0.18955 0.24097
0.23892 0.19027001 0.24056
0.25095001 0.058800001 0.27438
0.27877 0.097312003 0.23006999
0.27857 0.098338 0.23131999
0.19512001 0.16682 0.28479999
0.26212999 0.058534998 0.26109999
0.25224999 0.13700999 0.25049001
0.25084001 0.13677 0.24944
0.25026 0.13596 0.24970999
0.22911 0.15449999 0.27581
0.22718 0.15544 0.27783999
0.22791 0.15492 0.27724999
0.24967 0.17253 0.25841999
0.2493 0.1727 0.25889999
0.23784 0.11462 0.23698001
0.23781 0.11463 0.23835
0.27676001 0.10661 0.22733
0.27667001 0.10562 0.22855
0.23541 0.19133 0.23986
0.23669 0.19032 0.23954999
0.23646 0.19140001 0.23943
0.2131 0.18929 0.24139
0.21362001 0.1891 0.24255
0.26227 0.18551999 0.24405999
0.26756001 0.18475001 0.23599
0.24435 0.1524 0.26438001
0.24865 0.099284999 0.26938999
0.25428 0.071221001 0.27015999
0.2095 0.17497 0.28859001
0.21235 0.17602 0.28828001
0.23625 0.096979998 0.27090001
0.23608001 0.096464999 0.27151
0.24886 0.16453999 0.25995001
0.24964 0.16491 0.25990999
0.24997 0.16489001 0.25938001
0.20869 0.19918001 0.21131
0.24093001 0.13517 0.24684
0.24183001 0.13338999 0.24683
0.24778999 0.057333 0.27757001
0.24878 0.057551 0.27776
0.25029999 0.19093999 0.24273001
0.27164999 0.14845 0.24162
0.27167001 0.14944001 0.24048001
0.27254999 0.15030999 0.24229001
0.2527 0.098204002 0.26636001
0.25240999 0.097543001 0.266
0.21187 0.19801 0.21528
0.21176 0.19869 0.21492
0.20805 0.15794 0.28428999
0.25288001 0.13959 0.24961001
0.25356001 0.13886 0.24889
0.25387001 0.13997 0.24914999
0.2401 0.056209002 0.19575
0.23965999 0.056542002 0.19596
0.22985999 0.1779 0.24801999
0.26510999 0.13489 0.24403
0.26549 0.13527 0.24303
0.26545 0.13641 0.24252
0.19767 0.17673001 0.29137999
0.19935 0.17754 0.29107001
0.28503001 0.10151 0.22898
0.28479999 0.10208 0.22837
0.19746999 0.18392 0.17332
0.19637001 0.18274 0.17421
0.19595 0.18289 0.17321999
0.25233999 0.11448 0.26552001
0.25202 0.11387 0.26576999
0.25200999 0.19059999 0.24116001
0.25161999 0.19085 0.24203999
0.25318 0.19250999 0.23728999
0.24123999 0.14417 0.25332001
0.23994 0.14303 0.25286999
0.24101 0.14245 0.25263
0.22392 0.16049001 0.28784999
0.22211 0.15941 0.28771001
0.21167 0.19347 0.24502
0.21194001 0.19194999 0.24589001
0.2324 0.053436998 0.26877999
0.2265 0.18392 0.24104001
0.22733 0.18245 0.24191
0.25938001 0.11247 0.26133999
0.23958001 0.17948 0.25222999
0.24173 0.17777 0.25192001
0.24075 0.17839 0.25224999
0.27000999 0.15682 0.24832
0.27068001 0.15688001 0.24874
0.26222 0.12347 0.24752
0.26172999 0.12382 0.24796
0.20624 0.19994999 0.25152999
0.22763 0.16323 0.28233001
0.22779 0.16484 0.28211999
0.25123 0.071644001 0.26954001
0.25222 0.071843997 0.27009001
0.25821 0.083434999 0.26754001
0.25878999 0.084179997 0.26659
0.25836 0.085256003 0.26745999
0.25729001 0.15842 0.2579
0.25784999 0.15640999 0.25771001
0.25918001 0.15773 0.25753999
0.27092999 0.16985001 0.24666999
0.19425 0.16639 0.28481001
0.18818 0.16867 0.28771999
0.19035999 0.16796 0.28659001
0.18923 0.16754 0.28678
0.18922 0.16649 0.29152
0.18884 0.16741 0.29014
0.27383 0.15093 0.24019
0.27305001 0.15169001 0.24106
0.27208999 0.15109 0.24173
0.22913 0.17432 0.25075001
0.22797 0.17351 0.25128999
0.22987001 0.053775001 0.26951
0.23009001 0.052661002 0.27055001
0.24434 0.18132 0.25121
0.24442001 0.18105 0.25119001
0.23197 0.12214 0.22894
0.23188999 0.12181 0.23035
0.2316 0.12245 0.23040999
0.24237999 0.12034 0.25608
0.22469001 0.16299 0.28727001
0.23432 0.12095 0.23711
0.26460001 0.14564 0.25003999
0.25985 0.056124002 0.26536
0.25206 0.19322 0.23360001
0.21737 0.18982001 0.24422
0.21852 0.18974 0.24348
0.26949 0.16658001 0.24979
0.26508 0.11735 0.24092001
0.26442 0.11594 0.24098
0.26444 0.11652 0.23891
0.25422001 0.12086 0.25858
0.25400999 0.11991 0.25920999
0.25536001 0.12099 0.25861999
0.20738 0.19736999 0.21352001
0.20789 0.19659001 0.2137
0.2076 0.19565 0.21465001
0.23722 0.16342001 0.27515
0.25031 0.11343 0.26633
0.25071999 0.11399 0.26636001
0.25132999 0.19129001 0.24089999
0.25639001 0.065541998 0.26703
0.25551 0.063617997 0.26848
0.25582999 0.06453 0.26688999
0.18381 0.16321 0.28746
0.18437 0.16389 0.28709
0.26842001 0.10682 0.23434
0.25749001 0.054287001 0.26631001
0.25777999 0.054377001 0.26723
0.18528 0.16276 0.28975001
0.18635 0.16305 0.28870001
0.25839999 0.064168997 0.26289999
0.25922999 0.063433997 0.26356
0.25951999 0.063791998 0.26179999
0.24466 0.067226999 0.26471001
0.24420001 0.066050999 0.26519999
0.27043 0.17735 0.24187
0.26955 0.17699 0.24183001
0.26758 0.10703 0.23424
0.26793 0.1064 0.23446
0.26835999 0.10518 0.23442
0.24832 0.15418001 0.26054001
0.24872001 0.15549 0.26133001
0.24894001 0.15563001 0.26223001
0.24474999 0.1191 0.25892001
0.24405999 0.11796 0.25881001
0.25578001 0.1323 0.24946
0.23773 0.10566 0.21656001
0.20735 0.19295 0.24360999
0.20884 0.19326 0.24319001
0.23118 0.18204001 0.24891999
0.2316 0.182 0.24772
0.23135 0.1813 0.24758001
0.19491 0.17928 0.17335001
0.19593 0.17978001 0.17242999
0.19671001 0.18037 0.17245001
0.25604001 0.14128999 0.24957
0.25457001 0.1398 0.2493
0.22885001 0.051902 0.27289999
0.21116 0.18432 0.23613
0.21236999 0.18627 0.235
0.22723 0.13504 0.23216
0.22755 0.13451 0.23105
0.20412999 0.18506999 0.1718
0.20581 0.18573999 0.17209999
0.20469999 0.18495999 0.17186999
0.19755 0.16396999 0.29205999
0.19681001 0.16376001 0.29247999
0.18626 0.17425001 0.28812
0.18758 0.17472 0.28751999
0.18694 0.17387 0.28804001
0.20735 0.16376001 0.29069999
0.20844001 0.16484 0.29128999
0.27443001 0.17194 0.23601
0.27469999 0.17112 0.23646
0.27498001 0.17163999 0.23491
0.19611 0.16844 0.29269999
0.23461001 0.093762003 0.26765001
0.23416001 0.094035998 0.26868999
0.20336001 0.17065001 0.17242
0.20452 0.1707 0.17328
0.20457999 0.17112 0.17213
0.26762 0.13844 0.24298
0.26874 0.13831 0.24165
0.27548 0.16496 0.23810001
0.27519 0.16348 0.23777001
0.21222 0.18797 0.24077
0.23557 0.097544 0.21163
0.23566 0.096827999 0.21016
0.21426 0.17053001 0.29210001
0.21546 0.16932 0.29317999
0.24969 0.093117997 0.26897001
0.25038001 0.091975003 0.2678
0.20333 0.17188001 0.17317
0.25452 0.13542999 0.24995001
0.25558001 0.13528 0.24938001
0.19724 0.1859 0.28371
0.26826999 0.15541001 0.25071999
0.26771 0.15553001 0.25042
0.26934999 0.15512 0.24961001
0.29359999 0.093428999 0.23456
0.29402 0.092991002 0.23456
0.29297999 0.093310997 0.23537
0.27223 0.15290999 0.24378
0.27219 0.15486 0.24508999
0.23647 0.10948 0.2129
0.24234 0.077237003 0.26912999
0.24218 0.078253999 0.26964
0.24172001 0.077831 0.26945001
0.23754001 0.084904 0.19901
0.23597001 0.085801996 0.19809
0.24338999 0.11778 0.26113999
0.244 0.11697 0.26143
0.20248 0.17942999 0.28955999
0.20248 0.17900001 0.28935
0.20947 0.18287 0.22967
0.20953999 0.18246999 0.23052999
0.26414999 0.12285 0.24181999
0.26297 0.11615 0.248
0.26241001 0.11778 0.24872001
0.21099 0.18776999 0.24078999
0.23823 0.16949999 0.26910999
0.23767 0.1697 0.26723
0.26392999 0.1175 0.24281999
0.26396 0.1199 0.24419001
0.20829 0.15818 0.28597
0.2089 0.1578 0.28613999
0.20907 0.15879001 0.28692999
0.19561 0.18559 0.17283
0.21461 0.15934999 0.28992999
0.21538 0.16026001 0.28963
0.21552999 0.16122 0.28979
0.26159999 0.18427999 0.24627
0.26137999 0.18340001 0.24616
0.24516 0.075508997 0.27048999
0.24422 0.076615997 0.27054
0.24533001 0.11166 0.26719001
0.24755999 0.11152 0.26739001
0.22073001 0.15566 0.28338
0.22893 0.17738999 0.24782
0.23035 0.17789 0.24826001
0.22361 0.14292 0.24307001
0.22404 0.1417 0.24188
0.22442999 0.14374 0.24404
0.23129 0.17862999 0.24964
0.23221 0.17984 0.25035
0.2441 0.15564001 0.26885
0.24203999 0.15491 0.26936001
0.22714999 0.16181999 0.28310001
0.24375001 0.066987 0.26413
0.24365 0.066396996 0.26361001
0.24313 0.067213997 0.26457
0.21964 0.15710001 0.28602001
0.22050001 0.15793 0.28604999
0.25727001 0.10191 0.26321
0.25747001 0.10213 0.26190999
0.28582001 0.098033004 0.23135
0.28481999 0.098001003 0.23067001
0.28586999 0.098277003 0.23035
0.25582001 0.11666 0.26209
0.25630999 0.11625 0.26277
0.25722 0.11583 0.26284999
0.26109999 0.058961 0.25791001
0.25988001 0.059932001 0.25751001
0.26102999 0.059330001 0.25837001
0.28264001 0.099405997 0.23468
0.28206 0.10101 0.23483001
0.25637999 0.19157 0.23747
0.19464999 0.18493 0.17364
0.19521999 0.18502 0.17323001
0.20386 0.16539 0.29003999
0.20489 0.16453999 0.28968999
0.19841 0.17724 0.17293
0.19902 0.17619 0.17283
0.19986001 0.17773999 0.17387
0.23441 0.1252 0.23782
0.23356999 0.12423 0.23704
0.26146999 0.081674002 0.21001001
0.23954 0.17658 0.25345001
0.23969001 0.17682999 0.25466001
0.24011999 0.17671999 0.25483
0.22554 0.17196 0.28608999
0.22564 0.17111 0.28711
0.22583 0.17115 0.28619
0.26699001 0.17925 0.24329001
0.24105 0.12554 0.25003999
0.24131 0.16997001 0.26363999
0.23985 0.17036 0.26348999
0.24123999 0.12757 0.24790999
0.24198 0.12890001 0.24731
0.24029 0.12822001 0.24646001
0.25679001 0.067262001 0.26789999
0.25685999 0.067088999 0.26859999
0.24747001 0.12149 0.25773999
0.24947 0.12136 0.25669
0.24824999 0.12254 0.25569999
0.23387 0.051638 0.20351
0.23435 0.05204 0.20361
0.23439001 0.051640999 0.20421
0.2476 0.19454999 0.23327
0.22481 0.17703 0.24726
0.21235999 0.19918001 0.21477
0.19416 0.18104 0.17174999
0.19428 0.18076999 0.17291
0.24882001 0.17749 0.25523999
0.24935 0.17738 0.25472999
0.24807 0.17845 0.255
0.24112999 0.11006 0.26655
0.19856 0.18397 0.28468001
0.27070001 0.17470001 0.24281999
0.27061999 0.17433999 0.24209
0.27065 0.17471001 0.24263
0.25746 0.074777998 0.26739001
0.25874999 0.075540997 0.26901001
0.21704 0.19167 0.24555001
0.28766 0.097313002 0.22995
0.25779 0.1373 0.24862
0.25814 0.13692001 0.24906
0.25939 0.13799 0.2485
0.23687001 0.13846999 0.24692
0.23726 0.13831 0.24681
0.23773 0.13789 0.24688999
0.24263 0.17816 0.25268
0.2419 0.17670999 0.25283
0.24155 0.17765 0.25421
0.19207001 0.16649 0.28505999
0.19245 0.1653 0.28575
0.26462999 0.15415999 0.25196999
0.26582 0.15362 0.25220999
0.26550999 0.15448 0.25152999
0.2597 0.077564999 0.26578
0.25907999 0.076883003 0.26576999
0.24241 0.16019 0.27099001
0.24327999 0.18395001 0.24895
0.24367 0.18344 0.24828
0.24377 0.18397 0.24812999
0.24541 0.056947 0.20992
0.24815001 0.11324 0.26723
0.24758001 0.11205 0.26666999
0.24911 0.11332 0.26701999
0.24062 0.053734001 0.28277001
0.24094 0.053777002 0.28402001
0.24147999 0.054737002 0.28314
0.25285 0.15163 0.25740001
0.25292 0.15361001 0.25674999
0.24803001 0.11841 0.26219001
0.24681 0.1179 0.26168001
0.23221 0.17071 0.26776001
0.23309 0.16982999 0.26783001
0.23341 0.17058 0.26699999
0.24491 0.061152 0.26565
0.24426 0.061747 0.26475
0.20671999 0.16824 0.29099
0.20795 0.17039999 0.29056001
0.25892001 0.10625 0.26249999
0.25928 0.1069 0.26225999
0.25839001 0.10661 0.26312
0.27103999 0.14579999 0.2405
0.27147999 0.147 0.23929
0.27201 0.14636 0.24105
0.24068999 0.089901 0.27101001
0.20238 0.17587 0.17478
0.20247 0.1744 0.1752
0.18708 0.177 0.2872
0.18769 0.17799 0.28648999
0.25349 0.091859996 0.26111001
0.25334001 0.090842001 0.26152
0.25314999 0.090377003 0.26016
0.20911001 0.16611999 0.29177999
0.26683 0.16359 0.25216001
0.28896001 0.099688999 0.22947
0.29012999 0.099868 0.23002
0.29041001 0.098540001 0.22968
0.23508 0.09781 0.26596999
0.23499 0.097007997 0.26762
0.22772001 0.15881 0.28092
0.22736999 0.15936001 0.28128001
0.24996001 0.18404999 0.24857999
0.25105 0.18515 0.24733999
0.23746 0.10388 0.26758
0.23871 0.10513 0.26842999
0.18265 0.1638 0.28652999
0.1821 0.16359 0.28681001
0.24236 0.052785002 0.28127
0.2431 0.051770002 0.28259
0.25937 0.073280998 0.26596999
0.24068999 0.076904997 0.26521
0.23983 0.077606998 0.26519999
0.26478001 0.14484 0.24833
0.24886 0.089492999 0.26997
0.24873 0.089245997 0.27052999
0.24834 0.088464998 0.27138001
0.23521 0.10657 0.21151
0.23553 0.1058 0.21269
0.24248999 0.1622 0.27068001
0.26244 0.14805999 0.25182
0.23830999 0.11511 0.25679001
0.22075 0.1705 0.29159001
0.22053 0.17095 0.29190999
0.2568 0.14918 0.25476
0.25747001 0.14951 0.25551
0.25455001 0.17207 0.25731
0.25288001 0.17193 0.25834
0.23084 0.053707998 0.20125
0.2314 0.054079998 0.20137
0.25639999 0.10232 0.26418999
0.19657999 0.18263 0.2816
0.19719 0.18280999 0.28163001
0.19814 0.18208 0.28149
0.19310001 0.18116 0.28446001
0.19388001 0.18074 0.28687999
0.19445001 0.18031 0.28483
0.26424 0.15919 0.25334999
0.26409999 0.16023999 0.25356001
0.26319 0.16039 0.25444001
0.25387999 0.16658001 0.25935
0.21927001 0.17422 0.28736001
0.22737999 0.19123 0.23353
0.27118999 0.16801 0.24755
0.27008 0.16924 0.24767999
0.27035999 0.16892999 0.24822
0.20839 0.17822 0.17825
0.23837 0.11606 0.24013001
0.20613 0.18077999 0.17805
0.20632 0.18098 0.17789
0.22409 0.18533 0.23969001
0.27500001 0.099762999 0.23163
0.27449 0.098907001 0.23128
0.22121 0.16862001 0.29096001
0.21988 0.16974001 0.29164001
0.23329 0.14545 0.25156999
0.23229 0.14511999 0.25314999
0.23873 0.17026 0.26561001
0.23672999 0.15572999 0.27368
0.23819 0.11044 0.22936
0.27421001 0.16971999 0.23864999
0.27342001 0.17020001 0.23917
0.27349001 0.17034 0.23973
0.26244 0.11167 0.25582001
0.26265001 0.11275 0.25472999
0.26221001 0.11205 0.25549001
0.24309 0.055335 0.27742001
0.24455 0.17606001 0.25578001
0.24387001 0.1768 0.25494
0.24447 0.17689 0.25510001
0.25871 0.19155 0.23069
0.21488 0.18847001 0.24281999
0.25729001 0.15276 0.25569001
0.25883001 0.15379 0.25634
0.24229001 0.071152002 0.26008001
0.24101999 0.071965002 0.26003
0.24131 0.071359999 0.25918001
0.23538999 0.16659001 0.27500999
0.2489 0.065073997 0.26848999
0.24923 0.066283002 0.26877001
0.24943 0.16384 0.26208001
0.24759001 0.16441999 0.26299
0.23571999 0.091572002 0.26772001
0.23697001 0.089833997 0.26789001
0.23567 0.089708 0.26776001
0.26723 0.12491 0.23649999
0.26774999 0.12429 0.23502
0.26774001 0.12606999 0.23577
0.23588 0.053869002 0.20137
0.23548 0.053603999 0.20185
0.27450001 0.15369 0.23602
0.27522999 0.15403999 0.23612
0.27447999 0.15519001 0.2368
0.22693001 0.16643 0.28312999
0.22718 0.16615 0.28275001
0.23432 0.10715 0.20554
0.23424999 0.10853 0.20582999
0.23537999 0.10903 0.20443
0.25707 0.18337999 0.24938001
0.24350999 0.053578001 0.28257999
0.24427 0.053895 0.28252
0.18453 0.17798001 0.28220001
0.18397 0.17906 0.28217
0.18525 0.1771 0.28358001
0.25911999 0.11195 0.26295
0.25933 0.11125 0.26205999
0.20254999 0.17996 0.2818
0.20309 0.17919999 0.28148001
0.18695 0.18105 0.28384
0.18450999 0.18049 0.28404
0.18579 0.17971 0.28417999
0.21837001 0.18975 0.24341001
0.2149 0.18808 0.2455
0.27236 0.17177001 0.24265
0.27226001 0.17155001 0.24323
0.23658 0.053598002 0.27423999
0.23716 0.055356 0.27454001
0.26958999 0.16994999 0.2476
0.26967001 0.16949999 0.24766
0.26903999 0.171 0.24744999
0.23187999 0.19352999 0.22801
0.23007999 0.1937 0.22798
0.24372999 0.054634001 0.28227001
0.2017 0.16404 0.28307
0.20204 0.16313 0.28514999
0.24537 0.10764 0.26966
0.24786 0.10679 0.26945001
0.24778 0.079023004 0.2714
0.24822 0.078153998 0.27105001
0.24874 0.078814 0.27188
0.23558 0.099384002 0.26563001
0.23574001 0.098527998 0.26484001
0.2361 0.099423997 0.2656
0.25376999 0.13454001 0.24989
0.25542 0.13691001 0.25053
0.26624 0.18808 0.23145001
0.26547 0.17647 0.24925999
0.26646999 0.17495 0.24871001
0.26589999 0.17539001 0.24784
0.28022999 0.099350996 0.2349
0.27985999 0.098743998 0.23348001
0.25742 0.057868998 0.26774999
0.22487 0.1565 0.27968001
0.22685 0.15671 0.27889001
0.2449 0.15557 0.26758
0.24522001 0.15544 0.26675999
0.24479 0.15568 0.26707
0.24395999 0.060449 0.26515001
0.25514999 0.11103 0.26554
0.21815 0.17778 0.24432001
0.21729 0.17761999 0.2439
0.21703 0.17816 0.24461
0.19744 0.17507 0.29154
0.19662 0.17578 0.2915
0.19619 0.17425001 0.29154
0.24432001 0.14199001 0.25051999
0.24496 0.14015 0.25075999
0.25854999 0.16265 0.25916001
0.24259 0.05246 0.28387001
0.24168999 0.053583998 0.28457999
0.24221 0.051169999 0.28453001
0.26486 0.17912 0.24755
0.26851001 0.18449 0.23772
0.26785001 0.18438999 0.23564
0.26725999 0.18566 0.23677
0.23906 0.052506998 0.20781
0.23972 0.051784001 0.20819999
0.25619 0.054058999 0.26890001
0.19757 0.16726001 0.29279
0.19645999 0.16682 0.29324001
0.19632 0.16583 0.29269999
0.25709999 0.12756 0.25143999
0.25674 0.12635 0.25064
0.21398 0.18415 0.23994
0.21471 0.18578 0.24048001
0.24568 0.16416 0.26697999
0.24474999 0.1646 0.26846999
0.23805 0.15538999 0.27298999
0.23814 0.15617999 0.27395001
0.26177001 0.12799001 0.24589001
0.26198 0.12963 0.24728
0.20977999 0.18836001 0.24113999
0.24476001 0.17283 0.25944
0.2529 0.16666 0.25918999
0.25255999 0.16689 0.25933999
0.25202999 0.16642 0.25955001
0.18999 0.17991 0.28714001
0.1895 0.18045001 0.28604999
0.23546 0.17472 0.2552
0.23509 0.17236 0.255
0.23554 0.17454 0.25536001
0.22899 0.16671 0.28027001
0.28625 0.10139 0.23373
0.28632 0.10302 0.23401999
0.2392 0.1098 0.26644999
0.24079999 0.10972 0.26546001
0.23161 0.16981 0.27318999
0.23096 0.17032 0.27179
0.23007999 0.17136 0.27289
0.24552 0.050949998 0.27713001
0.2449 0.050443001 0.27772
0.24445 0.050266001 0.27756
0.21671 0.1776 0.28207999
0.26767999 0.13045999 0.23977
0.26708001 0.13009 0.24013001
0.26686001 0.14557999 0.24726
0.24699 0.10411 0.26958001
0.24590001 0.10411 0.27020001
0.24608999 0.10236 0.26997
0.25782999 0.18357 0.24902999
0.23608001 0.15015 0.26710001
0.2577 0.077937998 0.26885
0.24122 0.12165 0.25222
0.2413 0.12241 0.252
0.21888 0.17418 0.28963
0.21804 0.17362 0.29027
0.21851 0.17304 0.29019001
0.23017 0.17001 0.27429
0.23024 0.17043 0.27434999
0.23622 0.10594 0.21585
0.24799 0.15595999 0.26438999
0.24817 0.15703 0.26348001
0.24733 0.15705 0.26429
0.26798999 0.12795 0.2392
0.23800001 0.11692 0.25132
0.23813 0.11711 0.25150001
0.24865 0.075671002 0.27039999
0.23122001 0.19346 0.23621
0.2483 0.15873 0.26212001
0.27421999 0.10009 0.23316
0.25935 0.10249 0.26168999
0.25753 0.10313 0.26161999
0.23351 0.12704 0.23754001
0.25949001 0.11742 0.25766999
0.23322999 0.119 0.23191001
0.23557 0.094713002 0.20823
0.23554 0.095974997 0.20781
0.25648999 0.068788998 0.26894
0.25694999 0.070014998 0.26857001
0.25658 0.073054001 0.26848999
0.25835001 0.072879001 0.26809999
0.2437 0.090409003 0.27188
0.24281999 0.088215001 0.27224001
0.24401 0.088175997 0.27217001
0.25292 0.092556 0.26273
0.26346001 0.164 0.25448
0.21873 0.19225 0.24134
0.21844999 0.19295 0.24068999
0.21724001 0.19325 0.24151
0.27344999 0.099468 0.22936
0.27412999 0.099079996 0.22921
0.27445999 0.098811001 0.22872999
0.23958001 0.19013 0.23995
0.19338 0.16410001 0.28665
0.1935 0.16258 0.28733999
0.19259 0.16324 0.28676999
0.22874001 0.16941001 0.2775
0.25413999 0.10105 0.26675001
0.25389001 0.099496 0.26523
0.25071001 0.097681999 0.26771
0.24921 0.097240999 0.2685
0.24939001 0.095555998 0.26745
0.24953 0.059218001 0.27467999
0.24845 0.058591001 0.27526999
0.24973001 0.058449998 0.27425
0.27149999 0.099321999 0.2299
0.27340999 0.098552004 0.23003
0.27225 0.10068 0.23085
0.20403001 0.16339999 0.28762999
0.20465 0.16252001 0.28746
0.27250999 0.17887001 0.23375
0.27184001 0.17983 0.23485
0.27118 0.17938 0.23427001
0.18945999 0.16348 0.28902
0.18963 0.16332 0.28999001
0.22508 0.14729001 0.2483
0.22404 0.1468 0.24687999
0.24175 0.085036002 0.27155
0.24056999 0.083926 0.27123001
0.24174 0.083545998 0.27201
0.20409 0.16161001 0.28507999
0.20371 0.16152 0.28560999
0.21201999 0.15702 0.28608999
0.22091 0.15674999 0.28459001
0.22009 0.15632001 0.28499001
0.28478 0.097998999 0.23072
0.28420001 0.097932003 0.22989
0.25092 0.1807 0.25343999
0.19414 0.16464999 0.28516001
0.24913999 0.061563998 0.26954001
0.25255001 0.1912 0.24011
0.26738 0.10299 0.23041999
0.26644999 0.10337 0.23056
0.26688001 0.10291 0.23043001
0.25036001 0.19338 0.23355
0.24519999 0.15446 0.26631999
0.24986 0.050577 0.27562001
0.24471 0.11754 0.26122001
0.24815001 0.14327 0.25255001
0.25009999 0.16098 0.26076001
0.22244 0.17377 0.24664
0.22249 0.17193 0.24733
0.22257 0.17154001 0.24805
0.19394 0.18065999 0.28584999
0.19520999 0.18125001 0.28648001
0.19517 0.18122 0.28573
0.25421 0.17649999 0.25440001
0.25437 0.17588 0.25455999
0.2084 0.17422999 0.17738
0.25997999 0.062535003 0.26230001
0.25939 0.063088 0.26267999
0.25975999 0.061190002 0.26317999
0.24972001 0.057009999 0.27645999
0.24936 0.056917999 0.27766001
0.22416 0.16181999 0.28841001
0.22756 0.18664999 0.23897
0.22756 0.18618999 0.2387
0.22818001 0.18578 0.24034999
0.24330001 0.067543 0.26168999
0.24337 0.067068003 0.26021999
0.24416 0.066641003 0.26154
0.20568 0.17237 0.29014999
0.20626999 0.17169 0.29042
0.28279001 0.097377002 0.23164
0.28141999 0.097811997 0.23216
0.23289999 0.18196 0.24976
0.23363 0.1813 0.24923
0.2344 0.18184 0.24868999
0.23058 0.1813 0.24527
0.23030999 0.18145999 0.24575
0.22984 0.18071 0.24476001
0.23874 0.11506 0.25917
0.23910999 0.11632 0.25909001
0.18456 0.17068 0.28802001
0.18350001 0.17015 0.28718001
0.26247001 0.10879 0.25669
0.26225001 0.10924 0.25608
0.26146999 0.10753 0.25571999
0.21906 0.16795 0.29183999
0.24315 0.18951 0.24243
0.2446 0.19102 0.24225999
0.24666999 0.067685001 0.26916999
0.24725001 0.068962999 0.26881
0.22915 0.16254 0.28026
0.22872999 0.1612 0.27969
0.26583001 0.11971 0.23704
0.26541001 0.12088 0.23743001
0.25049001 0.072926 0.27000999
0.24175 0.087125003 0.27147999
0.27406999 0.1665 0.24013001
0.27410001 0.16664 0.23944999
0.20802 0.17037 0.29133999
0.25424999 0.17743 0.25380999
0.22727001 0.14589 0.24946
0.22632 0.14611 0.24919
0.21419001 0.19772001 0.24577001
0.21483 0.19754 0.24654
0.21603 0.19717 0.24552
0.18663 0.16323 0.28834999
0.18788999 0.16247 0.28808001
0.24936999 0.12319 0.25532001
0.25081 0.12514 0.25543001
0.24924999 0.11807 0.2624
0.22917999 0.18934999 0.24079999
0.27164999 0.15052 0.24491
0.27042001 0.14872999 0.24446
0.27113 0.14933001 0.24453001
0.26210999 0.11535 0.25301999
0.26207 0.11491 0.25363001
0.24394 0.18758 0.24518
0.24338999 0.18787 0.24538
0.23688 0.126 0.24336
0.23503999 0.12651999 0.24202
0.24068999 0.073361002 0.25782999
0.23409 0.13026001 0.24066
0.23484001 0.13101 0.23986
0.23438001 0.13056 0.24062
0.24106 0.099970996 0.26987001
0.24206001 0.1007 0.27098
0.24076 0.074281 0.26030001
0.24026 0.075432003 0.26161
0.19171999 0.17513999 0.29027
0.24361999 0.15205 0.26721999
0.24349 0.15212999 0.26883
0.24168999 0.15287 0.26868001
0.23375 0.13057999 0.23876999
0.233 0.12966999 0.23785
0.24178 0.1926 0.23715
0.23434 0.052104998 0.20186
0.27680999 0.10745 0.22901
0.26238999 0.1141 0.25525001
0.23614 0.085625 0.2032
0.23852 0.085415997 0.20349
0.23738 0.086236 0.20460001
0.25202999 0.10638 0.26780999
0.25255001 0.10412 0.26734
0.25264001 0.1038 0.26697001
0.29168999 0.094058998 0.23604
0.29293001 0.095464997 0.23582999
0.29192001 0.094919004 0.23545
0.24918 0.15791 0.26223999
0.24933 0.15658 0.26010001
0.21691 0.17629001 0.28696001
0.20355 0.16551 0.29007
0.20275 0.16517 0.29053
0.20239 0.16415 0.29063001
0.24977 0.098442003 0.26826
0.28819999 0.098298997 0.22933
0.28839999 0.09725 0.23009001
0.26675001 0.14507 0.24889
0.23288999 0.19279 0.23334999
0.23225001 0.19329999 0.23346999
0.23281001 0.19288 0.23408
0.23908 0.10987 0.26464999
0.23768 0.10871 0.26503
0.25775999 0.062670998 0.26370999
0.25589001 0.13873 0.24973001
0.25452 0.13851 0.24887
0.25119999 0.091307998 0.26704001
0.25024 0.093097001 0.26712999
0.20904 0.19950999 0.21236999
0.20922001 0.19983999 0.21180999
0.23941 0.056901 0.19514
0.23272 0.15346999 0.27638999
0.23781 0.088278003 0.20778
0.26390001 0.18856999 0.23401999
0.21080001 0.17303 0.29038
0.25668001 0.18257 0.24974
0.24473999 0.08997 0.27107999
0.23528001 0.11079 0.25738999
0.23588 0.10964 0.25709999
0.22999001 0.18841 0.24203999
0.26264 0.080705002 0.20795999
0.26188001 0.082450002 0.20874999
0.26144999 0.081027001 0.20885
0.2333 0.19329 0.23231
0.23219 0.19367 0.23253
0.24756999 0.10843 0.26837999
0.20754001 0.19337 0.24433
0.25525001 0.18805 0.24417999
0.25475001 0.18731999 0.24525
0.23824 0.16083001 0.27535
0.23868001 0.16075 0.27447
0.20224001 0.18256 0.16917001
0.20122001 0.18206 0.16957
0.23785999 0.13259 0.24423
0.23652001 0.13429999 0.244
0.23675001 0.13319001 0.24278
0.27278 0.16263001 0.24507999
0.27219 0.16199 0.24494
0.26897001 0.18431 0.23319
0.26887 0.18426999 0.23435
0.27024001 0.14365999 0.24051
0.27054 0.14509 0.24173
0.25037 0.15163 0.25782999
0.25038001 0.14959 0.25760999
0.24118 0.10147 0.27042001
0.24155 0.10205 0.27037001
0.23379999 0.098972 0.20434
0.23293 0.10053 0.20547999
0.18965 0.16659001 0.29258999
0.19148 0.16723999 0.29168999
0.19021 0.16717 0.29245999
0.24894001 0.15584999 0.26067001
0.27526999 0.098793 0.22967
0.27429 0.099523999 0.2305
0.21173 0.20073999 0.24577001
0.21408001 0.19938 0.24568
0.21363001 0.19976 0.24456
0.24789999 0.15544 0.26278999
0.24868999 0.1561 0.26297
0.21285 0.17580999 0.28906
0.21213999 0.178 0.28764999
0.24906 0.19418 0.23616
0.24751 0.19373 0.23725
0.24906 0.19362999 0.23712
0.24386001 0.050515 0.2069
0.24214999 0.050508 0.20704
0.26144001 0.079618998 0.21221
0.25768 0.14820001 0.25433999
0.25518 0.10503 0.26491001
0.25773999 0.13229001 0.24846999
0.25843999 0.13079 0.24897
0.25889999 0.13191999 0.24979
0.25650001 0.19077 0.24104001
0.20720001 0.17570999 0.23915
0.20833001 0.17651001 0.23974
0.25586 0.17337 0.25725999
0.2538 0.17242 0.25738999
0.25191 0.060461 0.27009001
0.26969001 0.18288 0.23157001
0.26975 0.1839 0.23138
0.27013999 0.18364 0.22971
0.23607001 0.087080002 0.20197
0.25793999 0.17053001 0.25657001
0.26499999 0.074588999 0.20671999
0.21314 0.18977 0.24398001
0.21222 0.19123 0.24368
0.21205001 0.19192 0.24267
0.23596001 0.19355001 0.23373
0.21334 0.16276 0.29139999
0.21461 0.16114999 0.29104999
0.21349999 0.16289 0.29154
0.24235 0.099512003 0.27066001
0.24188 0.099308997 0.26927
0.25975001 0.14676 0.25369
0.25896001 0.14668 0.25503001
0.27458999 0.16016001 0.23932999
0.25768 0.051050998 0.26585999
0.25861999 0.051403999 0.26499
0.25766999 0.051708002 0.26617
0.21998 0.17896 0.24427
0.22146 0.17992 0.24483
0.25068 0.16378 0.25872001
0.25005001 0.1649 0.25903001
0.18611 0.17852999 0.28641999
0.18609001 0.17969 0.28558999
0.18526 0.17897999 0.28490001
0.22249 0.14380001 0.23921999
0.22284999 0.14433999 0.23982
0.22229999 0.14432999 0.24022
0.19943 0.16960999 0.29282999
0.2001 0.16889 0.29341999
0.26815999 0.14724 0.24765
0.26708001 0.14665 0.24807
0.23976 0.18926001 0.24214
0.24055 0.18932 0.24113999
0.24329001 0.070363998 0.26346001
0.28204 0.10358 0.22833
0.28121999 0.10412 0.22883999
0.28246999 0.10418 0.22971
0.26190001 0.10887 0.25861001
0.23538999 0.10335 0.26298001
0.23560999 0.10445 0.26361999
0.26264 0.11051 0.25299999
0.26249999 0.1111 0.25187001
0.27179 0.10735 0.2332
0.27164 0.10915 0.23253
0.27294999 0.10916 0.23136
0.27167001 0.10981 0.23122001
0.23232 0.13312 0.23987
0.23306 0.13287 0.23968001
0.23283 0.13318001 0.24066
0.26346999 0.14426 0.24642999
0.26339 0.14416 0.24795
0.26212001 0.14348 0.24722999
0.27311999 0.15504 0.24523
0.22679 0.17117999 0.28022
0.22776 0.17051999 0.27904001
0.22699 0.17055 0.27994001
0.2075 0.18498001 0.17995
0.20658 0.18514 0.17918999
0.23657 0.096304998 0.27142999
0.26639 0.051312 0.21489
0.26704001 0.051008001 0.21387
0.26725 0.051863 0.21417999
0.23679 0.12755001 0.24379
0.23932999 0.16943 0.26361999
0.1874 0.18018 0.28608
0.18624 0.17895 0.28612
0.22558001 0.16071001 0.28582001
0.22543 0.16072001 0.28431001
0.22605 0.16094001 0.28505
0.2265 0.16171999 0.28450999
0.22677 0.16293 0.28380999
0.20727 0.15859 0.28538001
0.24141 0.16929001 0.26403001
0.24231 0.10934 0.26835001
0.22014 0.15448999 0.28151
0.21962 0.15435 0.28117999
0.20747 0.15881 0.28672999
0.25284001 0.13894001 0.24963
0.25308999 0.13834 0.24965
0.23114 0.12848 0.23181
0.23147 0.12734 0.23298
0.25804999 0.086686 0.26666999
0.25727999 0.086695999 0.26765999
0.24515 0.10444 0.26909
0.27745 0.10374 0.22793999
0.23300999 0.11995 0.2344
0.23374 0.1202 0.23487
0.23668 0.1701 0.25999001
0.23799001 0.17014 0.26032999
0.23737 0.17001 0.25841001
0.25347999 0.089989997 0.26717001
0.25286001 0.090460002 0.26780999
0.21510001 0.19019 0.24687
0.2141 0.191 0.24737
0.24112999 0.050122999 0.27210999
0.24085 0.050708 0.27384001
0.23893 0.051621001 0.27474001
0.21006 0.19612999 0.24683
0.20994 0.1957 0.24635001
0.20985 0.19479001 0.24597
0.25799999 0.19045 0.24056
0.25845 0.18898 0.24160001
0.20473 0.17129 0.17439
0.19957 0.16734 0.28266999
0.20142999 0.16637 0.28255999
0.20032001 0.16673 0.28270999
0.24506 0.12185 0.25560999
0.24566001 0.12282 0.25417
0.25518 0.18009999 0.25220001
0.25635001 0.17937 0.25193
0.27145001 0.17188001 0.24581
0.2703 0.17126 0.24597
0.26881 0.14037 0.24029
0.26835001 0.13971999 0.24045999
0.26927 0.13863 0.23995
0.23368999 0.18954 0.24041
0.2331 0.18978 0.24112
0.23461001 0.18968 0.24106
0.23912001 0.16914 0.26102
0.2404 0.16960999 0.26111001
0.27127999 0.1602 0.24756999
0.27167001 0.16198 0.24584
0.27129 0.1609 0.24779999
0.20508 0.17385 0.29041001
0.20736 0.18656 0.17946
0.2086 0.18711001 0.17971
0.20724 0.18644001 0.17963
0.24852 0.15397 0.25823
0.24913999 0.15241 0.25841001
0.25059 0.15334 0.25760001
0.25103 0.084326997 0.27160001
0.19362999 0.17718001 0.29031
0.2098 0.17754 0.28579
0.23707999 0.087650999 0.26199001
0.23669 0.087182999 0.2633
0.21592 0.15751 0.28617001
0.23262 0.051587 0.26899001
0.23117 0.052026998 0.26916999
0.19868 0.1708 0.28165999
0.20042001 0.17053001 0.28145
0.19972 0.17059 0.28259999
0.23277 0.1902 0.23991001
0.23307 0.19189 0.23859
0.23141 0.19104999 0.23896
0.26870999 0.10362 0.23344
0.26912999 0.1036 0.23384
0.23093 0.12769 0.23588
0.23139 0.12792 0.23565
0.24444 0.16603 0.26754001
0.24498001 0.16554999 0.26734
0.24515 0.16601001 0.26765999
0.25984001 0.061921999 0.26343
0.26499999 0.11818 0.24179
0.19535001 0.18221 0.2872
0.19607 0.18089999 0.28817001
0.19607 0.18096 0.28791001
0.1992 0.18148001 0.28082001
0.19889 0.18055999 0.28064999
0.19795001 0.1814 0.28086001
0.25235999 0.051615 0.27368
0.25244001 0.052129 0.27410001
0.2518 0.051686998 0.27465001
0.21064 0.15981001 0.29028001
0.20962 0.16124 0.28948
0.20924 0.16057 0.28952
0.24344 0.093075998 0.27142
0.24364001 0.091344997 0.27110001
0.26306 0.18644001 0.23873
0.26293001 0.18674999 0.24068999
0.26333001 0.18635 0.23993
0.20406 0.19307999 0.18065
0.20337 0.19228999 0.18037
0.20455 0.19158 0.18085
0.24102999 0.17512999 0.25738001
0.24231 0.17599 0.25735
0.24097 0.17523 0.25725001
0.24466 0.15809999 0.26951
0.24447 0.15729 0.26958999
0.236 0.18136001 0.24954
0.22508 0.18385001 0.24059001
0.22401001 0.18327001 0.2413
0.22373 0.18266 0.24185
0.25409999 0.11018 0.26532999
0.25435001 0.10796 0.26653999
0.25424001 0.10929 0.26602
0.25481001 0.11484 0.26514
0.25476 0.11672 0.26427001
0.18636 0.17693 0.28402001
0.18637 0.17741001 0.28663
0.18622001 0.17619 0.28442001
0.25957999 0.124 0.25051001
0.26126 0.12265 0.24923
0.25964999 0.12433 0.24936
0.19471 0.16112 0.28933001
0.19416 0.16196001 0.28961
0.22579999 0.13929 0.23965999
0.22579999 0.13971999 0.24087
0.22499999 0.14056 0.23985
0.22618 0.17753001 0.24645001
0.24188 0.16347 0.26978001
0.24096 0.16557001 0.27004999
0.26607999 0.16587 0.25363001
0.26449999 0.16761 0.25435001
0.26388001 0.16583 0.25468001
0.19356 0.18213999 0.28173
0.19401 0.18358 0.28242999
0.25369999 0.066202 0.26944
0.25382 0.065683998 0.26903999
0.26892999 0.14575 0.24649
0.2685 0.14669 0.24654999
0.24397001 0.066785999 0.26230001
0.24301 0.066912003 0.26275
0.23686001 0.19283 0.2262
0.23774999 0.19279 0.22658999
0.23781 0.19396 0.22603001
0.20066001 0.18167 0.28059
0.26118001 0.10865 0.25867
0.26047 0.10952 0.25985
0.23496 0.098520003 0.26447001
0.27079999 0.13896 0.23284
0.26552999 0.13005 0.24397001
0.26535001 0.13131 0.24363001
0.26543999 0.13169999 0.24416
0.23039 0.12503 0.22906999
0.23045 0.1247 0.22737999
0.24138001 0.081629001 0.26912999
0.24081001 0.081372999 0.26995999
0.22956 0.19272999 0.23748
0.22896001 0.19223 0.23661999
0.21317001 0.19203 0.24809
0.21311 0.19162001 0.24878
0.26262999 0.13875 0.2462
0.26365 0.14050999 0.24601001
0.26186001 0.14002 0.24628
0.25328001 0.17259 0.25881001
0.25178999 0.17287999 0.25797001
0.23459999 0.10342 0.20727
0.23449001 0.10413 0.20882
0.23309 0.10441 0.2079
0.23472001 0.088869996 0.20039999
0.23408 0.089474998 0.20092
0.25082999 0.14211001 0.25161999
0.25016999 0.14162 0.25150001
0.26538 0.13055 0.24314
0.22278 0.18656 0.23886
0.23756 0.051011 0.27381
0.23836 0.051228002 0.27384999
0.26205999 0.18975 0.23483001
0.26225001 0.18948001 0.23608001
0.25121999 0.074217997 0.27151
0.25240001 0.072623998 0.27070001
0.23496 0.055418 0.26887
0.23373 0.055193 0.27037001
0.26460999 0.16457 0.25472999
0.23876999 0.058084998 0.26864001
0.23513 0.19014999 0.24164
0.23402999 0.19063 0.24133
0.25490999 0.15826 0.25839001
0.25446999 0.15888999 0.25885999
0.25389001 0.15812001 0.25816
0.25674999 0.12966 0.25084001
0.25470001 0.12913001 0.25057
0.2588 0.067492999 0.26808
0.25759 0.065691002 0.26639
0.21133 0.20122001 0.20920999
0.21116 0.20076001 0.2115
0.19401 0.16607 0.29423001
0.19572 0.1672 0.29333001
0.19386999 0.16694 0.29295999
0.2692 0.10757 0.23405001
0.27013999 0.10948 0.23439001
0.22816999 0.16931 0.28090999
0.22713 0.17025 0.28048
0.2463 0.058083002 0.27735999
0.2448 0.056602001 0.27785999
0.24545 0.057813998 0.27880001
0.24082001 0.10593 0.26912001
0.23994 0.10524 0.26833999
0.24287 0.10599 0.26929
0.20846 0.16308001 0.29102999
0.22101 0.16275001 0.29126
0.22126 0.16426 0.29080001
0.27355 0.16358 0.24536
0.20113 0.17096999 0.29175001
0.24774 0.15452 0.26153001
0.24823 0.15482999 0.26256999
0.21685 0.19549 0.21568
0.21741 0.1948 0.21495999
0.21725 0.19474 0.21484999
0.24339999 0.16526 0.26765001
0.24424 0.1645 0.26877001
0.24423 0.16414 0.26824999
0.23158 0.14670999 0.25264999
0.23063 0.14752001 0.25307
0.22812 0.14304 0.24834
0.22903 0.14347 0.24808
0.22818001 0.14362 0.24866
0.24534 0.16843 0.25839001
0.23292001 0.17036 0.25716999
0.23333 0.1715 0.25604001
0.23138 0.17057 0.25575
0.23890001 0.14149 0.25040001
0.23965999 0.14176001 0.25176001
0.27067 0.17969 0.23436999
0.27059999 0.18054 0.23435
0.24725001 0.059935998 0.27395001
0.24685 0.059411999 0.27256
0.24133 0.059262 0.27193999
0.24131 0.059792999 0.27199
0.21945 0.18628 0.24231
0.28391999 0.10076 0.22806001
0.28382 0.10002 0.22866
0.28219 0.1004 0.2286
0.236 0.051924001 0.20463
0.23715 0.051858 0.20506001
0.23607001 0.052354999 0.20514999
0.23794 0.19289 0.23884
0.23992001 0.19389001 0.23720001
0.20613 0.1776 0.22764
0.20653 0.17674001 0.22834
0.23622 0.091695003 0.20496
0.23503999 0.091452003 0.20442
0.22026999 0.18568 0.24102999
0.18935999 0.17624 0.28336
0.19137999 0.17787001 0.28371999
0.24358 0.050795998 0.28281
0.24397001 0.051089 0.28040999
0.25626001 0.13782001 0.24981999
0.25519001 0.13658001 0.249
0.26682001 0.13294999 0.24047001
0.26732999 0.13269 0.24135999
0.2667 0.1327 0.24201
0.23027 0.050999001 0.27197999
0.26425999 0.18794 0.23506001
0.2448 0.061480001 0.26651001
0.19765 0.19001999 0.17689
0.19797 0.19001 0.17781
0.24307001 0.19441999 0.22777
0.24345 0.19446 0.22842
0.24036001 0.052402999 0.27801999
0.24011999 0.052955002 0.27842
0.26370999 0.18006 0.24819
0.25922 0.1435 0.24905001
0.25266001 0.19293 0.23412
0.25400999 0.19303 0.23379999
0.25343999 0.19336 0.23311
0.25641999 0.11972 0.25928
0.23259 0.13089 0.23882
0.23423 0.16993999 0.26715001
0.23449001 0.16954 0.26857001
0.23604999 0.17084 0.26773
0.24931 0.067387998 0.26898
0.24894001 0.068898 0.27011001
0.26576999 0.11971 0.23506001
0.23806 0.11953 0.24863
0.23875 0.1211 0.24874
0.24948999 0.18374 0.24801999
0.24611001 0.19378 0.2376
0.20829 0.17698 0.28735
0.20852999 0.17746 0.28735
0.25918001 0.17681 0.25271001
0.18858001 0.16959 0.28784999
0.18774 0.16870999 0.28862
0.18757001 0.16968 0.28771001
0.22188 0.16135 0.29133001
0.20794 0.18023001 0.23718999
0.22857 0.18772 0.24153
0.22944 0.18768001 0.24071001
0.22954001 0.1867 0.24043
0.26910999 0.11006 0.23486
0.26873001 0.11072 0.23461001
0.25977001 0.17169 0.25470001
0.25962999 0.17154001 0.25685
0.24088 0.11438 0.26192001
0.24119 0.11501 0.26348999
0.244 0.19434001 0.23814
0.24526 0.19351999 0.2377
0.23179001 0.15228 0.27430001
0.22999001 0.15186 0.27498001
0.23106 0.15245999 0.27331999
0.20777 0.16666999 0.29172
0.2084 0.16549 0.2911
0.20877001 0.16599 0.29100999
0.19854 0.1793 0.28935999
0.25725001 0.13084 0.24936999
0.2137 0.18253 0.24161001
0.21528 0.18244 0.24243
0.21453001 0.18232 0.24169999
0.25148001 0.15383001 0.25845
0.22045 0.15459 0.28209999
0.22014999 0.15504999 0.28286999
0.21966 0.15508001 0.28255999
0.26047999 0.17337 0.25387999
0.26212001 0.17297 0.25237
0.2359 0.17093 0.26627001
0.23695 0.17020001 0.26605001
0.23604999 0.17005999 0.26453999
0.22693001 0.14031 0.24519999
0.22676 0.14128 0.24424
0.25257999 0.17419 0.25773001
0.25161001 0.17369001 0.25797001
0.25253001 0.121 0.25821999
0.25305 0.1211 0.25816
0.23914 0.057792999 0.27592999
0.23969001 0.056699999 0.27689999
0.23917 0.056722999 0.27577999
0.25933999 0.059803002 0.26212001
0.25971001 0.05954 0.26273999
0.26089001 0.058766998 0.26366001
0.26546001 0.11314 0.23473001
0.26666999 0.11418 0.23548999
0.26611 0.11376 0.23483001
0.24071001 0.076215997 0.26786
0.24144 0.075787 0.26719999
0.24213 0.075882003 0.26824
0.26157001 0.15464 0.25514001
0.26198 0.1551 0.25323999
0.26168999 0.17529 0.25116
0.24510001 0.064897999 0.26401001
0.28433001 0.099921003 0.23395
0.28316 0.098283 0.23423
0.28479001 0.098729998 0.23379
0.22103 0.15985 0.28949001
0.22183999 0.15984 0.28935999
0.24992999 0.12259 0.25645
0.24984001 0.12212 0.25661001
0.23386 0.17744 0.25273001
0.18926001 0.16892999 0.28650001
0.18933 0.17020001 0.28601
0.23162 0.13733 0.24115001
0.23344 0.13593 0.24108
0.23987 0.05742 0.20564
0.23909 0.056223001 0.20545
0.24013001 0.056557 0.20656
0.26385999 0.13017 0.24555001
0.26352 0.13074 0.24529
0.2633 0.13005 0.2458
0.20546 0.19279 0.17798001
0.20565 0.19137 0.17761
0.2606 0.15988 0.25747001
0.23683999 0.19338 0.23706999
0.23692 0.19392 0.23647
0.24096 0.10643 0.26873001
0.24315999 0.10619 0.26881
0.24158999 0.10731 0.26892
0.2543 0.11823 0.26262
0.25518 0.11614 0.26199999
0.25465 0.11741 0.26243001
0.20976 0.17827 0.28014001
0.25742999 0.10704 0.26396999
0.24008 0.085382998 0.26999
0.23879001 0.085977003 0.26921999
0.25685 0.12092 0.25667
0.25760999 0.11902 0.25525999
0.23874 0.18956 0.24128
0.23740999 0.18974 0.24232
0.2288 0.19108 0.23792
0.26625001 0.13555001 0.24284001
0.26626 0.13328999 0.24208
0.26688001 0.13613001 0.24188
0.23649999 0.10445 0.26662999
0.23686001 0.10216 0.26616001
0.23645 0.10388 0.26635
0.22046 0.17395 0.28816
0.22107001 0.17361 0.287
0.22036999 0.17388 0.28704
0.23378 0.054926001 0.26794001
0.24405 0.071273997 0.26618001
0.27395001 0.15775 0.24397001
0.27296001 0.15739 0.24387001
0.27360001 0.15651999 0.24247
0.19876 0.18013 0.17093
0.19701 0.18024001 0.17171
0.19839001 0.17968 0.17185999
0.24044 0.1107 0.26482001
0.24007 0.1125 0.26497
0.22159 0.1663 0.29054999
0.22181 0.16506 0.28990999
0.22296 0.16597 0.28972
0.22311001 0.18114001 0.24399
0.22268 0.18132 0.24330001
0.22262 0.18014 0.24451999
0.23977999 0.15525 0.27179
0.24525 0.056674998 0.21014
0.24339999 0.055410001 0.2106
0.24798 0.15279 0.25940999
0.28865001 0.1017 0.23066001
0.28771999 0.1019 0.2321
0.25095999 0.1613 0.25893
0.25102001 0.16005 0.25914001
0.23536 0.055604 0.2669
0.23999 0.054462999 0.2089
0.23872 0.054292999 0.20967001
0.26662999 0.14166 0.24271999
0.24477001 0.18007 0.25244001
0.24355 0.17907999 0.25266999
0.24431001 0.17924 0.25261
0.25911999 0.1188 0.25782001
0.26001999 0.17278001 0.25488001
0.25834 0.17519 0.25472
0.25867999 0.17296 0.25545999
0.24457 0.051243 0.20666
0.24388 0.050453 0.20574
0.26293001 0.12425 0.24895
0.26113999 0.12537999 0.24869999
0.27324 0.10056 0.23450001
0.23714 0.084711999 0.26660001
0.23728999 0.085282996 0.26563999
0.25288001 0.053792 0.27399999
0.1971 0.18097 0.28126001
0.2057 0.19345 0.17851999
0.26396 0.18581 0.23935001
0.26536 0.18527 0.24036001
0.20088001 0.16269 0.29010999
0.22609 0.15634 0.28048
0.22623999 0.15555 0.27919999
0.20587 0.16558 0.28997001
0.20699 0.16503 0.29093999
0.20593999 0.16655999 0.29007
0.24112999 0.16933 0.26278999
0.24202999 0.16918001 0.26227
0.24857999 0.074548997 0.26989999
0.25231001 0.076546997 0.27116001
0.25246 0.075851999 0.27147999
0.23636 0.11914 0.23917
0.23571 0.11782 0.23885
0.18980999 0.16869999 0.28841999
0.2678 0.054581001 0.21529
0.26804 0.054756001 0.21527
0.26688001 0.054710999 0.21431001
0.20487 0.19253001 0.17791
0.2437 0.068558998 0.26352
0.24331 0.06825 0.26225001
0.27698001 0.098580003 0.23312999
0.27577999 0.099899001 0.23251
0.27592999 0.098506004 0.23179001
0.24563999 0.090745002 0.27153
0.24597999 0.088096999 0.27121001
0.27182001 0.1762 0.23898
0.27206999 0.16783001 0.24643999
0.23823 0.16760001 0.27083999
0.23718999 0.16782001 0.27078
0.23746 0.16692001 0.27193001
0.23083 0.13673 0.23835
0.20281 0.17453 0.29111001
0.20219 0.17513999 0.29154
0.24285001 0.068949997 0.26221001
0.23694 0.19365001 0.22736999
0.21799999 0.15792 0.28731999
0.21819 0.15933 0.28762999
0.21736 0.15933 0.28773001
0.24657001 0.062004 0.26671001
0.24718 0.062148999 0.26672
0.23755001 0.055349 0.27969
0.25086999 0.1311 0.25002
0.25165001 0.13102999 0.25029999
0.25189 0.13166 0.25081
0.22218999 0.16931 0.29080001
0.22103 0.16966 0.29097
0.18571 0.17718001 0.28290001
0.18538 0.17727 0.28252
0.18605 0.17824 0.28185001
0.26157001 0.18219 0.24765
0.26069999 0.18286 0.24832
0.24517 0.080173001 0.27182001
0.24451999 0.078992002 0.27096
0.2456 0.079720996 0.27123001
0.23543 0.12079 0.23822001
0.23469999 0.1199 0.23771
0.24233 0.18386 0.24893001
0.26337001 0.1517 0.25286001
0.25793001 0.08044 0.26747999
0.27410001 0.1059 0.22627001
0.27263999 0.10528 0.22648001
0.27234 0.10577 0.22606
0.24061 0.15998 0.27243999
0.23992001 0.078363001 0.26712
0.24146 0.079723999 0.26879999
0.23999999 0.080342002 0.26767999
0.24952 0.19491 0.23401999
0.29146001 0.094788 0.23086999
0.29276001 0.096460998 0.23069
0.23738 0.16489001 0.27498999
0.23607001 0.16539 0.27489001
0.26366001 0.076012999 0.20768
0.26459 0.075929999 0.20716999
0.23356 0.13989 0.24722999
0.23545 0.13953 0.24733999
0.23905 0.05514 0.20725
0.2375 0.054825999 0.20688
0.24797 0.15475 0.25957999
0.28213999 0.10102 0.22815999
0.28149 0.10069 0.22758
0.2018 0.18365 0.17613
0.19866 0.18267 0.17576
0.19945 0.18313999 0.17594001
0.19882999 0.18224999 0.17524999
0.20889001 0.15643001 0.28114
0.20223001 0.18540999 0.17712
0.20228 0.18557 0.17792
0.21002001 0.17579 0.24039
0.25867999 0.16773 0.25854999
0.24898 0.18282001 0.25117999
0.24974 0.18289 0.25015
0.26356 0.10844 0.25536999
0.22356001 0.17355999 0.28151
0.22169 0.17388 0.28119001
0.2273 0.18228 0.24276
0.22679999 0.16756999 0.28336999
0.22731 0.16944 0.28435001
0.1913 0.16343001 0.28701001
0.18987 0.16333 0.28694999
0.25082001 0.11929 0.26196
0.24916001 0.11967 0.2608
0.25064 0.11939 0.26188999
0.21123999 0.20056 0.2499
0.26157999 0.11215 0.25756001
0.20644 0.18376 0.16992
0.20682999 0.18385001 0.17077
0.20717999 0.18351001 0.17061999
0.24875 0.087990001 0.27138001
0.23673999 0.054172002 0.20296
0.23553 0.056293 0.20315
0.23643 0.055741999 0.204
0.20047 0.18536 0.17411
0.26894999 0.15383001 0.25014001
0.26738 0.15236001 0.24959999
0.26613 0.17652 0.24704
0.26640001 0.17824 0.24585
0.26486999 0.17761999 0.24627
0.27359 0.15188 0.24029
0.27386999 0.15200999 0.24026
0.27410999 0.15299 0.23890001
0.24384999 0.17551 0.25641
0.2441 0.1753 0.25612
0.23666 0.11565 0.23614
0.23773 0.11513 0.23733
0.23509 0.092023998 0.26774001
0.23413999 0.092298001 0.26677999
0.21402 0.15481 0.28194001
0.25286001 0.1209 0.25915
0.26124001 0.14058 0.24756999
0.21037 0.19615 0.24834
0.21078999 0.19565 0.24919
0.24692 0.18302 0.25029999
0.24676 0.18561999 0.24924999
0.24578001 0.18327001 0.24938001
0.26098001 0.11586 0.25703001
0.27434 0.15854 0.24293
0.27329999 0.15757 0.24157999
0.28799 0.097469002 0.22957
0.22402 0.15954 0.28531
0.22337 0.15951 0.28521001
0.24647 0.16042 0.26734
0.24621999 0.16008 0.26844001
0.24591 0.15983 0.26841
0.26073 0.068995997 0.26155999
0.25986999 0.067299001 0.26203999
0.26045999 0.068579003 0.26186001
0.21913999 0.18783 0.24195001
0.19636001 0.17707001 0.28327
0.19571 0.17615999 0.28207999
0.19573 0.17645 0.28297001
0.24826001 0.071883 0.27055001
0.23341 0.17339 0.25540999
0.26853001 0.15862 0.2511
0.29021001 0.10138 0.23472001
0.19391 0.17298 0.29201999
0.1928 0.17251 0.29161999
0.19389001 0.17304 0.29137999
0.25944999 0.079604 0.26598001
0.25905001 0.080118001 0.26638001
0.21104001 0.19257 0.24382
0.24793001 0.1838 0.24913999
0.25584999 0.087435998 0.26717001
0.26811001 0.11402 0.23354
0.26886001 0.11327 0.23334
0.24594 0.15910999 0.2676
0.24657001 0.1583 0.26666999
0.24941 0.10636 0.26841
0.19821 0.17633 0.28196999
0.22923 0.18882 0.24028
0.19069999 0.17895 0.28345999
0.19192 0.17824 0.28301001
0.21172 0.17817 0.28415999
0.20569 0.1759 0.22582
0.20446 0.1763 0.22462
0.20466 0.17596 0.22463
0.25255001 0.1276 0.25198001
0.25367001 0.12706 0.25218001
0.25253999 0.12771 0.25150999
0.23063999 0.15267999 0.27153999
0.22971 0.15241 0.27203
0.23373 0.052939001 0.20100001
0.23233999 0.052790999 0.2015
0.23216 0.052921001 0.20171
0.24510001 0.15324999 0.26402
0.24692 0.15479 0.26427999
0.24653 0.15473001 0.26447001
0.18928 0.17713 0.28825
0.25883001 0.18232 0.24913
0.25889 0.18292999 0.24909
0.25744 0.15554 0.25841001
0.25617999 0.15482999 0.25696
0.25674999 0.15545 0.25773001
0.29269999 0.096537001 0.23543
0.2929 0.096340001 0.23421
0.26969001 0.14911 0.24613
0.25275999 0.056212001 0.27261001
0.22913 0.18792 0.24096
0.27360001 0.16783001 0.24386001
0.24493 0.058426 0.27616
0.23277 0.13579001 0.24081001
0.23325001 0.13472 0.24169999
0.23421 0.13459 0.24185
0.25973001 0.074382 0.26352999
0.2597 0.12172 0.25439
0.25867 0.12166 0.25299999
0.25942999 0.12152 0.25363001
0.27316999 0.14753 0.23800001
0.27226999 0.14725 0.23963
0.27237001 0.14624999 0.23784
0.26574001 0.12620001 0.24111
0.26629001 0.12631001 0.24173
0.27469 0.16332 0.23867001
0.27395999 0.16286001 0.23962
0.27017999 0.10834 0.23428001
0.25525001 0.050310999 0.26927999
0.2545 0.050416 0.26991001
0.25586 0.050484002 0.26776999
0.23734 0.11655 0.24022999
0.23687001 0.1175 0.24141
0.23739 0.11824 0.24115001
0.2339 0.19232 0.23293
0.21356 0.19131 0.24654999
0.21375 0.19185001 0.24713001
0.22268 0.14401001 0.23778
0.22352 0.14312001 0.23799001
0.27219999 0.17679 0.23926
0.27135 0.17763001 0.23952
0.19746999 0.17660999 0.1728
0.23587 0.085945003 0.19923
0.23542 0.087491997 0.20006999
0.25264001 0.11466 0.26550999
0.25296 0.18979999 0.24102999
0.25257 0.18979999 0.24301
0.2422 0.1699 0.25786
0.24145 0.16968 0.25957
0.27057999 0.17697001 0.24252
0.2287 0.051637001 0.27221999
0.25296 0.13639 0.25057
0.24093001 0.11745 0.25841001
0.19211 0.16368 0.28859001
0.24101 0.058959 0.26758
0.24056999 0.059112001 0.26736999
