# .PCD v0.7 - Point Cloud Data file format
VERSION 0.7
FIELDS x y z
SIZE 4 4 4
TYPE F F F
COUNT 1 1 1
WIDTH 1630
HEIGHT 1
VIEWPOINT 0 0 0 1 0 0 0
POINTS 1630
DATA ascii
0.19893999 0.089227997 0.14500999
0.19802999 0.090196997 0.14405
0.19732 0.090204 0.14387999
0.19822 0.090107001 0.14448
0.16718 -0.039944999 0.096790001
0.16785 -0.039117999 0.097661003
0.16816001 -0.038265999 0.098301001
0.16794001 -0.038745999 0.098388001
0.16785 -0.038600001 0.098760001
0.22152001 -0.037583999 0.1771
0.16813999 -0.036543999 0.099266998
0.22265001 -0.036137 0.17891
0.22491001 -0.032221999 0.1825
0.16925 -0.032039002 0.10128
0.22455999 -0.031746 0.18323
0.22487999 -0.030917 0.18391
0.22549 -0.029240999 0.18437999
0.22645999 -0.028121 0.18430001
0.22614001 -0.028638 0.18426999
0.22642 -0.027445 0.18479
0.22754 -0.024219001 0.18616
0.22741 -0.023929 0.18651
0.22793999 -0.019926 0.1877
0.22832 -0.0073361001 0.18908
0.22852001 -0.0016776 0.18832999
0.22848 -0.0024398 0.18865
0.22901 -0.0029908 0.18827
0.22838999 -0.00025146999 0.18767001
0.2287 -0.0012292 0.18794
0.22819 0.0026366001 0.18708
0.2271 0.0054175998 0.18732999
0.22717001 0.0057746 0.18682
0.22748999 0.0064451001 0.18613
0.22733 0.0056226002 0.1867
0.19528 0.0049128998 0.13817
0.22737999 0.0070946999 0.18593
0.19393 0.0080057997 0.13695
0.19396 0.0080351001 0.13694
0.19348 0.0086532002 0.13556001
0.22668999 0.0098897005 0.18495999
0.19302 0.0094750002 0.13567001
0.19337 0.0095648002 0.13511001
0.19273999 0.010511 0.13515
0.19172999 0.013709 0.13432001
0.19234 0.01291 0.13407999
0.22549 0.015027 0.18306001
0.22458 0.017085999 0.18195
0.2244 0.017898999 0.18155
0.22434001 0.019082 0.18144999
0.22243001 0.021929 0.17997
0.22317 0.021145999 0.18017
0.22239999 0.023035999 0.17831001
0.22204 0.024395 0.17809001
0.21837001 0.029643999 0.1742
0.2177 0.031146999 0.1719
0.21838 0.03053 0.17252
0.21667001 0.031511001 0.17167
0.21685 0.032373998 0.17057
0.21723001 0.031743001 0.17094
0.21506 0.035014 0.16809
0.21529999 0.034538999 0.16875
0.213 0.037349999 0.16586
0.21174 0.038736999 0.16343001
0.2106 0.040043999 0.16263001
0.21116 0.039758999 0.16204
0.23379999 0.044854 0.19665
0.23586001 0.046286002 0.19964001
0.23051 0.046519998 0.19167
0.23007999 0.046510998 0.19118001
0.22882999 0.046482999 0.18960001
0.22927999 0.04642 0.19025999
0.23589 0.048625998 0.19965
0.2352 0.049546 0.19851001
0.23556 0.049426001 0.19918001
0.2339 0.050409999 0.19689
0.23361 0.051429 0.19642
0.23212001 0.054065999 0.19414
0.23282 0.054272 0.19449
0.23293 0.054995 0.19437
0.12839 0.054290999 0.040488999
0.23015 0.055723999 0.19117001
0.23210999 0.055727001 0.19365001
0.23057 0.056481 0.19176
0.22677 0.055774 0.18635
0.23141 0.05737 0.19315
0.22347 0.057124998 0.18024001
0.22187001 0.057707999 0.17769
0.21675 0.05909 0.17047
0.23435999 0.076458998 0.19784001
0.23522 0.077440001 0.19893999
0.23534 0.077590004 0.19864
0.23630001 0.079434 0.19888
0.23568 0.078648999 0.19845
0.23093 0.080340996 0.19241001
0.22385 0.080229998 0.18186
0.23196 0.081292003 0.19416
0.22465 0.081133001 0.18152
0.22473 0.081258997 0.18223999
0.2349 0.082018003 0.19811
0.22998001 0.081946 0.19087
0.2201 0.081584997 0.17643
0.23374 0.082649 0.19495
0.23334999 0.082232997 0.19513001
0.23411 0.082516 0.19580001
0.22015999 0.082235001 0.17575
0.22915 0.083788 0.18937001
0.22965001 0.083722003 0.1893
0.22668999 0.083861999 0.18622001
0.22656 0.083667003 0.18561
0.22633 0.083802998 0.1851
0.21985 0.083654001 0.17535
0.2202 0.083149999 0.17538001
0.22806001 0.084492996 0.18852
0.2166 0.085417002 0.17012
0.20195 0.086566001 0.14934
0.20255999 0.086906999 0.1486
0.20211001 0.086557001 0.14917
0.20079 0.088404998 0.14709
0.20004 0.088096999 0.14706001
0.20134 0.087861001 0.14735
0.20006999 0.088978998 0.14603999
0.19987001 0.089213997 0.14584
0.19742 0.090828001 0.14320999
0.19734 0.090958998 0.1428
0.19670001 0.091123998 0.14244001
0.16653 -0.040959999 0.096174002
0.16806 -0.037994999 0.098944001
0.22081999 -0.038010001 0.17586
0.22014999 -0.038003001 0.17675
0.16850001 -0.037524 0.098927997
0.22245 -0.036658999 0.1785
0.16854 -0.036412001 0.099381998
0.22371 -0.034336001 0.18016
0.16921 -0.035305999 0.099513002
0.16924 -0.034869999 0.099595003
0.22477999 -0.033027999 0.18134999
0.22395 -0.033665001 0.18088
0.16951001 -0.033147 0.10035
0.1692 -0.033443 0.10051
0.22473 -0.032547001 0.18228
0.1697 -0.032019001 0.10072
0.22521999 -0.031851001 0.18288
0.22584 -0.030704999 0.18336
0.22587 -0.030151 0.18354
0.22612999 -0.029318999 0.18402
0.22709 -0.026798001 0.18509001
0.22739001 -0.02586 0.18572
0.22750001 -0.025424 0.18603
0.22729 -0.02318 0.18684
0.228 -0.02045 0.18743999
0.22796001 -0.021089001 0.18671
0.22844 -0.019859999 0.18719999
0.22842 -0.019431001 0.18743999
0.22871 -0.018045001 0.18787
0.22854 -0.016859001 0.18847001
0.22893 -0.012859 0.18801001
0.22924 -0.0073831999 0.18852
0.22889 -0.0063358 0.18808
0.2291 -0.0049903002 0.18833999
0.22825 0.0016268 0.18681
0.19711 0.0023957 0.14088
0.19634999 0.0025799 0.14148
0.19728 0.0021975001 0.14133
0.19652 0.0028941999 0.14058
0.19699 0.0026129 0.13996001
0.19672 0.0034052001 0.139
0.19622 0.0033499 0.13963
0.22845 0.003398 0.18701001
0.19598 0.0038461001 0.13913999
0.19565 0.0042360001 0.13879
0.22672001 0.0086700004 0.18511
0.22676 0.0093150996 0.18482
0.22651 0.010528 0.18483
0.22666 0.011619 0.18498001
0.1926 0.011517 0.13497999
0.19284999 0.011776 0.13467
0.19246 0.012413 0.13420001
0.22645999 0.012629 0.18426999
0.19203 0.013341 0.13367
0.19165 0.014245 0.13342001
0.22600999 0.014103 0.18382999
0.22374 0.019309999 0.18149
0.22414 0.019932 0.18081
0.22323 0.021615 0.17929
0.22261 0.022035001 0.17894
0.22233 0.022523001 0.17859
0.22158 0.025093 0.17745
0.22160999 0.025436999 0.17722
0.22069 0.026302001 0.17664
0.22056 0.026864 0.17612
0.21957999 0.027624 0.17482001
0.21897 0.029043 0.17346001
0.21614 0.032650001 0.17009
0.21442001 0.034990001 0.16744
0.21413 0.03571 0.16648
0.21477 0.035464998 0.16677
0.21398 0.036178 0.16547
0.21328001 0.036926001 0.16506
0.21303999 0.037577 0.16464999
0.21281999 0.037893001 0.16426
0.21143 0.039365001 0.16267
0.21071 0.040408 0.16150001
0.23469 0.044776998 0.19765
0.23558 0.045389 0.19846
0.23577 0.045276999 0.19865
0.23422 0.045246001 0.19671001
0.23635 0.045768999 0.19868
0.23359001 0.045538999 0.19603001
0.2366 0.046036001 0.19944
0.23346999 0.046124 0.19521999
0.23309 0.046105999 0.19490001
0.23322999 0.047217 0.19423001
0.23641001 0.046487998 0.19992
0.23264 0.046994001 0.19379
0.23054001 0.046801999 0.19058
0.22993 0.046787001 0.19019
0.2295 0.04651 0.18909
0.22898 0.046633001 0.1884
0.23718999 0.047109999 0.20026
0.23706 0.047821999 0.20035
0.23671 0.048461001 0.19997001
0.23657 0.049711999 0.19952001
0.23604999 0.049493 0.1992
0.23431 0.050172001 0.19721
0.23483001 0.050535999 0.19735
0.23474 0.050946001 0.19686
0.23387 0.052517001 0.19628
0.23357999 0.051950999 0.19605
0.23462 0.052175 0.19659001
0.23417 0.051440001 0.19661
0.23338 0.053238001 0.19521999
0.23297 0.052919999 0.19527
0.23296 0.053594001 0.19474
0.23356999 0.054063 0.19489001
0.22482 0.054407001 0.18284
0.22464 0.054834999 0.18233
0.12791 0.054793 0.039404999
0.23242 0.055255 0.19408999
0.22965001 0.055387001 0.1891
0.22940999 0.055638999 0.18900999
0.2326 0.056102 0.19351
0.23081 0.055886999 0.19055
0.23096 0.056152001 0.19119
0.22382 0.056823999 0.18093
0.23212001 0.056518 0.19253001
0.23161 0.057427999 0.19244
0.23143999 0.057698 0.19284
0.23153999 0.057172 0.19188
0.22312 0.057273 0.17926
0.22256 0.057509001 0.17833
0.22126999 0.05762 0.17715
0.22067 0.058017001 0.17670999
0.2198 0.058463 0.17522
0.21741 0.059192002 0.17125
0.21786 0.059144001 0.17185
0.21857999 0.059117001 0.17251
0.23083 0.068034999 0.19138999
0.23122001 0.068664998 0.19188
0.23044001 0.068705998 0.19066
0.23139 0.069631003 0.19193999
0.23148 0.070086002 0.19220001
0.23119999 0.070340998 0.19266
0.22735 0.071353003 0.18708999
0.22680999 0.071211003 0.18657
0.22722 0.071833998 0.18614
0.23326001 0.075208999 0.19493
0.23380999 0.075860001 0.19494
0.23443 0.076196998 0.19713999
0.23503 0.076621003 0.19718
0.23526999 0.076762997 0.19814999
0.22147 0.079902001 0.17699
0.22176 0.079786003 0.17773999
0.23592 0.080383003 0.19893999
0.22393 0.080003999 0.18100999
0.22358 0.080183998 0.18034001
0.22205 0.080193996 0.17801
0.22209001 0.080163002 0.17859
0.22104 0.080214001 0.17730001
0.23108999 0.080700003 0.19226
0.22291 0.080421999 0.17928
0.22109 0.080436997 0.17664
0.23612 0.081329003 0.19867
0.23190001 0.080840997 0.19335
0.23216 0.081138 0.19288
0.23187999 0.080728002 0.19302
0.23158 0.081514001 0.19188
0.23100001 0.081427999 0.19144
0.23222999 0.081509002 0.19358
0.2353 0.081425004 0.19835
0.22494 0.081767999 0.18228
0.22044 0.081570998 0.17572001
0.22054 0.081054002 0.17607
0.2358 0.082216002 0.19822
0.23265 0.082163997 0.19362
0.23034 0.081666 0.19114
0.23048 0.081993997 0.19063
0.23458999 0.082471997 0.19667
0.23397 0.082630999 0.19609
0.23280001 0.082043 0.19451
0.23017 0.082250997 0.19024
0.22515 0.082392 0.18327001
0.23503 0.082911 0.19656
0.22988001 0.082817003 0.18966
0.22521999 0.082638003 0.18370999
0.22541 0.082993999 0.18287
0.22962999 0.083319999 0.18944
0.22574 0.083366998 0.18407001
0.22639 0.084063001 0.18447
0.22668999 0.083973996 0.18556
0.21991999 0.084000997 0.17507
0.22882999 0.084962003 0.18861
0.22964001 0.085093997 0.18882
0.22811 0.085014001 0.18776999
0.22797 0.085024998 0.18748
0.22725999 0.084430002 0.18601
0.21960001 0.084471002 0.17456
0.22934 0.085446 0.18816
0.21852 0.084996 0.17230999
0.21776 0.084964998 0.17174
0.21525 0.085630998 0.16819
0.21585999 0.085491002 0.1688
0.1997 0.089748003 0.14478999
0.19888 0.090315998 0.14374
0.19853 0.090519004 0.14325
0.19814 0.090972997 0.14255001
0.19850001 0.090790004 0.14275999
0.19735999 0.091646999 0.14185999
0.19657999 0.091822997 0.14157
0.19733 0.091862001 0.14111
0.19639 0.091803998 0.14150999
0.19648001 0.091766 0.14029001
0.16865 -0.037636999 0.098728001
0.16947 -0.033643998 0.099872999
0.22606 -0.031573001 0.18223999
0.22587 -0.031915002 0.18181001
0.22806001 -0.022043999 0.18668
0.2296 -0.018306 0.1875
0.22887 -0.015911 0.18798999
0.22920001 -0.01208 0.18847001
0.22916 -0.011339 0.1886
0.22916999 -0.0099860998 0.18856999
0.22927 -0.0084063997 0.18844999
0.22957 -0.0040962002 0.18829
0.22848 0.00082184002 0.18705
0.19677 0.0018815 0.14219999
0.19687 0.0030083 0.14016999
0.22826999 0.0040826001 0.18695
0.228 0.0048403 0.18694
0.19464999 0.0071135 0.13697
0.2272 0.0080409003 0.18561
0.22595 0.013258 0.18444
0.22374 0.020269001 0.1806
0.22139999 0.025576999 0.17674001
0.21928 0.02832 0.17385
0.21963 0.027884999 0.17434999
0.21714 0.031739 0.17027
0.21713001 0.032487001 0.16904999
0.21635 0.033388 0.16934
0.21348999 0.036649998 0.16571
0.21268 0.038189001 0.16379
0.21106 0.039992999 0.16135
0.21101999 0.040366001 0.16061001
0.23526999 0.045281 0.19743
0.23512 0.045522999 0.19677
0.23477 0.046046998 0.19641
0.23368999 0.046673998 0.19495
0.23714 0.048788998 0.20034
0.23735 0.049295999 0.19999
0.23566 0.050402001 0.19777
0.23421 0.053491998 0.19584
0.22552 0.054347999 0.18294001
0.23012 0.055305999 0.18954
0.22917999 0.055978999 0.18841
0.23327 0.055845 0.19396
0.23037 0.055470999 0.18999
0.23251 0.056253001 0.19279
0.22420999 0.056070998 0.18181001
0.22454 0.056579001 0.18129
0.23116 0.056644 0.19126
0.21965 0.058423001 0.17453
0.21905001 0.058789998 0.17362
0.23101 0.068483002 0.19118001
0.22976001 0.069003001 0.19017
0.23046 0.069486998 0.19013999
0.23557 0.077636003 0.19779
0.22402 0.080540001 0.18164
0.23254 0.082046002 0.19281
0.23528001 0.082625002 0.19712
0.23378 0.082778998 0.1945
0.22592001 0.083691999 0.18307
0.22576 0.083485 0.18242
0.22735 0.085135996 0.18540999
0.22751001 0.084974997 0.18605
0.22856 0.085777998 0.18725
0.20197999 0.087370001 0.14845
0.2008 0.088552997 0.14622
0.16767 -0.040373001 0.095728002
0.16878 -0.038171999 0.097723998
0.22258 -0.037307002 0.17644
0.22189 -0.037670001 0.17596
0.22310001 -0.037275001 0.17715999
0.22318999 -0.036277998 0.17832001
0.22318999 -0.035663001 0.17927
0.16974001 -0.033204 0.099849999
0.22588 -0.032442 0.18174
0.22721 -0.027573001 0.18402
0.22808 -0.025983 0.18497001
0.22773001 -0.026714001 0.18456
0.22803 -0.022933001 0.18645
0.22915 -0.020555999 0.18649
0.22939 -0.019985 0.18698999
0.22925 -0.018536 0.1875
0.2295 -0.017665001 0.18746001
0.22972 -0.0037262 0.18777999
0.22897001 0.0013015 0.18646
0.19647001 0.0041743 0.13809
0.19547001 0.0049659 0.138
0.19551 0.0056538 0.13766
0.1952 0.0059644999 0.13744999
0.19496 0.0071887998 0.13620999
0.19446 0.0074435999 0.13657001
0.19438 0.0078290002 0.13575999
0.19407 0.0081532998 0.13595
0.19381 0.0090725003 0.13467
0.22663 0.012996 0.18421
0.22542 0.017213 0.18107
0.22527 0.016574999 0.18154
0.22514001 0.01771 0.18102001
0.22414 0.020494999 0.17997
0.22504 0.019616 0.17997
0.22218999 0.024889 0.17731
0.22039001 0.027449001 0.17423999
0.22014999 0.027760999 0.17352
0.21883 0.030378999 0.17167
0.21960001 0.029519999 0.17283
0.2183 0.031006999 0.17203
0.21825001 0.031314999 0.17051999
0.21778999 0.031838 0.16954
0.21676999 0.033613998 0.16854
0.21653999 0.034088999 0.16797
0.21565001 0.034915 0.1674
0.21442001 0.035518002 0.16504
0.21378 0.036254 0.16542
0.21367 0.036989 0.16401
0.21326999 0.037709001 0.16404
0.21298 0.037831999 0.16287
0.21191999 0.039009001 0.16259
0.23586001 0.045564 0.19812
0.23559 0.046294 0.19688
0.23631001 0.046048 0.19768
0.23756 0.048765 0.20079
0.23788001 0.047777001 0.20058
0.23617999 0.050255999 0.19884001
0.23705 0.050018001 0.19905999
0.23514 0.051332999 0.1973
0.23579 0.051350001 0.19757
0.23594999 0.052593999 0.19718
0.23531 0.052140001 0.19699
0.23576 0.052981999 0.19687
0.2342 0.054035001 0.19543
0.23380999 0.055418 0.19491
0.23495001 0.055323001 0.1954
0.23051 0.055445001 0.1892
0.22969 0.055349998 0.18825001
0.23355 0.055594001 0.19452
0.23139 0.056240998 0.1902
0.22916 0.056035001 0.18712001
0.2288 0.056077 0.18749
0.22955 0.055551998 0.18771
0.22348 0.057303999 0.17964
0.2227 0.057852 0.17715999
0.22216 0.057870999 0.17667
0.22202 0.058122002 0.1763
0.21927001 0.059264001 0.17265999
0.2193 0.059384 0.17202
0.2314 0.069857001 0.19140001
0.23266999 0.071795002 0.19348
0.23379999 0.072052002 0.1934
0.23372 0.072047003 0.19352999
0.23608001 0.078349002 0.19819
0.23649 0.079320997 0.19807
0.23699 0.080237001 0.1979
0.2368 0.081239998 0.19817001
0.22137 0.080435 0.17583001
0.22133 0.080696002 0.17546
0.2323 0.082079001 0.19145
0.23611 0.082075 0.19831
0.23204 0.082185999 0.19074
0.22073001 0.081968002 0.17477
0.22087 0.082153998 0.17428
0.236 0.083288997 0.19665
0.23477 0.083164997 0.19554
0.22587 0.084216997 0.18346
0.22025 0.083086997 0.17483
0.22070999 0.083154999 0.17416
0.22633 0.084400997 0.1833
0.22683001 0.084787004 0.18308
0.22055 0.084293999 0.17338
0.22005001 0.084798999 0.17346001
0.22782999 0.085455999 0.18613
0.22683001 0.084948003 0.18440001
0.22701 0.084950998 0.18409
0.22837999 0.085602 0.18697
0.21720999 0.085258998 0.17019001
0.20275 0.085902996 0.14959
0.2033 0.086074002 0.14959
0.20192 0.087690003 0.14768
0.20144001 0.088835999 0.14579
0.19988 0.090324998 0.1435
0.19955 0.089936003 0.14413001
0.16752 -0.040693 0.095322996
0.16698 -0.040917002 0.094719
0.16794001 -0.039831001 0.096272998
0.16847 -0.039089002 0.096758001
0.16914999 -0.037546001 0.097916998
0.16937999 -0.035517 0.098626003
0.22338 -0.035487998 0.17904
0.22337 -0.036118001 0.17866001
0.1691 -0.035806999 0.099128
0.16985001 -0.034722 0.098407
0.22425 -0.034922998 0.17945001
0.16962001 -0.034283999 0.099312
0.22486 -0.033486001 0.18035001
0.22511999 -0.033197999 0.18081
0.22622 -0.031225 0.18273
0.22654 -0.029956 0.18311
0.22696 -0.029115999 0.18355
0.22702999 -0.028674999 0.18369
0.22840001 -0.025367999 0.18522
0.22864 -0.021922 0.1859
0.22901 -0.021124 0.18616
0.22945 -0.015474 0.18777999
0.22973 -0.012836 0.18728
0.22962999 -0.011918 0.18765999
0.23007999 -0.011165 0.18798
0.23036 -0.0057917 0.18700001
0.22989 -0.0059465002 0.18737
0.22994 -0.0047752 0.18764
0.22981 -0.0029998 0.18788999
0.22936 -0.0011017 0.18743999
0.22953001 -0.0017685 0.18759
0.22916 0.00091528997 0.18679
0.22896001 0.0016277001 0.18630999
0.19754 0.0025011001 0.14035
0.19727001 0.0029023001 0.13878
0.22896001 0.0035542001 0.18640999
0.22879 0.0045241001 0.18626
0.19602001 0.0050236001 0.13752
0.19546001 0.0060743 0.13666999
0.19617 0.0053372998 0.13631
0.22885001 0.0056873998 0.18567
0.19474 0.0071422998 0.13655999
0.19543 0.0068708002 0.1354
0.19430999 0.0079490999 0.13524
0.22803 0.0079172002 0.18512
0.22815999 0.0069337999 0.18524
0.19385 0.0085867001 0.13483
0.22755 0.0090017002 0.18424
0.2273 0.0097973999 0.18377
0.19367 0.0096429 0.13417999
0.19292 0.011563 0.13356
0.19301 0.012089 0.13365
0.22719 0.01164 0.18415999
0.22735 0.012337 0.18402
0.19311 0.011878 0.13308001
0.22699 0.013337 0.18377
0.22596 0.015319 0.18231
0.22563 0.016049 0.1816
0.22474 0.018759999 0.18089999
0.22533999 0.019191001 0.18023001
0.22396 0.021251 0.17935
0.22356001 0.021731 0.17862999
0.22329 0.022409 0.178
0.22338 0.023248 0.17719001
0.22267 0.024194 0.17727999
0.2225 0.025103999 0.17670999
0.22194999 0.025723999 0.17636
0.22172 0.026217001 0.17549001
0.21984001 0.028410001 0.17338
0.21997 0.028743999 0.17264999
0.21870001 0.030564001 0.17128
0.21883 0.030995 0.17093
0.21746001 0.031966999 0.16936
0.21669 0.033105999 0.16891
0.21636 0.034456 0.1675
0.21569 0.035032999 0.16693
0.21514 0.035255998 0.16585
0.21465001 0.035966001 0.1646
0.21369 0.036437001 0.16452999
0.21471 0.035670001 0.16381
0.21162 0.039411999 0.16075
0.21211 0.038865 0.16151001
0.2368 0.045846 0.19845
0.23744 0.046259999 0.19855
0.23598 0.046744999 0.19659001
0.23627999 0.04659 0.19699
0.23768 0.046581 0.19922
0.2378 0.047068 0.19987001
0.23435 0.046666 0.19559
0.23544 0.047035001 0.19603001
0.235 0.04713 0.19554999
0.23424 0.047320001 0.19473
0.23135 0.047137 0.19002999
0.23828 0.047564 0.20052999
0.23274 0.047375001 0.19344001
0.23332 0.047940001 0.19299001
0.23311 0.047722001 0.19224
0.23863 0.048746001 0.20087001
0.23849 0.049573001 0.20055
0.23776001 0.049880002 0.19995999
0.23806 0.050448 0.19983999
0.23776001 0.050407 0.19927
0.23659 0.050809 0.19847
0.23633 0.050763 0.19809
0.23647 0.051162001 0.19775
0.23654 0.052205 0.19750001
0.23491 0.05325 0.19633
0.2348 0.054145001 0.1957
0.23502 0.053481001 0.19599999
0.23559999 0.054283001 0.19602001
0.23021001 0.055284001 0.18866
0.23469 0.055847999 0.19525
0.23425999 0.056023002 0.19481
0.23089001 0.055667002 0.18931
0.2344 0.056779999 0.19436
0.23349001 0.056439999 0.19371
0.22526 0.056472 0.18211
0.22601999 0.055923 0.18249001
0.23345999 0.056356002 0.19302
0.23271 0.056180999 0.19249
0.23228 0.056494001 0.19221
0.23259 0.056141999 0.19144
0.2322 0.056511998 0.19159999
0.22579999 0.056889001 0.18185
0.23344 0.056554001 0.19307999
0.23411 0.056868002 0.19385999
0.23157001 0.056478001 0.19103
0.22548001 0.057018999 0.18108
0.22454999 0.057014 0.18058001
0.22424001 0.057535 0.1794
0.22346 0.057556 0.17840999
0.2234 0.057618 0.17795999
0.21977 0.059032999 0.17308
0.21822999 0.059161 0.17053001
0.21759 0.059378002 0.16988
0.23317 0.071386002 0.19249
0.23244999 0.071629003 0.19362
0.23204 0.071439996 0.19310001
0.23342 0.071272999 0.19306
0.23301999 0.072485 0.19391
0.23368999 0.073229 0.19362
0.23425999 0.076017 0.19429
0.23394001 0.075010002 0.19420999
0.2362 0.078720003 0.19768
0.23591 0.077574998 0.19735
0.22212 0.079798996 0.17670999
0.22285999 0.080279998 0.17715999
0.22464 0.080605999 0.18035001
0.2247 0.080551997 0.17975
0.22411001 0.080539003 0.17882
0.22324 0.080334 0.17817
0.22097 0.081115 0.1751
0.23657 0.082089998 0.19819
0.2326 0.082176998 0.19225
0.23212001 0.081570998 0.19166
0.23151 0.082383998 0.18997
0.23667 0.082021996 0.19762
0.23666 0.082819998 0.1973
0.23385 0.083035 0.19394
0.23318 0.082631998 0.19301
0.23063999 0.082425997 0.18979
0.23085999 0.083001003 0.18933
0.23404001 0.083039001 0.19467001
0.22565 0.082975999 0.18188
0.23061 0.083904997 0.18903001
0.22631 0.084170997 0.18260001
0.23038 0.084123001 0.18886
0.22046 0.083952002 0.17411999
0.23043001 0.084762 0.18878999
0.2274 0.085211001 0.18453
0.21997 0.084817 0.17263
0.21928 0.085013002 0.17212
0.23057 0.085872002 0.18846001
0.22814 0.085800998 0.18485001
0.22987001 0.086120002 0.18802001
0.22935 0.086009003 0.18716
0.22861999 0.085997 0.18623
0.20374 0.086041003 0.14904
0.20351 0.086681001 0.14855
0.20308 0.086874001 0.14825
0.20279001 0.087736003 0.14735
0.20231 0.087889999 0.14647999
0.20179 0.088298999 0.14679
0.20083 0.089227997 0.14506
0.20035 0.089573003 0.14431
0.19945 0.090775996 0.14300001
0.19889 0.091146 0.14188001
0.19789 0.091315001 0.14072999
0.19807 0.090236999 0.14043
0.19734 0.091071002 0.14004
0.19848999 0.091340996 0.14132001
0.2203 -0.038674999 0.17535
0.22103 -0.038348999 0.17477
0.16881 -0.03847 0.096900001
0.22319999 -0.036704998 0.17753001
0.22397 -0.036175001 0.17730001
0.22716001 -0.028228 0.18352
0.22802 -0.0277 0.18339001
0.22830001 -0.026595 0.18433
0.22879 -0.024207 0.18561
0.22930001 -0.024064001 0.18524
0.22852001 -0.024394 0.18573
0.2297 -0.019141 0.18701001
0.22964001 -0.016648 0.18751
0.22946 -0.013857 0.18714
0.23016 -0.010328 0.18810999
0.23024 -0.0086703002 0.18798999
0.22973999 -0.0069757001 0.18754999
0.2297 0.00017101 0.18683
0.23009001 0.00027705001 0.18646
0.22908001 0.0027987 0.18611
0.19789 0.0019833001 0.14061999
0.19607 0.0045539001 0.13787
0.22843 0.0065258001 0.18574999
0.22756 0.010528 0.18404999
0.19361 0.010214 0.13362999
0.19373 0.0097620003 0.13362999
0.22689 0.014189 0.18308
0.22189 0.02637 0.17484
0.22022 0.029549999 0.17218
0.22018 0.028893 0.17246
0.22014999 0.029665001 0.1717
0.2176 0.031798001 0.16907001
0.21492 0.035259999 0.16496
0.21274 0.037778001 0.16205999
0.22951999 0.046434999 0.18711001
0.22799 0.046174999 0.18701001
0.22824 0.046289001 0.18544
0.23727 0.046670999 0.19757
0.23528001 0.047664002 0.19510999
0.23436999 0.047786001 0.19454999
0.23684999 0.051132999 0.19837999
0.23669 0.053134002 0.19727001
0.23624 0.054087002 0.19651
0.22576 0.055077001 0.18312
0.22664 0.055023 0.18345
0.2349 0.056602001 0.19505
0.22651 0.056600001 0.18201999
0.2251 0.057307001 0.18016
0.21892001 0.059296001 0.17115
0.23656 0.079053 0.19791
0.22236 0.080084004 0.1767
0.22195999 0.079788998 0.17606001
0.22154 0.080337003 0.175
0.23345 0.082897998 0.19292
0.23311999 0.082631998 0.19223
0.22545999 0.082378 0.18178
0.23535 0.083341002 0.19566999
0.23563001 0.084013999 0.19469
0.23118 0.085042 0.18882
0.22766 0.085607998 0.18408
0.22849 0.086222999 0.18573999
0.23026 0.086138003 0.1876
0.22956 0.086443998 0.18683
0.2289 0.086583003 0.18633001
0.19954 0.087544002 0.14263999
0.19882999 0.088652998 0.14191
0.19939999 0.088255003 0.14241999
0.19866 0.087774001 0.14228
0.19846 0.089528002 0.14155
0.1989 0.089308001 0.14157
0.1983 0.089055002 0.14196
0.19837999 0.090017997 0.14103
0.16779999 -0.040915001 0.094218001
0.16843 -0.040424999 0.095064998
0.16963001 -0.035707999 0.097629003
0.16949999 -0.037037 0.097000003
0.16979 -0.036777001 0.097188003
0.22485 -0.034382001 0.17966001
0.22664 -0.032152999 0.18138
0.22686 -0.030471001 0.18237001
0.22919001 -0.021839 0.18535
0.22962999 -0.020664001 0.18544
0.23038 -0.017604999 0.18732999
0.23034 -0.018153001 0.18695
0.22942001 -0.014387 0.18738
0.23019999 -0.013211 0.18692
0.23082 -0.011193 0.18758
0.23036 -0.0067766998 0.18719999
0.23074 -0.0040350999 0.18712001
0.23054001 -0.0050365999 0.18693
0.23069 -0.0027083999 0.18756001
0.22942001 0.002265 0.18578
0.22958 0.0015649 0.18565001
0.198 0.002138 0.13926999
0.19757999 0.0033354999 0.13841
0.19697 0.0041737999 0.13722
0.22902 0.0052858 0.18572
0.19643 0.0049262 0.13683
0.22920001 0.0061380998 0.18516999
0.19499999 0.0073479 0.13519
0.22793999 0.009234 0.18388
0.22737999 0.012982 0.18347999
0.22592001 0.016566999 0.18080001
0.22598 0.01701 0.1803
0.22521 0.019952999 0.17973
0.22476999 0.02062 0.1788
0.22367001 0.022291999 0.17755
0.22267 0.025211001 0.17625999
0.21882001 0.031111 0.16977
0.2193 0.030966001 0.16998
0.21725 0.033581 0.16768999
0.21517 0.035269 0.16444001
0.21452001 0.036150999 0.16324
0.21402 0.036385 0.16325
0.2137 0.037064999 0.16271
0.21307001 0.037884001 0.16164
0.21251 0.038897999 0.16189
0.23695 0.047106002 0.197
0.23571999 0.047302999 0.19565
0.23908 0.049479999 0.2007
0.23918 0.048932999 0.20081
0.23853 0.050321002 0.20017999
0.23876999 0.051146001 0.19926
0.23808999 0.051463999 0.19848999
0.23751999 0.051297002 0.19855
0.23739 0.051833 0.19789
0.23717 0.052301999 0.19784001
0.2358 0.054533001 0.19592001
0.23659 0.054969002 0.19607
0.23601 0.055195 0.19581001
0.23566 0.055684 0.19551
0.23175 0.055470999 0.18872
0.23404001 0.056182999 0.19244
0.23458 0.057045002 0.19327
0.23554 0.056853 0.19462
0.23496 0.057179999 0.19422001
0.23514 0.057294998 0.19405
0.23443 0.057376001 0.19434001
0.22517 0.057303 0.17937
0.22441 0.057769999 0.17831001
0.22034 0.058795001 0.17358001
0.22046 0.058889002 0.17229
0.21969 0.059416998 0.17103
0.21885 0.059386998 0.1698
0.23659 0.078801997 0.19691999
0.23716 0.079421997 0.19683
0.22168 0.080902003 0.17428
0.22133 0.081253998 0.17366
0.23740999 0.081263997 0.19754
0.23231 0.082335003 0.19029
0.23214 0.082657002 0.18986
0.23273 0.082465 0.19086
0.23560999 0.083718002 0.19565
0.23532 0.083926 0.19512001
0.23542 0.083939001 0.19388001
0.23608001 0.084394 0.19424
0.22667 0.084624 0.18244
0.20423 0.085257001 0.14999001
0.23120999 0.085925996 0.18824001
0.23119 0.086446002 0.18796
0.23046 0.086819999 0.18725
0.22879 0.086736001 0.18504
0.22863001 0.086699001 0.18572
0.2041 0.086485997 0.14812
0.22994 0.086781003 0.18669
0.20352 0.087113 0.14738999
0.20359001 0.087022997 0.14782999
0.20268001 0.088376999 0.14573
0.20282 0.087796003 0.14647
0.20155001 0.088960998 0.14518
0.20096999 0.089559004 0.14388999
0.19983999 0.090690002 0.14223
0.1681 -0.040702999 0.095086999
0.16914999 -0.039384998 0.096065998
0.16847 -0.039756998 0.095517002
0.1693 -0.038520001 0.096642002
0.16892999 -0.039058 0.096350998
0.16941001 -0.037753999 0.096735999
0.22335 -0.036940001 0.17652
0.22327 -0.037287001 0.1763
0.22364999 -0.036478002 0.17698
0.22451 -0.035478 0.17789
0.22499999 -0.034529001 0.17876001
0.22528 -0.033741001 0.17930999
0.22565 -0.033406999 0.17981
0.22604001 -0.033146001 0.17993
0.22673 -0.032731 0.18007
0.22616 -0.033032998 0.17963
0.22691 -0.030999999 0.18187
0.22687 -0.031734999 0.18185
0.2273 -0.030463001 0.18212999
0.22755 -0.029394999 0.18261001
0.22782999 -0.028215 0.1831
0.22892 -0.025751 0.18443
0.22879 -0.025126999 0.18464001
0.22964001 -0.020675 0.18602
0.23018999 -0.019982999 0.18610001
0.23024 -0.019422 0.18672
0.23022 -0.013436 0.18698999
0.23057 -0.012204 0.18734001
0.23105 -0.01069 0.18751
0.23035 -0.0020732 0.18707
0.23059 -0.0012143 0.18681
0.19796 0.0026636999 0.13853
0.19834 0.0019739 0.13986
0.22976001 0.0041534998 0.18554001
0.23004 0.0034572999 0.18498001
0.23022 0.0042750998 0.185
0.19745 0.0035866001 0.13807
0.22923 0.0037916999 0.18574999
0.19712999 0.0040128999 0.13767
0.19716001 0.0040556998 0.13644999
0.19566999 0.0058484999 0.13618
0.22913 0.0054498999 0.18548
0.19621 0.0058889999 0.13501
0.22888 0.0068283002 0.18486001
0.22933 0.0081310999 0.18350001
0.22874001 0.0080736 0.18402
0.22911 0.0075449999 0.18424
0.19512001 0.0073330002 0.13502
0.1946 0.0076354002 0.13448
0.19468001 0.0080586001 0.13398001
0.22845 0.0085885003 0.18373001
0.19454999 0.0084555 0.13383
0.22787 0.0095979003 0.18354
0.19399001 0.0098531004 0.13297001
0.22781 0.011522 0.18351001
0.22745 0.01321 0.18344
0.22758 0.014117 0.18282001
0.22693001 0.014434 0.18256
0.22687 0.015412 0.1815
0.22585 0.017906001 0.18001001
0.22571 0.018757001 0.18024001
0.22604001 0.019459 0.17906
0.22465999 0.02097 0.17869
0.2245 0.021625999 0.17808001
0.22393 0.022814 0.17656
0.22356001 0.023011999 0.17712
0.22307 0.024524 0.17622
0.22352 0.024893999 0.17577
0.22349 0.025065999 0.17501999
0.22198001 0.026285 0.17498
0.22171 0.026662 0.17399
0.22149 0.027117001 0.17378999
0.22125 0.027272999 0.17321999
0.22182 0.026945001 0.17313001
0.22171 0.02736 0.17256001
0.22079 0.027852001 0.17305
0.21986 0.030161001 0.17125
0.21966 0.030528 0.17083
0.21813001 0.031553999 0.16897
0.21791001 0.031810001 0.16859999
0.21788999 0.032122999 0.16832
0.21701001 0.033978 0.16683
0.2165 0.034389999 0.16621
0.21627 0.034626 0.1662
0.21619 0.034752 0.16562
0.21359 0.03734 0.16243
0.21280999 0.038483001 0.16087
0.21255 0.038718998 0.16041
0.21198 0.039613999 0.16021
0.21148001 0.040095001 0.15992001
0.21176 0.039416 0.15967
0.23796999 0.046868 0.19848999
0.23864999 0.047153 0.19933
0.23769 0.047132 0.19786
0.23918 0.047681 0.19986001
0.23363 0.047963001 0.19193
0.23432 0.047919001 0.19261999
0.23944999 0.048935998 0.20074999
0.23951 0.049555 0.20055
0.23975 0.050117999 0.20045
0.23904 0.050546002 0.20017999
0.24052 0.050570998 0.20051999
0.23957001 0.051522002 0.19946
0.23727 0.051394001 0.1981
0.23781 0.053013001 0.19768
0.23732001 0.053596999 0.19733
0.23638999 0.054265998 0.1961
0.23607001 0.055902999 0.19575
0.23616 0.05649 0.19533999
0.23401999 0.056561999 0.19284999
0.23349001 0.055799998 0.19185001
0.22706001 0.057020001 0.18183
0.22618 0.057277001 0.18155999
0.22624999 0.057312999 0.18109
0.22581001 0.057165001 0.18089999
0.22634999 0.057257999 0.18042
0.22554 0.057246 0.17976999
0.22538 0.057831001 0.17773999
0.22403 0.057785999 0.17754
0.22373 0.057781 0.17693
0.22292 0.057783 0.17641
0.22113 0.058642998 0.17468999
0.2211 0.058975998 0.17304
0.21826001 0.059487 0.16931
0.21960001 0.059151001 0.1714
0.23395 0.071437001 0.19246
0.23359001 0.071418002 0.19194999
0.23390999 0.072173998 0.19258
0.23383 0.072205998 0.19181
0.23427001 0.072370999 0.19318999
0.23449001 0.073274001 0.19333
0.23678 0.078442998 0.19633
0.22257 0.079829 0.1752
0.23741999 0.080133997 0.19724
0.22329 0.080411002 0.17668
0.22228 0.079791002 0.17512
0.22204 0.080421999 0.17456
0.23735 0.080429003 0.19753
0.22468001 0.080622002 0.17823
0.22386999 0.080613002 0.17722
0.23776001 0.081256002 0.19735999
0.23713 0.082204998 0.1974
0.22112 0.082272001 0.17395
0.23702 0.083172999 0.1969
0.23315001 0.083093002 0.19092
0.23216 0.082644001 0.18945
0.22082999 0.082567997 0.17381001
0.22116999 0.082144 0.1728
0.2209 0.082912996 0.17306
0.23187 0.083012 0.18874
0.23642001 0.083141997 0.19667
0.23463 0.083906002 0.19351
0.23681 0.083717003 0.19609
0.23377 0.083360001 0.19172999
0.23157001 0.083925001 0.18873
0.22068 0.083763003 0.17301001
0.23627 0.084077999 0.19535001
0.23164999 0.084922001 0.18865
0.22737999 0.084921002 0.18215001
0.22706001 0.084344 0.18159001
0.2201 0.084165998 0.17226
0.22742 0.085256003 0.18269999
0.2316 0.085864 0.18863
0.228 0.085827999 0.18344
0.22761001 0.085698999 0.18295
0.20423999 0.086173996 0.14913
0.22824 0.086202003 0.18268999
0.20479999 0.085336998 0.14958
0.22906999 0.086600997 0.18450999
0.22807001 0.086145997 0.18446
0.22955 0.087093003 0.18565001
0.2032 0.087540999 0.14654
0.20013 0.087990999 0.14274
0.19994 0.088326998 0.14212
0.19977 0.08901 0.14193
0.19949999 0.089175999 0.14131001
0.20066001 0.089764997 0.14328
0.19929001 0.089616001 0.14105
0.20087001 0.090051003 0.14295
0.19924 0.090457998 0.14052001
0.20042001 0.090657003 0.14222001
0.19983 0.091038004 0.14143001
0.19836 0.090981998 0.14052001
0.19934 0.091054998 0.14106999
0.22089 -0.039170999 0.17286
0.22175001 -0.038927998 0.17279001
0.2219 -0.038897 0.17325
0.22431 -0.036594 0.17637999
0.22618 -0.032644998 0.18064
0.22751001 -0.031041 0.18143
0.22741 -0.031892002 0.18059
0.22768 -0.029338 0.18282001
0.22804999 -0.028158 0.18286
0.22845 -0.027842 0.18265
0.22871 -0.028333999 0.1824
0.2286 -0.027445 0.18262
0.2295 -0.025545999 0.18404999
0.22928999 -0.026217001 0.18356
0.22901 -0.025195001 0.18475001
0.23091 -0.019157 0.18592
0.23041999 -0.015504 0.18684
0.23083 -0.013535 0.18653999
0.23094 -0.012994 0.18627
0.23052 -0.012664 0.18693
0.23167001 -0.011339 0.18681
0.23084 -0.0089173 0.18731999
0.23157001 -0.0099910004 0.18700001
0.23101 -0.0086869001 0.18719
0.23056 -0.0072277002 0.18719
0.23136 -0.0038848 0.18702
0.2313 -0.0029400999 0.18688001
0.23010001 -0.00023027 0.1866
0.23092 -0.00027259 0.18617
0.22984999 0.0010105 0.18595
0.19776 0.0035476999 0.13718
0.19584 0.0064579998 0.13519
0.19478001 0.0084809 0.13267
0.19447 0.0092582004 0.13327999
0.19382 0.010167 0.13285001
0.19375999 0.010638 0.13254
0.22816999 0.010517 0.18301
0.22878 0.012102 0.18285
0.22807001 0.012616 0.18314999
0.22788 0.013252 0.18288
0.22713 0.014506 0.18189999
0.22770999 0.015171 0.18156999
0.22621 0.0197 0.17874999
0.22487 0.021786001 0.17708001
0.22390001 0.024073999 0.17550001
0.2226 0.025659001 0.1752
0.22074001 0.028240001 0.17252
0.22103 0.028718 0.17174999
0.22048999 0.029843001 0.17088
0.21905001 0.031195 0.16881999
0.21863 0.031585999 0.16795
0.21782 0.032467999 0.16773
0.21783 0.032426 0.16721
0.21765 0.032804001 0.16714001
0.21714 0.033516999 0.16728
0.21529999 0.035323001 0.16414
0.21315999 0.038020998 0.16112
0.23910999 0.047277 0.19938
0.23476 0.048121002 0.19428
0.23486 0.048436001 0.19336
0.23514 0.048259001 0.19392
0.24026 0.048074 0.20012
0.24059001 0.048542 0.20028999
0.23817 0.052142002 0.19796
0.23716 0.053998999 0.19709
0.23788001 0.053897999 0.19754
0.23672 0.055695999 0.19580001
0.23703 0.056839999 0.19521999
0.23548 0.057023 0.19273999
0.23496 0.056419 0.19230001
0.22945 0.05607 0.18571
0.22908001 0.056363001 0.18539999
0.22924 0.056352999 0.18547
0.22698 0.057477001 0.18081
0.22486 0.057693001 0.17697001
0.22427 0.057884999 0.17625999
0.22351 0.058150999 0.1753
0.22073001 0.058952 0.17171
0.23443 0.073455997 0.19228999
0.23451 0.073946998 0.19324
0.23626 0.078066997 0.19599
0.23616 0.078011997 0.19546001
0.23608001 0.078001998 0.19501001
0.23602 0.077781998 0.19536
0.22155 0.081570998 0.17324001
0.23255999 0.082515001 0.19004001
0.22097 0.082009003 0.17177001
0.22081999 0.082428001 0.17213
0.22044 0.083186001 0.17227
0.23415001 0.083954997 0.19232
0.23246001 0.084221996 0.18873
0.23236001 0.085942 0.18866
0.20537999 0.085766003 0.14822
0.22829001 0.086400002 0.18367
0.20207 0.088751003 0.14505
0.20190001 0.088818997 0.14448
0.20178001 0.089275002 0.14320999
0.20126 0.089791 0.14256001
0.16887 -0.040027998 0.094766997
0.16954 -0.039177999 0.095201999
0.16914999 -0.038756002 0.095789999
0.16971999 -0.038169 0.095702
0.16976 -0.037163001 0.096070997
0.22396 -0.036961 0.17606001
0.17005999 -0.03723 0.096707001
0.16996001 -0.036871001 0.096693002
0.22454 -0.035884999 0.17725
0.22504 -0.035555001 0.1777
0.22621 -0.034972001 0.17775001
0.22524001 -0.034657001 0.17787001
0.22583 -0.035177998 0.17693
0.22571 -0.034219 0.17832001
0.22622 -0.033498 0.17910001
0.22733 -0.031472001 0.18106
0.22757 -0.029859999 0.18199
0.22827999 -0.029245 0.18223
0.22948 -0.025324 0.18453
0.22985999 -0.024754999 0.18446
0.23030999 -0.021113999 0.18495999
0.23005 -0.02156 0.18493
0.23026 -0.02036 0.18539
0.23059 -0.019960999 0.18588001
0.23089001 -0.016135 0.18683
0.23101 -0.011974 0.18691
0.23112001 -0.0091463998 0.18727
0.23085999 -0.0058781002 0.18626
0.2309 -0.0049509001 0.18661
0.23118 -0.0021858001 0.18663
0.23113 -0.001374 0.18629
0.23095 0.00087839999 0.1855
0.23092 0.00026249999 0.18565001
0.23019999 0.0017048999 0.18533
0.22988001 0.0024415001 0.1851
0.19833 0.0023445 0.13766
0.19797 0.0029559999 0.13775
0.22988001 0.0061856001 0.18440001
0.23010001 0.0049021998 0.18525
0.19712 0.0043095001 0.13595
0.19660001 0.0052892999 0.13482
0.19672 0.0048253001 0.13552999
0.22946 0.0066137002 0.18445
0.19486 0.0078555997 0.13367
0.19513001 0.0071020001 0.13345
0.22906999 0.0089710001 0.18312
0.2286 0.0095523 0.18273
0.19436 0.0094683999 0.13273001
0.19437 0.0097182002 0.13231
0.22844 0.010408 0.18248001
0.22823 0.012264 0.18273
0.22864 0.012403 0.18260001
0.2282 0.01345 0.18232
0.22761001 0.013803 0.18203001
0.22691 0.015985999 0.18071
0.22716001 0.01567 0.18088999
0.22693001 0.0164 0.18027
0.22657999 0.016983001 0.17978001
0.22656 0.018060001 0.17938
0.22644 0.018577 0.17930999
0.2256 0.02032 0.17856
0.22436 0.022196 0.17698
0.22413 0.02306 0.17613
0.22436 0.022636 0.17643
0.22308999 0.025706001 0.17474
0.22254001 0.0262 0.17374
0.22138 0.027607 0.17229
0.22145 0.02764 0.17200001
0.22012 0.030443 0.1701
0.21981999 0.030551 0.16946
0.2194 0.031012001 0.16909
0.21842 0.031727999 0.16735999
0.21799 0.033192001 0.16666999
0.21754999 0.033666998 0.16614
0.21682 0.034026999 0.16613001
0.21673 0.034336001 0.16495
0.21629 0.034517001 0.16516
0.21619 0.034875002 0.16435
0.21536 0.035043001 0.16384
0.21536 0.035248999 0.16291
0.21495999 0.035677999 0.16315
0.21438999 0.036802001 0.16189
0.21417999 0.037043002 0.16095001
0.21343 0.037574999 0.16089
0.21345 0.037849002 0.16068999
0.21263 0.038391002 0.15990999
0.21265 0.038801 0.15909
0.21196 0.039363999 0.15903001
0.23929 0.047150999 0.19852
0.23838 0.047192998 0.19755
0.24015 0.047591001 0.19941001
0.23604999 0.048264001 0.19475
0.2361 0.048657998 0.19417
0.23683999 0.048785999 0.19467001
0.23602 0.048349001 0.19349
0.23528001 0.048381001 0.19283
0.24067 0.049796999 0.20048
0.23920999 0.051275 0.19957
0.23925 0.052175999 0.19875
0.23872 0.052434999 0.19841
0.23896 0.053057 0.19792999
0.23885 0.054079998 0.19746999
0.23836 0.054285001 0.19739
0.23841 0.053699002 0.19753
0.23804 0.055399001 0.19645999
0.23745 0.054641001 0.19666
0.23889001 0.054574002 0.19708
0.23749 0.055119 0.19622
0.23377 0.055100001 0.19055
0.23326001 0.055411 0.1909
0.23351 0.055406999 0.19111
0.23738 0.055932999 0.19587
0.23404001 0.055668 0.19137
0.235 0.056253001 0.19196001
0.23616999 0.057096001 0.19465999
0.23627 0.057425 0.19416
0.23582 0.057459 0.19348
0.22748999 0.057305999 0.18172
0.22785001 0.057466999 0.18127
0.22689 0.057305999 0.18015
0.22617 0.057346001 0.17934
0.22577 0.057464 0.17879
0.22075 0.059130002 0.17095999
0.2198 0.059441 0.17021
0.23776001 0.080337003 0.19660001
0.23727 0.079429001 0.19566
0.22247 0.079669997 0.17451
0.22218999 0.080485001 0.17387
0.22485 0.080496997 0.17709
0.22432999 0.080261 0.17625
0.22201 0.081148997 0.1733
0.22139999 0.081284001 0.17242999
0.23784 0.081180997 0.19633999
0.23796999 0.082268998 0.19647001
0.23785999 0.083283998 0.19642
0.23301999 0.083249003 0.18988
0.23263 0.083364002 0.18914001
0.23736 0.083655998 0.19648001
0.23336001 0.083307996 0.19057
0.23451 0.084205002 0.19126
0.23739 0.083921 0.19582
0.23689 0.084408 0.19514
0.23488 0.084247001 0.19247
0.23568 0.084452003 0.19365001
0.23525999 0.084399 0.19306
0.23217 0.085095003 0.18863
0.22765 0.085182004 0.18158001
0.23291001 0.085619003 0.18858001
0.22799 0.085950002 0.1823
0.23244999 0.087012999 0.18826
0.22876 0.086488999 0.18329
0.23196 0.086795002 0.18793
0.22897001 0.086860001 0.18376
0.23109999 0.086934 0.18718
0.23122001 0.087288998 0.18664999
0.23093 0.087527998 0.186
0.22951999 0.087068997 0.18479
0.22989 0.087599002 0.18531001
0.2297 0.087246001 0.18455
0.20479 0.086636998 0.14684001
0.20428 0.087255999 0.14645
0.20359001 0.088096 0.14552
0.20067 0.088861004 0.14112
0.20302001 0.088384002 0.14453
0.20034 0.089409001 0.14097001
0.19965 0.089868002 0.14069
0.20005 0.090141997 0.14069
0.20097999 0.090066001 0.1417
0.20026 0.090336002 0.14111
0.2001 0.090682 0.14153001
0.16891 -0.040273 0.093598999
0.16858999 -0.040800001 0.093718998
0.22395 -0.037289999 0.17562
0.22476999 -0.036017999 0.17691
0.22821 -0.030137001 0.18153
0.23015 -0.025153 0.18385001
0.23005 -0.022977 0.18423
0.22984 -0.023322999 0.18474001
0.23092 -0.017216001 0.18622001
0.23096 -0.018157 0.18614
0.23125 -0.016355 0.18618999
0.23221 -0.010188 0.18656
0.23227 -0.0097735003 0.18641999
0.23119999 -0.0061710002 0.18657
0.23153999 -0.0012399 0.18581
0.23106 0.0010112 0.18497001
0.19825 0.0028639999 0.13728
0.23041999 0.0031866 0.18391
0.23032001 0.0033008 0.18453
0.19526 0.0080003999 0.13281
0.22785001 0.014181 0.18189
0.22626001 0.019592 0.17821001
0.22538 0.021272 0.17765
0.22487 0.022582 0.17544
0.22283 0.026450999 0.17310999
0.22101 0.028999999 0.17102
0.22044 0.030056 0.17017999
0.21987 0.030619999 0.1682
0.21403 0.037105002 0.16029
0.23848 0.047738999 0.19732
0.24042 0.051151998 0.19998001
0.22953001 0.056697998 0.18457
0.2304 0.056092001 0.18525
0.22859 0.057208002 0.18319
0.22888 0.057257 0.18262
0.22858 0.057406999 0.18203001
0.22181 0.058781002 0.17239
0.22227 0.058607999 0.17338
0.22337 0.058469001 0.17419
0.22135 0.059259001 0.17113
0.21963 0.059459001 0.16955
0.22362 0.080228999 0.17573
0.22222 0.080311 0.17326
0.23379999 0.083809003 0.1902
0.23288999 0.084054001 0.18887
0.23359001 0.083832003 0.18963
0.23677 0.084840998 0.19399001
0.23763999 0.084512003 0.19445001
0.23703 0.084940001 0.19406
0.23562001 0.084499002 0.19244
0.23558 0.084753998 0.19171999
0.23621 0.084937997 0.19341999
0.23297 0.084913999 0.18854
0.20507 0.086305998 0.14763001
0.20497 0.086231999 0.14782999
0.22976001 0.086912997 0.18388
0.23208 0.087118 0.18735
0.20466 0.087397002 0.14568999
0.20422 0.087618001 0.14506
0.20100001 0.088376001 0.14173
0.20296 0.088706002 0.14399
0.16954 -0.039650001 0.093681
0.16935 -0.039999999 0.093180001
0.16949999 -0.039531 0.094612002
0.16971 -0.038651001 0.095138997
0.22454 -0.037018999 0.17505001
0.22475 -0.036485001 0.17561001
0.2265 -0.033829998 0.17803
0.22612999 -0.033636 0.17856
0.22708 -0.032676999 0.17948
0.22717001 -0.032832999 0.17903
0.22737999 -0.032221999 0.18020999
0.22882999 -0.029108001 0.18154
0.22942001 -0.026826 0.18288
0.23073 -0.02196 0.18437999
0.23157001 -0.018963 0.18550999
0.23119999 -0.012295 0.18629999
0.23270001 -0.011019 0.18547
0.23167001 -0.0075947 0.18643001
0.23152 -0.0080102002 0.18649
0.23185 -0.0038043 0.18616
0.23176999 -0.0027478 0.18619999
0.23069 0.0017841 0.18476
0.23023 0.0025154999 0.18461999
0.23030999 0.0051165 0.18447
0.23047 0.0052725999 0.18427999
0.19572 0.0065792999 0.13404
0.19568001 0.0069672 0.13299
0.19569001 0.0071339002 0.13252001
0.22932 0.0085127 0.18319
0.19461 0.0090092998 0.13219
0.19509999 0.0090138996 0.13166
0.19445001 0.0097006997 0.13095
0.22927999 0.0097297002 0.18167
0.19414 0.010674 0.13116001
0.22889 0.010807 0.18206
0.22882 0.012084 0.18231
0.22858 0.014242 0.18087
0.22803 0.014573 0.18043
0.22812 0.015144 0.18013
0.22686 0.018887 0.17857
0.22612 0.021090999 0.17766
0.22556999 0.021095 0.1768
0.22439 0.023367999 0.17532
0.22447 0.024067 0.17495
0.2244 0.024472 0.1745
0.22352999 0.025146 0.17411999
0.22344001 0.025502 0.17395
0.22356001 0.025874 0.17335001
0.22172 0.028139999 0.17138
0.22146 0.028857 0.17076001
0.22126999 0.029518999 0.17045
0.22056 0.030306 0.16945
0.21973 0.03088 0.16745999
0.2186 0.031947002 0.16677999
0.21799999 0.032515001 0.16666
0.21762 0.033271 0.16532999
0.21717 0.034157999 0.16452999
0.21461999 0.036060002 0.1618
0.21471 0.036385 0.16131
0.23962 0.047603 0.19850001
0.24099 0.049208 0.20045
0.24121 0.049614001 0.20062999
0.24097 0.050207 0.20039999
0.23999999 0.051998999 0.19912
0.23919 0.055002 0.19687
0.23024 0.054793999 0.18539999
0.23096 0.054738 0.18598001
0.23106 0.055597998 0.18545
0.23788001 0.055734999 0.19597
0.235 0.055904999 0.19046
0.23449001 0.055319 0.19012
0.23755001 0.056766 0.19524001
0.2385 0.055950001 0.1961
0.23562001 0.05663 0.19157
0.23039 0.056515001 0.18485001
0.23040999 0.057245001 0.18378
0.22939 0.056958999 0.18377
0.23706 0.057546001 0.19479001
0.23666 0.057898 0.19397999
0.23759 0.057788 0.19471
0.22815 0.057516001 0.18010999
0.227 0.057720002 0.17895
0.22085001 0.058963999 0.17139
0.22177 0.059163 0.17161
0.22229999 0.059000999 0.17195
0.22093999 0.059528999 0.1699
0.22040001 0.059595 0.16906001
0.23641001 0.078365996 0.1925
0.23551001 0.077682003 0.19346
0.23557 0.077756003 0.19294
0.23735 0.080219999 0.19442999
0.23747 0.080392003 0.19514
0.23706999 0.079393998 0.19521999
0.23799001 0.081073999 0.19574
0.23784 0.080730997 0.19572
0.23799001 0.083484001 0.19593
0.23718999 0.084519997 0.19485
0.23521 0.084698997 0.19113
0.23617999 0.085141003 0.19198
0.23648 0.084853999 0.19282
0.20593999 0.085120998 0.14837
0.20606001 0.085666999 0.14788
0.23327 0.086754002 0.18785
0.23074 0.087637998 0.18456
0.23194 0.087816998 0.18561999
0.20298 0.088500999 0.14377999
0.20407 0.088215999 0.14296
0.20173 0.089933001 0.14252999
0.20072 0.089589998 0.14077
0.22226 -0.039112002 0.17196999
0.17011 -0.038185999 0.094796002
0.1701 -0.039023999 0.094561003
0.22555999 -0.03585 0.17653
0.22545999 -0.036458001 0.17535
0.22802 -0.031463999 0.18026
0.22766 -0.032164998 0.17986999
0.22877 -0.031246999 0.17978001
0.22857 -0.031920001 0.1796
0.22854 -0.029826 0.18116
0.22916999 -0.028154001 0.18181001
0.22939999 -0.027269 0.18216
0.22959 -0.026350999 0.18294001
0.23019999 -0.025681 0.18353
0.23046 -0.024224 0.18382999
0.23061 -0.022699 0.18426
0.23106 -0.020843999 0.18453
0.23124 -0.020133 0.18482
0.23137 -0.019471999 0.18555
0.23179001 -0.014497 0.18567
0.23165999 -0.012684 0.18554001
0.23203 -0.012105 0.18561
0.23190001 -0.011468 0.18616
0.23198999 -0.0080888998 0.18619999
0.23172 -0.0054644002 0.18559
0.23162 -0.0050996998 0.18558
0.23156001 -0.0044256002 0.18618999
0.23197 -0.0021754999 0.18602
0.23139 0.00060425 0.1849
0.23163 -0.00010044 0.18531001
0.23074999 0.0020758 0.18445
0.23067001 0.0025921999 0.18409
0.23052 0.0042878999 0.18434
0.23129 0.0034161999 0.18356
0.19722 0.0049132998 0.13494
0.23058 0.0062026 0.18396001
0.23034 0.0072503998 0.18325
0.19593 0.0062918998 0.13286
0.22981 0.0078656003 0.18302999
0.2296 0.0089726001 0.18268999
0.19487 0.0084039001 0.13241
0.19527 0.0080374004 0.13203999
0.23029999 0.0088122003 0.18204001
0.2295 0.0093203997 0.18194
0.22937 0.0094879996 0.1823
0.22984999 0.0098061999 0.18128
0.22916999 0.010425 0.18156999
0.19402 0.010662 0.12985
0.22894999 0.011368 0.1821
0.22898 0.012818 0.18174
0.22904 0.013207 0.18137001
0.22696 0.017023999 0.17905
0.22559001 0.021493999 0.17639001
0.22218999 0.027264001 0.17133
0.22115 0.029671 0.16986001
0.22048999 0.029984999 0.16898
0.21834999 0.032361999 0.16609
0.21821 0.032942999 0.1662
0.21681 0.034123 0.16401
0.21639 0.034355 0.16413
0.21623001 0.034883 0.16308001
0.21556 0.03531 0.16198
0.21545 0.035080999 0.16161001
0.2149 0.035891 0.16157
0.24018 0.047536999 0.19819
0.2406 0.047779001 0.19874001
0.23921999 0.047637999 0.19763
0.23973 0.047816001 0.19772001
0.24109 0.048099 0.19982
0.24112 0.048606001 0.20024
0.23841999 0.048613001 0.19636001
0.23810001 0.048351001 0.19614001
0.23767 0.048454002 0.19566
0.23638999 0.048705999 0.19324
0.23592 0.048252001 0.19207001
0.23694 0.048640002 0.19185001
0.23627999 0.048216999 0.19112
0.24172001 0.049011 0.20026
0.23788001 0.049040999 0.19537
0.23727 0.049127001 0.19478001
0.24171001 0.049605999 0.20058
0.23811001 0.049297001 0.19481
0.24156 0.050209999 0.20056
0.24101 0.050827 0.20047
0.24109 0.051431 0.19998001
0.24157 0.051135998 0.20017
0.24101 0.052437998 0.19908001
0.24137001 0.052067 0.19973999
0.23978999 0.052517001 0.19854
0.24016 0.052990999 0.19807
0.23980001 0.053552002 0.19771001
0.23959 0.054285001 0.19771001
0.23939 0.054685999 0.19727001
0.23921999 0.055677999 0.19651
0.23879001 0.055484001 0.19643
0.23135 0.056024 0.18568
0.23818 0.056852002 0.19552
0.23536 0.056357 0.19133
0.23608001 0.057117 0.19237
0.23101 0.056793001 0.18471
0.23167001 0.056793001 0.18522
0.23642001 0.057388999 0.19235
0.23811001 0.057939999 0.19501001
0.23013 0.057209998 0.18327001
0.2298 0.057394002 0.18313
0.22942001 0.057418998 0.18238001
0.22896001 0.057549998 0.18165
0.22852001 0.057711001 0.18117
0.23639999 0.057905 0.19324
0.22934 0.057388999 0.18037
0.22864 0.057496 0.17987999
0.22796001 0.057514001 0.17973
0.22667 0.057723999 0.1779
0.22593001 0.057886999 0.17738
0.22605 0.058191001 0.17612
0.22559001 0.058052 0.17532
0.22468001 0.058324002 0.17531
0.23692 0.058573 0.19405
0.23772 0.058880001 0.19435
0.22382 0.058253001 0.17529
0.22379 0.058253001 0.17426001
0.22395 0.058658 0.17364
0.22212 0.059342999 0.17151999
0.2218 0.059317 0.17059
0.23638999 0.077597 0.19226
0.23604 0.078340001 0.19326
0.23637 0.078725003 0.19284999
0.2366 0.078720003 0.19495
0.23691 0.079144999 0.19422001
0.23801 0.081239998 0.19507
0.23826 0.082066998 0.19592001
0.23829 0.082128003 0.19552
0.23807 0.082865 0.19528
0.23785999 0.083945997 0.19502001
0.23785999 0.084210001 0.19476999
