# .PCD v0.7 - Point Cloud Data file format
VERSION 0.7
FIELDS x y z
SIZE 4 4 4
TYPE F F F
COUNT 1 1 1
WIDTH 1627
HEIGHT 1
VIEWPOINT 0 0 0 1 0 0 0
POINTS 1627
DATA ascii
0.0052989 0.092326999 0.20566
0.0051972 0.092505001 0.20539001
0.01591 0.090926997 0.1978
0.0047513 0.091792002 0.20423
0.0052284002 0.094328001 0.20543
0.016783001 0.093640998 0.19930001
0.0070811999 0.094531998 0.20422
0.0060006999 0.096615002 0.2045
0.0073569999 0.096602999 0.20296
0.029092001 0.095074996 0.19038001
0.029410001 0.095849998 0.1903
0.015059 0.096401997 0.20105
0.01494 0.095629998 0.19746
0.031355001 0.096506998 0.19067
0.0092546996 0.097511999 0.20249
0.007427 0.098283 0.20347001
0.012615 0.098861001 0.20174
0.030924 0.095951997 0.18989
0.01304 0.095665 0.20051999
0.032944001 0.098154999 0.18959001
0.0048503 0.097653002 0.20314001
0.033792999 0.09821 0.18901999
-0.0033493 0.097957999 0.20959
-0.0026242 0.097439997 0.20794
0.011131 0.099126004 0.20201001
0.033771001 0.097916 0.18911
0.0068955999 0.098470002 0.20271
-0.0019793999 0.099567004 0.20918
0.031638 0.098475002 0.19011
-0.0011952 0.098213002 0.20938
-0.0011438 0.10026 0.20821001
0.032090001 0.10048 0.18989
-0.0031134 0.10285 0.20847
-0.0032645001 0.10221 0.20785999
0.032929 0.10267 0.18943
-0.0022658999 0.10328 0.20902
0.0072980002 0.1015 0.20161
0.0068430998 0.10249 0.20407
0.0039336998 0.10375 0.20426001
-0.0024893 0.10279 0.20709001
0.0053487001 0.10453 0.20275
0.0054063001 0.10445 0.20404001
-0.001911 0.10415 0.20964999
-0.0027983 0.10525 0.20991001
0.0035285 0.10594 0.20494001
0.0032106 0.10663 0.20562001
0.0038817001 0.10654 0.20502999
-0.0048078001 0.1069 0.20949
0.00048972998 0.108 0.20788001
-0.0011214 0.10625 0.20789
0.0015631 0.10879 0.20751999
0.0024945 0.10921 0.20536
0.0010158001 0.10951 0.20789
-0.0029529 0.11011 0.20929
-0.0021386 0.11128 0.20863
-0.00086656999 0.11098 0.20911001
0.0020451001 0.11271 0.20636
0.0035806999 0.11237 0.20595001
-0.00040185 0.11305 0.20874
0.0013293 0.11332 0.20524
0.0040126001 0.11384 0.20562001
0.0028865 0.11503 0.2062
-0.00034097 0.11526 0.20826
0.0060073999 0.11614 0.20636
0.0016937 0.11582 0.20527001
-0.00036154001 0.11627 0.2067
0.0035784 0.11663 0.20705999
0.0031738 0.11495 0.20524999
0.00031983 0.11709 0.20665
0.0010393 0.11872 0.20693
0.00076749001 0.11885 0.20747
0.001667 0.12065 0.20749
0.00065826002 0.1222 0.20626
0.0016545 0.12553 0.20664001
0.0018374 0.12292 0.20651001
-0.00024856001 0.1268 0.205
0.00281 0.12515999 0.20856
0.0011683 0.12661999 0.20657
0.00055396999 0.12729 0.2059
0.00073208002 0.13090999 0.20516001
0.0014261 0.13096 0.20679
0.0022266 0.13828 0.20627999
0.00064155 0.13795 0.20633
0.0010791 0.1366 0.20630001
-0.0056468002 0.14030001 0.20964999
-0.00096535002 0.13969 0.20818999
-0.00063516002 0.13846 0.20777
-0.0040722 0.14105999 0.20907
-0.0052355002 0.14143001 0.2096
0.00024248 0.14138 0.20705
0.0020538 0.14275999 0.20552
-0.0036879 0.14497 0.20881
-0.0024293 0.1459 0.20939
0.0014961 0.14451 0.20557
-0.0041010999 0.1476 0.20905
-0.00091354002 0.14568 0.20840999
0.0010657 0.14613999 0.20669
-0.0026851001 0.14629 0.21014
-0.0015182 0.14713 0.20927
-0.0020391999 0.14842001 0.20952
-0.0043072002 0.14922 0.20967001
-0.0054498999 0.1504 0.20924
-0.0041838 0.15188 0.20900001
-0.0036979001 0.15425 0.20938
-0.0043406999 0.15648 0.208
-0.0019926999 0.1584 0.20812
0.0001228 0.15922999 0.20779
0.0014424 0.16011 0.20644
0.0036679001 0.16301 0.20589
0.050167002 0.16332 0.17689
0.050436001 0.16498999 0.17787001
0.049461 0.16531 0.17986999
0.050386 0.16748001 0.17816
0.050822001 0.16695 0.17845
0.0063358 0.16621999 0.20432
0.0066089998 0.16855 0.20453
0.050629999 0.16683 0.17868
0.051729999 0.16966 0.17836
0.0082238 0.1744 0.20277999
0.0078368001 0.18179999 0.20313001
0.036262002 0.18036 0.1867
0.036051001 0.18080001 0.18668
0.038109001 0.18279999 0.18453
0.036908001 0.18183 0.18404
0.038778 0.18206 0.18492
0.036325999 0.18254 0.18674999
0.035815001 0.18136001 0.18653999
0.0078252004 0.18385001 0.20156001
0.037372001 0.18261001 0.18594
0.034796 0.18379 0.18709999
0.0097201001 0.18286 0.20145001
0.037461001 0.18359999 0.18534
0.011252 0.18581 0.20152
0.0372 0.18539 0.18638
0.012408 0.18524 0.20158
0.01176 0.18719 0.20130999
0.035216998 0.18714 0.1892
0.013921 0.18686 0.20039999
0.013302 0.18821999 0.19881999
0.018607 0.18926001 0.19761001
0.016584 0.18918 0.19769
0.016927 0.19032 0.19843
0.017678 0.19214 0.19780999
0.014969 0.19254 0.19859
0.014381 0.19464 0.20001
0.033395998 0.19602001 0.18886
0.011253 0.19956 0.20082
0.011854 0.19845 0.20173
0.011608 0.20013 0.20208
0.012294 0.20434999 0.20149
0.016216001 0.2104 0.19958
0.014346 0.21165 0.19807
0.017999999 0.21487001 0.19641
0.017951 0.21573 0.19927
0.018015999 0.21751 0.19660001
0.019677 0.21949001 0.19622
0.020122999 0.22119001 0.19514
0.021576 0.22065 0.19539
0.023519 0.22259 0.19495
0.031103 0.22159 0.18946999
0.0252 0.22318999 0.19374999
0.023747001 0.22421999 0.1945
0.028000001 0.22273999 0.19084001
-0.014474 0.056634001 0.21501
0.016999001 0.078731999 0.19738001
0.033085998 0.079244003 0.1895
-0.0061201002 0.078731 0.21080001
-0.0052554002 0.079108 0.21067999
-0.0030344001 0.080697 0.20917
-0.0025849 0.086197004 0.20893
0.0078947004 0.090028003 0.20397
0.0069484999 0.091692001 0.20361
0.0070515 0.093115002 0.20474
0.017117999 0.095926002 0.19869
0.016189 0.095555998 0.19735999
-0.0030224 0.095807999 0.20971
0.030954 0.096041001 0.18996
0.0067381002 0.099091999 0.20345999
0.0073289 0.10046 0.20295
0.0090509001 0.10081 0.20212001
0.0093168002 0.099638 0.2008
-0.00086972001 0.1023 0.20747
0.0047913999 0.10392 0.20446
-0.003247 0.10621 0.20992
0.0032220001 0.10657 0.20484
0.0034735999 0.10985 0.20565
0.0040346002 0.11007 0.20519
0.0021667001 0.11043 0.20584001
0.004278 0.11205 0.20454
0.0010664 0.11321 0.20567
0.0038983 0.11362 0.20480999
0.00021499 0.1164 0.20736
0.004555 0.11783 0.20635
0.0051823999 0.11689 0.20547
0.00059174001 0.14071999 0.20746
0.0017472 0.14292 0.20566
0.0035719001 0.1619 0.20535
0.0044662999 0.16458 0.2043
0.0060840999 0.16395 0.20505001
0.0087048998 0.17104 0.20284
0.0083210003 0.1807 0.20272
0.037517998 0.18314999 0.18675999
0.036205001 0.18526 0.18805
0.018981 0.18872 0.19829001
0.015019 0.19496 0.19931
0.013643 0.19351 0.19949999
0.011367 0.20158 0.20128
0.012645 0.20646 0.20040999
0.017509 0.21459 0.19694
0.018586 0.21844 0.19719
0.023517 0.22171 0.19499999
0.030707 0.22414 0.19128001
-0.016837001 0.062369 0.21673
-0.010653 0.075452 0.21545
-0.011851 0.074335001 0.21608999
-0.013909 0.075744003 0.21539
0.013208 0.078768998 0.20013
0.01484 0.079085 0.19916999
0.020693 0.079317003 0.19619
0.022929 0.080257997 0.19574
0.024801999 0.079493999 0.19259
-0.012503 0.079644002 0.21409
-0.011017 0.079752997 0.21381
0.020440999 0.078914002 0.19617
0.0072969999 0.089777 0.20446999
0.0079436004 0.10143 0.20174
0.0096367002 0.10055 0.20220999
0.0073079998 0.10254 0.20282
0.0073859999 0.10543 0.2036
-0.0020542999 0.14646 0.20998999
0.0027965 0.14664 0.20550001
0.0040531 0.16304 0.20495
0.0082019996 0.17584001 0.20349
0.0087222997 0.17705999 0.20190001
0.0072701001 0.17736 0.20321999
0.0075054001 0.17986999 0.20338
0.015517 0.18759 0.20118
0.016594 0.18742999 0.19873001
0.017927 0.18602 0.19859
0.018344 0.18746001 0.19907001
0.01355 0.19388001 0.19949
0.012841 0.197 0.20167001
0.013612 0.20828 0.19984999
0.015373 0.20916 0.1997
0.02122 0.2229 0.19661
0.030177999 0.22308999 0.19023
0.028216001 0.22334 0.19108
0.030479001 0.079150997 0.19029
0.016520999 0.077831 0.19775
0.019902 0.080888003 0.19813
0.027806999 0.079131 0.19394
0.025255 0.080491997 0.19441
-0.0052192002 0.081321001 0.21076
-0.0033151 0.083701998 0.20972
0.0076425001 0.088538997 0.20509
0.0074327998 0.090746 0.20524999
0.026423 0.091981001 0.19423001
0.02698 0.093027003 0.19288
0.026461 0.093354002 0.19354001
0.029006001 0.094582997 0.1913
0.011633 0.095270999 0.20144001
0.01018 0.10097 0.20257001
-0.001275 0.1012 0.20863
-0.0024077001 0.10826 0.21056999
-0.0017444 0.10992 0.20931999
0.0061271 0.11108 0.20469999
0.0050205998 0.11115 0.20478
0.0011426 0.11556 0.20815
0.0068533001 0.11656 0.20432
0.0048933998 0.11958 0.20603
0.0045377002 0.12099 0.20556
0.0060859001 0.11947 0.20457999
0.0059451 0.12136 0.20474
0.0010965 0.1231 0.20813
0.0018334 0.12314 0.20609
0.00049332 0.13592 0.20855001
0.00087652 0.13743 0.20732
-0.005663 0.13821 0.21144
0.035950001 0.18365 0.18762
0.011892 0.18409 0.20223001
0.015142 0.18717 0.20013
0.018858001 0.18711001 0.19712
0.022043001 0.18818 0.19718
0.018851001 0.1892 0.19677
0.012174 0.20375 0.20185
0.012782 0.20663001 0.20175
0.029236 0.22495 0.19271
-0.01377 0.056697 0.21385001
-0.014048 0.059431002 0.21658
0.014178 0.080090001 0.19843
0.020143 0.093229003 0.19698
0.014409 0.096364997 0.19963001
0.015154 0.098614 0.20167001
0.028658001 0.097673997 0.19295
0.028827 0.097309999 0.19155
0.03136 0.099099003 0.19033
0.0093956003 0.1028 0.2033
0.0056576999 0.114 0.20607001
0.0055566002 0.11503 0.2044
0.0041076001 0.11824 0.20655
0.0037036 0.12436 0.20751999
-0.0012197 0.15847 0.20912001
0.036433 0.18002 0.1886
0.033872999 0.18374 0.18796
0.021351 0.18628 0.19532999
0.033530999 0.19341999 0.19019
0.033410002 0.19587 0.19084001
0.019841 0.21679001 0.20027
0.021569001 0.21875 0.19815999
-0.013167 0.056085002 0.21649
-0.015518 0.060995001 0.21794
-0.015071 0.064232998 0.21765999
-0.016912 0.068783 0.21811
-0.017338 0.067024 0.21789999
-0.014592 0.071845002 0.2163
-0.013206 0.078475997 0.21752
-0.013644 0.078552999 0.21613
0.033357002 0.080146998 0.1894
0.037351999 0.079143003 0.18956
0.0177 0.077647001 0.19964001
0.015973 0.079167999 0.19946
0.033831999 0.078050002 0.19121
0.037283 0.080669001 0.18724
-0.0095817 0.079483002 0.21265
0.027166 0.079359002 0.19484
-0.0052979002 0.081610002 0.2111
-0.0048392001 0.081432998 0.21229
-0.0049732001 0.083219998 0.21080001
-0.0030566 0.084496997 0.21154
-0.00068832003 0.087984003 0.20895
0.0014008 0.088124998 0.20858
0.0064969999 0.089732997 0.20597
0.0067909998 0.090135999 0.2049
0.017735999 0.092441998 0.20110001
0.01664 0.091439001 0.19894999
0.019797999 0.092509001 0.19862001
0.029173 0.097257003 0.19136
0.016912 0.09606 0.20011
0.028136 0.099427 0.19314
0.030448999 0.099334002 0.19143
0.032715999 0.099875003 0.18986
-0.00021485001 0.09973 0.20867001
-0.00058578001 0.10144 0.20923001
-0.00090012001 0.10257 0.20976
-0.00052598002 0.10353 0.20968001
-0.0034662001 0.10543 0.21032
0.0062909001 0.10745 0.20701
0.0054155001 0.10634 0.20597
-0.0018048 0.10938 0.20837
0.0029148001 0.11369 0.20682999
0.0071231001 0.11503 0.20496
0.0015395 0.11669 0.20859
0.0016689 0.12022 0.20781
0.0073028002 0.12032 0.205
0.0024202 0.1208 0.20794
0.0025549 0.12249 0.20883
0.0025243 0.12341 0.20753001
0.0028279 0.12594999 0.20849
0.00054217997 0.13695 0.20795999
0.0031107999 0.14079 0.20755
0.0028015 0.14414001 0.20665
-0.001006 0.14844 0.20889001
-0.0013978 0.14789 0.21014
-0.0023934999 0.15078001 0.21093
-0.0032395001 0.15184 0.2111
0.0080615999 0.16951001 0.20417
0.0078427996 0.17354999 0.20324001
0.0081476001 0.17839999 0.20557
0.0086374003 0.18223999 0.20429
0.010138 0.18254 0.20265999
0.034637999 0.18324 0.1892
0.012032 0.18363 0.20383
0.014319 0.18691 0.20121001
0.018540001 0.18753 0.19904999
0.019707 0.18757001 0.19754
0.015241 0.18601 0.2
0.018801 0.18975 0.19683
0.019991999 0.19022 0.19909
0.017615 0.19024 0.19908001
0.015297 0.19329999 0.20124
0.01678 0.19203 0.20008001
0.01389 0.19561 0.20155001
0.012372 0.19727001 0.20316
0.011243 0.19837999 0.20184
0.016861999 0.2119 0.20017999
0.017565999 0.21375 0.19876
0.019962 0.21957 0.19691999
0.021841001 0.22115 0.19755
0.024431 0.2218 0.19599
0.023391001 0.22248 0.19494
0.025838999 0.22268 0.19372
-0.010044 0.055532999 0.21425
-0.011859 0.057087 0.21614
-0.011811 0.057677999 0.21646
-0.013931 0.058660999 0.21528
-0.0046442002 0.060054999 0.21221
-0.0053873998 0.061014999 0.21108
-0.0027038001 0.061985999 0.21234
-0.015222 0.070506997 0.21776
-0.013087 0.071819 0.21605
-0.012229 0.072751999 0.21673
-0.011398 0.077722996 0.21527
-0.01226 0.076847002 0.21572
-0.012599 0.079372004 0.21499
0.032701001 0.079645 0.18948001
-0.0079076998 0.079379998 0.21358
-0.0064093 0.079861 0.21108
0.024382999 0.080246001 0.19605
-0.0040859999 0.083709002 0.21077999
-0.0042786999 0.084002003 0.21037
-0.0018795 0.085545003 0.21115001
-0.00041964001 0.085276 0.21072
0.0018007 0.089546002 0.20894
0.0033541 0.089777 0.20912001
0.0022932999 0.089016996 0.20675001
0.0073322998 0.087968998 0.20521
0.0041577001 0.089786001 0.20663001
0.0042086001 0.09048 0.20597
0.0050657 0.091513999 0.20588
0.0047925999 0.090447001 0.20499
0.025514999 0.091309004 0.19433001
0.025652001 0.091122001 0.19349
0.027563 0.091962002 0.19499999
0.026673 0.092177004 0.19514
0.02884 0.092877001 0.19320001
0.027922001 0.093539 0.19234
0.027664 0.094067 0.19258
0.017072 0.093350999 0.19954
0.027240001 0.093517996 0.19391
0.018141 0.094135001 0.19986001
0.027795 0.096340999 0.19309001
0.016985999 0.095262997 0.19949
0.01609 0.096661001 0.20074999
0.013916 0.097303003 0.20145001
0.013098 0.099537 0.20305
0.029188 0.099730998 0.19182
0.011131 0.098654002 0.2023
0.032473002 0.099858001 0.19164
-0.001581 0.10048 0.20886
0.010705 0.10046 0.20343
0.032090001 0.099815004 0.19091
0.011388 0.10088 0.20247
-0.00059204001 0.10219 0.20982
0.011771 0.10233 0.20406
0.031344 0.10179 0.19106001
0.032404002 0.10337 0.19140001
0.032308001 0.10231 0.19056
0.0097925998 0.1024 0.20275
0.0084530003 0.10249 0.20472001
-0.0004202 0.10463 0.20995
-0.00061579002 0.10473 0.21016
-0.00056194997 0.10393 0.2087
0.0075091999 0.1043 0.20446
-0.0022612 0.10476 0.20998999
0.0067520998 0.10581 0.20592999
0.0071915998 0.10596 0.20609
-0.00072884001 0.1053 0.20962
-0.00081911997 0.10666 0.20912001
-0.0014393 0.10459 0.20843001
-0.00011708 0.10693 0.2098
-0.0031498 0.10851 0.21115001
-0.00019392 0.10739 0.20776001
-0.0021597999 0.10978 0.21072
-0.00019638 0.10793 0.20855001
0.00065826997 0.10949 0.20975
0.0018505 0.11008 0.20847
0.0051894998 0.10987 0.20624
0.0054474999 0.1087 0.20717999
0.00097983005 0.11133 0.20956001
0.00062718999 0.11152 0.20858
0.0018593 0.11219 0.20721
0.0058050998 0.11193 0.20581
0.00097335002 0.11198 0.20798001
0.0072447001 0.11382 0.20494001
0.0032265999 0.11463 0.20753001
0.0013041 0.11374 0.20829999
-9.1653001e-06 0.11475 0.20949
0.0042070001 0.11483 0.20765001
0.0067856 0.11632 0.2042
0.0035343999 0.11682 0.2084
0.0037271001 0.11697 0.20615
0.0067901001 0.11787 0.20512
0.0079861004 0.11763 0.20483001
0.0069189002 0.11952 0.20456
0.0029118999 0.11786 0.20896
0.0017696 0.11903 0.20701
0.0039376998 0.11937 0.2059
0.0040568998 0.12199 0.20633
0.0051787002 0.122 0.2057
0.0048177 0.12304 0.20672999
0.0041385 0.12735 0.20764001
0.0012901 0.12924001 0.20744
0.0016958 0.13819 0.20883
-0.0014062 0.13632999 0.20916
-0.0043298001 0.13731 0.21112999
-0.0051930002 0.13969 0.21196
-0.0043382999 0.14009 0.21219
-0.0052971002 0.13955 0.21178
-0.00099582004 0.14066 0.20923001
0.00061856001 0.14038 0.20821001
0.0010909 0.13917001 0.20727
-0.00026047 0.14035 0.20964999
-0.0041006999 0.14049999 0.21162
-0.0039573 0.14068 0.21087
0.0032064 0.14236 0.20754001
0.0021094 0.14554 0.20759
0.0036843 0.14674 0.20735
0.00015502999 0.14763001 0.20764001
0.00080228999 0.14707001 0.20769
0.001193 0.14689 0.20817
0.0013833001 0.148 0.20807
0.0017763 0.14677 0.20810001
0.0029023001 0.14882 0.20711
-0.0017662999 0.14779 0.21123999
-0.0029557999 0.14968 0.20976
-0.00318 0.15008999 0.21123999
-0.0037608 0.153 0.21109
-0.0025981001 0.15361001 0.21019
-0.0015178 0.15673 0.21162
-0.0021663001 0.15757 0.21006
-0.0020442 0.15959001 0.20969
-0.00113 0.15917 0.21098
0.0010196 0.16016001 0.20894
0.0016625 0.1596 0.20793
0.0032299999 0.15985 0.20855001
0.0043186001 0.16188 0.20705999
0.0059210998 0.16565 0.20527001
0.0044483002 0.16485 0.20604999
0.0062898002 0.16734999 0.20516001
0.0065870001 0.1675 0.20478
0.0082384003 0.17007001 0.20418
0.0087473001 0.17557999 0.20396
0.01007 0.17784999 0.20454
0.0091102002 0.17826 0.20484
0.0080289003 0.17869 0.20536999
0.03537 0.18131 0.1894
0.037388001 0.18212999 0.18869001
0.013482 0.18402 0.20183
0.035843 0.18403 0.18973
0.013651 0.1855 0.20118999
0.035569999 0.18720999 0.18792
0.033769999 0.18636 0.19069
0.0125 0.18624 0.20164999
0.017395999 0.1856 0.19892
0.017224001 0.18671 0.20061
0.013359 0.18726 0.20119999
0.020717001 0.18764 0.19605
0.022444 0.18798999 0.19595
0.033906002 0.18767001 0.18905
0.033796001 0.18754999 0.19001999
0.017000999 0.19083001 0.19988
0.034497 0.19427 0.18962
0.034185 0.19325 0.18954
0.014006 0.19459 0.20022
0.013925 0.19589999 0.20087001
0.011973 0.19969 0.20276
0.010153 0.20158 0.20241
0.013303 0.20442 0.20441
0.011133 0.20356999 0.20310999
0.012519 0.20452 0.2022
0.013866 0.20723 0.20234001
0.014276 0.20811 0.20124
0.014779 0.20900001 0.20152999
0.016551999 0.20973 0.20024
0.018155999 0.21441001 0.19913
0.022887001 0.22197001 0.19523001
0.034375999 0.22235 0.19096
0.033314001 0.22249 0.18963
0.034235999 0.22291 0.19047
0.029518999 0.22436 0.19321001
-0.011143 0.056037001 0.21551
-0.01468 0.062484998 0.21777999
-0.016658001 0.063960999 0.21727
-0.016914999 0.065916002 0.21863
0.030470001 0.078915998 0.19197001
0.029974001 0.079517998 0.19287001
0.023038 0.079682998 0.19627
-0.01087 0.078524001 0.21461999
0.015031 0.078942001 0.20185
0.028987 0.095977999 0.19266
0.014413 0.097695999 0.20100001
0.030594001 0.10115 0.19272999
0.030077999 0.10083 0.19396999
0.032306999 0.099542998 0.19209
0.0051739002 0.10755 0.20509
0.0068708002 0.11867 0.20464
0.0082655 0.1197 0.20506001
0.0025126 0.11996 0.20773
0.0065215002 0.12386 0.20588
0.0053133001 0.12324 0.20541
0.0076611 0.12269 0.20596001
0.0077192001 0.12163 0.20472001
0.0025605999 0.12980001 0.2088
0.0018659 0.13141 0.20658
-0.0011321 0.13644999 0.20973
0.0038244 0.16109 0.20603
0.0040604002 0.1628 0.20582999
0.0078846999 0.16987 0.20522
0.0088261999 0.17086001 0.20406
0.010922 0.17284 0.20376
0.010487 0.18285 0.20344
0.012355 0.18239 0.20316
0.018727999 0.18379 0.19976
0.019322 0.18572 0.19785
0.019332999 0.1851 0.19757
0.022467 0.18629 0.19756
0.015264 0.18619999 0.20211001
0.015274 0.18539 0.20067
0.023693999 0.18674999 0.19661
0.033484001 0.19412 0.19118001
0.01203 0.19919001 0.20255999
0.012237 0.20669 0.20311999
0.015186 0.20852 0.20133001
0.018951001 0.21522 0.19886
0.019718001 0.21558 0.19818
0.020816 0.2177 0.19822
0.026187999 0.22278 0.19537
0.030544 0.22316 0.19220001
0.030219 0.22376999 0.19174001
-0.013026 0.070681997 0.21693
-0.013797 0.077563003 0.21705
0.020338001 0.079726003 0.1974
0.017952001 0.092577003 0.19871999
0.017519999 0.093313999 0.19937
0.01943 0.091649003 0.19718
0.027054001 0.095715001 0.19454999
0.028529 0.097932003 0.19412
0.0072864001 0.11654 0.20488
0.0037735 0.12043 0.20669
0.0021365001 0.13368 0.20765001
0.0018661 0.13387001 0.20805
0.0035573 0.13546 0.20634
0.0043611 0.13542999 0.20795999
0.0031399 0.13715 0.20688
-0.00081648002 0.13681 0.21061
0.0026974999 0.13827001 0.20931
0.0023182 0.13821 0.20848
-0.00093227002 0.1362 0.21088
0.0030300999 0.14822 0.20859
0.0029621001 0.14887001 0.20685001
0.0052295001 0.14788 0.20652001
0.0059302002 0.16515 0.20513999
0.012111 0.18272001 0.2022
0.034830999 0.18325 0.1902
0.01551 0.193 0.20022
0.012061 0.20427001 0.20417
0.02263 0.22129001 0.19577
0.027210999 0.22272 0.19374
0.026926 0.078322999 0.19468001
0.031059001 0.078977004 0.19152001
0.034394 0.080264002 0.1918
-0.010064 0.079479001 0.21545
-0.0081612999 0.078901 0.21386001
0.014668 0.080049999 0.2013
0.01361 0.080197997 0.20137
0.022162 0.079387002 0.19835
-0.0011098 0.087499 0.20928
0.0067274999 0.090594001 0.20517001
0.025137 0.091865003 0.19551
0.013807 0.097099997 0.2014
0.027474999 0.098697998 0.19539
0.027229 0.098851003 0.19448
0.030982001 0.10052 0.19343001
0.032290999 0.11121 0.19051
0.032465 0.11244 0.19168
0.031431001 0.11045 0.19194999
0.0027014001 0.11764 0.20959
0.0033179999 0.11776 0.2094
0.0026801 0.12399 0.21005
0.0033185 0.12613 0.20871
0.0021627001 0.13221 0.20903
0.0033229 0.13576999 0.20703
0.0042037 0.13694 0.20853999
0.0043859999 0.1444 0.20581999
0.0042011999 0.14380001 0.20835
0.00033315999 0.14782 0.20961
0.0028416 0.14663 0.20715
0.0024916001 0.14928 0.20814
0.034770999 0.18472999 0.19242001
0.034368999 0.18361001 0.19179
0.018402001 0.19005001 0.20037
0.018811001 0.21507999 0.20004
-0.0093080997 0.054945 0.21483
-0.0090616997 0.055691998 0.21337999
-0.013707 0.060621999 0.21671
-0.013657 0.071519002 0.21616
-0.011301 0.072646998 0.21804
-0.010747 0.071704999 0.21822999
-0.011754 0.076236002 0.21630999
0.019262999 0.078560002 0.19931
0.021243 0.079071999 0.19829001
-0.0043107001 0.083131 0.21337999
0.0012160999 0.087958999 0.20991001
0.0016823 0.088868998 0.2096
0.0038294999 0.088353999 0.20891
0.0053631002 0.090053 0.20757
0.019231999 0.093195997 0.20043001
0.025547 0.094163999 0.19616
0.019393999 0.095105998 0.20141
0.019067001 0.093884997 0.20021001
0.027581001 0.095605999 0.19464999
0.025193 0.093740001 0.19481
0.018431 0.096407004 0.20037
0.019331001 0.096084997 0.20058
0.027078999 0.095583998 0.19458
0.016625 0.098164 0.2014
0.027615 0.098734997 0.19553
0.016147001 0.097393997 0.20193
0.033046 0.10075 0.19329
-0.00098591996 0.10881 0.2113
0.00072170002 0.11047 0.20998
0.0020021 0.11063 0.21032999
0.0014451999 0.11386 0.20976
0.0034777001 0.12116 0.2089
0.0053029 0.12369 0.20728
0.0060303998 0.12366 0.20581
0.0063167 0.12469 0.20737
0.0065971999 0.12651999 0.20647
0.0085039996 0.12474 0.20556
0.0071771001 0.12522 0.20480999
0.0078913001 0.12616 0.20561001
0.0035077999 0.12988999 0.20995
0.00079038 0.13222 0.21046001
0.00024741 0.13637 0.21096
-0.0012211 0.13457 0.21190999
-0.00067335 0.13675 0.20979001
-0.0033958 0.13661 0.21307001
0.00069098 0.13541 0.21007
0.0018541 0.1399 0.21019
0.00061677 0.13876 0.2113
0.0013370001 0.13979 0.20852
0.0012549 0.13935 0.20851
-0.0020953 0.14071999 0.21399
0.0011044 0.14709 0.21024001
-0.0014467 0.15189999 0.21111
0.010771 0.18222 0.20290001
0.012786 0.18366 0.20253
0.034200002 0.18199 0.19211
0.02251 0.18348999 0.1991
0.024078 0.18488 0.19758999
0.025172999 0.1856 0.1965
0.025189999 0.18460999 0.19629
0.024506001 0.18692 0.19527
0.026028 0.18606 0.1938
0.027496999 0.18748 0.19458
0.027708 0.18656 0.19385
0.019933 0.19016001 0.19866
0.014878 0.19452 0.20226
0.01377 0.19826999 0.20366
0.013907 0.19814999 0.20426001
0.025552999 0.22229999 0.19706
0.025658 0.22146 0.19653
0.031897999 0.22376999 0.19322
0.028198 0.22451 0.19547001
-0.011777 0.057243999 0.21689001
-0.010759 0.057741001 0.21781
-0.011809 0.059177998 0.21763
-0.0152 0.061485998 0.21818
-0.015601 0.064737998 0.21851
-0.014415 0.067585997 0.21969
-0.014783 0.067841001 0.21875
-0.015318 0.069738001 0.221
-0.014623 0.069417 0.22062001
-0.014279 0.071190998 0.22001
-0.011167 0.073706001 0.21637
-0.010513 0.076886997 0.21823999
-0.012084 0.076628998 0.21585999
-0.013369 0.079425 0.21765
0.023592999 0.080216996 0.19599
0.026991 0.078542002 0.19528
0.0307 0.080793001 0.19453999
0.035110999 0.077896997 0.19096
0.015224 0.079346001 0.20236
-0.0091979001 0.078602999 0.21620999
-0.0055889999 0.079867996 0.21388
-0.0063417 0.079333 0.21428999
0.025122 0.078538999 0.19690999
0.023926999 0.079005003 0.19574
-0.0042273002 0.082349002 0.21273001
-0.0044342 0.082124002 0.21371999
-0.0048334999 0.084034003 0.21255
-0.0023996001 0.08478 0.21365
-0.0028234001 0.085776001 0.21315999
-0.00030777001 0.089325003 0.21021999
-0.00054385001 0.0858 0.21042
0.0017315 0.087959997 0.21062
0.0082317004 0.087095 0.20720001
0.0087834997 0.087603003 0.20634
0.0065862001 0.088584997 0.20635
0.0055008 0.089059003 0.20671
0.025015 0.091852002 0.19597
0.025124 0.091499999 0.19619
0.024228999 0.093805999 0.19811
0.018301999 0.094466999 0.19961999
0.025396001 0.093111001 0.19581001
0.017297 0.093033001 0.20017
0.015615 0.098012 0.20322999
0.015749 0.098479003 0.20242999
0.013696 0.098278001 0.20242
0.012918 0.10054 0.20483001
0.033573002 0.10112 0.19371
0.032979 0.099958003 0.19182999
-0.00056538999 0.10305 0.21112999
0.010723 0.10126 0.20439
0.032056 0.10113 0.19179
-0.00050294999 0.10111 0.21027
0.032012999 0.10243 0.19311
-0.00083327002 0.10303 0.21085
-0.00027754999 0.10289 0.2105
0.011883 0.10263 0.2051
0.033546001 0.10265 0.19215
0.0106 0.10377 0.2031
0.0092754001 0.10479 0.20624
0.0071955002 0.10585 0.20514999
-0.00016308999 0.10661 0.21118
-0.0017463 0.10697 0.21021
0.0062503 0.10716 0.20634
0.0016936 0.1063 0.21029
-0.0010688 0.10647 0.2096
4.1383999e-05 0.10754 0.21077
0.0053019002 0.10783 0.20667
0.0018576999 0.10857 0.20964999
0.00045147 0.10791 0.2105
0.0021118999 0.10979 0.20981
0.0066602002 0.1092 0.20686001
-0.00050483999 0.10984 0.21089999
0.0020283 0.11195 0.2089
0.0066097002 0.11042 0.20609
0.0034624001 0.10921 0.20942
0.0029611001 0.11203 0.20813
0.0075345002 0.11201 0.20641001
0.031259 0.11201 0.19235
0.032090999 0.11217 0.19273999
0.0024937 0.11284 0.20967001
0.0014397 0.1121 0.2098
0.0074112001 0.11365 0.20686001
0.0028190999 0.11255 0.21055
0.0025349001 0.11476 0.20947
0.0025569 0.11485 0.21047001
0.0077285999 0.11432 0.20643
0.0019074 0.1161 0.2094
0.0030865001 0.11582 0.20667
0.0072368998 0.1173 0.20513
0.0075785001 0.1173 0.20652001
0.0042086001 0.11733 0.20788001
0.0076416 0.11804 0.20557
0.0018382 0.11931 0.20901
0.0053409999 0.11931 0.20776001
0.0092887003 0.11844 0.20572001
0.0035041999 0.11908 0.20881
0.0046314001 0.12066 0.20832001
0.0092294002 0.12134 0.20591
0.0042086998 0.1231 0.20784999
0.0085055996 0.12125 0.20592
0.0099595003 0.12431 0.20498
0.0096973004 0.12448 0.20439
0.005806 0.12631001 0.2075
0.0074069998 0.12709001 0.20689
0.0096404003 0.12706 0.20566
0.0077215 0.12752999 0.20734
0.0033002 0.12606999 0.20919999
0.0037666999 0.12805 0.21028
0.0037573001 0.12903 0.20942999
0.0044175 0.13213 0.20908999
0.0019606999 0.13357 0.20863999
0.0015888 0.13429999 0.20943999
0.0033076 0.1327 0.20935
0.0044598999 0.13618 0.20736
0.0042638001 0.13245 0.20791
0.0010781999 0.13594 0.20907
0.0018761 0.13598 0.2101
0.0053904001 0.13576999 0.20749
-0.0033476001 0.13699999 0.21112999
0.0039070998 0.13703001 0.2089
0.00072766002 0.13789999 0.20939
-0.0024679999 0.13669001 0.21309
0.0027463001 0.13913999 0.20967001
-0.0037002 0.13925 0.21348999
-0.0042408002 0.14019001 0.21197
0.0018791 0.14161 0.20917
-0.0023767999 0.14142001 0.21157999
0.00094773999 0.14184999 0.21117
0.0039635999 0.14404 0.20756
0.0044606999 0.14493001 0.20844001
0.0044673998 0.14706001 0.20857
0.0053559002 0.14759 0.20789
-0.0010992 0.14721 0.20997
-0.00026291999 0.15041 0.21151
0.0029489 0.14757 0.20981
0.0028865 0.15003 0.21044999
0.0051122 0.14912 0.20905
0.0033567001 0.14884999 0.20953999
-0.0015015 0.15239 0.21216001
-0.0023207001 0.15453 0.21037
-0.0001313 0.15515999 0.21236999
-0.0018111001 0.15617 0.21156999
-3.0110999e-05 0.15683 0.21141
-0.00067913003 0.15789001 0.21058001
3.9450999e-05 0.15838 0.21073
0.0033728001 0.15993001 0.20737
0.0053467001 0.16018 0.20996
0.0051718 0.16240001 0.20738
0.0047704 0.16094001 0.20612
0.0074356999 0.16547 0.20678
0.0082695996 0.16643 0.20801
0.0084862001 0.16897 0.20575
0.0092540998 0.1699 0.20468
0.010292 0.17046 0.20384
0.0088470001 0.17848 0.20659
0.010164 0.17902 0.20387
0.010686 0.18156999 0.20309
0.036102999 0.18269999 0.19017
0.035923999 0.17983 0.18916
0.011993 0.18185 0.20408
0.010973 0.18144999 0.20276
0.013479 0.18376 0.20262
0.033955999 0.18316001 0.19159
0.014119 0.18334 0.20389999
0.01467 0.18632001 0.20184
0.019949 0.18512 0.19903
0.017997 0.1839 0.20047
0.017754 0.18418001 0.20245001
0.016594 0.18483999 0.20132001
0.01668 0.18628 0.20008001
0.021106999 0.18477 0.19909
0.024636 0.18381 0.19724999
0.034389999 0.18463001 0.19126999
0.029585 0.18460999 0.19431999
0.03046 0.18574999 0.19345
0.026472 0.18465 0.19490001
0.035321999 0.18533 0.19075
0.035179999 0.18576001 0.19102
0.033537 0.1875 0.19233
0.033720002 0.18772 0.19036999
0.034230001 0.1884 0.19259
0.030156 0.18929 0.19284
0.029591 0.18776 0.19426
0.027495001 0.18793 0.19332001
0.020116 0.18980999 0.20089
0.017263001 0.19054 0.20232999
0.016667999 0.19115999 0.20117
0.017091 0.19219001 0.20141
0.015534 0.19151001 0.2022
0.013655 0.1945 0.20361
0.011276 0.20116 0.20404001
0.011235 0.20479999 0.20375
0.014799 0.20787001 0.20317
0.013607 0.20721 0.20370001
0.014733 0.20834 0.20339
0.015372 0.21066 0.20215
0.016892999 0.20976999 0.20148
0.019033 0.21206 0.20079
0.01836 0.21360999 0.20122001
0.018948 0.21336 0.20039
0.019696999 0.21899 0.19945
0.021097001 0.21890999 0.19848999
0.022332 0.21965 0.19867
0.022778001 0.22232001 0.19683
0.034421001 0.22199 0.19207001
0.033367999 0.22307 0.19276001
0.027968001 0.22330999 0.19518
-0.0068818 0.054531999 0.21528
-0.010273 0.055415001 0.21726
-0.014774 0.064544998 0.21836001
-0.014173 0.070312999 0.21778999
0.015993999 0.079795003 0.20229
0.015872 0.078495003 0.19939999
0.019934 0.079225004 0.19842
0.020692 0.080394 0.19932
0.021718999 0.079837002 0.19875
0.030485 0.078607 0.19329
0.033785999 0.079360999 0.19230001
-0.011884 0.080975004 0.21878
0.0047217999 0.088004 0.20827
0.022144999 0.093332998 0.19845
0.020137999 0.092551999 0.19983999
0.022262 0.092623003 0.19784001
0.025055001 0.095114 0.19719
0.028082 0.099302001 0.19482
0.026496001 0.099382997 0.19653
0.029914999 0.10315 0.19312
0.031094 0.10258 0.19340999
0.0069872001 0.10679 0.20611
0.0026722001 0.11152 0.20984
0.0092064003 0.12895 0.20592999
-0.0011056 0.13557 0.21179
0.0057341 0.13705 0.20743001
0.00018119 0.13610999 0.2101
0.0050192 0.13888 0.20592999
0.003059 0.13879 0.2087
0.00043310001 0.14071 0.21067999
0.0039539002 0.14218999 0.20862
0.0028560001 0.14374 0.20840999
0.0020230999 0.15915 0.21168999
0.0061273002 0.16483 0.20728999
0.0071077002 0.16678999 0.20561001
0.0085410997 0.16951001 0.20604999
0.010309 0.17212 0.20509
0.0088473 0.17309999 0.20463
0.010039 0.17563 0.20518
0.0084590996 0.17481001 0.20637
0.011116 0.17773999 0.20567
0.012275 0.17972 0.2057
0.025629001 0.18562999 0.19507
0.029261 0.18382999 0.19489001
0.030316001 0.18409 0.19417
0.030687001 0.18587001 0.1937
0.029844999 0.18522 0.19410001
0.030231001 0.18807 0.19503
0.012378 0.19633 0.20248
0.011369 0.19994999 0.20386
0.012618 0.20611 0.20306
0.021004001 0.21526 0.19914
0.038097002 0.21771 0.18873
0.038396999 0.21584 0.18975
0.038679998 0.21619 0.18892001
0.019842001 0.21729 0.1991
0.023781 0.21915001 0.19837999
0.035597 0.22243001 0.19242001
0.026010999 0.22297999 0.19593
0.032308999 0.22327 0.19325
-0.012153 0.059220999 0.21603
-0.014138 0.062463999 0.21912999
-0.014557 0.063239001 0.22025999
0.02942 0.079843998 0.19478001
0.031984001 0.079667002 0.19214
-0.0068938001 0.078143999 0.21615
-0.0086759003 0.080286004 0.21556
0.01372 0.079075001 0.20338
0.027625 0.080665 0.19765
-0.0016590999 0.086066 0.21201
0.0066045001 0.088854 0.20739
0.026835 0.095752999 0.19675
0.025783001 0.098301999 0.19542
0.016474999 0.098585002 0.20132001
0.01255 0.10091 0.20365
0.012134 0.10163 0.20337
0.010368 0.10439 0.2069
0.0044684 0.11506 0.20919999
0.0058375001 0.12164 0.20835
0.0096338997 0.12202 0.20614
0.010649 0.12795 0.20554
0.0020020001 0.13071001 0.21098
0.00096605002 0.13469 0.21115001
-0.0020218 0.13844 0.21259999
-0.00017641 0.13891 0.21043
0.0012536 0.13834 0.21173
-0.00071659999 0.14894 0.212
0.0037845001 0.16019 0.20922001
0.036727998 0.18115 0.19054
0.013679 0.18152 0.20400999
0.034255002 0.18272001 0.19159
0.027492 0.18351001 0.19726001
0.027833 0.18337999 0.19574
0.032366 0.18441001 0.19445001
0.021681 0.18881001 0.19989
0.020783 0.18753999 0.19801
0.023641 0.18818 0.19795001
0.018453 0.19152001 0.20126
0.015039 0.19313 0.20202
0.033068001 0.19335 0.19151001
0.034022 0.19561 0.19167
0.012109 0.19577999 0.20451
0.034464002 0.19709 0.19107001
0.034641001 0.19801 0.19203
0.013298 0.20390999 0.20589
0.016059 0.21032999 0.20229
0.029705999 0.22429 0.1939
-0.0086168004 0.054926001 0.21785
-0.014339 0.059827998 0.21939
0.018591 0.079212002 0.20163
-0.0044779 0.084229 0.21341
0.022937 0.092894003 0.19855
0.023977 0.090984002 0.19753
0.027319999 0.097713001 0.19711
0.013148 0.10446 0.20461001
0.030366 0.1063 0.19306999
0.030283 0.10444 0.19524001
0.0080276998 0.10922 0.20716999
0.0040810001 0.13287 0.2075
-0.0020085 0.13754 0.21165
-0.0015664001 0.13862 0.21193001
0.0097332997 0.16752 0.20647
0.036224999 0.1811 0.19182
0.013925 0.18143 0.20194
0.018440001 0.18347999 0.20104
0.033670999 0.18843 0.19317
0.036256 0.21884 0.19141001
0.036093 0.22188 0.19153
-0.0095143998 0.054065999 0.21619999
-0.013721 0.063796997 0.22119001
-0.014703 0.066356003 0.21994001
-0.013422 0.068954997 0.22003999
-0.0037401 0.080573 0.21556
-0.0047602998 0.083144002 0.21577001
0.012532 0.10162 0.20237
0.011227 0.10606 0.20517001
0.0079022003 0.10611 0.20715
0.0083553996 0.10759 0.20649
0.0078312997 0.1111 0.20682
0.0079421997 0.11135 0.20725
0.0093991999 0.11462 0.20705999
0.0093662003 0.11503 0.20795999
0.0049478998 0.11612 0.21082
0.0043715001 0.11424 0.20985
0.012432 0.12620001 0.20586
0.0092315003 0.12709001 0.2062
0.011337 0.12648 0.20649999
0.0088940002 0.12983 0.20597
0.010548 0.12795 0.20735
0.0091765001 0.12888999 0.20676
0.0023839001 0.1303 0.21135999
0.0058857002 0.13386001 0.20872
0.0069360002 0.14657 0.20714
0.0057366001 0.14806999 0.20864999
0.0046863002 0.1481 0.20853999
0.0019417 0.14845 0.21164
0.0011044 0.16049001 0.21149001
0.0025603001 0.16009 0.20991001
0.0044514998 0.16142 0.20823
0.0047312002 0.16162001 0.20976
0.018426999 0.18404 0.20275
0.029503999 0.18297 0.19514
0.030644 0.18249001 0.19493
0.017085999 0.19214 0.20290001
0.014594 0.1953 0.2043
0.036896002 0.21862 0.18968
0.022740999 0.21965 0.19842
0.022001 0.21849 0.20066001
0.036235999 0.21839 0.19122
0.036394998 0.21941 0.18880001
0.024848999 0.22047 0.19798
-0.0050217998 0.055555999 0.21336
-0.0052116001 0.056740999 0.21355
-0.0053873998 0.057620998 0.21375
-0.0099919997 0.058734 0.21807
-0.0094342995 0.059225 0.21881001
-0.013016 0.059537001 0.21963
-0.013057 0.069245003 0.22035
-0.013828 0.071107 0.22022
-0.011714 0.078290999 0.21823999
-0.010783 0.077122003 0.21768001
0.022896999 0.079406001 0.19840001
0.011604 0.080159999 0.20448001
0.024878001 0.080674 0.19716001
0.024254 0.079676002 0.19814999
-0.0043428 0.083235003 0.21376
0.0077209999 0.086860999 0.20874
0.0065478999 0.089009002 0.20777
0.022221999 0.092137001 0.19881
0.024269 0.094324 0.19813
0.023290001 0.093413003 0.19846
0.020498 0.092425004 0.20055
0.019796999 0.093575999 0.20052999
0.018866001 0.095623001 0.20141999
0.025858 0.095743001 0.19699
0.023683 0.094718002 0.19659001
0.025776999 0.1002 0.19734
0.015595 0.098649003 0.20416
0.014758 0.099521004 0.20354
0.014431 0.10229 0.2061
0.033941999 0.10154 0.19355001
0.033032 0.10281 0.19462
0.012937 0.1035 0.20451
0.013558 0.10398 0.20506001
0.011687 0.10637 0.20579
0.029909 0.10665 0.19479001
0.031996001 0.10681 0.19419
0.0093489001 0.10952 0.2066
0.030043 0.10999 0.19492
0.031514999 0.11126 0.19347
0.029747 0.11165 0.19430999
0.010274 0.11252 0.20601
0.0082737999 0.11172 0.20570999
0.024033001 0.11197 0.19808
0.025048001 0.11019 0.19778
0.024383999 0.11149 0.19758999
0.024040001 0.10991 0.19771001
0.026586 0.1106 0.19802
0.024491001 0.11381 0.19757
0.025014 0.11259 0.19721
0.0034851001 0.11413 0.20731001
0.0041660001 0.11388 0.21121
0.0094069997 0.1132 0.20714
0.004646 0.11638 0.21101999
0.024172001 0.11813 0.1996
0.02555 0.11594 0.19701999
0.025397999 0.11605 0.19818
0.025305999 0.11435 0.19695
0.022869 0.11687 0.19864
0.0078750998 0.11717 0.20759
0.0060482002 0.11955 0.20925
0.0030695 0.11943 0.21080001
0.0096297003 0.1218 0.20624
0.0047256001 0.12281 0.20827
0.011026 0.12456 0.20521
0.0037310999 0.13037001 0.20951
0.0045963 0.13265 0.20739999
0.0020023 0.13283999 0.20924
0.0021349001 0.13382 0.21184
-0.00068280002 0.13416 0.21024001
-0.0014194 0.13831 0.21274
-0.0019729 0.13935 0.21338999
6.8959002e-05 0.14165001 0.21122999
0.0041985 0.14171 0.21074
0.0055475002 0.14155 0.20969
0.0069181998 0.14297 0.20967001
0.0071414001 0.14611 0.20851
0.0054036998 0.14916 0.20846
0.0018672 0.14909001 0.21291
0.0034208 0.15061 0.2106
0.0039149998 0.15024 0.20972
-0.00077152997 0.15279 0.21353
0.00044773999 0.15786 0.21213999
0.00077745999 0.15846001 0.21259999
0.0015107 0.16052 0.21059
0.0031944001 0.15974 0.2106
0.0072654001 0.16421001 0.20848
0.0086693 0.1661 0.20734
0.0093219997 0.16768999 0.20751999
0.011343 0.17027999 0.20634
0.011161 0.17279001 0.2054
0.0097182002 0.17093 0.20446
0.01132 0.17236 0.20544
0.036359001 0.17823 0.19221
0.011813 0.18062 0.20546
0.016512999 0.18221 0.20365
0.021641999 0.18339001 0.19994999
0.021181 0.18287 0.20015
0.022002 0.18387 0.20051999
0.031771999 0.18397 0.19499999
0.022910001 0.18337999 0.20021001
0.02452 0.18334 0.19881999
0.016116999 0.18406001 0.20302001
0.025243999 0.18345 0.19799
0.026715999 0.18288 0.19758999
0.029075 0.183 0.19643
0.031296998 0.18358 0.19449
0.033016 0.18454 0.19337
0.033606999 0.18628 0.19405
0.017069999 0.19008 0.20191
0.016811 0.19351 0.20426001
0.015298 0.19299001 0.20434
0.032529 0.19626001 0.19259
0.012342 0.19781999 0.20491
0.018173 0.20898999 0.20364
0.020088 0.21694 0.2008
0.025044 0.22093 0.19801
0.026392 0.22171 0.19758999
0.033615001 0.22401001 0.19365001
-0.011202 0.055799 0.21898
0.0068025002 0.060821999 0.21207
0.0082876999 0.061119001 0.21129
0.0077244998 0.061255999 0.20868
-0.014012 0.071883 0.22014999
-0.0089039002 0.072379999 0.21800999
-0.010427 0.072228 0.21884
0.026412001 0.079595998 0.19667999
0.016419999 0.078711003 0.20367
0.016086999 0.080796003 0.20218
0.034403998 0.080936998 0.1926
0.034141 0.080839001 0.193
0.036688998 0.079435997 0.19220001
-0.0064356001 0.079677001 0.21692
-0.0061629 0.079402998 0.21442001
-0.0051028999 0.081946999 0.21641999
-0.0030968999 0.084338002 0.21343
-4.0749001e-05 0.086632997 0.21314
-0.00038047001 0.087888002 0.21348
0.0030858 0.089270003 0.21161
-0.00017699 0.085919999 0.21269999
0.0034260999 0.089175001 0.2103
0.0062144999 0.088372998 0.20979001
0.023793001 0.095601998 0.19918001
0.023894999 0.096019998 0.19878
0.025542 0.097441003 0.19697
0.026908999 0.10023 0.19742
0.016204 0.099917002 0.20467
0.026582001 0.10186 0.19712
0.026578 0.10236 0.19566
0.028796 0.10315 0.19615
0.027742 0.10429 0.19734
0.011788 0.10469 0.20511
0.03111 0.10444 0.19607
0.010344 0.10681 0.20556
0.0097703999 0.10762 0.20592
0.010702 0.10896 0.20584001
0.011191 0.1074 0.20582999
0.01298 0.10533 0.20389
0.011878 0.10733 0.20660999
0.0095255002 0.10914 0.20629001
0.011365 0.10904 0.20558
0.011505 0.10818 0.20480999
0.0026628999 0.1102 0.20997
0.0099819005 0.11027 0.20762999
0.02469 0.11003 0.19942001
0.0039273002 0.11106 0.2102
0.0029914 0.11196 0.21093
0.0044038999 0.11088 0.20997
0.024045 0.11269 0.19832
0.024226001 0.11351 0.19864
0.027014 0.11325 0.19645
0.02527 0.11446 0.19731
0.0047786999 0.11557 0.21001001
0.0075011998 0.11504 0.20614
0.026012 0.11653 0.19854
0.024227001 0.11489 0.20020001
0.022864001 0.11371 0.19972999
0.0042629 0.11832 0.20956001
0.0099513 0.11953 0.20705999
0.0084833996 0.11891 0.20676
0.0046973 0.1203 0.20975
0.011099 0.12122 0.20638999
0.0045488002 0.12051 0.21059
0.0062082 0.11976 0.20965999
0.010794 0.12231 0.20555
0.011666 0.12251 0.20601
0.012197 0.12384 0.20708001
0.011454 0.12333 0.20621
0.0055833999 0.12491 0.20905
0.0035285 0.1258 0.21093
0.0038179001 0.1242 0.2105
0.0073746 0.12764999 0.20874999
0.0031540999 0.1285 0.20983
0.0072289999 0.12807 0.21032
0.0082339998 0.12908 0.20905
0.0022106001 0.12899999 0.21073
0.0018306 0.13146 0.21014
0.0034117 0.13161001 0.20986
0.0029058 0.13113999 0.21125001
0.0023091999 0.13297001 0.21162
0.0023898999 0.13433 0.21127
-0.00064573 0.13381 0.21286
-0.0014029 0.13428999 0.21331
0.0068676001 0.13424 0.20863
0.0014014 0.13536 0.21105
0.00050520001 0.13722999 0.21209
-0.00083034002 0.13756 0.21179
0.0027864999 0.14004 0.21032
0.00072886999 0.1419 0.21186
0.0012282 0.14176001 0.2111
-0.00053409999 0.15075 0.21343
0.0045449999 0.15099999 0.20942999
0.0040612002 0.14996 0.20982
0.00055601 0.1548 0.21314
0.0036704 0.16013999 0.20942999
0.0062988 0.16091999 0.20968001
0.0078172004 0.16429 0.2078
0.010644 0.17342 0.20649
0.010622 0.17314 0.20527001
0.010487 0.17814 0.20563
0.012255 0.18105 0.20454
0.015525 0.18224999 0.204
0.035998002 0.18164 0.19441999
0.017792 0.18328001 0.20236
0.016124001 0.18407001 0.20409
0.021062 0.18354 0.20151
0.030742999 0.18423 0.19569001
0.032120001 0.18346 0.19527
0.031349 0.18249001 0.19606
0.034756999 0.18272001 0.19309001
0.034965001 0.18401 0.19277
0.025612 0.18366 0.19787
0.027206 0.1814 0.19633999
0.019353 0.18388 0.20204
0.016525 0.18418001 0.20333999
0.0217 0.18869001 0.20082
0.014052 0.19438 0.20365
0.014898 0.20578 0.20505001
0.015256 0.20748 0.20355
0.015032 0.20896 0.20334999
0.01664 0.21074 0.20364
0.017085999 0.21217 0.20162
0.019825 0.21448 0.20018999
0.037895001 0.21665999 0.18993001
0.038798999 0.21683 0.19049001
0.021997999 0.21627 0.20136
0.036520001 0.2203 0.19255
0.035613999 0.22101 0.19358
0.034942999 0.22216 0.19247
0.032467999 0.22193 0.19573
-0.0071417 0.055039998 0.21614
-0.0051182001 0.055231001 0.2147
-0.010405 0.055952001 0.21792001
-0.01244 0.059925001 0.21874
-0.012686 0.062100999 0.21958999
-0.016279999 0.066538997 0.22081
-0.011164 0.072237 0.21905001
-0.011901 0.074091002 0.21796
-0.010057 0.076254003 0.21777
-0.010238 0.076241001 0.21774
0.020226 0.080300003 0.20227
-0.0090044998 0.080329001 0.21809
0.013392 0.079685003 0.20536999
0.029209999 0.079585999 0.19645999
0.030768 0.078162 0.19539
0.031971 0.080201 0.19306999
0.036444001 0.079297997 0.19188
-0.0081443004 0.079273 0.21736
0.0084244004 0.081799001 0.20745
0.0088572996 0.08405 0.2057
0.0093112998 0.080646999 0.20874999
-0.0022592 0.085383996 0.21517
0.0046811998 0.089541003 0.20963
0.021 0.092097998 0.20085
0.021160999 0.091393001 0.20021001
0.022621 0.094345003 0.19968
0.016013 0.097214997 0.20187999
0.018827001 0.097129002 0.2033
0.026299 0.099395998 0.19856
0.016132001 0.097221002 0.20342
0.015117 0.10178 0.20473
0.033865001 0.10386 0.19354001
0.013702 0.10298 0.20505001
0.013214 0.10648 0.20531
0.031268001 0.10651 0.19402
0.033415999 0.10732 0.19394
0.012099 0.10619 0.20621
0.01241 0.10946 0.20428
0.024359999 0.10861 0.1983
0.026651001 0.10931 0.19922
0.0028625 0.11083 0.20945001
0.01169 0.11065 0.2052
0.024420001 0.1115 0.19966
0.024227999 0.11025 0.19794001
0.010051 0.11148 0.20576
0.012488 0.11204 0.20705999
0.025936 0.11287 0.1972
0.025877001 0.11293 0.19829001
0.011445 0.11349 0.20606001
0.01041 0.11587 0.20616999
0.010284 0.1147 0.20584001
0.011332 0.11459 0.20513999
0.024208 0.11431 0.19855
0.022382 0.1154 0.19939999
0.010992 0.11743 0.20656
0.0045130998 0.11698 0.21125001
0.010364 0.1197 0.20612
0.011564 0.11926 0.20697001
0.0039340998 0.11922 0.21036001
0.0032096 0.12017 0.21159001
0.0042852 0.12287 0.2112
0.0061150002 0.12206 0.20872
0.0029048 0.12334 0.21021
0.0064308001 0.12560999 0.20902
0.01069 0.12643 0.20671999
0.000139 0.1278 0.21091001
0.00015011001 0.13007 0.21214999
0.0010318001 0.12822001 0.21314999
0.00083078002 0.12872 0.21088
-0.00079332001 0.13157 0.21245
0.0015332 0.13077 0.21118
0.0048161 0.13122 0.20992
0.00012934 0.13222 0.21238001
-0.0014651 0.13204999 0.21224
-0.0010558 0.1355 0.21176
0.0071263998 0.13613001 0.20801
-0.00032115 0.1362 0.21324
0.00064126001 0.13638 0.21197
0.0057942001 0.13673 0.20687
-0.002602 0.13715 0.21389
0.0062905001 0.13682 0.20832001
0.0078196004 0.13783 0.20835
0.0063013001 0.13807 0.20869
-0.0015838 0.13702001 0.21229
0.00046303001 0.13907 0.21296
0.0018372 0.13812 0.21249001
0.0016809 0.1374 0.21085
0.0048922002 0.13947999 0.2094
0.0049163001 0.14015999 0.20972
0.0032589999 0.13835 0.21115001
-0.00099361001 0.13946 0.21270999
0.00070645998 0.14188001 0.21334
0.0024119001 0.14137 0.21119
0.0020063 0.14098001 0.211
0.0046493998 0.14129999 0.21111
0.0058952998 0.14504001 0.20996
0.0057096998 0.14541 0.20939
0.0030545001 0.15002 0.21184
0.00010586 0.15108 0.21292
0.0028347 0.15172 0.21096
-0.0014995 0.15316001 0.21197
0.00086714001 0.15801001 0.21088
0.0072165001 0.16243 0.20885
0.0085413 0.16515 0.20919
0.0086297002 0.1666 0.20846
0.010946 0.17651001 0.20812
0.0089362999 0.17487 0.20664001
0.037914999 0.17887001 0.19058999
0.037531 0.17981 0.19172999
0.037457 0.17948 0.19204
0.012206 0.1779 0.20689
0.013124 0.17957 0.20533
0.035928 0.18065999 0.19419
0.014694 0.18167999 0.20424999
0.018242 0.18138 0.20367
0.019528 0.18248001 0.20133001
0.027278 0.18377 0.19772001
0.033410002 0.1838 0.19445001
0.035021 0.18648 0.19358
0.031736001 0.18768001 0.19442999
0.030890999 0.18674999 0.19261999
0.023112999 0.18691 0.19814
0.023986001 0.18734001 0.19879
0.024535 0.18743999 0.19914
0.034614 0.18719999 0.19348
0.022496 0.18708999 0.19868
0.022036999 0.1882 0.20089
0.018329 0.18957999 0.20147
0.033411 0.18927 0.19164
0.018076001 0.19066 0.20264
0.014746 0.19257 0.20474
0.033939 0.19796 0.19294
0.01248 0.19952001 0.20566
0.012311 0.20136 0.20491
0.012826 0.20313001 0.20471001
0.013398 0.20534 0.2045
0.015632 0.20835 0.20419
0.018874999 0.21263 0.20232999
0.020950001 0.21727 0.20101
0.037328001 0.21738 0.19136
0.036189999 0.21867999 0.19207001
0.03669 0.2193 0.19201
0.024251999 0.22115 0.19909
0.033303998 0.22157 0.19478001
0.029356999 0.22297999 0.19689
0.030099001 0.22327 0.19584
0.031679001 0.22417 0.19385999
0.029208001 0.22329 0.19584
-0.0085682999 0.055039998 0.21698
-0.013013 0.059670001 0.21958999
-0.013714 0.062132999 0.21936999
-0.012802 0.065990999 0.21997
0.013416 0.078404002 0.20634
-0.0047845999 0.085069999 0.21476001
0.0024895 0.088629 0.21103001
0.023289001 0.094315 0.19931
0.018084001 0.095337003 0.20259
0.024008 0.094485998 0.19862001
0.018973 0.096593 0.20254999
0.025674 0.10069 0.19871999
0.027425 0.10318 0.19758999
0.026031001 0.10459 0.19863001
0.027307 0.10519 0.19707
0.022468001 0.10821 0.19919001
0.023011001 0.11003 0.19982
0.025343999 0.10728 0.19972999
0.0242 0.10765 0.19953001
0.013297 0.11044 0.20557
0.023398999 0.11494 0.19973999
0.011844 0.11704 0.2052
0.0092666997 0.11913 0.20558999
0.023216 0.11803 0.2006
0.021713 0.11932 0.20002
0.0050316998 0.12425 0.20849
0.011363 0.12720001 0.20621
0.01062 0.12796 0.20577
0.010949 0.12905 0.20682999
0.0037052 0.12914 0.20931999
-9.4282001e-07 0.1507 0.21234
0.0030698001 0.15372001 0.20869
0.0014754999 0.15694 0.2119
0.0019924999 0.15786 0.21176
0.012328 0.17094 0.20706999
0.014725 0.18020999 0.20491
0.036224 0.18062 0.19358
0.034547001 0.19964001 0.19359
0.012318 0.20061 0.20574
0.038933001 0.21551 0.19
0.039273001 0.21481 0.19013999
0.027899001 0.22273999 0.19651
-0.011778 0.057000998 0.21809
-0.013495 0.067607 0.22096001
0.013691 0.079139002 0.20378999
0.017802 0.081260003 0.20354
0.021806 0.080238 0.2022
0.031656999 0.079037003 0.19551
0.034543 0.080294997 0.19227999
0.0079424996 0.086213998 0.20816
0.0094146999 0.08608 0.20787001
0.023376999 0.095556997 0.20021001
0.015679 0.10194 0.20395
0.014981 0.10678 0.20566
0.027451999 0.10524 0.19806001
0.024894999 0.10579 0.20022
0.022453001 0.10748 0.19989
0.033318002 0.10813 0.19554999
0.023195 0.11164 0.19950999
0.013199 0.11329 0.20561001
0.012376 0.11499 0.20586
0.013398 0.11655 0.20581999
0.012495 0.12133 0.20551001
0.012227 0.12242 0.20512
0.0061443001 0.12943999 0.21127
0.0054450999 0.13093001 0.20963
0.0068929 0.13304999 0.20945001
0.0069431998 0.14978001 0.20942
0.0047037001 0.15260001 0.21072
0.00043053 0.15316001 0.21257
0.0022229999 0.15555 0.21225999
0.0031220999 0.15598001 0.21121
0.0033364999 0.15857001 0.21086
0.0042165001 0.1596 0.21258999
0.019815 0.18187 0.20238
0.029286999 0.18207 0.197
0.020957001 0.21488 0.2033
0.022683 0.21954 0.20018999
0.026027 0.22058 0.19888
0.029221 0.22201 0.19805001
-0.0076191002 0.055305 0.21746001
-0.0045461999 0.056146 0.21453001
-0.013009 0.068448998 0.21994001
-0.010092 0.073523998 0.22138
-0.0087523004 0.074123003 0.21876
-0.0079880003 0.075677 0.21899
0.021353999 0.079184003 0.20208
0.0253 0.078466997 0.19975001
0.027794 0.078594998 0.19766
0.033070002 0.080113001 0.19486
0.035592999 0.078496002 0.19401
-0.0050935 0.081359997 0.21532001
0.0042862999 0.087857999 0.21191999
0.022196 0.092509001 0.20133001
0.021379 0.094166003 0.19978
0.021911001 0.092763998 0.20033
0.025178 0.098655 0.19967
0.024511 0.098623998 0.19997001
