# .PCD v0.7 - Point Cloud Data file format
VERSION 0.7
FIELDS x y z
SIZE 4 4 4
TYPE F F F
COUNT 1 1 1
WIDTH 1582
HEIGHT 1
VIEWPOINT 0 0 0 1 0 0 0
POINTS 1582
DATA ascii
-0.0024438 0.079372004 0.19441999
0.033491999 0.079963997 0.17484
0.041087002 0.079193003 0.17016
0.042597 0.079424001 0.16933
-0.015102 0.079709999 0.20122001
-0.00054555997 0.082385004 0.19375999
-0.015306 0.085906997 0.2027
-0.013584 0.085712999 0.20146
-0.017464999 0.089968003 0.20279001
-0.016577 0.091284998 0.20246001
-0.016186001 0.091526002 0.20313001
-0.0097748004 0.10355 0.19991
-0.0098230001 0.10153 0.19961999
-0.0099828001 0.10421 0.19891
-0.011332 0.10485 0.20025
-0.013575 0.10633 0.20063999
-0.014935 0.10861 0.20166001
-0.016125999 0.11314 0.20322999
-0.016307 0.11334 0.20234001
-0.016419999 0.11503 0.2024
-0.011925 0.13481 0.20051999
-0.011722 0.14312001 0.20085999
-0.010687 0.15147001 0.1989
-0.0091548003 0.15216 0.19699
-0.0031328001 0.18836001 0.19506
-0.0045464002 0.21235 0.19587
-0.0056830002 0.21428999 0.19580001
-0.0056634001 0.21629 0.19670001
0.028306 0.21844999 0.1776
0.019131999 0.22126 0.18302999
0.038968001 0.22363 0.17188001
0.041420002 0.22548001 0.17038999
0.041311 0.23514 0.17068
0.041976001 0.2369 0.16982
0.041402001 0.2362 0.17037
0.042529002 0.23627 0.16913
0.037505999 0.2388 0.1724
0.036463998 0.23980001 0.17337
0.0082780002 0.24682 0.18793
0.017894 0.24770001 0.18445
-0.018988 0.058407001 0.20472001
-0.021493001 0.061517999 0.20635
-0.020881999 0.060368001 0.20599
-0.021453001 0.069930002 0.20644
-0.018657001 0.074193999 0.20446
-0.0060488 0.079286002 0.19663
0.021052999 0.079384997 0.18099
0.022709001 0.079458997 0.18161
0.022111 0.079779997 0.18082
0.020575 0.079497002 0.18258999
0.034469001 0.080422997 0.17509
-0.012764 0.094650999 0.20130999
-0.011113 0.097631 0.20027
-0.01056 0.098522998 0.20058
-0.011861 0.10547 0.20028999
-0.015868001 0.11228 0.20314001
-0.01539 0.11169 0.20237
-0.0086890999 0.11592 0.1991
-0.0077375001 0.11659 0.1988
-0.010107 0.12208 0.19976
-0.012228 0.12388 0.20122001
-0.013979 0.12757 0.20231999
-0.013508 0.13087 0.20184
-0.013876 0.12937 0.20194
-0.0064427 0.13655999 0.19802
-0.0073313001 0.13676 0.19762
-0.011372 0.13753 0.20077001
-0.0096866004 0.13821 0.19963001
-0.011724 0.14490999 0.20118999
-0.010789 0.14777 0.19993
-0.010963 0.14662001 0.20018999
-0.011121 0.15105 0.19979
-0.0099219 0.15073 0.19988
-0.0038407999 0.19863001 0.19656999
-0.0045691999 0.19924 0.19633
-0.0046597999 0.20207 0.19611
-0.0037547001 0.21044999 0.19674
-0.0038409999 0.21156 0.1964
0.031791002 0.21602 0.17662001
0.029421 0.21693 0.17682999
0.017958 0.22022 0.18423
0.018564001 0.22044 0.18395001
0.036935002 0.22037999 0.17377999
0.036970001 0.22148 0.17321
0.041540001 0.22326 0.17014
0.040645 0.22357 0.17072
0.040467001 0.22339 0.17146
0.043666001 0.22816999 0.17005
0.01942 0.23085 0.18312
0.01496 0.23724 0.18616
0.015853001 0.23642001 0.1858
0.039221 0.23909999 0.17165001
0.040417001 0.23727 0.17083
0.038807999 0.2396 0.17211001
0.031594999 0.24502 0.17640001
0.030286999 0.24496 0.17678
0.0082149003 0.24700999 0.18996
0.0075225998 0.24714001 0.19042
0.0086888 0.24737 0.18963
-0.017399 0.057771001 0.20418
-0.020469001 0.059429999 0.20558999
-0.022453001 0.062579997 0.20665
-0.022373 0.064025 0.20668
-0.022422001 0.068535 0.20667
-0.020342 0.071617998 0.20568
-0.019671001 0.077280998 0.20521
-0.019824 0.078717001 0.20523
0.034515999 0.07925 0.17491999
0.035780001 0.079148002 0.17491999
0.038148001 0.078904003 0.17324001
0.016642001 0.079382002 0.18512
-0.018916 0.079801999 0.20446999
-0.017727001 0.079746999 0.20415001
-0.016559999 0.079327002 0.20319
-0.00033076 0.079267003 0.1943
0.014951 0.079131998 0.18550999
0.039356999 0.079094 0.17261
-0.014872 0.079885997 0.20242
-0.0020061999 0.079476997 0.19585
0.018856 0.079659998 0.18415999
0.034430999 0.081817001 0.17541
-0.00071652001 0.081515998 0.19496
-0.0065990998 0.085395001 0.19784001
-0.0067047998 0.085529 0.19628
-0.0059847999 0.085620001 0.19758999
-0.017285001 0.085809 0.20445
-0.018497 0.086413004 0.20454
-0.018545 0.087724 0.20445
-0.016489999 0.086158 0.20362
-0.018307 0.088747002 0.20489
-0.018144 0.088955 0.20375
-0.017701 0.090034999 0.20397
-0.016863 0.090833999 0.20332
-0.015448 0.092156999 0.20282
-0.014462 0.092720002 0.20282
-0.013852 0.093584999 0.20196
-0.011671 0.096192002 0.20032001
-0.010402 0.099275 0.1999
-0.0099937003 0.10055 0.20018999
-0.010476 0.10444 0.19937
-0.012402 0.10488 0.20145001
-0.01312 0.10583 0.20103
-0.013455 0.1062 0.20182
-0.013838 0.10741 0.20191
-0.014749 0.10775 0.20299999
-0.015289 0.10908 0.20242999
-0.015305 0.11082 0.20288999
-0.016008999 0.11466 0.20317
-0.015702 0.11547 0.20282
-0.012591 0.11589 0.2015
-0.011528 0.11561 0.20074999
-0.01024 0.11618 0.2001
-0.013788 0.11573 0.2015
-0.01149 0.12236 0.20028999
-0.012647 0.12472 0.20142999
-0.01322 0.12594 0.20103
-0.013724 0.12657 0.20174
-0.013265 0.13215999 0.20185
-0.012956 0.13233 0.20133001
-0.012364 0.13365 0.20144001
-0.011077 0.13438 0.20036
-0.0095821004 0.13383 0.19969
-0.012734 0.1349 0.20118
-0.012366 0.13829 0.20110001
-0.0084402999 0.13808 0.19936
-0.0076890001 0.13808 0.19875
-0.012575 0.13959999 0.20151
-0.011977 0.14049 0.2013
-0.01179 0.14122 0.20103
-0.011124 0.14218999 0.20089
-0.012019 0.14398 0.20092
-0.010632 0.14826 0.20033
-0.011002 0.14946 0.20022
-0.0079865996 0.15067001 0.19825
-0.0063616 0.14994 0.19818
-0.0088956002 0.15042 0.19889
-0.0036444999 0.19454999 0.19597
-0.0040203002 0.19588 0.1962
-0.0039269002 0.19716001 0.19687
-0.0039406 0.20035 0.19638
-0.0044455999 0.20356999 0.19655
-0.0046199998 0.20468999 0.19659001
-0.0047892998 0.20582999 0.19666
-0.0044681001 0.20732 0.19673
-0.0042408998 0.20867001 0.19678
-0.0046031 0.21483 0.19674
-0.0048989998 0.21607 0.19671001
0.0046474002 0.21455 0.19028001
0.0046338998 0.21604 0.19052
0.0038703 0.21581 0.19194999
0.033287998 0.21635 0.17605001
0.0042432998 0.21755999 0.18974
-0.0051555 0.21747001 0.19615
0.003271 0.21729 0.19193
0.033498999 0.21689001 0.17544
0.034407999 0.21738 0.17542
0.029287999 0.21862 0.1786
0.029452 0.21781 0.17776
0.034722999 0.21889 0.17532
-0.0035746 0.21755999 0.19623999
0.0012135 0.21927001 0.19255
-5.8828002e-05 0.21911 0.19388001
0.0011598 0.21853 0.1928
0.027799999 0.21913999 0.17876001
0.016463 0.21911 0.18508001
0.017295999 0.21998 0.18431
0.027016001 0.22028001 0.17957
-0.0024712 0.22005001 0.19510999
-0.0032027001 0.22068 0.19425
-0.0028800999 0.21922 0.19552
0.027855 0.21972001 0.17900001
0.035902999 0.21961001 0.17456999
0.035700001 0.21960001 0.17363
-0.0017172 0.22104999 0.19416
-0.0013055 0.21994001 0.19459
0.019313 0.22182 0.18348999
0.024369 0.22236 0.18099999
0.025269 0.22141001 0.18041
0.025761001 0.22091 0.17984
0.037896 0.22159 0.17283
0.038031001 0.22062001 0.17331
0.020032 0.22233 0.18285
0.020105001 0.22332001 0.18317001
0.038998 0.22299001 0.17205
0.023461999 0.22345001 0.18098
0.023398001 0.22498 0.18115
0.020137001 0.22497 0.18321
0.019747 0.22621 0.18342
0.023252999 0.22604001 0.18081
0.019668 0.22693001 0.18328001
0.019718001 0.22887 0.18325999
0.023744 0.23054001 0.18129
0.02352 0.22927 0.1812
0.043428998 0.22932 0.17051999
0.042775001 0.23066001 0.17061999
0.042419001 0.23081 0.17005999
0.023116 0.23154999 0.18000001
0.019471001 0.23196 0.18343
0.019432999 0.23343 0.18374
0.018271999 0.23383 0.18426
0.017361 0.23453 0.18461999
0.042079002 0.23507001 0.17054
0.042281002 0.23327 0.17075001
0.016448 0.23514 0.18481
0.013742 0.23885 0.18685
0.037845999 0.23932 0.17287
0.024467999 0.24331 0.18072
0.024586 0.24304 0.17903
0.023951 0.24395999 0.17949
0.0010359 0.24334 0.19330999
0.0027578 0.24355 0.19246
0.00072521 0.2437 0.1926
0.029725 0.24436 0.17693999
0.030502001 0.24569 0.17697001
0.031249 0.24586999 0.17607
0.016836001 0.24654 0.18557
0.016723 0.24759001 0.18464001
0.018878 0.24762 0.18364
-0.013479 0.056566 0.20169
-0.017264999 0.057643998 0.20304
-0.016919 0.057785001 0.20255999
-0.02269 0.065609001 0.20677
-0.018894 0.075778 0.20458999
-0.0032591 0.078978002 0.19644
-0.0027198 0.079429999 0.19593
0.012703 0.079278998 0.1877
0.014089 0.079212002 0.18641999
0.022028999 0.079388998 0.18222
0.041777 0.079290003 0.17129
-0.013523 0.079637997 0.20202
-0.0013023 0.080259003 0.19483
0.0063788001 0.081626996 0.19083001
-0.014733 0.1158 0.20258
-0.012117 0.12275 0.20119999
-0.011373 0.14548001 0.20094
-0.0085217999 0.14986999 0.19934
-0.0037517999 0.20169 0.19677
-0.0036794001 0.21636 0.19654
-0.0024865 0.2177 0.19575
0.039352998 0.22166 0.17248
0.023886001 0.22788 0.18128
0.014695 0.23813 0.18653999
0.0064292001 0.24648 0.19064
0.0094084004 0.24685 0.18927
-0.014993 0.057201002 0.20262
-0.013112 0.056713998 0.20318
-0.020012001 0.059176002 0.20588
0.036841001 0.078914002 0.1741
-0.0079389997 0.079135001 0.19921
-0.0045598 0.079256997 0.19690999
-0.018997001 0.079694003 0.20523
0.0082957996 0.079269998 0.18959001
0.0079378998 0.079570003 0.19008
0.0068275002 0.080260001 0.19092999
0.020179 0.079751 0.18361001
-0.016798001 0.091135003 0.20423999
-0.011939 0.095994003 0.20141
0.02373 0.22475 0.18141
0.023825999 0.22344001 0.18144
0.0091855004 0.24459 0.18960001
0.0095864004 0.24432001 0.18844999
0.0097757 0.24484999 0.18907
0.018036 0.24707 0.18512
-0.020047 0.059531 0.20694999
-0.021818999 0.069645002 0.20666
-0.017821001 0.074403003 0.20593999
-0.019216999 0.077115998 0.20655
-0.019233 0.076353997 0.20551001
-0.019084999 0.076265998 0.20615
0.035413999 0.080054998 0.17513999
-0.01099 0.079475001 0.20079
0.011554 0.079221003 0.1883
0.043366 0.079494998 0.17044
-0.014287 0.085984997 0.20374
-0.018162999 0.089827999 0.20468
-0.013006 0.094352998 0.20228
-0.013076 0.1055 0.20201001
-0.015667001 0.10882 0.20333999
-0.015625 0.10999 0.2032
-0.015675001 0.11356 0.20478
-0.010912 0.11569 0.20074999
-0.013184 0.12549999 0.20246001
-0.0094919 0.15011001 0.20044
0.047827002 0.16972999 0.16827001
0.046969999 0.16838001 0.16854
0.046836998 0.16967 0.16851
0.047010001 0.17120001 0.16806
0.045972999 0.17146 0.16957
-0.003816 0.20554 0.19707
-0.0039610998 0.20913 0.19719
-0.0046589999 0.20983 0.1964
0.0022406999 0.21742 0.19271
0.033831999 0.21686 0.17569999
0.037121002 0.21971001 0.17407
0.039514001 0.22059999 0.17264999
0.023776 0.22597 0.18178
0.019758999 0.22777 0.18376
0.020005001 0.23072 0.18397
0.020113001 0.23185 0.18366
0.023572 0.2304 0.18282001
0.023477999 0.23217 0.18171
0.042164002 0.23217 0.17044
0.042971998 0.23364 0.17084
0.016565001 0.23582 0.18567
0.0036364 0.24199 0.19159
0.0040079998 0.24349999 0.19228999
0.0041649998 0.24474999 0.1921
-0.017949 0.058164001 0.20587
-0.021444 0.063147001 0.20771
-0.021113001 0.070633002 0.20736
-0.018270999 0.073096 0.20581999
-0.019068001 0.078720003 0.20665
-0.0093638003 0.079485998 0.20017
-0.0083306003 0.079489999 0.20005
-0.0062016998 0.079346001 0.19798
0.010238 0.079562999 0.18875
0.041157 0.079557002 0.17245001
-0.012292 0.079759002 0.20182
0.0081928996 0.079295002 0.19164
-0.0019417 0.080052003 0.19675
-0.0013261 0.081545003 0.19595
-0.017875001 0.086259998 0.20522
-0.018216001 0.087688997 0.20548999
-0.018188 0.088866003 0.2059
-0.017797999 0.090502001 0.20607001
-0.017085001 0.091732003 0.20532
-0.0040262002 0.091034003 0.19717
-0.004799 0.090267003 0.19697
-0.0037249001 0.090875998 0.19707
-0.010524 0.099321 0.20166001
-0.0099136 0.10093 0.20096999
-0.01283 0.10523 0.20291001
-0.013999 0.1158 0.20344999
-0.007524 0.13375001 0.19814
-0.0058309999 0.13402 0.199
-0.0065116002 0.13413 0.19791
-0.01136 0.14496 0.20207
0.047835998 0.16741 0.16835
0.047506001 0.16577999 0.16858999
0.048202001 0.16836999 0.16836999
0.047109 0.16700999 0.16893999
0.046077002 0.16962001 0.16932
0.045297999 0.17124 0.1699
0.045382999 0.17245001 0.16982
-0.0040877 0.20441 0.19712
-0.0035067 0.21482 0.19664
0.017137 0.21980999 0.18519001
0.019701 0.22205999 0.18488
0.043586999 0.22758 0.17033
0.045084 0.2278 0.17118999
0.021222999 0.22934 0.18450999
0.019832 0.22943 0.18376
0.020850001 0.23052999 0.18430001
-0.019122999 0.058850002 0.20671
-0.020178 0.060293999 0.20732
-0.021153999 0.061144002 0.20746
-0.022126 0.067192003 0.20818999
-0.022066999 0.065783001 0.20852999
-0.021953 0.068805002 0.20796999
-0.021214001 0.069730997 0.20788001
-0.020223999 0.071183003 0.20682
-0.019784 0.072008997 0.20686001
0.023762999 0.079318002 0.18271001
0.024626 0.079397999 0.18223999
-0.017984999 0.079806 0.20582999
0.015433 0.079043999 0.1867
0.039953001 0.079135001 0.17395
0.041294999 0.079369999 0.17336001
-0.016759999 0.079673 0.20513999
-0.017029 0.086053997 0.20475
-0.017099001 0.087433003 0.20552
-0.015493 0.087382004 0.20429
-0.017456001 0.090764999 0.20491
-0.016108001 0.092353001 0.20442
-0.014723 0.093317002 0.20385
-0.013302 0.094325997 0.20283
-0.012398 0.095404997 0.20212001
-0.011622 0.096065 0.20242999
-0.010995 0.097874001 0.20194
-0.0098229004 0.10202 0.20118999
-0.0098313 0.1032 0.20088001
-0.010344 0.10404 0.20179
-0.011043 0.1042 0.20173
-0.011901 0.10445 0.20253
-0.013612 0.10638 0.20331
-0.015282 0.10763 0.20423
-0.015203 0.10907 0.20423
-0.015053 0.11054 0.20427001
-0.015392 0.11204 0.20437001
-0.015496 0.11472 0.2043
-0.014522 0.11529 0.20411
-0.0098080998 0.11571 0.20092
-0.010427 0.1155 0.20197
-0.011943 0.11578 0.20226
-0.010983 0.11577 0.20172
-0.0082667004 0.11605 0.20028999
-0.0068437001 0.1162 0.19994
-0.009656 0.12129 0.20072
-0.0093034003 0.12121 0.20128
-0.0079789003 0.12146 0.1999
-0.0089339996 0.12151 0.20057
-0.010578 0.12158 0.20183
-0.011842 0.12242 0.20249
-0.011986 0.12468 0.20254999
-0.012226 0.12367 0.20242
-0.013217 0.125 0.20317
-0.013529 0.12637 0.2033
-0.013673 0.12772 0.20338
-0.013858 0.12959 0.20308
-0.013231 0.13073 0.20321
-0.012816 0.13243 0.20316
-0.011719 0.13349 0.20234001
-0.0066706999 0.13383999 0.19942001
-0.010553 0.13395999 0.20159
-0.010559 0.13853 0.20189001
-0.011646 0.13838001 0.20249
-0.0095789004 0.13854 0.20105
-0.0079399003 0.13827001 0.19969
-0.0069583999 0.13833 0.19894999
-0.012272 0.13955 0.20264
-0.011702 0.14082 0.2024
-0.010681 0.14151999 0.20216
-0.01051 0.14210001 0.20163
-0.010642 0.14376999 0.20208
-0.011547 0.14415 0.20189001
-0.01107 0.1455 0.20218
-0.010523 0.14674 0.20174
-0.010082 0.14812 0.20151
-0.01017 0.14937 0.20127
-0.0094138999 0.14946 0.20107
-0.0082823001 0.14879 0.20009001
0.048632 0.16531999 0.1688
0.047837 0.16539 0.16859999
0.048629001 0.16703001 0.16893999
0.045818999 0.16548 0.17008001
0.046291001 0.16715001 0.16958
0.045589 0.16788 0.16945
0.048590999 0.16850001 0.16892
0.046243999 0.16836999 0.16914
0.044989999 0.16992 0.17104
0.048416998 0.17002 0.16838001
0.048388999 0.17106999 0.16879
0.044899002 0.17114 0.17049
0.046156999 0.17298 0.16918001
-0.0022130001 0.1945 0.19757
-0.0027445999 0.20591 0.19761001
-0.0032281 0.20884 0.19727001
-0.00312 0.20758 0.19738001
-0.0029633001 0.21037 0.19697
-0.0020067999 0.21159001 0.19645
-0.0024234001 0.21355 0.19626001
-0.0014362 0.21331 0.19622999
-0.0018031 0.21421 0.19633999
-0.0027697 0.21505 0.19653
-0.0021655001 0.21468 0.19634999
0.034862999 0.21566001 0.17614
0.035096999 0.21759 0.17612
0.029806999 0.21926001 0.17937
0.035367999 0.21871001 0.17585
0.036486998 0.21922 0.17577
0.028631 0.21944 0.17931999
0.017547 0.22013 0.18634
0.018371999 0.22071999 0.18561999
0.028782001 0.22012 0.18012001
0.020258 0.22263999 0.18459
0.020904001 0.22310001 0.18465
0.024538999 0.22491001 0.18231
0.024514999 0.22345001 0.18227001
0.020664999 0.22493 0.18447
0.020593001 0.22605 0.18422
0.024366001 0.22762001 0.18241
0.020832 0.22784001 0.18448
0.044082999 0.22940999 0.17096999
0.024016 0.22924 0.18292999
0.023967 0.22914 0.18221
0.043963 0.23045 0.17107999
0.043887001 0.23209 0.1714
0.021264 0.23205 0.18418001
0.020948 0.23356 0.18399
0.01822 0.23533 0.18503
0.017359 0.23650999 0.18574999
0.016429 0.23695 0.18627
0.01581 0.23766001 0.18643001
0.01441 0.23885 0.18729
0.0051405998 0.24481 0.19166
0.0056846999 0.24479 0.19227999
0.0057764002 0.24568 0.19151001
0.0075881002 0.24552999 0.19098
0.0080009 0.24506 0.19016001
0.0082321996 0.24636 0.19086
0.0070667998 0.24616 0.19137999
0.011062 0.24605 0.18955
0.01038 0.24651 0.18883
0.0092551997 0.24642 0.19017
0.019440999 0.24674 0.1847
0.020850001 0.24647 0.18397
-0.014347 0.057224002 0.20387
-0.015542 0.057583999 0.20457
-0.021282 0.062068999 0.20772
-0.021842999 0.064065002 0.20819999
-0.018441999 0.075508997 0.20577
0.037776001 0.079184003 0.17519
0.038699001 0.078988999 0.17437001
-0.0066383998 0.079241998 0.19953001
-0.0055010002 0.079214998 0.19876
-0.0030388001 0.079342 0.19775
0.013287 0.079127997 0.18828
0.036334999 0.080057003 0.17556
0.036938999 0.079099 0.17541
-0.015445 0.079524003 0.20427001
0.01519 0.079340003 0.18771
0.021996999 0.079301998 0.18301
0.0093796002 0.079277001 0.19126
0.0073251999 0.079989001 0.1921
0.0069615999 0.081726998 0.19217999
-0.015557 0.086466998 0.2043
-0.0078205997 0.089579001 0.20037
-0.0065290001 0.090237997 0.19975001
-0.0077116 0.090401001 0.20029999
-0.011288 0.097066998 0.20221999
-0.014695 0.10711 0.20355999
-0.0128 0.11602 0.20333
-0.0071842 0.11931 0.19813
-0.0075869001 0.11771 0.19841
-0.0068574999 0.11797 0.19930001
-0.0065155998 0.11863 0.19964001
-0.0055380999 0.13799 0.199
-0.0094042001 0.14252999 0.20068
-0.0091733998 0.14357001 0.20095
-0.0076047 0.14871 0.19936
-0.0076510999 0.14779 0.20036
0.045655999 0.16426 0.16971999
0.045706999 0.16711 0.16979
0.045348 0.16659001 0.17066
0.045214001 0.16843 0.17082
0.044836 0.17294 0.17114
0.045611002 0.17425001 0.16934
0.044392001 0.17407 0.1708
-0.0024790999 0.19576 0.19733
-0.0026990999 0.19701 0.1973
-0.002593 0.20460001 0.19723
0.027729001 0.22081 0.18058001
0.025195001 0.22217 0.18182001
0.0094301002 0.24584 0.1901
-0.016807999 0.057905 0.2054
-0.016341999 0.057936002 0.20615999
-0.018587001 0.072631001 0.20659
-0.0040221 0.079287 0.19819
-0.0086123003 0.079433002 0.2007
0.044571999 0.079106003 0.1697
0.044280998 0.079521 0.17117
0.045458 0.079424001 0.17099001
-0.011924 0.079814002 0.20234001
-0.0015442 0.081716001 0.19686
-0.013058 0.086080998 0.20332
-0.013864 0.10673 0.20423
-0.0079279998 0.14233001 0.19988
-0.0076263999 0.14374 0.20028
-0.0090517001 0.14856 0.20112
0.048133999 0.17095 0.16903999
0.048328001 0.16992 0.16948999
-0.018544 0.072191 0.20782
-0.0091457004 0.079750001 0.20145001
-0.0022772001 0.079960003 0.19819
0.010852 0.079374 0.18984
0.0094141001 0.079127997 0.19103999
0.010277 0.079251997 0.19172999
0.011868 0.079524003 0.18945
-0.014502 0.079563998 0.2042
-0.012841 0.079525001 0.20313001
-0.017604001 0.091458999 0.20624
-0.0065080998 0.091256 0.20002
-0.0073120999 0.091247 0.20057
-0.01546 0.092854001 0.20484
-0.013678 0.093776003 0.20358001
-0.012033 0.095609002 0.20317
-0.0098877996 0.10058 0.20163
-0.013635 0.12933999 0.20384
-0.013594 0.12852 0.20351
-0.0091696996 0.14133 0.20108999
-0.0068541998 0.14224 0.2
-0.0021021001 0.19278 0.19735999
-0.0026193 0.19848 0.19768
-0.0026676001 0.20031001 0.19761001
0.036660001 0.21744999 0.17619
0.036217999 0.21592 0.17614
0.037909001 0.21909 0.17553
0.045419998 0.23072 0.17120001
0.045045 0.23167001 0.17129
-0.016319999 0.058038998 0.20513
0.037453 0.080297001 0.17569
-0.0076067001 0.080039002 0.20066001
0.042975001 0.079378001 0.17188001
-0.014191 0.087016001 0.20444
-0.014684 0.087958001 0.20522
-0.0093229003 0.13359 0.20135
-0.0064939 0.13886 0.19995999
-0.011373 0.14101 0.20378999
-0.011844 0.14015999 0.20403001
-0.0063760998 0.14551 0.20021001
-0.0064984998 0.14692 0.20028
-0.0074491999 0.14538001 0.2006
-0.0073354999 0.14707001 0.20056
-0.0030926999 0.15968999 0.19773
-0.0036885999 0.15786 0.19841
-0.003363 0.1585 0.19826999
0.048498999 0.17132001 0.17009
0.048245002 0.17285 0.16922
0.01925 0.22154 0.18601
0.022754 0.23209 0.1842
-0.015927 0.057697002 0.20626999
-0.0197 0.059900999 0.20829
-0.020651 0.061957002 0.2089
-0.020234 0.061014 0.2087
-0.021108 0.068893999 0.20909999
-0.021652 0.067336001 0.20941
-0.018232999 0.076311998 0.20784
-0.018583 0.077359997 0.20776001
0.039719 0.079225004 0.17551
0.040789001 0.078984998 0.1751
-0.0065384 0.080164999 0.20015
-0.0054577999 0.080156997 0.19956
-0.0041743 0.079797 0.19905999
-0.015921 0.079461999 0.20626999
-0.010647 0.079873003 0.20228
-0.0046839002 0.080756001 0.20029999
0.0070378999 0.080061004 0.19372
0.0075174002 0.079957999 0.19359
-0.0059823999 0.080815002 0.2007
-0.0068226 0.080972001 0.20051
-0.0019504 0.080844998 0.19786
-0.0022785 0.081643 0.19863001
-0.016240001 0.088179998 0.20609
-0.0084306002 0.089658 0.20195
-0.0070819999 0.089284003 0.20152
-0.0084218001 0.090037003 0.20238
-0.014971 0.093318999 0.20532
-0.01346 0.094593003 0.20525999
-0.011428 0.096648999 0.20407
-0.010023 0.098775998 0.2031
-0.0096533997 0.10028 0.20283
-0.014669 0.10763 0.20543
-0.014592 0.11345 0.206
-0.013703 0.11483 0.20483001
-0.012166 0.11603 0.20378
-0.0066061998 0.12151 0.20082
-0.0069525 0.12149 0.19931
-0.0094729001 0.12159 0.20302001
-0.012622 0.125 0.20468999
-0.0088045001 0.14528 0.20138
-0.0084376 0.14666 0.20126
-0.0097725 0.14668 0.20246001
-0.0033775 0.15648 0.19897
-0.0042694998 0.15696 0.19823
0.048533 0.16825999 0.16944
0.01781 0.22057 0.18752
0.018784 0.22109 0.18662
0.019165 0.2217 0.18714
0.027098 0.22138 0.1811
0.028073 0.22165 0.18219
0.028066 0.22092 0.18134999
0.019996 0.22232001 0.1859
0.021763001 0.2233 0.18528
0.024637001 0.22529 0.1831
0.024390999 0.22506 0.18415999
0.021962 0.22481 0.18483
0.022109 0.22618 0.18486001
0.046482999 0.23049 0.17027
-0.013707 0.057100002 0.20496
-0.012214 0.056575999 0.20441
-0.014558 0.057181001 0.20579
-0.017344 0.057803001 0.20730001
-0.018100999 0.058665 0.20805
-0.020896999 0.069975004 0.20909999
-0.020584 0.070796996 0.20863
-0.019717 0.071532004 0.20848
-0.017765 0.073138997 0.20743001
-0.017786 0.075699002 0.20703
-0.0031736 0.080316998 0.19929001
0.023643 0.079219997 0.18468
0.042181998 0.079285003 0.17422999
-0.018433999 0.078838997 0.20788001
-0.017553 0.079469003 0.20693
0.014156 0.079483002 0.18949001
0.015601 0.079200998 0.18875
0.038260002 0.080150001 0.17558999
0.045908999 0.079369999 0.17207
-0.0098564001 0.080153003 0.20304
-0.0087393997 0.079866998 0.20237
-0.011211 0.079829998 0.20331
-0.0073464001 0.080549002 0.20197
-0.0025537999 0.080392003 0.19814999
-0.0074684001 0.080821998 0.20149
0.0072046001 0.081143998 0.19368
-0.013394 0.087678999 0.20503999
-0.017108999 0.087912999 0.20635
-0.017116001 0.089153998 0.20653
-0.017134 0.090260997 0.20716
-0.0076052998 0.090581998 0.20152
-0.017335 0.091683999 0.20705
-0.0070504998 0.091872998 0.20172
-0.0051377998 0.091663003 0.20015
-0.0062374999 0.092041001 0.20071
-0.016604999 0.092578001 0.20644
-0.014445 0.093595996 0.20482001
-0.01283 0.094972 0.2044
-0.012406 0.095804997 0.20434999
-0.011004 0.097515002 0.20378
-0.0094227996 0.10288 0.20257001
-0.0096124997 0.10172 0.20288999
-0.0095185004 0.10351 0.20281
-0.01145 0.10394 0.20333
-0.012184 0.10473 0.2043
-0.011065 0.10405 0.20318
-0.013686 0.10601 0.2049
-0.014583 0.1092 0.20567
-0.014947 0.11067 0.20576
-0.014877 0.11208 0.20579
-0.014783 0.11418 0.20513
-0.011296 0.11563 0.20358001
-0.010839 0.11558 0.20373
-0.0086981999 0.11591 0.20173
-0.0072086998 0.11594 0.20133001
-0.0061909002 0.11622 0.20096999
-0.0059203999 0.11823 0.20087001
-0.0057736002 0.11902 0.20119999
-0.0066068 0.12062 0.19943
-0.0084996 0.12111 0.20214
-0.0059850002 0.12059 0.20048
-0.011041 0.12224 0.20358001
-0.011424 0.1243 0.20370001
-0.0115 0.1235 0.20417
-0.012859 0.12626 0.20461001
-0.013413 0.12819 0.20457
-0.013071 0.12898999 0.20484
-0.01237 0.12965 0.20484
-0.012399 0.13076 0.20395
-0.012003 0.13202 0.20435999
-0.011493 0.13241 0.20401999
-0.01069 0.13328999 0.20362
-0.0095485998 0.13357 0.20311999
-0.0085111996 0.13356 0.20229
-0.010713 0.13863 0.20354
-0.011471 0.13945 0.20416
-0.0091191996 0.13862 0.20204
-0.01016 0.13875 0.20299999
-0.0057898001 0.13891999 0.20096
-0.0052222 0.13891999 0.20046
-0.0085709002 0.14106999 0.20224001
-0.0067874002 0.14095999 0.20184
-0.0063184998 0.14108001 0.20096999
-0.0066384999 0.14151999 0.20004
-0.010119 0.14102 0.20272
-0.0099624004 0.14449 0.2024
-0.010009 0.14545999 0.20272
-0.0090039996 0.14557 0.20191
-0.0087476997 0.14667 0.20189001
-0.0093069002 0.14745 0.20201001
-0.0045292 0.15543 0.19844
-0.0034433999 0.15512 0.1998
-0.0020826999 0.15824001 0.19858
-0.0021269999 0.15954 0.19821
0.048494998 0.16561 0.16966
0.04857 0.16527 0.17058
0.048616 0.16701999 0.17041001
0.048501 0.16700999 0.16987
0.048726 0.16863 0.17032
0.048537001 0.16975001 0.17014
0.04874 0.17293 0.17004
-0.0015809 0.1927 0.19776
-0.0011717 0.19721 0.19822
-0.0019714001 0.19736999 0.19796
-0.0029366999 0.20304 0.19746
-0.001189 0.20299 0.19775
-0.0010457 0.20435999 0.19753
-0.0011071 0.20581999 0.19761001
0.036878999 0.21572 0.17643
0.038125001 0.21857999 0.17575
0.031709 0.21883 0.18017
0.030786 0.21834999 0.1793
0.030193999 0.21988 0.18071
0.026149999 0.22244 0.18301
0.025357001 0.22283 0.18370999
0.021162 0.22279 0.18627
0.025012 0.2261 0.1833
0.021615 0.22767 0.18505999
0.024219999 0.22755 0.18365
0.045008 0.22603001 0.17145
0.045954999 0.22599 0.17130999
0.022035001 0.22917999 0.18494999
0.023605 0.22924 0.18362001
0.023272 0.23066001 0.18392999
0.022257 0.23032001 0.18476
0.021833001 0.23118 0.18440001
0.023094 0.23056 0.18435
-0.020695001 0.062666997 0.20907
-0.021447999 0.064327002 0.20931999
-0.021570001 0.065702997 0.20908999
0.03906 0.080196999 0.17564
-0.014788 0.079397 0.20576
0.042796999 0.079288997 0.17406
0.044261001 0.079255998 0.17282
-0.013921 0.079213999 0.20475
-0.012017 0.087232001 0.20457999
-0.012306 0.086664997 0.20401999
-0.015627 0.093497999 0.20657
-0.011597 0.14060999 0.20419
-0.0015466 0.16139001 0.19819
-0.0019514 0.16062 0.19791999
0.049353998 0.17129999 0.17050999
0.049141001 0.16975001 0.17046
0.049263 0.17290001 0.17067
0.030815 0.21985 0.18007
0.029219 0.22067 0.18137001
0.024173001 0.22616 0.18415
-0.018991999 0.071891002 0.20830999
-0.017316001 0.074460998 0.20689
0.0094066001 0.079550996 0.19228999
-0.0077939001 0.081137002 0.20229
-0.011326 0.086351998 0.20304
-0.014865 0.088363998 0.20611
-0.016666999 0.092614003 0.20716
-0.0061503998 0.092673004 0.20115
-0.0049307002 0.092589997 0.20029999
-0.014692 0.094255999 0.20585001
-0.013022 0.10522 0.20502999
-0.01415 0.10673 0.20609
-0.01234 0.11507 0.20431
-0.012829 0.12748 0.20489
-0.0071802 0.13323 0.20135
-0.0097962003 0.13880999 0.2034
-0.0024838001 0.1567 0.19899
0.023151999 0.22490001 0.1851
0.024605 0.22393 0.1847
0.022834999 0.22594 0.18498001
0.023063 0.22741 0.18494999
-0.018896 0.060086001 0.2095
-0.018021001 0.058754001 0.20892
0.025630999 0.079136997 0.18323
0.027659001 0.079406999 0.18429001
0.027915999 0.080119997 0.18404
0.02651 0.080121003 0.18358999
-0.0026640999 0.081133001 0.19960999
-0.010978 0.087311998 0.20411
-0.0013080999 0.16037001 0.1988
0.049346 0.16864 0.17059
8.1382997e-05 0.20158 0.19792999
-0.0013993999 0.20178001 0.19771001
-0.00075685 0.19993 0.19786
0.00029915001 0.20274 0.19789
0.023096999 0.22397 0.18539
-0.013984 0.056880999 0.20737
-0.015239 0.057356998 0.20767
-0.020653 0.068770997 0.21085
-0.019788999 0.070720002 0.20975
-0.017589999 0.072343998 0.20902
-0.016875001 0.074142002 0.20864999
-0.014442 0.079510003 0.20708001
-0.0094186999 0.079777002 0.20408
-0.0035114 0.080986999 0.20065001
-0.0027610001 0.081873998 0.20084
-0.0080219004 0.089391001 0.20378
-0.016648 0.091591999 0.20783
-0.0065665999 0.092331998 0.20205
-0.0087740999 0.10176 0.20348001
-0.0088282004 0.10078 0.20452
-0.0088203 0.10346 0.20384
-0.010499 0.1043 0.20492999
-0.012712 0.10517 0.20626
-0.013386 0.11393 0.20562001
-0.01035 0.12251 0.20498
-0.012281 0.12659 0.20551001
-0.0017028 0.15706 0.19986001
0.049511999 0.16561 0.17086001
0.049608 0.167 0.17151999
0.049601998 0.16982 0.17132001
0.022457 0.22328 0.18641999
-0.011848 0.05635 0.20552
-0.011023 0.056387 0.20570999
-0.012937 0.056873001 0.20624
-0.016835 0.058437999 0.20872
-0.019804001 0.061329 0.21019
-0.020862 0.064241 0.21036001
-0.020127 0.069991 0.21019
-0.019423001 0.071337998 0.21008
-0.016931999 0.073225997 0.20847
-0.016907001 0.075597003 0.2085
-0.017612999 0.076295003 0.20906
0.026403001 0.079085998 0.18443
0.042771 0.079158999 0.17560001
0.040240001 0.079712003 0.17587
-0.016814999 0.079751998 0.20851
-0.017626001 0.078763999 0.20915
-0.0077796001 0.079907998 0.20310999
0.0076362998 0.080224 0.19528
-0.0065037999 0.080052003 0.20296
-0.0052669002 0.079859003 0.20220999
-0.0058309999 0.080775 0.20144001
-0.0028154 0.082477003 0.19969
-0.01249 0.087792002 0.20637
-0.016639 0.090092003 0.20792
-0.0080770999 0.090484999 0.20354
-0.0074 0.091591999 0.20374
-0.016209001 0.093039997 0.20848
-0.0042643999 0.093454003 0.2014
-0.0056818998 0.093621001 0.20178001
-0.014268 0.095050998 0.20709001
-0.012715 0.095725998 0.20676
-0.011717 0.096226998 0.20555
-0.010343 0.097816996 0.20536
-0.011522 0.10476 0.20577
-0.013266 0.10603 0.20636
-0.014234 0.10777 0.20688
-0.014374 0.10924 0.20698
-0.014419 0.11217 0.20683999
-0.012991 0.11334 0.20654
-0.013011 0.11447 0.20556
-0.0055038999 0.12142 0.20229
-0.0076452 0.12159 0.20388
-0.0073658 0.12124 0.20269001
-0.0065041999 0.12177 0.20268001
-0.0091343997 0.12161 0.2044
-0.011333 0.12399 0.20569
-0.011564 0.12784 0.20597
-0.011647 0.13188 0.20478
-0.011252 0.13113999 0.20516001
-0.010343 0.13228001 0.20446
-0.0094156004 0.13353001 0.2041
-0.0090394998 0.14155 0.20432
-0.0055888002 0.14139999 0.20218
-0.0040274998 0.15346 0.20073999
-0.002686 0.15392999 0.20072
-0.0043837 0.15378 0.1998
-0.0028679001 0.15512 0.20017999
-0.0026116001 0.156 0.19963001
-0.0020125001 0.15549999 0.20037
-0.001045 0.15949 0.19999
0.048648 0.16416 0.17067
0.049795002 0.16536 0.17122
0.049194001 0.16693 0.17103
0.049626999 0.16877 0.17140999
0.049020998 0.17125 0.17219999
0.04958 0.17137 0.17118999
0.048735999 0.17287 0.17219
0.018093999 0.22085001 0.18854
0.019059001 0.22129001 0.18903001
0.031585999 0.22032 0.18178999
0.030247999 0.22109 0.18197
0.029754 0.22183 0.18295
0.021596 0.22287001 0.18738
-0.020532001 0.063109003 0.21032999
-0.020884 0.067215003 0.21098
-0.018034 0.077563003 0.20901
0.041661002 0.079159997 0.17560001
-0.0041100001 0.080156997 0.20153999
-0.0064735999 0.089456998 0.20078
-0.0053602001 0.089689001 0.20246001
-0.0069332998 0.092116997 0.20309
-0.016097 0.093640998 0.20719001
-0.013688 0.095257998 0.20621
-0.0094165001 0.099443004 0.20456
-0.014176 0.11079 0.20717999
-0.014054 0.11297 0.20645
-0.0051512001 0.11785 0.2022
-0.011201 0.12276 0.20491
-0.010544 0.13905001 0.20524999
-0.011129 0.13997 0.20556
-0.011008 0.14055 0.20529
-0.010631 0.14128 0.20524
0.049341001 0.16968 0.17229
0.020118 0.22213 0.18827
0.023703 0.22352 0.18618
0.024839001 0.22333001 0.18529999
-0.016226999 0.057858001 0.20852
-0.018374 0.059378002 0.20976999
-0.020829 0.066606998 0.21107
-0.018433999 0.072051004 0.20976
0.01506 0.078929998 0.19098
0.041556001 0.079787001 0.17606001
0.044215001 0.079214998 0.17518
-0.015614 0.079439998 0.2077
-0.010622 0.079676002 0.20522
-0.011471 0.079774998 0.20506001
-0.0041740001 0.086685002 0.2009
-0.0028405001 0.087107003 0.20121001
-0.0039813002 0.087002002 0.20162
-0.0072770999 0.087638997 0.2045
-0.0086719003 0.087957002 0.20514999
-0.0090180002 0.087529004 0.20395
-0.0067399 0.089206003 0.20329
-0.0086145997 0.090129003 0.20426001
-0.015872 0.090375997 0.20807
-0.0063576 0.093102999 0.20294
-0.015515 0.094283998 0.20805
-0.013599 0.10661 0.20705
-0.0092169996 0.11448 0.20389
-0.010504 0.11431 0.20476
-0.0052359002 0.11622 0.20221999
-0.0048408001 0.11891 0.20195
-0.011629 0.12522 0.2059
-0.010857 0.12902001 0.20518
-0.0090795998 0.13214 0.20455
-0.0035776999 0.15223999 0.2014
-0.00022869 0.16141 0.19972999
0.049676999 0.16717 0.17228
-0.012881 0.079496004 0.20562001
-0.014308 0.088568002 0.20714
-0.011171 0.096873999 0.20552
-0.0075726998 0.14154001 0.20389999
-0.0011946 0.15837 0.20024
-0.00016138999 0.16261999 0.19938999
0.049917001 0.16429999 0.17173
-0.019631 0.061843999 0.21086
0.016593 0.079557002 0.19044
0.046684999 0.079458997 0.17315
0.045345001 0.079379998 0.17403001
-0.013084 0.088313997 0.20704
-0.0088377995 0.13872001 0.20457999
-0.0029048999 0.15273 0.20163999
0.049159002 0.16848999 0.17256001
-0.01254 0.05649 0.2078
-0.015802 0.057530001 0.20969
-0.015986999 0.074327998 0.20998999
-0.016201001 0.073169999 0.21019
-0.017248999 0.077487998 0.21061
0.042725999 0.079536997 0.17621
0.0091332998 0.079598002 0.19451
0.0096616996 0.079475001 0.19420999
-0.0033223 0.081032999 0.20121001
-0.015941 0.091511004 0.20818
-0.013809 0.095408 0.20759
-0.0072172 0.12142 0.20491999
-0.010654 0.12847 0.20592
-0.010312 0.131 0.2057
-0.0094327005 0.13099 0.20477
-0.00071722001 0.16021 0.20020001
0.049309999 0.16523001 0.17223001
-0.017016999 0.058612 0.21043
-0.016241999 0.058061998 0.21006
-0.018111 0.060091998 0.21109
-0.017643999 0.059555002 0.21026
-0.020052001 0.067607 0.21236999
-0.01895 0.071023002 0.21156999
-0.016226999 0.075832002 0.20987
0.044831 0.079301 0.17599
-0.016043 0.079745002 0.20992
0.043489002 0.080333002 0.17659999
-0.0031034001 0.081534997 0.20272
-0.0067783999 0.088464998 0.2049
-0.015272 0.088940002 0.20834
-0.015192 0.090395004 0.20954999
-0.0073328 0.091517001 0.20463
-0.014892 0.091718003 0.20907
-0.015065 0.094879001 0.20949
-0.013402 0.095854998 0.2084
-0.011042 0.096556 0.20721
-0.0094732996 0.098746002 0.20533
-0.0080279 0.10143 0.20486
-0.0096687004 0.10481 0.20643
-0.010632 0.10487 0.20694
-0.012293 0.11208 0.20806
-0.013088 0.11278 0.20735
-0.0099307997 0.12359 0.20643
-0.0082919002 0.13101 0.20559999
-0.0032116999 0.13087 0.20236
-0.0040970999 0.13232 0.20181
-0.0042353999 0.13094001 0.20241
-0.0098484 0.14115 0.20641001
-0.0019321 0.15279 0.20215
-0.00014941 0.15934999 0.20110001
0.00025165 0.16131 0.20089
0.00086069998 0.16369 0.20036
0.00059108 0.1644 0.19888
0.00019866999 0.16355 0.19942001
0.02077 0.22259 0.1886
0.024156 0.22334 0.18718
-0.010737 0.056152001 0.20682
-0.011528 0.056178 0.20753001
-0.013531 0.056791998 0.20856
-0.014624 0.057092 0.20894
-0.019129001 0.070106 0.21168999
-0.019772001 0.068816997 0.21198
-0.018602001 0.069773003 0.21263
-0.018211 0.071565002 0.21119
-0.017638 0.072129004 0.21085
-0.016966 0.072438002 0.21048
-0.016736999 0.076373003 0.21016
0.028578 0.079001002 0.18514
0.029193999 0.079433002 0.18471999
0.043602999 0.079433002 0.17622
-0.017145 0.078769997 0.21037
0.046865001 0.079259999 0.17487
0.047582 0.079361998 0.17464
-0.014665 0.089100003 0.20924
-0.0082491003 0.090494998 0.20576
-0.014887 0.093005002 0.20961
-0.0069900001 0.092849001 0.205
-0.015502 0.093396001 0.20937
-0.0062874001 0.093736999 0.20412
-0.015581 0.094599999 0.20965999
-0.01241 0.096111 0.20757
-0.010425 0.097126998 0.20698
-0.0097508002 0.097855002 0.20604999
-0.0090148998 0.098539002 0.20626999
-0.0089218998 0.099191003 0.2061
-0.0079025002 0.10067 0.20574
-0.007249 0.10302 0.20506001
-0.0081554996 0.10333 0.20472001
-0.0081000002 0.10398 0.20497
-0.01141 0.10526 0.20755
-0.012485 0.10602 0.20796999
-0.013356 0.1079 0.20868
-0.01342 0.10901 0.20814
-0.013056 0.11075 0.20785999
-0.013148 0.11203 0.20802
-0.0078563001 0.11411 0.20433
-0.0089191999 0.11284 0.20502
-0.0070485999 0.11335 0.20505001
-0.0043616001 0.11658 0.20326
-0.0047622002 0.1175 0.20290001
-0.0084071998 0.12212 0.2057
-0.0095149996 0.1228 0.20599
-0.010775 0.12487 0.20699
-0.010498 0.12411 0.20615999
-0.011381 0.12627999 0.20731001
-0.010909 0.12763999 0.20677
-0.010054 0.12820999 0.20633
-0.0096901003 0.12951 0.20664001
-0.0096153999 0.13073 0.20604999
-0.0065855002 0.13224 0.20281
-0.0054903999 0.13074 0.20396
-0.0048989002 0.13052 0.20308
-0.0079779001 0.132 0.20471001
-0.0072869998 0.13225 0.20443
-0.0073253 0.13253 0.20366
-0.0082556996 0.13889 0.20554
-0.0098029999 0.13941 0.20660999
-0.0070000999 0.14179 0.20514999
-0.0069694999 0.1416 0.20416
-0.0085982 0.14223 0.20551001
-0.0030715 0.15136001 0.20261
-0.0036867 0.1515 0.20161
-0.0015069999 0.15374 0.20209999
-0.0014188 0.15396 0.20135
-0.0012102 0.15503 0.20196
0.0017318 0.19715001 0.19998001
0.0014939 0.19876 0.19948
0.00056315999 0.19719 0.19891
0.019469 0.2217 0.19014999
0.020535 0.22251 0.18976
-0.018866001 0.061324 0.21165
-0.019138999 0.061705999 0.21168999
-0.019585 0.063014001 0.21201999
-0.020165 0.064505003 0.21233
-0.020082001 0.066138998 0.21231
0.044581998 0.079489999 0.1769
0.046020001 0.079333 0.17528
-0.011801 0.079705 0.20769
-0.010928 0.079566002 0.20666
-0.0056856 0.079572 0.20405
0.0078268005 0.080094002 0.19625001
-0.0035141001 0.080231003 0.20294
-0.013498 0.088775001 0.20858
-0.0056506 0.089199997 0.20429
-0.0057126 0.094743997 0.20397
-0.0026368999 0.093973003 0.20118999
-0.0022927001 0.095140003 0.20215
-0.0034882 0.095011003 0.20276999
-0.014527 0.095650002 0.20924
-0.0077336999 0.10219 0.2054
-0.0074666999 0.11236 0.20529
-0.003246 0.12943 0.20299
-0.0030016999 0.13217001 0.20213
-0.0079808002 0.13902 0.20353
-0.00098824 0.15721001 0.20106
-0.00075647997 0.15829 0.20146
-0.00017301 0.15993001 0.20092
0.00051337999 0.16242 0.20044
0.0018542 0.16576 0.20015
0.00066218001 0.16506 0.1987
0.0025933001 0.16721 0.19976
0.020962 0.22288001 0.18916
0.021762 0.22332001 0.18864
-0.013494 0.079567 0.20846
-0.0086289998 0.079682998 0.20558
-0.0079166004 0.091413997 0.20569
-0.0011075001 0.094630003 0.20128
-0.0048620999 0.095234998 0.20318
-0.0045999 0.096166 0.20342
-0.0085891001 0.11187 0.20593999
-0.0071381 0.13941 0.2049
-0.0027367 0.15186 0.20237
0.023131 0.22349 0.18847001
-0.014803 0.079668 0.20918
-0.0092695002 0.079885997 0.20648
-0.0067297998 0.079796001 0.20466
-0.0051123002 0.095600002 0.20448001
-0.012491 0.11055 0.20815
-0.012555 0.10886 0.20848
-0.0083521996 0.11087 0.20621
-0.0065943999 0.13084 0.20507
-0.0023139 0.13127001 0.20252
0.0013324 0.16423 0.20084
-0.010529 0.055819001 0.20809001
-0.012607 0.056657001 0.20974
-0.011365 0.056593999 0.20909999
-0.01405 0.057022002 0.21051
-0.015466 0.057314001 0.21096
0.0084239999 0.079839997 0.19764
0.0076064002 0.080666997 0.19705001
-0.014376 0.091447003 0.21056999
-0.014229 0.093278997 0.21036001
-0.0075216 0.1111 0.20584001
-0.009749 0.1243 0.20754001
-0.0054596998 0.14177001 0.2042
-0.017507 0.060143001 0.21229
-0.018107001 0.061087001 0.21276
-0.018059 0.070510998 0.21269999
-0.016608 0.078808002 0.21178
-0.016175 0.077247001 0.21168
0.030422 0.079214998 0.18566
0.046461999 0.079425 0.17673001
-0.0064945999 0.079654999 0.20603
-0.0033666999 0.080761999 0.20387
-0.015038 0.090025999 0.21103001
-0.014094 0.088878997 0.21042
-0.015145 0.090311997 0.20994
-0.013872 0.095852003 0.21047001
-0.011863 0.095987998 0.20914
-0.0049361 0.096180998 0.20422
-0.0098590003 0.096851997 0.20773999
-0.010333 0.096437998 0.20836
-0.0091239 0.097461998 0.20742001
-0.0088927001 0.098507002 0.20654
-0.0077636 0.099179998 0.20699
-0.011457 0.11047 0.2086
-0.010382 0.11224 0.20727
-0.010087 0.11154 0.2071
-0.0093507003 0.11077 0.20745
-0.010429 0.11175 0.20738
-0.011352 0.11147 0.20815
-0.0038739 0.11916 0.20365
-0.0085242996 0.12254 0.20692
-0.0090038003 0.12353 0.2076
-0.0089886002 0.12926 0.20737
-0.0079442002 0.13066 0.20645
-0.0086286999 0.14166 0.20727
-0.0078091999 0.14235 0.20686001
-0.0026279001 0.15125 0.20419
-0.0016352 0.15396 0.2031
0.00032106001 0.15843999 0.20231
0.00097199 0.1612 0.20192
0.0034218 0.16732 0.20056
0.0029909001 0.16631 0.20115
0.020013999 0.22212 0.19156
0.021219 0.22273999 0.19075
0.022488 0.2234 0.18998
0.023931 0.22384 0.18905
-0.015749 0.057840001 0.21089
-0.016472001 0.058988001 0.21166
-0.017047999 0.059689 0.21178
-0.018719999 0.061723001 0.21269
-0.019138001 0.064057998 0.21324
-0.019072 0.068489 0.21347
-0.019685 0.067529 0.21368
-0.017067 0.072076 0.21166
-0.016641 0.072364002 0.21193001
-0.016023999 0.073177002 0.21101999
-0.015386 0.074162997 0.211
-0.015314 0.075631 0.21107
0.048114002 0.079626001 0.17613
0.048535001 0.078225002 0.17577
-0.015553 0.079792999 0.21074
0.047378 0.079406999 0.17572001
-0.0050599002 0.079632998 0.20532
-0.0041552 0.080105998 0.20452
-0.010706 0.079662003 0.20839
-0.0031999 0.081715003 0.20479
-0.012996 0.089170001 0.20964999
-0.01469 0.089171998 0.2111
-0.0076369001 0.091615997 0.20661999
-0.0070659998 0.092192002 0.20640001
-0.0144 0.094589002 0.21084
-0.0048584002 0.096233003 0.2053
-0.012712 0.096161999 0.20951
-0.0039726002 0.097332001 0.20371
-0.0039722002 0.097668 0.20494001
-0.0030483 0.097707003 0.20383
-0.0036961001 0.097620003 0.20363
-0.0025281 0.098830998 0.20396
-0.0070405998 0.10054 0.20652001
-0.0067850002 0.10181 0.20656
-0.007462 0.10504 0.20654
-0.0084619997 0.10486 0.20561001
-0.011651 0.10607 0.20893
-0.010811 0.10552 0.20841999
-0.012485 0.10692 0.20911001
-0.012232 0.10778 0.20962
-0.012619 0.10868 0.20909999
-0.01144 0.10902 0.20911001
-0.010145 0.11052 0.20798001
-0.0037932999 0.11814 0.20404001
-0.0078490004 0.12193 0.20671999
-0.0030414001 0.1238 0.20393001
-0.0029316 0.12492 0.20424999
-0.0042464999 0.12372 0.20463
-0.0099975001 0.12496 0.20822001
-0.010171 0.12644 0.20792
-0.010127 0.12741999 0.20761
-0.0090282997 0.12784 0.20779
-0.0018839 0.12949 0.20356999
-0.0023300999 0.12936001 0.20297
-0.0086123999 0.13043 0.20687
-0.0066892998 0.13029 0.20565
-0.0090380004 0.13943 0.2076
-0.0076159998 0.13851 0.20705999
-0.0080711003 0.13871001 0.20606001
-0.0066380999 0.13913999 0.20615
-0.0091485996 0.14111 0.20756
-0.0052069002 0.1425 0.20547
-0.0064721 0.1428 0.20613
-0.0022072999 0.15255 0.20399
-0.0018959 0.15287 0.20313001
-0.0014358 0.15547 0.20352
-0.00039952999 0.1559 0.20273
-0.0004587 0.15679 0.20251
0.00040098999 0.15934999 0.20209
0.0021643001 0.16407 0.2018
0.0020820999 0.16542999 0.20106
0.0023238 0.19571 0.20042001
0.0018241 0.19602001 0.20017999
0.0018464 0.19444001 0.19987001
-0.019028001 0.063057996 0.21319
-0.019486999 0.065683998 0.21347
-0.017569 0.071542002 0.21258999
-0.016313 0.076443002 0.21134
-0.0031111999 0.082038999 0.20405
-0.002416 0.096093997 0.20349
-0.0015492 0.096703999 0.20304
-0.00284 0.12237 0.20435999
-0.0080434997 0.12955999 0.20728999
-0.0064005 0.12907 0.20645
0.00075339002 0.16019 0.20231999
0.0013922 0.16289 0.20187999
-0.01453 0.074435003 0.21218
-0.014632 0.091164 0.21103001
-0.0089063998 0.090409003 0.20749
-0.0089298999 0.091874003 0.20758
-0.0015321 0.098387003 0.20401999
-0.0035214 0.098493002 0.20456
-0.0093777999 0.10892 0.20769
-0.010106 0.10927 0.20835
-0.0025005999 0.15379 0.20423
0.0019479 0.16373999 0.20168
0.025355 0.2238 0.18799999
-0.015531 0.058745999 0.21267
-0.01543 0.076329 0.21270999
-0.012843 0.079512 0.20963
-0.014515 0.079686999 0.21091001
-0.0099962 0.079645 0.20826
-0.0077069001 0.079722002 0.20686001
-0.010221 0.090232 0.20868
-0.0094908997 0.091651998 0.20863999
-0.0087422002 0.10775 0.20801
-0.0097033 0.10763 0.20875999
-0.0088890996 0.12649 0.20792
-0.0077493 0.12650999 0.20746
-0.0036768999 0.15241 0.20585001
-0.0024776999 0.15499 0.20446
-0.012101 0.056375001 0.21119
-0.017866001 0.062173001 0.21426
-0.017109999 0.060853999 0.21438999
-0.01623 0.072019003 0.21337
-0.015618 0.072485998 0.21247
-0.0053885998 0.079596996 0.20717999
-0.0042850999 0.080121003 0.2066
-0.014334 0.091163002 0.21190999
-0.013304 0.091706 0.21156
-0.0084637003 0.093261003 0.20803
-0.0077189002 0.093189999 0.20715
-0.0041315998 0.097386003 0.20669
-0.0044943001 0.097110003 0.20534
-0.0079191998 0.098127998 0.20748
-0.0058264001 0.10183 0.20745
-0.010089 0.10616 0.20929
-0.011729 0.10816 0.20963
-0.0030401 0.1182 0.20492999
-0.0029817999 0.11915 0.20444
-0.0012845 0.12366 0.20517001
-0.0017098 0.12509 0.20479
-0.0089942999 0.12548 0.20863
-0.0069665001 0.12661999 0.20755
-0.0083644995 0.14091 0.2087
-0.0054748999 0.14304 0.20644
-0.0035176 0.14353 0.20429
-0.0048819999 0.14325 0.20596001
0.00087223999 0.15895 0.20321
-0.010812 0.055895001 0.21019
-0.0094913999 0.055622999 0.20918
-0.014761 0.057184 0.21225999
-0.014885 0.057925001 0.21268
-0.016590999 0.060063999 0.21352001
-0.01602 0.059546001 0.21314
-0.018077999 0.062453002 0.21424
-0.017278001 0.070518002 0.21414
-0.016856 0.071261004 0.21377
-0.015936 0.077148996 0.2129
0.048397001 0.079411 0.17716999
-0.01462 0.079770997 0.21227001
-0.015657 0.078911997 0.2129
-0.0081262998 0.079520002 0.20757
-0.013283 0.088785 0.21138
-0.014304 0.089086004 0.21213
-0.012607 0.089465 0.21094
-0.014697 0.090301 0.21243
-0.011986 0.090221003 0.21118
-0.010842 0.091853999 0.21021999
-0.0098823002 0.092399001 0.20897999
-0.0095974999 0.093547001 0.20903
-0.0089504998 0.093438998 0.20852999
-0.012674 0.093379997 0.21155
-0.0087161995 0.094497003 0.20858
-0.013541 0.094649002 0.21162
-0.013198 0.095899001 0.21145
-0.011318 0.095613003 0.21013001
-0.011981 0.096033998 0.2112
-0.0097110001 0.096253 0.20914
-0.0083130999 0.096078999 0.20857
-0.0091019999 0.097005002 0.20811
-0.0084554004 0.097057 0.20802
-0.0069804001 0.097724997 0.20802
-0.0072193001 0.098761 0.20733
-0.0035567 0.099071003 0.20615999
-0.00075586 0.099206999 0.20421
-0.0066764001 0.099643998 0.20727
-0.002626 0.10051 0.20596001
-0.0026439 0.10053 0.20524999
-0.0059425998 0.10038 0.20753001
-0.010291 0.10582 0.20895
-0.010819 0.10634 0.20973
-0.011142 0.10751 0.20988999
-0.010245 0.10782 0.20926
-0.0035574001 0.1167 0.20413999
-0.0021569999 0.11771 0.20559999
-0.0083355 0.12402 0.20863
-0.0070798998 0.12243 0.2079
-0.0089544002 0.12495 0.20894
-0.0025371001 0.12620001 0.20390999
-0.0081220996 0.13939001 0.20862
-0.0081320005 0.14206 0.20812
-0.0074574999 0.14253999 0.20825
-0.0056348001 0.14365999 0.20703
-0.0041061002 0.14395 0.20667
-0.0022155 0.14962 0.20521
-0.0026833001 0.15105 0.20505001
-0.0033003001 0.15124001 0.20581
-0.0032682 0.1538 0.20506001
-0.0033867001 0.15556 0.2057
-0.0033731 0.15421 0.20570999
-0.0025331001 0.15581 0.20478
-0.0013166 0.15601 0.20448001
-0.00067933003 0.15693 0.20396
0.00043787999 0.15737 0.20382001
0.00059884001 0.15794 0.20416
0.0013891 0.15970001 0.20307
0.0015795 0.16133 0.2031
0.0026091 0.16374999 0.20288
0.0031898001 0.1655 0.20225
0.0045507001 0.16836999 0.20158
0.0050363 0.16881 0.20117
0.0039629 0.16839001 0.20038
0.02201 0.22262 0.19215
0.023297001 0.22341 0.19134
0.026253 0.22384 0.18971001
0.026559001 0.22403 0.18821999
0.025757 0.22400001 0.18914001
-0.013756 0.056559 0.21163
-0.012227 0.056453999 0.21097
-0.018736999 0.064195 0.21431001
-0.018474 0.067252003 0.21483
-0.018585 0.065609001 0.2148
-0.018525001 0.068742998 0.21423
-0.018076999 0.069719002 0.21416
-0.014302 0.073198996 0.2123
-0.014878 0.076242998 0.21254
-0.010829 0.079608999 0.21016
-0.0038131 0.080486998 0.20550001
-0.0039098999 0.081853002 0.20593999
-0.00050293998 0.10056 0.20489
-0.0026159999 0.11682 0.20523
-0.0019900999 0.11972 0.2054
-0.0080441004 0.12503999 0.20898999
-0.0076823002 0.13878 0.20833001
-0.0023469999 0.15706 0.20516001
0.0041311998 0.16728 0.20209
0.020754 0.22220001 0.19224
-0.013242 0.079737 0.21165
-0.011828 0.079494998 0.21073
-0.010128 0.079797 0.20985
0.011022 0.079930998 0.19794001
0.0097778002 0.079839997 0.1992
-0.010495 0.093309 0.21031
-0.0093227001 0.094936997 0.2093
-0.010482 0.094832003 0.21051
-0.0072466 0.096075997 0.20811
-0.0072293999 0.094806999 0.20783
-0.0061574001 0.094989002 0.20725
-0.0057615 0.098775998 0.20787001
-0.0071931002 0.12485 0.20845
-0.0068096998 0.13854 0.20781
-0.0064961002 0.14374 0.20852
-0.0031474 0.14974999 0.20603999
-0.0043131001 0.15239 0.20693
-0.0044052 0.15391 0.2067
-0.0037762001 0.15531 0.20687
-0.0026997 0.15665001 0.20615
0.0024021 0.16246 0.2033
0.025107 0.22374 0.19067
-0.01289 0.056673001 0.21284001
-0.0086243004 0.079666004 0.20919999
-0.0075480998 0.079761997 0.20999999
-0.0040237 0.081522003 0.20701
-0.0056130998 0.096371002 0.20759
-0.0029859 0.11462 0.205
-0.0023006999 0.1156 0.20576
-0.0040903999 0.15123001 0.20682
0.0036454001 0.16649 0.20202
0.026961001 0.22401001 0.18968
-0.0056632999 0.097459003 0.20785999
-0.0046860999 0.14213 0.20654
-0.0050678998 0.14241999 0.20745
-0.0053375 0.14545 0.20769
-0.0042846999 0.14534999 0.20709001
-0.0028943999 0.14523999 0.20649
0.0025001999 0.15971 0.20454
0.0015647 0.1587 0.205
0.027348001 0.22389001 0.18884
-0.010327 0.055665001 0.2113
-0.014027 0.056968 0.21354
-0.017468 0.068806998 0.2156
-0.014723 0.077474996 0.21425
-0.013797 0.079691 0.21366
