# .PCD v0.7 - Point Cloud Data file format
VERSION 0.7
FIELDS x y z
SIZE 4 4 4
TYPE F F F
COUNT 1 1 1
WIDTH 1696
HEIGHT 1
VIEWPOINT 0 0 0 1 0 0 0
POINTS 1696
DATA ascii
0.22305 0.1152 0.21216001
0.22245 0.11212 0.21247
0.30662 0.057209998 0.15534
0.25974 0.053084999 0.21358
0.29359001 0.10928 0.20644
0.29251 0.10932 0.20714
0.29201999 0.10778 0.20708001
0.27939001 0.060495999 0.21524
0.32534999 0.15312 0.18648
0.32598999 0.15375 0.18494
0.32482001 0.15418001 0.18359999
0.28470999 0.071370997 0.19664
0.30748999 0.057062998 0.14927
0.24966 0.1251 0.21086
0.24767999 0.12632 0.21022999
0.27664 0.058028001 0.2173
0.31165001 0.055548001 0.18618
0.31224 0.057918999 0.18466
0.31121001 0.057996001 0.18532
0.28584999 0.11558 0.20672999
0.28672999 0.11666 0.20721
0.28529999 0.11659 0.2076
0.27641001 0.056012001 0.21662
0.31494999 0.055114001 0.17611
0.31573001 0.05373 0.17639001
0.31527001 0.056745999 0.17712
0.31445 0.057528 0.17797001
0.32238999 0.11609 0.19348
0.27715001 0.069773003 0.19718
0.3213 0.094587997 0.19126999
0.32128 0.094966002 0.19171999
0.28468999 0.073246002 0.19727001
0.23457 0.12723 0.20952
0.27267 0.060460001 0.21557
0.32609001 0.18696 0.22003999
0.30673 0.14986999 0.19207001
0.31863001 0.10935 0.19764
0.28669 0.18753999 0.18697999
0.29135999 0.18351001 0.1838
0.24364001 0.11836 0.21133
0.21994001 0.077680998 0.21411
0.27764001 0.078695998 0.20065001
0.27833 0.079983003 0.20073999
0.31527001 0.052182999 0.1754
0.31501999 0.054813001 0.17636
0.31476 0.056570999 0.17603
0.31349999 0.058008999 0.17657
0.31323999 0.058873001 0.17806999
0.27272001 0.12223 0.2096
0.29096001 0.053954002 0.20827
0.28479001 0.077133998 0.19802
0.28402999 0.078896999 0.19881
0.28501001 0.076462001 0.19824
0.28769001 0.078217 0.19834
0.28736001 0.079446003 0.19918001
0.28636 0.079066999 0.1987
0.29639 0.1023 0.20655
0.29506001 0.10277 0.20647
0.29488999 0.10127 0.20706999
0.31231999 0.059680998 0.17769
0.32615 0.13299 0.18498001
0.32661 0.12944999 0.183
0.28422001 0.080649003 0.19979
0.31527001 0.055341002 0.17485
0.31409001 0.056182999 0.17483
0.31347001 0.057548001 0.17597
0.31336001 0.058566999 0.17658
0.28472 0.082489997 0.20026
0.29885 0.055160999 0.13878
0.28358001 0.083240002 0.20093
0.31007999 0.14816999 0.19242001
0.21992999 0.081720002 0.21376
0.27155 0.069994003 0.21430001
0.29199001 0.18249001 0.18234
0.31363001 0.051575001 0.17429
0.31459999 0.052096002 0.17660999
0.28444999 0.084495999 0.20123
0.30851999 0.053636 0.15515999
0.28516999 0.086320996 0.20224001
0.28481001 0.088524997 0.2027
0.31355 0.054024 0.17388999
0.31395 0.055369001 0.17397
0.31299001 0.056906 0.1751
0.31349 0.057507999 0.17513999
0.31172001 0.059494 0.17575
0.28869 0.12559 0.20464
0.28929001 0.12519 0.2044
0.29067001 0.12651999 0.2043
0.28439 0.089106001 0.20362
0.32203999 0.12162 0.19046
0.30566001 0.059613001 0.15231
0.31404999 0.098134004 0.20108999
0.30559999 0.057551999 0.14639001
0.30851001 0.055495001 0.1541
0.28441 0.090861998 0.20377
0.26506001 0.050864998 0.20982
0.31202999 0.056761999 0.17392001
0.31187001 0.057576001 0.17452
0.31134 0.058782 0.17547999
0.30579001 0.058389999 0.14736
0.32802001 0.12047 0.15895
0.32894999 0.1181 0.15691
0.32822001 0.12038 0.15717
0.29519999 0.054648999 0.13770001
0.31132999 0.058522001 0.17349
0.31084999 0.060130998 0.17455
0.32071 0.093145996 0.19022
0.32067999 0.090317003 0.19051
0.32133999 0.090994 0.18944
0.31977999 0.12028 0.19369
0.28896001 0.17195 0.19377001
0.28507 0.096221998 0.20529
0.30891001 0.10483 0.20381001
0.27755001 0.16993 0.1939
0.31064999 0.057624999 0.17389999
0.30932999 0.059356 0.17351
0.31814 0.16926 0.23003
0.28483999 0.10386 0.20774999
0.22204 0.14105 0.19018
0.28534001 0.069090001 0.19663
0.30741999 0.053337999 0.14777
0.26583999 0.051205002 0.20739
0.2669 0.050562002 0.20958
0.30902001 0.059627 0.17389999
0.3224 0.17606001 0.19909
0.28479999 0.10522 0.20804
0.27339 0.088292003 0.22229999
0.28540999 0.1066 0.20908
0.27798 0.1838 0.20197
0.27836001 0.18553001 0.20249
0.28509 0.10825 0.20874999
0.30888 0.05356 0.15115
0.30982 0.057153001 0.17124
0.31057 0.057326999 0.17203
0.31053999 0.055357002 0.17101
0.31015 0.055535998 0.17035
0.30930001 0.057525001 0.17212
0.30829999 0.060214002 0.17306
0.30880001 0.061262 0.17443
0.29063001 0.051077001 0.20893
0.31955999 0.092459999 0.19201
0.27882001 0.18652 0.20178001
0.27811 0.1882 0.2025
0.29833999 0.077451997 0.19365001
0.29773 0.077664003 0.19461
0.2712 0.053596999 0.21589001
0.27061 0.053630002 0.21604
0.2712 0.052669 0.21661
0.28586 0.11057 0.20904
0.30845001 0.056805 0.17003
0.30923 0.057735998 0.17086001
0.30757001 0.059273999 0.17154001
0.30781999 0.060748 0.17226
0.30638999 0.061402999 0.17441
0.30669001 0.061363 0.17502999
0.30314001 0.063914999 0.1769
0.30458999 0.062486 0.17526001
0.23796 0.051256001 0.20406
0.23356999 0.11853 0.21156999
0.23288999 0.11786 0.21235999
0.31553 0.19192 0.24264
0.31667 0.19176 0.24126001
0.31872001 0.088950001 0.19125
0.31742999 0.088384002 0.19076
0.31777 0.088109002 0.1899
0.28518 0.11163 0.20969
0.28566 0.11248 0.20828
0.20235001 0.075929001 0.19687
0.20288 0.075347997 0.19648001
0.20272 0.076741003 0.19597
0.30978 0.053025 0.16906001
0.30963001 0.051325999 0.16988
0.30774999 0.057847999 0.16964
0.3071 0.059643999 0.17069
0.30502999 0.061189 0.17400999
0.30250001 0.064797997 0.17691
0.31121001 0.088900998 0.19746999
0.31557 0.19314 0.24259999
0.31182 0.14105 0.19233
0.31187001 0.13987 0.19289
0.31119001 0.14213 0.19323
0.23642001 0.12758 0.20933001
0.23723 0.12924001 0.20997
0.23715 0.12789001 0.20864999
0.27039999 0.18263 0.20351
0.2649 0.20321 0.20693
0.26521999 0.20362 0.20501
0.31224 0.061078999 0.17986
0.31196001 0.060307 0.17964999
0.29747 0.16444001 0.18704
0.28568 0.11823 0.20667
0.30171999 0.15383001 0.18994001
0.30904001 0.053955 0.16735999
0.30809 0.055009998 0.16889
0.30823001 0.054977 0.16892
0.30950001 0.053479001 0.16923
0.30450001 0.060718 0.17145
0.30383 0.061826002 0.17375
0.30351001 0.062742002 0.17358001
0.30223 0.064726003 0.17597
0.30088001 0.065017 0.17708001
0.30862001 0.051158998 0.16903
0.28525999 0.11972 0.20602
0.30715001 0.051024999 0.19232
0.21857999 0.097705998 0.21378
0.22068 0.096096002 0.2148
0.21944 0.097883001 0.21438
0.30834001 0.050351001 0.19238
0.28698999 0.17434999 0.19512001
0.28676 0.17448001 0.1961
0.28665 0.17315 0.19542
0.27989 0.12548 0.20674001
0.31161001 0.11608 0.19966
0.25292 0.10758 0.22437
0.25378999 0.10679 0.22464
0.30599999 0.1576 0.19131
0.2251 0.1122 0.21314999
0.22477999 0.11253 0.21343
0.31029001 0.14661001 0.19328
0.31650001 0.14973 0.19091
0.2823 0.064893 0.20067
0.28444999 0.063807003 0.20328
0.30219001 0.077076003 0.18617
0.28521001 0.12066 0.20577
0.28543001 0.12237 0.20682
0.30355999 0.060134999 0.17076001
0.30179 0.063138001 0.17351
0.30046001 0.064773001 0.17613
0.31354001 0.18241 0.24429999
0.27232 0.051449001 0.21563999
0.27169999 0.051258001 0.21577001
0.23706 0.10638 0.22176
0.23716 0.10543 0.22126
0.31911999 0.11782 0.1956
0.3267 0.14907999 0.18542001
0.28121001 0.054947998 0.2164
0.28037 0.057440002 0.21624
0.25612 0.10738 0.22462
0.25584 0.10661 0.22473
0.31064001 0.058757 0.18626
0.31112 0.05869 0.18618999
0.31294999 0.11489 0.20006999
0.28703001 0.10073 0.20715
0.31858999 0.094919004 0.1946
0.31942001 0.095550999 0.19373
0.31944999 0.096748002 0.19498
0.24811 0.12319 0.21071
0.24675 0.12493 0.21022999
0.30513999 0.15389 0.19124
0.28766999 0.095273003 0.20569
0.28707001 0.096317999 0.20534
0.28975001 0.18302 0.19340999
0.22395 0.10254 0.21611001
0.22341999 0.10144 0.21628
0.22475 0.10344 0.21664999
0.23724 0.11737 0.21037
0.30680001 0.055518001 0.169
0.30526 0.056214999 0.16868
0.30623999 0.058340002 0.17002
0.30204001 0.06219 0.17149
0.30092001 0.062766001 0.17287
0.29927999 0.065327004 0.17574
0.29883 0.066197 0.1758
0.30548999 0.077661999 0.18688001
0.30621001 0.078511998 0.18520001
0.30651999 0.078363001 0.18617
0.30943 0.052659001 0.19163001
0.27412999 0.051578 0.21724001
0.27443999 0.051006999 0.21618
0.27548999 0.051798999 0.21720999
0.31959999 0.11653 0.19566
0.32122999 0.11598 0.19316
0.24823 0.10472 0.22469001
0.24887 0.10662 0.2238
0.24651 0.10493 0.22315
0.21845999 0.096000999 0.21267
0.21693 0.098410003 0.21250001
0.20375 0.055830002 0.18697999
0.20309 0.056299999 0.18805
0.25420001 0.1207 0.21227001
0.25604999 0.12104 0.21177
0.33335999 0.13976 0.13956
0.33278 0.13838001 0.13958
0.33148 0.14263999 0.14105
0.33125001 0.14661001 0.14225
0.33036 0.14634 0.14094
0.28718001 0.11717 0.20674001
0.28797001 0.11734 0.20681
0.2872 0.11761 0.20743001
0.31935999 0.10631 0.19774
0.31885999 0.10795 0.19893999
0.28669 0.062910996 0.20372
0.31981999 0.17185999 0.18652999
0.3055 0.054125998 0.16625001
0.30559999 0.054974001 0.16692001
0.30622 0.053970002 0.16688
0.30157 0.061404999 0.1707
0.32282999 0.093905002 0.18967
0.32183 0.095973 0.19182999
0.32227999 0.094351999 0.19053
0.24237999 0.10844 0.22244
0.24265 0.10735 0.22237
0.30355999 0.097837999 0.20445
0.30438 0.099518001 0.20492999
0.30276999 0.097769 0.20501
0.27638 0.10593 0.2124
0.30835 0.12666 0.19967
0.31092 0.057263002 0.18787
0.31092 0.056357998 0.18885
0.30935001 0.13834 0.19306
0.30809 0.13957 0.19241001
0.26501 0.1965 0.21025001
0.26567 0.19893 0.21006
0.26488 0.19735999 0.21185
0.27509999 0.097485997 0.22194999
0.27445 0.097877003 0.22149
0.2823 0.051024001 0.21664999
0.33054 0.148 0.14084999
0.33008999 0.15035 0.14144
0.33072999 0.14986999 0.14263999
0.23623 0.051677998 0.20720001
0.30294001 0.15533 0.18957999
0.30355999 0.15492 0.18987
0.30399999 0.15566 0.19036999
0.31044 0.088711999 0.19765
0.32688999 0.13262001 0.18388
0.29043999 0.12132 0.20633
0.29144001 0.12252 0.20553
0.29363999 0.11257 0.20705
0.30805999 0.13706 0.19291
0.29653999 0.076312996 0.19339
0.29835001 0.075875998 0.1925
0.29427001 0.065641001 0.19320001
0.26639 0.11763 0.21172
0.26791 0.11724 0.21097
0.26758 0.1187 0.21089
0.301 0.060444999 0.16885
0.30022001 0.061875999 0.16948999
0.30002999 0.062541001 0.17103
0.29988 0.063643001 0.17196999
0.24447 0.13109 0.20853999
0.24394 0.13155 0.20761999
0.28435001 0.12693 0.20457999
0.28222001 0.065327004 0.19911
0.30857 0.10723 0.20287
0.27605 0.12374 0.20756
0.21969999 0.099287003 0.21482
0.21954 0.099123999 0.21421
0.22056 0.098174997 0.21638
0.28501999 0.079143003 0.19884001
0.2958 0.10675 0.20744
0.29655999 0.10919 0.20714
0.29666999 0.10878 0.20739
0.29811001 0.13180999 0.20093
0.29888999 0.13091999 0.20099001
0.29844001 0.13349999 0.1998
0.29100999 0.18411 0.18618
0.29080001 0.18433 0.18609001
0.29201001 0.18456 0.18521
0.29144999 0.18384001 0.18314999
0.29175001 0.18318 0.18472999
0.30028999 0.060998999 0.16978
0.32901001 0.14208999 0.1857
0.33017999 0.14144 0.18391
0.30904999 0.10916 0.20276
0.30013001 0.15866999 0.18777999
0.30021 0.16 0.18747
0.30061999 0.14868 0.19002999
0.30039999 0.14768 0.19091
0.30197001 0.14765 0.19011
0.30447 0.13759001 0.19348
0.30526 0.13632999 0.19423001
0.30608001 0.13851 0.19377001
0.28729001 0.090443 0.20435999
0.28751999 0.092641003 0.20405
0.27480999 0.10036 0.22352
0.28837001 0.17955001 0.19591001
0.29207999 0.17757 0.19250999
0.24105 0.12203 0.21133
0.24102999 0.12012 0.21159001
0.241 0.12228 0.21077999
0.27774999 0.19361 0.19764
0.22239 0.070412003 0.21444
0.30346999 0.15448 0.19092
0.30436 0.10022 0.20508
0.30315 0.10051 0.20505001
0.30381 0.098963 0.20563
0.29311001 0.1229 0.20525999
0.29350999 0.12328 0.20439
0.28033 0.092877001 0.20694999
0.27956 0.093323998 0.20805
0.30168 0.10814 0.20676
0.30065 0.10825 0.20678
0.30225 0.12540001 0.20186999
0.30267 0.15421 0.19005001
0.30123001 0.1556 0.18912999
0.31424999 0.18361001 0.24214
0.31560001 0.18268999 0.24109
0.31237999 0.18492 0.24559
0.24932 0.13074 0.20681
0.25012001 0.12977 0.2085
0.25044 0.12955999 0.20757
0.2255 0.1293 0.20554
0.22513001 0.12754001 0.20656
0.25189999 0.12707999 0.20931
0.25397 0.12847 0.2094
0.31363001 0.18874 0.24482
0.31145 0.18889999 0.24618
0.24743 0.14487 0.19236
0.24619 0.14463 0.19483
0.24817 0.14346001 0.19408
0.25475001 0.13051 0.20534
0.25468999 0.13281 0.20423999
0.25421 0.13249999 0.20434
0.25284001 0.11416 0.21718
0.25253001 0.11467 0.21689001
0.25411999 0.11515 0.21744999
0.27768001 0.13933 0.19374
0.27755001 0.13816001 0.19479001
0.28417999 0.18794 0.19765
0.28518999 0.18567 0.19739
0.28566 0.18797 0.19561
0.23732001 0.13797 0.20183
0.23544 0.13839 0.2015
0.23765001 0.13733999 0.20344
0.25771001 0.13334 0.20429
0.25896999 0.13359 0.2031
0.25824001 0.13496999 0.20201001
0.2401 0.13974001 0.19993
0.23968001 0.13959 0.20036
0.24160001 0.13919 0.20042001
0.25102001 0.12813 0.20968001
0.25088 0.13045 0.20733
0.25284001 0.12853 0.20855001
0.25189999 0.12856001 0.20947
0.2481 0.14488 0.19222
0.25218001 0.11601 0.215
0.2538 0.11519 0.21668001
0.26363999 0.055121001 0.21559
0.25437999 0.11549 0.21472999
0.18704 0.084891997 0.18899
0.23747 0.14565 0.19261999
0.27531001 0.059193 0.21653
0.23334999 0.14619 0.19058999
0.23459999 0.14548001 0.19092999
0.23721001 0.13618 0.20401999
0.23729999 0.13641 0.20397
0.27625 0.12438 0.2061
0.27662 0.12623 0.20593999
0.23598 0.13824999 0.20396
0.25764 0.13522001 0.20215
0.26963001 0.19954 0.20118999
0.25516 0.11866 0.21292
0.25156999 0.12543 0.20997
0.2525 0.11677 0.21387
0.25421 0.12985 0.20782
0.18871 0.08681 0.18999
0.18806 0.086897001 0.18889999
0.18888 0.085960001 0.19089
0.32745999 0.14798 0.18641999
0.18842 0.085630998 0.19046
0.24053 0.1138 0.21577001
0.21851 0.10056 0.21319
0.21744999 0.099738002 0.21337999
0.21834999 0.098801002 0.21398
0.23318 0.1459 0.19151001
0.23368999 0.14569999 0.19135
0.23858 0.1454 0.19152001
0.23379 0.14443 0.19305
0.23461001 0.14508 0.19309001
0.23999999 0.11586 0.21303999
0.24025001 0.11553 0.21362001
0.23292001 0.14351 0.19404
0.23416001 0.14382 0.19401
0.27485999 0.12981001 0.20434999
0.27471 0.12769 0.20423
0.27619001 0.12996 0.2033
0.22150999 0.11651 0.21091001
0.22014999 0.11704 0.20992
0.2219 0.11521 0.21144
0.29102999 0.14855 0.18053
0.29001001 0.14879 0.18031
0.27024001 0.069022 0.21432
0.31507999 0.18452001 0.24161001
0.31450999 0.18573999 0.24214
0.31516001 0.18893 0.24214
0.31132001 0.1919 0.2456
0.31031999 0.19269 0.24532001
0.27781999 0.14157 0.19049001
0.27799001 0.14044 0.19086
0.27943999 0.14143001 0.19092999
0.25876999 0.11523 0.21646
0.25714001 0.11428 0.21618
0.21738 0.13366 0.19712
0.21831 0.1339 0.19633
0.21906 0.13555001 0.19665
0.23926 0.11477 0.2148
0.23301999 0.14255001 0.19611999
0.23389 0.14308 0.19516
0.23295 0.14312001 0.19647001
0.23382001 0.1419 0.1963
0.24977 0.13357 0.20424999
0.24931 0.13466001 0.20333999
0.24413 0.13802999 0.20182
0.2437 0.13772 0.20184
0.24334 0.13733 0.20254
0.31571999 0.18516 0.24121
0.31375 0.18386 0.24354
0.31487 0.18646 0.24083
0.31488001 0.18732999 0.24034999
0.31558999 0.1892 0.24039
0.31582999 0.19075 0.24126001
0.31553 0.19083001 0.24187
0.31652001 0.19205999 0.24077
0.30416 0.057507001 0.19299001
0.30377001 0.059036002 0.19194999
0.30149999 0.059771001 0.19194999
0.31716999 0.19337 0.24122
0.31854001 0.19439 0.24051
0.31900999 0.19634999 0.24032
0.3175 0.19621 0.24106
0.21822999 0.10718 0.21198
0.31841999 0.19786 0.24089999
0.23928 0.11743 0.21117
0.23308 0.14101 0.19889
0.32769001 0.14624 0.18615
0.32960999 0.14466 0.18619999
0.31582999 0.18167999 0.23898999
0.31531 0.17947 0.23910999
0.31507 0.1825 0.23987
0.31494999 0.18392 0.23975
0.31501001 0.18523 0.24033
0.31604999 0.18722001 0.24037001
0.31636 0.18844999 0.23962
0.31654 0.18908 0.2404
0.31665999 0.19046 0.23977999
0.31775001 0.19237 0.23976
0.31805 0.19399001 0.23919
0.31874999 0.19416 0.23964
0.31977001 0.19622999 0.23908
0.31913 0.19780999 0.23924001
0.23334 0.14071999 0.19919001
0.31545001 0.17750999 0.2392
0.28016999 0.12777001 0.20444
0.31606999 0.17899001 0.23901001
0.31702 0.17775001 0.23894
0.31510001 0.18052 0.23936
0.31511 0.18232 0.23921999
0.31507999 0.18386 0.23853
0.31608 0.18528 0.23923001
0.31584001 0.18662 0.23887999
0.31614 0.18797 0.23898
0.31698999 0.18899 0.23901001
0.31729001 0.1908 0.23910999
0.31769001 0.19249 0.23917
0.31882 0.19358 0.23845001
0.32014999 0.19489001 0.23867001
0.32122001 0.19628 0.23802
0.27201 0.071323998 0.21477
0.27200001 0.072108999 0.21487001
0.27096 0.072268002 0.21624
0.2229 0.14205 0.19063
0.31661001 0.17804 0.23766001
0.31624001 0.17754 0.23813
0.31641999 0.17667 0.23701
0.31516001 0.17900001 0.23785
0.31592 0.18121 0.2378
0.31595999 0.18093 0.23808999
0.31593999 0.18280999 0.23792
0.31621 0.18397 0.23805
0.31698999 0.18645 0.23738
0.31757 0.18818 0.23728999
0.31672001 0.18970001 0.23797999
0.31799001 0.19033 0.23867001
0.31867 0.1918 0.23744
0.32095999 0.19293 0.23744
0.32102999 0.19557001 0.23784
0.23341 0.13963 0.20006999
0.27873999 0.13382 0.20025
0.27899 0.13338 0.20168
0.27904999 0.13277 0.20043001
0.31625 0.17659 0.23608001
0.31632 0.17768 0.23699
0.31619 0.17861 0.23669
0.31625 0.18128 0.23710001
0.31632 0.18151 0.23621
0.31657001 0.18345 0.23738
0.31584001 0.18583 0.23642001
0.31661999 0.18610001 0.23622
0.31670001 0.1882 0.23635
0.31808999 0.18953 0.23643
0.31869999 0.19039001 0.23716
0.31966999 0.19141001 0.23592
0.32034999 0.19312 0.23712
0.32335001 0.19416 0.23571999
0.2333 0.13912 0.20137
0.31608999 0.17324001 0.23507001
0.31718001 0.1744 0.23452
0.30140999 0.14328 0.19238999
0.31709999 0.17617001 0.23571999
0.31593999 0.17817999 0.23582999
0.31725001 0.17929 0.23573001
0.31634 0.18039 0.23582999
0.31692001 0.18122999 0.23541
0.31621 0.18368 0.2353
0.31705999 0.18504 0.23548999
0.31683999 0.18651 0.23559
0.31878 0.18742 0.2351
0.31895 0.18905 0.23593999
0.31935999 0.19043 0.23566
0.32089001 0.1919 0.23508
0.32260999 0.19257 0.23556
0.32385999 0.19528 0.23408
0.31722999 0.17184 0.23435999
0.31726 0.17364 0.23345
0.3145 0.16698 0.22217
0.31606999 0.1751 0.23398
0.31669 0.17625999 0.2344
0.31681001 0.17749999 0.23473001
0.31722 0.17892 0.23481999
0.31718999 0.18097 0.2341
0.31683001 0.18204001 0.23385
0.31682 0.18342 0.23413
0.31696999 0.18505 0.23485
0.31815001 0.18629 0.23521
0.31847 0.1873 0.23408
0.31878 0.18907 0.23427001
0.32023999 0.19032 0.23391999
0.32128 0.19176 0.2341
0.32376 0.19359 0.2342
0.32497001 0.19493 0.23367
0.31718001 0.17151999 0.23367999
0.31711 0.17443 0.2333
0.31731999 0.17467 0.23377
0.3175 0.17632 0.23326001
0.31716001 0.17765 0.23311
0.31665999 0.17912 0.23424
0.31797001 0.18009999 0.23301999
0.31738001 0.18188 0.23402999
0.31742001 0.18362001 0.23383
0.31768 0.18514 0.23385
0.31913 0.18615 0.23304
0.31891 0.1884 0.23337001
0.32023001 0.18882 0.23356
0.32121 0.19018 0.23360001
0.32356 0.19185001 0.23375
0.31783 0.17352 0.23176
0.31696001 0.17495 0.23228
0.31694999 0.17640001 0.23237
0.31672999 0.17773999 0.23241
0.31735 0.17907999 0.23316
0.31718999 0.18032999 0.23246001
0.31758001 0.18292999 0.23323999
0.31832001 0.18335 0.23190001
0.31845 0.18479 0.23212001
0.31931999 0.18629 0.23216
0.32064 0.18817 0.23195
0.32001001 0.18968999 0.23176
0.32179999 0.19047 0.23315001
0.32506999 0.19191 0.23229
0.33430001 0.14094999 0.14409
0.23409 0.13744999 0.20205
0.23404001 0.13801 0.20291001
0.27796 0.13797 0.19587
0.27981001 0.13675 0.19707
0.31761 0.17307 0.23095
0.31810001 0.17262 0.23255
0.31821001 0.17229 0.23105
0.31793001 0.17566 0.23151
0.31805 0.17684001 0.23095
0.31729999 0.17728999 0.2321
0.31729999 0.1788 0.23177999
0.31709 0.18119 0.23205
0.31694999 0.18198 0.23177999
0.31830999 0.18347999 0.23221
0.31959 0.18519001 0.23173
0.31916001 0.18618 0.23193
0.31970999 0.18746001 0.23186
0.32189 0.18899 0.2313
0.32427001 0.19163001 0.23133001
0.22633 0.11656 0.21178
0.22811 0.11672 0.21321
0.2278 0.11918 0.21256
0.24716 0.10787 0.22336
0.24795 0.10704 0.22375
0.27895001 0.13802999 0.19644
0.31766 0.1733 0.23064999
0.31788 0.1751 0.23047
0.31748 0.17629001 0.23133001
0.31768 0.17816 0.23085999
0.31744999 0.17964 0.23129
0.31856 0.17995 0.23102
0.31830001 0.18231 0.23094
0.31885001 0.18434 0.23029999
0.3188 0.18481 0.23034
0.31961 0.186 0.23139
0.32111999 0.1874 0.2307
0.32262 0.19051 0.23041999
0.32374001 0.18999 0.23015
0.33118999 0.15074 0.14724
0.33127001 0.1505 0.14839
0.32209 0.12179 0.19086
0.32225001 0.12357 0.18918
0.20933001 0.12803 0.19518
0.21086 0.12885 0.19591001
0.21058001 0.12963 0.19449
0.31882 0.17226 0.2291
0.31786999 0.17043 0.22927999
0.31762999 0.17359 0.22898
0.31700999 0.17512999 0.2289
0.31775999 0.17592999 0.22928999
0.31702 0.17837 0.22934
0.31672001 0.17947 0.22965001
0.31861001 0.18129 0.23011
0.31810999 0.18174 0.22944
0.31898001 0.18341 0.22988001
0.31922999 0.18509001 0.22936
0.32069001 0.18638 0.22973
0.32108 0.18723001 0.22944
0.32409 0.18934 0.22903
0.32674 0.19002999 0.22832
0.32622001 0.19272999 0.22904
0.26289001 0.20016 0.21424
0.26019999 0.20026 0.21450999
0.26201999 0.19842 0.21362001
0.27853 0.066829003 0.20081
0.31907001 0.17088 0.22875001
0.31777 0.17005 0.22977
0.31810001 0.17227 0.22753
0.31806001 0.17354 0.22842
0.31830999 0.17422 0.22833
0.31779 0.17615999 0.22833
0.31854001 0.17772 0.22872999
0.31740999 0.17884 0.22822
0.31768 0.1802 0.22785001
0.31865999 0.18241 0.22867
0.31898001 0.18327001 0.22857
0.31977999 0.18386 0.22852001
0.32113001 0.18707 0.22840001
0.32335001 0.18782 0.22913
0.32521999 0.18899 0.22785001
0.28075001 0.091031 0.20678
0.28775001 0.063135996 0.19767
0.27291 0.19824 0.20025
0.32648 0.18886 0.22315
0.3263 0.18720999 0.22361
0.32677001 0.18745001 0.22273
0.31819001 0.17061999 0.22752
0.31916001 0.16967 0.22737999
0.31816 0.17287 0.22784001
0.31775001 0.17407 0.22824
0.31742001 0.17442 0.2277
0.31830001 0.17652 0.22725999
0.31942999 0.17826 0.22758999
0.31891 0.17927 0.22752
0.31867999 0.18113001 0.22712
0.31933001 0.18184 0.22812
0.31957 0.18433 0.22705001
0.3211 0.18454 0.22750001
0.32161999 0.18550999 0.22768
0.32405999 0.18697 0.22742
0.22717001 0.1187 0.21205001
0.31889001 0.17041001 0.22587
0.31953001 0.16997001 0.22678
0.31821999 0.17238 0.22660001
0.31786999 0.17308 0.22611
0.31819001 0.17536999 0.22639
0.31806999 0.1763 0.22649001
0.31845 0.17722 0.22708
0.31872001 0.17957 0.22716001
0.31908 0.1803 0.2261
0.31931999 0.18212 0.22618
0.32001999 0.18325 0.22617
0.32113001 0.18491 0.22618
0.32347 0.18629999 0.22657
0.32541001 0.18704 0.22658999
0.32453001 0.15651999 0.18495999
0.33105999 0.15189999 0.14554
0.33144 0.14963999 0.14674
0.31854999 0.16914999 0.22447
0.31889001 0.16993 0.22369
0.31922001 0.17104 0.22497
0.31909999 0.17130999 0.2242
0.31900999 0.17195 0.22578999
0.31843001 0.1733 0.22544999
0.31830001 0.17483 0.22561
0.31817001 0.17678 0.2261
0.31821001 0.17862999 0.22448
0.31896001 0.17894 0.22517
0.31941 0.18074 0.22521
0.32010001 0.18167999 0.22563
0.32078999 0.18387 0.22543
0.32207999 0.1851 0.22569001
0.32451999 0.18629999 0.22487999
0.32649001 0.18754999 0.22528
0.28252 0.14409 0.189
0.29637 0.1655 0.18704
0.27072001 0.070464 0.21445
0.31092 0.13616 0.19312
0.31896001 0.17254999 0.22409999
0.31779 0.17397 0.22376999
0.31850001 0.17527001 0.2247
0.31887999 0.1769 0.22443999
0.31891 0.17664 0.22397999
0.31968999 0.1794 0.22454
0.31999001 0.18008 0.22436
0.32113999 0.18216 0.22479001
0.32093 0.1832 0.22378001
0.32258999 0.18513 0.22414
0.32611001 0.18662 0.22436
0.31907001 0.17140999 0.22288001
0.31839001 0.17282 0.22312
0.31871 0.17388999 0.22372
0.31885001 0.17533 0.22378001
0.31889001 0.17649999 0.22295
0.31887999 0.17805 0.22304
0.31931001 0.17887001 0.22402
0.31987 0.18059 0.22345001
0.31974 0.18228 0.22296999
0.32178 0.18358 0.22307
0.32374999 0.18543001 0.22291
0.32674 0.18617 0.22288001
0.31838 0.17069 0.22288001
0.31891 0.17245001 0.22268
0.31856999 0.17321999 0.22176
0.31858999 0.17485 0.22299001
0.31839001 0.176 0.22235
0.31889999 0.17804 0.22243001
0.31941 0.17889 0.22287001
0.32025999 0.18083 0.22272
0.32058001 0.18183 0.22261
0.32251999 0.18358999 0.22213
0.32501 0.18447 0.22169
0.32596001 0.18579 0.22232001
0.29701 0.064768001 0.15629999
0.2331 0.13695 0.20349
0.23409 0.13665999 0.20378999
0.2375 0.13462 0.20582999
0.23706 0.13358 0.20678
0.23845001 0.13387001 0.20630001
0.23871 0.13892999 0.20173
0.23904 0.13863 0.20253
0.23917 0.13765 0.20204
0.23910999 0.13918 0.20169
0.23052999 0.14202 0.19492
0.23086999 0.14139999 0.19663
0.21630999 0.10765 0.21074
0.21583 0.10626 0.21156
0.21729 0.10675 0.21233
0.21778999 0.13007 0.20028
0.21763 0.12981001 0.20089
0.21898 0.13123 0.20020001
0.24575999 0.14372 0.19406
0.27838001 0.064612001 0.20828
0.27774999 0.065079004 0.20992
0.27790001 0.063919999 0.21055999
0.25376001 0.13864 0.2009
0.25307 0.13715 0.20142999
0.25481999 0.13726 0.20102
0.25395 0.1418 0.19592001
0.25498 0.13979 0.19726001
0.31927001 0.16903 0.22103
0.31849 0.17106999 0.22169
0.31878 0.17212 0.22144
0.31865001 0.1735 0.22149
0.31915 0.17564 0.22114
0.31856 0.17670999 0.22082999
0.31927001 0.17782 0.22208001
0.31933999 0.17927 0.22122
0.32062 0.18031999 0.22122
0.32074001 0.18131 0.22131
0.32427999 0.18358999 0.22153001
0.32506999 0.18479 0.22166
0.3328 0.14791 0.15298
0.33309999 0.14903 0.154
0.23296 0.13609 0.20426001
0.23484001 0.13637 0.20449001
0.23399 0.13530999 0.20502999
0.23492999 0.13496999 0.20457999
0.2333 0.13315 0.20505001
0.23473001 0.13347 0.20527001
0.24168999 0.10896 0.22149
0.23365 0.13109 0.20629001
0.23475 0.13248 0.20603
0.21913999 0.12627999 0.20506001
0.21938001 0.12447 0.20556
0.21951 0.12637 0.20502
0.24085 0.11129 0.22149999
0.21755999 0.13615 0.1947
0.21764 0.13466001 0.19621
0.21831 0.13522001 0.19506
0.22234 0.10176 0.21544001
0.22167 0.10416 0.21498001
0.26293999 0.056497 0.21588001
0.24284001 0.14339 0.19524001
0.21662 0.10776 0.21171001
0.23893 0.14490999 0.19419999
0.23977999 0.14403 0.19594
0.30689999 0.060357999 0.18856999
0.30849999 0.058998998 0.18922
0.30787 0.058272999 0.18937001
0.23873 0.14349 0.19564
0.21946 0.13265 0.19992
0.22012 0.13208 0.20103
0.25505 0.14055 0.19844
0.22679 0.12347 0.20736
0.26278001 0.11169 0.22077
0.26126 0.1113 0.22086
0.26188001 0.11164 0.22181
0.24191999 0.12354 0.20987
0.24155 0.12204 0.21032
0.24273001 0.12291 0.2094
0.31887999 0.16850001 0.21992999
0.31959 0.16972999 0.22068
0.31885001 0.17105 0.21976
0.31852999 0.17238 0.22039001
0.31885999 0.17394 0.22001
0.31845999 0.17565 0.22040001
0.31843001 0.17636 0.22007
0.31962001 0.17748 0.22003999
0.31961 0.17952999 0.22141001
0.3211 0.18137001 0.21967
0.32334 0.18246999 0.22023
0.32495001 0.18348999 0.21958999
0.28345001 0.19159999 0.19462
0.33335 0.13936999 0.14441
0.33397999 0.13852 0.14562
0.23425999 0.13106 0.20784999
0.23439001 0.13124 0.20717999
0.27625999 0.13541999 0.19916999
0.27676001 0.13479 0.19953001
0.27724999 0.13461 0.19934
0.27643001 0.13721 0.19626001
0.27636999 0.13661 0.19724999
0.23952 0.11864 0.21064
0.24127001 0.11523 0.21517999
0.24465001 0.13653 0.20343
0.24538 0.13590001 0.20448001
0.24601001 0.13512 0.20337
0.25885999 0.14045 0.19361
0.25751999 0.14131001 0.19396
0.26005 0.14045 0.19495
0.2183 0.12994 0.20059
0.219 0.13187 0.20011
0.24597999 0.13665 0.20319
0.24366 0.14057 0.19972
0.24291 0.13964 0.19923
0.24420001 0.13864 0.20026
0.27307001 0.12907 0.20443
0.27292001 0.12743001 0.20468999
0.27366 0.12836 0.20495
0.24789 0.14629 0.18811999
0.24002001 0.14247 0.19794001
0.27792999 0.066036001 0.20681
0.25422999 0.13812999 0.19938999
0.2529 0.13961001 0.19943
0.25419 0.13731 0.19955
0.25308999 0.1398 0.19938999
0.27627999 0.13146 0.20313001
0.27704999 0.13011 0.20299999
0.27807999 0.13204999 0.20189001
0.26148 0.1294 0.20665
0.26321 0.12915 0.20661999
0.26251 0.13093001 0.20572001
0.24153 0.1243 0.20949
0.24252 0.12434 0.20962
0.26159999 0.11118 0.22109
0.26233 0.11256 0.21921
0.26256999 0.11328 0.21881001
0.23417 0.10953 0.21924999
0.23344 0.10986 0.21738
0.23457 0.10925 0.21956
0.24672 0.14301001 0.19701
0.24636 0.14136 0.19718
0.24816 0.14143001 0.19761001
0.24444 0.11627 0.21196
0.24552 0.11745 0.21138
0.24481 0.11798 0.21173
0.32019001 0.16636001 0.2186
0.31996 0.16814999 0.21922
0.31974 0.16931 0.21928
0.31882 0.17117999 0.21932
0.31777 0.17248 0.21956
0.31861001 0.17372 0.21942
0.31839001 0.17528 0.21964
0.31839001 0.17646 0.21909
0.31871 0.178 0.21894
0.32074001 0.17891 0.22001
0.32150999 0.1805 0.21816
0.32392001 0.18253 0.21917
0.32539999 0.18381 0.21957
0.23401 0.13055 0.20776001
0.23509 0.13064 0.20852
0.23424 0.12931 0.20836
0.23564 0.12916 0.20908
0.27846 0.12847 0.20394
0.27805999 0.12654001 0.20482001
0.22265001 0.12929 0.20392001
0.22359 0.12887 0.20443
0.19287001 0.088587001 0.18726
0.19301 0.088449001 0.18685
0.27790999 0.063203 0.21236999
0.27785999 0.063225999 0.21354
0.27842 0.061841998 0.2129
0.2208 0.13658001 0.19728
0.22132 0.13489 0.19903
0.22176 0.1365 0.19719
0.22008 0.13383 0.19991
0.22217999 0.1364 0.19955
0.22261 0.13573 0.19881
0.22212 0.12336 0.20739999
0.22486 0.12305 0.20693
0.22367001 0.12433 0.20665
0.25808001 0.11889 0.21217
0.25402999 0.11398 0.21818
0.24700999 0.14697 0.18963
0.24774 0.14576 0.19047999
0.24832 0.14475 0.19133
0.25450999 0.1336 0.20458999
0.25408 0.13466001 0.20343
0.2246 0.11724 0.21053
0.22375999 0.1177 0.21078999
0.22376999 0.11638 0.21283001
0.25479001 0.13552 0.20314001
0.26401001 0.13846999 0.19632
0.26297 0.1391 0.19694
0.26429 0.13726 0.19742
0.27596 0.098661996 0.22169
0.27603999 0.1003 0.22065
0.27393001 0.10173 0.22234
0.27461001 0.10146 0.22129001
0.2739 0.13752 0.19413
0.27366999 0.13691001 0.19523001
0.27533999 0.13784 0.19583
0.27406999 0.10552 0.2209
0.27263001 0.10521 0.22201
0.23108 0.12892 0.20827
0.23162 0.12711 0.20781
0.25384 0.14255001 0.19533999
0.25308001 0.14239 0.19571
0.29082999 0.1267 0.20384
0.24477001 0.11803 0.21171001
0.23287 0.12499 0.20889001
0.32023999 0.16624001 0.21849
0.31904 0.16797 0.21784
0.31957 0.16969 0.21883
0.31898001 0.17188001 0.2176
0.31933001 0.17273 0.21833999
0.31905001 0.17357001 0.21861
0.31951001 0.17501999 0.21881001
0.31962001 0.17742001 0.21831
0.31974 0.17794999 0.21741
0.32047999 0.17877001 0.21844999
0.32198 0.18081 0.2183
0.32464999 0.18279 0.2189
0.32606 0.18351001 0.21794
0.32567 0.18404999 0.21785
0.30614999 0.060447998 0.14921001
0.23649999 0.12932999 0.20891
0.23720001 0.13084 0.20832001
0.26857001 0.10947 0.22301
0.27724001 0.13557 0.19767
0.27208 0.1093 0.21962
0.27015999 0.10951 0.22044
0.27173001 0.10818 0.22022
0.22452 0.10987 0.21389
0.27619001 0.13774 0.19412
0.27235001 0.13111 0.20319
0.27358001 0.13075 0.20288
0.27416 0.13124999 0.20276
0.2414 0.14545 0.19311
0.24128 0.14435001 0.19385
0.25751001 0.14432999 0.18889
0.25698 0.14363 0.1901
0.25189 0.13985001 0.19887
0.25229999 0.13819 0.20006
0.25676 0.14476 0.18571
0.25712001 0.14421 0.18635
0.27494001 0.087181002 0.22059
0.27415001 0.088564001 0.2208
0.27562001 0.089241996 0.21992999
0.27537999 0.092152998 0.22123
0.27625999 0.091228001 0.22028001
0.27739 0.093264997 0.22055
0.27704 0.094022997 0.21981999
0.27643001 0.095025003 0.22014999
0.27695 0.096979 0.22075
0.27586001 0.099266998 0.22070999
0.27579999 0.10097 0.22104
0.27562001 0.10159 0.22055
0.27509001 0.10303 0.22002999
0.27533999 0.10418 0.22114
0.27360001 0.10586 0.22097
0.27256 0.10684 0.22055
0.23819 0.13691001 0.20423
0.24056 0.13680001 0.20274
0.31850001 0.16494 0.21703
0.3202 0.16786 0.2175
0.31913 0.16927999 0.21813001
0.31926 0.17143001 0.21728
0.31904 0.17258 0.21699999
0.31905001 0.17282 0.21773
0.31911001 0.17563 0.21708
0.31962001 0.17640001 0.21675999
0.32021001 0.17858 0.21709999
0.32131001 0.17924 0.21796
0.32232001 0.18104 0.21709999
0.32486999 0.18201999 0.21664
0.32547 0.18327001 0.21712001
0.32473999 0.18514 0.21710999
0.25143999 0.1168 0.21206
0.25239 0.11904 0.21207
0.21622001 0.12747 0.20242
0.21547 0.12636 0.20264
0.21662 0.12685999 0.20371
0.21649 0.12374 0.20437001
0.21669 0.12309 0.20511
0.21769001 0.12337 0.20533
0.23627999 0.12942 0.20789
0.21222 0.11204 0.20618001
0.24307001 0.14622 0.19096
0.24151 0.14654 0.19017
0.24250001 0.14533 0.19126
0.24185 0.14517 0.19136
0.24157999 0.14343999 0.19555999
0.27259001 0.084177002 0.21997
0.27257001 0.082757004 0.21929
0.25461 0.14353 0.19187
0.25600001 0.14331 0.19372
0.25604999 0.14227 0.19294
0.27362999 0.083841003 0.21899
0.27371001 0.086255997 0.21952
0.27445999 0.087086 0.21867999
0.27566001 0.088440999 0.21938001
0.27592999 0.090778999 0.21945
0.27647001 0.091585003 0.21957
0.27759001 0.093111999 0.21943
0.27715999 0.093732998 0.21863
0.27713001 0.096409 0.21856999
0.27711001 0.096795999 0.21939
0.27691001 0.099441998 0.21897
0.2762 0.10087 0.2184
0.27618 0.10133 0.21907
0.27621001 0.10288 0.21997
0.27561 0.10478 0.21964
0.27546 0.10608 0.21955
0.27083001 0.10772 0.22183
0.27351999 0.10672 0.21912999
0.27234 0.10793 0.21852
0.27355 0.1083 0.21867999
0.31953001 0.16824999 0.21636
0.31946999 0.16946 0.21594
0.31927001 0.1707 0.21637
0.31872001 0.17120001 0.21596
0.31931999 0.17358001 0.21656001
0.31878 0.17453 0.21675999
0.31948999 0.17615999 0.21593
0.32008001 0.1778 0.21544001
0.32172999 0.17891 0.21612
0.32363999 0.18139 0.21651
0.32440001 0.18167999 0.21584
0.32527 0.18364 0.21630999
0.20953 0.10808 0.20706999
0.2095 0.10679 0.20646
0.20994 0.10783 0.20805
0.23619001 0.13323 0.20601
0.2359 0.13274001 0.20578
0.23686001 0.13166 0.20759
0.23585001 0.13104001 0.20734
0.24192999 0.14286 0.19672
0.24243 0.14328 0.19666
0.23596001 0.12706 0.20938
0.23512 0.12794 0.20867001
0.21791001 0.12554 0.20370001
0.25701001 0.14313 0.19107001
0.25038999 0.11344 0.21926001
0.25185001 0.11387 0.2193
0.27081001 0.079680003 0.2194
0.25740001 0.11535 0.215
0.2561 0.11559 0.21538
0.27206999 0.078575 0.21789999
0.27206999 0.080398001 0.21876
0.27158999 0.081776001 0.21956
0.27232999 0.081565998 0.21845999
0.27114999 0.080458 0.21957
0.27296999 0.081609003 0.21826001
0.27344999 0.083857 0.21785
0.27518001 0.085362002 0.21749
0.27496001 0.088156998 0.21825001
0.27625999 0.089060001 0.21751
0.27686 0.089822002 0.21752
0.27698001 0.091586001 0.21822
0.27753001 0.093598001 0.21814001
0.27823001 0.094655998 0.2184
0.27792001 0.096547 0.21765999
0.27757001 0.097144999 0.21794
0.27722999 0.098109998 0.21792001
0.27630001 0.10048 0.21879999
0.27666 0.10199 0.21713001
0.27594 0.10309 0.21780001
0.27634999 0.10425 0.21777999
0.27548999 0.10602 0.21852
0.27452001 0.1069 0.21781
0.33353999 0.13019 0.16500001
0.31955001 0.17007001 0.21446
0.31959 0.17053001 0.21627
0.31882 0.1725 0.21551
0.31905001 0.1742 0.2154
0.31955999 0.17436001 0.21457
0.31975001 0.17645 0.21457
0.32102999 0.17856 0.21526
0.32269999 0.1786 0.21541999
0.32458001 0.18088999 0.21524
0.32536 0.18183 0.21457
0.32486999 0.18385001 0.21482
0.21427999 0.10567 0.21121
0.22608 0.11023 0.21357
0.23541 0.13338999 0.20458999
0.23684999 0.133 0.20646
0.23714 0.13564 0.20499
0.23675001 0.11645 0.21219
0.24116001 0.14218999 0.1978
0.24223 0.14225 0.19789
0.24446 0.13598999 0.20386
0.24319001 0.13669001 0.20382001
0.24428 0.13564 0.20456
0.26969999 0.075015001 0.21808
0.27059999 0.075943999 0.21908
0.26967999 0.076066002 0.21917
0.27096 0.075313002 0.21678001
0.27272999 0.076826997 0.21773
0.27160999 0.077523001 0.2185
0.27274999 0.078881003 0.2177
0.27318999 0.080348 0.21777
0.27294999 0.082140997 0.21737
0.27395999 0.083286002 0.21714
0.27452999 0.084633999 0.21751
0.27494001 0.086002 0.21691
0.27665001 0.087612003 0.21784
0.27671 0.089304 0.21654999
0.27691001 0.090478003 0.21689001
0.27726999 0.091870002 0.21668001
0.27821001 0.093432002 0.21627
0.27884001 0.094734997 0.21674
0.27792001 0.096381001 0.21693
0.27788001 0.097397998 0.21713001
0.27788001 0.098805003 0.21654999
0.27755001 0.10039 0.21726
0.27759001 0.10091 0.21634001
0.27653 0.10321 0.21709999
0.27601001 0.1048 0.21757001
0.27548999 0.10553 0.21713001
0.27495 0.10616 0.21710999
0.27333999 0.10779 0.21735001
0.27131 0.10949 0.21754999
0.27204001 0.10979 0.21717
0.31959999 0.16922 0.21402
0.31916001 0.17016 0.21391
0.31878 0.17295 0.2147
0.31941 0.17355999 0.21503
0.31924999 0.17567 0.21505
0.31975001 0.1763 0.21374001
0.3206 0.17719001 0.21445
0.32282999 0.17902 0.21357
0.32460001 0.18072 0.21364
0.32459 0.18185 0.21404999
0.32453001 0.18316001 0.21368
0.23603 0.11534 0.21280999
0.23538999 0.1355 0.20474
0.23647 0.11432 0.21325
0.24135 0.14065 0.19855
0.24275 0.14061999 0.19866
0.24546 0.1338 0.20586
0.27111 0.073954999 0.21762
0.25582001 0.11379 0.21780001
0.25624999 0.11515 0.21732999
0.27192 0.074620999 0.21649
0.27156001 0.076302998 0.21565001
0.27282 0.078433 0.2168
0.27361 0.078795001 0.21599001
0.2739 0.080394998 0.21567
0.27381 0.081395999 0.21639
0.27432001 0.083319001 0.21599001
0.27441999 0.085092999 0.21557
0.27575999 0.085773997 0.21596999
0.27709001 0.087382004 0.21658
0.27726001 0.089249 0.21600001
0.27722999 0.090350002 0.21630999
0.27715001 0.091975003 0.21563999
0.27846 0.093353003 0.21558
0.27783999 0.094554998 0.21592
0.27814999 0.095908001 0.21614
0.27869001 0.097197004 0.2156
0.27821001 0.099189997 0.21574999
0.27857 0.10075 0.21559
0.27750999 0.1017 0.21692
0.27816001 0.10338 0.21605
0.27676001 0.10468 0.21693
0.27625 0.10619 0.21630999
0.27476999 0.10774 0.21634001
0.27373001 0.108 0.21619
0.27203 0.11034 0.21522
0.31974 0.16937 0.21306001
0.31854001 0.16987 0.21347
0.3195 0.17188001 0.21295001
0.31961 0.17339 0.21299
0.31904 0.1754 0.21346
0.32078001 0.17637999 0.21431001
0.32205001 0.17831001 0.21328001
0.32358 0.17937 0.21277
0.32462999 0.18127 0.21294001
0.32405001 0.18223 0.2123
0.22536001 0.10134 0.21653999
0.22562 0.10205 0.21708
0.25780001 0.19379 0.21646
0.33445999 0.13913999 0.15454
0.33045 0.11262 0.16208
0.18997 0.077500999 0.19509
0.23659 0.11402 0.21439999
0.23662999 0.13586999 0.20495
0.24143 0.1401 0.19994999
0.24369 0.13377 0.20573001
0.27074999 0.072798997 0.21633001
0.26976001 0.074495003 0.2191
0.24274001 0.13471 0.20463
0.27243999 0.074469 0.21525
0.27349001 0.075820997 0.21483999
0.27351001 0.077915996 0.21506999
0.27441001 0.079016998 0.21499
0.27419001 0.080817997 0.21545
0.27513 0.081335999 0.2155
0.27500001 0.083140999 0.21514
0.27566001 0.084347002 0.21461
0.27641001 0.086608998 0.21435
0.27682 0.087833002 0.21464001
0.27695999 0.088373996 0.21427
0.27807999 0.090645999 0.2155
0.27836999 0.092056997 0.215
0.27950999 0.093405001 0.21588001
0.27904999 0.095298 0.21504
0.27845001 0.096652001 0.21551999
0.27829999 0.097805001 0.21538
0.27877 0.098623998 0.21452001
0.27851 0.10088 0.21431001
0.27818 0.10185 0.21545
0.27673 0.10188 0.21496999
0.27656999 0.1041 0.21584
0.27605999 0.10548 0.21559
0.27573001 0.10712 0.21548
0.27404001 0.10815 0.21529
0.27248999 0.11031 0.21512
0.33221 0.11093 0.16181999
0.33184999 0.10919 0.16178
0.32018 0.1696 0.21213
0.31883001 0.17092 0.21233
0.31946 0.17290001 0.21304999
0.31885999 0.17308 0.21269999
0.32003999 0.17522 0.21202999
0.32141 0.17587 0.21146999
0.32238999 0.17772999 0.21216001
0.32374001 0.1795 0.21245
0.32438001 0.18088 0.21175
0.32431 0.18257999 0.21146999
0.33118001 0.15189999 0.14569999
0.21450999 0.099196002 0.21108
0.21426 0.097227 0.21156999
0.21539 0.09668 0.21247
0.25426999 0.14329 0.19075
0.24286 0.13871001 0.20111001
0.23621 0.14021 0.20059
0.2366 0.13916001 0.20161
0.23717 0.13903999 0.20138
0.24117 0.13835 0.20190001
0.24496 0.11443 0.2166
0.2439 0.11396 0.21653999
0.24456 0.11471 0.21721999
0.25705001 0.11328 0.21892001
0.27197999 0.073329002 0.21483999
0.27311 0.075133003 0.21433
0.27405 0.075759999 0.21453001
0.27423999 0.077921003 0.21461999
0.27509999 0.079407997 0.21430001
0.27509999 0.079921 0.21405999
0.27634999 0.082171001 0.21360999
0.27642 0.083343998 0.21366
0.27663001 0.084100001 0.21368
0.27573001 0.086235002 0.21357
0.27750999 0.088191003 0.21394999
0.27812999 0.088665999 0.214
0.27777001 0.090830997 0.21393
0.27829999 0.092216998 0.21455
0.27937001 0.093087003 0.21309
0.27906001 0.094379999 0.21374001
0.27902001 0.096840002 0.21412
0.27888 0.096823998 0.21353
0.27867001 0.098872997 0.21445
0.27952999 0.10078 0.21404999
0.27801999 0.10202 0.21491
0.27768001 0.10378 0.21363001
0.27711999 0.10544 0.21481
0.27609 0.10565 0.21416999
0.27577999 0.1068 0.21401
0.27469999 0.10846 0.21337
0.33186999 0.1088 0.16209
0.26688001 0.12444 0.20866001
0.26721001 0.12541001 0.20897
0.26512 0.12515999 0.20964999
0.32080999 0.1672 0.21118
0.30981001 0.081014998 0.18793
0.32067999 0.16834 0.2104
0.31974 0.16912 0.21080001
0.31977001 0.17065001 0.21129
0.31955999 0.17230999 0.21171001
0.31940001 0.17298999 0.21162
0.31977999 0.17544 0.21155
0.32181999 0.17580999 0.21042
0.32341 0.17806 0.21066999
0.32528999 0.17881 0.21114001
0.32431999 0.1805 0.21087
0.33202001 0.14684001 0.14971
0.27989 0.18792 0.19971
0.28126001 0.18956 0.19836
0.23749 0.11333 0.21585999
0.30366001 0.13245 0.19791999
0.30372 0.13135999 0.19926
0.30564001 0.13055 0.19864
0.28952 0.053571999 0.21187
0.28843999 0.054051999 0.21232
0.28771999 0.053507 0.21359999
0.24121 0.13697 0.20265999
0.24293999 0.13687 0.20266999
0.28758001 0.05522 0.21198
0.28799999 0.054053001 0.21256
0.25332999 0.11187 0.22205999
0.25386 0.11127 0.22189
0.25325999 0.11163 0.22141001
0.2492 0.1295 0.20835
0.24189 0.11562 0.21217
0.24105 0.11763 0.21197
0.24196 0.13474999 0.20557
0.24342 0.13512 0.20558
0.24275 0.13413 0.20649999
0.24092001 0.13572 0.20367
0.27268001 0.071006 0.21383999
0.27254 0.073547997 0.21258
0.27359 0.075020999 0.21334
0.27434999 0.076330997 0.21267
0.27467 0.077620998 0.21233
0.27533001 0.078844003 0.21357
0.27511999 0.080737002 0.21328001
0.27581999 0.082142003 0.2133
0.27636999 0.083292 0.21379
0.27645001 0.084394999 0.21245
0.27605999 0.086195998 0.21312
0.27733999 0.087880999 0.21306001
0.27787 0.088813998 0.21244
0.27849001 0.090351999 0.21322
0.27908 0.091693997 0.21317001
0.27994999 0.093350999 0.21263
0.28004 0.094627999 0.21297
0.27882001 0.096533999 0.21287
0.27930999 0.097551003 0.21349999
0.27932999 0.098846003 0.21295001
0.27838001 0.10089 0.21236999
0.27897999 0.1014 0.21328001
0.27777001 0.10302 0.2131
0.27296999 0.11015 0.21337999
0.26034001 0.050379001 0.21201
0.32042 0.16823 0.21048
0.32010999 0.16962001 0.21001001
0.31933999 0.17036 0.20987999
0.3188 0.17251 0.21049
0.31975999 0.17380001 0.21086
0.32066 0.17535 0.2097
0.32137999 0.17702 0.20988999
0.32315001 0.17797001 0.21018
0.32497999 0.17967001 0.20976999
0.32385999 0.18080001 0.20939
0.23649 0.11222 0.21732
0.23678 0.11119 0.21732999
0.23698001 0.11031 0.2192
0.23523 0.13993999 0.19991
0.23293 0.108 0.21852
0.29098001 0.052529 0.2114
0.28926 0.053617999 0.2114
0.28924 0.051555999 0.21167
0.29030001 0.051525 0.20998999
0.28865001 0.055128999 0.21178
0.28858 0.056049 0.21081001
0.28722 0.057199001 0.21100999
0.28549999 0.058880001 0.21117
0.28466001 0.059815001 0.21119
0.2344 0.1376 0.20163
0.23559 0.13779999 0.20334999
0.27245 0.069348998 0.21156
0.27307001 0.070159003 0.21261001
0.27401999 0.071617 0.21234
0.2739 0.074083 0.21247999
0.27353001 0.074725002 0.2124
0.27379999 0.07536 0.21199
0.27449 0.077969998 0.21265
0.27487999 0.079187997 0.21232
0.27542999 0.079980001 0.21242
0.27612001 0.081765004 0.21225999
0.27618 0.082695998 0.21116
0.27717 0.084468 0.21171001
0.27654999 0.086539999 0.21149001
0.27801001 0.087444 0.21164
0.27919999 0.089125998 0.21303
0.27814001 0.090604998 0.21211
0.27939999 0.092349999 0.21122
0.27967 0.093131997 0.21159001
0.28024 0.095094003 0.21123999
0.27954 0.095677003 0.21201999
0.27945 0.098190002 0.21153
0.27935001 0.099321 0.21211
0.28051999 0.10033 0.21176
0.27954 0.10179 0.21218
0.27794001 0.10296 0.21159001
0.23781 0.14161 0.19772001
0.23813 0.13967 0.19873001
0.24855 0.14003 0.19993
0.24979 0.14081 0.19833
0.22643 0.10807 0.2156
0.23743001 0.10988 0.21964
0.2492 0.13303 0.20509
0.24943 0.13283999 0.20533
0.32038999 0.16700999 0.20864999
0.28547001 0.063355997 0.20513999
0.28422001 0.063697003 0.20358001
0.32043001 0.16839001 0.20878001
0.31953001 0.16988 0.20996
0.31957 0.17030001 0.20905
0.31955001 0.17200001 0.20983
0.31984001 0.1734 0.20920999
0.31979999 0.17473 0.20897999
0.32212999 0.17654 0.20977999
0.32416001 0.17721 0.20917
0.32370001 0.17997999 0.20846
0.32402 0.18054 0.20902
0.23721001 0.10873 0.22089
0.25185999 0.12995 0.20757
0.2516 0.1293 0.20785999
0.25354001 0.12989999 0.20803
0.26188001 0.13278 0.20507
0.26115999 0.13252001 0.20499
0.26254001 0.13101 0.20492999
0.21371 0.12752999 0.20008001
0.21303 0.12718999 0.20062
0.21465001 0.12689 0.20191
0.25929999 0.13816001 0.19708
0.25871 0.13737001 0.1982
0.26008999 0.13808 0.19745
0.25961 0.13135999 0.20529
0.26023 0.12771 0.20742001
0.25986999 0.12677 0.20836
0.26122999 0.12822001 0.20778
0.28953001 0.052838001 0.2103
0.28948 0.054060001 0.21076
0.28863001 0.056862 0.20998
0.28731 0.056724999 0.21021999
0.28637001 0.059401002 0.20994
0.28442001 0.060812 0.20987999
0.28369001 0.062144 0.21019
0.27914 0.086966999 0.20631
0.27983999 0.088909999 0.20661999
0.27351001 0.068227999 0.21114001
0.27339 0.070197999 0.21184
0.27419999 0.070986003 0.21091001
0.27329999 0.073314004 0.21135999
0.27289999 0.074823 0.21064
0.27430001 0.075604998 0.21075
0.27441001 0.07762 0.21089
0.27474001 0.079172999 0.21085
0.27496001 0.080481 0.21088
0.27568999 0.081378996 0.21087
0.27719 0.083599001 0.21046001
0.27737001 0.084399 0.21115001
0.27722999 0.086273998 0.21081001
0.27843001 0.087274 0.21103001
0.27897 0.089224003 0.21059
0.27919999 0.090888999 0.21067999
0.27992001 0.092386 0.2105
0.27941999 0.093207002 0.21021999
0.27954 0.094641998 0.21049
0.27981001 0.095463999 0.21159001
0.27919999 0.098190002 0.21089999
0.28036001 0.099147998 0.2113
0.27952999 0.10078 0.21156
0.29003999 0.18374 0.19279
0.19117001 0.081983998 0.19453999
0.27046999 0.13626 0.19794001
0.27206001 0.13671 0.19654
0.23925 0.12974 0.20907
0.23961 0.13015001 0.20909999
0.23965999 0.13136999 0.20862
0.29631001 0.10084 0.20681
0.32038999 0.17038999 0.18646
0.28557 0.12445 0.20589
0.32088 0.16823 0.20755
0.32066 0.16944 0.20817
0.31992999 0.17057 0.20868
0.31988001 0.1727 0.20789
0.31951001 0.17399999 0.20903
0.32181999 0.17445 0.20830999
0.32381001 0.17684001 0.20821001
0.32385001 0.17761 0.20792
0.32437 0.17923 0.20799001
0.33443999 0.14038999 0.14597
0.30337 0.062187001 0.15019
0.33045 0.15440001 0.14711
0.25003999 0.11059 0.22363
0.25220001 0.10943 0.22318999
0.25108001 0.11075 0.22261
0.27884999 0.053328998 0.21654999
0.28049001 0.053551 0.21606
0.23632 0.1408 0.19877
0.26194999 0.13142 0.20491999
0.26165 0.13085 0.20602
0.26361001 0.10822 0.22406
0.26482001 0.10984 0.22303
0.26389 0.11029 0.22149999
0.24109 0.13658001 0.20307
0.24061 0.13617 0.20417
0.24796 0.10914 0.22305
0.24801999 0.10758 0.22385
0.24932 0.11014 0.22311001
0.24642999 0.12617999 0.2106
0.24638 0.12456 0.21051
0.29859999 0.076247998 0.19076
0.29824001 0.07485 0.19148
0.29863 0.073733002 0.19093999
0.28968 0.054577999 0.20845
0.28802001 0.056318998 0.2088
0.28826001 0.056860998 0.20886999
0.28716999 0.059076998 0.20902
0.28602999 0.060817 0.20943999
0.28397 0.060910001 0.20987
0.28760001 0.11094 0.20832001
0.28711 0.1126 0.20839
0.28591001 0.11292 0.20884
0.20613 0.11124 0.19965
0.20529 0.11125 0.20056
0.20725 0.11157 0.20235001
0.27395999 0.068833001 0.20982
0.27373999 0.070537001 0.21073
0.27454001 0.071925998 0.21027
0.27397001 0.073316999 0.21006
0.27458 0.075213999 0.20997
0.27502 0.076628998 0.21024001
0.27502999 0.077496998 0.20990001
0.27531001 0.078964002 0.20977999
0.27513999 0.080233999 0.21029
0.27579999 0.082529999 0.20965999
0.27700999 0.082521997 0.20941
0.27627999 0.085155003 0.21018
0.27805999 0.085529 0.21048
0.27787 0.087242998 0.20936
0.27849001 0.089661002 0.20974
0.28007001 0.090847 0.21009
0.2793 0.091913 0.21016
0.28009 0.093393996 0.20991001
0.28057 0.094713002 0.21021999
0.28095001 0.096478 0.21032999
0.28079 0.096492998 0.20819999
0.27998 0.097947001 0.20947
0.28042999 0.098484002 0.21028
0.27981001 0.10057 0.2095
0.26462001 0.14147 0.18948001
0.23641001 0.14139999 0.19780999
0.25668001 0.050241001 0.21170001
0.25587001 0.053447001 0.21337
0.31869 0.16531999 0.20703
0.32111001 0.16671 0.20723
0.24772 0.11726 0.21165
0.32124999 0.16764 0.20674001
0.32047001 0.16943 0.20734
0.32005 0.17132001 0.20730001
0.31928 0.17262 0.20754001
0.32042 0.17383 0.20778
0.32174 0.17560001 0.20671
0.32376 0.17679 0.20663001
0.32398 0.1781 0.20643
0.32334 0.17975 0.20756
0.24863 0.11517 0.21479
0.24764 0.11588 0.21545
0.24941 0.11484 0.21686999
0.24885 0.1155 0.21343
0.24739 0.11609 0.21408001
0.23159 0.11569 0.21287
0.26086 0.14211001 0.19011
0.26249999 0.14204 0.18962
0.23667 0.14328 0.19569001
0.23514999 0.14293 0.19617
0.23641001 0.14207999 0.19721
0.23503999 0.14286999 0.19677
