# .PCD v0.7 - Point Cloud Data file format
VERSION 0.7
FIELDS x y z
SIZE 4 4 4
TYPE F F F
COUNT 1 1 1
WIDTH 1506
HEIGHT 1
VIEWPOINT 0 0 0 1 0 0 0
POINTS 1506
DATA ascii
-0.049141001 0.089934997 0.12741999
-0.047343999 0.089419998 0.12656
-0.048774 0.089181997 0.12566
-0.048831001 0.089544997 0.12560999
-0.049373999 0.089762002 0.1243
-0.053103 0.091266997 0.12001
-0.050312001 0.089694001 0.12518001
0.027636001 0.063045003 0.1664
0.026884999 0.064179003 0.16834
0.026897 0.062845998 0.16841
0.027655 0.062288001 0.16819
0.0059389998 0.065652996 0.17287
-0.012764 0.042658001 0.16806
0.0061050998 0.065761998 0.17359
-0.051086001 0.090746 0.12348
-0.050053999 0.089635 0.12278
-0.040996 0.085703999 0.13439
-0.040812999 0.085515998 0.13494
-0.039944999 0.085901998 0.13486999
0.0054905 0.087729 0.11864
0.0057203001 0.087096997 0.11945
-0.040199999 0.085464999 0.13369
0.0049264999 0.088618003 0.11767
0.015446 0.064176001 0.17577
-0.041529998 0.085588999 0.13322
0.0087377001 0.049042001 0.17938
0.025633 0.039158002 0.12398
0.02599 0.038805 0.12387
0.028293001 0.037916999 0.12907
-0.043163002 0.086942002 0.13501
0.033500999 -0.041862998 0.16045
0.032738 -0.040208001 0.1586
0.031741001 -0.040971 0.1602
0.028061001 0.061078001 0.17047
0.028222 0.061629999 0.16976
0.0079889996 0.064562999 0.17557999
0.042341001 -0.051743001 0.14872999
-0.051493999 0.092298001 0.12994
-0.050352 0.091332003 0.13014001
-0.051082 0.091449 0.13053
-0.051479001 0.089790002 0.1319
-0.012546 0.040862001 0.16902
-0.01311 0.041005 0.16732
-0.012943 0.039848998 0.16791999
0.029335 0.060215998 0.17041001
0.032444999 -0.035533998 0.14741001
0.031372 -0.035631001 0.14735
-0.0044868998 0.068824999 0.15125
-0.049403001 0.088692002 0.1337
-0.046778999 0.088223003 0.13463999
0.028308 0.060984999 0.16807
-0.036536999 0.082272999 0.14124
-0.038051002 0.082927004 0.14008
-0.048165999 0.088627003 0.13542999
-0.049674999 0.090213001 0.13271999
0.0081928996 0.042319 0.18197
0.0085249003 0.042844001 0.18243
0.0081139002 0.044064999 0.18190999
-0.051277 0.091094002 0.12411
-0.050760999 0.090493999 0.12487
0.025760001 0.065133996 0.16015001
0.039484002 -0.031500001 0.14549001
-0.049911998 0.090369999 0.13000999
0.0073209 -0.033557002 0.14091
0.0082283998 -0.034058999 0.14122
-0.036396999 0.083788998 0.13845
-0.035395999 0.082216002 0.13965
0.0078207999 0.029798999 0.18165
0.0088542998 0.03015 0.18283001
-0.0039698998 0.068645999 0.15221
0.0045830999 0.069052003 0.16129
0.0049137999 0.069320999 0.16301
-0.039276 0.084342003 0.13677
-0.038667001 0.084210999 0.13793001
0.033179 -0.042456999 0.16204
0.031994 -0.042697001 0.16112
-0.044328999 0.087243997 0.132
0.071197003 -0.016690001 0.047054
0.070633002 -0.01712 0.047327001
0.070606001 -0.016828001 0.045869
0.069750004 -0.016902 0.046371002
0.071044996 -0.016455 0.048757002
0.071819 -0.0178 0.046911001
0.072355002 -0.016579 0.049563002
0.002841 0.077950001 0.094994001
0.027138 0.065504998 0.16177
0.027119 0.064428002 0.16343001
0.02524 0.066385999 0.15903001
0.012393 0.020396 0.17348
0.01355 0.020889999 0.17363
0.018735001 0.067881003 0.14848
0.017371001 0.067351997 0.14757
0.032202002 -0.034277 0.14779
0.031230999 -0.034318998 0.14816999
0.070615001 -0.015615 0.047931001
0.070912004 -0.016385 0.048631001
0.072336003 -0.016665 0.050142001
0.073074996 -0.017388999 0.050905
0.0012634 0.051019002 0.17794
0.001511 0.048845999 0.17761
0.064154997 0.033333998 0.086071998
-0.050255001 0.088188998 0.1217
-0.050997 0.088932998 0.12036
-0.051334001 0.091309004 0.12635
-0.052019 0.091849998 0.12402
0.014646 0.067965999 0.16637
0.02128 0.062957004 0.17331
0.020537 0.063005 0.17460001
0.0029316 0.084247001 0.12438
0.0027143999 0.084234998 0.12521
0.059276 -0.045233 0.13806
0.070831001 -0.015959 0.050361998
0.071751997 -0.017170999 0.052340999
0.032026 -0.032763001 0.1473
0.031158 -0.032981001 0.14738999
0.0062609999 0.013339 0.17555
0.021269999 0.064810999 0.17121001
0.020725001 0.063564003 0.17325
0.0062183002 0.071644999 0.10327
0.024943 0.020063 0.17033
0.023497 0.018186999 0.17066
0.032246999 -0.030854 0.14729001
0.030863 -0.031918 0.14762001
-0.016968001 0.074931003 0.14229999
-0.016767999 0.073143996 0.1415
-0.017635001 0.073645003 0.14053001
-0.017631 0.074429996 0.14146
0.019456999 0.065869004 0.16924
0.00038968999 0.079545997 0.08788
0.00078124 0.080176003 0.085859999
0.0012815 0.079622 0.088486999
-0.016938999 -0.047191001 0.10975
-0.017142 -0.047926001 0.11073
-0.015836 -0.046470001 0.11116
-0.016758 0.074146003 0.14326
-0.015152 0.073619001 0.14253999
0.019754 0.066591002 0.16806
-0.015691999 0.073679 0.14396
-0.014851 0.072809003 0.14353
-0.015222 0.073636003 0.14484
-0.014265 0.072829999 0.14492001
0.049688999 -0.051683001 0.14053001
0.014887 0.021206001 0.1726
0.061549 0.0099154003 0.12571
0.016964 0.066164002 0.16625001
0.018183 0.066937998 0.16753
-0.01369 0.073085003 0.14677
-0.013171 0.072921 0.14515001
-0.013913 0.072520003 0.14760999
-0.012514 0.072338 0.14609
-0.012755 0.072123997 0.14857
-0.011882 0.071865998 0.14812
-0.011127 0.070936002 0.14944001
-0.013215 0.068305001 0.15403
-0.010622 0.069985002 0.15036
0.016766001 0.067982003 0.16472
-0.011068 0.069392003 0.15186
-0.011931 0.069064997 0.1533
-0.0096792998 0.069273002 0.15211999
-0.010791 0.068423003 0.15316001
0.030534999 0.036389001 0.13144
0.032047998 0.03655 0.13251001
0.019908 -0.037560999 0.14366999
0.025079999 -0.044073999 0.16124
0.024463 -0.044310998 0.15978999
-0.024568001 0.072757997 0.14951
-0.024203001 0.072957002 0.14817999
-0.025123 0.072465003 0.14887001
-0.0083068004 0.066298001 0.15813001
0.050799001 0.037571002 0.10916
0.063158996 -0.025715999 0.12736
0.023126001 -0.044877 0.15925001
-0.030881001 0.061717998 0.14178
-0.032595001 0.062926002 0.14181
-0.033224002 0.062879004 0.14135
0.013019 0.068901002 0.16728
0.012532 0.067985997 0.16929001
0.013491 0.067433 0.16763
0.014908 0.068343997 0.16331001
0.015628999 0.067721002 0.16332
0.015153 0.068573996 0.16224
-0.010284 0.065504998 0.15795
-0.0095044998 0.066183999 0.15684
-0.010579 0.065582998 0.15649
-0.0075857998 0.066618003 0.15902001
-0.0088561 0.065438002 0.1594
-0.0062199002 0.066762999 0.16060001
-0.0053642001 0.066651002 0.16141
-0.0039905999 0.067626998 0.16168
-0.0030976001 0.067415997 0.16393
-0.0024321 0.066995002 0.1644
-0.0017019 0.067469001 0.16520999
0.0068508 0.038323998 0.18305001
0.020775 -0.03466 0.14331
0.019991999 -0.032575998 0.14263999
0.013109 0.040024001 0.18498001
0.024754001 0.067185998 0.15453
0.0074741999 0.074078001 0.13673
0.0059147002 0.075450003 0.13605
0.014009 0.068254001 0.1611
0.015064 0.069003001 0.16181
0.01372 0.068655998 0.16035999
0.013484 0.069900997 0.15979999
0.010478 0.069863997 0.15693
0.012607 0.068616003 0.15832999
-0.00031517999 0.067396998 0.16520999
0.0096431002 0.068292998 0.156
7.5983999e-06 0.067610003 0.16743
0.0018914 0.067672998 0.16779
0.0020967999 0.067143001 0.16921
0.0031373 0.066822998 0.16998
0.0075339 0.054552998 0.18063
0.0078330999 0.053364001 0.17985
0.01229 -0.0080805002 0.17316
0.01246 -0.0067671002 0.1742
0.065257996 0.014017 0.10931
0.066228002 0.014323 0.10826
0.0099972999 0.068641998 0.14026999
0.024033999 0.042851001 0.093694001
-0.0060749999 0.068930998 0.14839
-0.0054449001 0.068071 0.14799
0.0065254001 0.071732 0.14106999
0.0072841998 0.069848001 0.14191
0.0077122999 0.068783998 0.14323001
0.0089311004 0.068988003 0.1442
0.0087778 0.069357 0.15494999
0.0034817001 0.066618003 0.17117
0.0041744001 0.065481 0.17321999
0.0052087 0.065970004 0.17338
0.022600001 -0.043039002 0.15563001
-0.0031562001 0.024659 0.17411
-0.00046887001 0.0055159 0.17512
-0.055663001 0.093699999 0.11976
-0.055764999 0.093295 0.12051
0.010465 0.068732001 0.14094
0.0087098004 0.068333 0.14564
0.0080835 0.069560997 0.15498
0.0068643 0.068957999 0.15312999
0.006571 0.069040999 0.15233
0.0053003998 0.068934001 0.15158001
0.028247001 -0.031282999 0.14704999
0.026768001 -0.032894999 0.14668
0.054258 -0.052524 0.1286
0.054915 -0.052776001 0.12971
0.053018998 -0.052058 0.12980001
0.0021468999 -0.042411 0.15015
0.025048001 0.066795997 0.15700001
0.026407 0.065986998 0.15816
0.0067043998 0.063259996 0.17768
0.0049761999 0.061686002 0.17733
0.027562 0.037092 0.12412
0.027944 0.037803002 0.12383
-0.00083787 0.039556 0.17998999
-0.0026539001 0.068625003 0.15395001
-0.0022253001 0.068472996 0.15459999
-0.039244 0.084817998 0.13626
-0.039824001 0.084964 0.13688999
0.010674 0.068557002 0.14627001
0.031913001 -0.029557999 0.14748
0.030986 -0.031051001 0.14788
-0.036444001 0.084159002 0.1344
0.0010099 -0.04214 0.15045001
0.00019895 -0.043953001 0.15166
0.0010063 -0.043717001 0.15188999
0.0058658002 0.061354998 0.17918
0.0053466 0.059852999 0.1797
-0.052855 0.088416003 0.13499001
-0.052327 0.087638997 0.1353
0.0031930001 -0.014304 0.16744
-0.0021464999 0.065449998 0.17159
-0.00091981998 0.068566002 0.1569
0.00058176002 0.069315001 0.1576
-0.034773 0.083520003 0.13965
-0.034982 0.084686004 0.13691001
0.019912999 -0.042250998 0.14539
0.0089485999 0.019773999 0.17317
0.0032724 -0.012688 0.16822
-1.559e-05 0.040504001 0.17974
-0.0028526001 0.077661 0.12274
-0.0019375 0.079967998 0.12357
-0.0023012999 0.080087997 0.12268
0.024008 0.038252998 0.12084
0.025149999 0.038683001 0.12146
0.025201 0.037509002 0.12054
0.010341 0.068805002 0.14717001
0.0023278999 -0.016725 0.16494
0.00059548998 0.021503 0.17248
0.00031552999 0.019041 0.17208
0.00023381 0.021079 0.17233001
0.0096362997 0.021976 0.17409
0.071817003 0.010562 0.11335
0.066304997 0.025596 0.073239997
-0.0057919999 0.069404997 0.15033001
-0.040034 0.085662998 0.13134
-0.038407002 0.084705003 0.13309
-0.038361002 0.083818004 0.13225999
0.015418 0.038802002 0.18652
0.0086764004 0.023069 0.17512
-0.036059 0.084368996 0.13482
-0.00079180999 0.0072802999 0.17494
0.0087772999 0.068735003 0.16694
0.0093636001 0.067994997 0.1682
0.010396 0.067759998 0.16782001
0.012544 0.068497002 0.14865001
0.00055433001 0.024761001 0.1758
0.0082289996 0.025341 0.17744
0.0092217 0.024629001 0.17561001
-0.018337 0.075313002 0.14167
-0.018951001 0.074781999 0.14026
-0.019206 0.075289004 0.13989
0.067263 0.027751001 0.077405997
0.022260001 0.068020999 0.15583999
-0.039205 0.084587999 0.13067
0.0017373 0.068937004 0.15791
0.0056489999 0.067767002 0.16306999
0.0068967999 0.069103003 0.16455001
-0.0082018003 0.069312997 0.14704999
0.0060092998 0.086413004 0.1211
-0.055502001 0.093868002 0.12172
-0.056564 0.093249001 0.12109
2.3699e-05 0.067915 0.15541001
0.0012451001 0.069237001 0.15546
0.013729 0.06825 0.14878
0.014398 0.069132 0.14948
-0.017186999 0.074763 0.14199001
-0.016801 0.074887 0.14297
-0.015869999 0.074056 0.14483
-0.01559 0.073706999 0.14534999
-0.014768 0.073435001 0.14771999
-0.014399 0.072177999 0.14822
-0.014015 0.071126997 0.14915
-0.02245 0.074155003 0.14883
-0.022444 0.075580001 0.14636999
0.014315 0.068449996 0.15036
0.014657 0.068722002 0.15136001
0.014831 0.068218 0.14894
0.015107 0.068465002 0.15255
-0.040502999 0.083737001 0.13812
-0.054457001 0.093672 0.12299
-0.044052001 0.086093999 0.12645
-0.044422001 0.086420998 0.12745
-0.044034 0.085502997 0.12608001
-0.0094763003 0.068952002 0.14662001
-0.010463 0.069123 0.14505
-0.00083104998 0.015502 0.17482001
-0.0152 0.070652999 0.1504
0.06583 0.013548 0.11596
-0.018619001 0.074869998 0.14663
-0.017802 0.075423002 0.14613
0.022596 0.063690998 0.17353
0.022929 0.062169001 0.17524999
0.010895 0.045953002 0.18227001
0.015366 0.067298003 0.16836999
0.032538999 -0.028088 0.14806999
0.030843999 -0.028860999 0.1473
0.031838 -0.027174 0.14767
0.031153999 -0.027474999 0.14802
-0.054363001 0.091384999 0.13169
-0.052634999 0.090782002 0.13434
0.021863 0.064301997 0.17121001
-0.046454001 0.086558998 0.13647
-0.039636001 0.083084002 0.14056
0.016356001 0.068200998 0.15366
0.053589001 -0.038543999 0.13437
0.054609001 -0.039615002 0.13617
0.027791001 -0.040236998 0.15715
0.011044 0.067886002 0.16806
0.0097979996 0.067846999 0.16934
0.011764 0.067791 0.17020001
0.01668 -0.047449999 0.15095
0.017166 -0.048250999 0.15069
-0.057388 0.078631997 0.11844
-0.040084001 0.085874997 0.13287
0.010359 0.069018997 0.14068
0.0072997999 0.076370001 0.13282999
-0.0060757999 0.066147 0.16274001
-0.0071633002 0.065714002 0.16088
-0.0052195 0.066225998 0.16357
-0.0046746 0.066761002 0.16351999
0.021267001 0.065279998 0.16952001
0.020902 0.065842003 0.16912
0.020012001 0.066412002 0.16818
0.019331999 0.066877998 0.16662
-0.0032780999 0.067387998 0.16489001
-0.0025076 0.067086004 0.16597
-0.0016571 0.066430002 0.16698
0.01847 0.067387998 0.16542999
0.026512001 0.048098002 0.14523
0.026969001 0.046712998 0.1454
0.00048481999 0.018154999 0.17212
0.0029181 0.068813004 0.16112
-0.0010221 0.010677 0.17479999
-0.0017506999 0.0098155001 0.17427
0.025356 0.066441998 0.15625
0.011486 0.067299001 0.16978
0.011689 0.067041002 0.17166001
0.012792 0.066817001 0.17064001
0.0039118999 0.032226 0.18155999
0.01395 0.066398002 0.16883001
0.017658001 0.067955002 0.1556
0.019461 0.067858003 0.15725
0.020228 0.068627 0.15874
0.017717 0.067766003 0.16394
0.015898 0.069063999 0.16177
0.016833 0.068218999 0.1627
0.015089 0.069012001 0.16037001
-0.00071309 0.06679 0.16765
7.4110001e-05 0.066993997 0.16899
0.00057799998 0.067194 0.17005
0.001734 0.066711999 0.17174
0.0019493001 0.065825 0.17249
0.0028939 0.066238001 0.1745
0.01514 0.068170004 0.15962
0.018173 0.068535998 0.15616
0.032768 -0.026169 0.14732
-0.049591001 0.089950003 0.13102999
0.020763 0.068369001 0.15921
0.014181 0.069491997 0.15838
0.012959 0.068442002 0.15747
0.0026457999 0.063868999 0.17615999
0.011601 0.069348998 0.15625
0.058649 -0.018474 0.13029
0.059248 -0.017566999 0.13067999
0.058029 -0.017666001 0.131
0.028666999 0.043469999 0.085538
-0.049876999 0.086906001 0.13608
0.024132 0.066188 0.16423
0.024473 0.064819999 0.16531999
0.025779 0.064360999 0.16684
-0.042296998 0.08557 0.1331
0.013064 0.067019001 0.16989
0.015325 0.062997997 0.17674001
0.0071606999 0.068323001 0.16617
-0.005504 0.069023997 0.15187
0.0045543001 0.033355001 0.18249001
0.021888999 0.067789003 0.16066
0.010894 0.067648999 0.15476
0.011399 0.069916002 0.15545
0.00011217 0.083516002 0.12324
-0.00055494002 0.082621999 0.12403
0.0082416004 0.069081999 0.15274
0.0079500005 0.068728 0.15223999
0.0041566002 0.068232998 0.14979
0.0046232999 0.067752004 0.14901
0.0063546998 0.068363003 0.14974
0.0042502 0.068565004 0.14843
0.0061838999 0.069476001 0.15166
0.026244 0.062890001 0.16768999
0.024033999 0.038571998 0.11823
-0.042844001 0.086925998 0.13228001
-0.048698001 0.088900998 0.12332
-0.048560999 0.087747999 0.12278
-0.043816 0.086370997 0.12959
-0.055716999 0.092343003 0.11874
-0.054226998 0.09296 0.1188
-0.055346001 0.091190003 0.11797
0.022647001 0.066914998 0.16163
-0.021717999 0.076334998 0.13805
-0.020724 0.075673997 0.13837001
-0.021602999 0.077039003 0.13692001
-0.022483001 0.077247001 0.13763
-0.020281 0.076683 0.13925999
-0.020533999 0.075259998 0.13875
-0.019649001 0.076456003 0.14049999
-0.019506 0.075970002 0.14229
0.018947 -0.042764999 0.14683001
-0.018497 0.075158 0.14335001
-0.017523 0.075680003 0.1441
0.017955 -0.044334002 0.1487
0.026512001 0.062507004 0.16904999
0.024272 0.067436002 0.15586001
0.024826 0.066813998 0.15742999
-0.0019054 0.068425 0.15504
0.0022723 0.069254003 0.15971
0.001617 0.068951003 0.15673
0.026698999 -0.040109999 0.15577
0.027238 0.038277999 0.12988
0.027096 0.038451999 0.13113999
0.027813001 0.037893001 0.13145
0.026261 0.038586002 0.13274001
0.028264999 0.037306 0.13355
0.028589999 0.036949001 0.13298
0.0043994002 0.034290001 0.18206
0.0046103001 0.035243999 0.18261001
0.0041752001 0.037489999 0.18322
0.017550001 -0.045425002 0.15047
-0.017278001 0.074504003 0.14549001
-0.015797 0.074520998 0.14724
0.02286 0.066385001 0.1629
0.017447 -0.0081484001 0.17349
0.018847 -0.0074085002 0.17341
0.018843999 -0.0070197 0.17288999
-0.015675999 0.073365003 0.1476
-0.014844 0.072028004 0.1494
0.034122001 -0.024875 0.14801
-0.014932 0.068855003 0.15193
-0.01694 0.071052 0.15098
-0.015558 0.068956003 0.15167999
-0.0066550998 0.065623999 0.16394
-0.054772001 0.091734998 0.13108
-0.054448999 0.090724997 0.13309
0.027096 0.063552998 0.16493
0.026737001 0.061358001 0.17087001
0.028316 0.062499002 0.16547
0.025025001 0.066685997 0.15876
0.026341001 0.065162003 0.15908
0.025441 0.039593 0.12977999
0.026198 0.039055999 0.12803
0.020787001 -0.037746001 0.14380001
0.020292001 -0.039175998 0.14388999
0.010258 0.068533003 0.16523001
0.010141 0.068511002 0.16539
0.010961 0.068596996 0.16621999
0.00064052001 0.045281 0.17849
-0.017439 -0.045954 0.10853
-0.016673001 -0.047695 0.10923
0.017062001 0.063080996 0.1768
-0.0049695 0.066445 0.16683
-0.0039770999 0.065880999 0.16666999
0.00081468001 0.063207 0.17652
0.0018536 0.063766003 0.17599
-0.0034608999 0.066570997 0.16764
-0.0013533999 0.066280998 0.16802999
-0.001755 0.066138998 0.17026
0.00056557998 0.065459996 0.17098001
0.00042366999 0.065494999 0.17249
0.0026165999 0.064480998 0.17524
0.00068250002 0.061340999 0.17765
0.00071469002 0.095192 0.10477
0.0024222001 0.094713002 0.10565
0.0031546 0.095781997 0.10494
0.026349001 0.066405997 0.15952
0.016923999 0.067915998 0.14834
0.023087 0.037393 0.11937
-0.00024022 0.0090538003 0.17453
0.024398001 0.039701 0.1284
0.028038001 0.037944 0.13014001
0.029426999 0.03802 0.13066
-0.00075473002 0.01386 0.1749
0.0044461 0.068498001 0.15445
0.023366001 0.063584 0.17185999
0.061252002 -0.025816999 0.12747
0.061804 -0.024698 0.12805
0.060733002 -0.024989 0.12774999
0.05545 -0.042135999 0.13672
-0.040353999 0.085487999 0.13607
0.022698 0.064172998 0.17083
0.030626001 0.036858998 0.13226999
0.031847 0.035976 0.13372
0.032290999 0.036014002 0.13336
-0.042213 0.082416996 0.1397
0.016569 0.066978 0.16958
-0.04253 0.085864 0.13465001
0.020723 0.066652 0.14851999
0.00074709998 0.052951999 0.17764001
0.024069 0.03898 0.1274
0.025387 0.038927998 0.12763
0.029503999 0.036258999 0.13209
0.0045514 0.038244002 0.18271001
-0.0057311999 0.068360001 0.14906999
0.025039 0.038428001 0.11979
0.024289999 0.038630001 0.1196
0.025309 0.038424 0.12057
0.022232 0.065039001 0.16978
0.049600001 -0.016226999 0.13049001
0.0041546002 0.039714001 0.18212999
-0.053337 0.091819003 0.12092
0.019597 0.067432001 0.16429
0.018284 0.067180999 0.16402
0.0022559999 -0.042171001 0.14986999
0.06701 0.026939999 0.073964998
0.0049963999 0.041122001 0.18265
-0.00074410997 0.012329 0.17496
0.023376999 0.040073998 0.12625
0.025010999 0.039111 0.12766001
0.030012 0.03664 0.13366
0.030026 0.036807999 0.13355
0.011838 0.068723999 0.14198001
0.020105001 0.066707999 0.1657
0.021173 0.065775 0.16693
0.021523001 0.065609001 0.1681
-0.026040001 0.077342004 0.14623
-0.042808998 0.086071998 0.13591
0.062486 -0.0022352 0.13394
0.063001998 -3.2211999e-05 0.13387001
0.061707001 -0.00086377998 0.13404
-0.032504 0.081918001 0.14161
0.0066670999 0.068761997 0.14422999
0.016586 0.068769999 0.15982001
0.016697999 0.068354003 0.16073
0.017651999 0.067932002 0.16171999
0.0036834001 0.08997 0.11499
-0.0096025998 0.055744998 0.16394
0.017316001 0.065678 0.17290001
0.023341 0.039891999 0.12394
0.024506999 0.039859001 0.12583999
0.029533001 0.035969999 0.13597
0.030846 0.03599 0.13446
-0.0016385 -0.020524001 0.15817
0.017066 0.041124001 0.18659
-0.00014607 0.017051 0.17373
0.030603001 -0.039941002 0.15843
0.0078189 0.068507999 0.14566
0.0084223999 0.068588004 0.14627001
-0.022993 0.076991998 0.13805
-0.023308 0.077302001 0.13655999
-0.023388 0.077414997 0.13718
-0.022409 0.077661 0.13902999
0.012816 0.069114998 0.15552001
0.015334 0.068965003 0.15753999
0.015024 0.069245003 0.15909
0.0099443998 0.068395004 0.14748999
0.010144 0.068802997 0.14849
-0.043003999 0.087001003 0.13175
0.018426999 0.038469002 0.11199
-1.0442e-05 0.091260001 0.11061
0.022430999 0.067601003 0.15226001
0.023465 0.039384998 0.12463
0.022684 0.039680999 0.12356
0.0042527998 0.042957999 0.18239
0.0011252 0.067961 0.15081
0.024444001 0.038557999 0.12468
-0.053011999 0.091863997 0.12269
-0.053128 0.091730997 0.12214
0.020559 -0.040794 0.14431
-0.046089001 0.086221002 0.12527999
-0.046948999 0.086420998 0.12394
0.00091919 0.046209 0.17794999
0.0020041 0.047897 0.17788
0.057576999 0.01131 0.12577
0.057523001 0.010881 0.12527999
0.0062453002 0.070694 0.14150999
0.0055525 0.069141999 0.14331
0.0051000002 0.075663 0.13669001
0.005136 0.071930997 0.13947
0.013771 0.068674996 0.15106
0.014481 0.069115996 0.15245
0.015235 0.067924999 0.15273
0.016082 0.068407997 0.15435
-0.020647001 0.077118002 0.13977
-0.0207 0.076513998 0.14148
-0.01928 0.076531999 0.14206
0.011894 0.068737999 0.15646
0.011217 0.068861 0.1498
-0.034095999 0.082238004 0.14077
0.021105001 0.067318998 0.15117
0.025885001 0.038504999 0.12764999
0.027722999 0.038665 0.12863
0.027308 0.038247999 0.12786999
0.01271 0.065240003 0.17452
0.012479 0.065431997 0.17302001
0.020776 0.067468002 0.14961
0.064511999 0.013864 0.11225
0.012955 0.069366999 0.16282
-0.045260999 0.086416997 0.1252
0.010385 0.068953 0.16315
0.012403 0.069448002 0.15019999
0.012712 0.069114998 0.1548
0.011164 0.069535002 0.15363
0.010194 0.068457 0.15231
0.017353 0.069135003 0.15526
0.017738 0.067919001 0.15617999
0.0077159 0.068425 0.1504
0.0091183996 0.069439001 0.15108
-0.019196 0.076041996 0.14348
-0.018164 0.076073997 0.14480001
-0.01627 0.074744001 0.14729001
0.0069526001 0.068401001 0.14883
0.0020530999 0.091366 0.11247
0.00074311002 0.051805001 0.17708001
0.0045452002 0.044146001 0.18182001
0.025715001 0.038949002 0.12668
0.00019008 0.054694999 0.17845
0.016577 0.029782001 0.18818
0.00066009001 -0.010891 0.16866
0.00011722 0.044153001 0.17998999
0.018941 0.068203002 0.1586
0.0060266 0.068643004 0.14779
-0.016357999 0.072851002 0.14968
-0.018007001 0.073434003 0.14847
-0.017568 0.072309002 0.14961
0.0024735001 0.069121003 0.14687
0.0042345002 0.068283997 0.1459
0.0054827998 0.068851002 0.14792
0.019831 0.068034999 0.15953
0.023362 0.065113001 0.16571
0.024374001 0.063905999 0.16698
0.017948 0.068259001 0.15802
0.014908 0.048002999 0.18422
-0.015869001 0.071696997 0.15006
0.0020785001 0.067117997 0.1463
0.0035571 0.068260998 0.14591999
0.0025955001 0.090801999 0.11326
0.0030855001 0.090556003 0.11444
-0.00018539 0.089512996 0.11193
0.0012964 0.091691002 0.11107
0.065513 0.028860001 0.076462999
0.0052372999 0.045543 0.18059
0.023716001 0.039654002 0.12849
0.024427 0.039427001 0.12912001
-0.018294999 0.071414001 0.15045001
-0.018979 0.073822998 0.14913
0.0052502002 0.046324998 0.18009
0.020865001 0.067969002 0.16152
0.023149 0.066702001 0.16402
0.023072001 0.065595999 0.16519
0.001447 0.067561001 0.14495
0.0026113 0.068090998 0.14516
-0.0070822001 0.064462997 0.1645
0.022048 0.067244999 0.16279
0.024304001 0.06408 0.16953
0.0060908999 0.047890998 0.17889
0.0060055 0.063652001 0.17671999
0.00032158999 0.068079002 0.14174999
0.0053837998 0.048574001 0.17804
-0.0036516001 0.065549999 0.16904999
-0.0026555001 0.066031002 0.16855
0.0069317999 0.050099999 0.17913
0.026498999 0.063078001 0.1701
0.063988999 0.01382 0.11445
-0.012991 0.034614 0.16902
-0.013041 0.035066999 0.16975001
-0.012965 0.034184001 0.16813
0.00080371997 0.068120003 0.14449
0.0017599 0.068421997 0.14395
0.0025281 0.089478001 0.11561
0.023371 0.038486 0.1226
0.0059718001 0.052034002 0.17859
0.024484999 0.038867999 0.1303
0.0052868002 0.053422 0.17907999
-0.042601999 0.085927002 0.12910999
0.025971999 0.061616998 0.17199001
0.0049100998 0.055202 0.18027
0.0046867998 0.055881001 0.1804
0.027851 -0.04961 0.16354001
0.027501 -0.048746001 0.16322
0.026879 -0.049883001 0.16308001
0.063222997 -0.051451001 0.12969001
0.025757 0.039161 0.13165
-0.040029999 0.084321 0.12967999
-0.041414 0.085369997 0.13104001
0.024584999 0.062376 0.17346001
0.0010452 0.079227 0.091761
0.00075787999 0.080040999 0.089748003
0.025374999 0.038474001 0.12234
-0.010682 0.056414999 0.16348
-0.00039425999 0.042149998 0.17998999
0.0013377999 0.099365003 0.097712003
0.028449001 0.036632001 0.13495
0.029123999 0.035727002 0.13581
-0.046105001 0.083544999 0.13815001
0.028967001 0.035698 0.13693
-0.041131999 0.084243998 0.12922999
0.064393997 -0.030960999 0.12362
0.023778999 0.063602 0.1717
0.022111 0.065286003 0.1682
0.022999 0.063808002 0.16891
0.023939 0.063827999 0.17046
0.021799 0.066487998 0.16563
0.027821001 0.037682001 0.12498
-0.042737 0.087514997 0.12977
0.026693 0.038276002 0.1331
0.02313 0.067075998 0.15550999
0.062321 0.033874001 0.086685002
0.020233 0.067323998 0.16374999
0.021103 0.066854998 0.16536
0.019254001 0.068038002 0.16225
-0.046078 0.088073999 0.12815
0.038304999 -0.032664999 0.14597
0.018497 0.067455001 0.162
-0.023332 0.078369997 0.13913999
-0.024325 0.078217 0.1367
0.017912 0.068141997 0.16004001
0.0053560999 0.069760002 0.14338
0.031459 -0.039004002 0.15569
0.0081540002 -0.0013025 0.17507
0.031065 -0.039384 0.15458
0.066625997 0.025374001 0.072648004
0.027253 0.037230998 0.13335
0.026923999 0.038290001 0.12487
0.0035296001 0.071841002 0.1411
0.0047724 0.070350997 0.14176001
-0.022569001 0.077615 0.14023
0.016812 0.068426996 0.15832999
-0.022306001 0.077372998 0.14113
0.015851 0.069284998 0.15818
-0.0036352 0.097167 0.087963
-0.0020079 0.098049998 0.088941
-0.0019402 0.096556999 0.087644003
0.012562 0.068660997 0.15163
0.011766 0.069274001 0.15222999
0.013602 0.069496997 0.15522
-0.021446999 0.077113003 0.14083
-0.020393999 0.076811999 0.14297
0.0097522 0.068651997 0.15222999
0.012903 0.068953 0.1533
0.0054759001 0.069063999 0.14483
0.0073152999 0.069443002 0.14606
0.0021229 -0.043081 0.15148
-0.043242 0.065279998 0.13353001
0.0074972999 0.013722 0.1759
-0.012417 0.037012 0.16885
0.027046001 0.036623999 0.13545001
0.060986999 -0.047791 0.13658001
0.01471 0.068649001 0.15601
0.01147 0.068616003 0.15093
0.012062 0.069508001 0.15344
-0.018371001 0.070881002 0.15000001
-0.042117 0.081698999 0.14119001
-0.042385999 0.082312003 0.14077
0.0092308996 0.069568001 0.14969
0.014271 0.068561003 0.15403
0.015663 0.069343999 0.15508001
-0.048122 0.085845999 0.13738
-0.048268002 0.087204002 0.13632999
0.0024975 0.097984999 0.1002
0.015293 0.069059998 0.15728
0.0079402998 0.068714 0.14684001
0.0085362 0.068249002 0.14748999
0.0097706998 0.068740003 0.15116
0.0074331001 0.068556003 0.14794999
0.0068648998 0.069067001 0.14883
0.016437 0.068359002 0.15667
0.016318001 0.069220997 0.15713
0.00072198 0.06797 0.15166999
0.062780999 0.011904 0.12184
0.064046003 0.011586 0.12081
0.010047 0.068902001 0.14988001
0.010388 0.068882003 0.14981
-0.044925999 0.087894 0.13072
0.018525001 0.068549 0.15892
0.019331001 0.068204001 0.16012999
0.0056159999 0.068526998 0.14664
0.029275 -0.049557 0.16345
0.030646 -0.042755999 0.16144
0.028161 -0.029446 0.1471
0.029006001 -0.027387001 0.14765
0.027562 -0.027801 0.14748
-0.042573001 0.085900001 0.12967999
0.015795 -0.031387001 0.14005999
0.066836998 0.027431 0.074312001
0.027035 -0.045492001 0.16193999
0.028818 -0.044151999 0.16143
-0.015797 0.042004 0.16186
-0.015214 0.043101002 0.16214
-0.016280999 0.042286001 0.16099
-0.046487998 0.087819003 0.12962
0.018469 0.068579003 0.16077
0.0040604998 0.068765 0.14462
0.0052761999 0.068276003 0.14613999
-0.052620001 0.092173003 0.12916
0.0034226 0.069473997 0.14362
0.020198001 0.067566 0.16103999
0.02115 0.067438997 0.16317999
0.02138 0.066270001 0.1647
0.019314 0.067740999 0.15144999
0.065412 0.028167 0.076472998
0.065498002 0.028805001 0.073914997
0.065782003 0.028495001 0.074184
0.066535003 0.0275 0.076958999
0.0043609999 0.094691999 0.10753
0.00063844002 0.068967998 0.15299
0.0040000998 0.073067002 0.13872001
0.0032676 0.071537003 0.14004
0.021914 0.066060998 0.16587
0.012108 0.067353003 0.14178
0.020509999 0.068117999 0.15186
0.064259 0.030157 0.074460998
0.063597001 0.028966 0.073078997
0.063317001 0.03077 0.07339
0.064662002 0.029432001 0.075581998
0.0029342 -0.042959001 0.15090001
-0.00072750001 0.067813002 0.15208
0.023560001 -0.03167 0.14541
0.063743003 0.030595001 0.075493999
0.063766003 0.031241 0.074359
0.064524002 0.030764 0.076459996
0.063169003 0.033066999 0.087374002
0.020236 -0.045990001 0.15662999
0.019289 -0.047061 0.1568
0.025153 0.064051002 0.17129999
0.024807001 0.063812003 0.16903
0.023189999 0.065835997 0.16651
0.023204001 0.064833 0.16729
0.063267998 0.031273998 0.076044001
0.062600002 0.031434 0.074027002
0.064203002 0.031511001 0.077048004
0.065223999 0.029875999 0.078111
-0.02647 0.078924999 0.13677
-0.025264001 0.077583 0.13673
-0.025759 0.079218 0.13623001
-0.026255 0.078310996 0.13602
-0.024770999 0.079255 0.13778
-0.023662001 0.078088 0.13935
0.020740001 -0.04442 0.15501
-0.034212001 0.063708 0.13989
0.061992999 0.032288998 0.075122997
0.061668001 0.031086 0.073105998
0.060993001 0.032680001 0.073786996
0.063376002 0.031684998 0.076389998
0.062666997 0.032455999 0.076898001
0.064023003 0.031583998 0.078674003
-0.023905 0.077882998 0.13981
-0.023021 0.078175001 0.14132001
-0.022381 0.078174002 0.14237
-0.055688001 0.092087001 0.13016
-0.019897001 0.074575998 0.14789
0.061307002 0.033363 0.075166002
0.062980004 0.032311 0.077363998
0.063322 0.032490999 0.078942001
0.013029 -0.032556999 0.14052001
-0.020478001 0.073161997 0.14906
-0.020249 0.074983999 0.14721
0.062821999 0.033385001 0.079112999
0.062111001 0.032887999 0.078429997
-0.024638001 0.070808999 0.14893
-0.024367999 0.071658 0.14910001
0.020501999 -0.042376999 0.15419
0.017814999 0.038812 0.11081
0.050326001 -0.023559 0.12991001
0.049702 -0.023623999 0.12974
0.049380001 -0.022468001 0.12985
0.052928001 -0.013261 0.13135
0.053179 -0.012248 0.13331001
0.051810998 -0.012007 0.13256
0.052455001 -0.025343001 0.1287
0.052825 -0.023482 0.12885
0.051998999 -0.023636 0.12837
0.052839998 -0.028355001 0.1293
0.051805001 -0.026573 0.12876
0.052049998 -0.026536999 0.12948
-0.010543 0.01469 0.16672
-0.011117 0.013696 0.16700999
0.062128998 0.034049999 0.078689002
0.062252 0.032827001 0.077106997
0.060903002 0.034203999 0.076618001
0.062662996 0.033417001 0.079788998
0.063101001 0.033601001 0.080881998
0.016960001 0.038554002 0.10743
-0.057996001 0.094324 0.12178
-0.010066 0.0018032 0.16937
0.057376999 0.0098374002 0.12687001
0.059571002 -0.0063052 0.13506
0.058517002 -0.0048827999 0.13424
0.057859 -0.0051210001 0.13479
0.024427 0.066629998 0.15051
0.023712 0.066285998 0.15036
-0.010758 0.012263 0.16686
0.060963001 0.034731999 0.078450002
0.060851999 0.034607999 0.077721998
0.062541001 0.034166001 0.080026999
0.062948003 0.034178998 0.081602998
0.063637003 0.033610001 0.082836002
0.060665 -0.048209999 0.1372
0.022031 -0.042389002 0.15177
0.024627 0.066001996 0.15238
0.011611 0.046567 0.18223999
0.060617998 0.035447001 0.079363003
0.060017999 0.036331002 0.078755997
0.060589999 0.03483 0.081385002
0.063022003 0.034366999 0.081901997
0.062510997 0.034674 0.083558999
0.023035999 -0.040215999 0.15004
0.049777001 -0.012562 0.13237999
0.070141003 0.012043 0.11036
0.058899 0.036586002 0.078910999
0.058908001 0.035916001 0.077664003
0.058621999 0.035592999 0.078273997
0.06016 0.036391001 0.080605
0.060394 0.035760999 0.081216
0.061005 0.034997001 0.082239002
0.062479001 0.034602001 0.083419003
0.063856997 0.035188001 0.084549002
0.023716999 -0.039648 0.14726
0.062633999 0.033665001 0.088583998
0.026706001 -0.011047 0.16784
0.026143 -0.010196 0.16875
0.024107 -0.03819 0.14752001
0.069404997 0.012658 0.10987
0.070276 0.011972 0.11085
0.070671998 0.011787 0.11195
0.049343001 -0.051311001 0.14087
0.049313001 -0.049302001 0.14076
-0.0087313 -0.0055014002 0.16709
0.057973001 0.036690999 0.079662003
0.057153001 0.037425 0.078836001
0.058768 0.036134999 0.081251003
0.061124999 0.035916999 0.081983998
0.061011001 0.035507999 0.083250001
0.061937999 0.035698 0.084399
0.062853999 0.034995999 0.086060002
0.068755999 0.012719 0.10971
0.069187999 0.011674 0.11185
0.069615997 0.012635 0.11299
0.062401 -0.029849 0.12736
0.058347002 0.037441999 0.080046996
0.056998 0.036989 0.079529002
0.058649 0.037048001 0.080890998
0.058779001 0.036814999 0.082351997
0.060784999 0.036408 0.083668001
0.061074 0.035670999 0.084981002
0.062157001 0.035319999 0.086485997
0.061471999 0.03475 0.087208003
0.071151003 0.01056 0.11389
0.00041511 0.097482003 0.10004
0.060284998 -0.047736 0.13799
0.060546 -0.047743 0.13734999
0.060038 -0.046153001 0.13764
0.066343002 0.013819 0.10972
0.068916 0.012288 0.11206
0.069213003 0.012322 0.11325
0.069954 0.010789 0.1147
0.036283001 0.030545 0.17918999
0.035246 0.032288 0.18006
0.019951001 -0.043922 0.15652999
0.055996999 0.038166001 0.079534002
0.056207001 0.037558999 0.078433
0.055665001 0.038817 0.079525001
0.057126001 0.037974 0.080968998
0.058371 0.036770001 0.082425997
0.058483999 0.036800999 0.082998
0.059930999 0.036993999 0.083834
0.060318999 0.035951 0.085375004
0.061544001 0.034942001 0.086108997
0.061625 0.034139 0.087673999
0.00021216999 0.098158002 0.1001
-0.026363 0.079484001 0.13682
-0.026517 0.079662003 0.13679001
-0.025115 0.079395004 0.13884
0.066885002 0.01283 0.11152
0.067725003 0.01261 0.1127
0.06865 0.012431 0.11379
0.069518998 0.011476 0.11516
-0.024121 0.079282999 0.13989
-0.024875 0.079195999 0.14049
0.054724999 0.038993001 0.078584
0.055206999 0.039262999 0.079460002
0.056260999 0.038282 0.080473997
0.056759998 0.038787 0.081687003
0.057627998 0.037441999 0.082091004
0.057916999 0.038068999 0.084282003
0.059149001 0.037029002 0.084495001
0.059379 0.036977999 0.085707001
0.061420999 0.036123998 0.087485
0.060623001 0.035517 0.088104002
0.00072503003 0.070448004 0.14005999
0.0013867 0.071718 0.13987
-0.023208 0.078505002 0.14203
0.066041999 0.013075 0.1105
0.066225998 0.012753 0.11187
0.067231998 0.013112 0.11375
0.067153998 0.012023 0.11414
0.024150001 -0.037225001 0.14607
-0.041581001 0.062716 0.12983
-0.040408 0.063380003 0.12827
-0.012178 0.038013998 0.16996001
-0.011452 0.036692001 0.16969
0.053672001 0.039267998 0.078400999
0.054799002 0.039347999 0.080123998
0.055884998 0.038977001 0.080766998
0.056699 0.038532 0.082810998
0.056428999 0.038061 0.083431996
0.057363998 0.038694002 0.084592
0.058226999 0.037682001 0.08563
0.059253 0.037126001 0.087165996
0.059788998 0.036878999 0.087609001
0.060268998 0.036550999 0.089028999
0.061296001 0.036254 0.090143003
0.065791003 0.012889 0.11321
0.066615999 0.013421 0.11384
0.067037001 0.012944 0.11519
-0.015227 0.073049001 0.14215
-0.011189 0.035766002 0.17021
0.052212998 0.039299 0.078543
0.055946998 0.039531998 0.083866
0.056784 0.039145 0.0845
0.057337001 0.038146 0.085794002
0.058513001 0.038261998 0.086327001
0.058830999 0.037029002 0.088284001
0.060389999 0.037372999 0.089663997
0.060185 0.036293 0.090885997
0.0060867001 0.082368001 0.12688001
-0.016322 0.071883999 0.14088
0.06521 0.013101 0.11401
0.065660998 0.0135 0.11438
0.066262998 0.013333 0.11626
0.067319997 0.012081 0.11699
0.056455001 0.039473001 0.085758001
0.056038 0.039333999 0.085354
0.057452999 0.039000999 0.086023003
0.058572002 0.038787998 0.087471999
0.058409002 0.037946999 0.088809997
0.059443001 0.038153999 0.089215003
0.060277 0.037565999 0.090434
0.066587001 0.011022 0.11956
-0.0014695 0.095747001 0.088675998
0.066441998 0.012526 0.11883
0.0095761996 -0.0041260002 0.17408
0.0020175001 0.095544003 0.10358
0.001864 0.095092997 0.10553
-0.040796999 0.062684 0.13526
-0.039971001 0.061168998 0.13416
-0.039117999 0.060559001 0.13471
0.056044001 0.039615002 0.086024001
0.055613 0.040972002 0.085091002
0.056644 0.039553002 0.087109998
0.057402998 0.039131001 0.087646998
0.058171999 0.038773999 0.088965997
0.058472998 0.038972002 0.090655997
0.05903 0.037978001 0.092385001
0.059673999 0.037319001 0.092839003
0.065357 0.012043 0.11912
0.065862998 0.011381 0.12029
-0.027757 0.079677001 0.13587999
-0.028703 0.079461999 0.13427
0.053603999 0.040957998 0.083931997
0.053654 0.040516 0.085924
0.055032 0.039871 0.086317003
0.055473 0.039643001 0.088412002
0.05697 0.039689999 0.088501997
0.057735998 0.039096002 0.090222999
0.058088999 0.038727999 0.090520002
0.058708001 0.038282 0.091908
0.059606999 0.037009001 0.092804998
-0.044273999 0.067221999 0.12463
0.06033 0.012242 0.12143
0.066590004 -0.025003999 0.12563001
0.065879002 -0.025667001 0.12575001
0.064084999 0.012392 0.1203
0.065205999 0.011392 0.12113
-0.041910999 0.083044 0.13948999
0.056837 -0.013807 0.13237999
0.058263998 -0.013608 0.13243
0.057744998 -0.012348 0.13282999
0.0049390998 -0.039866 0.14432999
0.0050332998 -0.040164001 0.14454
0.0057138 -0.040716 0.14605001
0.053737 0.040674001 0.085980996
0.052813999 0.040461 0.084948003
0.054129999 0.040851001 0.086386003
0.054896001 0.040369999 0.087853998
0.056655001 0.040879998 0.089024
0.056465 0.039804 0.090379998
0.057153001 0.038688 0.091886997
0.058075 0.038197 0.092854001
0.057911001 0.038486 0.094310001
0.025362 -0.035555001 0.14698
0.063918002 0.010718 0.12131
0.063980997 0.0098484 0.12395
-0.051070001 0.090138003 0.13383999
0.027879 -0.035440002 0.14845
0.050065 0.04236 0.083535001
0.051901001 0.042144999 0.084390998
0.050942998 0.041230001 0.083930999
0.052338 0.041258 0.086107999
0.052735999 0.041632 0.085969999
0.053518001 0.041489001 0.087880999
0.053821001 0.041166 0.088794
0.055360001 0.039848998 0.090069003
0.055307999 0.039854001 0.091201
0.056963 0.038973 0.092476003
0.058035001 0.038883999 0.093760997
0.057796001 0.038389999 0.095408998
0.060508002 -0.030375 0.1277
0.059469 -0.028903 0.12763999
0.059420001 -0.028694 0.12748
0.027127 0.0092725996 0.17091
0.028512999 0.0070687002 0.17112
0.063446 0.0027834999 0.13235
0.063743003 0.0028480999 0.13141
0.062694997 0.0051245 0.13112999
0.063750997 0.010753 0.12274
-0.00090481999 0.090595998 0.10771
-0.0017933 0.091692001 0.10623
-0.00046000999 0.091890998 0.10788
0.048967 -0.021640001 0.12898999
0.037020002 -0.024637001 0.14675
0.035337999 -0.024441 0.14707001
0.032540999 -0.039556999 0.15466
0.034146 -0.039384 0.15689
0.052855998 -0.049116999 0.14132001
0.053904999 -0.048866 0.14122
0.052388001 -0.047850002 0.14099
0.058269002 0.0010894 0.1338
0.056917001 0.0021505 0.13365
0.056255002 0.00036042999 0.13462999
0.058091 -0.0024655999 0.13546
0.057711001 -0.0010257 0.13503
0.056568999 -0.0018844 0.13525
0.045889001 -0.045701999 0.14054
0.044672001 -0.045759998 0.14214
0.045148 -0.046374999 0.14187001
0.059198 -0.016206 0.13061
0.058465 -0.015858 0.13145
-0.054508999 0.089956999 0.13338999
-0.055077001 0.089025997 0.13330001
0.052363999 -0.032481 0.12772
0.052784 -0.03224 0.12872
0.052724998 -0.031126 0.12813
0.054710999 0.0089456998 0.12938
0.056304999 0.0084395995 0.12970001
0.057546999 -0.020098999 0.13094001
0.047242001 -0.037774999 0.13501
0.046673998 -0.037149001 0.13372999
0.046009 -0.037505999 0.13552
0.064368002 -0.017773001 0.12919
0.055358 -0.023746001 0.12947001
0.055824 -0.023735 0.12887
0.055597998 -0.021780999 0.12921999
0.063309997 -0.013674 0.13074
0.061875999 0.00056547002 0.13383999
0.0625 0.00093604001 0.13389
0.061636001 0.0019544 0.1328
0.059183002 0.0062079998 0.13138001
0.057365 0.0054950002 0.13142
0.058497999 0.0041834 0.13248
0.057376999 0.0092826998 0.12862
0.056042999 0.0082692998 0.12817
0.057466 0.0074704001 0.13014001
-0.054357 0.089677997 0.13346
-0.052988999 0.087995 0.13441999
-0.053339999 0.089148 0.13431001
0.058754999 0.0038264999 0.13321
0.058545001 0.0027709999 0.13279
0.058460999 0.0018603 0.13366
0.054001 -0.020361001 0.13006
0.054921001 -0.019559 0.13059001
0.054031 -0.019185999 0.13048001
0.053853001 -0.021808 0.12966999
0.054400001 -0.021979 0.12879001
0.054067999 -0.020819001 0.12932999
0.046863999 -0.043184001 0.14016999
0.045467999 -0.041900001 0.14004999
0.046535 -0.044360001 0.14050999
0.065063998 0.0034948001 0.13101
0.064565003 0.0044065998 0.13034
0.053495001 -0.016155001 0.13152
0.054065 -0.016426999 0.13142
0.052466001 -0.015331 0.13194001
0.048101 -0.043903999 0.14071
0.047715999 -0.042906001 0.14002
0.048018001 -0.044039998 0.14103
0.059007 -0.028173 0.12895
0.060355999 -0.027815999 0.12799001
0.059586 -0.026355 0.12868001
0.037211001 -0.027804 0.14657
0.036327999 -0.028076001 0.14662001
0.057583999 -0.014595 0.13104001
0.059027001 -0.014036 0.132
0.038554002 -0.027749 0.14647999
0.039196 -0.02537 0.14635
0.037501 -0.026712 0.14693999
0.033858001 -0.048227999 0.16216999
0.033464 -0.048161998 0.16316999
0.033863999 -0.049155001 0.16351999
0.032063998 -0.049253002 0.16447
0.032745 -0.051045999 0.16398001
0.049265999 -0.035990998 0.13128
0.047107998 -0.034945 0.12980001
0.032660998 -0.044059999 0.16177
0.032816999 -0.044856999 0.16184001
0.036513001 -0.029273 0.14651
0.060658 -0.022754 0.12819
0.059023999 -0.022957001 0.12865999
0.05147 -0.020253001 0.13049001
0.051738001 -0.019355001 0.13038
0.036628 -0.032906 0.14625999
0.049212001 -0.032017998 0.12873
0.051008999 -0.031821001 0.12824
0.049552001 -0.030568 0.12924001
-0.051800001 0.090921 0.13415
0.055183999 -0.01787 0.1311
0.054397002 -0.018169999 0.1303
0.061241001 -0.046282001 0.13722
0.017426001 -0.029341999 0.14606
0.018982001 -0.027946001 0.14747
0.018102 -0.028966 0.14898001
0.061025999 0.0024818999 0.13353001
0.059779 0.002542 0.13362999
0.060274001 0.00090033998 0.13417
0.031812999 -0.045210999 0.16283
0.034028001 -0.045074001 0.16250999
0.032710001 -0.046755001 0.16323
0.033615999 -0.046186 0.16336
0.059673 0.0045591998 0.13218001
0.058674 0.0048031998 0.13203999
0.059969001 0.010177 0.12597001
0.061048999 0.010142 0.12589
0.059916001 0.010733 0.12412
0.059016 0.013533 0.11925
0.027663 0.0093174996 0.17113
0.049128 -0.039958 0.13731
0.047366001 -0.039813001 0.13807
0.048666 -0.040936999 0.13888
0.054871 -0.016369 0.13138001
0.05508 -0.014848 0.13152
0.053970002 -0.015571 0.13143
0.040635001 -0.022789 0.14624999
0.039956 -0.024906 0.14585
0.050652001 -0.048154 0.14166
0.049081001 -0.047412999 0.14139
0.049157001 -0.047458999 0.14259
0.048455998 -0.046397001 0.14184
0.046448998 -0.047966 0.1416
0.056058001 -0.020378999 0.12986
0.056568 -0.020765999 0.1295
0.055521999 -0.019750999 0.12991001
0.047759999 -0.035666998 0.1329
0.048781998 -0.035185002 0.13276
0.046358 -0.034871999 0.12996
0.061585002 -0.046133999 0.13604
0.037780002 -0.02145 0.14743
0.037253998 -0.023251999 0.14657
0.044836 -0.033578999 0.13031
0.044647999 -0.035156 0.13169999
0.046464998 -0.033332001 0.12938
0.046705 -0.032274999 0.13017
0.052552 -0.029112 0.12842
0.053451002 -0.029244 0.12904
0.060359001 -0.031431001 0.12694
0.059362002 -0.030071 0.12783
0.054768998 -0.0041879001 0.13483
0.054260999 -0.0016256 0.13516
0.053490002 -0.00085359003 0.13506
0.056873001 -0.00077901001 0.13521001
0.055679999 -0.0024055999 0.13526
0.065297998 -0.0031600001 0.13301
0.065265998 -0.0025545999 0.13277
0.057663001 -0.047772001 0.13872001
0.057574 -0.045104999 0.13864
0.056403 -0.046287 0.13914999
0.057441 -0.045359999 0.13819
0.058713999 0.0072058002 0.13098
-0.012879 0.069292001 0.15290999
0.049128 -0.043947 0.14021
0.048863001 -0.042713001 0.13903999
0.029836001 -0.048356 0.16351999
0.057753999 -0.0036563 0.13497999
0.056262001 -0.0035581 0.13471
0.061687 0.0044354 0.13180999
0.060299002 0.0029217999 0.13289
0.046891 -0.045143001 0.14150999
0.053342 -0.026497001 0.12887
0.0535 -0.024444999 0.12829
0.05621 -0.047141001 0.14048
0.057165001 -0.047823999 0.13901
0.056026001 -0.046268001 0.13985001
0.054306 0.00042448999 0.13334
0.053617001 0.00066537003 0.13440999
0.053226002 -0.00077167997 0.13383
0.054685 -0.030580999 0.12791
0.056134999 -0.03036 0.12826
0.055647001 -0.028859001 0.12879001
-0.0026153999 0.070051998 0.12966
-0.0025478001 0.071401998 0.12982
-0.0026799999 0.071760997 0.12868001
0.0075071999 0.064025998 0.17743
0.064769 -0.0041538002 0.13353001
0.064570002 -0.0018844 0.13338999
0.054901 -0.013542 0.1323
0.053355001 -0.014251 0.13125999
0.064923003 0.0077379001 0.12748
0.038403001 -0.031246001 0.14672001
0.023812 -0.026474001 0.14833
0.026117001 -0.027845001 0.14786001
0.025632 -0.025970001 0.14731
0.061574999 0.00085930002 0.13389
0.061475001 -0.029338 0.12693
0.060846999 -0.029772 0.12685999
0.060743 0.0035745001 0.13225
0.053938001 -0.0093055004 0.13326
0.055105999 -0.0090533998 0.13355
0.053025 -0.0081973998 0.13412
0.058208 0.014722 0.11965
0.044845 -0.039398 0.13700999
0.044629 -0.038123999 0.13534001
0.034088001 -0.036612999 0.1487
0.049977999 -0.029713999 0.12914
0.048829 -0.029882999 0.12895
0.054873001 -0.011986 0.13217001
0.055094 -0.011885 0.13288
0.049511001 -0.040656 0.13834
0.018812999 0.047713 0.18561999
0.018778 0.046303999 0.18549
0.05421 -0.030871 0.12830999
0.054109 -0.029501 0.12826
0.064805999 -0.0062977001 0.13307001
0.062399998 0.0071434998 0.12948
0.062369999 0.0091251004 0.12808
0.060904998 0.0081102001 0.12827
0.055884998 -0.014478 0.13175
0.057170998 -0.015617 0.131
0.056467 -0.013834 0.13197
0.056054 -0.0042964998 0.13491
0.057252999 -0.0050444999 0.13416
0.055739 -0.0049271001 0.13504
0.052280001 -0.042490002 0.13891
0.050593 -0.040803999 0.13809
0.050512001 -0.043451 0.13884
0.063138001 -0.0037332999 0.13473
0.062252998 -0.0028015 0.1349
0.062222 -0.004741 0.13449
0.05494 -0.041253 0.13725001
0.03059 -0.043366998 0.16186
0.029371001 -0.043427002 0.16196001
0.0298 -0.045251001 0.16269
0.058508001 -0.0021545 0.13454001
-0.017276 0.037854999 0.16122
-0.016735001 0.037891999 0.15955
-0.017232001 0.036747001 0.15967999
0.038067002 -0.014081 0.15233
0.060419001 -0.0088465996 0.13381
0.060102999 -0.0080380002 0.13412
0.06005 -0.007491 0.13472
0.061501998 -0.0056443 0.13526
0.059845999 -0.0062433002 0.13497999
0.056104001 -0.010347 0.1327
0.054756999 -0.010196 0.13356
-0.037399001 0.063019998 0.13833
-0.037583999 0.063694 0.13876
0.061517 0.0077216001 0.12933999
0.054471001 -0.044728 0.13997
0.054793999 -0.044922002 0.13961001
0.053959999 -0.043480001 0.14009
0.056678999 -0.0071724998 0.13439
0.057665002 -0.0077773998 0.13485999
0.056611001 -0.0068970001 0.13482
0.051286001 -0.012882 0.13237999
0.051139001 -0.010698 0.13324
0.063755997 0.0077775 0.12862
0.063506998 0.0096669998 0.12673
0.051453002 -0.031844001 0.12929
0.051263001 -0.030517001 0.12857001
0.050016001 -0.031153999 0.12947001
0.049646001 -0.026989 0.12926
0.049127001 -0.026250999 0.12946001
0.030634001 -0.045759 0.16195001
0.038279999 -0.049456999 0.16232
0.037996002 -0.047346 0.16189
0.037269998 -0.048062 0.16169
0.036200002 -0.049749002 0.16171999
0.037652001 -0.046904001 0.16151001
0.036539 -0.046094 0.16158
0.056954999 0.011231 0.12764999
0.056127999 -0.019114001 0.12982
0.055312 -0.017516 0.13097
-0.044631999 0.065348998 0.13213
0.038054999 -0.045152999 0.16077
0.036274999 -0.045444001 0.16144
0.059733 -0.010439 0.13391
0.061496999 -0.0099294996 0.13354
0.059629999 -0.0081874998 0.13469
0.054676 -0.043421999 0.13952
0.055224001 -0.042025998 0.13861001
0.053973999 -0.041756999 0.13822
0.030724 -0.046576999 0.16301
0.02911 -0.045653 0.16329999
0.046103999 -0.041501999 0.13945
0.045682002 -0.040525999 0.1381
0.045357 -0.040752999 0.13873
0.063942 0.0060470998 0.12947001
0.063735001 0.0075770998 0.12896
0.051789999 -0.024543 0.12895
0.026628001 0.014738 0.16918001
0.058364 -0.026385 0.12768
0.058394998 -0.024294 0.12828
0.057884999 -0.024736 0.12854999
-0.044284999 0.080490001 0.14001
-0.043405 0.080605999 0.14089
-0.0030451 0.078941002 0.11233
0.048432 -0.028611001 0.12905
0.027285 -0.02506 0.14959
0.052119002 0.0020268001 0.13399
0.036591001 -0.022748001 0.14641
0.053183001 -0.037335999 0.13262001
-0.042699002 0.081099004 0.14139
0.062476002 -0.027434999 0.12730999
0.055305999 -0.00064243999 0.13429999
0.054125 0.0074577001 0.13091999
0.032724001 -0.035921998 0.14836
0.033236001 -0.037216 0.14923
0.033681002 -0.03413 0.14719
0.064007998 -0.0070487 0.13338
0.062724002 -0.0078809997 0.13426
0.035071 0.033482 0.18034001
-0.041005999 0.080967002 0.14105
-0.039005999 0.081694998 0.14187001
0.051543001 -0.016511001 0.1313
0.033562999 -0.031953 0.14721
0.062765002 -0.0084411995 0.13328999
0.052515 -0.014954 0.13153
0.035620999 -0.021609999 0.14872
0.057468999 -0.027958 0.12773
0.058807001 -0.027651001 0.1278
0.056563001 -0.026118999 0.12867001
0.061283 -0.019045999 0.12966999
0.062111001 -0.019127 0.12982
0.062295001 -0.016968001 0.12992001
0.033055 -0.031223999 0.14733
0.063231997 -0.015682001 0.13045
0.062167998 -0.016202001 0.13056
0.032772999 -0.029882001 0.14729001
0.033158999 -0.028997 0.14805
0.062197998 0.003703 0.13127001
0.061129998 0.0039145998 0.13141
0.049541 -0.034246001 0.12836
