# .PCD v0.7 - Point Cloud Data file format
VERSION 0.7
FIELDS x y z
SIZE 4 4 4
TYPE F F F
COUNT 1 1 1
WIDTH 1491
HEIGHT 1
VIEWPOINT 0 0 0 1 0 0 0
POINTS 1491
DATA ascii
0.14864001 0.037276998 0.0058145002
0.13965 0.1105 -0.0015216999
0.14191 0.051341999 0.0061813002
0.14184999 0.052745 0.0060379999
0.14317 0.052474 0.0070385002
0.10524 0.081139997 -0.018332001
0.13270999 0.086516 -0.042025998
0.13277 0.085109003 -0.041847002
0.11933 0.084879003 -0.045931999
0.12036 0.085588999 -0.045937002
0.11345 0.093009003 -0.032430999
0.030897999 0.043161001 0.033383999
0.031447001 0.043086 0.031849001
0.030579001 0.042573001 0.033174001
0.10714 0.11321 -0.0089397999
0.10681 0.113 -0.010323
0.10685 0.11359 -0.0097158002
0.12246 0.11222 -0.053509001
0.041538998 0.040865999 0.051559001
0.046335001 0.034332 0.027309
0.042427 0.11717 0.10037
0.042904999 0.1176 0.10104
0.16216999 0.042392999 0.0022606
0.094116002 0.089934997 0.028905001
0.16909 0.037710998 -0.013639
0.10922 0.066042997 -0.018428
0.10978 0.067486003 -0.019544
0.11031 0.066230997 -0.019392001
0.025989 0.042764999 0.045612
0.02599 0.042502001 0.044588
0.13496999 0.049872 0.013568
0.13582 0.049095999 0.01329
0.10244 0.051601999 0.00082024001
0.13725001 0.11467 -0.0035116
0.094232999 0.058981001 0.0012327
0.11469 0.10141 -0.031720001
0.11493 0.099955 -0.031916998
0.088930003 0.057223 0.0032228001
0.039762001 0.11337 0.097309001
0.041452002 0.095046997 0.086258002
0.046215001 0.10804 0.087470002
0.047153 0.10786 0.086893
0.13196 0.055369001 -0.013863
0.13562 0.090314001 -0.038663998
0.13514 0.090648003 -0.039917
0.10275 0.090171002 -0.010725
0.10331 0.090062998 -0.0096725998
0.10326 0.09059 -0.010059
0.12176 0.10901 -0.059078999
0.12192 0.10862 -0.059996001
0.12189 0.10777 -0.060438
0.060446002 0.079274997 0.036339998
0.1628 0.040619999 -0.0091137998
0.069123998 0.081703 0.028805001
0.13361 0.070087999 -0.062088002
0.13349999 0.070083998 -0.063257001
0.13521001 0.11426 -0.028323
0.084274001 0.068709001 0.024124
0.04549 0.075419001 0.076897003
0.04586 0.075309999 0.075480998
0.11775 0.051371001 -0.0093192998
0.11658 0.051775001 -0.0094333999
0.055257 0.076077998 0.043306001
0.043501999 0.036316998 0.018031999
0.034913 0.042523 0.030579001
0.035080999 0.042603001 0.029687
0.034049001 0.042479001 0.029720001
0.13562 0.090262003 -0.037362002
0.13485999 0.090650998 -0.036699001
0.13963 0.072829001 -0.012795
0.083219998 0.091982 0.038849998
0.083486997 0.092940003 0.037785999
0.082866997 0.092545003 0.038311001
0.071562998 0.033992998 0.083475001
0.070308 0.034100998 0.083561003
0.070340998 0.034203 0.082803003
0.11365 0.095907003 -0.031017
0.11442 0.095820002 -0.031640001
0.049151 0.077063002 0.079526
0.049008001 0.077386998 0.080159001
0.12381 0.057186 -0.048547
0.095487997 0.072635002 0.020834001
0.13756999 0.059455 -0.001045
0.13792001 0.060538001 -0.0021486999
0.13327999 0.082229003 -0.045233
0.13358 0.082511999 -0.043641001
0.091537997 0.092918001 0.03266
0.13843 0.082307003 -0.019374
0.042718001 0.063166998 0.074506
0.043556001 0.063579001 0.073358998
0.030556999 0.043079998 0.038690001
0.14593001 0.057103001 0.012657
0.13011999 0.087482996 -0.04665
0.12684 0.069254003 -0.060791999
0.13922 0.081073999 -0.013472
0.13926999 0.079668 -0.013212
0.033089001 0.043846 0.03551
0.033528998 0.043396998 0.034226
0.032063 0.043489002 0.035021
0.038621001 0.11475 0.10067
0.13764 0.068580002 -0.013578
0.078542002 0.079599999 0.023472
0.056267999 0.064677998 0.031477001
0.057528 0.064764999 0.030818
0.10111 0.064084999 0.0026573001
0.15531 0.04256 -0.011629
0.15575001 0.042474002 -0.012112
0.11052 0.052285001 -0.0065195002
0.10958 0.052188002 -0.005593
0.079438999 0.051057 0.076603003
0.078933999 0.051304001 0.075525001
0.1202 0.11253 -0.050999001
0.12458 0.10252 -0.065485001
0.12872 0.082165003 -0.048243999
0.12921999 0.081234999 -0.047954999
0.063438997 0.080884002 0.035179999
0.063003004 0.079832003 0.034598
0.083476998 0.068240002 0.025907001
0.076779999 0.072145 0.023642
0.077211998 0.071261004 0.023320001
0.065030999 0.0458 0.057117999
0.16579001 0.035505001 -0.011825
0.068733998 0.084334999 0.033117
0.068341002 0.084494002 0.033975001
0.1383 0.10419 -0.012994
0.17483 0.036979001 -0.0066343001
0.15704 0.039452001 -0.015683001
0.15682 0.039294999 -0.016779
0.15712 0.040621001 -0.015153
0.17207 0.038268998 -0.0010934999
0.11912 0.11316 -0.048712999
0.15237001 0.050221 0.022665
0.15254 0.051119 0.021314001
0.15216 0.051307999 0.022805
0.098429002 0.086028002 0.024497001
0.097847998 0.085500002 0.024774
0.10279 0.037163001 -0.02894
0.10275 0.037034001 -0.029797001
0.046185002 0.047049999 0.047217
0.14529 0.052361 0.0090025999
0.14602999 0.053645998 0.0098037999
0.14809 0.054239001 0.021232
0.11916 0.072630003 -0.057262
0.1194 0.073477998 -0.056293
0.13845 0.11582 -0.0029974999
0.13826001 0.11688 -0.0028830001
0.059866 0.063780002 0.029859999
0.060888 0.063239999 0.02977
0.13535 0.088926002 -0.037645999
0.041572001 0.10367 0.089819998
0.041437998 0.10237 0.089431003
0.12977 0.080981001 -0.057893999
0.13568 0.090650998 -0.024448
0.12287 0.062036 -0.04764
0.061016001 0.083260998 0.044817001
0.06143 0.083733 0.044351
0.060155999 0.083307996 0.044647001
0.062809996 0.086346 0.040709
0.062359001 0.085868999 0.041804999
0.063463002 0.086631 0.042268001
0.041097 0.065690003 0.079558
0.040626001 0.066192001 0.079291001
0.033486001 0.036669999 0.021129999
0.032573 0.036642998 0.021051999
0.032867 0.036977999 0.021978
0.15757 0.039748002 -0.012598
0.15710001 0.040601999 -0.013626
0.081781 0.037636999 0.0075842999
0.061159 0.046691999 0.045233
0.060890999 0.046512999 0.045593001
0.14938 0.053332001 0.016388001
0.14936 0.053766001 0.017511999
0.039806001 0.042601999 0.030321
0.039135002 0.042420998 0.029728999
0.085179001 0.049926002 0.0016459
0.084578998 0.048914999 0.0014351
0.084501997 0.050094001 0.003057
0.15818 0.037427001 -0.010758
0.15861 0.037801001 -0.011983
0.12355 0.062948003 -0.051704999
0.12389 0.063883997 -0.052345999
0.12561999 0.051661 -0.011752
0.12421 0.051311001 -0.011323
0.1244 0.051686998 -0.012215
0.040569998 0.039898001 0.055330001
0.038945999 0.039797999 0.055842001
0.15672 0.039524999 -0.019502001
0.15578 0.039448999 -0.019939
0.061774001 0.075639002 0.031688001
0.061096001 0.075942002 0.032660998
0.071961001 0.046579 0.066480003
0.072342001 0.046813 0.065059997
0.071693003 0.046438999 0.065421
0.099647 0.063527003 0.0038622001
0.099095002 0.063060999 0.0036619001
0.13428999 0.10411 -0.033208001
0.13387001 0.10471 -0.034198001
0.13474 0.10539 -0.032969002
0.056414001 0.062514 0.031808
0.057448 0.063412003 0.031145001
0.081688002 0.090527996 0.040141001
0.080305003 0.092041001 0.039546002
0.080658004 0.090842001 0.040018
0.098223999 0.090374 0.028915999
0.16279 0.040785 -0.011967
0.14912 0.051495001 0.013132
0.14945 0.051435001 0.011731
0.14929999 0.052648 0.012341
0.11901 0.078712001 -0.051121
0.077391997 0.066495001 0.024458
0.078207001 0.092855997 0.037705
0.079094999 0.092311002 0.036947001
0.077785 0.092055 0.036729999
0.11404 0.11337 -0.031792998
0.11528 0.11357 -0.031828001
0.11392 0.11395 -0.031438001
0.043967001 0.037191998 0.024296001
0.16952001 0.039538 -0.0028474
0.030060999 0.039995 0.024618
0.12771 0.053302001 -0.013587
0.12651999 0.053328998 -0.01402
0.033374 0.037949 0.022947
0.13282999 0.087729 -0.040686999
0.14803 0.054632999 0.015079
0.10039 0.042748999 -0.014439
0.099806003 0.034876 0.060570002
0.098040998 0.034593999 0.061526
0.098495997 0.035 0.060309999
0.075018004 0.090397 0.041414998
0.073752999 0.090401001 0.041763999
0.025082 0.039586999 0.044202998
0.024366001 0.038897999 0.044952001
0.024866 0.039732002 0.045028001
0.14543 0.040920999 0.010801
0.14201 0.064264998 0.011532
0.082603 0.069287002 0.024180001
0.083002001 0.070453003 0.023685001
0.12986 0.068258002 -0.061930001
0.13653 0.065646999 -0.0089144995
0.095360003 0.040716 -0.023334
0.095646001 0.039893001 -0.024165999
0.094887003 0.039882999 -0.024179
0.16777 0.037678 -0.012944
0.056552 0.056559 0.033856001
0.13406999 0.070228003 -0.024808999
0.13925999 0.063461997 0.0051324
0.13500001 0.086525999 -0.034433
0.13436 0.086107001 -0.035252001
0.14117999 0.063299 0.0087866997
0.12343 0.083935 -0.046110999
0.12269 0.083682999 -0.046654001
0.12207 0.084577002 -0.046092998
0.11192 0.070147 -0.025839999
0.11164 0.071803004 -0.026161
0.11248 0.071571 -0.026691999
0.13313 0.090163 -0.041740999
0.13307001 0.089259997 -0.041650999
0.13277 0.090682 -0.042715002
0.092107996 0.069367997 0.022787999
0.039760001 0.095803998 0.090352997
0.10731 0.10783 -0.019972
0.10844 0.10765 -0.020718999
0.093809001 0.053739 -0.0018053
0.093142003 0.054196998 -0.0015435
0.095068999 0.053977001 -0.0019558
0.061248001 0.081054002 0.039101999
0.083388999 0.038210999 0.0065719001
0.082232997 0.037815999 0.0060957
0.13485999 0.10849 -0.044613
0.069314003 0.075494997 0.025821
0.037308 0.040302999 0.052338999
0.13716 0.11031 -0.012557
0.13596 0.1099 -0.013582
0.13614 0.11026 -0.012844
0.13381 0.073988996 -0.028205
0.10825 0.084508002 -0.024893001
0.031959999 0.040998001 0.025675001
0.030864 0.040956002 0.026035
0.042861 0.035778001 0.018149
0.12625 0.056756999 -0.018203
0.12627 0.056074001 -0.017252
0.072718002 0.090320997 0.041497
0.072628997 0.091893002 0.041443001
0.10269 0.11495 -0.0087842001
0.10672 0.084973 -0.022007
0.097176 0.083826996 0.023169
0.096671 0.083100997 0.022913
0.13625 0.1098 -0.046388
0.11713 0.081099004 -0.04532
0.11792 0.082116999 -0.045042001
0.11783 0.080836996 -0.04637
0.083513997 0.079553999 0.022073001
0.026582999 0.038977999 0.038543001
0.059925001 0.04786 0.041039001
0.058649 0.047876 0.040927999
0.058596998 0.048447002 0.040229
0.068519004 0.085175999 0.035455
0.067868002 0.084458001 0.035119999
0.067137003 0.084825002 0.036563002
0.10523 0.11485 -0.011162
0.050911002 0.076912001 0.083104998
0.13122 0.053204998 -0.0086425003
0.13681 0.05308 0.0045616999
0.14568 0.044367999 0.012105
0.10537 0.11963 -0.0073333001
0.050205 0.053952001 0.038672999
0.049461 0.055514999 0.038895998
0.11452 0.11736 -0.029131999
0.11351 0.1177 -0.028543999
0.11331 0.11752 -0.029282
0.13293999 0.083501004 -0.042093001
0.13268 0.083672002 -0.040782001
0.063192002 0.071525998 0.027934
0.10689 0.080825001 -0.021941001
0.027767999 0.047442 0.050407
0.027829001 0.047913 0.051020999
0.028946999 0.047984 0.050216999
0.030626001 0.050455 0.053307001
0.030328 0.050546002 0.054118
0.030595001 0.050861001 0.054455001
0.066220999 0.051397 0.038919002
0.067033 0.051761001 0.038580999
0.12472 0.099257998 -0.067392997
0.12487 0.098692 -0.067492001
0.084652998 0.037976 0.0026972
0.047228001 0.074069001 0.073303998
0.046378002 0.073147997 0.074332997
0.047826 0.048636001 0.04377
0.039978001 0.043248001 0.049302001
0.12106 0.078437001 -0.052483998
0.082024999 0.093212001 0.037333
0.093565002 0.079553001 0.021708
0.092800997 0.078808002 0.021734999
0.092101 0.079559997 0.02217
0.075268 0.089171998 0.036111999
0.076426998 0.089817002 0.035935
0.1381 0.079876997 -0.020251
0.1062 0.11592 -0.010354
0.10672 0.11727 -0.0096623003
0.041577 0.042172 0.059482999
0.040249001 0.041783001 0.059397999
0.042059999 0.041892 0.058556002
0.16159999 0.040132999 -0.015057
0.040507 0.03737 0.019781999
0.063942 0.070537001 0.027556
0.17449 0.036424 -0.0021552001
0.17456 0.037413999 -0.0027007
0.12482 0.059599001 -0.049807001
0.14336 0.046296 0.013849
0.10458 0.11897 -0.01004
0.10564 0.11856 -0.010513
0.044312 0.10136 0.082734004
0.044105999 0.10264 0.08275
0.099696003 0.078512996 0.020631
0.12303 0.067957997 -0.059517
0.12301 0.068424001 -0.060245
0.1224 0.067831002 -0.059062999
0.13950001 0.1082 -0.0031667
0.038872998 0.091724999 0.091325998
0.038486999 0.090538003 0.091314003
0.12927 0.11547 -0.057521999
0.13462 0.073482998 -0.028314
0.13518 0.073779002 -0.028312
0.092909999 0.043795999 -0.0068097999
0.092478998 0.044131 -0.0056639002
0.078442 0.052165002 0.075124003
0.13299 0.075473003 -0.053250998
0.16195001 0.037592001 -0.013721
0.16197 0.038573999 -0.014044
0.045177002 0.095604002 0.081161998
0.045164 0.097199999 0.081253998
0.12157 0.099652998 -0.067519002
0.16633999 0.039445002 -0.0048631001
0.16632 0.040348001 -0.0064197001
0.16588999 0.040668 -0.0049187001
0.018929999 0.034542002 0.048718002
0.083192997 0.082153 0.023624999
0.030017 0.040784001 0.027621999
0.029625 0.040178999 0.026632
0.029381 0.039310999 0.026879
0.1497 0.037613999 0.0032603
0.14974 0.038892999 0.0028818001
0.063051 0.067495003 0.027558999
0.080613002 0.066600002 0.024611
0.079999 0.066505 0.024474001
0.081315003 0.067456 0.024526
0.13338999 0.071525 -0.065033004
0.13319001 0.072264999 -0.066134997
0.13304999 0.072322004 -0.065379001
0.10849 0.05937 -0.011252
0.10817 0.058139998 -0.010416
0.14398 0.063261002 0.016608
0.14273 0.063060001 0.015911
0.14241999 0.062146001 0.016378
0.13736001 0.080176003 -0.023078
0.14121 0.046427 0.013887
0.14071999 0.046491999 0.014714
0.14638001 0.054076001 0.010354
0.041547 0.068163 0.081193998
0.043814 0.11858 0.10206
0.071773 0.043412998 0.074703
0.072572999 0.042695999 0.075548001
0.082001001 0.081642002 0.023905
0.082172997 0.082486004 0.024313999
0.047185 0.077404998 0.075649001
0.054177001 0.072499 0.037671998
0.053907 0.071548998 0.037002999
0.12469 0.079015002 -0.051716998
0.12513 0.079392999 -0.052526999
0.047332998 0.060929999 0.041877002
0.078166001 0.062469002 0.033202998
0.077653997 0.061726999 0.034132
0.076824002 0.062112998 0.032614999
0.034538001 0.034979001 0.01888
0.034139998 0.033930998 0.020043001
0.052220002 0.046913002 0.044594001
0.13237999 0.11642 -0.024619
0.11006 0.10635 -0.012404
0.10853 0.1077 -0.012539
0.10913 0.10715 -0.012188
0.084710002 0.081115 0.021589
0.090185001 0.036876 -0.026779
0.12867001 0.078129999 -0.049338002
0.13381 0.070067003 -0.057464
0.133 0.071070001 -0.058731999
0.13311 0.071222 -0.057712
0.050425 0.078987002 0.084873997
0.071015999 0.054368999 0.040651999
0.070052996 0.053784002 0.039921001
0.1041 0.049074002 0.0080215996
0.10322 0.048934001 0.0064993999
0.059388001 0.055365 0.033181999
0.058123 0.056417 0.033046
0.059126001 0.056297 0.033071999
0.048319001 0.094558999 0.087925002
0.047853 0.094668001 0.087549999
0.048113 0.095558003 0.087748997
0.10974 0.064848997 -0.017972
0.1103 0.065169998 -0.018897999
0.11204 0.080998003 -0.034244001
0.11317 0.082107998 -0.033879001
0.11268 0.081821002 -0.034494001
0.14774001 0.057234 0.016779
0.14809 0.058153 0.016016999
0.044957001 0.078243002 0.078001998
0.045015998 0.079604998 0.078009002
0.045793001 0.079397 0.076738998
0.049391001 0.044185001 0.049749002
0.049185999 0.043455001 0.050960001
0.048172999 0.044326998 0.049203999
0.10792 0.035224002 -0.025883
0.10937 0.035792001 -0.026287001
0.095838003 0.044909999 0.0012311999
0.095953003 0.044567 -0.00036445999
0.060524002 0.077165999 0.033769
0.13321 0.10786 -0.053828999
0.13253 0.1079 -0.053477999
0.13555001 0.052896999 0.0040194001
0.13837001 0.083965003 -0.018294999
0.084250003 0.087733001 0.030758001
0.13545001 0.10123 -0.064019002
0.13564999 0.10175 -0.063277997
0.062605999 0.047532 0.044466998
0.061239999 0.047090001 0.044165999
0.087347999 0.064960003 0.027507
0.097723 0.043736 -0.0095416997
0.097368002 0.043605 -0.0095763998
0.030703999 0.053715002 0.058733001
0.030095 0.051495001 0.055881999
0.03039 0.052216001 0.056444
0.13336 0.054221999 -0.0062374999
0.079457998 0.075833 0.02214
0.079940997 0.075223997 0.021703999
0.039781999 0.085088998 0.087613001
0.039133001 0.085143 0.08839
0.12104 0.077151 -0.055433001
0.12047 0.077237003 -0.054168001
0.11071 0.082882002 -0.028871
0.11129 0.082007997 -0.02743
0.068273999 0.092202999 0.038755
0.060495999 0.047426999 0.042587999
0.059119999 0.046723999 0.042918
0.0594 0.047446001 0.041862998
0.061673 0.048032999 0.042116001
0.060596 0.047830999 0.041443001
0.11443 0.082708001 -0.037652001
0.11394 0.082165003 -0.037831999
0.14015999 0.062038001 0.0071533001
0.14117 0.061209001 0.0067516002
0.064517997 0.074371003 0.028198
0.10924 0.098690003 -0.021074999
0.050007001 0.079199001 0.085924998
0.094737001 0.055714998 -0.0012187
0.095738001 0.055858999 -0.0010624001
0.096403003 0.055201001 -0.0014474
0.032097999 0.043906 0.042682
0.12665001 0.049387999 -0.0054410002
0.12665001 0.049667001 -0.0063383002
0.089556001 0.037119001 -0.027489999
0.089888997 0.091931999 0.032903001
0.093207002 0.059404999 0.0025782001
0.098980002 0.074933 0.020136001
0.042208001 0.067317002 0.078368001
0.041721001 0.066646002 0.078336999
0.15898 0.043531999 0.0023252
0.053672001 0.074123003 0.041115999
0.082464002 0.084900998 0.026125999
0.081812002 0.084261 0.025428001
0.038954999 0.040635001 0.026338
0.040479999 0.040856 0.026664
0.089527003 0.042840999 -0.0052515999
0.15456 0.044893 0.0064902999
0.15436999 0.044909999 0.0075746002
0.13849001 0.064159997 0.0024546999
0.11176 0.082396999 -0.028573999
0.11131 0.083150998 -0.029273
0.1284 0.11537 -0.043035001
0.12898999 0.11534 -0.042814001
0.12841 0.1154 -0.043536
0.11397 0.12008 -0.027899999
0.1139 0.11899 -0.028184
0.12763 0.051782999 -0.011099
0.12669 0.051769 -0.011449
0.040174 0.04056 0.052042998
0.13602 0.097254999 -0.065425001
0.095285997 0.078410998 0.020822
0.096501999 0.076934002 0.020647001
0.1165 0.084256999 -0.039623
0.049508002 0.066321999 0.041294001
0.079447001 0.078727998 0.023252999
0.11014 0.050232999 -0.0036534001
0.11094 0.050510999 -0.0046740999
0.15115 0.051428001 0.023587
0.15075 0.051220998 0.024857
0.1081 0.070244998 -0.018673999
0.067759998 0.059393 0.030588999
0.067745999 0.059859999 0.029988
0.16978 0.038789 -0.012471
0.17015 0.038655002 -0.012845
0.11497 0.11062 -0.038833998
0.11553 0.10947 -0.039946001
0.11541 0.10939 -0.038633
0.16439 0.039384998 -0.0088563003
0.16356 0.039308 -0.0079325996
0.067463003 0.058228001 0.031078
0.068866 0.059284002 0.031127
0.12846 0.092055999 -0.042160999
0.12932 0.091978997 -0.042114001
0.082368001 0.063666999 0.033179998
0.044038001 0.049029998 0.046192002
0.045187999 0.048361 0.045460999
0.15669 0.040481001 -0.01671
0.17145 0.036462002 0.00024428999
0.17228 0.036571998 -0.00026325
0.065554999 0.093392 0.042203002
0.098871 0.087121002 0.026505999
0.097762004 0.087277003 0.026753001
0.097714998 0.087741002 0.026875
0.11662 0.087699004 -0.039671998
0.11731 0.087701 -0.040660001
0.040493 0.080505997 0.090752997
0.039701998 0.081243001 0.090020999
0.029960001 0.047102001 0.048826002
0.029931 0.046441 0.048124
0.028615 0.046774998 0.048555002
0.12762 0.080606997 -0.059223
0.13576999 0.095969997 -0.043095
0.065526001 0.055836 0.032272998
0.12329 0.049217001 -0.0083403001
0.12249 0.049152002 -0.0083771003
0.13574 0.089630999 -0.022936
0.13556001 0.090530999 -0.022965999
0.15124001 0.045258999 0.0083400998
0.060077 0.052214 0.034798
0.11057 0.065347001 -0.019936001
0.13663 0.11054 -0.032403
0.13699 0.10926 -0.033415001
0.13679001 0.11012 -0.033071999
0.064724997 0.047435999 0.053920001
0.064877003 0.047793999 0.053009
0.098282002 0.043857999 -0.012126
0.13237 0.050393 -0.0010167999
0.10316 0.10666 -0.0093694003
0.10264 0.10716 -0.0097339004
0.10238 0.10667 -0.010577
0.12178 0.079651996 -0.051413
0.12172 0.072646998 -0.060341001
0.052441999 0.045194998 0.047217
0.051633 0.045747001 0.047515001
0.11974 0.073458999 -0.057411
0.12025 0.074561 -0.056936
0.12101 0.074121997 -0.057707001
0.024998 0.039149001 0.043733999
0.12245 0.11488 -0.050627001
0.1358 0.070111997 -0.020158
0.10758 0.099365003 -0.018718001
0.10813 0.099411003 -0.020095
0.12865999 0.051504999 -0.0082032001
0.12736 0.050935 -0.0088200998
0.040036999 0.049872 0.048142999
0.041359 0.048695002 0.047936
0.040424999 0.04865 0.048053999
0.024661999 0.036419 0.042401001
0.13896 0.047316 0.014827
0.13819 0.047777999 0.01417
0.14364 0.047396 0.012533
0.10796 0.10796 -0.014383
0.10803 0.10944 -0.014482
0.080476001 0.066754997 0.025204999
0.079496004 0.066609003 0.025034999
0.050131001 0.045566 0.047339
0.056899 0.076952003 0.039802
0.056642 0.076180004 0.040031999
0.056290999 0.075985 0.041187
0.060713999 0.053727001 0.033730999
0.06146 0.054269999 0.033066999
0.13716 0.089140996 -0.015361
0.037213001 0.086190999 0.092269003
0.039547 0.050195001 0.048457
0.039065 0.049460001 0.047929
0.038589001 0.049986001 0.048618998
0.11256 0.090498999 -0.032586999
0.11923 0.10409 -0.0572
0.11938 0.10434 -0.056558002
0.11907 0.10367 -0.055923
0.094737999 0.062261999 0.0037336999
0.095602997 0.061388999 0.0031788
0.12593 0.091333002 -0.047874
0.12561999 0.090892002 -0.046629
0.048661999 0.060814999 0.039749999
0.058931999 0.083497003 0.043159001
0.1243 0.086427003 -0.045800999
0.12445 0.085157 -0.045809001
0.047084 0.060858998 0.043349002
0.046587002 0.060244001 0.043586001
0.046652 0.060757 0.044629
0.10746 0.12014 -0.0088814003
0.10738 0.12169 -0.010015
0.031045999 0.052581999 0.061760001
0.032016002 0.052524 0.061420999
0.031736001 0.053316999 0.060956001
0.11278 0.11995 -0.028186999
0.11549 0.049501002 -0.0061583999
0.13815001 0.11507 1.9891e-05
0.028504999 0.04355 0.043467999
0.026908001 0.043573 0.044585001
0.097723 0.061009001 0.0015095
0.097493999 0.060128 0.0010657
0.049424998 0.080739997 0.086544
0.11041 0.10531 -0.022290999
0.11025 0.10395 -0.022359001
0.025454 0.038858999 0.042783
0.037471998 0.087810002 0.093691997
0.037214 0.086185001 0.094217002
0.082213998 0.089357004 0.033195999
0.083416 0.089676 0.033321999
0.14605001 0.056536999 0.010615
0.045998 0.064764999 0.066950001
0.04535 0.064232998 0.067263
0.1245 0.047053002 -0.0015126
0.066202 0.053943999 0.034581002
0.050108001 0.065909997 0.038277
0.1 0.062849 0.0018958
0.10717 0.087254003 -0.022162
0.046241999 0.085837997 0.078129001
0.046264999 0.084833004 0.078778997
0.085279003 0.092611 0.034924001
0.14179 0.049484 0.0096357996
0.1003 0.042063002 -0.01154
0.049144998 0.046023 0.046856001
0.13545001 0.11061 -0.047529001
0.13552999 0.11082 -0.048237
0.049688 0.043035001 0.052792002
0.048684001 0.042406 0.05308
0.059751999 0.050014 0.037778001
0.03951 0.051295999 0.049049001
0.040387999 0.050749 0.048407
0.13723999 0.077519998 -0.018790999
0.055698 0.066183001 0.032083999
0.12088 0.071663 -0.066023998
0.13579001 0.099969 -0.020176001
0.13547 0.10075 -0.020939
0.12926 0.093218997 -0.042073
0.13034999 0.091462001 -0.042300001
0.15937001 0.043033 0.0052434001
0.15846001 0.043694999 0.0050403001
0.11326 0.056203999 -0.014114
0.11465 0.056072999 -0.013462
0.11382 0.055968001 -0.012757
0.13762 0.066481002 -0.013623
0.13727 0.066013999 -0.012693
0.11442 0.086468004 -0.040504999
0.13755 0.10903 -0.0094993999
0.11495 0.078763001 -0.036049999
0.086799003 0.080783002 0.021794001
0.086622 0.079870999 0.021911001
0.036896002 0.042580001 0.040711999
0.10235 0.039577 -0.021421
0.13383 0.10808 -0.054081999
0.13377 0.10888 -0.053580001
0.13247 0.099827997 -0.064144
0.14425001 0.043048002 0.014243
0.14437 0.042339999 0.012724
0.13345 0.066091999 -0.022089001
0.13887 0.1122 -0.00058330002
0.059540998 0.067691997 0.028673001
0.058580998 0.06837 0.029534999
0.1363 0.097556002 -0.055227999
0.13604 0.097392 -0.053969
0.13455001 0.092588 -0.042727001
0.13495 0.093221001 -0.042711001
0.031466 0.043439001 0.040566001
0.032449 0.043832 0.041214999
0.13764 0.076837003 -0.030754
0.12153 0.10874 -0.058472
0.10631 0.063320003 -0.017875999
0.088515997 0.054885 0.0052268999
0.088835001 0.055046 0.0043222001
0.031814002 0.043028999 0.030964
0.031412002 0.042658001 0.029680001
0.071387 0.046604 0.064459004
0.10955 0.055969998 -0.0092230998
0.023584001 0.037354998 0.050377
0.11122 0.070711002 -0.026048999
0.022683 0.037523001 0.045671999
0.022090999 0.036646001 0.045547001
0.065107003 0.051001001 0.038107999
0.063382 0.050453 0.038118001
0.063592002 0.050999999 0.037590001
0.13665 0.099846996 -0.059344001
0.13587999 0.099490002 -0.060040001
0.13671 0.1 -0.061062001
0.11035 0.059193 -0.013656
0.10944 0.059668999 -0.013275
0.12209 0.098057002 -0.066266999
0.12219 0.099113002 -0.064947002
0.12131 0.099661 -0.064824
0.14632 0.044581 0.010875
0.097654998 0.085881002 0.023821
0.098522998 0.086064003 0.023817001
0.097852997 0.084715001 0.023734
0.12571 0.060726002 -0.047807001
0.13722999 0.082148999 -0.023600001
0.085565999 0.045867998 -0.0013556
0.086716004 0.047036 -0.0022696001
0.086482003 0.045832999 -0.0024206
0.1241 0.087893002 -0.045651998
0.1236 0.088100001 -0.044365998
0.10971 0.093422003 -0.023840999
0.070716999 0.094095998 0.041356999
0.098118998 0.061556999 0.0024808
0.099010997 0.061407 0.0017139
0.10525 0.035119001 -0.02654
0.10656 0.035278998 -0.026201
0.10492 0.034906 -0.025336999
0.045021001 0.056249 0.044089001
0.13965 0.074009001 -0.013667
0.13932 0.074171998 -0.014328
0.13963 0.075820997 -0.014679
0.11139 0.048997 -0.0034035
0.11173 0.04992 -0.0047426
0.076941997 0.060267001 0.036607999
0.038915999 0.051704001 0.050035
0.032161999 0.035016 0.018614
0.094991997 0.068686001 0.01977
0.095898002 0.068750001 0.019262999
0.13186 0.10951 -0.052476998
0.13376001 0.079706997 -0.042040002
0.13357 0.081093997 -0.042197999
0.13160001 0.057611 -0.016527999
0.13057999 0.057799999 -0.016690999
0.072705999 0.086028002 0.032644998
0.095067002 0.054823 -0.0012631
0.13876 0.10011 -0.010295
0.13844 0.101 -0.010221
0.071520001 0.057098001 0.034028001
0.10526 0.093350001 -0.013944
0.10655 0.092789002 -0.015215
0.090721004 0.050113 -0.0018704
0.095812999 0.056720998 -0.00065343
0.096709996 0.05649 -0.0010953
0.095853999 0.043444999 -0.015992001
0.13880999 0.049516 0.010727
0.13959 0.049251001 0.010436
0.10887 0.057291999 -0.010795
0.10887 0.058258999 -0.011174
0.036502998 0.044402 0.048928998
0.10525 0.11879 -0.007342
0.11433 0.063573003 -0.023388
0.11313 0.063423999 -0.022433
0.15288 0.047182001 0.021557
0.15358 0.046925999 0.020285999
0.15361001 0.048852 0.020075999
0.13214 0.11408 -0.056166999
0.13293 0.10979 -0.052836001
0.15564001 0.043598 0.012301
0.15532 0.044403002 0.01373
0.15566 0.043412 0.013673
0.030099001 0.047973 0.049072001
0.030382 0.047970999 0.049155001
0.092880003 0.080016002 0.022111
0.093226001 0.081101999 0.022629
0.026834 0.040993001 0.040252998
0.11264 0.070254996 -0.027083
0.12985 0.082336999 -0.059213001
0.12962 0.081078999 -0.059156001
0.12985 0.082333997 -0.060391001
0.047143999 0.091982998 0.080098003
0.046015002 0.092983 0.080338001
0.070312001 0.071130998 0.025322
0.077820003 0.090453997 0.040819
0.078736 0.089386001 0.041005999
0.13761 0.059273001 0.00060303003
0.13743 0.060589001 7.9398e-05
0.13822 0.060805 0.00084163999
0.042773001 0.077680998 0.080224998
0.11147 0.053764999 -0.0090229996
0.11093 0.054352999 -0.0089017004
0.16013999 0.040555999 -0.012689
0.15934999 0.039057001 -0.012875
0.14462 0.061248001 0.012185
0.13526 0.10255 -0.018657999
0.13606 0.10129 -0.018299
0.131 0.071780004 -0.058963001
0.13105001 0.071153 -0.059983
0.048794001 0.080109999 0.083332002
0.048912 0.080976002 0.083745003
0.046852 0.088639997 0.074812002
0.1406 0.064667001 0.0098753003
0.13947999 0.064769998 0.0096340999
0.1401 0.064640999 0.011097
0.12163 0.075746998 -0.056650002
0.11883 0.083746001 -0.046135001
0.10235 0.050317001 0.0021009999
0.10318 0.049956001 0.0028088
0.12973 0.056713 -0.016378
0.1301 0.056102999 -0.015443
0.12887999 0.056260001 -0.0162
0.13879 0.10542 -0.0019693
0.13863 0.10428 -0.0023705
0.13941 0.10515 -0.0030835001
0.041021001 0.073939003 0.083466001
0.041285999 0.072825 0.083531
0.028219 0.033748001 0.022028999
0.027904 0.034313001 0.023195
0.02771 0.034926001 0.023574
0.13463999 0.091591001 -0.037140999
0.13364001 0.078181997 -0.041990999
0.13359 0.078210004 -0.043308001
0.13372999 0.079575002 -0.043575998
0.13561 0.090549 -0.038059998
0.10401 0.036242001 -0.027187999
0.074033998 0.088028997 0.035859
0.025539 0.040068999 0.042638
0.11291 0.059298001 -0.016821001
0.11162 0.060793001 -0.017289
0.11277 0.060362998 -0.017712999
0.054515999 0.043643001 0.052119002
0.076626003 0.059246 0.038082
0.075851001 0.058674999 0.037257001
0.040775001 0.097081997 0.088132001
0.040167999 0.097156003 0.088882998
0.086392999 0.043258 -0.0023763999
0.085937001 0.043361001 -0.00081066001
0.10894 0.071029 -0.019317999
0.097024001 0.084923998 0.024359999
0.050170001 0.086466998 0.083939999
0.049846001 0.086346 0.083221003
0.049833 0.087688997 0.083093002
0.15183 0.039019998 -0.011672
0.15188 0.040757 -0.01298
0.15161 0.038981002 -0.013004
0.033222999 0.036984 0.022379
0.046805002 0.10279 0.089805
0.04651 0.10423 0.090732999
0.093809001 0.043894 -0.0096055996
0.043464001 0.11342 0.098857999
0.12691 0.071327999 -0.059053
0.13898 0.064153001 0.0057744998
0.13833 0.064207003 0.0049325
0.046383001 0.042130001 0.054350998
0.074118003 0.040692002 0.070453003
0.11625 0.093101002 -0.042957
0.11611 0.094511002 -0.04259
0.040111002 0.093019001 0.087532997
0.039255999 0.091615997 0.088689998
0.13652 0.092997998 -0.021539001
0.11401 0.048588999 -0.0035081999
0.090052001 0.041762002 -0.019549999
0.090369999 0.042569999 -0.018697999
0.15736 0.044154 0.0058300998
0.10195 0.11076 -0.0084306002
0.14410999 0.059098002 0.010269
0.098748997 0.058180999 -0.00083381002
0.096897997 0.058134999 -0.00020513999
0.098098002 0.058532 -0.00025576999
0.1336 0.070193999 -0.059048001
0.13542999 0.055720001 -0.0042281002
0.1347 0.054737002 -0.0039579002
0.13478 0.055130001 -0.0049985
0.048457999 0.084559001 0.078515001
0.10486 0.10244 -0.015302
0.1048 0.10302 -0.015121
0.10528 0.037861001 -0.018009
0.10583 0.038422 -0.018833
0.041281 0.057847001 0.069966003
0.067433998 0.050018001 0.054740999
0.11548 0.11485 -0.031263001
0.051853001 0.068844996 0.039406002
0.051270999 0.068501003 0.038468
0.050919 0.068029001 0.039375
0.14628001 0.040362999 0.0091134999
0.14606 0.041793998 0.0090835998
0.10845 0.055337001 -0.007363
0.1077 0.055404 -0.0060514002
0.11385 0.087765999 -0.041067999
0.11389 0.088776 -0.041115001
0.11396 0.088528998 -0.041405998
0.13574 0.077257 -0.034049999
0.033512998 0.042686999 0.030276
0.13711999 0.10965 -0.042762
0.13546 0.083715998 -0.030257
0.15005 0.053318001 0.021570001
0.13116001 0.11476 -0.055893999
0.1213 0.098929003 -0.066675
0.11788 0.079667002 -0.046696
0.029421 0.050838999 0.055629998
0.052035999 0.064906999 0.034995999
0.051146999 0.064636 0.036263
0.076438002 0.066990003 0.025327001
0.17282 0.034566998 -0.0041744001
0.17219 0.034848001 -0.0027769001
0.171 0.035114001 -0.0032810001
0.13036001 0.10991 -0.060851999
0.12898 0.10973 -0.061547
0.13684 0.087531999 -0.022513
0.069877997 0.048035 0.060795002
0.068460003 0.047485001 0.060702
0.068856001 0.047865 0.060472999
0.035967998 0.050648 0.050299998
0.14499 0.055218 0.0091784
0.10302 0.036332 -0.029976999
0.10302 0.036511999 -0.029038999
0.091903001 0.070895001 0.020431999
0.10437 0.11608 -0.011206
0.12792 0.076646 -0.050921999
0.12914 0.077287003 -0.049876001
0.12958001 0.076765001 -0.050384
0.14353 0.063383996 0.012825
0.15402 0.046374999 0.013971
0.044489 0.03506 0.022667
0.089474998 0.093902998 0.034766
0.090772003 0.093691997 0.034781002
0.076871999 0.090553999 0.036465
0.13239001 0.072224997 -0.065468997
0.13236 0.072168998 -0.064465001
0.049970001 0.035441998 0.024506001
0.049842998 0.035723001 0.023572
0.071206003 0.048965 0.060364999
0.13191 0.10115 -0.065338001
0.057275999 0.053509001 0.035257
0.056276001 0.052894 0.035347998
0.13330001 0.070208997 -0.026118999
0.058532 0.065926 0.030438
0.13662 0.10733 -0.014675
0.13636 0.10799 -0.014607
0.065208003 0.050562002 0.039204001
0.045226 0.041586 0.053998001
0.044309001 0.040885001 0.054423999
0.043529999 0.041232999 0.053312998
0.10583 0.079645 -0.016247001
0.096261002 0.063104004 0.021179
0.086337999 0.039595999 -0.0036271
0.086237997 0.039554998 -0.0022382999
0.059425 0.059324 0.031006999
0.058527999 0.060779002 0.031362999
0.059051 0.060518 0.030843999
0.067116 0.081148997 0.031900998
0.066379003 0.080534004 0.032005999
0.065416001 0.080816001 0.033054002
0.090448 0.052370001 -0.00051659998
0.091597997 0.052836999 -0.00060761999
0.040380001 0.091811001 0.086576998
0.13163 0.061450999 -0.019218
0.14805 0.037230998 0.0082138004
0.067231998 0.088347003 0.041115001
0.081409 0.083315 0.024460999
0.098591998 0.088109002 0.027253
0.098439999 0.088852003 0.02819
0.099880002 0.089213997 0.027822999
0.12302 0.098870002 -0.068856001
0.13038 0.086667001 -0.045791
0.13276 0.057117999 -0.0134
0.13259999 0.057792 -0.014796
0.11598 0.089040004 -0.038366001
0.034265 0.043311998 0.048395
0.034485001 0.041988 0.049789
0.034786001 0.041979998 0.048668999
0.11064 0.099016003 -0.024294
0.047162998 0.087812997 0.075011998
0.12136 0.081646003 -0.050044
0.097203001 0.066146001 0.020415001
0.096372001 0.066166997 0.021206999
0.13494 0.059613001 -0.011267
0.13499001 0.058651999 -0.011108
0.17004 0.039811 -0.0010014999
0.037937 0.043327 0.034485001
0.036830001 0.043178 0.033739001
0.037292998 0.043375999 0.035342
0.14898001 0.043260999 0.0057842
0.14832 0.042527001 0.0059671002
0.058116999 0.067550004 0.030313
0.058869001 0.066831999 0.030378999
0.11631 0.10554 -0.032884002
0.11693 0.1057 -0.033930998
0.11778 0.10493 -0.033828001
0.040050998 0.10111 0.095008999
0.10936 0.081295997 -0.025273999
0.11087 0.080871001 -0.026326001
0.097485997 0.042479999 -0.018586
0.096795999 0.042523 -0.018714
0.13416 0.11507 -0.025324
0.13286 0.062958002 -0.019602001
0.055109002 0.051973999 0.036657002
0.10691 0.064852998 -0.013393
0.0418 0.040376998 0.034127999
0.045173001 0.058517002 0.048234999
0.045122001 0.084964 0.077946
0.045033999 0.083517 0.078927003
0.044585001 0.083998002 0.078112997
0.12274 0.063486002 -0.047745999
0.13232 0.058281999 -0.015573
0.13273001 0.059576001 -0.016726
0.13293 0.059305001 -0.015588
0.068155997 0.093073003 0.038589001
0.044142999 0.1039 0.088205002
0.12282 0.080764003 -0.048618
0.040151998 0.098540001 0.090305999
0.040243 0.098706 0.089294001
0.13874 0.11995 -0.0011584
0.13914999 0.11855 -0.0018551
0.13901 0.11975 -0.0015627
0.13594 0.10808 -0.0057271002
0.13689999 0.1074 -0.0063292999
0.12912001 0.058084998 -0.017937999
0.047261 0.074874997 0.073666997
0.11544 0.10363 -0.031706002
0.038982 0.083834998 0.088821001
0.038304001 0.085120998 0.089952998
0.038938999 0.085179999 0.088877
0.11804 0.072757997 -0.049194001
0.096308999 0.064511001 0.019880001
0.096500002 0.065231003 0.020788999
0.069075003 0.045682002 0.066797003
0.068007 0.045875002 0.066184998
0.068100996 0.046165999 0.065305002
0.10521 0.11211 -0.0064762998
0.10357 0.11065 -0.0070571001
0.10276 0.036681 -0.030658999
0.17326 0.036408 -0.00096009002
0.1741 0.036724001 -0.001544
0.047222 0.084004998 0.075267002
0.095288001 0.079618998 0.021702999
0.095807999 0.079925999 0.021845
0.097012997 0.053674001 -0.0022904
0.097052 0.054480001 -0.0020584001
0.10838 0.087056004 -0.02581
0.13626 0.059560999 -0.0087385001
0.13631999 0.059429999 -0.0072241998
0.13613001 0.059645999 -0.0078357998
0.047288001 0.066835001 0.069403999
0.082076997 0.061584 0.038385
0.12548999 0.077423997 -0.054256
0.12651999 0.076853998 -0.054705001
0.12613 0.077275001 -0.053419001
0.13334 0.072226003 -0.055596001
0.043033998 0.11336 0.10144
0.043189 0.11469 0.10104
0.12359 0.070269004 -0.061485
0.12358 0.071392 -0.061395999
0.13316 0.078171998 -0.043939002
0.087188996 0.074996002 0.021428
0.046409 0.043963 0.049729999
0.080617003 0.088356003 0.032782
0.058975 0.078396998 0.038833998
0.16870999 0.03864 -0.012395
0.16829 0.038073 -0.013212
0.12515999 0.089111 -0.049561001
0.12571999 0.089870997 -0.04972
0.11173 0.059519999 -0.015724
0.11232 0.059756 -0.016796
0.10703 0.11089 -0.011714
0.10657 0.11178 -0.011556
0.083927996 0.075560004 0.021322001
0.085312001 0.075323001 0.021486999
0.075852998 0.085571997 0.030507
0.075438 0.084657997 0.029484
0.14084999 0.056637999 0.0048421999
0.14116 0.055383001 0.0046449001
0.13988 0.055264 0.0038576
0.063646004 0.07767 0.030564001
0.089290999 0.052173 -0.00055181998
0.1285 0.067754 -0.060499001
0.12953 0.068380997 -0.060642999
0.10974 0.097167 -0.02218
0.11661 0.088993996 -0.039452001
0.093826003 0.093745999 0.033135001
0.093160003 0.093069002 0.034325
0.10609 0.05243 -0.0024427001
0.039441001 0.10505 0.094426997
0.039648 0.1059 0.095215999
0.031245001 0.047802001 0.049835
0.13297001 0.10863 -0.058425002
0.093644001 0.078459002 0.021304
0.092752002 0.077987999 0.02148
0.066775002 0.072610997 0.026215
0.13022999 0.085169002 -0.044921
0.13077 0.084973 -0.043770999
0.044429999 0.057402998 0.046541002
0.045306999 0.055629 0.043051001
0.13689999 0.054267 0.00079103
0.13651 0.053796001 0.0013514
0.10934 0.097272001 -0.018049
0.054048002 0.063396998 0.032919001
0.043538 0.049752001 0.046310998
0.062685996 0.076057002 0.031066
0.061136998 0.072780997 0.029846
0.088661 0.033684 -0.028427999
0.087687999 0.033516001 -0.028587
0.12545 0.075879 -0.052079
0.1248 0.075032003 -0.052790001
0.13312 0.090377003 -0.041016001
0.095895998 0.058053002 3.9909999e-05
0.095620997 0.058355 0.00067112001
0.066569 0.054827999 0.033980999
0.056688 0.070289001 0.032515001
0.14524999 0.062931001 0.014883
0.14448 0.063336 0.015504
0.052421998 0.063409001 0.034026001
0.047258001 0.051486 0.043155
0.045834001 0.051424 0.044553999
0.046790998 0.052870002 0.043683998
0.10456 0.038612999 -0.024153
0.067781001 0.093866996 0.039505001
0.11238 0.093080997 -0.029912001
0.11248 0.094244003 -0.02939
0.11284 0.094407998 -0.029694
0.12225 0.091617003 -0.042385999
0.093248002 0.060727 0.0031194
0.093140997 0.061609998 0.0035335999
0.078681 0.093124002 0.038936
0.14019001 0.063744001 0.0078162998
0.13978 0.063157998 0.0074896002
0.13943 0.064170003 0.0072613
0.11778 0.095940001 -0.045297001
0.12224 0.050976999 -0.010888
0.042236 0.048542 0.047802001
0.071157999 0.036320999 0.077339999
0.10528 0.052182 0.00012834001
0.1044 0.05294 4.9685001e-05
0.11958 0.11136 -0.049148999
0.12043 0.1113 -0.049244002
0.10758 0.063095003 -0.017237
0.10883 0.059519999 -0.012603
0.13715 0.1127 -0.045827001
0.15334 0.038107999 -0.014076
0.15214001 0.038040001 -0.012931
0.15241 0.038600001 -0.014153
0.050567999 0.067464001 0.038794
0.050177999 0.067160003 0.040091
0.13937999 0.078227997 -0.011826
0.13959 0.078149997 -0.012719
0.13937999 0.078922004 -0.012906
0.066523999 0.088092998 0.041818
0.067617998 0.088425003 0.041710999
0.13448 0.10276 -0.020548999
0.13436 0.10323 -0.019376
0.064755999 0.086234003 0.042808998
0.11566 0.09482 -0.041625999
0.11497 0.094272003 -0.040569
0.10392 0.091461003 -0.010456
0.13669001 0.088505 -0.024439
0.093079001 0.077005997 0.020582
0.13785 0.082091004 -0.020947
0.13748001 0.082341 -0.022081001
0.11119 0.084781997 -0.029337
0.090659 0.057271 0.0085169002
0.10921 0.05878 -0.012279
0.082620002 0.073917001 0.021659
0.091101997 0.047042001 -0.0029285001
0.13603 0.1073 -0.041554
0.13573 0.10715 -0.040952001
0.12741999 0.055188 -0.016155001
0.12694 0.054039001 -0.014788
0.12666 0.054761 -0.015628001
0.15297 0.050384 0.016604001
0.070964001 0.044498999 0.072939999
0.071447 0.044620998 0.071915999
0.063777 0.054843999 0.033112999
0.065108001 0.054809 0.033156998
0.099453002 0.038196001 0.053477999
0.098217003 0.037944999 0.053095002
0.030189 0.041053999 0.030584
0.094834 0.067959003 0.020404
0.095973 0.067988001 0.019661
0.12646 0.081738003 -0.052639
0.12619001 0.080858998 -0.053218
0.040738001 0.042034 0.029456001
0.1637 0.038022999 -0.012523
0.13665999 0.062873997 -0.011178
0.13657001 0.056481 -0.0016315
0.032524999 0.051270001 0.061198
0.032620002 0.052839998 0.061216
0.13589001 0.10805 -0.056697998
0.13507999 0.10801 -0.055835001
0.039912 0.094463997 0.090967998
0.13932 0.10427 -0.0034179001
0.13936 0.10518 -0.0044048
0.14327 0.051461 0.0068776002
0.14366999 0.051190998 0.0076080002
0.1362 0.078236997 -0.02568
0.13629 0.076696001 -0.024468999
0.067358002 0.046459999 0.063500002
0.068347 0.046211999 0.063813999
0.022368999 0.033635002 0.045917999
0.023185 0.034136999 0.044906002
0.046273001 0.088668004 0.074584
0.041703001 0.076806001 0.085170001
0.1017 0.052893002 -0.00078070001
0.1001 0.052666999 -0.00054490002
0.10058 0.053208999 -0.00083506998
0.047986999 0.10796 0.08608
0.048307002 0.099702001 0.086966
0.10234 0.036029 -0.031564999
0.1026 0.035503 -0.031264
0.10213 0.035647999 -0.031778
0.13239001 0.10956 -0.058628
0.13565999 0.066145003 -0.017274
0.13557 0.065876 -0.017842
0.13506 0.066148996 -0.018652
0.10106 0.066064999 0.0045126998
0.10181 0.064852998 0.0034656001
0.088067003 0.057250001 0.0042738998
0.064407997 0.063474998 0.028297
0.13706 0.070006996 -0.0082705002
0.13707 0.069163002 -0.0083851004
0.13768999 0.070032001 -0.0094525004
0.047277998 0.11235 0.081090003
0.049447998 0.071249001 0.069573998
0.048448 0.070900001 0.069530003
0.046505 0.10238 0.088742003
0.046328001 0.10192 0.088265002
0.096377999 0.044305 -0.010011
0.14210001 0.058256999 0.0069279
0.097956002 0.040445 -0.022361999
0.13234 0.098664999 -0.062368002
0.13389 0.098125003 -0.063092999
0.13326 0.098332003 -0.061999001
0.13858999 0.083740003 -0.01477
0.032788001 0.038178999 0.023721
0.032517001 0.038077999 0.023599001
0.13491 0.10784 -0.057433002
0.10293 0.10566 -0.01091
0.10286 0.10665 -0.012001
0.078824997 0.088903002 0.034968998
0.078718998 0.088370003 0.034271002
0.13297001 0.11006 -0.051814999
0.13241 0.11125 -0.051029
0.13212 0.11 -0.052340001
0.044052999 0.068011999 0.075975999
0.12545 0.065738 -0.056393001
0.12773 0.066023998 -0.057192001
0.1274 0.065913998 -0.055925
0.076787002 0.074318998 0.022952
0.16513 0.036472 -0.01114
0.065255001 0.050046999 0.041446999
0.095978998 0.058735002 0.00062311999
0.049879 0.049968999 0.041427001
0.039246 0.036467001 0.01794
0.039081 0.036183 0.016015001
0.039232999 0.036426 0.017115001
0.057826001 0.076103002 0.037323002
0.1213 0.090319999 -0.043196999
0.061588001 0.073013999 0.029705999
0.064193003 0.050648998 0.038587
0.10174 0.054211002 -0.001143
0.10321 0.053748999 -0.00076045998
0.10299 0.052983999 -0.00043300001
0.094489001 0.052434999 -0.0014697
0.029446 0.051773001 0.056271002
0.040883999 0.087692998 0.085190997
0.13644999 0.1008 -0.063317999
0.13648 0.099776 -0.062477
0.13671 0.099795997 -0.063603997
0.10369 0.049261998 0.0085487003
0.10338 0.049279001 0.0095546003
0.10622 0.11443 -0.010681
0.17776 0.036336999 -0.0065661999
0.042697001 0.055454999 0.048783999
0.042130999 0.054405 0.048438001
0.14282 0.053989001 0.0068283998
0.14441 0.053884 0.0081861997
0.14385 0.053482 0.0073358999
0.10574 0.035220999 -0.023769001
0.10398 0.034828998 -0.022789
0.10424 0.034784999 -0.024083
0.11722 0.083334997 -0.042374
0.10909 0.067501999 -0.018182
0.067502998 0.083792001 0.033881001
0.049084999 0.078463003 0.080651
0.048946999 0.078525998 0.079487003
0.043409001 0.042295001 0.050808001
0.15198 0.044725999 0.0057484
0.15155999 0.044215001 0.0037903001
0.12358 0.10706 -0.063288003
0.13835999 0.064356998 0.003541
0.13898 0.064170003 0.0046740002
0.13112999 0.052508 -0.0075906999
0.049989998 0.087835997 0.083820999
0.060400002 0.058033001 0.03098
0.059693001 0.057689 0.032154001
0.044927999 0.058161002 0.049617998
0.044569001 0.057925999 0.048098002
0.044434 0.057613 0.049260002
0.1134 0.078567997 -0.033681002
0.11279 0.078491002 -0.032956999
0.10396 0.11511 -0.0067103999
0.11505 0.072334997 -0.040964998
0.10688 0.10794 -0.015
0.047699999 0.1094 0.084916003
0.048007 0.11068 0.084706999
0.047501002 0.11032 0.085500002
0.048069999 0.079125002 0.081427999
0.098823003 0.090461001 0.034717001
0.097635999 0.091672003 0.034423999
0.098109998 0.090924002 0.035025999
0.065030999 0.060400002 0.029511999
0.079802997 0.063286997 0.032042
0.11586 0.1122 -0.033092
0.11525 0.11253 -0.032370999
0.11441 0.11245 -0.032372002
0.039198998 0.034209002 0.026162
0.10374 0.059315 -0.0014674
0.10394 0.058033001 -0.0024404
0.047896001 0.050044999 0.043602999
0.048620999 0.091715999 0.080931
0.046939 0.093043998 0.080628999
0.16519 0.041227002 -0.0047343001
0.087403998 0.090072997 0.032540001
0.093253002 0.043984 -0.0053125001
0.094508998 0.043836001 -0.0049687
0.094475001 0.043742999 -0.0062556001
0.12964 0.11336 -0.050854001
0.1288 0.11292 -0.050037999
0.12904 0.11221 -0.04933
0.044767 0.1091 0.087131999
0.14387 0.052738 0.0074541001
0.049141001 0.064668 0.039981
0.049573001 0.063934997 0.039310999
0.13493 0.1022 -0.020004001
0.14723 0.054023001 0.010961
0.17369001 0.038561001 -0.0035188
0.13975 0.052847002 0.0040235999
0.089382 0.038251001 -0.025730999
0.12626 0.065844998 -0.057441
0.13379 0.071405999 -0.043407999
0.13384999 0.072930999 -0.044821002
0.13410001 0.073113002 -0.043552
0.13624001 0.065967999 -0.011747
0.078534 0.049800999 0.078415997
0.079472996 0.049773 0.077454999
0.095210001 0.043761998 -0.0060167001
0.094977997 0.043827999 -0.0050293999
0.14837 0.053408001 0.014787
0.13316999 0.060327999 -0.015836
0.11918 0.087454997 -0.044240002
0.11821 0.086181 -0.043200001
0.04964 0.095765002 0.085418999
0.048852999 0.095879003 0.086341001
0.11101 0.071569003 -0.02586
0.087196998 0.043271001 -0.0035236999
0.086850002 0.041958999 -0.0034194
0.13095 0.055853002 -0.014754
0.10521 0.066009998 -0.017122
0.037622999 0.087650001 0.091178
0.038463 0.086370997 0.090043001
0.037859 0.086428002 0.091017999
0.073155001 0.063625999 0.026879
0.071927004 0.062185999 0.027197
0.070557997 0.034281999 0.078771003
0.069596 0.033992 0.078284003
0.063908003 0.066122003 0.027217999
0.064609997 0.066299997 0.027119
0.13677 0.068943001 -0.016758
0.13773 0.062673002 -0.011358
0.13767 0.063634999 -0.01091
0.051337 0.068653002 0.038152002
0.065563999 0.074593998 0.026753001
0.064650998 0.075038999 0.027241001
0.13420001 0.064911999 -0.02031
0.13426 0.064645 -0.019742999
0.10574 0.055440001 -0.0038472
0.10582 0.055475 -0.0051155998
0.047954999 0.052432001 0.042445
0.072189003 0.070156001 0.024721
0.1104 0.089119002 -0.029239001
0.055932 0.077992 0.047524001
0.071287997 0.087384 0.036192998
0.070009001 0.087089002 0.036529999
0.092357002 0.092234999 0.032182001
0.15631001 0.044851001 -0.0026829001
0.15721001 0.044654001 -0.001007
0.044459 0.044975001 0.048652999
0.038748 0.036338001 0.015051
0.086645 0.072927997 0.021744
0.044675998 0.067640997 0.074826002
0.065265 0.081589997 0.034364
0.06453 0.081005998 0.033961002
0.076020002 0.0524 0.066644996
0.075102001 0.053867001 0.066086002
0.075664997 0.053518001 0.066889003
0.13644999 0.10113 -0.017617
0.10507 0.074268997 -0.018484
0.10451 0.070097998 -0.016024999
0.10501 0.070142999 -0.016856
0.072793998 0.047345001 0.063826002
0.049458999 0.035399999 0.025736
0.048087001 0.035266999 0.025131
0.13525 0.081630997 -0.029510999
0.10743 0.11145 -0.015274
0.094722003 0.092900999 0.031891
0.1238 0.10768 -0.062904999
0.13671 0.058564998 -0.0049072001
0.086525999 0.036206 -0.029018
0.13629 0.10479 -0.055293001
0.053282 0.06628 0.034074999
0.16760001 0.034770999 -0.0017404
0.16591001 0.035085 -0.00090854999
0.16631 0.035259001 -0.0023912999
0.044257 0.098673001 0.082548998
0.044162001 0.099724002 0.082883
0.095743001 0.082768001 0.0231
0.094483003 0.083678 0.023325
0.14696001 0.050604001 0.010146
0.13603 0.068797998 -0.018216999
0.035161 0.038166001 0.021709001
0.034318 0.038247 0.023029
0.021909 0.037349999 0.047239002
0.12175 0.071276002 -0.065862
0.13373999 0.078396998 -0.039158002
0.042323001 0.065489002 0.076113001
0.031486001 0.033879999 0.020556999
0.030121 0.033661 0.020217
0.030652 0.034023002 0.018932
0.12244 0.095974997 -0.069720998
0.021245999 0.034224998 0.046002001
0.13923 0.068691999 -0.01243
0.11708 0.090470001 -0.039531998
0.1353 0.094122 -0.028523
0.10746 0.10412 -0.017556001
0.10795 0.10371 -0.018230001
0.1045 0.10752 -0.01392
0.13406 0.078544997 -0.037271
0.13437 0.079391003 -0.037053
0.12245 0.089211002 -0.043389
0.030981001 0.043694999 0.041669998
0.029379001 0.043097999 0.041373
0.062355999 0.050533999 0.037659999
0.060938999 0.050351001 0.037269
0.061223 0.050990999 0.036681999
0.12221 0.11306 -0.047885999
0.12214 0.11197 -0.046379
0.12265 0.11222 -0.047566999
0.044861 0.042679001 0.050579
0.038759999 0.037411001 0.014967
0.048409998 0.085288003 0.077767998
0.048447002 0.085023999 0.076632001
0.057105001 0.080426 0.042796001
0.056022 0.079581998 0.043513998
0.046128999 0.077040002 0.075744003
0.047208 0.078377999 0.076259002
0.10868 0.085904002 -0.026068
0.14214 0.049095999 0.0080137001
0.14331999 0.062201999 0.010919
0.076159999 0.066955999 0.024628
0.076118 0.066721998 0.024590001
0.13085 0.098986 -0.060598999
0.13078 0.099033996 -0.061771002
0.091716997 0.044677999 -0.0045304
0.10967 0.059085 -0.012941
0.11465 0.11074 -0.037648
