# .PCD v0.7 - Point Cloud Data file format
VERSION 0.7
FIELDS x y z
SIZE 4 4 4
TYPE F F F
COUNT 1 1 1
WIDTH 1699
HEIGHT 1
VIEWPOINT 0 0 0 1 0 0 0
POINTS 1699
DATA ascii
0.27732 0.13064 0.20314001
0.27761 0.13198 0.20217
0.26157999 0.12929 0.20671
0.26280999 0.1293 0.20674001
0.26247999 0.13067999 0.20596001
0.24139 0.12421 0.20953
0.24237999 0.12421 0.20958
0.26129001 0.11116 0.22156
0.26227999 0.11264 0.21926001
0.26161 0.11299 0.21929
0.234 0.10977 0.21864
0.23312999 0.1097 0.21787
0.23419 0.10899 0.21935999
0.24676999 0.14279 0.19651
0.24669001 0.14162 0.19722
0.24793001 0.14176001 0.19745
0.24471 0.11642 0.21233
0.24563 0.11771 0.21170001
0.24473 0.11779 0.21177
0.31994 0.1666 0.21902999
0.31988999 0.16812 0.21924999
0.31957999 0.16944 0.21929
0.31902999 0.17099001 0.21933
0.31843999 0.17235 0.21943
0.31872001 0.1737 0.21939
0.3188 0.17515001 0.21945
0.31898999 0.17648 0.21927001
0.31933999 0.17793 0.2192
0.32043999 0.17916 0.21954
0.32135999 0.18059 0.2189
0.32363999 0.18223 0.21911
0.32539001 0.18359999 0.21913999
0.23413999 0.13022 0.20777
0.23513 0.13042 0.20814
0.23429 0.12908 0.20848
0.23541 0.12914 0.20879
0.27805999 0.12835 0.20429
0.27807 0.12678 0.20491999
0.22255 0.12939 0.20397
0.22358 0.1287 0.20480999
0.19239999 0.088644996 0.18703
0.19314 0.088582002 0.18684
0.27794001 0.063363001 0.21235999
0.27790999 0.062799998 0.21356
0.27882999 0.062252 0.21321
0.22096001 0.13634001 0.19734
0.22113 0.13522001 0.19867
0.22188 0.13654999 0.19752
0.22071999 0.13429999 0.19968
0.22203 0.13539 0.19977
0.22216 0.13574 0.19881999
0.22232001 0.12311 0.20717999
0.22390001 0.12309 0.20705999
0.2234 0.12432 0.20649999
0.2579 0.11896 0.21214999
0.25385001 0.1138 0.21867999
0.24709 0.14636 0.18974
0.24724001 0.14560001 0.19102
0.24812999 0.14524999 0.19123
0.25472 0.13366 0.2042
0.25448 0.13481 0.20333999
0.22415 0.1176 0.2111
0.22324 0.11758 0.21105
0.22398999 0.11647 0.21231
0.25463 0.13584 0.2027
0.26425999 0.13853 0.1963
0.26321 0.13874 0.19656
0.26436999 0.13755 0.19739
0.27579999 0.098692 0.22144
0.27575001 0.10018 0.2211
0.27439001 0.10155 0.22238
0.27509999 0.1015 0.22133
0.27401999 0.13792001 0.1947
0.27395999 0.13715 0.19580001
0.27524999 0.13741 0.19588
0.27399001 0.10565 0.22058
0.27304 0.10498 0.22195999
0.23133001 0.12847 0.20810001
0.23172 0.12682 0.20813
0.25417 0.14247 0.19532
0.25314 0.14256001 0.19568001
0.29089001 0.1267 0.20378
0.24456 0.11834 0.21166
0.23311999 0.12536 0.20886999
0.32001999 0.16655 0.21833
0.31963 0.16806 0.21811999
0.31955999 0.16957 0.21847001
0.31906 0.17123 0.21809
0.31900999 0.17244001 0.21834999
0.31896999 0.17365 0.21844
0.31922001 0.17506 0.21851
0.31942999 0.1768 0.21833
0.31986001 0.17792 0.21799999
0.3206 0.17912 0.21833
0.32194999 0.18069001 0.21825001
0.32453999 0.18233 0.21829
0.32565999 0.18350001 0.21792001
0.32545999 0.18461999 0.21791001
0.30585 0.060256001 0.14941999
0.23636 0.1293 0.20881
0.23713 0.13075 0.20826
0.26883 0.10873 0.22262
0.27722999 0.13563 0.19801
0.27156001 0.10936 0.2194
0.27011999 0.10973 0.22002999
0.27140999 0.10841 0.22046
0.22434001 0.11015 0.21360999
0.27621999 0.13793001 0.19451
0.27236 0.13068999 0.20317
0.27342999 0.13066 0.20311999
0.27353999 0.13156 0.20252
0.24157 0.14504001 0.19305
0.24150001 0.1442 0.19412
0.25722 0.14428 0.18889999
0.25694001 0.1437 0.19031
0.25207999 0.13996001 0.19892
0.25227001 0.13872001 0.19991
0.25720999 0.14492001 0.18566
0.25723001 0.14448 0.18694
0.27447999 0.087249003 0.22040001
0.27406001 0.088611998 0.2212
0.27553999 0.089861996 0.22018
0.27537999 0.091783002 0.22126
0.27623001 0.091521002 0.22024
0.27695 0.093174003 0.22031
0.27693 0.094375998 0.22007
0.27664 0.095651999 0.22018
0.27671999 0.097240999 0.22037999
0.27621001 0.098935001 0.22039001
0.27601001 0.10043 0.22052
0.27572 0.10157 0.22039001
0.27535 0.10298 0.22022
0.27500999 0.10429 0.22062001
0.27331001 0.10609 0.22093999
0.27272999 0.10699 0.22052
0.23835 0.13729 0.20367999
0.23987 0.13721 0.20308
0.31867999 0.16546001 0.21713001
0.32010999 0.16802999 0.21732999
0.31944999 0.16944 0.21757001
0.31924 0.17107999 0.21731
0.31895 0.17239 0.21724001
0.31902 0.1734 0.21748
0.31919 0.17527001 0.21725
0.31959999 0.17647 0.21713001
0.32012999 0.17813 0.21723001
0.32113999 0.17929 0.21747001
0.32269999 0.18079001 0.21712001
0.32495999 0.18208 0.21684
0.32539999 0.18343 0.21698999
0.32494 0.18499 0.21699999
0.25183001 0.11691 0.21235999
0.25266001 0.11866 0.21205001
0.21607 0.12739 0.20229
0.21591 0.12626 0.20287
0.21690001 0.12666 0.20343
0.21642999 0.12384 0.20445
0.21658 0.12289 0.20524
0.21754999 0.12316 0.20545
0.23617999 0.13011999 0.208
0.21182001 0.11194 0.2061
0.24291 0.14622 0.19057
0.24168999 0.14634 0.19038001
0.24269 0.14545 0.19149999
0.24177 0.14541 0.19159999
0.24157 0.14341 0.19551
0.27254 0.084247001 0.22029001
0.27247 0.082837 0.2194
0.25529 0.14349 0.19214
0.25567999 0.14302 0.1937
0.25648999 0.14247 0.19314
0.27337 0.084168002 0.21928
0.27404001 0.085984997 0.21939
0.27472001 0.087241001 0.21908
0.27553999 0.088674001 0.21928
0.27601001 0.090391003 0.2193
0.27669001 0.091669001 0.21931
0.27739999 0.093148001 0.21923
0.27742001 0.094325997 0.21896
0.27732 0.096156001 0.21894
0.27715999 0.097216003 0.21923999
0.27691001 0.099027999 0.2191
0.27649999 0.10043 0.21893001
0.2762 0.10151 0.2192
0.27596 0.10296 0.21952
0.27546999 0.10452 0.21942
0.27485001 0.10589 0.21945
0.27118 0.10764 0.22159
0.27351001 0.10699 0.21935
0.27219 0.1083 0.21922
0.27305001 0.10846 0.21856999
0.31998 0.16817001 0.21627
0.31966001 0.16949999 0.21616
0.31929001 0.17084 0.21633001
0.31895 0.17194 0.21620999
0.31915 0.17366 0.21641999
0.31911001 0.17490999 0.21647
0.31966999 0.17640001 0.21617
0.32030001 0.17786001 0.21600001
0.32165 0.17916 0.21618
0.32376999 0.18095 0.21618
0.3249 0.18197 0.2159
0.32521001 0.18355 0.21606
0.20931 0.10832 0.20674001
0.20936 0.1072 0.20714
0.21009 0.10785 0.20794
0.23664001 0.13301 0.20641001
0.23589 0.13271999 0.20624
0.23694 0.13175 0.20747
0.23597001 0.13136999 0.20725
0.24168 0.14271 0.19667999
0.24257 0.14279 0.19653
0.23616999 0.12703 0.20923001
0.23542 0.12774 0.20892
0.21805 0.12564 0.20409
0.25689 0.14316 0.19158
0.25051999 0.11363 0.21921
0.25169 0.1138 0.21921
0.27109 0.079880998 0.21946
0.25727001 0.11545 0.21472999
0.2561 0.11559 0.21496999
0.27195999 0.078616999 0.21825001
0.27221999 0.080187999 0.21852
0.27162999 0.081533 0.21952
0.27250001 0.081528999 0.21843
0.27107 0.08066 0.2198
0.27305999 0.082506001 0.21833999
0.27379999 0.084246002 0.21815
0.27497 0.085744001 0.21799
0.27533999 0.087644003 0.21822999
0.27612999 0.088910997 0.21796
0.27676001 0.090138003 0.21794
0.27722999 0.091704004 0.21815
0.27774 0.093354002 0.2181
0.27816999 0.094667003 0.21818
0.27803001 0.096243002 0.21792001
0.27776 0.097374998 0.21804
0.27731001 0.098615997 0.21807
0.27676001 0.10033 0.21838
0.27669001 0.10176 0.21783
0.27614 0.10305 0.21809
0.27601999 0.10438 0.21811
0.27524999 0.10591 0.21841
0.27423 0.1071 0.21822
0.33353001 0.13019 0.16492
0.31972 0.16971 0.21499
0.31937 0.1708 0.21563999
0.31900999 0.17237 0.21539
0.31909001 0.17387 0.21536
0.31946 0.17486 0.21506999
0.31988001 0.17648 0.21505
0.32089001 0.17811 0.21525
0.32249001 0.17905 0.21524
0.32444 0.18076999 0.21506
0.32517001 0.18201999 0.21481
0.32486001 0.18363 0.21491
0.21430001 0.10547 0.21099
0.22609 0.11071 0.21387
0.23562001 0.13372999 0.20537999
0.23677 0.13368 0.20603999
0.23677 0.13534001 0.20506001
0.23661 0.11681 0.21182001
0.24139 0.14196 0.19783001
0.24250001 0.1419 0.19769999
0.2441 0.13613001 0.20367
0.24297 0.13639 0.20374
0.24405 0.13542999 0.20461001
0.26984 0.074992999 0.21834999
0.2705 0.075787999 0.21867
0.26986 0.076334 0.21921
0.27144 0.075641997 0.21719
0.27246001 0.077124998 0.2175
0.27136999 0.077292003 0.21845999
0.27274001 0.078771003 0.21748
0.27320999 0.080236003 0.21746001
0.27331999 0.081782997 0.21734001
0.27390999 0.083130002 0.21724001
0.27439001 0.084526002 0.21738
0.27522999 0.086007997 0.21708
0.27618 0.087493002 0.21739
0.27664 0.089034997 0.21694
0.27697 0.090395004 0.21703
0.27753001 0.091822997 0.21694
0.27818999 0.093318 0.21679001
0.27860001 0.094713002 0.21695
0.27823001 0.096210003 0.21698999
0.27812999 0.097485997 0.21707
0.27803999 0.098888002 0.21687999
0.27759999 0.10034 0.21715
0.27721 0.10142 0.21689001
0.27652001 0.10311 0.21717
0.27610001 0.10457 0.21734001
0.27552 0.10576 0.21724001
0.27472001 0.10686 0.21727
0.27327999 0.10832 0.21743999
0.27158001 0.10977 0.21758001
0.27226001 0.10988 0.21674
0.31983 0.16942 0.21416999
0.31931999 0.17067 0.21416999
0.31902 0.17253 0.21445
0.31929001 0.17366 0.21456
0.31941 0.17529 0.21456
0.31999999 0.17643 0.2141
0.32095999 0.17764001 0.21431001
0.32308 0.17922001 0.21389
0.32460999 0.18071 0.21386001
0.32479 0.18203001 0.21398
0.32453999 0.18341 0.21388
0.23649999 0.11559 0.21245
0.23552001 0.13522001 0.20495
0.23666 0.11466 0.21331
0.24149001 0.14083 0.19873001
0.24271999 0.14076 0.19862001
0.24518 0.13416 0.20563
0.27081001 0.074190997 0.21752
0.25589001 0.11418 0.2176
0.25670999 0.11466 0.21743
0.27179 0.074479997 0.21641999
0.27210999 0.076012 0.21613
0.27298999 0.077692002 0.2165
0.27355999 0.078796998 0.21619
0.27392 0.080293 0.21607
0.27416 0.081584997 0.21630999
0.27456999 0.083192997 0.21615
0.27487001 0.084743001 0.21600001
0.27570999 0.085955001 0.21608999
0.27660999 0.087458 0.21627
0.27695999 0.089011997 0.21608
0.27726999 0.090369999 0.21616
0.27754 0.091895998 0.21589001
0.27838001 0.093278997 0.21586999
0.27827999 0.094679996 0.21597999
0.27842 0.096069001 0.21605
0.27867001 0.097445004 0.21585999
0.27845001 0.099049002 0.21593
0.27838999 0.10049 0.21589001
0.27756 0.10172 0.21638
0.27733999 0.10319 0.21612
0.27654001 0.10455 0.21644001
0.27597001 0.10599 0.21628
0.27487001 0.10741 0.21633001
0.2737 0.10842 0.21636
0.27256 0.1101 0.2154
0.31990999 0.16948 0.21318001
0.31913999 0.17058 0.21335
0.3193 0.17217 0.2132
0.31940001 0.17361 0.21321
0.31944999 0.17521 0.21335
0.32053 0.17646 0.21360999
0.32183999 0.17803 0.21321
0.32374001 0.17935 0.21292
0.32466999 0.18091001 0.21294001
0.32448 0.18216 0.21274
0.22494 0.10153 0.21679001
0.22553 0.10223 0.21708
0.25808999 0.19395 0.21674
0.33454001 0.13860001 0.15470999
0.33094999 0.11254 0.16199
0.19018 0.077330999 0.19532999
0.23669 0.11402 0.21447
0.23582 0.13615 0.20457
0.24157999 0.14 0.19981
0.24386001 0.13422 0.20570999
0.27074 0.072862998 0.21642999
0.26980001 0.073844001 0.21817
0.24281 0.13517 0.20475
0.27243999 0.074469 0.21532001
0.27320999 0.075898997 0.21515
0.27362999 0.077582002 0.21520001
0.27429 0.078915998 0.21516
0.27454001 0.080493003 0.21528
0.27513999 0.08162 0.21529999
0.27533999 0.083186001 0.21516
0.27573001 0.084544003 0.21496999
0.27638 0.086278997 0.21483999
0.27687001 0.087650999 0.21493
0.27722001 0.088780001 0.2148
0.27783 0.090506002 0.21518999
0.27821001 0.091929004 0.21502
0.27893999 0.093370996 0.21529
0.27879 0.094944 0.215
0.27864 0.096331999 0.21516
0.27864999 0.097662002 0.21510001
0.27875 0.098874003 0.21483
0.27858999 0.10057 0.21478
0.27805999 0.1018 0.21521001
0.27715001 0.10271 0.21506999
0.27667001 0.10437 0.21539
0.27601999 0.10576 0.21535
0.27546999 0.10722 0.21535
0.27408999 0.10849 0.21537
0.27298999 0.11011 0.21468
0.33173999 0.11109 0.16189
0.33166999 0.10961 0.16187
0.32008001 0.16956 0.2122
0.31926 0.17093 0.2123
0.31931999 0.17252 0.21256
0.31919 0.17351 0.21244
0.31992 0.17515001 0.2122
0.32093999 0.17629001 0.21198
0.32243001 0.17787001 0.21212
0.32401001 0.17939 0.21213
0.32453999 0.18077999 0.21188
0.32435 0.18228 0.21180999
0.33094001 0.152 0.14599
0.21434 0.098610997 0.21106
0.21423 0.097023003 0.21134999
0.21527 0.096617997 0.21202999
0.25446999 0.14392 0.19106001
0.2428 0.1389 0.20079
0.23627999 0.14007001 0.20037
0.23638 0.13921 0.20152
0.23728 0.13919 0.20139
0.24146999 0.1383 0.20196
0.2447 0.11455 0.21657
0.24369 0.11431 0.2165
0.24456 0.11412 0.21754999
0.25692999 0.11361 0.21885
0.27230999 0.073160999 0.2145
0.27302 0.074736997 0.21430001
0.27362001 0.075901002 0.21437
0.27408001 0.077611998 0.21436
0.27478001 0.079085998 0.21422
0.27508 0.080206998 0.21415
0.27599001 0.081946 0.21396001
0.27619001 0.083292998 0.21396001
0.27634001 0.084494002 0.21397001
0.27627 0.086172998 0.2139
0.27732 0.087793 0.21401
0.27789 0.088918 0.21402
0.27796 0.090579003 0.21399
0.27869001 0.092042997 0.21415
0.27930999 0.093295 0.21365
0.27906001 0.094654001 0.21388
0.27891999 0.096412003 0.21401
0.27888 0.097346999 0.21381
0.27891001 0.098977998 0.21412
0.27902001 0.10054 0.214
0.2782 0.10187 0.21433
0.27766001 0.10337 0.21393999
0.27704 0.10484 0.21436
0.27621999 0.10584 0.2142
0.27555001 0.10715 0.2142
0.27458 0.10861 0.21403
0.33162001 0.10858 0.16197
0.26655 0.12451 0.20916
0.26657 0.12564 0.20879
0.26515999 0.12556 0.20907
0.32067999 0.16692001 0.21117
0.31011999 0.080758996 0.18771
0.32066 0.16822 0.21092001
0.31997001 0.16941001 0.21109
0.31959999 0.17084 0.21129
0.31937999 0.17231999 0.21144
0.31948 0.17348 0.2114
0.31999999 0.17523 0.21134999
0.32126999 0.17626999 0.21095
0.32313001 0.17798001 0.21093
0.32462001 0.17913 0.21103001
0.32438999 0.18065 0.21093
0.33192 0.14756 0.14927
0.28018001 0.18813001 0.19993
0.28141999 0.18914001 0.19859
0.23695999 0.11333 0.21578
0.30392 0.13221 0.19815999
0.30375001 0.13101999 0.19927999
0.30544001 0.13060001 0.19864
0.28917 0.053443 0.21198
0.28841999 0.054510001 0.21213
0.28784999 0.053330999 0.21321
0.24154 0.13715 0.20281
0.24284001 0.13707 0.20269001
0.28753 0.055783 0.21206
0.28766999 0.054421999 0.21288
0.25292999 0.11137 0.22224
0.25378999 0.1112 0.22217
0.25356001 0.11198 0.22135
0.24895 0.12955999 0.20819999
0.24184 0.11598 0.21231
0.24145 0.11747 0.21178
0.24181999 0.13523 0.20518
0.24232 0.13477001 0.20589
0.2428 0.13441999 0.20612
0.24146 0.13613001 0.20383
0.27265999 0.071464002 0.21348999
0.27287 0.073275 0.21304999
0.27340001 0.074722998 0.21329001
0.27399999 0.076125003 0.21304999
0.27441999 0.077537 0.21291
0.27489001 0.078909002 0.21331
0.27524999 0.080518 0.21318001
0.27595001 0.081951998 0.21317001
0.27631 0.083290003 0.21333
0.27647999 0.084618002 0.21287
0.27658999 0.086185001 0.21307001
0.27737999 0.087706 0.21303999
0.27799001 0.088985004 0.21280999
0.27855 0.090464003 0.21304999
0.27913001 0.091900997 0.21299
0.27970001 0.093411997 0.2128
0.2798 0.094784997 0.21291
0.27914 0.096337996 0.2129
0.27922001 0.097609997 0.21312
0.27923 0.098981999 0.21294001
0.27884001 0.10059 0.21276
0.27866 0.10169 0.21311
0.27789 0.10314 0.21307001
0.27349001 0.11005 0.21337
0.2604 0.050422002 0.21202999
0.3206 0.16819 0.21027
0.32012999 0.16958 0.21015
0.31948 0.17075001 0.21014
0.31922001 0.1724 0.21036001
0.31968999 0.17375 0.21047001
0.32041001 0.17519 0.21007
0.32153001 0.17669 0.21007
0.32341999 0.17797001 0.21005
0.32447001 0.17945001 0.20990001
0.32404 0.18076 0.20977999
0.23661999 0.11241 0.21704
0.23672999 0.11145 0.21773
0.23683 0.11054 0.21901
0.23525 0.13995001 0.20018999
0.23243 0.10812 0.21862
0.29012001 0.052145001 0.2113
0.28938001 0.053491 0.21108
0.28913999 0.051275 0.21213999
0.28986001 0.051279001 0.21042
0.28887999 0.054922 0.21126001
0.28825 0.056115001 0.21098
0.28709999 0.057358 0.21108
0.28560001 0.058768999 0.21121
0.28452 0.059982002 0.21131
0.23498 0.13805 0.20223001
0.23541 0.13749 0.20345999
0.27269 0.069048002 0.21204001
0.27309 0.070274003 0.21239001
0.27355 0.071722001 0.21227001
0.27353999 0.073478997 0.21234
0.27364999 0.074658997 0.21228001
0.27408999 0.075841002 0.21213
0.27456 0.077679001 0.21233
0.27485999 0.079043999 0.21221
0.27537999 0.080275998 0.21223
0.27612001 0.081854999 0.21213999
0.27643999 0.083126001 0.21177
0.27691999 0.08467 0.21194001
0.27695 0.086322002 0.21185
0.27778 0.087591998 0.21187
0.27851999 0.089120001 0.21231
0.27862 0.090571001 0.21199
0.27943999 0.092139997 0.21166
0.27970001 0.093354002 0.21178
0.27998999 0.094956003 0.21165
0.27967 0.096083999 0.21193001
0.27950001 0.097847998 0.21179
0.27937001 0.099159002 0.21199
0.27974999 0.10043 0.21187
0.27913001 0.10195 0.21201
0.27824 0.10314 0.21189
0.23751 0.14166 0.1979
0.23831999 0.14046 0.19892
0.24884 0.14002 0.19945
0.2492 0.14098001 0.19834
0.22644 0.1083 0.21541999
0.23706 0.10964 0.21972001
0.24878 0.1328 0.20532
0.24959999 0.13265 0.20524
0.32056001 0.16687 0.20832001
0.28560999 0.063121997 0.2052
0.28443 0.063721001 0.20379999
0.32063001 0.16824999 0.20903
0.31996 0.16966 0.20946001
0.31952 0.17072999 0.20919999
0.31942999 0.17223001 0.20947
0.31975999 0.17362 0.20925
0.32034001 0.17498 0.20915
0.32225999 0.17655 0.20931
0.32393 0.17769 0.20905
0.32398999 0.17956001 0.2088
0.32389 0.18068001 0.20901
0.23710001 0.10844 0.22060999
0.25189999 0.13039 0.20716
0.25178 0.12966999 0.20807
0.25316 0.12984 0.20803
0.26222 0.13255 0.2044
0.26128 0.13248 0.20444
0.26245001 0.13135 0.20503999
0.21397001 0.12763999 0.20051999
0.21315999 0.12721001 0.20039999
0.21436 0.12669 0.20166001
0.25918999 0.1384 0.19682001
0.25894001 0.13767999 0.19807
0.26017001 0.13778 0.19758999
0.25944999 0.13128 0.20511
0.25994 0.12773 0.20734
0.25995001 0.12659 0.20809001
0.26095 0.12796 0.20747
0.28957999 0.053254001 0.21004
0.28924 0.054575998 0.21021999
0.28843999 0.056396 0.20999999
0.28735 0.057241999 0.21014
0.28615001 0.058954999 0.21008
0.28476 0.060314 0.21015
0.28380999 0.061687 0.21035001
0.27939001 0.087477997 0.20604999
0.27961999 0.089140996 0.20679
0.27342999 0.068718001 0.21121
0.27349001 0.070321001 0.21144
0.2739 0.071543999 0.21111
0.27361 0.073264003 0.21127
0.27364001 0.074717999 0.21100999
0.27445 0.075948 0.21103001
0.27458 0.077572003 0.21108
0.27493 0.079053998 0.21104001
0.27533999 0.080459997 0.21103001
0.27610001 0.081744 0.211
0.27697 0.083444998 0.21085
0.27717999 0.08467 0.21106
0.27731001 0.086249001 0.21094
0.27805999 0.087541997 0.211
0.27864999 0.089175999 0.21082
0.27915001 0.090705 0.21082
0.27972999 0.092170998 0.21074
0.27974001 0.093396999 0.21064
0.27981001 0.094815001 0.21074
0.27991 0.096028998 0.21111
0.27963999 0.097870998 0.21091001
0.28 0.099128 0.21103001
0.27983001 0.10062 0.21116
0.29014 0.18378 0.19254
0.19142 0.081813 0.19412
0.27074 0.13643999 0.19771001
0.27201 0.13653 0.19712999
0.23925 0.12976 0.20904
0.24002001 0.13 0.20912001
0.23993 0.13121 0.20851
0.29622 0.10092 0.20682
0.32051 0.17084 0.18624
0.28597 0.1241 0.20596001
0.32082 0.16819 0.20795
0.32030001 0.16952001 0.20819999
0.31968001 0.17083 0.20840999
0.31964001 0.17247 0.20815
0.31977001 0.17382 0.20852
0.32128 0.17488 0.20824
0.32325 0.17665 0.20809001
0.32390001 0.1778 0.20796999
0.32403001 0.17930999 0.20799001
0.33390999 0.14084999 0.1459
0.30339 0.062537 0.14989001
0.33061999 0.15466 0.14714999
0.25055 0.11008 0.22330999
0.25195 0.10975 0.22318
0.25150001 0.11094 0.22243001
0.27921 0.053580999 0.21686999
0.28046 0.053624 0.2166
0.23634 0.14075001 0.19896001
0.26159 0.1314 0.20499
0.26155001 0.13052 0.20596001
0.26348999 0.10873 0.22364999
0.26460001 0.10927 0.22325
0.26423001 0.11011 0.22212
0.24077 0.13708 0.20306
0.24064 0.1363 0.20407
0.24786 0.10931 0.22296
0.24800999 0.10792 0.22364999
0.24898 0.10975 0.22305
0.24634001 0.12576 0.2102
0.24649 0.12427 0.21049
0.29879999 0.075847 0.19113
0.29822999 0.075340003 0.19205999
0.29855001 0.074065 0.19119
0.28960001 0.054795001 0.20862
0.28848001 0.056226 0.20891
0.28799 0.057298999 0.20897
0.28687999 0.058913 0.20908999
0.28584999 0.060389001 0.2093
0.28422999 0.061306 0.20958
0.28742 0.11107 0.2085
0.28725001 0.11258 0.20837
0.28619 0.1127 0.20859
0.20558999 0.11156 0.20008001
0.20539001 0.11086 0.20096999
0.2066 0.11128 0.20186
0.27394 0.068962999 0.21006
0.27388 0.070468999 0.21037
0.27423 0.071883 0.21021999
0.27410999 0.073298 0.21014
0.27447999 0.074887 0.2101
0.27480999 0.076307997 0.21018
0.27508 0.07756 0.21006
0.27541 0.079017997 0.20999999
0.27552 0.080395997 0.21016
0.27609 0.082130998 0.20993
0.27691001 0.083103001 0.20982
0.27693 0.084942997 0.21006
0.27785999 0.086034 0.21014
0.27805999 0.087566003 0.20975
0.27860999 0.089340001 0.20986
0.27948001 0.090701997 0.20996
0.27948001 0.092018999 0.20996
0.28 0.09347 0.20986
0.28025001 0.094853997 0.20997
0.28044999 0.096381001 0.21003
0.28080001 0.096394002 0.20871
0.28018001 0.097805999 0.20977999
0.28040999 0.098930001 0.21006
0.28031 0.10058 0.20979001
0.26475 0.14167 0.18953
0.23636 0.14154001 0.19794001
0.25637999 0.050487 0.21168999
0.25615001 0.053194001 0.21355
0.31896999 0.1654 0.20717999
0.32080999 0.16677999 0.20717999
0.24775 0.11768 0.21173
0.32097 0.168 0.20701
0.32025999 0.16952001 0.20725
0.31975001 0.17107999 0.20728
0.31948 0.17244001 0.20737
0.3202 0.17376 0.20743001
0.32181001 0.17529 0.20698
0.32347 0.17663001 0.20688
0.32385001 0.178 0.2068
0.32350001 0.17949 0.20719001
0.24867 0.11552 0.21518999
0.24766 0.11572 0.21541999
0.2489 0.11493 0.21671
0.24882001 0.11601 0.2138
0.24749 0.11618 0.21399
0.23215 0.11585 0.21285
0.26124001 0.14217 0.19028001
0.26254001 0.14204 0.18993001
0.23642001 0.14331 0.19581001
0.23525 0.14309999 0.19592001
0.23635 0.14236 0.19704001
0.23521 0.14253999 0.19688
0.24191999 0.13343 0.20698
0.24299 0.13333 0.20676
0.26218 0.12651999 0.20798001
0.26196 0.12557 0.20871
0.26304001 0.1267 0.20791
0.25093001 0.12773 0.20988999
0.29039001 0.054912999 0.20788001
0.28979 0.05641 0.20773
0.28922001 0.057505999 0.20792
0.28806001 0.058917001 0.20795999
0.28714001 0.060376 0.20805
0.27476999 0.066551998 0.20935
0.27699 0.064547002 0.21114001
0.27434 0.069325 0.2093
0.27436 0.070444003 0.20912001
0.27441999 0.071734004 0.20916
0.27467999 0.073403999 0.20929
0.27438 0.074752003 0.20931999
0.27483001 0.075888999 0.20931999
0.27505001 0.077587001 0.20911001
0.27579001 0.079122998 0.20916
0.27596 0.080384001 0.20914
0.27665001 0.082176998 0.20903
0.27724999 0.083292 0.20903
0.27743 0.084830999 0.20904
0.27796 0.086304002 0.20895
0.27864 0.087562002 0.20913
0.27886 0.089321002 0.20907
0.27941 0.090804003 0.20885
0.27996001 0.092371002 0.20867001
0.28009999 0.093409002 0.20897
0.28025001 0.094805002 0.20869
0.25791001 0.14047 0.19496
0.22487 0.12769 0.20613
0.22517 0.12621 0.20634
0.22583 0.12645 0.20661999
0.27656001 0.063491002 0.21257
0.20903 0.10426 0.20801
0.25567999 0.13944 0.19796
0.25538 0.13857999 0.19903
0.25650999 0.13832 0.19886
0.25683001 0.13896 0.19731
0.25560001 0.14222001 0.19487999
0.25652999 0.14173999 0.19413
0.31902 0.16535001 0.20654
0.32089001 0.16671 0.20629001
0.32076001 0.16799 0.20619
0.32021999 0.16969 0.20613
0.31924 0.1709 0.20641001
0.31981 0.17245001 0.20622
0.32064 0.17388999 0.20641001
0.32249999 0.17494 0.2059
0.32343 0.17636 0.20592999
0.32367 0.17815 0.20591
0.32324001 0.17947 0.20619
0.31613001 0.086345002 0.18826
0.31893 0.088118002 0.18906
0.25556001 0.14121 0.19608
0.25668001 0.14089 0.19546001
0.24194001 0.13233 0.20785999
0.24325 0.13229001 0.20776001
0.26315999 0.12436 0.20953
0.26464 0.11225 0.21896
0.26320001 0.11258 0.21906
0.26457 0.11184 0.21999
0.26479 0.19979 0.21043999
0.26407999 0.19983 0.21153
0.26436999 0.19842 0.21153
0.26445001 0.20127 0.21074
0.26383001 0.20279001 0.2097
0.26399001 0.20178001 0.21076
0.25729999 0.050646 0.21199
0.25856 0.051708002 0.21325999
0.29067999 0.054853 0.20654
0.28995001 0.056060001 0.20687
0.28940001 0.057624001 0.20669
0.28828001 0.059013002 0.207
0.28762999 0.060481999 0.20688
0.28668001 0.061606001 0.20698
0.23314001 0.10845 0.21902999
0.2341 0.10753 0.2199
0.27766001 0.064958997 0.20896
0.27937999 0.064373001 0.20897
0.27568001 0.066384003 0.20798001
0.27463001 0.067952998 0.20822001
0.27467999 0.069412 0.20818
0.27498999 0.070729002 0.20805
0.27515 0.071814001 0.20810001
0.27500001 0.073294997 0.20818
0.27504 0.074928001 0.20827
0.27506 0.076480001 0.20815
0.27601001 0.077636003 0.20801
0.27634001 0.079295002 0.20821001
0.27662 0.080301002 0.20804
0.27678999 0.081859 0.20794
0.27715999 0.083384 0.20773999
0.27742001 0.084847003 0.20795
0.27822 0.086367004 0.20814
0.27875 0.087857999 0.20807
0.27937001 0.089013003 0.20784999
0.27981001 0.090677001 0.20791
0.28015 0.092142001 0.20795
0.33471999 0.1451 0.15605
0.33436999 0.14663 0.15556
0.33386999 0.1479 0.15607999
0.33316001 0.14927 0.15602
0.33248001 0.15049 0.15583999
0.31929001 0.16535001 0.20516001
0.32074001 0.16694 0.20508
0.32093999 0.16812 0.20516001
0.32016 0.16947 0.20531
0.31959999 0.17130999 0.2053
0.32018 0.17242999 0.2053
0.32109001 0.17392001 0.20483001
0.32302001 0.17506 0.20509
0.32358 0.17668 0.20491999
0.32359001 0.17814 0.20494001
0.33236 0.14068 0.17910001
0.33223999 0.13940001 0.1788
0.24978 0.11442 0.21775
0.27735001 0.13281 0.20144001
0.27855 0.13197 0.20241
0.2406 0.13556001 0.20497
0.23962 0.1353 0.20506001
0.24068999 0.13481 0.2062
0.21032 0.068704002 0.19845
0.21112999 0.068847001 0.19904999
0.26617 0.19865 0.20949
0.26561001 0.19994999 0.20953999
0.26473001 0.20265 0.20840999
0.26502001 0.20132001 0.20954999
0.29113999 0.053534001 0.20577
0.29069 0.055245001 0.20578
0.29054999 0.056458998 0.20608
0.28966001 0.057641 0.20603
0.28871 0.059147999 0.20604999
0.28786001 0.060258001 0.20606001
0.28678 0.061652999 0.20625
0.28525001 0.062960997 0.20603
0.27922001 0.065205 0.20569
0.27601001 0.066373996 0.20682999
0.27506 0.067776002 0.2069
0.27484 0.069158003 0.20692
0.27505001 0.070520997 0.20685001
0.27533001 0.072423004 0.207
0.27531999 0.073279999 0.20716999
0.27540001 0.074848004 0.20708001
0.27546 0.076159999 0.20691
0.27579001 0.077751003 0.2071
0.27634999 0.079112999 0.20697001
0.27693 0.080444999 0.20713
0.27744001 0.082448997 0.20706999
0.27757999 0.083552003 0.20699
0.27803001 0.084794998 0.207
0.27840999 0.086439997 0.20692
0.2791 0.087637998 0.20694999
0.26129001 0.13739 0.19726001
0.2626 0.13642 0.19859999
0.23873 0.13632999 0.20437001
0.23848 0.13556001 0.2051
0.26165 0.11546 0.2121
0.25685999 0.11314 0.21996
0.25579 0.11323 0.22011
0.25665 0.11221 0.22124
0.33079001 0.15338001 0.15616
0.33054 0.15458 0.15615
0.33072001 0.15484001 0.15716
0.33133999 0.15601 0.15639
0.33210999 0.15767001 0.15627
0.33138001 0.14936 0.15006
0.30621001 0.057153001 0.15684
0.27753001 0.051782001 0.21754999
0.27851 0.050756998 0.21622001
0.27836999 0.052262001 0.21720999
0.31935999 0.16516 0.20427001
0.32058999 0.16683 0.20415001
0.32080999 0.16845 0.20413999
0.32027 0.16954 0.20407
0.31962001 0.17094 0.20434999
0.32005 0.17251 0.20438001
0.32185 0.17366 0.20413999
0.32319999 0.1754 0.20423
0.32339001 0.17646 0.20395
0.32328001 0.1779 0.20394
0.2983 0.063340001 0.15703
0.32165 0.12932 0.18696
0.32196 0.12808 0.18675999
0.26662001 0.19965 0.20836
0.26585001 0.20116 0.2084
0.26556 0.20287 0.20750999
0.26388001 0.20381001 0.20863
0.26807001 0.20111001 0.20429
0.29157999 0.053890999 0.20480999
0.29096001 0.055139001 0.20489
0.29045999 0.056490999 0.20475
0.28981999 0.057783 0.20487
0.28876001 0.059160002 0.20505001
0.28834999 0.060235001 0.20509
0.28685999 0.061825 0.20522
0.27671999 0.066202998 0.20611
0.27505001 0.067768998 0.20616999
0.27519 0.069061004 0.20592999
0.27544999 0.070694998 0.20602
0.27526 0.07198 0.20609
0.27573001 0.073596001 0.20587
0.27557999 0.074956 0.20595001
0.27568999 0.076402999 0.20585001
0.27634001 0.077739 0.20608
0.27625999 0.079184003 0.20625
0.27702001 0.080620997 0.20624
0.27742001 0.081864998 0.20570999
0.27774999 0.083486997 0.20585001
0.27805999 0.084863 0.20578
0.27891999 0.086733997 0.20598
0.25508001 0.11628 0.21337999
0.29842001 0.053546999 0.19653
0.29949999 0.053033002 0.19578999
0.29978999 0.055707999 0.19521999
0.29890999 0.051626001 0.19712999
0.30034 0.051098 0.19673
0.25048 0.13271999 0.20525999
0.25174001 0.13273001 0.20513
0.25170001 0.1338 0.20421
0.28641999 0.18674 0.18465
0.29646 0.065029003 0.15739
0.29502001 0.066159002 0.15722001
0.3184 0.16398001 0.20351
0.31952 0.16517 0.20325001
0.32091001 0.167 0.20336001
0.32100001 0.16832 0.2033
0.32016 0.16945 0.20314001
0.31975999 0.17099001 0.20334999
0.32086 0.17226 0.20342
0.32255 0.1736 0.20326
0.32317999 0.1753 0.20291001
0.32322001 0.17639001 0.20313001
0.32286999 0.17801 0.20291001
0.25470001 0.11019 0.22304
0.25490999 0.10867 0.22401001
0.25567999 0.11009 0.22303
0.32997 0.14909001 0.14142001
0.29313999 0.055934999 0.197
0.29293001 0.057142001 0.19676
0.26707 0.10635 0.22431999
0.26787001 0.19831 0.20727
0.26727 0.19995999 0.20731001
0.26613 0.20152999 0.20695999
0.26583001 0.20284 0.20638999
0.27979001 0.065456003 0.20446999
0.27709001 0.066615999 0.20375
0.29148 0.053640001 0.20378
0.29102001 0.055105999 0.20393001
0.29017001 0.056524999 0.20376
0.28981999 0.057932999 0.20377
0.289 0.059330001 0.20397
0.28797999 0.060366999 0.20389
0.28714001 0.061666999 0.2041
0.2859 0.06312 0.20438001
0.27728999 0.066422001 0.20479999
0.27533001 0.067454003 0.20496
0.27537999 0.068958998 0.20491
0.27573001 0.070770003 0.20503999
0.27552 0.072091997 0.20502999
0.27577001 0.073564999 0.20497
0.27564999 0.074972004 0.20513
0.27594 0.076278001 0.20494001
0.27649999 0.077753 0.20486
0.27697 0.079033002 0.20527001
0.27741 0.080723003 0.20495
0.27805001 0.082206003 0.20501
0.27838001 0.083632 0.2049
0.27843001 0.084864996 0.20486
0.25049999 0.13348 0.20448001
0.33318999 0.13301 0.14494
0.33342999 0.13413 0.14488
0.33118999 0.1506 0.1513
0.31848001 0.16425 0.20201001
0.31964999 0.16564 0.20231999
0.32080999 0.16682 0.20217
0.32098001 0.16835999 0.20217
0.31999999 0.16942 0.20213
0.32012001 0.1709 0.20228
0.3215 0.17246 0.20220999
0.32284001 0.17394 0.20207
0.32291001 0.17524 0.20200001
0.32295999 0.17659999 0.20209
0.27733001 0.066748001 0.20280001
0.33366001 0.14129999 0.14487
0.33401999 0.13995001 0.14595
0.33221999 0.148 0.15001
0.24908 0.14363 0.19532999
0.24788 0.1436 0.19525
0.24902999 0.14287999 0.19642
0.26793 0.1998 0.20625
0.26863 0.19840001 0.20632
0.26716 0.20122001 0.20647
0.26756001 0.20132001 0.20535
0.29181001 0.052301999 0.20279001
0.29159001 0.053764001 0.20277999
0.29131001 0.052138999 0.20355999
0.29155001 0.054864001 0.20285
0.29071 0.056469001 0.20290001
0.28994 0.057762999 0.20294
0.28937 0.059069999 0.20287
0.28834999 0.060777999 0.20307
0.28731999 0.061769001 0.20294
0.27575999 0.067939997 0.20401999
0.27516001 0.069245003 0.20418
0.2753 0.070854001 0.20406
0.27566001 0.072099 0.20387
0.27599001 0.073004998 0.20424999
0.27636001 0.075043 0.20424999
0.27658001 0.076272003 0.20403001
0.27678999 0.077962004 0.20428
0.27726999 0.079327002 0.20411
0.27774 0.080806002 0.20399
0.27847001 0.082093999 0.20383
0.27882001 0.083405003 0.20398
0.25084001 0.14217 0.19743
0.22178 0.080045998 0.21476001
0.21565001 0.11682 0.207
0.21488 0.11645 0.20663001
0.21551 0.11535 0.20776001
0.18708 0.085216999 0.18982001
0.27429 0.053169999 0.21669
0.25995001 0.12899999 0.2066
0.26061001 0.12924001 0.20649
0.26052999 0.13029 0.20574
0.27564001 0.057714999 0.21657
0.33230001 0.15877999 0.15599
0.33226001 0.15862 0.15513
0.33249 0.15978 0.15557
0.27353001 0.056889001 0.21612
0.27257001 0.056354001 0.21626
0.27272001 0.054719001 0.21627
0.20535 0.074141003 0.19705001
0.28399 0.064272001 0.20209
0.33320999 0.14798 0.15411
0.33272001 0.14935 0.1549
0.33232 0.15062 0.15509
0.33333999 0.14805999 0.15477
0.31883001 0.16379 0.20116
0.31988999 0.16571 0.20108999
0.32095999 0.16685 0.20114
0.32109001 0.16823 0.20133001
0.31995001 0.16955 0.20115
0.32010001 0.1708 0.20115
0.32203999 0.17261 0.20111001
0.3229 0.17374 0.20099001
0.32269999 0.17512 0.20104
0.32264 0.1767 0.20097999
0.29497999 0.065738998 0.15648
0.29644999 0.052110001 0.19746
0.2965 0.053346999 0.1971
0.26969001 0.19687 0.20613
0.26955 0.19843 0.20502999
0.26865 0.20001 0.20553
0.26668999 0.20213 0.20577
0.22281 0.14150999 0.19031
0.29223001 0.052597001 0.20175
0.29170999 0.053968001 0.20162
0.29177999 0.055321001 0.20174
0.29106 0.056483001 0.20172
0.29031 0.057936002 0.20176999
0.28933001 0.059068002 0.20208
0.28841999 0.060605001 0.20206
0.28749001 0.061719999 0.20234001
0.27573001 0.067626998 0.20288999
0.27566001 0.069376998 0.20319
0.27539 0.070547998 0.20321
0.27568999 0.072089002 0.20307
0.27603999 0.073466003 0.20288999
0.27625 0.075047001 0.20298
0.27676001 0.076453999 0.20284
0.27693 0.077765003 0.20280001
0.27724001 0.079026997 0.20282
0.27783999 0.080875002 0.20291001
0.24662 0.1167 0.21259999
0.24551 0.11656 0.21285
0.24676 0.11617 0.21415
0.24479 0.1455 0.19144
0.24382 0.14549001 0.19178
0.24493 0.14511999 0.19262999
0.25185999 0.13164 0.206
0.25082001 0.13169 0.20592
0.24793001 0.11686 0.21277
0.21461 0.11502 0.20714
0.25951001 0.10537 0.22587
0.26052001 0.10662 0.2254
0.25929001 0.10664 0.22509
0.19118001 0.088592 0.1868
0.19018 0.088536002 0.18707
0.19096 0.088000998 0.18824001
0.26291999 0.10516 0.22596
0.26256001 0.1067 0.22513001
0.26497999 0.1152 0.21182001
0.26574999 0.11541 0.21176
0.26578999 0.11708 0.21157999
0.22126 0.13142 0.20229
0.22159 0.13027 0.20299
0.22243001 0.13079 0.2034
0.31979999 0.089726001 0.19004001
0.32674 0.1523 0.18431
0.33237001 0.14805 0.1512
0.24304 0.13139001 0.20847
0.24309 0.12972 0.20897999
0.33282 0.16009 0.15588
0.28522 0.070216 0.1971
0.27599001 0.055094 0.21665999
0.28544 0.071652003 0.19704001
0.31891 0.16414 0.20035
0.32006001 0.16557001 0.20026
0.32097 0.16687 0.20020001
0.32063001 0.16827001 0.20021001
0.31988999 0.16982999 0.20017999
0.32071 0.17112 0.20006999
0.32209 0.1726 0.19989
0.32240999 0.17355999 0.20005
0.32275 0.1752 0.20006
0.32271001 0.17637999 0.19987001
0.32251999 0.17806999 0.20101
0.22228 0.10254 0.21534
0.31299999 0.059193 0.18208
0.2703 0.19667999 0.20525999
0.27011001 0.19598 0.20593999
0.26960999 0.19539 0.20665
0.27011001 0.19831 0.20412999
0.27151 0.19681001 0.20401999
0.26894999 0.2 0.2043
0.29209 0.053785 0.20062999
0.29229 0.052542001 0.2006
0.29196 0.055284001 0.20082
0.29124001 0.056554999 0.20085
0.29042 0.058137 0.20096999
0.28963 0.05934 0.20094
0.28863001 0.060619999 0.20087001
0.27603 0.067876004 0.20211001
0.27577001 0.069297001 0.20196
0.27574 0.070602 0.2017
0.27573001 0.072293997 0.20207
0.27597001 0.073582999 0.2018
0.27669999 0.075058997 0.20187999
0.27656001 0.076511003 0.20221999
0.27711999 0.078043997 0.20191
0.27759001 0.079296999 0.20205
0.26565999 0.13479 0.20029999
0.26655999 0.13497999 0.19997001
0.26686001 0.13594 0.1996
0.27921 0.19254 0.19854
0.23965 0.14083999 0.19901
0.23924001 0.13993999 0.20002
0.24546 0.11487 0.21667001
0.24652 0.11505 0.21674
0.27076 0.11361 0.21174
0.27096999 0.11251 0.21246
0.24729 0.13568 0.20288999
0.24849001 0.13496 0.20333999
0.23194 0.12067 0.20998999
0.26021999 0.11041 0.22291
0.26018 0.1092 0.2236
0.26122001 0.11006 0.22281
0.26034001 0.10818 0.22451
0.26166999 0.10788 0.22464
0.26135001 0.10905 0.22363
0.25823 0.14387 0.18855
0.25802001 0.14348 0.18985
0.25913 0.14308999 0.18959001
0.26218 0.13959999 0.19542
0.26198 0.13826001 0.19632
0.26339999 0.13922 0.19539
0.24785 0.14272 0.1964
0.31900001 0.16416 0.19949999
0.31988001 0.16537 0.19908001
0.32102999 0.16698 0.19927
0.32075 0.16816001 0.19896001
0.31990999 0.16957 0.1991
0.32148001 0.17106 0.1991
0.32235 0.17217 0.19916999
0.32257 0.17382 0.19885001
0.31909001 0.12748 0.19123
0.27201 0.19667999 0.20296
0.27237999 0.1955 0.20394
0.27078 0.19825 0.2031
0.29256999 0.052584998 0.19965
0.29233 0.053794 0.19960999
0.29175001 0.055367999 0.19963001
0.29133999 0.056469001 0.19987001
0.29113999 0.058177002 0.19986001
0.29008001 0.059509002 0.19989
0.28928 0.060699001 0.1999
0.28821 0.061916001 0.19998001
0.28742999 0.063359998 0.19904999
0.27605999 0.068021998 0.2009
0.27599001 0.069346003 0.20118
0.27621999 0.070943996 0.20110001
0.27638999 0.072269 0.20101
0.27605999 0.073588997 0.20115
0.27663001 0.074836001 0.20112
0.27713999 0.076264001 0.2007
0.27649999 0.073325999 0.19987001
0.22956 0.10547 0.21834999
0.22966 0.10403 0.21893001
0.27509001 0.13879 0.19358
0.23878001 0.13225999 0.20753001
0.23892 0.131 0.20835
0.24076 0.11611 0.21234
0.24196 0.13111 0.20847
0.24071001 0.11713 0.21168
0.21743999 0.095997997 0.21299
0.24043 0.14094 0.19899
0.21859001 0.12918 0.20206
0.21803001 0.12906 0.20153999
0.25345001 0.14484 0.19004001
0.25652999 0.12683 0.20872
0.25659999 0.12816 0.20818
0.22735 0.14004 0.19677
0.22808 0.14041001 0.19711
0.22836 0.14133 0.19603001
0.23071 0.12201 0.2095
0.2306 0.1209 0.21035001
0.26231 0.13745999 0.19744
0.26355001 0.13764 0.19744
0.23954 0.14557999 0.19205
0.23965999 0.14511999 0.19313
0.27922001 0.061613999 0.21417999
0.27237999 0.14088 0.1877
0.27346 0.14037 0.18931
0.2701 0.10811 0.22211
0.27039 0.10714 0.22283
0.26069999 0.11635 0.21156
0.26126 0.11815 0.21129
0.21855 0.12343 0.2057
0.21861 0.12214 0.20644
0.21927001 0.12255 0.20667
0.19068 0.081478 0.19382
0.28648001 0.12259 0.20643
0.28137001 0.12609001 0.20566
0.31918001 0.16410001 0.19835
0.32056999 0.16545001 0.19795001
0.32106 0.16680001 0.19813
0.32027999 0.16819 0.19786
0.32003999 0.16975001 0.19817001
0.32154 0.17077 0.19815999
0.32227001 0.17254999 0.19817001
0.32223001 0.17388 0.19814999
0.33292001 0.13274001 0.14379001
0.27291 0.19689 0.20205
0.27311999 0.19555999 0.20253
0.27158001 0.19834 0.20219
0.29236999 0.053688001 0.19808
0.29218 0.055273 0.19864
0.29154 0.056550998 0.19877
0.2911 0.057941001 0.19888
0.29043001 0.059083 0.19904
0.28939 0.060373999 0.19893999
0.28817001 0.061937001 0.19909
0.33405 0.14656 0.155
0.27664 0.071990997 0.20004
0.22032 0.12399 0.20611
0.22062001 0.12285 0.20695999
0.22136 0.12414 0.20633
0.27173999 0.1409 0.18810999
0.27037001 0.14094999 0.18825001
0.27121001 0.14036 0.18948001
0.26826 0.12882 0.2057
0.26284999 0.11559 0.21201999
0.26282999 0.11463 0.21331
0.264 0.11445 0.21287
0.22849 0.13937999 0.19819
0.23634 0.14419 0.19453
0.23504999 0.14381 0.19491
0.24652 0.1157 0.21522
0.23096 0.10321 0.21944
0.23086999 0.10171 0.21967
0.2164 0.10464 0.2119
0.21518999 0.10392 0.21165
0.21631999 0.10393 0.21204001
0.25260001 0.11226 0.22144
0.24378 0.14489 0.19264001
0.22868 0.11869 0.21209
0.22860999 0.11983 0.21133
0.25613001 0.1312 0.20535
0.25598001 0.13025001 0.20629001
0.25749999 0.13135 0.20533
0.27171999 0.056203999 0.21620999
0.27153999 0.054795001 0.21603
0.31957999 0.099201001 0.19698
0.32054001 0.10083 0.19698
0.31946999 0.10069 0.19769
0.32280001 0.17854001 0.20280001
0.32065001 0.10461 0.19712999
0.32113999 0.10344 0.19665
0.32084 0.10471 0.19661
0.26653001 0.11077 0.22091
0.26543999 0.11069 0.22108001
0.26642001 0.10966 0.22179
0.2633 0.10989 0.22223
0.26155999 0.11336 0.21831
0.26554 0.11001 0.22231001
0.26561999 0.1092 0.22327
0.26258999 0.11392 0.21651
0.26122999 0.11384 0.21664999
0.26221001 0.11325 0.21799999
0.19002999 0.085905001 0.19054
0.1901 0.085146002 0.19128001
0.19111 0.086227998 0.19031
0.19124 0.084215999 0.19245
0.19103999 0.085251004 0.19148
0.22352 0.11456 0.21213
0.22216 0.11604 0.21139
0.31803 0.16248 0.19734
0.31928 0.16401 0.19711
0.32036 0.16545001 0.19735
0.32106 0.16707 0.1971
0.32016 0.16802 0.19712
0.31999001 0.16927999 0.1972
0.32177001 0.17111 0.19705001
0.3222 0.17230999 0.19709
0.3222 0.17362 0.19706
0.27359 0.19684 0.20073999
0.26736 0.12448 0.20935
0.26625001 0.12404 0.20943999
0.26732999 0.12263 0.20976
0.29074001 0.05934 0.19747999
0.28983 0.061032999 0.19788
0.28889 0.06191 0.1981
0.27834001 0.13819 0.19502001
0.27914 0.13863 0.19508
0.27957001 0.13462 0.19907001
0.27855 0.13484 0.19907001
0.27926001 0.13381 0.19994
0.21392 0.11437 0.20674001
0.25187001 0.11617 0.21391
0.22573 0.12045 0.20993
0.23650999 0.14469001 0.19334
0.23533 0.14490999 0.19346
0.29708999 0.055252999 0.19667
0.29765001 0.053737 0.197
0.25296 0.10998 0.22308999
0.2538 0.10998 0.22317
0.22961 0.13510001 0.20345999
0.22872999 0.13476001 0.20316
0.22964001 0.13391 0.2041
0.31927001 0.097691998 0.19598
0.31845999 0.097920001 0.19678999
0.32016 0.099262998 0.19588
0.32093 0.1006 0.19553
0.32133001 0.10214 0.19599
0.32190001 0.10322 0.19588999
0.32190001 0.10529 0.19583
0.32078999 0.10623 0.19687
0.32172999 0.10625 0.19575
0.32099 0.1074 0.19699
0.32051 0.10743 0.19735
0.32187 0.10758 0.19563
0.32100999 0.10887 0.19664
0.32165 0.10901 0.19577999
0.32102999 0.1102 0.19667
0.32181001 0.11009 0.19580001
0.31761 0.097680002 0.19844
0.32166001 0.11152 0.19577999
0.18705 0.086156003 0.18881001
0.27737001 0.14117 0.19036999
0.27724999 0.14055 0.19137999
0.27300999 0.13962001 0.19266
0.27179 0.13936999 0.19242001
0.27313 0.13888 0.19368
0.24264 0.1098 0.22164001
0.27307999 0.13756999 0.19606
0.27265 0.12393 0.20835
0.27410001 0.12386 0.20815
0.27441999 0.13079 0.20333999
0.27450001 0.12969001 0.20412
0.27552 0.13084 0.20334999
0.33056 0.15331 0.15489
0.31829 0.16293 0.19637001
0.31924999 0.16392 0.19622999
0.32053 0.16557001 0.19618
0.32069999 0.16677999 0.19619
0.32034001 0.16859999 0.19591001
0.32071999 0.16947 0.19611999
0.32152 0.17111 0.1961
0.29528999 0.15063 0.18720999
0.33186001 0.15752999 0.15516999
0.33155999 0.15593 0.15508001
0.27607 0.19412 0.2008
0.27405 0.19705001 0.1997
0.27566999 0.19564 0.19959
0.29080001 0.059441 0.19712999
0.24996001 0.10978 0.22301
0.25026 0.10836 0.22393
0.24052 0.13823 0.20197
0.25101 0.14124 0.19859
0.24476001 0.13963 0.19926
0.24501 0.13875 0.20046
0.31165999 0.050737999 0.18991999
0.31086999 0.050613999 0.19083001
0.31145999 0.050383002 0.18918
0.22353999 0.1198 0.2096
0.22459 0.12031 0.21012001
0.22472 0.12113 0.20878001
0.21945 0.13629 0.19565
0.22881 0.1066 0.2173
0.22953001 0.10702 0.21744999
0.24648 0.11365 0.21915001
0.24648 0.11252 0.22013
0.24763 0.11279 0.22036
0.21950001 0.13053 0.20126
0.22769 0.12171 0.20935
0.22849 0.12111 0.21048
0.22177 0.13817 0.19546001
0.2229 0.13835 0.19577999
0.23179001 0.1202 0.21112999
0.23278999 0.11973 0.21100999
0.27015001 0.14031 0.18968999
0.27124 0.13999 0.19114999
0.23548999 0.14602 0.19061001
0.2366 0.14623 0.19087
0.24355 0.12327 0.20969
0.24375001 0.12235 0.21055999
0.24481 0.1235 0.20991001
0.26038 0.20027 0.21559
0.22195999 0.10562 0.21486001
0.2211 0.10523 0.21461999
0.22254001 0.10382 0.21461999
0.26164001 0.20103 0.21399
0.25297001 0.10881 0.22405
0.32032001 0.097793996 0.1947
0.32137999 0.099133 0.19483
0.32185999 0.1007 0.19464999
0.32229 0.10244 0.19465999
0.32262 0.10354 0.19453999
0.32260999 0.10467 0.19434001
0.32240999 0.10597 0.19453
0.32273 0.10775 0.19468001
0.32280001 0.10909 0.19453999
0.32269001 0.11066 0.19475999
0.32236999 0.11151 0.19473
0.32181001 0.11309 0.19461
0.27524 0.133 0.20134
0.27406001 0.13292 0.20152999
0.27531999 0.13166 0.20234001
0.27439001 0.13186 0.20255999
0.24975 0.14416 0.19399001
0.24988 0.14366999 0.19532
0.25097001 0.14371 0.19497
0.25891 0.13718 0.19931
0.25791001 0.13756 0.19989
0.25872001 0.13655999 0.20065001
0.27485999 0.12564 0.20603999
0.27476001 0.12477 0.2069
0.25066 0.11217 0.22141001
0.25084001 0.11106 0.22261
0.25154999 0.11184 0.22148
0.32725 0.094846003 0.17206
0.31885001 0.16268 0.19543999
0.31975001 0.16403 0.19515
0.32054001 0.16551 0.19517
0.32086 0.16674 0.19505
0.31992 0.16829 0.19517
0.32078001 0.16963001 0.19525
0.32176 0.17113 0.19520999
0.23837 0.1049 0.22184999
0.27836001 0.19230001 0.19918001
0.27742001 0.19334 0.1999
0.27735001 0.19371 0.19968
0.22005001 0.1251 0.20535
0.29133999 0.18091001 0.19216999
0.29176 0.18257999 0.19107001
0.29091001 0.18219 0.19222
0.23668 0.14534 0.19211
0.24603 0.10749 0.22337
0.24539 0.10632 0.22317
0.23549999 0.14529 0.19207001
0.23261 0.14542 0.19052
0.22765 0.12083 0.21014
0.22770999 0.11987 0.21135999
0.23267999 0.14481001 0.19168
0.24778999 0.11353 0.21926001
0.24845999 0.11282 0.22043
0.22305 0.10406 0.21509001
0.25220001 0.10852 0.22383
0.25233999 0.10826 0.22415
0.32014 0.096493997 0.19395
0.32117 0.097933002 0.19385999
0.32086 0.097144999 0.19339
0.32224 0.099569999 0.19359
0.32277 0.10088 0.19385999
0.32297999 0.10229 0.19373
0.32339999 0.1034 0.1936
0.32311001 0.10511 0.19363999
0.32291001 0.10622 0.19374
0.32311001 0.1076 0.19345
0.32328999 0.10893 0.19355001
0.32343 0.11047 0.19382
0.32343999 0.11166 0.19359
0.3229 0.11303 0.19351999
0.32214001 0.11466 0.19356
0.23039 0.13995001 0.1989
0.22940999 0.13959 0.19829001
0.23032001 0.13885 0.19963001
0.27623001 0.12568 0.20572001
0.25773001 0.1366 0.20096999
0.2748 0.12668 0.20509
0.21461999 0.12238 0.20494001
0.21375 0.12173 0.20445
0.21484999 0.1211 0.20527001
0.33610001 0.13688 0.16858999
0.2863 0.10527 0.20833001
0.23251 0.14448 0.19288
0.31272 0.059252001 0.18015
0.31783 0.16094001 0.19418
0.31884 0.16295999 0.1943
0.32001999 0.16411 0.19385
0.32075 0.16556001 0.19429
0.32054999 0.16687 0.1939
0.31981999 0.16846 0.1943
0.32121 0.1698 0.19414
0.32161 0.17121001 0.19416
0.32146001 0.17236 0.19435
0.21082 0.11614 0.20466
0.21121 0.11475 0.20503999
0.21188 0.11527 0.20550001
0.28173 0.19088 0.19727001
0.28211001 0.18944 0.19802999
0.28279001 0.18793 0.1979
0.28301999 0.18953 0.19702999
0.28016001 0.19238999 0.19717
0.23241 0.14326 0.19415
0.23243999 0.14268 0.1956
0.22637001 0.12807 0.20623
0.22685 0.12679 0.20693
0.25876999 0.19807 0.21675999
0.2595 0.19752 0.21631999
0.27632999 0.13389 0.20022
0.27735999 0.13387001 0.20036
0.26659 0.13819 0.19584
0.26644999 0.13766 0.19712999
0.26758 0.13779999 0.19707
0.23225001 0.14188001 0.19671001
0.23248 0.14094 0.1978
0.24611001 0.13410001 0.20517001
0.24443001 0.11248 0.22022
0.24458 0.11133 0.221
0.24561 0.11261 0.22024
0.29613999 0.056049 0.19641
0.25497001 0.1144 0.21761
0.21299 0.12820999 0.19927999
0.21399 0.12864999 0.1999
0.21402 0.12959 0.19888
0.25806999 0.13955 0.19572
0.25780001 0.13867 0.19695
0.25764999 0.12673999 0.20830999
0.25762001 0.12773 0.20749
0.25652 0.12943 0.20709001
0.25753 0.12901001 0.20656
0.25755 0.12980001 0.20593999
0.25907001 0.11412 0.21718
0.25995001 0.11369 0.21839
0.2633 0.11857 0.21145
0.30785999 0.061191 0.18544
0.30678999 0.061818998 0.18521
0.30757001 0.061179999 0.18655001
0.19148 0.076082997 0.19623999
0.19235 0.076421998 0.19645
0.21952 0.11607 0.20987
0.22046 0.11527 0.21099
0.32323 0.099180996 0.19261999
0.32383999 0.10074 0.19261999
0.324 0.10213 0.19234
0.32376 0.10352 0.19234
0.32368001 0.10497 0.19286001
0.32348001 0.10632 0.19258
0.32394999 0.10768 0.19265001
0.32429999 0.10917 0.19241001
0.32451001 0.11055 0.19278
0.32431 0.11185 0.19234
0.32376 0.11329 0.19246
0.32291999 0.11475 0.19261
0.32286999 0.11582 0.19279
0.22504 0.13052 0.2051
0.22637001 0.12942 0.20602
0.22939 0.13894001 0.19938
0.25068 0.10847 0.22390001
0.27000001 0.13410001 0.20079
0.26980001 0.13268 0.20168
0.27331001 0.14012 0.19089
0.27414 0.14004999 0.19109
0.24913999 0.13788 0.20085999
0.24925999 0.13672 0.20173
0.27401 0.13931 0.19214
0.33629 0.13823 0.16870999
0.33629 0.13974001 0.16875
0.32119 0.17124 0.19223
0.31828001 0.16124 0.19326
0.31922001 0.16261999 0.19329
0.32023001 0.16451 0.19311
0.32085001 0.16529 0.19307999
0.32025999 0.167 0.19313
0.32003 0.16846 0.19332001
0.32074001 0.16964 0.19288
0.28573 0.18674999 0.19586
0.28384 0.18961 0.19607
0.28246 0.19081999 0.19602001
0.32995999 0.11957 0.16213
0.33083999 0.1044 0.16384999
0.24571 0.11608 0.214
0.23257001 0.14027999 0.19878
0.23242 0.13962001 0.20024
0.23239 0.13863 0.20102
0.22484 0.14133 0.19261
0.22488999 0.14192 0.19133
0.21467 0.11007 0.2101
0.27835 0.053660002 0.21696
0.21938001 0.13371 0.19891
0.21946 0.13472 0.19772001
0.24510001 0.12640999 0.20912001
0.24548 0.12537999 0.20988999
0.26558 0.051534999 0.21516
0.23247001 0.13805 0.20221999
0.25718999 0.10777 0.22463
0.23255 0.13680001 0.20326
0.24440999 0.1102 0.22163001
0.24574 0.11017 0.22183
0.24530999 0.11171 0.22127999
0.2097 0.12425 0.19881
0.25328001 0.14432999 0.19158
0.25319001 0.14397 0.19286001
0.25457999 0.14362 0.19288
0.24871001 0.11352 0.2191
0.24388 0.14647999 0.19019
0.26050001 0.11494 0.21404
0.25979 0.1151 0.21404
0.26036999 0.11438 0.21592
0.25764 0.1257 0.20937
0.22667 0.13694 0.19973999
0.26028001 0.1141 0.21684
0.32201999 0.098569997 0.19321001
0.22651 0.10734 0.21585
0.22685 0.10612 0.21658
0.32325 0.097971 0.19149999
0.32348999 0.099446997 0.19155
0.26471999 0.053534999 0.21516
0.32422 0.10102 0.19166
0.32436001 0.1026 0.19148999
0.32455999 0.10364 0.19135
0.32429001 0.10486 0.19141001
0.32433 0.10625 0.19185001
0.32492 0.10791 0.19169
0.32539001 0.10913 0.19149999
0.32539999 0.11078 0.19169
0.32508001 0.11175 0.19137
0.32448 0.11325 0.19142
0.32381999 0.11464 0.19131
0.32348999 0.11596 0.19146
0.32325 0.11725 0.19167
0.26681 0.14043 0.19201
0.23914 0.12831999 0.20942999
0.23834001 0.12702 0.20954999
0.23092 0.11283 0.21388
0.23185 0.11313 0.21396001
0.19256 0.082958996 0.19329999
