# .PCD v0.7 - Point Cloud Data file format
VERSION 0.7
FIELDS x y z
SIZE 4 4 4
TYPE F F F
COUNT 1 1 1
WIDTH 1695
HEIGHT 1
VIEWPOINT 0 0 0 1 0 0 0
POINTS 1695
DATA ascii
0.28119999 0.19106001 0.18956
0.27959001 0.19222 0.19117001
0.32444999 0.16783001 0.15012001
0.33079001 0.15376 0.15487
0.30149001 0.062509 0.14395
0.30034 0.063754 0.14611
0.30265999 0.062463 0.14441
0.32771999 0.16919 0.15731999
0.31263 0.19205999 0.23587
0.32176 0.19519 0.23149
0.32275 0.19521999 0.22969
0.33245 0.1453 0.17918999
0.3328 0.14551 0.17915
0.33197001 0.1437 0.17929
0.31163999 0.19574 0.24453001
0.31064999 0.19375999 0.24291
0.32225999 0.18633001 0.21306001
0.32289001 0.18736 0.21505
0.32286 0.19371 0.22808
0.33432001 0.14603999 0.15394001
0.33331001 0.14699 0.15295
0.33355999 0.1473 0.15372001
0.31555 0.19603001 0.23525
0.31558999 0.19464 0.23415001
0.32006001 0.19465999 0.23067001
0.29899999 0.070355996 0.17595001
0.29749 0.071166001 0.17536999
0.32045999 0.18735 0.21381
0.32099 0.18677001 0.21249001
0.33250999 0.13440999 0.15419
0.33349001 0.13349 0.15318
0.31817999 0.17302001 0.16829
0.31790999 0.17263 0.16604
0.31998 0.18875 0.21682
0.32058999 0.18813001 0.21762
0.30188999 0.060856 0.14287999
0.30344999 0.062279999 0.14399
0.31946 0.19081999 0.22439
0.31810001 0.19066 0.22352
0.18346 0.086359002 0.18181001
0.18325 0.085437998 0.18206
0.18388 0.086489998 0.18190999
0.18381 0.087342001 0.18055999
0.18521 0.087323003 0.18422
0.18554001 0.087453999 0.18389
0.18371999 0.087704003 0.18343
0.23112001 0.11808 0.21229
0.23148 0.11813 0.21194001
0.33254001 0.15509 0.16162001
0.33305001 0.15342 0.16164
0.31702 0.19453 0.23481999
0.31615999 0.1962 0.23444
0.31558999 0.17241 0.15539999
0.31737 0.17264 0.156
0.31593999 0.17193 0.15515999
0.27340999 0.049366999 0.214
0.27361 0.051192999 0.21574999
0.32905 0.11682 0.15773
0.25997001 0.20208 0.21304999
0.2586 0.20168 0.21268
0.18588001 0.085716002 0.18853
0.18584 0.087378003 0.18686999
0.18659 0.088662997 0.18424
0.18607 0.087908998 0.18443
0.18689001 0.088390999 0.18379
0.18557 0.088288002 0.18357
0.28536001 0.057029001 0.21348999
0.28615001 0.055647001 0.21277
0.28633001 0.057050001 0.21253
0.25821999 0.19841 0.21261001
0.18764 0.089364998 0.18542001
0.31819001 0.16080999 0.19411001
0.31883001 0.16111 0.19272999
0.32106 0.17166001 0.18683
0.31145 0.16494 0.21168
0.28224 0.064738996 0.2026
0.31665 0.17411 0.18561999
0.31834999 0.17407 0.18639
0.31896001 0.17372 0.18616
0.31716001 0.17332999 0.18398
0.31937999 0.17258 0.18602
0.29374999 0.066904999 0.16248
0.30535999 0.060578 0.15068001
0.30586001 0.060254999 0.15154
0.28059 0.090784997 0.20572001
0.18916 0.088719003 0.18566
0.32216001 0.17679 0.19874001
0.32181001 0.17722 0.19949
0.32207 0.17681 0.20117
0.28459999 0.11388 0.20859
0.24766 0.11777 0.21143
0.24769001 0.11978 0.21131
0.32170001 0.17033 0.18092
0.31264001 0.16805001 0.22283
0.31426001 0.16684 0.21848001
0.30526 0.060070001 0.15369
0.31889001 0.1664 0.20778
0.31992999 0.16734 0.20847
0.32074001 0.1666 0.20959
0.31913 0.17220999 0.15815
0.31959999 0.17227 0.15676001
0.31841999 0.17167 0.15733001
0.27450001 0.10468 0.22163001
0.27437001 0.1028 0.22102
0.31352001 0.17271 0.15782
0.3125 0.17244001 0.15695
0.31151 0.17220999 0.15771
0.32185999 0.16977 0.18111999
0.32178 0.16987 0.18206
0.32168001 0.17033 0.18268999
0.32251999 0.17011 0.17917
0.32321 0.16898 0.18039
0.32244 0.17109001 0.17775001
0.32223001 0.17087001 0.17584001
0.32324001 0.17075001 0.17472
0.32299 0.17068 0.17391001
0.32352999 0.17115 0.1726
0.32361001 0.17143001 0.17092
0.33504999 0.14292 0.15445
0.3328 0.14342999 0.14726999
0.31303999 0.17276999 0.15587001
0.3134 0.17254999 0.16001
0.31270999 0.17325 0.15987
0.31163999 0.17246 0.1608
0.31101999 0.17309999 0.16207001
0.31028 0.17299999 0.16355
0.3114 0.17377 0.16355
0.32368001 0.17174999 0.1696
0.30971 0.17290001 0.16644
0.32407001 0.17166001 0.16779999
0.32447001 0.17267001 0.16682
0.32486999 0.17099001 0.16519
0.32609001 0.17096999 0.16422001
0.33223999 0.15871 0.15479
0.33210999 0.15759 0.15549999
0.32268 0.12986 0.18731
0.32034001 0.12981001 0.18796
0.27489999 0.093942001 0.22301
0.32319999 0.096363999 0.15516999
0.32387 0.097257003 0.15425
0.24901 0.14593001 0.18737
0.30956 0.17321 0.16680001
0.32620999 0.17105 0.16357
0.32708001 0.17072 0.16185001
0.32778001 0.16994999 0.16053
0.30408001 0.060743 0.15617
0.25782999 0.12147 0.21132
0.25677001 0.12295 0.21058001
0.25639999 0.12279 0.21145
0.33261999 0.12837 0.16689999
0.31205001 0.19032 0.23396
0.27236 0.14259 0.17477
0.27157 0.14261 0.17407
0.33236 0.10987 0.16428
0.25667 0.19881999 0.21592
0.30891001 0.17343999 0.16822
0.30871001 0.17284 0.17101
0.30846 0.17279001 0.17136
0.30908999 0.1726 0.17308
0.2701 0.051431 0.21234
0.27059999 0.050579 0.21253
0.26919001 0.052228 0.21566001
0.32365 0.19163001 0.22597
0.25097001 0.10832 0.22416
0.23364 0.10652 0.22103
0.23365 0.10827 0.22035
0.23390999 0.10678 0.22022
0.22221 0.10082 0.21647
0.22096001 0.10035 0.2155
0.22266001 0.099694997 0.21619999
0.29844001 0.14906999 0.18962
0.29699001 0.14896999 0.1894
0.29756001 0.14824 0.18939
0.22059999 0.070344001 0.21318001
0.31033999 0.14105 0.19323
0.30926999 0.061368998 0.17577
0.31828001 0.093556002 0.1935
0.31849 0.094323002 0.19593
0.31830001 0.093129002 0.19603001
0.29741001 0.079951003 0.19487
0.29655001 0.080416001 0.19551
0.2965 0.079075001 0.19445001
0.33065 0.16749001 0.15779001
0.33089 0.16699 0.15782
0.28099999 0.14356001 0.1891
0.28178 0.14409 0.18637
0.28132999 0.14406 0.18790001
0.33605 0.14432999 0.16229001
0.31485999 0.17275999 0.1785
0.31542 0.17263 0.17753001
0.31351 0.17291 0.17862999
0.31957999 0.18937001 0.21765
0.32043999 0.18882 0.21870001
0.25755 0.19741 0.21366
0.31321999 0.19713999 0.2419
0.30994999 0.062298 0.17676
0.31211999 0.060584001 0.17659
0.31125 0.061551001 0.17527001
0.33191001 0.16558 0.15621001
0.31139001 0.139 0.193
0.33259001 0.1645 0.15731999
0.30107999 0.10263 0.20664001
0.30105001 0.10457 0.2068
0.3001 0.10285 0.2068
0.32618999 0.19262999 0.23018
0.32649001 0.19228999 0.22962999
0.32269999 0.090879999 0.16575
0.32912999 0.16959 0.16913
0.28189 0.14521 0.17754
0.28200999 0.14476 0.17736
0.28051999 0.14590999 0.17917
0.31628999 0.17253999 0.17451
0.31683999 0.17276999 0.17347001
0.31862 0.18695 0.21303999
0.32025 0.18772 0.213
0.31788999 0.18767001 0.21212
0.29565001 0.061733998 0.16271
0.32537001 0.12468 0.15685999
0.32383001 0.091568001 0.16574
0.28209001 0.14312001 0.18831
0.33594 0.14578 0.16219001
0.28272 0.14415 0.18449999
0.28184 0.14452 0.18539
0.32154 0.087986 0.1672
0.32905 0.12634 0.16502
0.33001 0.12724 0.16547
0.3073 0.17351 0.17355999
0.32911 0.1227 0.16463
0.32832 0.12444 0.16587
0.31092 0.17966001 0.20383
0.31011999 0.17937 0.20413999
0.30989 0.1797 0.20547
0.31005001 0.18010999 0.20615999
0.32567 0.12609001 0.15744001
0.18474001 0.086009003 0.18641999
0.18491 0.086168997 0.18709999
0.28220001 0.14499 0.17908999
0.27982 0.14523 0.18025
0.28211001 0.14515001 0.1804
0.33265001 0.14266001 0.14454
0.33168 0.1113 0.16475999
0.31112999 0.093649998 0.20052999
0.31156999 0.093170002 0.20058
0.26785001 0.14241 0.18524
0.26614001 0.14236 0.18626
0.26756001 0.14217 0.18588001
0.31981 0.17157 0.16184001
0.32038 0.17271 0.15913001
0.31977001 0.17196999 0.15955999
0.33079001 0.12931 0.16297001
0.31029999 0.14476 0.19302
0.27831 0.066326998 0.20205
0.28870001 0.14606 0.18321
0.28837001 0.14612 0.18159001
0.28704 0.14556 0.18294001
0.28488001 0.14616001 0.17737
0.28461999 0.14565 0.17749999
0.28415 0.14524999 0.17772
0.28459001 0.14583001 0.17824
0.27969 0.14499 0.18148001
0.28145999 0.14506 0.18127
0.31663999 0.18807 0.21973
0.31564 0.18814 0.2183
0.31671 0.17362 0.17173
0.31887001 0.17248 0.16557001
0.31952 0.17259 0.16373999
0.28391001 0.14467999 0.18479
0.28209001 0.18990999 0.18866
0.31707001 0.19755 0.23903
0.31586 0.19773 0.24149001
0.31505001 0.17253 0.17475
0.31378001 0.17293 0.17422
0.31064001 0.096605003 0.20209
0.30364001 0.17256001 0.16625001
0.30180001 0.17332 0.16632999
0.30215001 0.17283 0.16774
0.31597999 0.17715999 0.19174001
0.31679001 0.17632 0.19058999
0.31521001 0.17704999 0.19016001
0.31474 0.17718001 0.19189
0.28465 0.11535 0.20736
0.32034001 0.17861 0.19733
0.31948 0.18005 0.19857
0.30274999 0.17271 0.16531
0.30368999 0.17272 0.16474
0.30204001 0.1723 0.16507
0.30405 0.17366 0.1635
0.32271001 0.18791001 0.21685
0.27250001 0.14222001 0.18015
0.2881 0.14593001 0.18172
0.31779999 0.19836999 0.2378
0.28374001 0.14591999 0.18190999
0.28446001 0.14553 0.18200999
0.28351 0.14519 0.18251
0.28565001 0.14543 0.18009
0.28463 0.145 0.17921001
0.28334001 0.14519 0.18137001
0.31481999 0.19059999 0.22653
0.31487 0.18957999 0.2264
0.31356001 0.18951 0.22736999
0.28060001 0.14345001 0.18523
0.28121001 0.14475 0.18442
0.27996999 0.14384 0.18506999
0.28150001 0.14526001 0.18303999
0.28066999 0.14478999 0.1822
0.27963001 0.14357001 0.1847
0.31685001 0.18916 0.21799
0.2784 0.14406 0.17542
0.27833 0.14503001 0.17437001
0.27658001 0.14415 0.17516001
0.27922001 0.14246 0.18908
0.27906999 0.14210001 0.19018
0.33052 0.11901 0.16545001
0.27248999 0.14249 0.17325
0.28411999 0.14616001 0.18426
0.28187001 0.14438 0.18261001
0.31130001 0.19465999 0.24533001
0.31173 0.19631 0.24435
0.30270001 0.17279001 0.16694
0.31742999 0.17550001 0.18986
0.31893 0.17494 0.18965
0.33160999 0.14895 0.15124001
0.31799999 0.17157 0.15501
0.32396001 0.19538 0.23339
0.32523 0.19437 0.23137
0.30267999 0.17242 0.16389
0.32291001 0.18738 0.21714
0.30511001 0.17205 0.16201
0.30169001 0.064129002 0.1503
0.31962001 0.17192 0.15837
0.32097 0.17151 0.15977
0.32089001 0.17126 0.15757
0.31224999 0.19257 0.23449001
0.3141 0.18948001 0.22542
0.31509 0.18935999 0.22518
0.27810001 0.14478 0.17222001
0.27838001 0.1443 0.17291
0.31219 0.12218 0.19787
0.31200999 0.12243 0.19847
0.30215999 0.057076 0.16260999
0.30311999 0.055443 0.16246
0.28 0.14320999 0.18702
0.31406 0.18217 0.24198
0.2518 0.12008 0.21107
0.25360999 0.11961 0.21152
0.25272 0.12189 0.2112
0.32275999 0.17046 0.17681
0.32416001 0.17058 0.1787
0.32389 0.17015 0.17531
0.32449001 0.17066 0.1744
0.32448 0.17110001 0.17258
0.32545 0.17106999 0.17166001
0.32506999 0.17061999 0.17008001
0.30201 0.084849998 0.19643
0.30227 0.084172003 0.19615
0.30195001 0.083328001 0.19517
0.32889 0.12227 0.1649
0.31742001 0.17295 0.16896001
0.30227 0.17193 0.16395
0.27857 0.14478 0.17889
0.27746999 0.14413001 0.17832001
0.27772 0.1437 0.18083
0.27715001 0.14354999 0.18188
0.27612001 0.14339 0.18136001
0.27652001 0.14215 0.18287
0.27693 0.14295 0.18316001
0.33245 0.11508 0.16517
0.33096999 0.11343 0.16466001
0.32043001 0.12123 0.19147
0.32012001 0.1221 0.19305
0.31294 0.19053 0.23186
0.31406999 0.18996 0.22935
0.31277001 0.18983001 0.23243
0.32203999 0.17214 0.15757
0.32304999 0.17083 0.15724
0.32102001 0.17101 0.15578
0.33497 0.13533001 0.15722001
0.31937999 0.17155001 0.15534
0.31180999 0.17226 0.15734001
0.31303 0.17206 0.15625
0.31316 0.17188001 0.15549999
0.31064999 0.17267001 0.15914001
0.32618999 0.17130999 0.16864
0.32606 0.17163999 0.16774
0.32640001 0.17123 0.16682
0.32670999 0.16999 0.16495
0.32800999 0.17048 0.16319001
0.32975 0.17024 0.16225
0.31110999 0.17304 0.16038001
0.27882999 0.14501999 0.17781
0.27814001 0.14405 0.17856
0.27827001 0.14500999 0.18047
0.27653 0.14212 0.18458
0.27671999 0.14214 0.18508001
0.27664 0.14342999 0.17666
0.27860001 0.14466999 0.17656
0.27770001 0.14232001 0.18583
0.27721 0.14293 0.18652
0.27634001 0.14201 0.18767001
0.31237999 0.19043 0.23266
0.31378001 0.1904 0.23104
0.26232001 0.20322999 0.20694
0.31014001 0.17256001 0.16226
0.30978 0.17347001 0.16367
0.33102 0.16809 0.16085
0.30921999 0.17321999 0.16402
0.32565999 0.19093999 0.22724
0.32359999 0.12006 0.19043
0.32264 0.11993 0.19214
0.32289001 0.11802 0.19223
0.3204 0.17099001 0.15606
0.30105001 0.17219999 0.16179
0.32523 0.16584 0.15042
0.27858999 0.14436001 0.17693
0.27537 0.14255001 0.18617
0.32003 0.17274 0.16231
0.27700999 0.14419 0.1788
0.27753001 0.14371 0.17797001
0.27664 0.14117999 0.18837
0.2757 0.14134 0.18741
0.27535 0.14138 0.18931
0.27737999 0.14388999 0.18403
0.28261 0.14506 0.17602
0.28174999 0.14523999 0.17580999
0.31606999 0.16044 0.19882999
0.31906 0.18779001 0.21561
0.33548 0.13737001 0.15683
0.21578 0.093065999 0.21286
0.30853 0.17315 0.16676
0.30941999 0.17307 0.16593
0.30748999 0.17329 0.16886
0.30823001 0.17299999 0.16886
0.30658999 0.17249 0.17383
0.30766001 0.17304 0.1719
0.30691001 0.17326 0.17021
0.27059001 0.14285 0.17457999
0.31733999 0.18948001 0.22263999
0.31851 0.19106001 0.22324
0.31808999 0.18975 0.22244
0.3143 0.19135 0.23291001
0.31404999 0.19191 0.23331
0.31687 0.18989 0.22548001
0.31448001 0.19673 0.24065
0.27941999 0.1445 0.17491999
0.22615001 0.12272 0.20810001
0.22801 0.12289 0.20868
0.22718 0.12328 0.20840999
0.27810001 0.14406 0.18311
0.28343999 0.14543 0.1753
0.28216001 0.1453 0.17468999
0.31062001 0.18159001 0.20545
0.29807001 0.060761001 0.1635
0.30958 0.16741 0.21228001
0.29978999 0.059349999 0.16258
0.31580999 0.17268001 0.17558999
0.31718999 0.17246 0.17127
0.31542999 0.17275 0.17307
0.27917001 0.14495 0.17376
0.2755 0.14089 0.1894
0.27386001 0.14140999 0.18824001
0.27511001 0.14037 0.18970001
0.30045 0.063607 0.15245999
0.27491 0.14147 0.18726
0.33565 0.13789999 0.15609001
0.27794999 0.14376 0.18277
0.33526 0.13922 0.15666001
0.25624999 0.19729 0.21539
0.32012999 0.19405 0.22949
0.31450999 0.19224 0.23295
0.31399 0.19205 0.23187
0.33557999 0.14066 0.15723
0.30129999 0.058235001 0.16329999
0.31764999 0.17640001 0.19069999
0.31975001 0.1727 0.18866999
0.31996 0.1741 0.19104999
0.32058001 0.17315 0.19006
0.32541999 0.16971999 0.17595001
0.32354999 0.19548 0.23436999
0.32492 0.19515 0.23298
0.28636 0.14526001 0.18204001
0.28569999 0.14505 0.18322
0.27454999 0.14088 0.18525
0.29356 0.065669 0.16395999
0.29424 0.064305 0.16342001
0.27983999 0.14505 0.17694999
0.31801 0.17271 0.16099
0.31913999 0.17169 0.16164
0.31810999 0.1723 0.15955999
0.33489001 0.14924 0.16191
0.32721001 0.16985001 0.17321
0.32679 0.17027999 0.17057
0.33340999 0.16722 0.16218001
0.33129001 0.1681 0.16174001
0.32728001 0.17117 0.17057
0.32692 0.17061 0.16877
0.32802001 0.17069 0.16722
0.32780001 0.17048 0.16585
0.32927999 0.16919 0.1649
0.32984999 0.16883001 0.16219001
0.33298999 0.16588999 0.16240001
0.27177 0.19856 0.20040999
0.27245 0.19935 0.19877
0.27006 0.2 0.19802
0.27094999 0.11131 0.21538
0.27009001 0.11138 0.21526
0.27171001 0.11012 0.21628
0.28004 0.14428 0.17442
0.28101999 0.14486 0.17281
0.33182999 0.11257 0.16543999
0.27423 0.14215 0.18489
0.27741 0.14414001 0.17285
0.27645999 0.14383 0.17344999
0.27522999 0.14377999 0.1744
0.33184001 0.11807 0.16512001
0.27649999 0.14408 0.17733
0.27616999 0.1434 0.17817999
0.27880001 0.14397 0.18048
0.27952 0.14438 0.17939
0.28080001 0.14419 0.17836
0.31161001 0.17174999 0.17222001
0.32491001 0.18724 0.21962
0.31854999 0.17061999 0.15409
0.31803 0.17084999 0.15299
0.33295 0.15775999 0.16247
0.28081 0.1455 0.17647
0.27516001 0.14324 0.18254
0.27627 0.14386 0.17598
0.27511001 0.1426 0.17687
0.27978 0.14365 0.18273
0.33581001 0.14294 0.15699001
0.27107 0.14256001 0.17292
0.27116999 0.14210001 0.17179
0.33484 0.14444999 0.15634
0.31432 0.19688 0.23904
0.31841001 0.17103 0.15233
0.32194 0.19227 0.22500999
0.31848001 0.19092999 0.22123
0.32060999 0.18972 0.21956
0.30875999 0.061602999 0.17578
0.33554 0.14490999 0.15676001
0.33125001 0.11505 0.16592
0.27568999 0.14286999 0.18109
0.27408001 0.1426 0.17821001
0.27864 0.14373 0.18377
0.26944 0.14286 0.18529999
0.32091999 0.18143 0.20223001
0.32016 0.18504 0.20990001
0.30956 0.17354 0.15900999
0.31073001 0.17284 0.15737
0.31046 0.18182001 0.20823
0.31114 0.18139 0.20668
0.31013 0.18103001 0.20755
0.32167 0.19013 0.22169
0.32113001 0.19059999 0.22228999
0.27937999 0.19396999 0.19302
0.31837001 0.083819002 0.17478999
0.33238 0.14545 0.14363
0.33008999 0.12112 0.16509999
0.27594 0.14329 0.17570999
0.31360999 0.19687 0.24292
0.31442001 0.19756 0.24213
0.27825001 0.14371 0.18633001
0.30107 0.064645 0.14586
0.30963999 0.17357001 0.16267
0.30889001 0.17312001 0.16098
0.30924001 0.17363 0.16066
0.31777 0.19081999 0.22547001
0.28814 0.14571001 0.18385001
0.28994 0.14657 0.18357
0.26865 0.14275999 0.18237001
0.27625 0.19525 0.1987
0.27401 0.14215 0.18429001
0.33480999 0.14673001 0.15706
0.27346 0.10103 0.22337
0.31463 0.19611 0.23672999
0.31406999 0.19655 0.23781
0.27757001 0.14398 0.17219
0.31088001 0.16534001 0.2075
0.27833 0.14308999 0.18579
0.29464999 0.062293001 0.16350999
0.31419 0.19157 0.23023
0.33316001 0.15042 0.16196001
0.33381999 0.1521 0.16238999
0.30393001 0.17263 0.16524
0.30423 0.17314 0.16396999
0.30489001 0.17369001 0.16315
0.30533001 0.17367999 0.16207001
0.30858999 0.17290001 0.1638
0.30408001 0.17363 0.16801
0.3019 0.17244001 0.16895001
0.30274999 0.17241 0.16924
0.32071999 0.18652999 0.21032
0.31397 0.19735 0.23984
0.27742001 0.14239 0.18801001
0.27697 0.14167 0.18863
0.27473 0.14214 0.18351001
0.27474001 0.14329 0.18119
0.27563 0.14386 0.17287
0.32337999 0.17004 0.15374
0.32304999 0.16944 0.15499
0.27390999 0.14274999 0.17948
0.31382 0.17361 0.15968999
0.31579 0.17238 0.16094001
0.30373001 0.1728 0.16776
0.30772999 0.17366999 0.16508
0.30711001 0.17228 0.16639
0.30785999 0.17317 0.1675
0.30577001 0.17298 0.1604
0.30515999 0.17246 0.15977
0.30647001 0.17331 0.17020001
0.30698001 0.17317 0.16915999
0.30634999 0.17296 0.17195
0.27781001 0.19510999 0.19563
0.33442 0.15652999 0.16133
0.33432999 0.14753 0.15782
0.33421999 0.1591 0.16128001
0.33394 0.13477001 0.14316
0.32626 0.094296999 0.16779999
0.33462 0.14748999 0.16177
0.30616 0.17219999 0.17346001
0.31801 0.17761 0.19322
0.31931999 0.17601 0.19220001
0.31736001 0.17713 0.19225
0.33101001 0.15233 0.14707001
0.31953001 0.17557 0.19097
0.25110999 0.11695 0.21246
0.25009 0.11778 0.21174
0.24966 0.11711 0.21247999
0.27695 0.19492 0.19528
0.27827999 0.19437 0.19391
0.27792999 0.19411001 0.19769999
0.27585 0.19537 0.1973
0.28253001 0.14567 0.17617001
0.28395 0.14545 0.17517
0.33360001 0.14912 0.15583999
0.27401999 0.14165001 0.18674
0.32038 0.17625999 0.19392
0.31957 0.17768 0.19420999
0.33254001 0.15095 0.1576
0.2825 0.14551 0.18046001
0.28314999 0.14543 0.17968
0.28299999 0.14487 0.17803
0.32778999 0.16898 0.17558999
0.33160999 0.15164 0.15696
0.32975999 0.16796 0.15786
0.33107001 0.15362 0.15659
0.3292 0.16955 0.17111
0.32844999 0.16968 0.16940001
0.33087 0.15449999 0.15718
0.33309999 0.13880999 0.17793
0.33241999 0.13889 0.17749
0.33265999 0.13849001 0.1789
0.28018999 0.19309001 0.19482
0.33118999 0.15604 0.15665001
0.27246001 0.1401 0.18838
0.33228999 0.15906 0.15679
0.28297001 0.14495 0.18197
0.2854 0.14641 0.17882
0.33226001 0.15926 0.15741999
0.33441001 0.16019 0.15685
0.25929999 0.18948001 0.21396001
0.30737001 0.054885 0.14584
0.30671999 0.056869999 0.14679
0.30818999 0.054738998 0.14697
0.25911 0.19954 0.21337999
0.25984001 0.2014 0.21527
0.29304999 0.070008002 0.16387001
0.28645 0.14607 0.17921001
0.31588 0.18866999 0.22293
0.31577 0.18870001 0.22143
0.31498 0.18784 0.22112
0.31560001 0.18876 0.22189
0.31525999 0.18901999 0.22329
0.28452 0.11638 0.20852
0.28159001 0.14475 0.18334
0.31417999 0.17269 0.1796
0.33529001 0.14704999 0.16235
0.26530999 0.20299 0.20407
0.32578 0.18826 0.22324
0.31604999 0.19032 0.22416
0.31608 0.18967 0.22293
0.2922 0.15004 0.1846
0.29837999 0.064871997 0.1487
0.26242 0.12034 0.21093
0.26304999 0.12199 0.21061
0.26227999 0.12176 0.20994
0.29765001 0.065085001 0.14918
0.30210999 0.10785 0.20646
0.30212 0.10667 0.20652001
0.26804999 0.14218 0.18358999
0.26666 0.14128999 0.18762
0.26886001 0.14129999 0.18683
0.31292 0.17112 0.22584
0.30798 0.17268001 0.15803
0.30952001 0.17317 0.15707999
0.30845001 0.17313001 0.16029
0.30522001 0.17396 0.16527
0.30695 0.17343999 0.16629
0.3073 0.17298999 0.16393
0.30634999 0.17392001 0.16757999
0.30554 0.17303 0.1638
0.31016001 0.059893999 0.1753
0.31931001 0.16966 0.22239999
0.32842001 0.11935 0.15876
0.33360001 0.14088 0.17802
0.31974 0.16971 0.1506
0.30770999 0.17323001 0.16249999
0.30511999 0.17306 0.16742
0.30638999 0.17417 0.16558
0.31985 0.17583001 0.19186001
0.32607001 0.18539999 0.21878999
0.32552999 0.18596999 0.22056
0.30583 0.17253 0.1699
0.30636999 0.17264 0.1638
0.30649999 0.1727 0.16150001
0.32537001 0.19042 0.22471
0.32481 0.19138999 0.22528
0.26784 0.20200001 0.20201001
0.21992999 0.13950001 0.19236
0.22081 0.13950001 0.19222
0.22164001 0.14005999 0.19137999
0.30805001 0.17295 0.16074
0.30572999 0.17216 0.16915999
0.20509 0.10712 0.20376
0.30486 0.17241 0.17069
0.30761999 0.17287 0.16106001
0.30755001 0.17273 0.15887
0.30695 0.1725 0.15900999
0.31088001 0.17274 0.17626999
0.28624001 0.098575003 0.20631
0.28712001 0.10006 0.20659
0.25839001 0.19867 0.21313
0.30496001 0.17298999 0.17033
0.30483001 0.17231999 0.16827001
0.30693999 0.054279 0.14622
0.30265 0.061919998 0.14568
0.31564 0.19066 0.22482
0.30592 0.058589 0.14811
0.3048 0.060111001 0.14721
0.32978001 0.14605001 0.18504
0.32916 0.14724 0.18436
0.32826 0.14597 0.18532
0.31722 0.19126999 0.22808
0.31648001 0.19181 0.22766
0.28556001 0.18991999 0.18975
0.32108 0.19608 0.23306
0.28402999 0.075726002 0.19743
0.28404999 0.075305 0.19751
0.2449 0.11552 0.21404999
0.24421 0.11496 0.21606
0.24568 0.11594 0.21528
0.27202001 0.19879 0.19577
0.31255001 0.17173 0.17545
0.32053 0.19617 0.23244999
0.30939999 0.060995001 0.17428
0.26978999 0.14135 0.18638
0.28437001 0.11894 0.20724
0.29120001 0.051996 0.20868
0.29021001 0.051493999 0.20702
0.31196001 0.17211001 0.17779
0.30509999 0.058508001 0.15731999
0.28464001 0.14482 0.17561001
0.27204999 0.14224 0.17781
0.30540001 0.057094999 0.15712
0.31944001 0.18718 0.21095
0.30756 0.17163999 0.15813001
0.31235 0.18344 0.20912001
0.31189001 0.18340001 0.20730001
0.31121001 0.18203001 0.20785999
0.30342001 0.060134001 0.15813001
0.32058999 0.16799 0.21206
0.32379001 0.19643 0.235
0.31900999 0.17745 0.19510999
0.31805 0.17971 0.19486
0.22766 0.12548999 0.20736
0.22637001 0.12503 0.20757
0.31999999 0.17761999 0.19465999
0.31908 0.17848 0.19569001
0.32262 0.17483 0.19868
0.32231 0.17584001 0.19863001
0.30206999 0.060904 0.1577
0.28514999 0.10246 0.2069
0.28667 0.10428 0.20737
0.28454 0.10211 0.20735
0.33006001 0.11855 0.17766
0.32940999 0.11813 0.17832001
0.31674999 0.19841 0.24188
0.33142999 0.10552 0.17628001
0.27846 0.13922 0.19417
0.27869999 0.13869999 0.19365001
0.30366999 0.17262 0.17122
0.30120999 0.075324997 0.17682
0.33035001 0.11574 0.17828
0.21264 0.13423 0.19133
0.2122 0.13494 0.18932
0.21207 0.13335 0.19004001
0.27805999 0.18922 0.20126
0.27930999 0.18821999 0.20107999
0.27947 0.18878999 0.20164999
0.31446001 0.15571 0.19182
0.26435 0.18392 0.20697001
0.29912001 0.062311001 0.1584
0.22394 0.14057 0.19193
0.22412001 0.13967 0.19241001
0.33179 0.15041 0.15029
0.28354001 0.11979 0.20697001
0.21315999 0.13412 0.19143
0.21344 0.13463999 0.19039001
0.21146999 0.13277 0.19069999
0.29787001 0.063271999 0.15842
0.28097999 0.097875997 0.20807999
0.28093001 0.099574 0.20787001
0.31242001 0.15054999 0.19217999
0.28698 0.10452 0.20772
0.28648001 0.10487 0.20773999
0.21421 0.13478 0.19241001
0.21461 0.13499001 0.19108
0.28663 0.14409 0.18588001
0.29572001 0.064603999 0.15849
0.29420999 0.066257998 0.15782
0.27583 0.061763 0.21421
0.32883999 0.098595999 0.17625999
0.21491 0.13541 0.19092999
0.28119001 0.065264001 0.20166001
0.27781999 0.13596 0.19772001
0.27913001 0.13551 0.19741
0.30926001 0.1829 0.21572
0.27990001 0.057845999 0.21641999
0.28024 0.057429999 0.2159
0.21607 0.13564 0.19286001
0.21591 0.13641 0.19168
0.21615 0.13694 0.18912999
0.21554001 0.13673 0.18946999
0.21583 0.13789999 0.18865
0.21504 0.13776 0.18825001
0.28799 0.14711 0.18053
0.26783001 0.20156001 0.20299999
0.22589 0.14297999 0.18942
0.22618 0.14248 0.18961
0.30384001 0.060706999 0.15672
0.28815001 0.062143002 0.20036
0.28703001 0.062792003 0.19950999
0.28636 0.062940001 0.20122001
0.21639 0.13664 0.19276001
0.21686999 0.13686 0.19162001
0.21667001 0.13795 0.18951
0.21663 0.13771001 0.18837
0.21610001 0.13846999 0.18700001
0.26728001 0.20119999 0.20424999
0.28470001 0.14484 0.18754999
0.21731 0.13747001 0.19106001
0.28468999 0.12088 0.20588
0.29398 0.066662997 0.15819
0.31415001 0.16656999 0.22328
0.33342001 0.14281 0.17612
0.33381 0.14048 0.17792
0.22801 0.12426 0.20795
0.22940999 0.12344 0.20855001
0.31654999 0.19822 0.24214999
0.31613001 0.19735 0.24201
0.31521001 0.19815999 0.24196
0.32662001 0.16438 0.17986999
0.31287 0.19652 0.24252
0.31518 0.17535 0.18894
0.33346999 0.13986 0.17681
0.21922 0.13868999 0.19232
0.21929 0.13831 0.19018
0.21829 0.13845 0.18964
0.31329 0.16564 0.21697
0.31242999 0.16606 0.21592
0.22034 0.139 0.19137
0.21856999 0.13715 0.191
0.21983001 0.14052001 0.18944
0.21902999 0.13914999 0.18803
0.21983001 0.14127 0.1884
0.21955 0.13917001 0.18852
0.32611001 0.1008 0.15613
0.32642999 0.10056 0.15638
0.27063999 0.20009001 0.20101
0.27162001 0.19835 0.20055
0.31114 0.1838 0.21438999
0.31121001 0.18392 0.21484999
0.31979999 0.16695 0.22088
0.31790999 0.16520999 0.2202
0.31753999 0.16500001 0.21791001
0.22059 0.13775 0.19392
0.22138999 0.141 0.18978
0.2211 0.14139999 0.18867999
0.22118001 0.14188001 0.18746001
0.22092 0.14102 0.18703
0.31355 0.18444 0.21191999
0.31266001 0.18478 0.21066999
0.31191 0.18279 0.21159001
0.28360999 0.12305 0.20632
0.24766999 0.1152 0.21654999
0.24778999 0.11437 0.21809
0.24812999 0.11428 0.21766999
0.31048 0.1723 0.22402
0.22278 0.14230999 0.18795
0.22202 0.14213 0.18801001
0.22213 0.14269 0.18568
0.32464001 0.18700001 0.21788999
0.30206001 0.064386003 0.17653
0.30296999 0.063928999 0.17732
0.30382001 0.062786996 0.17432
0.2227 0.14226 0.18899
0.2235 0.14182 0.18667001
0.22311001 0.14313 0.18605
0.22314 0.14372 0.18515
0.222 0.14302 0.18415
0.29402 0.068322003 0.15832999
0.31615001 0.18266 0.20172
0.31637999 0.18190999 0.20015
0.31571999 0.18201999 0.19989
0.27867001 0.12441 0.2052
0.32411999 0.19302 0.22904
0.29288 0.068222001 0.15448999
0.23129 0.10522 0.22040001
0.23017 0.10591 0.21855
0.23071 0.1039 0.21912999
0.22341999 0.14369 0.18811999
0.22385 0.14238 0.18979999
0.22372 0.14398 0.18714
0.22378001 0.14353999 0.18453
0.2238 0.14342999 0.18393999
0.28415 0.12396 0.20570999
0.27386999 0.19510999 0.20185
0.27375001 0.19445001 0.20243999
0.27465999 0.19582 0.20039999
0.22441 0.1429 0.18790001
0.22464 0.14354999 0.18638
0.22508 0.14397 0.18536
0.22566 0.14395 0.18434
0.22592001 0.14441 0.18279999
0.22418 0.14408 0.18192001
0.31062001 0.15945999 0.19441
0.28345001 0.1261 0.20552
0.27742001 0.076704003 0.20003
0.21556 0.091845997 0.21246
0.22337 0.14307 0.1909
0.29708999 0.065098003 0.14624
0.29725 0.064781003 0.14474
0.32473001 0.19371 0.23254
0.32477 0.19334 0.23288
0.32493001 0.19379 0.23135
0.32569 0.19158 0.23081
0.32639 0.19309001 0.23152
0.30385 0.056614999 0.14162
0.30395001 0.056184001 0.14278001
0.3037 0.055001002 0.14183
0.30500999 0.054947 0.1426
0.30432999 0.053286001 0.14278001
0.30208001 0.060015999 0.14306
0.30306 0.059803002 0.14341
0.32427999 0.19433001 0.22996999
0.28439 0.12718 0.20461001
0.30337 0.058844998 0.14410999
0.30416 0.059223 0.14227
0.30412 0.057743002 0.1436
0.30364001 0.057912 0.14204
0.31900001 0.15428001 0.18983001
0.28518999 0.12474 0.20524999
0.28437001 0.12429 0.2057
0.27897999 0.067282997 0.19694
0.3154 0.14406 0.19268
0.31659001 0.14608 0.19188
0.31999001 0.17286 0.18756001
0.30508 0.056382999 0.14537001
0.32968 0.16776 0.15808
0.3091 0.079337001 0.18571
0.29471001 0.067174003 0.19309001
0.29392999 0.067745 0.19388001
0.29086 0.067538001 0.14905
0.33085999 0.15176 0.14281
0.33050999 0.15028 0.14279
0.30373001 0.059829 0.14511999
0.30443001 0.059795 0.14670999
0.30432999 0.058864001 0.14601
0.29466999 0.068824001 0.19289
0.32868001 0.14187001 0.18572
0.32911 0.14148 0.18714
0.32765999 0.14057 0.18667001
0.20972 0.1025 0.20905
0.21116 0.10098 0.2098
0.31277001 0.10588 0.20276
0.32025999 0.16605 0.21501
0.32025999 0.16813 0.21512
0.26063001 0.19822 0.21533
0.26003 0.19746999 0.21557
0.26135001 0.19859999 0.21468
0.29663 0.056301001 0.19667999
0.31957 0.10856 0.19807
0.32001999 0.10888 0.19715001
0.30443999 0.058467001 0.14453
0.31908 0.16989 0.22448
0.30524999 0.057652 0.14514001
0.30572 0.057590999 0.14548001
0.29982999 0.095164001 0.20544
0.29837 0.095666997 0.20464
0.32545999 0.18532 0.22048999
0.32508999 0.18511 0.21933
0.29925001 0.082607999 0.19475
0.27869999 0.19086 0.19989
0.27886999 0.19163001 0.20026
0.25812 0.19518 0.21674
0.25909999 0.19508 0.21702
0.32541001 0.18448 0.21828
0.30059001 0.082849003 0.19517
0.30385 0.080904 0.19171
0.30333 0.083145 0.19411001
0.30368 0.081164002 0.19208001
0.29717001 0.059347 0.13896
0.32519001 0.18497001 0.21685
0.32339001 0.18554001 0.21539
0.25446999 0.12226 0.21206
0.25497001 0.12214 0.21134999
0.25466001 0.1229 0.21076
0.31062001 0.11297 0.20092
0.22743 0.11407 0.21321
0.30072999 0.099674001 0.20665
0.30091 0.10107 0.20599
0.30008 0.099969998 0.20586
0.32462999 0.18479 0.21457
0.25075001 0.11938 0.21180999
0.32054999 0.18015 0.20017
0.22091 0.10197 0.21518999
0.22086 0.10367 0.21462999
0.21924999 0.10185 0.21346
0.32069001 0.16648 0.21266
0.25797999 0.1952 0.21754999
0.30925 0.11355 0.20205
0.30127001 0.075686 0.18409
0.30125001 0.076476 0.18482
0.30871001 0.14638001 0.19272999
0.31211999 0.11443 0.20031001
0.31084999 0.11588 0.20022
0.32392001 0.18222 0.21106
0.32034001 0.17754 0.19631
0.31093001 0.117 0.20056
0.27261001 0.19365001 0.20535
0.27366 0.1935 0.20446
0.30478999 0.13971999 0.19327
0.30434999 0.14025 0.19272999
0.3037 0.14045 0.19220001
0.27555001 0.18366 0.20276999
0.25865 0.19194999 0.21588001
0.32251 0.18284 0.20941
0.32394999 0.18275 0.20992
0.30677 0.056876 0.14743
0.30695 0.056247 0.14797001
0.32231 0.18302999 0.20949
0.31452 0.19046 0.24248999
0.31448001 0.19178 0.24349999
0.31369001 0.19140001 0.24459
0.30145001 0.058208998 0.14059
0.30012 0.058370002 0.13978
0.30122 0.060238998 0.14183
0.27631 0.10723 0.21238001
0.31867 0.15915 0.18967
0.31928 0.15764 0.19050001
0.31411999 0.10719 0.20011
0.27158001 0.19375999 0.20455
0.27189001 0.1953 0.20422
0.2714 0.19512001 0.20614
0.32119 0.18084 0.20397
0.29890001 0.070716001 0.19117001
0.29708001 0.071765997 0.19231001
0.28053999 0.080700003 0.19930001
0.31095001 0.15342 0.19160999
0.32214001 0.17972 0.20232999
0.32257 0.17997999 0.20375
0.32258001 0.17783999 0.20316
0.28101 0.19052 0.19839001
0.31838 0.11695 0.19603001
0.31894001 0.11773 0.19587
0.31852999 0.11856 0.1965
0.32137999 0.17981 0.20118
0.27296001 0.097668 0.22352999
0.30772999 0.11285 0.20238
0.30976 0.11221 0.20263
0.30756 0.11398 0.20176999
0.32199001 0.17914 0.20055
0.32126999 0.17997999 0.20034
0.32216001 0.17885999 0.19936
0.32043999 0.17039999 0.18543001
0.3215 0.17752001 0.19843
0.32067001 0.17839 0.1983
0.32133999 0.17641 0.19671001
0.30101001 0.076587997 0.18689001
0.30127001 0.077160999 0.18646
0.26550001 0.050379001 0.21098
0.26620001 0.049957 0.21070001
0.26502001 0.050634 0.2129
0.31619 0.051763002 0.1813
0.31781 0.053467002 0.18161
0.31641999 0.051982999 0.18306001
0.32690999 0.16613001 0.15237001
0.32576999 0.16722 0.15031999
0.27173001 0.19295 0.20588
0.30831 0.16804001 0.21218
0.32137001 0.17618001 0.19367
0.32159001 0.17459001 0.19287001
0.32260001 0.17230999 0.19645
0.30855 0.12535 0.19914
0.30763 0.12537 0.20004
0.30904999 0.10934 0.20364
0.30792999 0.11045 0.20242999
0.31301001 0.099146999 0.20124
0.31277001 0.099441998 0.20175
0.30259001 0.076197997 0.18188
0.30192 0.075588003 0.18238001
0.30208999 0.075381003 0.18138
0.30833 0.11641 0.20196
0.30825999 0.11481 0.20200001
0.32113999 0.17273 0.19402
0.32155001 0.17298 0.19401
0.32163 0.17147 0.19332001
0.32043999 0.17352 0.19166
0.32133999 0.17402001 0.1929
0.32451001 0.18474001 0.21601
0.26462001 0.1243 0.20967001
0.26418 0.12449 0.20953999
0.29133999 0.051777001 0.20433
0.29143 0.052352 0.20455
0.29100999 0.050783999 0.2051
0.27432001 0.095962003 0.22251999
0.27609 0.095962003 0.22179
0.2762 0.097533002 0.22074001
0.27621999 0.1132 0.21009
0.31244001 0.10347 0.20181
0.31459001 0.10377 0.20096999
0.28575999 0.096646003 0.20495
0.28589001 0.097759001 0.20661999
0.28514001 0.097662002 0.20565
0.30035001 0.097741 0.20652001
0.29822999 0.070041999 0.18986
0.30476001 0.12073 0.20291001
0.30528 0.12291 0.20282
0.30281001 0.12252 0.20342
0.29815 0.079056002 0.19309001
0.29363 0.12712 0.20308
0.29153001 0.12699001 0.20442
0.28911 0.18546 0.18333
0.28828001 0.18697 0.18524
0.28902 0.18641999 0.18584999
0.31259 0.16198 0.20276
0.30206001 0.060054999 0.14199001
0.3012 0.061764002 0.14269
0.30245 0.05872 0.14145
0.30309001 0.058143999 0.14332999
0.30386001 0.060593002 0.14454
0.32126999 0.17151999 0.19236
0.32212999 0.17089 0.19317999
0.32097 0.17541 0.19183999
0.3206 0.1732 0.19131
0.28184 0.053652 0.14327
0.28343001 0.055998001 0.14285
0.25821999 0.050494999 0.20675001
0.21622001 0.096028 0.21321
0.21642999 0.094442002 0.21321
0.2175 0.093948998 0.21391
0.29824001 0.054974999 0.19643
0.29910001 0.054076999 0.19489001
0.29945999 0.05542 0.19536
0.27686 0.10729 0.21083
0.30921999 0.096170001 0.20219
0.30893001 0.096437 0.20405
0.30713001 0.095012002 0.20266999
0.27519 0.18686999 0.20318
0.27634001 0.1081 0.21109
0.27684999 0.11149 0.21007
0.30278999 0.12029 0.20334999
0.31277999 0.10255 0.20145001
0.31378999 0.10224 0.20148
0.26778001 0.19673 0.20919
0.26773 0.1981 0.20855001
0.28786001 0.10797 0.20803
0.28777999 0.1082 0.20853999
0.28701001 0.10562 0.20824
0.32183 0.17222001 0.19109
0.32516 0.096969999 0.15657
0.30037001 0.15328 0.18862
0.28538999 0.052521002 0.14119001
0.25893 0.050949 0.21157999
0.25907999 0.050855 0.21214999
0.25909999 0.051855002 0.214
0.29238001 0.068956003 0.1523
0.29909 0.063992001 0.14475
0.30034 0.063054003 0.14323001
0.31755999 0.17112 0.23122001
0.31806999 0.17156 0.23024
0.31251001 0.14476 0.19346
0.32082999 0.17213 0.19006
0.28692001 0.18858001 0.18984
0.27340001 0.090455003 0.22194999
0.27304 0.089431003 0.22326
0.31948999 0.15452 0.18997
0.30706 0.056407001 0.14877
0.30720001 0.056828 0.14972
0.30757001 0.056031998 0.15128
0.30655 0.057677999 0.15078001
0.30750999 0.053872 0.14859
0.30849001 0.054363001 0.15037
0.30616999 0.057184 0.15253
0.30805999 0.052866001 0.1522
0.30741 0.051321 0.15097
0.30759001 0.052724 0.1495
0.27524 0.089024 0.22069
0.27502999 0.089777 0.22169
0.27379999 0.088922001 0.22188
0.30552 0.053856999 0.1435
0.30478001 0.056278002 0.14375
0.30473 0.057456002 0.14396
0.30078 0.12974 0.20117
0.30223 0.1287 0.20175999
0.32504001 0.15287 0.13546
0.32387 0.15141 0.13503
0.32466 0.15419 0.13581
0.27092999 0.18881001 0.20558999
0.32729 0.14453 0.18708999
0.31873 0.10972 0.19799
0.21641999 0.13499001 0.19518
0.28558999 0.057833999 0.21201
0.28345999 0.058894001 0.21362001
0.31891999 0.17199001 0.18536
0.32043001 0.17055 0.18671
0.27116001 0.18972 0.2058
0.25986001 0.053217001 0.21403
0.28522 0.093303002 0.20476
0.31494999 0.17636999 0.23977
0.27278 0.086180001 0.22218999
0.27388999 0.085836999 0.22005001
0.27340999 0.087458 0.22119001
0.27243999 0.085436001 0.22101
0.31400999 0.19334 0.24332
0.31316999 0.19193 0.24429999
0.25242001 0.11822 0.21224
0.30638999 0.056965001 0.1534
0.30684 0.056593999 0.15444
0.30743 0.055627 0.15406001
0.30711001 0.055199999 0.15256
0.30835 0.054324999 0.15198
0.30829 0.054122001 0.15159
0.30772999 0.052905999 0.15271001
0.30686 0.052014999 0.1547
0.30787 0.051835999 0.153
0.27322999 0.098705001 0.22408
0.27373999 0.099855997 0.22292
0.30987999 0.14788 0.19264001
0.30333 0.055158 0.19428
0.28839001 0.096956 0.2051
0.28766999 0.098362997 0.20685001
0.28788999 0.097425997 0.20630001
0.28740999 0.082350999 0.20054001
0.26431999 0.055080999 0.20491
0.32385001 0.14304 0.13258
0.32418999 0.14235 0.13260999
0.32374999 0.14121 0.13334
0.32337999 0.15697999 0.13835999
0.32339999 0.1567 0.13931
0.32475999 0.15704 0.13916001
0.27956 0.094664998 0.20811
0.31681001 0.094218001 0.19631
0.31748 0.095948003 0.19663
0.30946001 0.13538 0.19341999
0.30946001 0.13553999 0.19354001
0.30862001 0.13719 0.19278
0.2859 0.065664999 0.19621
0.28766 0.065234996 0.19681001
0.31062999 0.091799997 0.20058
0.32708001 0.14607 0.18695
0.31092 0.18466 0.22051001
0.31083 0.18468 0.21946999
0.26945999 0.10453 0.22439
0.26986 0.10636 0.22386
0.26857999 0.10571 0.22490001
0.32655001 0.13497999 0.18551999
0.27717999 0.10903 0.21043
0.30796999 0.10572 0.20238
0.30908999 0.10595 0.20272
0.30809999 0.10757 0.20291001
0.25148001 0.12671 0.21047001
0.25286999 0.12499 0.21087
0.25371 0.12673 0.21035001
0.315 0.19121 0.24305999
0.31501999 0.053874001 0.18172
0.31589001 0.054156002 0.1823
0.31898999 0.085761003 0.18081
0.31837001 0.086020999 0.1822
0.33342999 0.1594 0.15494999
0.33199 0.16185001 0.1541
0.33357999 0.16169 0.15644
0.31470001 0.055482 0.18134999
0.28643 0.083630003 0.2017
0.28608999 0.083564997 0.20108999
0.31402001 0.057041001 0.18234999
0.31382999 0.058242001 0.18288
0.31623 0.17539001 0.23819999
0.31485 0.17339 0.23703
0.27711999 0.12251 0.20738
0.31316999 0.10891 0.20045
0.31235 0.10978 0.20018999
0.32844001 0.14032 0.13501
0.32646999 0.14153001 0.13524
0.32844999 0.14179 0.13635001
0.32865 0.14089 0.18577
0.32313001 0.15937001 0.13987
0.32398999 0.16047999 0.14094999
0.32370001 0.16005 0.14155
0.27463001 0.19365001 0.20281
0.27188 0.082552001 0.22093999
0.27191001 0.083867997 0.22203
0.27103001 0.082404003 0.21988
0.24709 0.051072001 0.20853999
0.24843 0.050221998 0.20949
0.32361001 0.15082 0.13394
0.31545001 0.054407999 0.17963
0.31641001 0.052655999 0.18102001
0.31448999 0.056315999 0.18010999
0.31395999 0.057057001 0.18063
0.22195999 0.075938001 0.21567
0.22144 0.076817997 0.21535
0.31028 0.12022 0.20026
0.32888001 0.14022 0.13546
0.32728001 0.14014 0.13512
0.28415999 0.066532999 0.1971
0.28467 0.067685999 0.19662
0.31051999 0.14962 0.19185001
0.27495 0.092584997 0.22220001
0.2757 0.092501998 0.22064
0.30393001 0.12399 0.20223001
0.30373001 0.12362 0.20283
0.29118001 0.12315 0.20441
0.22175001 0.11242 0.21218
0.22161999 0.11399 0.21189
0.22103 0.11403 0.21141
0.29749 0.065122999 0.1468
0.28073001 0.066142999 0.19864
0.31332001 0.18917 0.24469
0.31224 0.17734 0.24188
0.27046001 0.11486 0.21149001
0.28448001 0.068190001 0.19662
0.31615999 0.054694999 0.1781
0.31512001 0.053704001 0.17986
0.31536001 0.051557999 0.17974
0.31415999 0.056019999 0.17924
0.31380999 0.057085998 0.18012001
0.31274 0.058921002 0.17926
0.30834001 0.10305 0.20319
0.30851999 0.10331 0.20299999
0.30761001 0.10503 0.20299
0.32666999 0.14385 0.18792
0.3087 0.13530999 0.19302
0.28387001 0.070349999 0.19746999
0.32706001 0.14207999 0.13466001
0.30750999 0.054327998 0.15563001
0.22243001 0.11407 0.21231
0.22287001 0.11297 0.21247999
0.30781001 0.053468 0.15489
0.30823001 0.054295 0.15673999
0.30728 0.051828999 0.15851
0.30581 0.051472999 0.15949
0.30654001 0.051869001 0.15807
0.25997999 0.052554999 0.21465001
0.30737999 0.052540001 0.15581
0.29297999 0.11001 0.20693
0.29288 0.11044 0.20654
0.29212999 0.10779 0.20759
0.32418001 0.14068 0.13334
0.32480001 0.14012 0.13326
0.27958 0.059873 0.21486001
0.32495999 0.15275 0.18566
0.32672 0.15339001 0.18540999
0.32620001 0.15453 0.18469
0.28349999 0.071314998 0.19694
0.32699001 0.14836 0.13455001
0.32728001 0.14816 0.13575
0.32657999 0.14669 0.13536
0.30610001 0.057154 0.14889
0.24935 0.12465 0.21066
0.24871001 0.12571999 0.21032
0.27610999 0.057507001 0.21575999
0.31213 0.056028999 0.18640999
0.31290999 0.057178002 0.18553001
0.31118 0.057179 0.18576001
0.28637001 0.11574 0.20733
0.28510001 0.11661 0.20782
0.28549999 0.11713 0.20751999
0.27709001 0.056880001 0.21724001
0.31533 0.05424 0.17617001
0.31556001 0.052958 0.17614999
0.31538001 0.056839 0.17682999
0.31400001 0.057746999 0.17844
0.32148001 0.11528 0.19402
0.27756 0.070046999 0.19735
0.32113001 0.093939997 0.19203
0.32080001 0.095519997 0.19231001
0.32622001 0.14888 0.13547
0.32547 0.15147001 0.13609999
0.32753 0.14887001 0.13635001
0.28380999 0.073126003 0.19731
0.23525999 0.12715 0.20939
0.32606 0.15364 0.13816001
0.32767999 0.15385 0.13842
0.32718 0.15192001 0.13826001
0.32769999 0.14923 0.13653
0.32703999 0.15092 0.13738
0.32844001 0.14921001 0.13827001
0.32662001 0.1521 0.13733999
0.32799 0.15059 0.13811
0.32626 0.15501 0.13917001
0.32696 0.15464 0.13811
0.32795 0.14744 0.13679001
0.27200001 0.059532002 0.21574999
0.30691999 0.14910001 0.19148999
0.31784001 0.10884 0.19821
0.32562 0.14776 0.13406999
0.32652 0.14663 0.13494
0.24391 0.11816 0.21089
0.22 0.077542998 0.21422
0.27827999 0.077368997 0.20134
0.27799001 0.079369999 0.20066001
0.31555 0.052607 0.17506
0.31483999 0.055654 0.17589
0.31448999 0.057250001 0.17631
0.31406 0.058184002 0.17648999
0.31367001 0.058343001 0.17761
0.27358001 0.12247 0.20925
0.29076999 0.054016002 0.20818999
0.28404999 0.078331999 0.19817001
0.2854 0.078904003 0.19848
0.32837999 0.14854001 0.13711999
0.32879001 0.14583001 0.13728
0.28521001 0.075649999 0.19751
0.28760001 0.077440999 0.19760001
0.28687 0.078941002 0.19887
0.28674001 0.079148002 0.19946
0.29651001 0.10257 0.20720001
0.29548001 0.10167 0.20683999
0.29523 0.10089 0.20708001
0.31248999 0.060221002 0.17791
0.32699001 0.13333 0.18404
0.32684001 0.12962 0.18305001
0.28466001 0.080532998 0.19971
0.30684 0.054326002 0.15886
0.30688 0.053183999 0.15891001
0.32663 0.14236 0.13530999
0.32714999 0.14382 0.1346
0.3276 0.14404 0.13592
0.31428999 0.055392999 0.17477
0.3141 0.056187 0.17539001
0.3134 0.057410002 0.17625
0.31287 0.060081001 0.17665
0.28534999 0.082222998 0.20036
0.28380999 0.084025003 0.19987001
0.3105 0.14775001 0.19292
0.32624999 0.15056001 0.13635001
0.32833999 0.14717001 0.13627
0.21977 0.081165001 0.21389
0.27019 0.069861002 0.21382
0.31397 0.051336002 0.17478
0.31472 0.051729001 0.17686
0.30603999 0.056290001 0.14579
0.28455001 0.084564 0.2014
0.30669001 0.052386001 0.15643001
0.32370001 0.15556 0.13635001
0.32464001 0.15433 0.13767999
0.28521001 0.08602 0.20221999
0.30726001 0.052285999 0.14762001
0.30737001 0.054035001 0.14792
0.28435001 0.088226996 0.20318
0.31399 0.053252 0.17346001
0.31354001 0.055048 0.17432
0.31338999 0.056462001 0.17467
0.31251001 0.057321999 0.1752
0.31152999 0.059615999 0.1758
0.32196 0.14538001 0.13146
0.32258999 0.14548001 0.13108
0.32266 0.14432 0.13181999
0.28843001 0.1257 0.20494001
0.29019001 0.12481 0.20448001
0.29014999 0.1265 0.2042
0.28474 0.089226 0.20269001
0.32964 0.10766 0.15762
0.32962999 0.10899 0.15716
0.32954001 0.11059 0.15714
0.32978001 0.1105 0.15808
0.32899001 0.11167 0.15704
0.32982001 0.11453 0.15752
0.32960999 0.1142 0.15818
0.32931 0.11598 0.15813001
0.32269001 0.12143 0.19009
0.33284 0.12973 0.16596
0.30587 0.059377 0.15276
0.31417999 0.097273 0.20118999
0.30688 0.058557998 0.14669999
0.32652 0.15197 0.13700999
0.28503001 0.091007002 0.20385
0.33215001 0.16354001 0.15648
0.31237 0.056619 0.17415
0.31233001 0.057286002 0.17478
0.31147 0.058758002 0.17466
0.30630001 0.057944998 0.14732
0.26282999 0.1762 0.19739
0.32909 0.10641 0.1576
0.32833001 0.10848 0.15686999
0.32844001 0.10942 0.15669
0.32903001 0.11079 0.15651999
0.32894 0.11263 0.15701
0.32839 0.11318 0.15701
0.32854 0.1141 0.15696999
0.32889 0.1156 0.15802
0.32874 0.11778 0.15801001
0.31239 0.05195 0.17274
0.31184 0.052370001 0.17186999
0.31158999 0.054094002 0.17178001
0.32293001 0.15546 0.13770001
0.33232 0.16325 0.15527999
0.33182999 0.16281 0.15535
0.33298999 0.15951 0.15612
0.33127001 0.16402 0.15541001
0.31253999 0.054935001 0.17265999
0.31130001 0.056343999 0.17386
0.31079999 0.058279999 0.17447001
0.31009001 0.058869001 0.17463
0.26203001 0.054988001 0.2033
0.26277 0.055813 0.20374
0.26295999 0.055328999 0.2057
0.32120001 0.092201002 0.19066
0.32034999 0.090838999 0.19064
0.32080001 0.090728 0.18945
0.31920001 0.11973 0.19416
0.32822001 0.13799 0.13533001
0.32929 0.13813999 0.13569
0.32892999 0.13708 0.1355
0.32831001 0.13733999 0.13581
0.32855001 0.10752 0.15581
0.32855001 0.10874 0.15594999
0.32876 0.11008 0.1557
0.32898 0.1123 0.15602
0.32820001 0.11363 0.15605
0.32868999 0.11403 0.15617
0.32881999 0.11663 0.15657
0.32771999 0.11752 0.15701
0.32754001 0.11882 0.15673999
0.28523999 0.096602999 0.20548999
0.30818 0.10506 0.20343
0.33230999 0.16060001 0.15395001
0.33103999 0.16281 0.15436
0.33151999 0.16412 0.15471999
0.31182 0.054526001 0.17263
0.31141001 0.05514 0.17276999
0.31141001 0.056101002 0.17251
0.31064999 0.058006 0.1733
0.3096 0.059002001 0.17389999
0.31836 0.16974001 0.22905999
0.28494 0.10413 0.20745
0.22186001 0.14139 0.18988
0.28501999 0.068865001 0.19767
0.32844001 0.13618 0.13519999
0.32934001 0.13523 0.13518
0.32811999 0.13435 0.13595
0.32784 0.11432 0.15555
0.32751 0.11175 0.15467
0.3274 0.11508 0.15532
0.32694 0.11664 0.15573999
0.32655001 0.11742 0.15504999
0.32627001 0.1188 0.15639
0.32679 0.11987 0.15718
0.33158001 0.16181 0.15389
0.32965001 0.1646 0.15419
0.32997 0.16593 0.15457
0.32427999 0.18444 0.21348999
0.30983999 0.057099 0.17161
0.30976999 0.057744998 0.17331
0.28523999 0.10454 0.20875999
0.27335 0.088486999 0.22262999
0.28523001 0.10721 0.20974
0.32694 0.11564 0.15465
0.32633999 0.11744 0.15549
0.32646 0.11847 0.15615
0.32594001 0.11959 0.1564
0.28532001 0.10869 0.20897
0.33052 0.16213 0.15271001
0.32931 0.16439 0.15253
0.32910001 0.1647 0.15372001
0.32791999 0.16675 0.15408
0.30834001 0.057365 0.17147
0.30223 0.056297999 0.14178
0.30383 0.054469999 0.14091
0.28972 0.050788 0.20788001
0.32016999 0.093065999 0.19187
0.32571 0.10119 0.15601
0.3256 0.1188 0.15512
0.3247 0.12035 0.15473001
0.32534999 0.12186 0.1549
0.30825999 0.052921999 0.15169001
0.29775 0.076784998 0.1929
0.29699999 0.076828003 0.19416
0.27169001 0.053578999 0.21675
0.27105001 0.053369999 0.21686
0.2714 0.052227002 0.21584
0.28628999 0.11014 0.20918
0.32925999 0.16418999 0.15188
0.32894 0.16571 0.15231
0.32714 0.16696 0.15369999
0.30774999 0.059149001 0.17134
0.30686 0.059918001 0.17363
0.30612001 0.061928999 0.17380001
0.3053 0.063189998 0.17558999
0.30210999 0.058093999 0.14059
0.23382001 0.11922 0.21177
0.23265 0.11722 0.2123
0.31496999 0.19165 0.24318001
0.31568 0.19137999 0.24189
0.30109 0.065223001 0.17753001
0.30012 0.067417003 0.17580999
0.29078999 0.18458 0.18403
0.31845 0.090108 0.19137
0.31667 0.088412002 0.19111
0.31740001 0.088462003 0.19024999
0.28518 0.11062 0.2087
0.32503 0.098424003 0.15406001
0.32446 0.098633997 0.15515
0.32510999 0.1003 0.15374
0.32561001 0.10089 0.15443
0.32458001 0.10144 0.15339001
0.32488 0.12079 0.15425999
0.32530001 0.12136 0.15509
0.32457 0.12269 0.15498
0.28593999 0.11255 0.20882
0.32934999 0.1627 0.1504
0.32872 0.16429 0.15135001
0.32888001 0.16516 0.15199
0.30882999 0.051082999 0.17016999
0.30926001 0.052301001 0.16915999
0.30996999 0.051631 0.17038999
0.30721 0.059002999 0.17151999
0.30480999 0.061687 0.17363
0.31163999 0.088904999 0.19712
0.31571001 0.19345 0.24308001
0.32491001 0.18325 0.21277
0.31165001 0.1415 0.19304
0.31261 0.14059 0.19227
0.31143999 0.14244001 0.19286001
0.2367 0.12706999 0.20968001
0.23676001 0.12905 0.20922001
0.23634 0.12783 0.20867001
0.27042001 0.18061 0.20445
0.32492 0.097450003 0.15598001
0.32369 0.096795 0.15346
0.32347 0.098999001 0.15386
0.32368001 0.10009 0.1532
0.32440001 0.10159 0.15270001
0.32444 0.12095 0.15363
0.32389 0.12023 0.15379
0.32378 0.12276 0.15396
0.26615 0.20268001 0.20541
0.26548001 0.20355 0.20418
0.31141001 0.059654001 0.18038
0.31154001 0.059464 0.17904
0.32857001 0.16298001 0.14947
0.33056 0.16165 0.15013
0.32824999 0.16461 0.14966001
0.32771 0.16576 0.1506
0.28512999 0.11816 0.20734
0.30148 0.1539 0.18895
0.30513 0.059811 0.17186999
0.30326 0.062302999 0.17291
0.30318001 0.062027998 0.17429
0.30142999 0.064613998 0.17545
0.30881 0.052654002 0.16814999
0.28498 0.11989 0.20648
0.30779999 0.04978 0.19182999
0.21878999 0.098122001 0.214
0.21988 0.096323997 0.21527
0.21997 0.097848997 0.21547
0.30827999 0.050354999 0.19205999
0.27906001 0.12531 0.20543
0.31178001 0.11698 0.20006
0.2527 0.10633 0.22441
0.25292 0.10633 0.22462
0.30623999 0.15806 0.19104999
0.30598 0.15707999 0.19070999
0.22535001 0.11217 0.21328001
0.22578999 0.11196 0.21354
0.31051999 0.14662001 0.19304
0.31652999 0.14973 0.19135
0.32341999 0.096258 0.15484001
0.28284001 0.065444 0.20129
0.28306001 0.064614996 0.20309
0.30208001 0.077298999 0.18640999
0.28494999 0.12091 0.20619
0.27666 0.18469 0.20397
0.28527001 0.12271 0.20603999
