# .PCD v0.7 - Point Cloud Data file format
VERSION 0.7
FIELDS x y z
SIZE 4 4 4
TYPE F F F
COUNT 1 1 1
WIDTH 1546
HEIGHT 1
VIEWPOINT 0 0 0 1 0 0 0
POINTS 1546
DATA ascii
0.11861 -0.034644 0.23103
0.074803002 -0.032768 0.25362
0.16250999 -0.033119999 0.20973
0.11857 -0.033534002 0.23116
0.10781 -0.033482 0.23717999
0.1144 -0.031962 0.23434
0.10797 -0.032868002 0.23706999
0.058768999 -0.032605 0.26269999
0.026598001 -0.033045001 0.27889001
0.16191 -0.032823 0.20929
0.11204 -0.031806 0.23605999
0.10929 -0.031955998 0.23713
0.05675 -0.032051999 0.26413
0.055378001 -0.031447001 0.26436001
0.076545 -0.031539999 0.25400999
0.11082 -0.030324001 0.23553
0.10996 -0.031112 0.23609
0.025695 -0.030917 0.27785999
0.12043 -0.030665001 0.23011
0.054524001 -0.030445 0.26460001
0.054010998 -0.031916 0.26460001
0.052712999 -0.029526999 0.26493999
0.076415002 -0.028951 0.25547001
0.051615998 -0.030143 0.26567999
0.051086999 -0.029638 0.26525
0.1621 -0.029362001 0.20911001
0.16156 -0.030160001 0.21043999
0.12224 -0.028551999 0.23021001
0.024871999 -0.029022001 0.27880999
0.12372 -0.027927 0.22919001
0.049782999 -0.029281 0.26747
0.16244 -0.028441999 0.21021999
0.16148999 -0.027364001 0.21008
0.12353 -0.028626001 0.22894
0.16161001 -0.027782001 0.20994
0.16167 -0.027114 0.20943999
0.048172999 -0.026031001 0.26723999
0.16174001 -0.026337 0.2098
0.16276 -0.026764 0.2097
0.12421 -0.026296001 0.22792999
0.12694 -0.025401 0.22875001
0.12540001 -0.026377 0.22808
0.024514001 -0.024808999 0.28018999
0.12534 -0.025405001 0.22806001
0.074441001 -0.023636 0.25391001
0.16146 -0.023921 0.20888001
0.16060001 -0.022917001 0.21043
0.12819999 -0.023278 0.22631
0.044151001 -0.022933999 0.27041
0.1618 -0.022821 0.21022999
0.12823001 -0.02221 0.22571
0.16094001 -0.023342 0.2094
0.074010998 -0.022585999 0.25483999
0.073250003 -0.021655999 0.25533
0.16077 -0.020444 0.20984
0.12805 -0.021783 0.22651
0.042495001 -0.022283001 0.2712
0.043467999 -0.023734 0.27052
0.024455 -0.02186 0.28077
0.16248 -0.020710001 0.21039
0.13011 -0.021586999 0.22605
0.024782 -0.021335 0.27891001
0.12970001 -0.020707 0.22503
0.13128 -0.020144001 0.22503
0.025047 -0.019815 0.27972001
0.16224 -0.01983 0.20993
0.16102 -0.021336 0.21052
0.16072001 -0.019622 0.21001001
0.13185 -0.020702001 0.22454999
0.073701002 -0.021323999 0.25577
0.071811996 -0.021654001 0.25446001
0.025123 -0.019235 0.27818999
0.02476 -0.020105001 0.27858999
0.024843 -0.019965 0.27886
0.16136 -0.018857 0.20956001
0.071622998 -0.019773999 0.25472999
0.071576998 -0.019855 0.25578001
0.16042 -0.01905 0.21165
0.15959001 -0.019733001 0.21069001
0.025955999 -0.019211 0.27930999
0.024923 -0.018464001 0.27957001
0.15952 -0.017514 0.21083
0.024533 -0.018451 0.27855
0.15847 -0.017933 0.2103
0.13361 -0.017937999 0.22288001
0.070485003 -0.016833 0.25613001
0.025139 -0.01774 0.2789
0.13625 -0.016787 0.22224
0.15818 -0.016733 0.21190999
0.13579001 -0.015923999 0.22188
0.15764999 -0.017008999 0.21211
0.039788 -0.01494 0.27331999
0.15584999 -0.015096 0.21311
0.15414 -0.014952 0.21409
0.15352 -0.013516 0.21445
0.13911 -0.014064 0.22105999
0.15361001 -0.014927 0.21430001
0.037305001 -0.0131 0.27257001
0.15149 -0.01218 0.21447
0.027372001 -0.012737 0.27862
0.14008 -0.01328 0.21924999
0.14548001 -0.011781 0.21826001
0.036975998 -0.011508 0.27268001
0.027434999 -0.012414 0.27807
0.14523 -0.011366 0.21772
0.14864001 -0.0115 0.21611001
0.14575 -0.011025 0.2176
0.036417998 -0.010774 0.27528
0.028324001 -0.01148 0.27756
0.029138001 -0.0096552996 0.27684999
0.032241002 -0.010017 0.27603999
0.031941999 -0.0097073 0.27588001
0.031764999 -0.0092097996 0.27743
0.030997001 -0.01003 0.27698001
0.031176001 -0.011033 0.27625
0.034058001 -0.0098692002 0.27583
0.029606 -0.0097212996 0.27754
0.056984 -0.0010564 0.26227
0.058956999 0.0013816 0.26383999
0.058761001 -0.00025290999 0.26273
0.058081999 0.0021154 0.26245999
0.059002999 4.6966001e-05 0.26172999
0.059039999 0.0018754 0.26154
0.059223998 0.0031572999 0.26157001
0.060176 0.0017392 0.26124001
0.063647002 0.0039662002 0.25928
0.060084999 0.0046162 0.26135999
0.063028999 0.0043564001 0.26122001
0.061588001 0.0051467 0.26014
0.062531002 0.0049076001 0.25968
0.062284999 0.0057738 0.26012999
0.16481 0.035840999 0.20771
0.16418999 0.036527 0.20874999
0.16408999 0.037276 0.20758
0.16624001 0.038809001 0.20784
0.16876 0.03999 0.20588
0.17098001 0.041542001 0.20412
0.17114 0.041083999 0.20416
0.17249 0.043869 0.20479
0.16596 0.058497999 0.20726
0.16638 0.058580998 0.20730001
0.16896001 0.060102999 0.20624
0.16057 0.060408 0.20964999
0.16207001 0.060550999 0.21049
0.16233 0.060701001 0.21010999
0.16986001 0.06464 0.20472001
0.17002 0.065154001 0.20556
0.17031001 0.064430997 0.20558999
0.056614 -0.053638 0.26348999
0.058074001 -0.053470999 0.26245999
0.055006001 -0.053738002 0.26464
0.10948 -0.053157002 0.23609
0.11043 -0.053413 0.23596001
0.11082 -0.053415999 0.23599
0.057039 -0.053139001 0.26291999
0.043187 -0.052602999 0.26971999
0.059089001 -0.052745 0.26207
0.10827 -0.052193001 0.23744
0.041030999 -0.052662 0.27114999
0.10756 -0.052671 0.23714
0.10845 -0.052767001 0.23642001
0.061448 -0.050427001 0.26102999
0.061004002 -0.051176999 0.26054999
0.039257001 -0.051445998 0.27195999
0.10774 -0.051166002 0.23687001
0.061670002 -0.050048001 0.2604
0.078580998 -0.049451999 0.25182
0.064631999 -0.047529999 0.25905001
0.061889 -0.049743999 0.26054999
0.036621001 -0.04902 0.27333999
0.064648002 -0.048156999 0.25957999
0.063738003 -0.047683999 0.25940999
0.1064 -0.048608001 0.23766001
0.065575004 -0.047219999 0.25896001
0.036157001 -0.048016999 0.27447999
0.035264999 -0.048331 0.27427
0.10661 -0.047887001 0.23714
0.10475 -0.048275001 0.23641001
0.065742001 -0.048106 0.2588
0.034171 -0.047483999 0.27298
0.10583 -0.046744999 0.23814
0.066016003 -0.046934001 0.25953001
0.034513 -0.046661001 0.27511999
0.1056 -0.045804001 0.23755001
0.1062 -0.045616999 0.23836
0.067873001 -0.045874 0.25854
0.065367997 -0.045784 0.25806001
0.065987997 -0.045090999 0.25777
0.064944997 -0.045194998 0.25827
0.091109999 -0.043437 0.24569
0.078031003 -0.042693999 0.25209001
0.077333003 -0.043635 0.25305
0.1047 -0.042612001 0.23761
0.10554 -0.043930002 0.23965
0.10523 -0.043733999 0.23858
0.090664998 -0.042968001 0.24582
0.076664999 -0.044378001 0.25213
0.080307998 -0.042101 0.25117999
0.066812001 -0.042004 0.25907001
0.091040999 -0.044009998 0.24450999
0.091426 -0.041878998 0.24587999
0.08422 -0.042004 0.24890999
0.084732004 -0.042615 0.24902
0.083021998 -0.041772 0.24981999
0.081616998 -0.042378999 0.24981
0.082133003 -0.042877998 0.24946
0.10486 -0.040550999 0.2383
0.087102003 -0.042741999 0.24781001
0.086635001 -0.041434001 0.24728
0.086157002 -0.041921001 0.24841
0.089731 -0.041676 0.24663
0.089928001 -0.042396002 0.24627
0.088206999 -0.042041998 0.2465
0.088977002 -0.040993001 0.24726
0.10483 -0.040320002 0.23939
0.029375 -0.040862001 0.27654001
0.10517 -0.037902001 0.23766001
0.15955999 -0.038226001 0.21038
0.16038001 -0.037005 0.21031
0.15995 -0.037029002 0.21100999
0.0614 -0.037634 0.26245001
0.061533 -0.037159 0.26109001
0.061677001 -0.036986001 0.26304001
0.027252 -0.036761001 0.2771
0.10552 -0.0372 0.23743001
0.10588 -0.035636 0.23799001
0.026233001 -0.034701001 0.27774
0.10646 -0.035776999 0.23826
0.11749 -0.033728 0.23262
0.11755 -0.034775998 0.23251
0.11517 -0.034802001 0.23356
0.16029 -0.034945 0.21087
0.16060001 -0.033059001 0.21008
0.11849 -0.033514999 0.23041999
0.073825002 -0.034209002 0.25455999
0.072694004 -0.033319 0.25555
0.073628001 -0.034678001 0.25573
0.026408 -0.034525 0.27913001
0.15944999 -0.033636 0.20964
0.11494 -0.035347 0.23159
0.11491 -0.032761998 0.23517001
0.11438 -0.034265999 0.23367999
0.15994 -0.032357 0.21035001
0.16212 -0.032299999 0.21070001
0.11447 -0.033535 0.23388
0.073845997 -0.032775 0.25411001
0.073994003 -0.033130001 0.25349
0.057882 -0.033277001 0.26190999
0.1086 -0.032990001 0.23649
0.058166999 -0.033578001 0.26229
0.057588998 -0.032357998 0.26247999
0.058097001 -0.032616001 0.26313001
0.11168 -0.032832 0.23311999
0.1096 -0.031617999 0.23613
0.10859 -0.032777999 0.23621
0.075074002 -0.031406999 0.25369
0.11117 -0.032054 0.23411
0.11026 -0.032586999 0.23534
0.11277 -0.031769 0.235
0.057363 -0.032325 0.26271999
0.11089 -0.031637002 0.23553
0.10956 -0.032488 0.23599
0.16072001 -0.031615 0.20964
0.026458999 -0.031161999 0.27853999
0.024795 -0.031397 0.27873999
0.16142 -0.030476 0.20881
0.075652003 -0.030886 0.25494999
0.075400002 -0.030037001 0.25396001
0.12134 -0.029170999 0.22912
0.050154001 -0.029340999 0.26587999
0.076107003 -0.029200001 0.25264999
0.049600001 -0.029507 0.26710001
0.16141 -0.02843 0.21091001
0.12293 -0.029382 0.22882999
0.1601 -0.028114 0.20993
0.12356 -0.028929999 0.22852001
0.074665003 -0.027991001 0.25268999
0.049610998 -0.029307 0.26690999
0.12438 -0.027516 0.22908001
0.16079 -0.025428999 0.20999999
0.15994 -0.027361 0.21006
0.15902001 -0.027416 0.21098
0.024231 -0.027416 0.27834001
0.074933998 -0.02665 0.25347
0.16047999 -0.024873 0.21053
0.16013999 -0.024985 0.21059
0.075369 -0.026195001 0.25422999
0.045958001 -0.025947001 0.26826999
0.16060001 -0.025354 0.21044999
0.16088 -0.024068 0.21069001
0.15913001 -0.022988999 0.21122
0.074694999 -0.024121 0.25463
0.12661999 -0.025188999 0.22623999
0.12684999 -0.023815 0.22719
0.025353 -0.022606 0.27969
0.16135 -0.024177 0.2098
0.12801 -0.023738001 0.22612999
0.024138 -0.024281001 0.27869999
0.074170001 -0.023757 0.2536
0.074577004 -0.021933001 0.255
0.044303998 -0.023456 0.26936999
0.1612 -0.022539999 0.21073
0.073732004 -0.022374 0.25420001
0.042520002 -0.021999 0.27006999
0.042373002 -0.021484001 0.26991999
0.16174001 -0.020904999 0.20979001
0.15962 -0.02134 0.21032
0.16047999 -0.020987 0.21112999
0.15971 -0.021214999 0.21046001
0.15790001 -0.020668 0.21211
0.15748 -0.022019999 0.21172
0.042302001 -0.021908 0.26952001
0.15831 -0.019716 0.21184
0.15853 -0.020296 0.21135999
0.15772 -0.020099999 0.21101999
0.15685999 -0.019938 0.21138
0.15825 -0.020625001 0.2112
0.071261004 -0.019419 0.25393
0.071517996 -0.021065 0.25476
0.072172001 -0.021894 0.25312999
0.042167 -0.020528 0.27072001
0.15897 -0.018548001 0.21055999
0.1577 -0.018146999 0.21267
0.15885 -0.018376 0.21156999
0.15731999 -0.017593 0.2123
0.040096 -0.018629 0.27113
0.15728 -0.018767999 0.2103
0.15702 -0.018539 0.21176
0.039923999 -0.018115001 0.27182999
0.15729 -0.017550999 0.21269
0.15672 -0.017131001 0.21221
0.071893997 -0.018461 0.25514001
0.071795002 -0.018634001 0.25654
0.15647 -0.01646 0.21233
0.15624 -0.017247001 0.21125001
0.15807 -0.017501 0.21178
0.13349 -0.01739 0.22302
0.070857003 -0.01723 0.25702
0.069775999 -0.016396999 0.25615001
0.069824003 -0.016113 0.25788
0.15521 -0.016034 0.21341
0.1551 -0.01639 0.2129
0.026473001 -0.016040999 0.27873001
0.15546 -0.017011 0.21269999
0.15682 -0.016633 0.21190999
0.15333 -0.014856 0.21312
0.15396 -0.015114 0.21334
0.15331 -0.015121 0.21362001
0.15395001 -0.015489 0.21360999
0.15285 -0.015379 0.2132
0.15255 -0.014816 0.21396001
0.037303001 -0.014839 0.27212
0.026155001 -0.014244 0.27811
0.15217 -0.013072 0.21456
0.13877 -0.014352 0.22039001
0.027449001 -0.013195 0.27807999
0.15075 -0.013171 0.21506
0.036984999 -0.011885 0.27347001
0.027744999 -0.011832 0.27798
0.14331 -0.011582 0.21936999
0.14251 -0.011838 0.21931
0.036353 -0.012737 0.27313
0.15074 -0.012609 0.21504
0.15011001 -0.01149 0.2155
0.14768 -0.010766 0.21545
0.03627 -0.012595 0.27449
0.028305 -0.010473 0.27717999
0.027667999 -0.012934 0.27864999
0.14315 -0.011579 0.21852
0.035126001 -0.011631 0.27375999
0.034752 -0.011 0.27397999
0.032947 -0.01044 0.27421999
0.033279002 -0.010093 0.27598
0.032320999 -0.011373 0.27533001
0.030936999 -0.010822 0.27542001
0.029843001 -0.010906 0.27597001
0.030484 -0.0095434999 0.27811
0.031853002 -0.010911 0.27456
0.056593001 -0.0042765001 0.26282999
0.056375001 -0.0024953999 0.26295
0.057523001 -0.0039288001 0.26280001
0.056722999 -0.0037539999 0.26241001
0.058231998 -0.00045445 0.26247999
0.064515002 -0.00012637 0.25997001
0.064675003 -0.0017109 0.25876999
0.062886998 0.0021307999 0.25852999
0.060194001 0.0040620998 0.26135999
0.060568999 0.0041252002 0.26084
0.061381001 0.0047959001 0.2604
0.06191 0.0060557001 0.25942001
0.16588999 0.036288001 0.20769
0.16698 0.035799 0.20592999
0.16542999 0.036235001 0.20751999
0.16451 0.035997 0.20806
0.16489001 0.035928998 0.20668
0.16452 0.036522001 0.20736
0.16507 0.037423 0.20804
0.16489001 0.036961999 0.20774999
0.16644999 0.037994001 0.20750999
0.16676 0.036534999 0.2071
0.16869999 0.038431 0.20537999
0.16831 0.038761999 0.20584001
0.16827001 0.037523001 0.20533
0.16697 0.038380001 0.20668
0.16729 0.038991001 0.20658
0.16891 0.039329 0.20635
0.16968 0.040697001 0.20551001
0.1717 0.042534001 0.2045
0.17105 0.042366002 0.20465
0.17126 0.042583 0.20321999
0.17206 0.042626001 0.20393001
0.17213 0.043093 0.20306
0.17256001 0.042514998 0.20411
0.17445999 0.042907 0.20319
0.1725 0.043359 0.20299
0.17406 0.043345999 0.20221999
0.17460001 0.044601001 0.20206
0.17534 0.045015 0.20237
0.17682999 0.044452999 0.20116
0.16638 0.060943998 0.20702
0.16858999 0.060199998 0.20572001
0.16733 0.059707001 0.20686001
0.16677999 0.059714999 0.20558999
0.1656 0.060419999 0.20743001
0.16511001 0.060155001 0.20725
0.16387001 0.060736999 0.20844001
0.16401 0.060371999 0.20828
0.16303 0.059471998 0.2085
0.16199 0.059794001 0.20903
0.16316999 0.059944 0.20897
0.16977 0.059836 0.20476
0.16671 0.059882 0.20756
0.16398001 0.060245998 0.20783
0.16171999 0.060851 0.20822001
0.17061999 0.060628999 0.20468999
0.16579001 0.061058 0.20756
0.16445 0.060876001 0.20836
0.17050999 0.060805999 0.20463
0.17181 0.061027002 0.20406
0.1609 0.060826 0.20998999
0.16313 0.062514998 0.20862
0.16302 0.060681 0.20959
0.16402 0.062530003 0.20882
0.16419999 0.063809998 0.20825
0.16559 0.063277997 0.20778
0.16469 0.062625997 0.20754001
0.16477001 0.063762002 0.20671999
0.16563 0.063248001 0.20587
0.16689 0.064295001 0.20644
0.16942 0.064434998 0.20513
0.16719 0.065766998 0.20642
0.1698 0.063476004 0.2045
0.16859999 0.064967997 0.20688
0.16789 0.065094002 0.20671
0.056345999 -0.052953999 0.26389
0.055980999 -0.05322 0.26199001
0.058244001 -0.052395001 0.26214001
0.057861999 -0.052117001 0.26179001
0.057751 -0.050958999 0.26106
0.040738001 -0.050756998 0.27127001
0.059925999 -0.051050998 0.25983
0.078610003 -0.049780998 0.25195
0.036256999 -0.049594998 0.27224001
0.063426003 -0.048831001 0.25999001
0.063798003 -0.047166999 0.25856999
0.064806998 -0.046730001 0.25852001
0.032092001 -0.046539001 0.27540001
0.064515002 -0.046727002 0.25896999
0.033323999 -0.046107002 0.27502
0.031610001 -0.045634001 0.27541
0.075846002 -0.043352999 0.25246999
0.064411998 -0.042753 0.25749999
0.10479 -0.042045999 0.23803
0.089238003 -0.041306999 0.24537
0.065185003 -0.041296002 0.25869
0.062270999 -0.038933001 0.26102999
0.062236998 -0.037673999 0.25953999
0.060288999 -0.037767 0.26192999
0.060229 -0.038461 0.26062
0.027068 -0.036246002 0.27632999
0.027248001 -0.036619 0.27743
0.10548 -0.036302999 0.23752999
0.15861 -0.034235001 0.21037
0.15863 -0.035604 0.20984
0.027028 -0.034524001 0.27754
0.15982001 -0.033500001 0.21026
0.060631 -0.033766001 0.26151001
0.060382999 -0.03407 0.26205
0.059106998 -0.034418002 0.26183999
0.11213 -0.032299999 0.23438001
0.073375002 -0.031883001 0.25461999
0.11337 -0.032969002 0.23458
0.054731 -0.031587999 0.26363
0.055704001 -0.031948999 0.26308
0.10978 -0.031732999 0.23603
0.074738003 -0.030673999 0.25424999
0.054453999 -0.03136 0.26418
0.053348999 -0.031112 0.26471999
0.052783001 -0.029866001 0.26466
0.15986 -0.030293001 0.21051
0.15924001 -0.031028001 0.21016
0.12204 -0.030629 0.22924
0.074065998 -0.031204 0.25374001
0.16038001 -0.028554 0.20985
0.15919 -0.029253 0.21009
0.049458001 -0.028527999 0.26655999
0.049150001 -0.028884999 0.26605001
0.12297 -0.027983001 0.22743
0.15864 -0.027948 0.21089999
0.12469 -0.026969001 0.22792999
0.073997997 -0.028674001 0.25389001
0.075312003 -0.029580001 0.25442001
0.15826 -0.027228 0.21084
0.15832999 -0.027411001 0.21051
0.15896 -0.028099 0.21043999
0.15907 -0.026134999 0.21058001
0.15817 -0.026280999 0.21071
0.075038999 -0.025212999 0.25387001
0.044962 -0.025455 0.26883999
0.15897 -0.025481001 0.20994
0.072926998 -0.024813 0.25323999
0.15897 -0.023518 0.21024001
0.12727 -0.025363 0.2272
0.12647 -0.025246 0.2272
0.15904 -0.023615999 0.21076
0.12838 -0.022852 0.2263
0.1586 -0.021461001 0.21122999
0.15792 -0.022647999 0.21076
0.15832999 -0.021981001 0.21238001
0.15652999 -0.021497 0.21146999
0.15611 -0.020101 0.21224999
0.12974 -0.021344 0.22513001
0.024959 -0.021628 0.27897999
0.073431998 -0.019611999 0.25514001
0.15651 -0.019065 0.21227001
0.15696 -0.019007999 0.21179
0.1318 -0.018639 0.22295
0.15528999 -0.019451 0.21269999
0.13254 -0.019602999 0.22297999
0.13415 -0.018123001 0.22265001
0.15543 -0.017385 0.21176
0.15468 -0.017479001 0.21393
0.039818 -0.017529 0.27109
0.068968996 -0.017093999 0.25571999
0.040757 -0.017275 0.27129999
0.15525 -0.017510001 0.21268
0.038727999 -0.016494 0.27063999
0.15365 -0.016569 0.21272001
0.1523 -0.015628999 0.21276
0.13608 -0.016178999 0.22257
0.06921 -0.016425001 0.25698999
0.026307 -0.016443999 0.27814001
0.13824999 -0.014923 0.22178
0.038936999 -0.016496001 0.27144
0.038849 -0.015972 0.27188
0.026734 -0.014714 0.27886
0.027317001 -0.014651 0.27855
0.15281001 -0.014773 0.21280999
0.15202001 -0.01313 0.21439999
0.13922 -0.013849 0.22096001
0.037611 -0.01308 0.27271
0.15110999 -0.013129 0.21407001
0.027477 -0.013143 0.27823001
0.15047 -0.01263 0.21342
0.1503 -0.013332 0.21498001
0.14123 -0.012791 0.21878
0.029115999 -0.012316 0.27634999
0.1453 -0.012117 0.21633001
0.036417 -0.011538 0.27349001
0.14714999 -0.01156 0.21593
0.14546999 -0.012245 0.21734001
0.029532 -0.010709 0.27677
0.033452 -0.01194 0.27447999
0.063349999 -0.001516 0.25938001
0.063519999 0.00062050001 0.25966001
0.058533002 0.0015574 0.26175001
0.058740001 0.0028053999 0.26100999
0.063201003 0.0036102 0.25887999
0.060710002 0.0048600002 0.25957999
0.16666999 0.038006 0.20647
0.16844 0.040284 0.20608
0.16987 0.040594 0.2043
0.16955 0.039932001 0.2052
0.17303 0.042438 0.20321
0.17535 0.044877 0.20207
0.17623 0.046303999 0.20202
0.1674 0.060609002 0.20694
0.16725001 0.061172001 0.20611
0.16514 0.061216 0.20595001
0.16572 0.061135001 0.20640001
0.16289 0.060111001 0.20715
0.16410001 0.062103 0.2078
0.16399001 0.062254 0.20766
0.17016 0.063757002 0.20562001
0.16858999 0.063954003 0.20552
0.16743 0.063669004 0.20636
0.1692 0.063299999 0.20491999
0.16746999 0.063809998 0.20641001
0.055874001 -0.053075001 0.26372001
0.055566002 -0.053077001 0.26361001
0.054947 -0.053433999 0.26442999
0.055438999 -0.053504001 0.26394999
0.045416001 -0.053105999 0.26797
0.045566 -0.053162001 0.26611
0.045908999 -0.054152001 0.26752001
0.10889 -0.054099001 0.23501
0.046468001 -0.053741999 0.26705
0.045063999 -0.053789001 0.26778999
0.043737002 -0.052157 0.26844999
0.044199999 -0.053626001 0.26901001
0.041809 -0.052451 0.27044001
0.058598001 -0.050315 0.26072001
0.039521001 -0.051583 0.27151999
0.10713 -0.051229 0.23585001
0.10746 -0.050760999 0.23657
0.10755 -0.051467001 0.23746
0.060056001 -0.049327001 0.26080999
0.040302001 -0.050678998 0.27039
0.038768001 -0.049920999 0.27168
0.1072 -0.050381001 0.23779
0.061533999 -0.048535999 0.2597
0.038153 -0.050829001 0.27142999
0.061570998 -0.049051002 0.25994
0.062986001 -0.048186 0.25922
0.034263 -0.047905002 0.27430999
0.062761001 -0.046783 0.25852999
0.062166002 -0.047331002 0.25955999
0.064189002 -0.046163 0.25883999
0.064393997 -0.045717001 0.25878
0.033792999 -0.04696 0.27395001
0.064162999 -0.044195998 0.25931001
0.1048 -0.043584999 0.23883
0.066033997 -0.043845002 0.25681001
0.064019002 -0.043000001 0.25808001
0.063743003 -0.044606999 0.25850001
0.030987 -0.044592001 0.27439001
0.031927001 -0.044378001 0.27449
0.085265003 -0.042732999 0.24821
0.085049003 -0.042447001 0.24818
0.083246 -0.042018 0.24938001
0.083359003 -0.043000001 0.24778999
0.083310999 -0.043589 0.24787
0.080182999 -0.042638998 0.25013
0.090276003 -0.043329 0.24505
0.085993998 -0.041889001 0.24781001
0.085406996 -0.043106001 0.2483
0.081260003 -0.041772 0.25062001
0.030315001 -0.042405002 0.27634999
0.087673001 -0.041638002 0.24615
0.088372998 -0.040518999 0.2457
0.064121 -0.040096998 0.2579
0.030662 -0.041104 0.27447
0.029231999 -0.041103002 0.27631
0.066660002 -0.042447999 0.25773999
0.10529 -0.037629001 0.23669
0.11693 -0.034641001 0.2316
0.11534 -0.03545 0.23214
0.10597 -0.036389001 0.2362
0.11749 -0.035316002 0.23188999
0.1174 -0.034770001 0.23243999
0.11617 -0.035893999 0.23379999
0.061044 -0.036346 0.26025999
0.059994999 -0.035037 0.25985
0.061912999 -0.035608999 0.26056001
0.11513 -0.034223001 0.23263
0.10749 -0.033470999 0.23639999
0.10651 -0.034692999 0.23627999
0.059113 -0.034545001 0.26023
0.15987 -0.032715999 0.21005
0.11819 -0.033810001 0.23019999
0.072231002 -0.033640001 0.25376999
0.057920001 -0.034028001 0.26119
0.15854999 -0.032625001 0.21029
0.11211 -0.032527 0.23357999
0.073366001 -0.032163002 0.25308001
0.1591 -0.03252 0.21019
0.15841 -0.031690001 0.21007
0.1203 -0.032671999 0.22939
0.073633 -0.032001 0.25402999
0.056357998 -0.032821 0.26326999
0.055613998 -0.032224 0.26265001
0.15798999 -0.030115001 0.20961
0.15884 -0.030942 0.20946001
0.051316999 -0.030470001 0.26484999
0.052002002 -0.029872 0.26499
0.15943 -0.030641999 0.21022999
0.074321002 -0.029496999 0.25446001
0.15741 -0.028750001 0.2097
0.047343999 -0.028748 0.26710999
0.024936 -0.028705001 0.27906001
0.025613001 -0.028485 0.27788001
0.024092 -0.026291 0.27704999
0.04617 -0.027217999 0.26696
0.048039999 -0.028285 0.26618999
0.15794 -0.027222 0.21149001
0.15710001 -0.026134999 0.21144
0.12428 -0.026791001 0.22732
0.075598001 -0.027167 0.25470001
0.045146 -0.025836 0.26653001
0.15702 -0.025837 0.21061
0.024741 -0.026102999 0.27862999
0.045196 -0.025408 0.26859999
0.15685 -0.02616 0.21164
0.15642001 -0.026116 0.21180999
0.045545001 -0.024978001 0.26684001
0.025594 -0.025508 0.27862
0.15785 -0.024557 0.21008
0.15795 -0.022918999 0.21087
0.15726 -0.023862001 0.21058001
0.043536 -0.023486 0.26931
0.044775002 -0.02352 0.26912999
0.12764999 -0.024881 0.226
0.12868001 -0.02386 0.22592001
0.15629999 -0.023649 0.21190999
0.15547 -0.022567 0.21214999
0.15482999 -0.022149 0.21185
0.072780997 -0.022303 0.25347999
0.073229 -0.024427 0.25418001
0.12736 -0.02406 0.22482
0.12839 -0.023722 0.22471
0.025525 -0.022289 0.27880999
0.15721001 -0.022284999 0.21184
0.025001001 -0.021792 0.2784
0.15669 -0.021429 0.21195
0.13053 -0.021911999 0.22493
0.12952 -0.021282 0.22502001
0.1287 -0.020977 0.22432999
0.13117 -0.020837 0.22424001
0.040961001 -0.020002 0.27035001
0.041087002 -0.021287 0.26977
0.15578 -0.02107 0.21182001
0.15509 -0.019757001 0.21251
0.071382999 -0.01946 0.25466001
0.15459 -0.019931 0.21297
0.15474001 -0.019610999 0.21145999
0.13265 -0.019996 0.22311001
0.040899999 -0.019928999 0.27078
0.15414 -0.019540001 0.21251
0.15446 -0.017681999 0.21283001
0.15291999 -0.018898999 0.21173
0.13493 -0.017708 0.22194
0.037950002 -0.017098 0.27153
0.15355 -0.016716 0.21288
0.026569 -0.018061001 0.27796
0.068828002 -0.015539 0.25745001
0.038440999 -0.016318001 0.27118
0.1531 -0.014559 0.213
0.15196 -0.016666999 0.21289
0.026860001 -0.016181 0.27778
0.026404001 -0.016113 0.27827999
0.13754 -0.014502 0.22041
0.15014 -0.015065 0.21354
0.027450999 -0.015122 0.27742001
0.037593 -0.014226 0.27267
0.14035 -0.013255 0.22021
0.14025 -0.012516 0.22003999
0.026404999 -0.014666 0.2771
0.15114 -0.013876 0.21314999
0.14112 -0.013003 0.21902999
0.036582999 -0.012125 0.27340001
0.036773 -0.013739 0.27180001
0.028256999 -0.013228 0.27691001
0.14905 -0.012451 0.21421
0.14147 -0.012561 0.21882001
0.14926 -0.012993 0.21455
0.14815 -0.012614 0.2155
0.14805999 -0.012138 0.21539
0.14255001 -0.01241 0.21795
0.033936001 -0.012098 0.27418
0.034956999 -0.012133 0.27412999
0.14414001 -0.012072 0.21679001
0.034255002 -0.01085 0.27537999
0.029495999 -0.011448 0.27548999
0.030049 -0.011433 0.27627999
0.063812003 -0.00040687999 0.25795001
0.062176 6.1981998e-05 0.25870001
0.063570999 -0.00048732001 0.25832999
0.062913999 0.0021097001 0.25988001
0.057418998 0.0012267 0.26102
0.059145998 0.0014164 0.26131999
0.06236 0.0012682 0.25892001
0.062268998 0.0011484 0.26010999
0.058991998 0.0026968999 0.25993001
0.061554998 0.0037449 0.25882
0.061627999 0.0046971999 0.26014999
0.061172999 0.0034401 0.25834
0.061218001 0.0043238001 0.26047
0.16590001 0.035845 0.20655
0.16649 0.036054 0.20592999
0.1679 0.036745999 0.20587
0.16858999 0.037792999 0.20497
0.16903999 0.037836999 0.20585001
0.16802 0.040068999 0.20543
0.1717 0.041871 0.20237
0.17038 0.041072 0.20338
0.17272 0.041559 0.2033
0.17463 0.042454001 0.20231
0.17321999 0.043366 0.20159
0.1754 0.044089999 0.20216
0.17613 0.045001999 0.20190001
0.17498 0.044757999 0.20056
0.16966 0.060513001 0.205
0.16887 0.061041001 0.20518
0.16790999 0.062144 0.20682999
0.16859999 0.062192999 0.20524
0.16694 0.061450999 0.20631
0.16576999 0.061542999 0.20764001
0.1648 0.061611999 0.20783
0.16404 0.062146001 0.20742001
0.16861001 0.063097998 0.20488
0.16797 0.062118001 0.20516001
0.16855 0.063193999 0.20539001
0.1679 0.062786996 0.20566
0.16605 0.062277 0.20532
0.05446 -0.053157002 0.26355001
0.051008001 -0.053355999 0.2631
0.050593998 -0.053732 0.26460999
0.050246999 -0.054173999 0.26521
0.048758 -0.053847 0.2651
0.049286999 -0.053667001 0.26480001
0.048718002 -0.053158998 0.26594001
0.049993001 -0.054237001 0.26633
0.049897 -0.053093001 0.2669
0.046202999 -0.053559002 0.26708001
0.056031998 -0.053798001 0.26198
0.046131998 -0.054280002 0.26877001
0.056793001 -0.052646998 0.26218
0.041788001 -0.052877001 0.26890001
0.041604999 -0.052726999 0.27019
0.041832 -0.051913001 0.27039999
0.058212001 -0.050524 0.26234001
0.040968999 -0.051185999 0.27052
0.10676 -0.050955001 0.23496
0.1062 -0.050154001 0.23593999
0.1062 -0.050645001 0.23622
0.073220998 -0.051054001 0.25233999
0.073596001 -0.050182998 0.25339001
0.073036999 -0.051520001 0.25455999
0.059675999 -0.050227001 0.26071
0.061285 -0.04916 0.25988999
0.061797999 -0.048393998 0.25914001
0.079879001 -0.049316999 0.25060001
0.078184001 -0.049513999 0.25138
0.0779 -0.049676001 0.24963
0.035151999 -0.047536001 0.27265999
0.061997 -0.048062 0.26039001
0.035583999 -0.048473999 0.27311
0.035493001 -0.049208999 0.27217999
0.034802999 -0.047529999 0.27322999
0.062499002 -0.047630001 0.25775999
0.10525 -0.047382999 0.23647
0.10434 -0.046937998 0.23626
0.1046 -0.046261001 0.23743001
0.10429 -0.044335 0.23664001
0.10516 -0.043871 0.23802
0.066624999 -0.045019001 0.25666001
0.063529 -0.045910001 0.25852001
0.032297 -0.045814998 0.27452999
0.10425 -0.043990999 0.23709001
0.065719001 -0.045587 0.25828001
0.031837001 -0.043513998 0.27546
0.077701002 -0.044385999 0.25029001
0.078270003 -0.043441001 0.25215
0.080155998 -0.043425001 0.25062001
0.077197999 -0.043604001 0.25167999
0.076168999 -0.042789999 0.25249001
0.076242998 -0.043699998 0.25218999
0.066035002 -0.04301 0.25687999
0.030835001 -0.043182999 0.27478001
0.10457 -0.043471999 0.23802
0.10389 -0.042890999 0.23849
0.085695997 -0.043478001 0.24675
0.063883997 -0.041999999 0.25909999
0.088408001 -0.043182001 0.24530999
0.089514002 -0.041182 0.24658
0.087609999 -0.042603001 0.24606
0.030087 -0.042911001 0.27406999
0.10401 -0.041501999 0.23814
0.029708 -0.041448001 0.27608001
0.10399 -0.040447 0.23689
0.028232999 -0.040959001 0.27555999
0.10433 -0.037739001 0.23723
0.028592 -0.039149001 0.27612999
0.10513 -0.038485002 0.23728
0.1053 -0.03833 0.23778
0.10527 -0.037785001 0.23776001
0.027942 -0.037453 0.27691001
0.02823 -0.038043 0.27663001
0.026989 -0.037346002 0.27709001
0.10632 -0.035983998 0.23648
0.026641 -0.034768 0.27693999
0.11644 -0.035863001 0.23161
0.11506 -0.036539 0.23204
0.11479 -0.035117999 0.23253
0.11393 -0.035032999 0.23205
0.10741 -0.034883998 0.23544
0.10655 -0.035216 0.23616
0.060862001 -0.034402002 0.26005
0.058828 -0.035565 0.26017001
0.1131 -0.034207001 0.23276
0.11346 -0.033493001 0.23136
0.058733001 -0.034093998 0.26111999
0.060341999 -0.03303 0.26141
0.10736 -0.033815 0.23489
0.057457 -0.034187 0.26025
0.025792999 -0.034046002 0.27807999
0.025713 -0.032517999 0.27799001
0.057631999 -0.033357002 0.26109001
0.10896 -0.032276999 0.23667
0.025390999 -0.032653 0.27768001
0.11986 -0.032510001 0.22959
0.11183 -0.032405 0.23296
0.11098 -0.032600001 0.23384
0.11022 -0.032597002 0.23545
0.10989 -0.032510001 0.23394001
0.10835 -0.032175001 0.23517001
0.072405003 -0.031300999 0.25409999
0.070174001 -0.032552 0.25486001
0.05367 -0.031555001 0.26396
0.12069 -0.031413998 0.22975001
0.12118 -0.031562999 0.22860999
0.052708 -0.031157 0.26389
0.054088 -0.032386001 0.26280001
0.025449 -0.030463999 0.27860999
0.15847 -0.030974999 0.21013001
0.15966 -0.031617999 0.20977999
0.073838003 -0.030400001 0.25409001
0.073872998 -0.030727999 0.25382999
0.051794998 -0.030126 0.26602
0.15888999 -0.029478 0.20886999
0.074141003 -0.030272 0.25420001
0.050505999 -0.029591 0.26475
0.024986001 -0.030363001 0.27695999
0.025384 -0.029748 0.27914
0.15765999 -0.029031999 0.20923001
0.074158996 -0.028488999 0.25375
0.049795002 -0.028964 0.26547
0.15744001 -0.02799 0.20971
0.074254997 -0.029722 0.25292
0.12278 -0.030512 0.22725999
0.15594 -0.028775999 0.21049
0.15668 -0.028142 0.21112999
0.074134998 -0.026455 0.25233999
0.047805 -0.027132999 0.26605001
0.15559 -0.02837 0.21062
0.15467 -0.027557001 0.21153
0.15620001 -0.026395001 0.21098
0.15482999 -0.028251 0.21134
0.15375 -0.0266 0.21272001
0.15257999 -0.027216 0.21348
0.15492 -0.026666 0.21134
0.15386 -0.027501 0.21196
0.073501997 -0.027178001 0.25286001
0.15439001 -0.025452999 0.21182001
0.15597001 -0.026493 0.21201
0.12472 -0.025908001 0.22661
0.025165001 -0.025357001 0.27893001
0.15317 -0.026151 0.21270999
0.15471999 -0.023484999 0.21195
0.15434 -0.025233001 0.2119
0.1531 -0.024444001 0.21160001
0.12564 -0.024568001 0.22578999
0.024559001 -0.024401 0.27790999
0.15613 -0.024324 0.21105
0.15335999 -0.025136 0.21273001
0.073380001 -0.024894999 0.25262001
0.044427998 -0.02407 0.26819
0.15547 -0.022836 0.21269999
0.1552 -0.022419 0.21046001
0.12808 -0.023293 0.22503
0.073142998 -0.022801001 0.25376001
0.12921999 -0.021360001 0.22505
0.12932999 -0.022443 0.22519
0.072330996 -0.021841001 0.25437
0.043058001 -0.022125 0.27028999
0.02345 -0.023468999 0.27912
0.15454 -0.020423001 0.21207
0.15389 -0.021583 0.21194001
0.041526001 -0.020641999 0.26998001
0.15524 -0.01959 0.21143
0.15313999 -0.019780001 0.21279
0.039622001 -0.018119 0.27067
0.040231001 -0.018751999 0.27035001
0.070335001 -0.019438 0.25371
0.15419 -0.017511001 0.21283001
0.15277 -0.017413 0.21235
0.0396 -0.018174 0.27153999
0.025733 -0.019482 0.27757999
0.069605 -0.017654 0.25518
0.070083 -0.01808 0.25499001
0.069842003 -0.016646 0.25497001
0.15276 -0.016318001 0.21245
0.15251 -0.017219 0.21216001
0.025638999 -0.016960001 0.27873001
0.026412999 -0.016117999 0.27654001
0.13607 -0.017777 0.22167
0.1365 -0.015818 0.22040001
0.13673 -0.015178 0.2208
0.13643999 -0.017154001 0.22065
0.069659002 -0.015472 0.25573999
0.037735999 -0.016474999 0.27180001
0.15109999 -0.015282 0.2132
0.13665999 -0.015453 0.22036999
0.038433 -0.015991 0.27153
0.036511 -0.014263 0.27195999
0.037639 -0.017030001 0.27015001
0.15095 -0.014276 0.21291
0.15177 -0.014308 0.21286
0.13929 -0.013724 0.22019
0.13923 -0.014542 0.22043
0.037553001 -0.014161 0.27166
0.02736 -0.013661 0.27757001
0.027999001 -0.01465 0.27789
0.026519001 -0.015598 0.27588001
0.15117 -0.014558 0.21476001
0.027999001 -0.01318 0.27788001
0.028248001 -0.013879 0.27719
0.14108001 -0.014106 0.21954
0.036520999 -0.012964 0.27226999
0.028587 -0.012416 0.27731001
0.028720001 -0.013734 0.27603999
0.14866 -0.012693 0.21482
0.14264999 -0.01255 0.21864
0.035831999 -0.012355 0.27340001
0.034993 -0.013694 0.27359
0.034593001 -0.012615 0.27158001
0.14515001 -0.012273 0.21665999
0.14699 -0.012372 0.21545
0.14545999 -0.011954 0.21601
0.14522 -0.011877 0.2164
0.034076001 -0.012134 0.27469
0.033259999 -0.010801 0.27368
0.032442 -0.011138 0.27469999
0.033897001 -0.013873 0.27294001
0.032652002 -0.013396 0.27390999
0.029487001 -0.012355 0.27508
0.031182 -0.012357 0.27478999
0.03022 -0.01262 0.27616999
0.029552 -0.012848 0.27546
0.055746 -0.0036158999 0.26141
0.056508999 -0.0038580999 0.26262999
0.055447999 -0.0020906001 0.26201001
0.055755999 -0.00061062002 0.26229
0.056067999 -0.00026974999 0.26179999
0.063276999 0.0016723 0.25944
0.058474999 0.0021893999 0.26019999
0.058736 0.001038 0.26140001
0.059973001 0.0025456999 0.25918001
0.060646001 0.0042472002 0.26111001
0.061353002 0.0033094001 0.25918001
0.16811 0.035893999 0.20503999
0.16666999 0.036212999 0.20726
0.16648 0.037344001 0.20659
0.16677999 0.037163001 0.20581999
0.16825999 0.037719 0.20407
0.16836999 0.037526999 0.20407
0.16841 0.039861001 0.20497
0.16864 0.039988998 0.20418
0.16907001 0.039326001 0.20269001
0.17002 0.040780999 0.20304
0.17012 0.039299998 0.20341
0.17234001 0.041901998 0.20248
0.17324001 0.043203998 0.20363
0.17292 0.042305 0.20212001
0.17448001 0.043235999 0.20119999
0.17490999 0.041889999 0.20163999
0.17473 0.043435998 0.2006
0.17077 0.06318 0.20386
0.17038999 0.062371999 0.20486
0.16969 0.062054999 0.2049
0.16942 0.061792001 0.20422
0.16687 0.063396998 0.20553
0.047235001 -0.053291999 0.26569
0.047977 -0.053624999 0.26732999
0.046112999 -0.053530999 0.26695001
0.053879999 -0.052846 0.26295999
0.044962998 -0.054446999 0.26918
0.10952 -0.053721 0.235
0.042552002 -0.053314999 0.26829001
0.10836 -0.052990999 0.23284
0.041081 -0.051036 0.26967001
0.041250002 -0.052108001 0.26885
0.057904001 -0.051576 0.26232001
0.038906999 -0.051399 0.26982
0.10673 -0.049461 0.23447999
0.037014998 -0.050131001 0.27191001
0.036719002 -0.048268002 0.27296001
0.062415 -0.047396 0.25762999
0.036109999 -0.048461001 0.27358001
0.061517999 -0.047017001 0.25838
0.061958 -0.046698999 0.25839999
0.034568999 -0.047155999 0.27336001
0.063688003 -0.046567999 0.25762001
0.10424 -0.044923998 0.23632
0.10359 -0.044073999 0.23632
0.032212 -0.043017 0.27360001
0.078558996 -0.043442 0.25051999
0.078438997 -0.044018999 0.25152999
0.075433999 -0.044702001 0.25240999
0.077113003 -0.043729998 0.25163999
0.063305996 -0.043869 0.25815001
0.082565002 -0.043359999 0.24765
0.082277998 -0.042883001 0.24886
0.080375999 -0.043028999 0.25038001
0.063170001 -0.043522999 0.25882
0.063740999 -0.041026 0.25889999
0.064934 -0.040224999 0.25863999
0.063676998 -0.041140001 0.25747001
0.063405 -0.043175001 0.25780001
0.029707 -0.04056 0.27548999
0.027873 -0.039914001 0.27458
0.10351 -0.041429002 0.23634
0.10357 -0.040075999 0.23641001
0.063215002 -0.039810002 0.25927001
0.062959 -0.040534999 0.25832999
0.062492002 -0.039280999 0.25891
0.062666997 -0.038908999 0.25830999
0.061384998 -0.038215 0.25872999
0.061062999 -0.038612999 0.25985
0.060782 -0.037461001 0.25935999
0.062886 -0.036998998 0.25874999
0.062766999 -0.037494 0.25903001
0.061957002 -0.035347998 0.25927001
0.061122999 -0.036386002 0.25983
0.059955999 -0.035677001 0.26062
0.11612 -0.036713 0.22949
0.11664 -0.035542 0.23074
0.11714 -0.034898002 0.23071
0.060851999 -0.036063999 0.26019999
0.11343 -0.035147 0.23174
0.11272 -0.033369999 0.23204
0.11656 -0.033652 0.22922
0.11893 -0.033921 0.22992
0.057425 -0.032818999 0.26100001
0.026128 -0.033443 0.27643001
0.11854 -0.034029 0.22859
0.11936 -0.031879 0.22746
0.11882 -0.032876 0.22876
0.058083002 -0.032313999 0.26346001
0.056573 -0.033397 0.26080999
0.1117 -0.031851999 0.23373
0.10884 -0.033105999 0.234
0.053975001 -0.032368001 0.26271999
0.12003 -0.032239001 0.22898
0.071194999 -0.031074001 0.25479001
0.072302997 -0.029119 0.25356999
0.071551003 -0.03136 0.25391001
0.15790001 -0.030572001 0.2095
0.073586002 -0.028162001 0.25376999
0.049984999 -0.0297 0.26359999
0.050670002 -0.031309001 0.26383001
0.025271 -0.029386001 0.27721
0.025149001 -0.030184001 0.27772
0.072786003 -0.027047999 0.25288001
0.072143003 -0.028821999 0.25420001
0.048392002 -0.028267 0.26615
0.048707001 -0.028901 0.26589
0.15544 -0.027705001 0.21067999
0.15403 -0.028372999 0.21145999
0.12368 -0.027295001 0.22705001
0.12314 -0.028046999 0.22719
0.073487997 -0.02685 0.25297001
0.15362 -0.026830001 0.21243
0.12519 -0.027185 0.22706001
0.073224999 -0.026161 0.25316
0.15276 -0.025758 0.2124
0.044298001 -0.025834 0.26677001
0.12517001 -0.025171001 0.22596
0.12533 -0.024992 0.22488999
0.12606999 -0.025545999 0.22486
0.025126001 -0.025010999 0.27875999
0.12778001 -0.023892 0.22597
0.023686999 -0.023436001 0.27754
0.042592 -0.022061 0.26829001
0.043152001 -0.022895001 0.26876
0.12963 -0.021600001 0.22251999
0.041492 -0.021147 0.26984
0.024224 -0.019846 0.27836999
0.15421 -0.019907 0.21265
0.15236001 -0.02086 0.21179
0.025273001 -0.019174 0.27702999
0.025281001 -0.019058 0.27801001
0.071360998 -0.019267 0.25349
0.070363 -0.018826 0.25273001
0.070111997 -0.01857 0.25424001
0.039974 -0.019288 0.27052999
0.13237 -0.019523 0.22229999
0.039030999 -0.01912 0.2696
0.040537 -0.01983 0.27002999
0.15238 -0.018939 0.21202999
0.1516 -0.018973 0.21254
0.13477001 -0.018942 0.22161999
0.15301999 -0.018113 0.21319
0.13486999 -0.017728999 0.221
0.13372999 -0.018379999 0.22174001
0.15236001 -0.015811 0.21324
0.067962997 -0.016053 0.25483999
0.13695 -0.015923999 0.22005001
0.13778 -0.016155999 0.21977
0.067806996 -0.01588 0.25617999
0.067152999 -0.015279 0.25613999
0.15049 -0.015899001 0.21351001
0.036538001 -0.015432 0.27118
0.037374001 -0.015508 0.27186
0.13892999 -0.015349 0.21946999
0.067800999 -0.014792 0.25644001
0.067806996 -0.013691 0.25545999
0.15092 -0.012932 0.215
0.14777 -0.012964 0.21507999
0.14831001 -0.012819 0.21511
0.14229 -0.011931 0.21772
0.14264999 -0.012328 0.2172
0.033199999 -0.0129 0.27293
0.031860001 -0.013078 0.27417001
0.029998999 -0.012795 0.27359
0.067694001 -0.0056810002 0.25724
0.067114003 -0.0068748998 0.25641
0.066482 -0.0063780001 0.25554001
0.056478001 -0.0010638 0.26181999
0.056322999 -0.00075199001 0.26140001
0.062461998 0.0020347999 0.26047999
0.168 0.03748 0.20487
0.16738001 0.034917001 0.2053
0.16962001 0.038361002 0.20283
0.16824 0.036839999 0.20416
0.16931 0.038477 0.20383
0.17168 0.040971 0.20266999
0.17233001 0.041582 0.20281
0.17302001 0.042009 0.20189001
0.052143998 -0.053743999 0.26284
0.052715998 -0.053583 0.26352999
0.053350002 -0.053128999 0.26306
0.051727001 -0.054109 0.26346001
0.048684001 -0.053862002 0.26519999
0.047088999 -0.053034998 0.26616001
0.045299999 -0.053571001 0.26640999
0.10923 -0.052825999 0.23412
0.052917 -0.053259 0.26311001
0.046512999 -0.053550001 0.26638001
0.054850001 -0.053902999 0.26256001
0.054513 -0.053727001 0.26223999
0.042521 -0.054515999 0.2687
0.055305999 -0.052384 0.26131999
0.057558998 -0.051786002 0.26122999
0.055647001 -0.053082 0.26144999
0.055746 -0.052878998 0.26262999
0.057363 -0.052115001 0.26122001
0.056561999 -0.051084001 0.26076999
0.057642002 -0.049904 0.26007
0.040222999 -0.050666001 0.26991001
0.038339 -0.050749999 0.27011999
0.039694 -0.050634 0.27043
0.075671002 -0.049938999 0.25209999
0.076114997 -0.051183 0.25207001
0.059370998 -0.051102001 0.26124001
0.058795001 -0.049791999 0.25968999
0.036076002 -0.049718998 0.27094999
0.059691999 -0.049575999 0.25942999
0.060028002 -0.049920999 0.2595
0.037089001 -0.048927002 0.27034
0.081202 -0.049203001 0.24974
0.080444001 -0.049685001 0.24902999
0.079700999 -0.048337001 0.25097001
0.079021998 -0.049862999 0.24958
0.060538001 -0.048631001 0.25872999
0.037709001 -0.049093999 0.27103001
0.1053 -0.048827998 0.23576
0.034209002 -0.047908001 0.2721
0.10486 -0.04738 0.23547
0.033438999 -0.046948999 0.27349001
0.033744998 -0.046900999 0.27261001
0.061627001 -0.046590999 0.25841001
0.061156999 -0.046521001 0.25841999
0.033186 -0.045883998 0.27371001
0.032166999 -0.045364 0.27355999
0.065857001 -0.046227001 0.25514999
0.062431 -0.045595001 0.25824001
0.10335 -0.043618999 0.23721001
0.079810001 -0.043134999 0.24975
0.079594001 -0.044491999 0.2492
0.077610999 -0.043747 0.24939001
0.075758003 -0.043868002 0.25198999
0.074635997 -0.044275999 0.25139999
0.030831 -0.043540001 0.27473
0.10342 -0.0418 0.23774999
0.10404 -0.041331001 0.23688
0.062513001 -0.041903 0.25808999
0.028881 -0.041976001 0.27616999
0.029538 -0.041852999 0.27482
0.064014003 -0.041200001 0.25850999
0.028038001 -0.040943 0.27585
0.060952999 -0.041228998 0.25854999
0.061409 -0.038724001 0.25973001
0.10471 -0.038550001 0.23634
0.061129998 -0.038701002 0.25865
0.061650001 -0.038474001 0.25918999
0.028727001 -0.038052998 0.27478999
0.10507 -0.037232 0.23692
0.027735 -0.038017001 0.27669001
0.027151 -0.038569 0.27546999
0.10533 -0.035852998 0.2357
0.059905998 -0.038713999 0.25924
0.060339998 -0.036759999 0.25938001
0.10669 -0.036943 0.23552001
0.11386 -0.035962999 0.23193
0.11461 -0.036370002 0.23171
0.11644 -0.035126001 0.23126
0.11575 -0.036575999 0.23063999
0.1152 -0.036989 0.22927999
0.060506999 -0.037909001 0.26007
0.060359001 -0.037195001 0.25942999
0.11541 -0.035696 0.23169
0.11352 -0.034513999 0.23063999
0.060107 -0.036364 0.26012
0.027021 -0.035944 0.27572
0.10641 -0.034882002 0.23525
0.10701 -0.035618 0.23469
0.059078999 -0.036430001 0.25926
0.059528999 -0.035381 0.25960001
0.057634 -0.034309998 0.25999001
0.057946999 -0.035737999 0.26012
0.026149999 -0.034860998 0.27654001
0.026502 -0.03404 0.27682
0.10663 -0.033932 0.23518001
0.10798 -0.033973001 0.23518001
0.056991 -0.034494001 0.26095
0.056209002 -0.032591 0.26078001
0.10729 -0.034274999 0.23478
0.10765 -0.033436999 0.23483001
0.10722 -0.031892002 0.23407
0.10988 -0.033002 0.23266999
0.11041 -0.032680001 0.23229
0.054625999 -0.03224 0.26185
0.052825 -0.032035999 0.26212001
0.026108 -0.031739 0.27781999
0.026102001 -0.032497998 0.27590001
0.11968 -0.031458002 0.22835
0.12151 -0.031191001 0.22803
0.12128 -0.030081 0.22822
0.051693998 -0.031126 0.26258001
0.025157001 -0.031800002 0.27641001
0.051828999 -0.031776998 0.26295999
0.15708999 -0.030897001 0.20871
0.15831999 -0.030853 0.20987
0.052283 -0.030564001 0.26345
0.12173 -0.030412 0.22676
0.15669 -0.029680001 0.20990001
0.12235 -0.029863 0.22770999
0.072223 -0.029198 0.25342
0.049701001 -0.030313 0.26457
0.15702 -0.028763 0.20992
0.049653001 -0.030347001 0.26398
0.15775999 -0.030053999 0.21016
0.15521 -0.028661 0.20866001
0.15404999 -0.028302999 0.20973
0.15545 -0.028044 0.21077999
0.12198 -0.029356999 0.22581001
0.12281 -0.028719001 0.22668999
0.048060998 -0.02915 0.26499
0.12388 -0.027791001 0.22648001
0.047802001 -0.027748 0.26583001
0.1532 -0.027861999 0.21139
0.15180001 -0.027871 0.21273001
0.15339001 -0.026704 0.21239001
0.15284 -0.027262 0.2121
0.12385 -0.028188 0.22592001
0.024489 -0.027253 0.2773
0.024822 -0.027919 0.27777001
0.12451 -0.026926 0.22649001
0.073086999 -0.026861001 0.25413999
0.15155999 -0.026495 0.21174
0.15232 -0.027054001 0.21225999
0.072307996 -0.025869999 0.25387001
0.024040001 -0.026001001 0.27788001
0.12369 -0.026953001 0.22445001
0.12493 -0.025756 0.22725999
0.15246999 -0.026162 0.21201999
0.15262 -0.025095999 0.21235
0.072351001 -0.025032001 0.25301999
0.072088003 -0.025269 0.25307
0.044309001 -0.025281999 0.26694
0.043423999 -0.024558 0.26706001
0.024979001 -0.024648 0.27666
0.024215 -0.024019999 0.27768999
0.12651999 -0.023926999 0.22545999
0.043857001 -0.025044 0.26862001
0.024143999 -0.024489 0.27836001
0.043237999 -0.023582 0.26826999
0.072199002 -0.021586001 0.25389001
0.072737999 -0.024207 0.25343999
0.02461 -0.023901001 0.27781001
0.12853999 -0.023150001 0.22372
0.12933999 -0.022325 0.2234
0.12996 -0.022721 0.22378001
0.026217001 -0.02242 0.27748001
0.15312 -0.022843 0.21259999
0.15217 -0.023156 0.21211
0.15267999 -0.023664 0.21303
0.12849 -0.02152 0.22337
0.071569003 -0.022159999 0.25404
0.041892 -0.022781 0.26863
0.13053 -0.022019999 0.22308999
0.072393999 -0.022219 0.25404
0.024518 -0.020649999 0.27849999
0.13022999 -0.021041 0.22229999
0.071869999 -0.020880001 0.25400001
0.070839003 -0.021774 0.25435999
0.15301999 -0.019936999 0.21213
0.15318 -0.020785 0.21229
0.070920996 -0.021206001 0.25432
0.040304001 -0.020755 0.26868001
0.025248 -0.019879 0.27505001
0.13144 -0.020098001 0.22310001
0.13228001 -0.019866999 0.22177
0.13256 -0.019832 0.22104
0.070846997 -0.020090999 0.25415999
0.15157001 -0.018429 0.2131
0.15082 -0.018809 0.21165
0.026325 -0.018402001 0.27764001
0.13304 -0.019357 0.22169
0.038180999 -0.018999999 0.27013001
0.069251999 -0.018342 0.25511
0.069476999 -0.017890001 0.25529999
0.038633 -0.017819 0.27125001
0.15095 -0.016799999 0.21366
0.025210001 -0.017928001 0.27722999
0.026420999 -0.018678 0.27726999
0.038182002 -0.01705 0.27114001
0.036396999 -0.016662 0.27079999
0.026284 -0.017369 0.27674001
0.024858 -0.018750001 0.27695999
0.15114 -0.017495001 0.21256
0.13625 -0.016206 0.22048
0.1362 -0.016262 0.22066
0.13546 -0.015647 0.22059999
0.027198 -0.016747 0.27601999
0.15126 -0.015559 0.21309
0.027665 -0.014196 0.27634001
0.027641 -0.014864 0.27634001
0.026993001 -0.016051 0.2766
0.028516 -0.015301 0.27599001
0.14891 -0.01416 0.21340001
0.13966 -0.01451 0.21927001
0.067071997 -0.015508 0.25544
0.066209003 -0.014881 0.25538999
0.14008 -0.013599 0.21933
0.034669999 -0.014779 0.27162999
0.035868 -0.013427 0.27142999
0.028647 -0.014644 0.27645999
0.14057 -0.01415 0.21913999
0.14055 -0.01391 0.21838
0.034802999 -0.013337 0.27248999
0.14845 -0.014046 0.21516
0.14702 -0.013371 0.21430001
0.14722 -0.012417 0.21512
0.14195 -0.013047 0.21705
0.033994999 -0.013049 0.27268001
0.029834 -0.012912 0.2757
0.029748 -0.014248 0.27500001
0.02871 -0.014023 0.27561
0.14593001 -0.012996 0.21468
0.14583001 -0.012582 0.21540999
0.14507 -0.012766 0.21641999
0.14593001 -0.013585 0.21489
0.14432999 -0.013282 0.21491
0.066371001 -0.0068183001 0.25542
0.067349002 -0.0054573999 0.25654
0.055498999 -0.0043755001 0.26179999
0.055404998 -0.0050871 0.26275
0.055985 -0.0053472002 0.26273999
0.056161001 -0.0031208 0.26232001
0.055879001 -0.0020683 0.26126999
0.055945002 0.00020593 0.26038
0.063013002 -0.00038571999 0.25737
0.062102001 -0.00061356003 0.25619
0.056423001 -0.00050222001 0.26003
0.062224999 0.00022445001 0.25896001
0.057665002 0.00089044002 0.26019999
0.062725998 0.00053915998 0.25861001
0.057753 0.0015858 0.25957
0.061411001 0.0031077 0.25911
0.061627001 0.0021124999 0.25804999
0.062336002 0.0015586 0.25797001
0.058486 0.001447 0.26032001
0.058782998 0.0027409 0.25968999
0.059149001 0.0024265 0.25953001
0.061315998 0.0030973 0.25885999
0.060171001 0.001162 0.25918001
0.061650999 0.003733 0.25835001
0.16774 0.035962999 0.20474
0.16782001 0.037351999 0.20548999
0.17048 0.037923001 0.20275
0.17005 0.038352001 0.20209
0.17015 0.038155001 0.20253
0.17109001 0.039113 0.20194
0.17045 0.040527999 0.20265
0.17106 0.039861001 0.20283
0.17116 0.040785 0.20182
0.17451 0.042068001 0.2013
0.17341 0.043232001 0.20062999
0.17534 0.042957 0.20103
0.17444 0.043635 0.19993
0.051199999 -0.053502999 0.26447001
0.050632 -0.054857001 0.26453999
0.051552001 -0.052230999 0.26291001
0.047401 -0.053043999 0.26512
0.043853998 -0.052623 0.26813
0.054216001 -0.051645 0.26135001
0.10848 -0.052400999 0.23444
0.10665 -0.052033 0.23484001
0.10738 -0.050475001 0.23514
0.10667 -0.051507 0.23364
0.040176999 -0.051899999 0.26951
0.056975 -0.050421 0.26007
0.10543 -0.048062 0.23357999
0.10526 -0.050117999 0.23469999
0.059953999 -0.048705 0.25907001
0.036068998 -0.049022 0.27245
0.060100999 -0.047899999 0.25832
0.06075 -0.048204001 0.25913
0.034853999 -0.046939 0.27237001
0.030827999 -0.045093998 0.27445999
0.066471003 -0.043807998 0.2563
0.062010001 -0.043593001 0.25797999
0.031835999 -0.043721002 0.27357
0.075377002 -0.042043999 0.25163001
0.062890001 -0.042273998 0.25784001
0.062505998 -0.041859999 0.25753
0.061078999 -0.039593998 0.25911999
0.061526 -0.042022001 0.25753
0.061864 -0.040196002 0.25896999
0.10546 -0.040383 0.23601
0.059756 -0.038640998 0.25867
0.059294999 -0.036931001 0.26016
0.10636 -0.036393002 0.23538999
0.027619001 -0.035992999 0.27652001
0.11452 -0.036701001 0.23040999
0.10605 -0.036872 0.23462
0.05968 -0.036759 0.25942999
0.11651 -0.034775998 0.23041999
0.057025 -0.034598 0.26179001
0.025912 -0.034770999 0.27497
0.026289999 -0.033868998 0.27631
0.11765 -0.035147 0.22888
0.11379 -0.035004999 0.23077001
0.10731 -0.035025001 0.23511
