# .PCD v0.7 - Point Cloud Data file format
VERSION 0.7
FIELDS x y z
SIZE 4 4 4
TYPE F F F
COUNT 1 1 1
WIDTH 1432
HEIGHT 1
VIEWPOINT 0 0 0 1 0 0 0
POINTS 1432
DATA ascii
-0.044976 -0.0079859998 0.086640999
-0.018696001 -0.024072999 0.075268
0.093975998 0.034805998 0.083947003
-0.0061265002 -0.034148999 0.11064
-0.0045065 -0.034857001 0.11147
-0.033112001 0.034734 0.10823
-0.034233999 0.035466999 0.10985
-0.02729 -0.028029 0.056123
0.078123003 -0.027814001 0.11497
0.0016068 -0.010271 0.069173001
0.0034387 -0.0094945999 0.069760002
0.0451 -0.039824001 0.12755001
0.1023 0.04431 0.080058999
0.10225 0.043366998 0.080168001
0.045979001 -0.0022988 0.095579997
0.046374999 -0.0013142 0.095982
0.047350001 -0.0018155 0.096532002
-0.012686 0.0082433 0.085174002
-0.0024045999 -0.022050999 0.076315001
-0.068053 0.038642999 0.11039
-0.046269 0.017687 0.096074
-0.024366001 0.029836999 0.11291
-0.024403 0.030921999 0.11197
-0.024123 0.030820001 0.11332
0.028739 -0.0030704001 0.082480997
0.029931 -0.0029430999 0.083924003
-0.032102998 0.015795 0.1047
-0.031695999 0.014098 0.10418
-0.027678 -0.0042818999 0.080943003
-0.027373999 -0.0049425 0.080169998
0.026899001 0.017711001 0.096363001
0.027271001 0.019177999 0.096784003
-0.023150999 0.0084846998 0.10309
0.02007 0.0021867 0.072989002
-0.015413 0.0021641999 0.082589
-0.015626 0.0022831 0.080092996
-0.016368 0.00065110001 0.080402002
0.050303999 -0.038164999 0.076985002
0.051059 -0.037347 0.077451997
0.049943 -0.037563 0.076369002
-0.0022358999 -0.039781999 0.11919
-0.025281999 -0.018785 0.070479997
0.026915999 0.010127 0.080448002
0.026279001 0.010867 0.081350997
0.027110999 0.01008 0.082705997
0.069283001 -0.0085226996 0.092702001
0.069108002 -0.0081358002 0.093653001
0.07096 -0.036968999 0.1191
0.033452999 0.016261 0.102
-0.011809 0.0089170001 0.087396003
-0.015711 -0.027903 0.078479998
-0.016177 -0.026519001 0.079130001
-0.01592 -0.025988 0.077974997
-0.018776 0.00092055002 0.086204
-0.019075001 0.0018703 0.087498002
-0.045729 -0.030981001 0.059971999
-0.047984999 -0.029965 0.061985001
-0.045851 -0.029247999 0.060825001
0.039044 0.0049679 0.089808002
-0.058205001 0.017878 0.1004
-0.058061998 0.018683 0.10134
0.089230999 0.03396 0.089596003
0.089553997 0.033046 0.090093002
-0.018069001 -0.010057 0.071603
-0.048092999 0.031044999 0.087860003
-0.048944999 0.033160001 0.086296
-0.030774999 -0.0071601002 0.077684999
-0.03176 -0.0065199998 0.077549003
-0.030664001 -0.0067305001 0.078106999
-0.036678001 0.018524 0.097368002
-0.036109999 0.018866999 0.097843997
0.080876999 -0.0070245001 0.082043
0.080874003 -0.0094111999 0.081632003
-0.028994 -0.0028986 0.083222002
-0.029614 -0.001853 0.083267003
-0.045409001 0.030344 0.083099999
0.062233999 -0.028704001 0.076435998
-0.033615001 -0.022427 0.054047
-0.033438001 -0.023433 0.053617999
-0.034974001 -0.022798 0.055902001
-0.046700001 0.0047848001 0.088933997
-0.047065001 0.0060000001 0.088606
-0.046803001 0.0072511998 0.089450002
0.043570999 -0.030129001 0.073872
-0.027026 -0.015271 0.067158997
-0.026662 -0.017209999 0.066485003
0.070730999 -0.031624001 0.11082
0.069735996 -0.032090999 0.11162
-0.026702 -0.040924001 0.055828001
-0.027225999 -0.039090998 0.056152999
0.05345 -0.027332 0.070720002
0.031275 -0.039515 0.062510997
0.031741001 -0.040297002 0.063391
-0.030982999 0.023793999 0.11051
-0.032288 0.022423999 0.1113
-0.039418999 -0.028135 0.057530001
-0.040355999 -0.0277 0.059508
0.011348 0.017448001 0.088758998
0.012405 0.0186 0.088462003
0.030773001 0.0043915999 0.082108997
0.030987 0.0047598002 0.082675003
0.035347998 -0.035016 0.065209001
0.035454001 -0.033633001 0.065943003
0.084830999 0.028517 0.086800002
0.085051998 0.026818 0.085346997
0.083801001 0.028085001 0.086971998
0.041288 -0.0049929 0.089690998
-0.058325 0.036798 0.12223
-0.058853 0.037342999 0.12089
-0.060230002 0.036635 0.12171
-0.066091001 0.036246002 0.10726
-0.066336997 0.036061 0.10688
-0.039604999 -0.031025 0.056651998
-0.054273002 0.043887999 0.10191
-0.05339 0.042768002 0.10135
0.053929999 -0.0023757999 0.10309
0.053429998 -0.0030340001 0.10212
0.0065083001 -0.018685 0.079880998
0.090570003 0.022329001 0.083672002
0.082099997 -0.021362999 0.11835
0.082369998 -0.021694999 0.11672
-0.013394 0.0042101 0.083329
-0.01168 0.0058631999 0.083204001
-0.012774 0.0049410001 0.082335003
0.013404 0.010767 0.076834999
-0.044874001 -0.038125999 0.057273999
-0.043880001 -0.038674001 0.058322001
-0.043561999 -0.037039001 0.056825999
0.029439 0.014385 0.092253998
0.068646997 -0.0050861998 0.097078003
0.024757 0.011076 0.081326999
0.025366001 0.0094953002 0.080261
0.025953 0.0096647004 0.080477998
-0.0092329001 -0.0010446 0.071018003
0.020924 0.0039251 0.072613001
0.021739 0.0036943001 0.074905999
0.02513 0.012371 0.081331998
-0.040387999 0.043784 0.081963003
-0.0023483001 -0.0033146001 0.067845002
0.062521003 -0.027325001 0.07869
-0.038410001 -0.0095012998 0.079502001
-0.040086001 -0.0091620004 0.080824003
0.060090002 -0.015356 0.084229
0.059298001 -0.0156 0.085317001
0.01222 -0.00046395999 0.069894999
-0.056979999 -0.032207999 0.059215002
-0.057815 -0.031977002 0.059319001
-0.055716999 -0.031146999 0.059347998
0.0019035999 0.0078609996 0.075306997
0.035615999 -0.0053371 0.086971998
-0.044923998 0.033511002 0.11198
-0.033323999 -0.024622001 0.053376999
-0.030376 -0.024422999 0.053231999
-0.011202 -0.020253001 0.071216002
-0.0025815 -0.024551 0.080426998
-0.072159 0.040493999 0.11606
0.030067001 0.0014097 0.082096003
0.029744999 0.0011803 0.083557002
0.031558 -0.00067523 0.083195999
-0.040741999 0.020995 0.097037002
-0.040663 0.021993 0.097415
-0.040318001 0.02084 0.097052999
0.062336002 -0.028297 0.093969002
0.062107 -0.029735001 0.094443001
-0.010352 0.012947 0.087049
-0.060275 0.037053999 0.10153
0.033147 0.017369 0.10034
0.032958999 0.017814999 0.10235
0.032194 0.017708 0.10027
0.069674 -0.031918 0.10943
0.068889 -0.032554999 0.10989
0.080412999 -0.023525 0.11733
0.052110001 -0.0072674002 0.098149002
0.036286 0.0085186996 0.088000998
0.034510002 0.0084881 0.086763002
0.0030348001 -0.026903 0.11135
0.096579 0.024743 0.081150003
-0.026984001 0.025397001 0.10882
-0.026427999 0.027636999 0.11035
-0.027557001 0.026126999 0.10981
-0.016089 -0.027203999 0.081019998
-0.015163 -0.027824 0.081289999
-0.014531 -0.028086999 0.081881002
0.095951997 0.028464001 0.087200001
0.096417002 0.028367 0.087577
0.095601998 0.028646 0.086289003
-0.040479999 0.026760001 0.098761998
-0.040015999 0.025806 0.099312998
-0.051911999 0.036843002 0.11863
0.034058999 -0.036113001 0.063507996
0.034988999 -0.036814999 0.065113999
-0.039131001 0.036926001 0.080139004
-0.0067210998 0.0061352002 0.078436002
-0.058929 0.0099852001 0.10143
-0.059142001 0.011894 0.10037
-0.05717 0.010697 0.10081
-0.034207001 -0.0012769999 0.082904004
-0.046101999 0.021052999 0.090957999
0.058407001 -0.012696 0.077238001
0.059687998 -0.012846 0.078052998
0.059889998 -0.012864 0.074700996
-0.0046803001 0.011184 0.085823998
-0.0058710999 0.010311 0.086892001
-0.0037130001 0.01005 0.085552
-0.033562001 -0.0033159 0.081448004
-0.034090001 -0.0037219001 0.081577003
-0.035259001 -0.0039173998 0.081652001
-0.034743 0.0018415001 0.087241001
-0.070179 0.034446001 0.11014
-0.037399001 0.029929001 0.099207997
-0.038759001 0.027549 0.099040002
-0.036499999 0.030036001 0.099762999
-0.028649 -0.020794 0.056113001
-0.028418001 -0.020413 0.056717001
0.059021998 -0.030732 0.070713997
0.059087999 -0.032866001 0.069664001
0.060412999 -0.013841 0.075479001
0.059891 -0.013252 0.075529002
0.061398 -0.014381 0.075685002
-0.025774 0.0084886998 0.093791999
-0.022864001 0.0061038001 0.093534999
-0.024418 0.0073782001 0.092266001
0.00033847999 -0.035918001 0.11563
-0.00039234999 -0.035494 0.11596
0.087249003 0.0064988998 0.083571002
0.043561 -0.038428999 0.12418
0.041545998 -0.038842998 0.12622
0.032074001 0.017674999 0.10171
-0.033043001 0.012329 0.091710001
-0.037723001 -0.0094817001 0.077615
-0.046668999 0.031028001 0.085867003
-0.047798 0.030522 0.085681997
-0.047593001 0.031824 0.085942
-0.026582001 0.020667 0.11073
-0.027295999 0.018662 0.11263
-0.02696 0.018683 0.11209
-0.0047543999 -0.013857 0.068602003
0.089130998 0.027802 0.083768003
0.0748 -0.025951 0.092092998
0.076010004 -0.02575 0.093119003
-0.04149 0.028616 0.081086002
0.0018164 -0.02189 0.077100001
0.030223001 -0.00072348001 0.081289001
0.029526001 0.00092863 0.080216996
0.0109 -0.013584 0.077519
0.010214 -0.01557 0.077558003
0.080463998 0.0044241999 0.086529002
0.081935003 0.0051956 0.086924002
0.089697003 0.029585 0.084147997
0.090062 0.029859999 0.082494996
0.065376997 -0.037036002 0.071235001
0.064392999 -0.036446001 0.072033003
-0.027542001 -0.029912001 0.062426999
-0.031796999 -0.034797002 0.059866
-0.027364001 -0.0078736003 0.076939002
-0.027954999 -0.0083282003 0.075433001
0.0088152001 -0.037705999 0.11424
0.10027 0.040828999 0.08405
0.099939004 0.039645001 0.085115001
0.056285001 -0.020539001 0.072497003
0.05624 -0.020502999 0.073266
0.019676 0.018017 0.092060998
-0.018790999 -0.00096332998 0.081229001
0.02516 0.0038099999 0.077225
0.085317999 0.037446 0.090209
-0.030788001 0.038922999 0.11211
0.069187 -0.023308 0.086561002
0.070067003 -0.023941001 0.086809002
0.068285003 -0.023007 0.087457001
-0.030406 -0.037264999 0.1154
-0.019162999 -0.018858001 0.071097001
-0.019370999 -0.019523 0.071415
-0.028787 -0.012134 0.066471003
-0.010842 -0.040144999 0.11699
-0.011285 -0.040038001 0.11842
-0.012713 -0.039861001 0.11843
0.072815999 -0.027981 0.096077003
0.074946001 -0.027369 0.096037
-0.001478 0.0051271999 0.072797999
-0.0028029999 0.0053082998 0.073423997
-0.0026432001 0.0060950001 0.075508997
0.063750997 -0.019671001 0.077891
0.064006999 -0.018525001 0.079319
0.084582001 -0.0020472 0.094083004
0.086143002 -0.0017814999 0.092924997
0.083869003 -0.00053501001 0.095238
0.072906002 -0.0072300001 0.085909002
0.073746003 -0.0065036998 0.086548999
0.041809998 0.010039 0.10818
0.040185999 0.0078780996 0.10799
0.073784001 -0.034281 0.11482
0.02712 -0.0093457997 0.085850999
0.026472 -0.0087502999 0.085487001
-0.037870999 0.034577001 0.10934
-0.045132 -0.0079330998 0.087154999
-0.043689001 0.030967999 0.10767
-0.042814001 0.029217999 0.10921
-0.043473002 0.030229 0.10789
-0.0078014 0.010997 0.084432997
-0.0081785005 0.010224 0.085042998
0.044185001 -0.036134999 0.065580003
0.044895001 -0.036141001 0.067391999
-0.045568999 0.030448001 0.10706
-0.039351001 0.0065581999 0.089826003
-0.038139999 0.0070374999 0.091287002
0.10157 0.02987 0.080664001
-0.032166999 -0.015481 0.057689
-0.031207001 -0.013961 0.056263
0.064379998 -0.023567 0.076926999
0.063993998 -0.020764001 0.078741997
0.064625002 -0.022268999 0.079694003
0.073807999 -0.033312999 0.1131
-0.024304001 0.0062969001 0.093383998
-0.0047078002 -0.0025824001 0.067507997
0.00070827 -0.029028 0.10792
-0.059436999 0.012362 0.10076
-0.059108 0.013951 0.10092
-0.02079 0.039138999 0.1116
-0.021004001 0.039197002 0.11197
0.068807997 -0.020093 0.085235998
0.031743001 0.0093935998 0.084017999
0.041655 -0.016659999 0.094640002
0.04163 -0.015038 0.093466997
-0.045343 -0.039599001 0.060458999
0.014732 0.0011714 0.070664003
0.015381 0.0028406 0.071606003
0.015772 0.0033042999 0.072342001
-0.018382 -0.035886001 0.11081
-0.017292 -0.035188001 0.11241
0.084927998 0.038463 0.089491002
0.085274003 0.037048001 0.090989999
-0.0036783 0.012814 0.086245999
-0.039850999 -0.0099312998 0.079295002
-0.040268999 -0.01018 0.077780999
0.026626 0.013802 0.088931002
0.027179001 0.01428 0.089579999
0.027446 0.013382 0.088416003
0.048432 -0.010059 0.093469001
0.010457 0.015907999 0.085005
0.018557999 -0.0079215998 0.076477997
0.019408001 -0.0076263999 0.076664999
-0.038403999 -0.01031 0.078262001
-0.037948001 -0.0094841002 0.078578003
-0.029627001 -0.016054001 0.060233001
0.054482002 -0.025443001 0.072103001
0.055117998 -0.024744 0.071626
0.055876002 -0.023342 0.070860997
0.025896 0.0044943001 0.076626003
-0.00053556002 0.0071076001 0.073104002
-0.0011254 0.0061678002 0.073237002
0.022775 -0.0097302003 0.082416996
-0.034522999 0.029495999 0.10895
-0.033932 0.030608 0.10858
-0.034536 0.029323 0.1089
-0.049986001 0.039547 0.12162
-0.048774 0.037707001 0.12282
-0.049097002 0.039912 0.11947
-0.066531003 -0.033137001 0.071244001
-0.066794001 -0.033535998 0.072286002
-0.066326 -0.033342 0.071428001
-0.030034 0.03827 0.11049
0.043597002 -0.010287 0.091482997
0.044245999 -0.012218 0.091624998
0.044287998 -0.012313 0.092159003
0.065398 -0.010695 0.092946
0.078120999 -0.0041393 0.085307002
-0.019153999 -0.012027 0.069704004
0.029567 0.0052513001 0.081552997
-0.00044974001 -0.0028021 0.069020003
-0.028967001 -0.035971001 0.058304999
-0.029999999 -0.035843 0.058267999
-0.04061 0.027062001 0.09922
-0.019828999 -0.011235 0.072586
-0.019905001 -0.01159 0.071117997
-0.041618001 0.026620001 0.092219003
-0.041352998 0.025477 0.090598002
-0.056862999 -0.037082002 0.056903999
0.064676002 -0.037498999 0.074081004
-0.03506 -0.00032065 0.084688
-0.034292001 -0.0013729 0.083159
0.081162997 -0.0058936998 0.082241997
0.079769 -0.0059745 0.082349002
0.081283003 -0.0055531999 0.081272997
-0.054122001 0.0081927003 0.092789002
-0.054536 0.0094870003 0.092258997
0.069013 -0.031158 0.10108
0.046160001 -0.00041107001 0.097840004
0.045524999 0.0013433 0.09736
-0.030654 0.0073099998 0.086709999
0.088621996 0.00075388001 0.081799001
0.088964999 0.0029662 0.082558997
0.063130997 -0.019796999 0.081041001
0.064149998 -0.020966999 0.079767004
-0.038121998 0.023559 0.11584
-0.039483 0.026691999 0.116
-0.040761001 0.026151 0.11666
0.096602999 0.032421 0.086767003
-0.025895 0.036618002 0.11223
-0.023765 0.037620999 0.1119
0.0048048999 -0.0089438995 0.068865001
0.0036772999 -0.010459 0.070796996
0.058572002 -0.020036999 0.072282001
-0.014653 0.0016882 0.079781003
-0.033046 0.0093948003 0.10714
-0.032398999 0.010201 0.10712
-0.033109002 -0.034185 0.058244999
0.037921999 0.01096 0.094679996
0.091530003 0.0052320999 0.085228004
0.072968997 -0.011057 0.083843999
0.071358003 -0.011329 0.084500998
0.071562998 -0.011737 0.084012002
-0.059803002 -0.037723001 0.064521
0.033962 0.0021317001 0.084142998
0.033737998 0.0026034 0.085152
-0.011763 -0.039235 0.12018
-0.0096984003 -0.039735999 0.11838
0.037098002 0.0035289 0.088293999
0.072108999 -0.033511002 0.11242
0.071221001 -0.034481 0.11449
-0.031475 -0.0084116003 0.075905003
-0.031427 -0.0082419002 0.076750003
-0.029975001 -0.0088114003 0.076516002
0.044838998 -0.038201001 0.067222998
-0.057597999 0.011576 0.098590001
-0.057771001 0.013194 0.097999997
0.056306001 -0.021278 0.071374997
0.056841999 -0.020298 0.071272999
-0.048071999 0.031743001 0.10718
-0.047997002 0.032793999 0.10758
0.011037 0.013965 0.081822
0.0095698005 0.01461 0.081312001
0.035604998 0.012507 0.096143998
0.035344999 0.012022 0.095193997
0.078074001 -0.0031935 0.085559003
0.077993996 -0.0018297 0.086631
-0.040275 0.044507999 0.077836998
-0.039521001 0.044346001 0.080936
-0.0077982 -0.0074526002 0.070129
-0.0058105998 -0.0052959998 0.069283001
0.052336998 -0.0089795999 0.094816998
0.054264002 -0.0098895002 0.096199997
0.083318003 0.023142001 0.085428998
0.083853997 0.024718 0.087155998
-0.032246001 -0.0065092999 0.079806
-0.028251 -0.014251 0.065144002
-0.027773 -0.015413 0.066432998
-0.027948 -0.015467 0.064793997
0.0066375001 -0.010172 0.071566001
0.0071351998 -0.011838 0.071416996
0.076348998 -0.035512 0.11806
0.075832002 -0.035080001 0.11968
-0.028457999 0.034403 0.11221
-0.029276 0.032930002 0.11337
-0.029774001 0.031844001 0.111
-0.048466001 0.037797999 0.12085
0.059668999 -0.027742 0.068972997
-0.037639 -0.025239 0.056685999
-0.037310001 -0.024645001 0.057348002
0.085385002 0.0014554 0.082014002
0.084123001 0.00041787999 0.083086997
-0.025947001 -0.0069785002 0.077647999
-0.024819 -0.0048706001 0.078280002
0.042574 0.0012393 0.093281001
0.042119 0.0013045 0.093392998
0.046142001 0.0079143997 0.10733
0.045255002 0.0079322997 0.1096
-0.032517001 -0.0079378001 0.075282998
-0.034958001 -0.0066049998 0.077037998
-0.041416999 -0.0057068001 0.082765996
0.050716002 -0.038660999 0.12757
0.049566999 -0.039156001 0.12974
0.049667999 -0.039507002 0.12721001
-0.027262 -0.029022001 0.06453
-0.025862001 -0.026521999 0.064282
0.063588001 -0.030151 0.093436003
0.062624 -0.023822 0.087082997
0.091782004 -0.00042769001 0.087178998
0.090880997 0.00051803997 0.088010997
0.096712001 0.025404001 0.081404001
-0.033828001 0.014516 0.091233
-0.034646999 0.01303 0.089624003
9.3235001e-05 -0.022574 0.076614
0.00077263999 -0.022152999 0.077430002
-0.054322999 -0.033177 0.057319999
-0.056425001 -0.032907002 0.057765
0.052053001 -0.037903 0.077019997
0.057817001 -0.01406 0.072127998
0.058421001 -0.013244 0.070929997
0.082860999 -0.039907001 0.13007
0.080922 -0.040975001 0.12936001
0.082571 -0.040906999 0.1287
-0.056016002 0.018772 0.097056001
-0.05607 0.019045001 0.099073999
-0.032821 -0.040305998 0.058284
-0.033461999 -0.040153999 0.058304001
-0.032566 -0.039485 0.059308998
0.080530003 -0.041018002 0.12789001
0.081743002 -0.039955001 0.12828
0.043008 0.0089184996 0.10262
0.042773999 0.0081569003 0.10276
0.055233002 -0.0051492001 0.099834003
0.011197 -0.0118 0.073656
0.069058999 -0.037156999 0.070459999
0.069776997 -0.037767999 0.072319999
0.069755003 -0.037446 0.070952997
-0.026061 0.0087080998 0.094238997
0.00045734001 0.0076887999 0.076036997
0.00038275999 0.0068501001 0.076485999
0.0071668001 0.0093665002 0.075808004
0.0053657 0.0097679999 0.076160997
-0.032164 -0.017866001 0.061241999
-0.031819999 -0.019227 0.062509
-0.025602 -0.0012906 0.085109003
0.079856999 -0.024266001 0.11746
0.1037 0.030642999 0.078039996
0.10295 0.029952999 0.078760996
0.036947999 0.017261 0.10368
-0.068571001 0.020465 0.11069
-0.021499 0.045203999 0.10942
-0.071666002 0.040463999 0.11739
0.093009003 0.0086025996 0.085336
0.00013831 -0.029956 0.10914
-0.00071931002 -0.030699 0.11003
-0.020846 -0.0011256 0.084569
0.0070667001 -0.014366 0.072819002
0.0077183 -0.014448 0.073976003
0.024747999 -0.011834 0.087692
-0.048397999 0.034747999 0.10424
-0.046310998 0.035815999 0.10607
-0.040516 0.022608001 0.099040002
-0.042020999 -0.029438 0.060536001
0.064842999 -0.01314 0.090056002
0.064654998 -0.012802 0.091325998
0.035324998 -0.038759999 0.069936998
0.035190001 -0.039228 0.071548998
0.035216 -0.039500002 0.070793003
0.031298 0.019389 0.097755998
0.029143 0.018456001 0.096671
0.030592 0.019786 0.097350001
0.070973001 -0.010344 0.086783998
0.070422001 -0.010875 0.087819003
0.069705002 -0.0094994996 0.087752998
-0.034515999 0.037912 0.10972
-0.035452001 0.037547 0.10999
0.061292 -0.01542 0.081005
-0.02077 -0.021405 0.072759002
0.011139 0.0029422999 0.070501998
0.022651 -0.0113 0.087980002
0.023274001 -0.01064 0.089746997
0.025148001 -0.037799001 0.05782
0.072754003 -0.029536 0.11073
0.073285997 -0.029641001 0.10931
0.030066 -0.0061025 0.083315
0.076945998 -0.035914 0.11744
-0.014589 -0.027731 0.082475998
-0.013646 -0.028424 0.080531999
-0.012621 -0.026823999 0.081932001
0.067515999 -0.037859 0.071666002
-0.021903999 0.0051158001 0.10082
-0.053702001 0.033783 0.1125
-0.058961999 0.038327999 0.10074
-0.032777 0.0091332998 0.092309996
-0.031766001 0.0094482005 0.091991998
0.015171 -0.0095849996 0.075273998
0.012375 -0.011739 0.074401997
0.035533998 0.019645 0.1009
0.037198 0.020032 0.10149
-0.022614 -0.00081381999 0.086889997
0.033679999 -0.033822998 0.066307999
0.033140998 -0.03201 0.065922998
0.034049999 -0.032799002 0.066229001
-0.028493 -0.0019163 0.084753998
-0.028882001 -0.0020026001 0.084448002
-0.036747001 0.018014001 0.10397
-0.061491001 0.016059 0.10522
-0.061528999 0.016354 0.10434
0.092125997 0.010339 0.084002003
0.092101999 0.01027 0.083821997
-0.021245001 -0.038417999 0.11273
-0.020237001 -0.037505001 0.11113
-0.020905999 -0.038435001 0.11171
0.089904003 0.012323 0.083826996
0.038686 -0.0042053 0.088264003
0.037447002 -0.0054719001 0.088482998
-0.0045694001 -0.036779001 0.11178
0.045396 0.0032436999 0.098924004
-0.035487998 -0.0035808 0.081605002
-0.0023604 -0.035998002 0.11299
-0.034453999 0.014961 0.092339002
0.083742 -0.017475 0.093714997
-0.045143001 0.043320999 0.11919
-0.038984999 -0.0046684998 0.083012
0.085885003 -0.0094269998 0.083071001
0.093070999 0.023649 0.081331
-0.048402999 -0.030129001 0.062962003
-0.050877001 -0.030878 0.063297004
-0.049554002 -0.030162999 0.064682998
0.026593 0.0028748 0.077638999
0.096371002 0.038623001 0.081555001
0.095169 0.038511001 0.082937002
-0.031663001 -0.0093876999 0.066215001
-0.031771999 -0.011155 0.065015003
-0.032313999 -0.010067 0.065911002
-0.079611003 0.024672 0.12101
0.074507996 -0.0027951 0.089100003
0.073930003 -0.0037056 0.091145001
0.073763996 -0.0022313001 0.091159001
-0.068530001 0.0052844002 0.11395
-0.069017 0.0051166001 0.11462
-0.027982 0.015045 0.11037
-0.026306 0.015477 0.10967
0.057969 -0.03393 0.069987997
-0.025015 0.047726002 0.10738
-0.039310001 0.022382 0.10546
0.036513999 0.020191999 0.10237
0.036656 0.019777 0.10324
-0.029619001 0.0075766002 0.086793996
-0.028650001 0.0054088002 0.087802999
0.020407001 -0.0089092003 0.078584
0.066803001 -0.0074041001 0.095582999
0.067312002 -0.0077801999 0.095117003
0.043278001 0.0075365999 0.10338
-0.053879 0.035789002 0.119
-0.053895 0.037441999 0.12032
-0.044918999 -0.033948999 0.057161
-0.045368001 -0.033829 0.057422999
-0.044927001 -0.033998001 0.057638999
-0.056058999 -0.029999999 0.070386998
-0.056807 -0.029606 0.072356001
-0.053897001 -0.030253001 0.070979998
0.0045539001 -0.039767999 0.11539
0.012167 0.011461 0.078052998
0.012855 0.011727 0.077688999
-0.045439001 0.031564001 0.10582
-0.047288001 0.031013001 0.1069
-0.03991 -0.0062334999 0.081525996
-0.036031999 -0.038892001 0.11668
-0.028828001 0.033511002 0.1087
-0.029112 0.032127 0.11052
-0.028325001 0.032745 0.11046
0.072223999 -0.030004 0.10237
-0.023910001 -0.021838 0.062013
-0.023126001 -0.021337001 0.063046001
-0.025389999 -0.022626 0.061668999
-0.0087332996 -0.0013506 0.070116997
0.0021530001 -0.0033424001 0.068181001
0.0047650998 -0.002749 0.068534002
0.080229998 -0.021112001 0.12046
-0.044746999 0.00029530001 0.087839998
-0.043990001 0.00035292 0.087421998
-0.041981 -0.038371999 0.057172
0.096189998 0.025991 0.080387004
0.096955001 0.027721999 0.081708997
-0.028015999 -0.027469 0.065003
0.084531002 -0.016176 0.089317001
0.075217001 -0.0022348999 0.091459997
0.074511997 -0.0014981 0.090406001
0.030071 -0.0063860998 0.084096
0.027376 -0.0065346002 0.082741
0.028289 -0.0060087 0.082822002
0.054967999 -0.0012633 0.10847
0.053050999 4.5941e-05 0.10874
0.086433001 0.0051185 0.083451003
-0.042686999 -0.0059662 0.084013999
-0.042059999 -0.0066082999 0.084725998
-0.037751 0.014345 0.090664998
0.0015404 -0.014815 0.070331998
0.068627998 -0.037780002 0.12269
0.070076004 -0.038355999 0.12382
0.068561003 -0.039448 0.12362
-0.014391 -0.0042626001 0.072442003
0.057991002 -0.01332 0.072948001
0.059462 -0.013933 0.071506001
-0.024761001 0.034706 0.11335
-0.024959 0.035806999 0.1127
0.016070001 -0.011299 0.076940998
0.017268 -0.010792 0.078143999
-0.029031999 -0.012932 0.061928999
0.0148 0.011167 0.076153003
0.014422 0.011372 0.076838002
-0.021477999 -0.024452001 0.074354999
-0.02055 -0.023592001 0.075837001
-0.065861002 0.0064488002 0.10932
-0.065591998 0.0072094998 0.11042
-0.066192001 0.0067888 0.10987
-0.068526998 -0.034612998 0.063919
-0.069031999 -0.03644 0.064663999
-0.051902998 -0.02926 0.066142
-0.052777 -0.029990001 0.069173001
-0.051812001 -0.02981 0.068760999
0.0020610001 0.0061308998 0.071562
-0.043988001 0.042236999 0.11787
0.034506001 -0.012568 0.089823999
0.034012999 -0.011573 0.089850999
-0.018077999 -0.01424 0.069948003
-0.016029 -0.01359 0.070629001
-0.016283 -0.014626 0.069098003
-0.018398 -0.017029 0.070808999
-0.016249999 -0.015418 0.070413999
0.0035152 0.012065 0.079673
0.0021925 0.01159 0.08004
-0.014682 -0.0041422001 0.072678998
-0.047199 0.021152001 0.094031997
-0.047035001 0.018603999 0.093507998
-0.047736 0.019576 0.092848003
-0.023928 0.0085487999 0.1041
-0.025144 0.011138 0.10387
0.063134 -0.035934001 0.073652998
0.10034 0.041304 0.08247
-0.031341001 -0.018802 0.060789
0.054251 -0.03813 0.12647
0.097681999 0.012382 0.089226998
0.098131999 0.011065 0.088809997
0.098369002 0.011363 0.088776998
0.10679 0.025851 0.077982999
0.10724 0.026454 0.077540003
0.10624 0.026997 0.077032998
0.096919999 0.025946001 0.081575997
0.064084001 -0.025773 0.073688999
0.023087 0.016659001 0.088913001
0.072035 -0.028842 0.096069001
0.072604001 -0.028267 0.097074002
0.093731001 0.0074514998 0.085864
0.093704998 0.0073600002 0.087017
0.043375999 -0.037222002 0.066587001
0.042598002 -0.038146 0.068020001
0.042114999 -0.038321 0.066081002
-0.041912001 0.029273 0.081417002
0.034618001 -0.0042208 0.086989
0.038608 0.0076099001 0.09025
0.037262 0.0094748996 0.089576997
0.012076 0.0018723001 0.070478998
0.0045960001 0.016538 0.084037997
0.0052735 0.016611001 0.085552998
0.0044185999 0.017447 0.084954999
0.046071999 -0.0029780001 0.094976
0.044447001 -0.0018199 0.094999
0.045844 -0.00060494 0.095259003
-0.04377 0.0085618999 0.090678997
-0.043876 0.0085399002 0.092263997
-0.029025 0.027702 0.11394
-0.029502001 0.026458999 0.11262
0.0072101001 -0.017059 0.076334998
0.0049184002 -0.016772 0.073361002
-0.023924001 0.031063 0.1084
-0.029339001 0.011877 0.095669001
-0.061767999 0.0016774 0.10159
-0.060357001 0.0016298 0.10229
-0.028384 -0.037795 0.055645
-0.028173 -0.038284 0.055757001
-0.063095003 0.021941001 0.1081
-0.011974 -0.037023999 0.11098
-0.011295 -0.035261001 0.10955
-0.011485 -0.035301998 0.11099
0.075227 -0.023607999 0.087778002
0.054584999 -0.012208 0.092921004
0.054841999 -0.011879 0.09313
0.054802001 -0.01163 0.09403
-0.034534998 0.037838999 0.11099
0.063896999 -0.018391 0.085019
0.063322999 -0.017966 0.085142002
-0.067955002 -0.034391999 0.070490003
-0.067194 -0.035220001 0.070317999
0.097297996 0.039864998 0.083339997
0.098777004 0.040297002 0.084321
0.050765999 -0.0060207001 0.098833002
-0.047970001 -0.00037877 0.086662002
-0.070416003 -0.00044291999 0.11499
-0.070403002 0.00055992999 0.1152
-0.070776001 0.039568 0.11459
-0.070160002 0.038146999 0.11466
-0.043340001 0.019703999 0.094173998
0.036056999 0.010024 0.092589997
0.035243001 0.01054 0.090347998
0.053929001 -0.027558001 0.068777002
0.056967001 -0.029274 0.069541998
-0.026455 0.0048099998 0.092189997
-0.057817999 0.015535 0.099083997
-0.057585999 0.015171 0.10075
-0.056671999 0.016945001 0.098598003
-0.019848 -0.012894 0.070565999
-0.021190001 -0.014608 0.070393004
-0.017556001 0.00029113999 0.078387
-0.016998 0.0010673 0.080701999
-0.015946001 0.0018633 0.079585001
-0.063860998 0.040245999 0.12525
-0.065021001 0.040725999 0.12603
0.013499 0.0027495001 0.071336001
0.061979 -0.0061830999 0.097615004
0.0016946 0.0096308999 0.077464998
0.00072272 0.0083791995 0.077418
-0.025045 0.02894 0.1124
-0.015421 -0.027011 0.078440003
-0.01405 -0.028043 0.080917999
-0.059126001 0.029364999 0.10436
-0.059044998 0.027391 0.10331
0.037588 0.0099791996 0.093176998
0.023523999 0.018457999 0.092344999
0.060238 -0.017761 0.071796998
0.0021821 -0.02775 0.10786
0.044496998 0.0021683001 0.096951
0.079181999 -0.029189 0.11679
-0.029424001 -0.039739002 0.057174001
-0.031106001 -0.039438002 0.058118001
0.014733 0.0014528 0.070633002
0.013274 0.0019954999 0.070789002
-0.020117 0.037549 0.1099
-0.020471999 0.037588 0.1106
-0.042169001 0.013604 0.087718002
-0.042066 0.013786 0.089868002
-0.041386001 0.012278 0.088284999
-0.041992001 0.028543999 0.10074
-0.040553 0.028867999 0.10175
0.091665998 0.0061710002 0.090319999
0.013787 0.018863 0.088510998
-0.073843002 0.02929 0.11667
-0.073241003 0.028852001 0.11678
-0.0219 -0.024123 0.075369999
-0.021786001 -0.024729 0.076503001
-0.022352999 -0.024974 0.076495998
-0.063070998 0.024507999 0.10751
-0.062323999 0.026304999 0.10755
0.026469 -0.037103999 0.059928
-0.031643 -0.015748 0.057592999
-0.040229999 0.031328999 0.087017
-0.039971001 0.029947 0.086262003
0.091917001 0.011501 0.082786001
0.091513999 0.011687 0.085093997
-0.033806 0.021020001 0.11391
-0.016299 -0.0017379 0.075172
-0.016322 -0.0035921 0.074027002
-0.049320001 -0.0023196 0.089977004
-0.049114 -0.0026316999 0.090723
-0.048590001 -0.0067236 0.087187998
0.088381 0.0026730001 0.0836
0.062774003 -0.028217001 0.09482
0.1007 0.03081 0.078729004
-0.042064 0.036853999 0.078328997
0.0031482 0.011708 0.079697996
0.088308997 -0.0068581998 0.086374
0.088064998 -0.0077581001 0.087090999
-0.025993999 0.0016688 0.10354
-0.025895 0.00021527 0.10429
0.050797001 -0.0040469002 0.098215997
0.050797999 -0.0031562999 0.10001
-0.0024047 -0.027965 0.10362
-0.019283 -0.025719 0.079961002
-0.019505 -0.026162 0.078918003
0.014168 0.0050230999 0.071934
0.015439 0.0069825999 0.073228002
0.014732 0.0055184001 0.071951002
-0.034745 0.038259 0.11116
0.079572 -0.02331 0.092095003
0.078544997 -0.023151999 0.093066998
-0.050158001 0.011299 0.090663001
-0.049458999 0.011338 0.091067001
-0.037496001 0.018062999 0.10239
-0.025251999 0.039131999 0.10923
-0.024250001 0.03954 0.10884
-0.026825 -0.025815999 0.069660999
-0.028198 -0.026334999 0.07006
-0.026416 -0.012224 0.070715003
-0.0021412 -0.029694 0.10563
-0.023810999 -0.021771999 0.066105001
-0.0084052999 0.0084563997 0.086870998
-0.0092022 0.0048742001 0.079981998
-0.0088376999 0.0053952001 0.079254001
-0.0099285999 0.0057103001 0.081096999
0.099169001 0.042624999 0.079847001
0.099326 0.043444999 0.079111002
0.099684998 0.041976999 0.079259999
-0.023226 -0.0020438 0.082758002
-0.054538999 -0.031918999 0.059264001
-0.070312001 -0.036005002 0.066509001
-0.040793002 0.040300999 0.083017997
-0.041896001 0.039317001 0.082635999
0.028565001 -0.0034523001 0.082602002
0.028835 -0.0043951999 0.081657
-0.060559999 0.016654 0.10482
-0.061623 0.016516 0.10363
-0.060141001 0.017140999 0.10299
0.034515999 0.0024979 0.086038999
-0.037953001 0.028618 0.10902
-0.038431998 0.02729 0.10758
0.099774003 0.038950998 0.084826
0.087309003 0.033109002 0.087102003
0.086483002 0.033826999 0.085812002
0.010066 -0.016148999 0.086318001
0.0082470002 -0.017431 0.086731002
0.0093278997 -0.016638 0.087272003
-0.047517002 -0.032138001 0.058912002
-0.049362998 -0.031601001 0.059672002
-0.047122002 -0.032134 0.059140999
-0.029945999 -0.037447002 0.057526998
-0.029455001 -0.036164001 0.058584001
-0.066664003 0.016456001 0.1082
-0.066812001 0.015952 0.10879
-0.02224 0.016132001 0.11294
-0.021434 0.015232 0.11119
-0.022673 0.017135 0.11211
0.091411002 0.021481 0.082422003
-0.0048262002 -0.010022 0.069930002
-0.0055336999 -0.0098473998 0.068350002
-0.058825999 0.039655998 0.10095
-0.041092999 -0.037074 0.057211
0.10776 0.027927 0.078165002
-0.033326998 0.024592999 0.10803
-0.035011999 0.024173999 0.1087
-0.033937 0.025134999 0.10783
0.035640001 -0.0030859001 0.085176997
-0.040994 0.024192 0.087678
-0.040578 0.024285 0.087494001
-0.021535 0.0041743 0.088918
-0.022714 0.0035119001 0.089602999
0.039175 0.0067930999 0.091762997
0.038369 0.0069181998 0.091642998
0.039326999 0.0067870999 0.090745002
-0.064594001 0.016682001 0.10638
-0.063824996 0.016463 0.10729
0.042902 -0.015544 0.094462998
0.043878 -0.015662 0.092233002
0.011895 -0.015396 0.079571001
0.012493 -0.014271 0.082191996
0.027110999 0.017097 0.092849001
0.024929 0.018017 0.093689002
0.025975 0.017635001 0.094113998
0.064296998 -0.01464 0.086424999
0.063836001 -0.015044 0.086400002
-0.048027001 0.030623 0.10269
-0.048546001 0.031006999 0.10399
0.065874003 -0.040546998 0.070845
0.068882003 -0.039739002 0.071291998
0.067383997 -0.039868999 0.072005004
-0.060299002 0.034464002 0.10248
0.044884998 -0.0091503002 0.091872998
0.042463001 -0.0087857004 0.092750996
0.063271001 -0.039694 0.12472
0.063784003 -0.038826 0.12317
-0.0054237 -0.0051636999 0.069626004
0.035939999 -0.018887 0.097585998
0.070702001 -0.025719 0.088290997
0.090701997 0.019898999 0.090438001
0.089573003 0.020063 0.090538003
0.089872003 0.019521 0.091167003
0.016070001 0.018673999 0.090444997
-0.035615999 0.026644001 0.10757
-0.027408 0.026842 0.11159
-0.068784997 0.026865 0.11451
-0.071111001 0.026760999 0.11522
-0.069204003 0.026128 0.11481
-0.025867 -0.0080292998 0.077124998
-0.025702 -0.0073654 0.076713003
-0.025965 -0.020757999 0.057703
0.076564997 -0.013176 0.083318003
0.075989999 -0.012495 0.082887001
0.097917996 0.027788 0.079683997
0.099188 0.028357999 0.079864003
-0.043095 0.015975 0.094185002
-0.044904001 0.015293 0.094832003
-0.046402998 0.015717 0.09589
0.029414 0.0018877001 0.080247998
-0.049320001 0.0069201002 0.087828003
-0.050540999 0.0055867 0.087711997
0.027983001 -0.0013712 0.079327002
0.028708 6.2116e-05 0.078744002
0.028267 -0.0015268 0.079214998
-0.015637999 -0.021965999 0.072665997
-0.01551 -0.019748 0.071663998
-0.032917 -0.00049627002 0.085929997
-0.032694999 -0.00025956001 0.084234998
0.10233 0.040479999 0.083296001
-0.049546 -0.0048769 0.089279003
0.079342999 -0.00011576 0.085456997
0.079329997 0.0011402 0.087660998
0.078824997 0.0016958 0.086627997
-0.032219999 0.011711 0.092605002
0.086975001 -0.011606 0.093358003
0.031943001 -0.0041446998 0.084270999
0.0062974999 0.0116 0.078128003
0.0067332 0.012681 0.079999998
-0.060589001 0.033071 0.10469
-0.032536 0.020545 0.10998
-0.032145001 0.021403 0.11194
0.063886002 -0.017502001 0.086212002
0.062996 -0.018304 0.086811997
-0.035323001 -0.0062588002 0.080173001
-0.035496 -0.006232 0.080536999
-0.035482001 -0.0054668002 0.081192002
0.082295999 -0.040273 0.12808
0.081022002 -0.041425999 0.12851
0.055969998 -0.024162 0.070859
-0.063109003 0.039078999 0.1274
-0.064452 0.038640998 0.12576
-0.017632 -0.034093 0.1119
-0.016995 -0.035252001 0.11144
-0.01722 -0.034979999 0.11164
0.034488998 -0.014539 0.093943998
0.033661 -0.014465 0.094149999
0.034508001 -0.013726 0.093627997
-0.038063999 0.027053 0.10095
-0.037976 0.0262 0.0986
-0.019107999 -0.01709 0.071717001
0.075029001 -0.0085998001 0.083958998
0.075161003 -0.0085225999 0.084179997
0.076886997 -0.0067568999 0.084099002
-0.040993001 0.026139 0.089404002
-0.04163 0.025646999 0.088933997
-0.0044936999 0.0080506001 0.077510998
-0.0037354 0.0084464997 0.079007998
-0.035057001 -0.031134 0.055259999
-0.035243001 -0.030844999 0.054908
0.070983 -0.0067031002 0.088904999
0.071837001 -0.0053208 0.089686997
0.064483002 -0.023251001 0.086698003
0.0024383999 -0.024325 0.10736
0.097874001 0.032290999 0.086907998
-0.068846002 -0.037105002 0.057441998
-0.062990002 -0.035704002 0.055516999
0.089533001 0.032127 0.091236003
-0.060720999 0.038931001 0.12639
0.0092912996 -0.016522 0.078479998
0.098820999 0.020639 0.079889998
-0.032324001 -0.023770001 0.054125
0.063185997 -0.01589 0.078911997
0.062900998 -0.015884999 0.078602999
-0.026914001 -0.024282999 0.072025001
0.078689002 -0.025813 0.11525
0.0020037 0.012725 0.086356997
0.0013797 0.013551 0.085849002
0.0030706001 -0.021117 0.079979002
0.065168001 -0.023273 0.075953998
0.065572001 -0.022829 0.074982002
0.080000997 -0.041880999 0.12736
-0.040987 0.042224001 0.080879003
-0.041606002 0.042332001 0.082465999
0.045784999 -0.039744001 0.13125999
0.046255998 -0.040557001 0.1318
0.032910999 -0.039657 0.061372001
0.032573 -0.038902 0.060428999
0.040413 -0.030603001 0.072049998
0.041722 -0.030525999 0.073641002
-0.002054 0.0068795001 0.075646996
-0.0034228 0.0057207001 0.076059997
-0.0040012002 0.0061454 0.075778
-0.065495998 0.014324 0.10684
0.041503001 -0.031959001 0.069383003
0.039792001 -0.032304998 0.068867996
0.041397002 -0.032520998 0.070629001
0.045256 0.0087521998 0.10555
0.044996001 0.0094021 0.10454
0.047116999 0.010205 0.10624
0.042978998 0.011986 0.10638
0.043234002 0.012857 0.10587
0.084904999 0.0037130001 0.084246002
0.0024687001 -0.0017198001 0.069375999
0.0028772999 -0.00062770001 0.068186998
0.0021786001 -0.0020693 0.068249002
-0.040952001 0.024993001 0.091508999
-0.040998999 0.023991 0.091342002
0.073449001 -0.031773999 0.11114
-0.0031465001 -0.00060494 0.069292001
0.053518001 -0.014225 0.089322999
0.10584 0.025906 0.077555001
0.056790002 -0.038656998 0.071064003
0.055452999 -0.039145999 0.071745001
0.020902 -0.0096607003 0.080912001
0.021104001 -0.0096049998 0.078907996
0.022151999 -0.0095761996 0.080568999
0.0089280996 0.01787 0.087044999
0.0072033 0.018665999 0.086277999
-0.034263 -0.022836 0.059675999
-0.059445001 0.018688999 0.1033
-0.060102001 0.020401999 0.10296
-0.058952 0.020513 0.10102
0.070500001 -0.0086206002 0.088583
0.070839003 -0.0084063001 0.090554997
0.071139 -0.0080717998 0.088876002
0.032063 -0.039639 0.072017998
0.032297999 -0.039308 0.073531002
0.030251 -0.039094001 0.071617998
0.016151 0.017163999 0.086314
-0.045666002 0.027298 0.1004
-0.043639001 0.029087 0.099531002
-0.043674 0.027403001 0.099735998
-0.038258001 0.017684 0.093712002
-0.056644 -0.039053999 0.059774999
-0.059696 -0.038950998 0.059080999
-0.060855001 0.029805001 0.10441
-0.060523 0.029898001 0.10625
-0.061126001 0.030796001 0.1039
-0.024998 -0.021253999 0.059168998
-0.026339 -0.020554001 0.059198
0.028820001 0.017495001 0.094066001
0.029820001 0.016783999 0.093542002
0.095799997 0.018653 0.082332999
0.097034 0.019835001 0.081207998
0.029091001 0.013413 0.088388003
0.0089328997 0.015988 0.089175999
0.010203 0.015263 0.089188002
0.041894998 0.0097965999 0.10129
-0.065509997 -0.034136001 0.069342002
0.034263998 -0.012625 0.092698999
0.033094998 -0.012085 0.092459001
-0.073247999 -0.0038995 0.11805
-0.073043004 -0.0050593 0.11804
-0.026063001 0.033723999 0.10817
-0.027842 0.034031998 0.10765
0.029039999 0.019597 0.096964002
0.027613999 0.017213 0.097300999
0.028665001 0.018410999 0.098049
-0.046181001 0.038043 0.11819
-0.047212001 0.039028 0.11849
-0.046560001 0.039861999 0.11895
-0.038987 0.022118 0.10166
-0.03813 0.02187 0.10235
0.070517004 -0.02331 0.086958997
-0.039767999 0.028136 0.083977997
-0.035197001 -0.019545 0.062916003
0.031098999 -0.039202001 0.066382997
0.032641001 -0.039037 0.066211
0.032069001 -0.040070999 0.067955002
0.0035275 -0.021943999 0.080963999
0.0044324002 -0.022932 0.084220998
-0.03314 0.0024194999 0.088421002
0.033394001 0.015778 0.096836001
0.034111999 0.016502 0.098417997
0.075346999 -0.038970999 0.12743001
0.075733997 -0.039747 0.12738
0.073830999 -0.037673 0.12650999
-0.0071037002 0.0066354 0.081749
-0.043724 0.0063506002 0.089474998
-0.043657999 0.0042125001 0.089460999
-0.033929002 -0.010677 0.069985002
-0.034260999 -0.010255 0.068251997
-0.029803 0.011798 0.097668998
-0.045364998 -0.0081914999 0.086677
0.00088683999 -0.026996 0.10598
0.038006 -0.019314 0.10104
0.039363999 -0.019987 0.10098
0.037496999 -0.020021999 0.1011
0.065053999 -0.017648 0.084182002
0.062781997 -0.012869 0.092019998
0.063258 -0.013376 0.092307001
0.062739 -0.014226 0.093516998
-0.043791998 0.032196999 0.10947
-0.045141999 0.032345999 0.11123
0.042559002 0.0074276002 0.099662997
0.063415997 -0.037691999 0.069498003
0.063942999 -0.038422 0.069724999
0.02658 0.0094921002 0.081251003
0.038265999 0.0033038 0.089584
0.037916999 0.0035281 0.089093998
0.088049002 -0.0099721998 0.091798
0.088895001 -0.0097992001 0.091173999
0.035431001 -0.034995001 0.065392002
-0.03022 0.0054354998 0.087375998
-0.028669 0.0064999 0.087067001
-0.027894 0.0061030001 0.088132001
0.10474 0.030359 0.077362999
-0.031746 -0.028778 0.052937001
-0.033280998 -0.027864 0.05249
-0.032118998 -0.026935 0.053013999
-0.030334 -0.0041759 0.080936998
-0.029826 -0.0050728 0.080076002
-0.049972001 0.035432 0.11441
-0.033032 0.032127999 0.115
-0.032885998 0.03345 0.11539
-0.033759002 0.032922 0.11606
0.063625 -0.015968001 0.075966999
0.0040508001 -0.034724999 0.11477
0.0035469001 -0.036536001 0.11598
0.0052594999 -0.037115 0.11617
0.087522998 -0.010742 0.091154002
-0.03703 -0.040706001 0.05745
-0.036336999 -0.040243998 0.058848999
-0.019707 -0.016690999 0.072690003
-0.020943001 -0.016435999 0.071808003
0.036449999 0.016229 0.098274
0.035484999 0.018771 0.099266998
0.044851001 -0.0055771 0.094962001
0.062685996 -0.018273 0.072843
0.062389001 -0.018324999 0.074212998
0.063000999 -0.018343 0.074196003
-0.020811001 0.041544002 0.1124
-0.025722999 -0.026178 0.079538003
0.065824002 -0.024674 0.087710999
0.051777001 -0.01317 0.090331003
0.028307 0.011803 0.084105998
0.066629998 -0.038585 0.069247998
0.065420002 -0.040084001 0.069427997
0.064728998 -0.040031999 0.069729
-0.027941 -0.025769999 0.065816998
-0.043906 0.028741 0.10394
-0.042302001 0.028281 0.10436
-0.023407999 0.0067119999 0.091642998
-0.022383999 0.0050316001 0.092394002
-0.024238 0.038277999 0.11226
-0.024670999 0.039314002 0.11157
0.080251001 0.0044429 0.086443998
0.030994 0.015039 0.094443999
-0.037314001 -0.011435 0.077238999
0.074982002 -0.026838001 0.098027997
-0.03119 -0.0061363 0.078059003
-0.020857001 0.045271002 0.10854
0.050229002 -0.029581999 0.072701998
0.049516998 -0.030037001 0.074212
0.0081524998 0.012788 0.080973998
0.0086736996 0.012336 0.081260003
0.055769999 -0.026024999 0.068538003
0.055932 -0.027876999 0.067610003
-0.044652998 0.043032002 0.11698
-0.042691 0.043150999 0.11682
-0.043067999 0.043492001 0.11731
0.078025997 -0.016368 0.083424002
0.077774003 -0.017029 0.084325999
0.076628998 -0.015671 0.083704002
-0.053870998 0.036426 0.11965
0.010235 0.017182 0.084403999
0.0098964004 0.018367 0.085625999
0.0096691996 0.017958 0.085727997
-0.021877 -0.014502 0.073072001
-0.043889999 0.00046611999 0.090092003
-0.044302002 -6.3785003e-05 0.089534
-0.028198 0.018641001 0.10991
-0.049022999 0.035856999 0.10635
0.031886 0.0072078998 0.083230004
0.030753 0.0058648 0.083493002
0.031599998 0.0074649001 0.081983998
-0.0031028001 0.0057064001 0.073524997
0.072063997 -0.025017001 0.12161
0.074637003 -0.023845 0.12093
0.075181 -0.024145 0.12017
0.024801999 0.016450001 0.090608001
0.02472 0.017035 0.090783
0.058231 -0.0265 0.069234997
0.064820997 -0.026864 0.088794
0.065545 -0.025489001 0.089009002
0.096989997 0.010189 0.087856002
0.0021076 0.0072428002 0.074611001
0.00097008998 0.0072745001 0.074758999
-0.012172 0.0022151 0.079236999
0.0013397 0.0011881 0.070894003
0.0032724 0.0019767999 0.068291001
0.0024711001 -0.00031803999 0.068763003
0.037140999 -0.032226998 0.070037998
0.036038999 -0.031677999 0.070753999
0.037172001 -0.032318 0.070081003
0.1023 0.020933 0.081607997
0.10231 0.020993 0.081762999
-0.069760002 0.025729001 0.11537
-0.069585003 0.026307 0.11449
-0.069535002 0.026831999 0.11582
0.074778996 -0.0093096001 0.085662
0.048509002 -0.0011646 0.099086002
-0.045242 0.013098 0.089566
-0.026125001 -0.026512999 0.080682002
0.026520001 0.019467 0.095945999
0.066752002 -0.01259 0.089534998
0.066138998 -0.012187 0.091431998
0.075099997 -0.025605001 0.094237998
0.028654 0.01514 0.099100001
0.029651999 0.014328 0.10053
0.028919 0.014975 0.098754004
-0.024394 0.041997999 0.10967
-0.025443001 0.042849999 0.10928
0.070026003 -0.032366998 0.10907
-0.065853 -0.037758999 0.054815002
-0.065109 -0.037485 0.055078
0.054985002 -0.039887998 0.1266
-0.023037 0.044698 0.10926
-0.024024 0.044404998 0.11071
-0.039703999 0.020920999 0.096074998
-0.082713999 -0.0036092 0.12637
-0.02657 -0.022326 0.065871
-0.029554 0.030889001 0.10886
0.041937999 -0.0044076 0.090694003
-0.015498 -0.033684 0.11143
-0.015606 -0.034947 0.11103
-0.035897002 -0.0049848999 0.08117
0.057117 -0.021839 0.071471997
-0.075148001 -0.00014603999 0.12014
-0.073912002 0.00084538001 0.12102
-0.074603997 0.0016725 0.11985
0.094915003 0.036352001 0.081749998
0.096923001 0.033587001 0.080986001
0.023665 -0.0052633001 0.076692998
0.021640999 -0.0050013 0.075659998
0.098944999 0.012035 0.087673001
-0.054793 0.038706999 0.12356
0.097701997 0.011423 0.086092003
0.025308 0.017945999 0.092286997
0.025381999 0.016449001 0.093402997
0.020035001 0.015088 0.085395999
0.019911001 0.015462 0.085997999
0.019629 0.015593 0.085858002
0.059758998 -0.015533 0.083924003
0.058812998 -0.014972 0.082098
-0.083609 -0.0017612 0.12661
-0.084344998 -0.0012598 0.1283
-0.083613999 -0.0023467999 0.12738
-0.049610998 0.01338 0.092178002
-0.021768 -0.021914 0.071919002
-0.031677999 -0.010224 0.064196996
-0.030195 -0.011027 0.064700998
-0.029589999 -0.01274 0.064586997
-0.044652998 0.025250001 0.097522996
0.099985003 0.045145001 0.078648001
0.059847999 -0.0025038 0.10395
-0.016225999 -0.01788 0.069891997
-0.018079 -0.017593 0.070923999
-0.057245001 0.034417 0.11716
-0.05511 0.035445001 0.11731
-0.056414001 0.035544001 0.11597
0.060479 -0.01005 0.096224003
0.054756001 -0.0019441 0.10332
-0.043037001 0.0222 0.093295
-0.028329 0.032924999 0.10785
0.093645997 0.032473002 0.087964997
0.092813 0.031394999 0.089042999
0.095568001 0.030994 0.087878004
0.060941 -0.040741 0.071080998
0.059861001 -0.039057001 0.069769002
-0.078783996 -0.0050873002 0.12179
-0.078225002 -0.0036414999 0.12317
-0.079178996 -0.0023117 0.12225
0.032195002 0.014109 0.096449003
0.032049999 0.015983 0.094949
0.033027001 0.015085 0.096456997
0.060412001 -0.0087163998 0.097760998
-0.040335 0.026802 0.087342001
0.082592003 0.0052401 0.084954999
-0.040139001 -0.032042999 0.056573998
0.087246999 0.020706 0.085063003
0.085821003 0.020336 0.084724002
0.086006999 0.021152001 0.085141003
0.025469 0.016049 0.087608002
0.043573 0.0089510996 0.1032
-0.018045001 0.001443 0.085915998
-0.017411999 0.00076867 0.085821003
0.0069618002 -0.0047669001 0.070151001
0.023232 0.0063466998 0.076909997
-0.012459 -0.038049001 0.11172
-0.0056898999 -0.016844001 0.067941003
-0.0035373 -0.016929001 0.069652997
-0.038036998 -0.038849 0.1195
-0.038167998 -0.038632002 0.11874
0.056039002 -0.001007 0.10466
0.056848001 -0.0019644001 0.10444
-0.056430001 -0.030724 0.069123
-0.056017 -0.029726001 0.070307001
0.042435002 0.0022921001 0.093696997
0.042991001 0.0025998999 0.095945999
-0.053569999 0.0070507 0.092107996
-0.053045999 0.0094192997 0.091369003
0.077304997 -0.02115 0.1167
0.078466997 -0.020006999 0.11862
-0.0047571999 -0.039735001 0.1156
-0.0035208999 -0.040222 0.11479
-0.0045183999 -0.039719999 0.11412
-0.046601001 0.034878001 0.10377
-0.054164998 -0.037457999 0.057413999
-0.054322999 -0.039041001 0.057672001
-0.033521999 0.024598001 0.10888
-0.028068 -0.037627999 0.057216
-0.021786001 -0.012832 0.068728998
0.059138998 -0.010396 0.067785002
0.058184002 -0.012485 0.068424001
0.036974002 0.017813999 0.10496
-0.029434999 -0.031534001 0.059847001
-0.029843999 -0.030916 0.060658
0.081088997 -0.039544001 0.13118
0.079856001 -0.040470999 0.13158999
0.080201998 -0.040831 0.13076
-0.027124999 0.027238 0.10843
-0.035962 0.014308 0.097317003
0.080537997 -0.013977 0.082497001
0.074837998 -0.0055760001 0.086185999
0.075925998 -0.0048631998 0.083980002
0.084462002 0.0043243002 0.084206
0.10335 0.042394999 0.078045003
-0.041861001 0.0061309999 0.090306997
-0.042498 0.0055159 0.090449996
0.037927002 0.011777 0.096308
0.038263001 0.011364 0.096878
0.017988 0.018271999 0.093112998
0.049362998 -0.036655001 0.069297999
-0.021748001 0.033852998 0.1105
0.020099999 0.0084117996 0.075176999
0.019625001 0.0063765999 0.075135998
-0.052262999 -0.031394999 0.062121999
-0.043357 0.010953 0.090120003
-0.043667 0.010662 0.087876
-0.042343002 0.010947 0.088468999
0.046397001 -0.038098 0.071754999
0.046286002 -0.039623 0.073182002
0.045083001 -0.039556999 0.071864001
-0.011068 0.0092479 0.088528998
0.038577002 0.0055053998 0.092026003
-0.023635 -0.026046 0.079570003
0.016375 0.016776999 0.085897997
-0.045729 -0.030053999 0.063550003
-0.044606999 -0.028971 0.062165
-0.037165001 -0.0098563004 0.076481
-0.047683999 -0.036816999 0.057161
-0.046953 -0.038874 0.057395998
0.025970001 0.014842 0.087434001
-0.042497002 0.045547001 0.11603
-0.043109 0.044870999 0.11701
-0.015688 -0.033852 0.11191
-0.016641 -0.034418002 0.11042
0.028506 -0.0070027001 0.083825
-0.048159 0.013648 0.089226
-0.04716 0.014927 0.090278
0.023917001 0.0085095 0.076420002
0.023011001 0.010509 0.077958003
-0.055842001 0.037955999 0.12161
-0.053401999 0.037861001 0.12194
-0.054416999 0.036874998 0.12075
-0.085481003 0.022856001 0.12623
-0.085022002 0.023424 0.12688001
-0.085616 0.023891 0.12596001
-0.028058 -0.027741 0.057877999
-0.027574999 -0.028193001 0.058396999
-0.039393999 0.029576 0.10012
0.024439 0.0080554001 0.077684
-0.029735999 -0.022642 0.053195
0.033116002 0.010491 0.088918999
-0.0014783 0.01057 0.081055
-0.0020286001 0.0098563004 0.080193996
-0.069378003 -0.034735002 0.064796999
-0.0704 -0.035496 0.064717002
-0.051791999 0.036828998 0.12263
