# .PCD v0.7 - Point Cloud Data file format
VERSION 0.7
FIELDS x y z
SIZE 4 4 4
TYPE F F F
COUNT 1 1 1
WIDTH 1556
HEIGHT 1
VIEWPOINT 0 0 0 1 0 0 0
POINTS 1556
DATA ascii
0.21939 -0.0057687 0.13815001
0.22044 -0.0066133002 0.13886
0.17332999 -0.0043072999 0.069599003
0.22050001 -0.0035919 0.14122
0.15088999 -0.0021446999 0.037909999
0.22093999 -0.0034306 0.14234
0.17302001 -0.0032077001 0.069715999
0.17354999 -0.0030336999 0.070866004
0.17369001 -0.0026378999 0.070339002
0.15249 -0.0019305 0.039163999
0.15298 -0.00099374005 0.038736001
0.22299001 -0.0019628 0.1435
0.17374 -0.00097395002 0.068351001
0.17088 9.5598998e-06 0.067102
0.15279999 -0.00023462001 0.039597999
0.23095 -0.00089267001 0.15312999
0.23111001 -0.00089874002 0.15403999
0.22419 -0.00047016999 0.14555
0.15411 0.0010922001 0.041529998
0.22724 0.0012739 0.14884
0.15715 0.00079446001 0.046526
0.22764 0.0013379999 0.15128
0.22787 0.0015053001 0.1505
0.15234999 0.0020713001 0.041352
0.15714 0.00080133002 0.045720998
0.17049 0.011222 0.066891998
0.17339 0.013883 0.068885997
0.17354 0.015667001 0.070633002
0.17431 0.017801 0.071365997
0.24314 0.047745001 0.17264
0.23999 0.050496999 0.16926999
0.24201 0.051881 0.17038
0.24188 0.053486001 0.1724
0.24118 0.052117001 0.17102
0.24448 0.055356 0.17467
0.24525 0.057316002 0.17678
0.24955 0.058704998 0.18169001
0.24976 0.057282001 0.18234999
0.24709 0.058890998 0.17934
0.24121 0.075258002 0.17054
0.24158999 0.073802002 0.16884001
0.23982 0.074072003 0.16763
0.23951 0.074189 0.16861001
0.23932 0.073854998 0.16608
0.2379 0.073973998 0.16508999
0.23879001 0.074447997 0.16680001
0.24252 0.076978996 0.17193
0.24092001 0.076858997 0.17197999
0.23977999 0.077652998 0.17050999
0.24115001 0.076679997 0.17106999
0.24093001 0.076173998 0.17013
0.24339999 0.077926002 0.17543
0.24631999 0.079726003 0.17818999
0.24665999 0.079504997 0.17745
0.24557 0.080876 0.17649999
0.2484 0.081414998 0.17969
0.24668001 0.081629001 0.18013
0.16556001 -0.040996 0.054846998
0.16221 -0.040157001 0.054267
0.16121 -0.039804 0.052083001
0.16056 -0.037427999 0.050285999
0.16053 -0.038366999 0.050198998
0.15982001 -0.038063999 0.049015999
0.15717 -0.035034999 0.047394998
0.15734001 -0.032929 0.04504
0.20172 -0.032844 0.11204
0.15759 -0.030766999 0.044468001
0.15640999 -0.030680999 0.043575
0.15488 -0.029697999 0.042298999
0.15538 -0.027988 0.041988
0.15518001 -0.027799999 0.042116001
0.20382001 -0.023422001 0.11282
0.2032 -0.022023 0.11316
0.20313001 -0.021007 0.1132
0.20476 -0.021779001 0.11413
0.21097 -0.021647001 0.12371
0.21218 -0.017731 0.12620001
0.17535 -0.019317999 0.070120998
0.17378999 -0.019098001 0.071451999
0.17468999 -0.017888 0.070147999
0.17475 -0.019245001 0.070390001
0.17371 -0.018681001 0.070661001
0.17353 -0.017935 0.069133997
0.17418 -0.018368 0.069459997
0.17406 -0.016692 0.068795003
0.15127 -0.015133 0.037843
0.15253 -0.01504 0.037696999
0.15273 -0.015234 0.037222002
0.21555001 -0.014508 0.13054
0.17498 -0.014964 0.068112001
0.1744 -0.015466 0.068478003
0.15153 -0.013401 0.036676001
0.17319 -0.011872 0.068595998
0.15188 -0.012504 0.037409998
0.17181 -0.0099654999 0.068060003
0.21615 -0.010696 0.1328
0.21596 -0.011047 0.1327
0.17186999 -0.0099082999 0.068005003
0.17219 -0.0092762997 0.068494998
0.21778999 -0.010817 0.13215999
0.21696 -0.010271 0.13313
0.1725 -0.0093072001 0.067938
0.17268001 -0.0099114003 0.067713
0.17233001 -0.0086438004 0.067982003
0.15121 -0.0094306003 0.037992999
0.15118 -0.0084378002 0.036897
0.2174 -0.0084221 0.13367
0.21947999 -0.0092072003 0.1353
0.21752 -0.0091645997 0.13527
0.21849 -0.0067781 0.13585
0.17321999 -0.0075451001 0.069909997
0.21952 -0.0069937999 0.13721
0.17376 -0.0041805999 0.071038999
0.22053 -0.0048122001 0.13958
0.15143 -0.0035971 0.038908999
0.17084 -0.0018677 0.068095997
0.17241 -0.0032345999 0.067344002
0.17208 -0.0021567 0.067054003
0.15231 -0.0032223 0.039469
0.17321 -0.0013679001 0.069073997
0.17429 -0.0027337 0.069669999
0.15253 -0.0026378001 0.038479999
0.22352999 -0.0023511001 0.14267001
0.15354 -0.0018305 0.038727999
0.22455999 -0.0014988 0.14542
0.22374 -0.0011343 0.14443
0.17254999 -0.0011378 0.067814
0.17167 -0.00060292002 0.067785002
0.17135 -0.00092154997 0.067316003
0.15285 -0.00096461998 0.037914999
0.22514001 -0.00091609999 0.14514001
0.2313 -0.00031649999 0.15419
0.17109001 0.00067828997 0.066201001
0.17112 0.00057660002 0.067125
0.15370999 -4.1768999e-05 0.040304001
0.23024 0.00083307998 0.15312
0.22466999 -0.00010397 0.14469001
0.22968 7.3891999e-05 0.15233999
0.22992 0.00057446002 0.15217
0.2296 0.00064039999 0.15146001
0.22594 0.00051172997 0.14613
0.17181 0.00060827 0.065825
0.17106 0.0014994 0.066512004
0.15741 0.00092245999 0.046303999
0.15816 0.00054583 0.046836998
0.22788 0.00014703 0.14951999
0.15691 0.0026403 0.045331001
0.17056 0.0015893 0.065828003
0.17030001 0.0014590001 0.065472998
0.15457 0.0018071 0.041926
0.15493 0.0029551999 0.042298
0.17081 0.0053685 0.064940996
0.17030001 0.0081805997 0.066613004
0.17245001 0.0072423001 0.065806001
0.17204 0.013692 0.068443
0.17507 0.014638 0.069034003
0.17327 0.014971 0.068778001
0.1737 0.017198 0.071462996
0.17526001 0.016099 0.072311997
0.17483 0.016906001 0.071208
0.17515001 0.017674999 0.072081998
0.2429 0.048016999 0.17206
0.24036001 0.048046 0.16853
0.23995 0.049272001 0.1675
0.24116001 0.050193999 0.16992
0.24167 0.050935999 0.17130999
0.24213 0.051562998 0.17157
0.24154 0.052338 0.17189001
0.24443001 0.054765001 0.17447001
0.24467 0.054067999 0.17355999
0.24504 0.055397999 0.17505001
0.24603 0.055895001 0.17507
0.2458 0.055684999 0.17501999
0.2455 0.056846999 0.17738999
0.24534 0.058823001 0.1781
0.24569 0.057512 0.17765
0.24908 0.057599001 0.18399
0.24823 0.057759002 0.17863999
0.24838001 0.058107998 0.18125001
0.24919 0.058212999 0.18066999
0.24939001 0.058371 0.18164
0.24251001 0.073867999 0.17110001
0.24147999 0.072786003 0.17193
0.24037001 0.075903997 0.17092
0.24175 0.075833 0.1718
0.24031 0.074119002 0.17009
0.24067999 0.075153001 0.16836999
0.23951 0.075093001 0.1672
0.23803 0.075269997 0.16728
0.24295001 0.075055003 0.17168
0.24224 0.075488999 0.17195
0.2423 0.075870998 0.17179
0.23995 0.076219 0.17009
0.24153 0.075039998 0.16955
0.2427 0.077656001 0.17341
0.24481 0.078592002 0.17436001
0.24598999 0.081460997 0.17747
0.16328 -0.040809002 0.053567
0.16161001 -0.039167002 0.053094
0.16245 -0.039917 0.052344002
0.16146 -0.038045 0.051073
0.17948 -0.036899999 0.077614002
0.18049 -0.037718002 0.077661
0.17873 -0.037514001 0.078709997
0.16006 -0.035518002 0.047881
0.15719 -0.034940001 0.047644001
0.16013999 -0.034612 0.048854001
0.15702 -0.034090001 0.045676
0.15737 -0.033333998 0.044969
0.20157 -0.031541001 0.11137
0.20197 -0.03167 0.11184
0.15588 -0.031218 0.043256
0.15666001 -0.031169999 0.042075999
0.20218 -0.031351998 0.11086
0.20187999 -0.02874 0.11214
0.19258 -0.029305 0.097891003
0.19321001 -0.029875999 0.097396001
0.19250999 -0.030306 0.096205004
0.15701 -0.029181 0.042539999
0.2017 -0.028922001 0.11109
0.15475 -0.028286001 0.041478001
0.20225 -0.027088 0.11066
0.15504999 -0.027471 0.040948
0.20307 -0.026272001 0.11179
0.15297 -0.025729001 0.040231001
0.2031 -0.025121 0.11208
0.20279001 -0.02421 0.11207
0.20311999 -0.024888 0.11229
0.15417001 -0.023954 0.040211
0.15414 -0.025815999 0.039413001
0.1531 -0.023721 0.040677998
0.20266999 -0.023190999 0.1121
0.15259001 -0.022124 0.038279001
0.20333 -0.022429001 0.11358
0.20324001 -0.022972999 0.11257
0.17549001 -0.020747 0.072006002
0.17491999 -0.021799 0.071033999
0.17580999 -0.021121001 0.071608998
0.20337 -0.020818001 0.11326
0.15219 -0.020821 0.038143001
0.15301999 -0.02021 0.037843999
0.17487 -0.019664001 0.070391998
0.17602 -0.019640001 0.071653999
0.20573001 -0.019009 0.1149
0.15358999 -0.0195 0.039113
0.21111999 -0.020273 0.12564
0.20603 -0.018274 0.1178
0.20541 -0.018949 0.11893
0.20553 -0.019156 0.11672
0.20671999 -0.019567 0.11699
0.20532 -0.018955 0.11541
0.21204001 -0.018121 0.1265
0.21295001 -0.016748 0.12726
0.15295 -0.017971 0.036940999
0.17460001 -0.016287001 0.069163002
0.15245999 -0.016917 0.037252001
0.15283 -0.016076 0.037928
0.21262001 -0.016861999 0.12632
0.17332 -0.014832 0.069510996
0.23421 -0.015272 0.15990999
0.23502 -0.013662 0.16035999
0.17421 -0.013473 0.069058001
0.21427999 -0.013746 0.13105001
0.15239 -0.012983 0.037055001
0.21781 -0.012391 0.13206001
0.17362 -0.012189 0.067671001
0.15195 -0.011093 0.037055999
0.17432 -0.010862 0.068862997
0.17372 -0.011162 0.069484003
0.21741 -0.0095987003 0.1345
0.17292 -0.0096597997 0.068775997
0.17417 -0.010378 0.068814002
0.17288999 -0.0097971 0.070200004
0.21873 -0.0090167001 0.13448
0.21716 -0.010112 0.13414
0.15186 -0.0088291001 0.035912
0.17296 -0.0077919001 0.066248
0.17264999 -0.0089693004 0.067500003
0.17285 -0.0069468999 0.068233997
0.17336001 -0.0057354998 0.068103999
0.15336999 -0.0059222002 0.037576001
0.17486 -0.0036385001 0.070032001
0.15275 -0.0043199998 0.038607001
0.15243 -0.0048961998 0.038159002
0.22248 -0.0026721 0.14049
0.22263999 -0.0037974999 0.1411
0.22254001 -0.0031393 0.14153001
0.22209001 -0.0038680001 0.14002
0.17268001 -0.0033115 0.067496002
0.17184 -0.0011737 0.067106999
0.22233 -0.0019334001 0.14314
0.1715 -0.00097942003 0.066287003
0.22398999 -0.0015403 0.14388999
0.22348 -0.00155 0.14334001
0.15389 -0.0014053 0.038651999
0.15229 -0.0011862 0.040220998
0.15341 -0.0035299 0.038823999
0.15422 -0.00091260002 0.039868999
0.15459999 -0.001625 0.040649999
0.22447 -0.00079759001 0.14398
0.15498 0.0001207 0.040038999
0.15563001 -0.0007494 0.041149002
0.22966 -0.00065250002 0.15299
0.22542 0.00090615998 0.14670999
0.15854999 0.00041995 0.048243999
0.1577 0.00081787998 0.047657002
0.15865 -6.3758998e-05 0.046195
0.15843 3.6180001e-05 0.045894999
0.22638001 -6.4761e-05 0.14843
0.17130999 0.00057034002 0.066205002
0.22934 0.00024513001 0.15092
0.22833 0.0011123 0.15097
0.22944 0.00065197999 0.14985
0.15775999 0.0011856999 0.045604002
0.15746 0.00023197 0.044890001
0.15555 0.0010676 0.044707
0.15818 -0.0012305001 0.044959001
0.15796 -0.00078563002 0.044275999
0.15518001 0.00083779998 0.041265
0.15555 0.00063955999 0.042645
0.15611 0.0021792999 0.042011
0.15458 0.0005962 0.041437
0.17037 0.0024502 0.065866999
0.17121001 0.0019795999 0.064861998
0.16996001 0.0042731999 0.065201998
0.17158 0.0042082998 0.066192001
0.17061 0.0032736999 0.064185999
0.17132001 0.0049021002 0.064483002
0.17115 0.0059111998 0.064035997
0.16986001 0.0060760998 0.066090003
0.17086001 0.0082181999 0.065364003
0.17249 0.0098463995 0.065976001
0.17202 0.0093817003 0.067128003
0.17156 0.010936 0.065595999
0.17183 0.01228 0.067287996
0.17132001 0.012727 0.067262001
0.17213 0.013681 0.068557002
0.17313001 0.013046 0.068591997
0.1754 0.016012 0.070722997
0.17487 0.016632 0.072421998
0.17405 0.016693 0.071503997
0.17513999 0.016398 0.07119
0.24105 0.047431 0.17132001
0.2422 0.048012 0.16986001
0.24076 0.049215 0.16962001
0.24070001 0.048055999 0.16982999
0.24072 0.047729 0.16929001
0.24042 0.049578998 0.16892
0.24191999 0.049373001 0.16927999
0.24766999 0.048322 0.17907
0.24632999 0.050880998 0.17671999
0.24748001 0.050308999 0.17648
0.24121 0.050974 0.16977
0.24312 0.051638 0.16942
0.24279 0.050755002 0.17087001
0.24176 0.052065 0.17141999
0.24171001 0.052069999 0.17099001
0.24304999 0.052499998 0.17305
0.24443001 0.054021001 0.17332
0.24459 0.053721 0.17307
0.24472 0.054683998 0.1742
0.24609999 0.056458 0.17479999
0.24482 0.055675 0.17505001
0.24571 0.055780001 0.17678
0.24665 0.056090001 0.17783999
0.24676999 0.056366999 0.17793
0.25025001 0.057882998 0.18378
0.24992999 0.056998 0.18143
0.24657001 0.057340998 0.17991
0.24749 0.058049999 0.17897999
0.24737 0.057737 0.17766
0.24869999 0.058881 0.18019
0.24804001 0.057944998 0.17961
0.2432 0.074634999 0.17372
0.24313 0.075021997 0.17357001
0.24248999 0.074490003 0.17066
0.24206001 0.074741997 0.17275
0.24330001 0.076397002 0.17275
0.24363001 0.075611003 0.17321999
0.24038 0.075124003 0.16850001
0.24313 0.076493002 0.17306
0.24472 0.076493002 0.1754
0.24573 0.076306999 0.1744
0.24435 0.076623 0.17596
0.24573 0.078034997 0.17583001
0.24417999 0.077207997 0.17348
0.24405 0.078034997 0.1745
0.24603 0.077234 0.17591999
0.24646001 0.078212999 0.17595001
0.24493 0.078440003 0.17402001
0.24409001 0.077733003 0.17416
0.24718 0.078144997 0.17743
0.24476001 0.079474002 0.17527001
0.24392 0.078939997 0.17421
0.24688999 0.079750001 0.17702
0.24657001 0.080608003 0.17749999
0.24558 0.080219999 0.17585
0.24493 0.080606997 0.17637999
0.24661 0.079639003 0.17618001
0.2475 0.080729999 0.17821001
0.2471 0.081014 0.1781
0.24518999 0.081442997 0.17723
0.24693 0.080770001 0.17799
0.16412 -0.039657999 0.053103998
0.16347 -0.038961999 0.051063001
0.16343001 -0.040065002 0.052632999
0.16175 -0.037236001 0.051072001
0.16099 -0.037544999 0.048477001
0.15981001 -0.035930999 0.047662999
0.15955 -0.034476999 0.047237001
0.15827 -0.034097001 0.046271998
0.20309 -0.031289998 0.11102
0.15658 -0.031463001 0.043150999
0.15542001 -0.026826 0.04109
0.15569 -0.025911 0.039941002
0.20205 -0.027036 0.11014
0.20261 -0.025378 0.11195
0.17698 -0.022789 0.072158001
0.17806 -0.022841001 0.073200002
0.21122999 -0.020586999 0.12549999
0.15457 -0.020948 0.037904002
0.21194001 -0.02093 0.12295
0.21178 -0.019445 0.1256
0.21108 -0.020486001 0.12462
0.20734 -0.02091 0.11772
0.20674001 -0.018554 0.11467
0.21239001 -0.018029001 0.12559
0.15173 -0.016032999 0.037475999
0.15297 -0.016387001 0.038274001
0.23378 -0.01545 0.15875
0.23474 -0.014987 0.15831999
0.23361 -0.01548 0.15696
0.21481 -0.014067 0.12947001
0.21599001 -0.014369 0.12838
0.21559 -0.012934 0.13108
0.17436001 -0.01168 0.068058997
0.21637 -0.013084 0.13139001
0.21729 -0.013212 0.13034
0.21773 -0.012253 0.13164
0.15093 -0.01134 0.037152
0.17287 -0.011376 0.070895001
0.17304 -0.011022 0.069430999
0.21698999 -0.011851 0.13315
0.15254 -0.0097733997 0.036878001
0.21957999 -0.0084747998 0.13467
0.15321 -0.0072766002 0.037090998
0.17396 -0.0088202003 0.067973003
0.17227 -0.0075201001 0.069445997
0.17408 -0.0076437001 0.068603002
0.17346001 -0.0069185002 0.068834998
0.15263 -0.0062000998 0.037980001
0.15204 -0.0068277 0.037498001
0.17308 -0.0062632002 0.068813004
0.1732 -0.0051104999 0.068221003
0.21984001 -0.0059365002 0.13733999
0.17372 -0.0045762998 0.068869002
0.22224 -0.0063470998 0.13919
0.22138 -0.0049414998 0.13979
0.22197001 -0.0052037002 0.13989
0.22357 -0.0031014001 0.1411
0.22307 -0.0021696 0.14318
0.2238 -0.0016665 0.14376
0.23093 -0.00058618002 0.15362
0.23047 -0.0018301 0.15527
0.17226 -0.0012461999 0.066827998
0.17230999 -0.00088950002 0.067755997
0.23073 -0.0014036 0.1522
0.23039 -0.00047445999 0.15248001
0.22596 0.00064366998 0.14634
0.22786 0.00017643 0.14735
0.15891001 -0.00023265 0.047083002
0.15825 0.00014495999 0.045770001
0.15531 0.00058191002 0.043528002
0.15713 0.00014205 0.042551
0.17099001 0.0015489 0.064602003
0.17309 0.012188 0.066027999
0.17271 0.012423 0.066419996
0.17497 0.015800999 0.071938001
0.17547999 0.015615 0.072857998
0.2436 0.047442999 0.17177001
0.24305999 0.047403 0.17151
0.24209 0.047051001 0.17117999
0.24184 0.049109001 0.16968
0.24244 0.049637999 0.17121001
0.24372999 0.051373001 0.17138
0.24348 0.050317001 0.17183
0.24350999 0.052021001 0.17154001
0.24541999 0.054609001 0.17397
0.24521001 0.053861 0.17406
0.24525 0.055762 0.17507
0.24733 0.059096001 0.1785
0.25033 0.057532001 0.18166
0.24372 0.074210003 0.17488
0.24439999 0.074607 0.17293
0.24411 0.076499 0.17406
0.24453001 0.074474998 0.17482001
0.24484 0.077781998 0.17508
0.24437 0.076631002 0.17429
0.24573 0.077716999 0.17609
0.24619 0.079627 0.17679
0.24639 0.080112003 0.17711
0.16753 -0.040989 0.056363001
0.16469 -0.040594999 0.056926001
0.16517 -0.040275998 0.056791
0.16403 -0.040468998 0.054616001
0.16422001 -0.039930001 0.054411002
0.16398001 -0.038006999 0.052017
0.18145999 -0.038835 0.078054003
0.18047 -0.038934998 0.079226002
0.18059 -0.038605999 0.076664001
0.18043999 -0.037404999 0.077586003
0.1613 -0.038274001 0.050313
0.16134 -0.037834 0.050085001
0.17881 -0.037397999 0.077420004
0.16192 -0.037528999 0.049047999
0.18009999 -0.037227999 0.077101998
0.18005 -0.036656 0.078419
0.16024999 -0.036334999 0.048684001
0.17990001 -0.036123 0.077370003
0.16060001 -0.035386 0.047793001
0.15918 -0.034033 0.047187001
0.15831999 -0.033952001 0.044645999
0.1586 -0.033950999 0.045513
0.15737 -0.032458 0.043177001
0.15614 -0.032221999 0.043542001
0.20220999 -0.032400999 0.11175
0.20308 -0.029655 0.11138
0.15626 -0.02995 0.043072
0.20161 -0.030145001 0.1096
0.20349 -0.028307 0.11143
0.1552 -0.028891999 0.042736001
0.15494999 -0.029023999 0.041742999
0.1564 -0.027805001 0.04188
0.20321999 -0.025255 0.11054
0.15503 -0.026439 0.039140001
0.20241 -0.024062 0.11156
0.1538 -0.024545999 0.039028
0.15543 -0.025211999 0.039170001
0.20466 -0.024259999 0.11207
0.20304 -0.024320001 0.1126
0.15444 -0.023972999 0.03895
0.20905 -0.023496 0.12183
0.20916 -0.023676001 0.1195
0.20829999 -0.021675 0.12069
0.2049 -0.023917001 0.1124
0.20499 -0.021991 0.11294
0.1551 -0.022515999 0.038970001
0.15429001 -0.022326 0.038444001
0.20370001 -0.021155 0.11309
0.20609 -0.020586001 0.11446
0.20497 -0.019843001 0.11382
0.2059 -0.020498 0.11508
0.17575 -0.020426 0.070945002
0.20503999 -0.019977 0.11498
0.20651001 -0.019912999 0.11675
0.17598 -0.020264 0.071024001
0.17634 -0.018716 0.070979998
0.15318 -0.019701 0.037948001
0.15345 -0.018643999 0.038123999
0.21301 -0.020188 0.12494
0.1754 -0.019126 0.070166998
0.21341 -0.017492 0.12620001
0.21393999 -0.017889 0.12553
0.17475 -0.020121001 0.070127003
0.15454 -0.018359 0.037682001
0.17377999 -0.017238 0.070304997
0.21389 -0.018808 0.12695
0.21416 -0.017289 0.12788001
0.17456 -0.015626 0.067901999
0.23728 -0.016293 0.15832999
0.23540001 -0.014376 0.15806
0.23538999 -0.014447 0.15898
0.21504 -0.015911 0.12830999
0.21391 -0.015408 0.1285
0.23497 -0.014704 0.15959001
0.23466 -0.014309 0.1583
0.21443 -0.015461 0.12848
0.21555001 -0.014183 0.12884
0.15221 -0.013158 0.036127999
0.15246999 -0.014877 0.036295999
0.21468 -0.013614 0.12946001
0.15128 -0.01382 0.036008999
0.21684 -0.013723 0.12999
0.2165 -0.012841 0.13062
0.15329 -0.012194 0.036752999
0.15391999 -0.011362 0.036143001
0.17372 -0.011006 0.068449996
0.21658 -0.010866 0.13202
0.15166999 -0.011655 0.037521999
0.17383 -0.0098729003 0.066463001
0.15289 -0.010036 0.036539
0.21751 -0.010456 0.13291
0.21813001 -0.0096127 0.13488001
0.21831 -0.0089103002 0.13391
0.15243 -0.0094172005 0.037323002
0.21829 -0.010458 0.13415
0.21907 -0.009416 0.13472
0.17355999 -0.0078814002 0.066899002
0.17318 -0.0086677 0.067864001
0.15242 -0.0080639999 0.036869999
0.21915001 -0.0089491 0.13638
0.17400999 -0.0071298 0.067681
0.17351 -0.0082269004 0.068538003
0.15282001 -0.007028 0.037735
0.22025999 -0.0079330001 0.13546
0.2207 -0.0074469 0.13674
0.22098 -0.0061368998 0.13681
0.17449 -0.0062044999 0.067137003
0.15180001 -0.0068036001 0.036306001
0.2211 -0.0065867002 0.13817
0.17339 -0.0043909 0.067429997
0.15403999 -0.002595 0.038752001
0.15252 -0.0048747002 0.037450001
0.15286 -0.0037799 0.038777001
0.15346 -0.0051265 0.038155001
0.22222 -0.0043088999 0.14019001
0.17319 -0.0040270998 0.067772001
0.17382 -0.0027677999 0.067068003
0.17265999 -0.0025136 0.067475997
0.22291 -0.0030171999 0.14156
0.22401001 -0.0031427999 0.14128
0.15488 -0.0029857 0.038458999
0.15415999 -0.0018477 0.039687999
0.15342 -0.00068627001 0.039969999
0.15352 -0.0032434 0.039719999
0.1724 -0.0029763 0.066793002
0.17299999 -0.0022589001 0.066422999
0.15469 -0.0021724 0.040541999
0.2254 -0.0012838 0.14303
0.17230999 -0.00023154001 0.066293001
0.23198 -0.0010804 0.15327001
0.22506 -0.0015715 0.14348
0.16058999 -0.0018844 0.047942001
0.15944999 -0.00054887001 0.047017999
0.16035999 -0.0011731 0.047189999
0.16 -0.0008406 0.047543
0.15459 -0.0017236 0.039923999
0.22522999 -0.0013885 0.14466999
0.22572 -0.0015416 0.14501999
0.17326 -0.0010015999 0.066
0.15823001 -0.00031261001 0.046131998
0.22966 -0.00011383 0.1504
0.2297 -0.0016075 0.1508
0.22983 0.0001362 0.14997999
0.22631 0.00012799 0.14703999
0.17214 -6.5337998e-05 0.065185003
0.15851 -0.00032774999 0.045412999
0.15459 0.00036385001 0.04064
0.15583999 5.1953e-05 0.041926
0.15468 -0.0012425 0.041708
0.23040999 -0.00067959999 0.15003
0.22988001 0.00031289001 0.14959
0.22826 0.0010531 0.14830001
0.22825 -3.5732999e-05 0.14978001
0.22842 0.00040135 0.14864001
0.1716 0.0014402 0.064432003
0.17213 0.0011231001 0.065605
0.17126 0.0015684 0.064695001
0.17219 0.0036839 0.063902996
0.16998 0.0039630001 0.064673997
0.1723 0.0044629001 0.064117
0.17228 0.0067767999 0.064584002
0.17166001 0.0055502998 0.063587002
0.17227 0.007886 0.064608
0.17078 0.0089399004 0.065900996
0.17113 0.0095247999 0.065131001
0.17125 0.010358 0.066134997
0.17337 0.013066 0.066013001
0.17353 0.013312 0.067052998
0.17308 0.01349 0.067286
0.17380001 0.014557 0.06679
0.17589 0.01295 0.072439
0.17597 0.0141 0.070841998
0.17451 0.015916999 0.069516003
0.17505001 0.015124 0.069911003
0.17519 0.01512 0.069539003
0.17538001 0.017216001 0.070344999
0.17570999 0.014597 0.070147
0.17504001 0.015851 0.069302
0.2447 0.046743002 0.17219
0.24342 0.047262002 0.17287999
0.24251001 0.046466999 0.17064001
0.24298 0.048117999 0.17351
0.24281 0.047019001 0.17292
0.24352001 0.047111001 0.17327
0.2441 0.047363002 0.16964
0.24260999 0.049989 0.17114
0.24600001 0.047858 0.17538001
0.24453001 0.048533998 0.17388999
0.24614 0.04755 0.17612
0.24569 0.048666999 0.17538001
0.24341001 0.048755001 0.17028999
0.2428 0.049504999 0.17038
0.24463999 0.051681001 0.17283
0.24463999 0.052189998 0.17184
0.24341001 0.050602999 0.17201
0.24403 0.052069999 0.17223001
0.24444 0.052255999 0.1727
0.24433 0.053893998 0.17287
0.24551 0.054343 0.17329
0.24702001 0.055695001 0.17470001
0.24604 0.056145001 0.17556
0.24742 0.055256002 0.1762
0.24799 0.056968998 0.17742001
0.24786 0.056373999 0.17845
0.24959999 0.057089001 0.17851999
0.24893001 0.056777 0.17981
0.24901 0.057741001 0.17908999
0.24889 0.057840001 0.17952
0.25088999 0.056430999 0.18195
0.25003001 0.056832001 0.1821
0.25145 0.057831001 0.18158001
0.16701999 -0.040064 0.058180001
0.16587999 -0.038837999 0.057569001
0.16717 -0.039347 0.058334
0.16765 -0.040465999 0.05855
0.16518 -0.039149001 0.054505002
0.16422001 -0.038474001 0.051374
0.16 -0.035431001 0.046420999
0.15909 -0.034986999 0.045434002
0.15714 -0.032515001 0.043322001
0.15854 -0.031129999 0.043462999
0.19217999 -0.031672001 0.095170997
0.19239999 -0.030565999 0.096704997
0.19351999 -0.030572999 0.095374003
0.17936 -0.026616 0.07559
0.17874999 -0.028686 0.075676002
0.17873999 -0.027674999 0.075856
0.20409 -0.026490999 0.11025
0.17724 -0.02523 0.074856997
0.17756 -0.024747999 0.073820002
0.17895 -0.024494 0.072549999
0.17895 -0.024443001 0.073124997
0.17719001 -0.024325 0.072985001
0.17737 -0.024482001 0.072517
0.20297 -0.023529001 0.1138
0.17761 -0.023042999 0.073143996
0.1543 -0.023465 0.039073002
0.20483001 -0.023126001 0.11424
0.17599 -0.023049001 0.072789997
0.17681 -0.021411 0.071574003
0.20971 -0.023018001 0.12454
0.21082 -0.023349 0.121
0.21268 -0.021887001 0.12297
0.15521 -0.020904999 0.037636001
0.15342 -0.021915 0.039455
0.21135999 -0.020833001 0.12352
0.20543 -0.022105999 0.11304
0.17564 -0.022235001 0.071961999
0.17639001 -0.021213001 0.071592003
0.17709 -0.022513 0.070298001
0.17621 -0.020068999 0.070201002
0.21454 -0.018302999 0.12687001
0.15287 -0.017212 0.038238
0.15267 -0.016705999 0.036928002
0.2361 -0.014921 0.15976
0.17478 -0.0134 0.068461999
0.21620999 -0.014893 0.13001999
0.21729 -0.014465 0.12910999
0.17276999 -0.011176 0.067488
0.17369001 -0.012915 0.067924
0.15279999 -0.011187 0.036766
0.17381001 -0.011615 0.066763997
0.17332 -0.0086401999 0.067336001
0.17259 -0.0072043999 0.067537002
0.21848001 -0.0073870998 0.1366
0.1736 -0.0077892002 0.066922002
0.15256999 -0.0081219999 0.037202999
0.17321 -0.0075065 0.068271004
0.17339 -0.0072388998 0.067663997
0.15354 -0.0061452999 0.038644999
0.22178 -0.0058817999 0.13903999
0.17452 -0.0048142001 0.066868
0.22251999 -0.0063721002 0.13861001
0.22297999 -0.0047658999 0.13922
0.17327 -0.0045822002 0.065554999
0.15444 -0.0030846 0.039478999
0.2243 -0.0022489999 0.14263
0.23014 -0.0025597999 0.15236001
0.15967999 -0.0016884001 0.047635
0.15509 -0.0010912 0.040697999
0.15876999 -0.0018733999 0.045768999
0.22667 -0.00067554001 0.14478
0.15899999 -0.00043856 0.045446001
0.23013 -0.0014331 0.15194
0.22627001 -0.00042731999 0.14515001
0.22861999 0.00010197 0.14793999
0.22731 0.00019522 0.14858
0.15662999 -0.00097602 0.043205999
0.15702 -0.00022474 0.041949
0.15786 -0.00064971001 0.042939
0.15749 -0.0015976999 0.042355999
0.17254999 0.0022312 0.064209998
0.17082 0.0078027998 0.065373003
0.17211001 0.0079455003 0.064958997
0.1744 0.011844 0.066624999
0.1763 0.01309 0.071590997
0.17621 0.013188 0.070799999
0.17626999 0.013445 0.072535001
0.17496 0.012994 0.070724003
0.17403001 0.013941 0.066976003
0.17542 0.012518 0.067169003
0.17466 0.015716 0.068567999
0.17594001 0.013937 0.067737997
0.17518 0.01513 0.070791997
0.244 0.046263002 0.17133
0.24496 0.046790998 0.17213
0.24545 0.048030999 0.17319
0.24555001 0.047247 0.17452
0.24585 0.046618 0.17310999
0.24319001 0.047169 0.17069
0.24551 0.048556998 0.17066
0.24461 0.049748 0.17030001
0.24453001 0.052498002 0.17362
0.24773 0.055597 0.17768
0.25047001 0.057913002 0.17933001
0.16795 -0.040302999 0.060380999
0.16766 -0.038612999 0.056109
0.16701999 -0.03985 0.057726
0.16516 -0.039841 0.054081999
0.16653 -0.03853 0.054218002
0.16345 -0.038355999 0.054253999
0.18213999 -0.038086999 0.077661999
0.18063 -0.038481001 0.077228002
0.16109 -0.036933001 0.049687002
0.16372 -0.03638 0.049040999
0.16034999 -0.036357999 0.047081001
0.16099 -0.035393 0.046565998
0.2031 -0.031257 0.10982
0.19216999 -0.031578999 0.093951002
0.19181 -0.030092999 0.095018998
0.15624 -0.030607 0.041733
0.15701 -0.027202999 0.039533999
0.17797001 -0.027759001 0.075291
0.17892 -0.027193001 0.074752003
0.20422 -0.025172001 0.11313
0.20501 -0.025323 0.11317
0.20476 -0.026165999 0.11246
0.20492999 -0.02499 0.11321
0.20574 -0.022452001 0.11405
0.15531 -0.020702999 0.038789
0.17687 -0.021592 0.071916997
0.20438001 -0.020429 0.11366
0.21281999 -0.020544 0.12508
0.2132 -0.020176999 0.12574001
0.20716 -0.019850999 0.1167
0.17658 -0.01953 0.069888003
0.17516001 -0.019004 0.068706997
0.21453001 -0.018449999 0.12635
0.21443 -0.017534001 0.12666
0.21517 -0.016648 0.12661999
0.21543001 -0.015760999 0.12827
0.17560001 -0.017449999 0.068591997
0.17454 -0.015374 0.068108
0.17572001 -0.015585 0.069031
0.17472 -0.016318999 0.068130001
0.21595 -0.016542999 0.12851
0.15426999 -0.015898 0.037085
0.15459 -0.014869 0.036665
0.23633 -0.015919 0.1594
0.23472001 -0.015493 0.15719
0.21641999 -0.01501 0.12914
0.17493001 -0.013056 0.066997997
0.15425999 -0.012297 0.036575001
0.15297 -0.011033 0.036775
0.21796 -0.011757 0.13316
0.15391 -0.010289 0.037138999
0.21879999 -0.0095805004 0.13217001
0.15375 -0.0093603004 0.036979999
0.15440001 -0.0097754002 0.037489001
0.17323001 -0.0085568 0.068562999
0.21969999 -0.0077184001 0.1355
0.15384001 -0.0057637999 0.038603
0.15445 -0.0071244002 0.037082002
0.22149999 -0.0069190999 0.13756
0.15519001 -0.0050764 0.038772002
0.17341 -0.0056205001 0.067803003
0.22251999 -0.0057700002 0.13956
0.22318 -0.0045591001 0.13969
0.22345001 -0.0044584 0.14059
0.15467 -0.0041769999 0.038102999
0.16094001 -0.0028078 0.048439998
0.16168 -0.0034125999 0.047403
0.16114999 -0.0031277 0.048223
0.16009 -0.0018589 0.047056999
0.15628 -0.0022007001 0.041597001
0.22658999 -0.0019848 0.14517
0.22543 -0.0021605 0.14362
0.22578999 -0.0015697 0.14320999
0.15966 -0.0025871 0.045993999
0.15658 -0.0012717 0.041498002
0.17241 -0.0015337 0.066160999
0.17312001 -0.00049963 0.066046
0.15971 -0.0019963 0.045689002
0.15852 -0.00040279 0.043375
0.16013999 -0.0016901999 0.043533999
0.15617999 -0.0011743 0.042454999
0.228 -0.0013772 0.14569999
0.15828 -0.00023024 0.044232
0.17281 0.0025617001 0.064969003
0.17161 0.0048234002 0.063937001
0.17284 0.0080089998 0.063662998
0.17388 0.010111 0.065692998
0.17321 0.010475 0.065696999
0.17409 0.01262 0.065935001
0.17669 0.012845 0.071592003
0.17617001 0.014009 0.069923997
0.24434 0.045694999 0.17167
0.24421 0.046158001 0.17031001
0.24579 0.046686001 0.17346001
0.24822 0.046567 0.17364
0.24398001 0.049422 0.17102
0.24626 0.051720999 0.17377999
0.24496999 0.051243 0.17321999
0.24574 0.052436002 0.17371
0.24552999 0.054016002 0.17470001
0.24866 0.056026001 0.17635
0.24781001 0.055199999 0.17766
0.25024 0.056382 0.17783999
0.25185999 0.058118999 0.18119
0.25138 0.057773001 0.18129
0.24964 0.056979001 0.18145999
0.25150001 0.058492001 0.18074
0.16764 -0.040153999 0.058155999
0.16602001 -0.039964002 0.05596
0.16737001 -0.039781999 0.054620001
0.16497 -0.039625999 0.052212
0.1644 -0.039492 0.052460998
0.16367 -0.038966998 0.051683001
0.18111999 -0.038527001 0.075822003
0.16336 -0.038088001 0.051286001
0.16449 -0.037368 0.050790001
0.18006 -0.037106998 0.075369999
0.18019 -0.036757 0.075297996
0.16182999 -0.035682999 0.047417998
0.16133 -0.036442 0.048827
0.18110999 -0.034910001 0.076127
0.1794 -0.034837 0.077583
0.16142 -0.035046 0.047545999
0.16077 -0.034745999 0.04758
0.16011 -0.034485001 0.044406001
0.16097 -0.033762001 0.046555001
0.17986 -0.032432999 0.076457001
0.17942999 -0.033863001 0.075378001
0.17905 -0.034175001 0.075497001
0.15932 -0.032857001 0.043636002
0.17894 -0.031966001 0.076236002
0.17919999 -0.032899 0.074207
0.15775999 -0.031831 0.043908
0.15747 -0.031806 0.043827001
0.20377 -0.031992 0.10973
0.20355 -0.031245001 0.11091
0.17994 -0.032283999 0.075511999
0.20422 -0.030738 0.11136
0.19341999 -0.030820001 0.093078002
0.17923 -0.029529 0.075974002
0.17944001 -0.0307 0.075121999
0.17838 -0.031044999 0.077102996
0.15713 -0.030513 0.043676998
0.15809 -0.030418999 0.042635001
0.15807 -0.030749001 0.043016002
0.15801001 -0.029116999 0.042830002
0.20300999 -0.028581999 0.11031
0.1577 -0.027871 0.040980998
0.20455 -0.028316 0.1105
0.17883 -0.027658001 0.074809998
0.17849 -0.029544 0.074446
0.17942999 -0.028686 0.075336002
0.20299 -0.028021 0.11076
0.20387 -0.027067 0.1119
0.1796 -0.028388999 0.075153999
0.15657 -0.026841 0.040467001
0.20457 -0.026852001 0.11101
0.20557 -0.026442001 0.11218
0.17839 -0.027845001 0.074202001
0.17894 -0.026445 0.073169
0.17769 -0.026271001 0.073353998
0.20669 -0.024027999 0.11306
0.20565 -0.024637001 0.11368
0.20492999 -0.024219001 0.11222
0.17879 -0.024235001 0.072724
0.17727 -0.023362 0.072773002
0.21175 -0.023689 0.12329
0.21185 -0.023427 0.12386
0.20623 -0.02397 0.11447
0.15497001 -0.023297001 0.037737001
0.21128 -0.022607001 0.12215
0.21217 -0.021753 0.1237
0.20607001 -0.022211 0.11482
0.20602 -0.022360999 0.114
0.21323 -0.021291001 0.12343
0.20561001 -0.021819999 0.1134
0.20556 -0.020305 0.11427
0.21419001 -0.020783 0.12404
0.20925 -0.021012999 0.11831
0.20856 -0.019907 0.1174
0.2087 -0.021156 0.11846
0.20862 -0.020152999 0.11878
0.207 -0.019719999 0.11592
0.2054 -0.020395 0.11469
0.15431 -0.020369999 0.03878
0.20750999 -0.021509999 0.11668
0.2067 -0.018966001 0.11415
0.20755 -0.020554001 0.11621
0.20798001 -0.020251 0.11745
0.20756 -0.019013001 0.11549
0.1541 -0.01901 0.037776999
0.15459 -0.018759999 0.038647
0.15442 -0.018939 0.037572999
0.21562 -0.017108001 0.12841
0.15458 -0.016516 0.037381999
0.15369999 -0.017041 0.037719999
0.2359 -0.014682 0.1576
0.17467 -0.015451 0.068790004
0.17524999 -0.014148 0.068107001
0.17483 -0.014254 0.066857003
0.1742 -0.014519 0.068635002
0.17490999 -0.016021 0.067290001
0.17411999 -0.012772 0.067897998
0.21726 -0.013242 0.13045999
0.2175 -0.01229 0.13055
0.17366999 -0.012345 0.067126997
0.2185 -0.012945 0.13155
0.21883 -0.011147 0.13191999
0.17467999 -0.010664 0.066898003
0.15372001 -0.012086 0.037386999
0.21799 -0.011052 0.13281
0.21957999 -0.010565 0.13366
0.2198 -0.0094852 0.13451
0.15487 -0.0090068001 0.036246002
0.17395 -0.0088545997 0.067919001
0.21955 -0.0069629 0.13383999
0.17385 -0.0082120001 0.066069998
0.15423 -0.0081527 0.036564998
0.22069 -0.0073982999 0.13501
0.17252 -0.0088288998 0.067330003
0.22136 -0.0066978 0.13625
0.22069 -0.0070778001 0.13677
0.15507001 -0.0077709001 0.037519
0.22211 -0.0061691999 0.13668001
0.22215 -0.0061043999 0.13778
0.22205 -0.0052880999 0.13857999
0.17312001 -0.0064901998 0.068042003
0.15550999 -0.0062887999 0.038456
0.15473001 -0.0058502001 0.038633998
0.15445 -0.0055976999 0.039707001
0.17301001 -0.0054445998 0.065889999
0.15700001 -0.0035325 0.038609002
0.22423001 -0.0043115001 0.13882001
0.17344999 -0.0041846 0.065952003
0.15549 -0.0043632002 0.038784999
0.16150001 -0.0044474001 0.048772998
0.15474001 -0.0039976002 0.039744001
0.22476 -0.0042372998 0.14067
0.22431999 -0.0025990999 0.14052001
0.15707999 -0.0029470001 0.040036999
0.22462 -0.0028456 0.14208999
0.23196 -0.0030370001 0.15193
0.23158 -0.0032106 0.1523
0.23118 -0.0035349999 0.15373001
0.23204 -0.0013747 0.15149
0.23131 -0.0035761001 0.15141
0.17316 -0.0021671001 0.066017002
0.15701 -0.0027292999 0.040812999
0.22544 -0.0027745999 0.14335001
0.15678 -0.002357 0.041088998
0.23059 -0.0027105999 0.15159
0.23052 -0.0022449 0.1517
0.16038001 -0.0020940001 0.046367999
0.15928 -0.0023101 0.043862
0.15685999 -0.0011171 0.04104
0.23055001 -0.001193 0.15056001
0.23067001 -0.0017766 0.14925
0.2297 -0.0019135 0.1504
0.22709 -0.00097502 0.14437
0.17344999 -0.003145 0.065017998
0.15775 -0.00098379003 0.042408001
0.15779001 -0.0011602 0.043915998
0.22872999 -0.00075094 0.1481
0.22856 -0.00073775998 0.14674
0.22772001 -0.0013912 0.14577
0.17291 -0.0012460999 0.065172002
0.22905999 -0.00092163001 0.14981
0.22954001 -0.00093793002 0.14901
0.22945 -0.00035494001 0.14854001
0.17181 4.4733999e-05 0.064836003
0.17302001 0.00030756 0.065568
0.17166001 0.0044245999 0.063744999
0.17225 0.0060108001 0.063680001
0.17306 0.0068720998 0.063597001
0.17341 0.0088286996 0.063672997
0.17302001 0.0090976004 0.064902999
0.17484 0.013888 0.068033002
0.17697001 0.014958 0.071024001
0.17659 0.014545 0.068838
0.24479 0.045526002 0.17146
0.24434 0.046197999 0.1705
0.24341001 0.046617001 0.17121001
0.24574 0.047037002 0.17293
0.24327999 0.046789002 0.16992
0.24378 0.048436001 0.17152999
0.24854 0.048243001 0.17768
0.24766999 0.047612 0.17748
0.24389 0.048785999 0.17126
0.24541 0.048935998 0.17095
0.2446 0.049017999 0.17159
0.24506 0.050159998 0.17264999
0.24485999 0.053435002 0.17346001
0.2446 0.051947001 0.17423999
0.24654999 0.051426999 0.17449
0.24597 0.052184001 0.17422999
0.24762 0.053201001 0.17472
0.24652 0.053769 0.17463
0.24729 0.054556001 0.17431
0.24763 0.055729002 0.17519
0.2493 0.056225002 0.17750999
0.24891999 0.056001998 0.17666
0.25204 0.054861002 0.18200999
0.25209999 0.056467 0.18173
0.25187001 0.056682002 0.18329
0.25224 0.055884 0.18205
0.24973001 0.055808999 0.17868
0.2507 0.055470999 0.18001001
0.16801 -0.041283 0.058988001
0.16868 -0.039762001 0.058408
0.16699 -0.039999001 0.055551
0.16669001 -0.039383002 0.053783
0.22868 -0.039790001 0.14782
0.22867 -0.039354 0.14741001
0.22756 -0.037921 0.14642
0.16483 -0.038307998 0.052779999
0.16459 -0.039253999 0.051233001
0.18057001 -0.036982 0.076511003
0.17941 -0.034836002 0.075326003
0.18028 -0.034485001 0.076443002
0.16049001 -0.032669999 0.045109
0.15938 -0.033776 0.044193
0.18095 -0.032908998 0.074932002
0.20423 -0.032194 0.11067
0.15700001 -0.031714 0.043481
0.19275001 -0.03042 0.093333997
0.19114999 -0.030631 0.092854001
0.20404001 -0.02744 0.11128
0.15797 -0.025983 0.040229999
0.17869 -0.025851 0.074646004
0.20615 -0.027194999 0.11267
0.15583999 -0.025971999 0.039423998
0.15538999 -0.023839001 0.039182
0.20646 -0.025083 0.11264
0.17704 -0.024389001 0.072085001
0.15679 -0.024214 0.039285999
0.21213999 -0.023481 0.12263
0.15559 -0.02318 0.038378
0.15474001 -0.020486001 0.037953001
0.20728999 -0.020486001 0.11584
0.21409 -0.019734001 0.12482
0.2138 -0.019032 0.12465
0.20692 -0.020494999 0.11525
0.21457 -0.018908 0.12531
0.21552999 -0.017655 0.12718999
0.23506001 -0.014891 0.15566
0.23433 -0.016216001 0.15625
0.21605 -0.016942 0.12817
0.21782 -0.016042 0.12912001
0.17378999 -0.013347 0.067424998
0.21676999 -0.01428 0.12992001
0.15403999 -0.012763 0.037073001
0.15575001 -0.011633 0.036453001
0.15516999 -0.012415 0.036348
0.15502 -0.011782 0.037087001
0.22009 -0.0091388999 0.13355
0.1735 -0.0096942 0.066169001
0.15464 -0.0078713996 0.038947001
0.21913999 -0.0087003 0.13496
0.22134 -0.010108 0.13381
0.23249 -0.0084813004 0.15241
0.23282 -0.0071063 0.15234999
0.23263 -0.0076581002 0.15321
0.22217 -0.0071768998 0.13688999
0.1728 -0.0069664 0.066476002
0.17353 -0.0053951 0.067565002
0.17411999 -0.0057822 0.065121002
0.15681 -0.0059031998 0.038176998
0.17414001 -0.0037712001 0.065715
0.16140001 -0.0038663 0.047486
0.22351 -0.0050351 0.14001
0.15723 -0.0055626002 0.038911998
0.15663999 -0.0034328999 0.040536001
0.17321999 -0.0040668999 0.064416997
0.17439 -0.0034798 0.064857997
0.17437001 -0.0031000001 0.064785004
0.17384 -0.003481 0.064923003
0.16011 -0.0029606 0.046108998
0.15691 -0.0026592 0.041239001
0.16091 -0.0031953999 0.045641001
0.22652 -0.0030487 0.14349
0.22682001 -0.0029634 0.14302
0.17466 -0.0014562 0.065387003
0.15809999 -0.0023990001 0.041916002
0.22822 -0.0022013001 0.14538001
0.22789 -0.0019075 0.14466999
0.22858 -0.0014397 0.14932001
0.22940999 -0.0012144001 0.14781
0.22930001 -0.001928 0.14809
0.22781999 -0.0022400001 0.14775001
0.17238 0.00050115999 0.064813003
0.17282 -0.00031412 0.063547999
0.17237 -0.00085777999 0.064372003
0.17247 0.00070544 0.064088002
0.17236 0.0019598999 0.063748002
0.17103 0.0043444 0.062596001
0.17325 0.0061416002 0.062417999
0.17200001 0.0057802 0.063460998
0.17374 0.0086495001 0.063979
0.17296 0.010398 0.064754002
0.17516001 0.012182 0.066973001
0.17584001 0.012274 0.067566998
0.24654999 0.046379998 0.17215
0.24529 0.046296999 0.17057
0.24594 0.050421 0.17094
0.24733999 0.054326002 0.17521
0.24787 0.053314999 0.17544
0.25321999 0.057201002 0.18399
0.25352001 0.055792999 0.1833
0.25173 0.056308001 0.18023001
0.25058001 0.056632001 0.17949
0.16816001 -0.039453998 0.056575999
0.17031001 -0.039184 0.059277002
0.16969 -0.039856002 0.061831001
0.17046 -0.040651999 0.060656998
0.16769999 -0.038366999 0.056533001
0.16745999 -0.038283002 0.05658
0.16646001 -0.038132999 0.054407001
0.2299 -0.039381001 0.14601
0.16626 -0.039002001 0.054044001
0.22788 -0.038371 0.14631
0.20659 -0.038286999 0.11237
0.20724 -0.038966998 0.11374
0.20712 -0.040435001 0.11319
0.16619 -0.038265001 0.052868001
0.22797 -0.038113002 0.14602999
0.22722 -0.037252001 0.14577
0.22923 -0.040313002 0.14449
0.18152 -0.037629001 0.077209003
0.18196 -0.037620001 0.076355003
0.18007 -0.037347998 0.075947002
0.16503 -0.037351001 0.050446998
0.16267 -0.036176 0.049970999
0.16252001 -0.036093 0.048873998
0.16255 -0.036247 0.047302
0.16316999 -0.034926999 0.048362002
0.18085 -0.034853999 0.074729003
0.16223 -0.034763001 0.047483999
0.16151001 -0.035351999 0.048215002
0.16161001 -0.035805002 0.046914
0.16035999 -0.03486 0.046064001
0.18105 -0.032908 0.075470001
0.18082 -0.033597998 0.075662002
0.1804 -0.034589 0.074914001
0.18045001 -0.032733001 0.073922001
0.20456 -0.032205001 0.11009
0.18085 -0.031206001 0.074917004
0.19072001 -0.030463999 0.091356002
0.19146 -0.031057 0.091815002
0.19035999 -0.030524001 0.091716997
0.19047999 -0.030067001 0.090535998
0.18973 -0.030191001 0.089178003
0.1929 -0.030172 0.092738003
0.19314 -0.030074 0.09245
0.15816 -0.029030001 0.042521
0.20413999 -0.028937999 0.11162
0.2045 -0.028982 0.11141
0.18010999 -0.029097 0.075029001
0.18051 -0.028673001 0.07378
0.18063 -0.029225999 0.072935998
0.15820999 -0.028728001 0.041209999
0.15768 -0.028244 0.042433999
0.15793 -0.028790001 0.041825999
0.15752 -0.027587 0.040376
0.20561001 -0.028982 0.11
0.15837 -0.026752001 0.042344
0.20527001 -0.027904 0.11197
0.2044 -0.027884999 0.11207
0.15625 -0.027918 0.041283999
0.20667 -0.027525 0.11312
0.20672999 -0.027052 0.11294
0.20574 -0.026431 0.11216
0.15628 -0.024571 0.040052
0.21232 -0.024738999 0.12246
0.21149001 -0.025389001 0.12012
0.15649 -0.023859 0.038389999
0.21373001 -0.022376999 0.12263
0.20660999 -0.022887001 0.11266
0.15535 -0.023107 0.038690999
0.17942999 -0.022755999 0.070348002
0.21405999 -0.021862 0.12418
0.20750999 -0.02196 0.11532
0.20739999 -0.022592001 0.11406
0.20785999 -0.021481 0.11426
0.20682999 -0.020795001 0.1148
0.21514 -0.02031 0.12393
0.17743 -0.020386999 0.070196003
0.15544 -0.020353001 0.038189001
0.15459 -0.019171 0.037854001
0.15575001 -0.019893 0.037765
0.21591 -0.020067999 0.12482
0.17545 -0.018629 0.068663999
0.17688 -0.016928 0.068704002
0.21614 -0.015809 0.12757
0.21591 -0.018479001 0.12679
0.17536999 -0.016519999 0.067580998
0.17605001 -0.016666001 0.068879999
0.1763 -0.016241999 0.069385
0.17670999 -0.015893999 0.067708999
0.15459 -0.016485 0.036738001
0.23564 -0.016047001 0.15881
0.2367 -0.017182 0.1586
0.2352 -0.015928 0.15508001
0.23514999 -0.015907001 0.15609001
0.17484 -0.012043 0.066151999
0.17542 -0.012316 0.067325003
0.21912 -0.010743 0.13354
0.22102 -0.010754 0.13399
0.17429 -0.010342 0.066096
0.15415999 -0.011602 0.037909001
0.17375 -0.0079474002 0.067213997
0.23275 -0.0092332 0.15267999
0.23288 -0.0086564999 0.15285
0.23272 -0.0094422 0.15313999
0.22118001 -0.0095495004 0.13458
0.22168 -0.008223 0.13676
0.15648 -0.0076677999 0.03796
0.15603 -0.0080602001 0.037521999
0.23225001 -0.0067965998 0.15325999
0.23261 -0.0077670999 0.15177999
0.17396 -0.0081409998 0.065536
0.23237 -0.0070019001 0.15176
0.22327 -0.0074597001 0.13710999
0.23246001 -0.0050136 0.15228
0.23215 -0.005353 0.15249
0.17483 -0.0073015001 0.065831997
0.17490999 -0.0068162 0.066191003
0.1742 -0.0061593 0.065444998
0.1548 -0.0058859 0.038423002
0.23137 -0.0049067 0.15072
0.23142 -0.0045802998 0.15257999
0.23282 -0.0050603002 0.15092
0.17348 -0.0053793001 0.065381996
0.23244999 -0.0048440001 0.15136001
0.22537 -0.0051747998 0.13959999
0.16177 -0.0052037998 0.04857
0.16147 -0.0057156002 0.047343999
0.23142 -0.0048237001 0.14968
0.16161001 -0.0038621 0.048053
0.16244 -0.0060918001 0.047510002
0.16109 -0.0042078998 0.045432001
0.16066 -0.0039871 0.046209998
0.23196 -0.0028953999 0.15030999
0.23029 -0.0016406 0.14952999
0.22403 -0.0031485001 0.14206
0.22495 -0.0043470999 0.14001
0.15744001 -0.0041312999 0.040367
0.22583 -0.0026261001 0.14174999
0.22574 -0.0032889 0.14262
0.17396 -0.0043390999 0.064758003
0.15689 -0.0030680001 0.041336998
0.15979999 -0.0036243 0.044613998
0.15982001 -0.0029440999 0.042614002
0.16035999 -0.0028810999 0.044863001
0.15902001 -0.0032180999 0.044487
0.15924001 -0.0027664001 0.044379
0.1584 -0.0024623999 0.042716999
0.15905 -0.0037483999 0.041395001
0.23135 -0.0029243999 0.15014
0.22951999 -0.0015058001 0.14858
0.22939999 -0.0026831999 0.14646
0.22978 -0.0031095999 0.14692999
0.22605 -0.0026425 0.14381
0.17342 -0.0015481 0.064323999
0.22781 -0.0018153 0.14655
0.17279001 -0.00085800001 0.063507996
0.17282 0.00024932 0.063474998
0.17313001 0.0027242 0.063346997
0.17225 0.0028706 0.062766999
0.17234001 0.0019928999 0.062532999
0.17259 0.0046780002 0.063523002
0.1718 0.0073294002 0.062967002
0.17355999 0.0075301998 0.063254997
0.18003 0.0091279 0.074786998
0.17997999 0.0084424997 0.075736001
0.18038 0.0075730998 0.074929997
0.17516001 0.010724 0.065392002
0.17454 0.010074 0.064525999
0.17395 0.010296 0.065327004
0.17365 0.011375 0.065598004
0.17619 0.013153 0.067373998
0.17636 0.012758 0.069949999
0.17583001 0.013061 0.069011003
0.24462 0.047348998 0.17050999
0.24587999 0.049665 0.17178001
0.24606 0.050108001 0.17163
0.24619 0.049938001 0.17200001
0.24832 0.051077001 0.17354999
0.24645001 0.051605001 0.17319
0.24473999 0.052073002 0.17264
0.24829 0.051201999 0.17471001
0.24755 0.053261001 0.17377999
0.24753 0.052290998 0.17623
0.24748001 0.053761002 0.17511
0.24841 0.053835001 0.17487
0.24873 0.053780999 0.17437001
0.25285 0.055544 0.18189
0.25367001 0.055110998 0.18192001
0.25402001 0.054850999 0.18381999
0.25360999 0.055744 0.18239
0.25145 0.056092001 0.18136001
0.25161999 0.055075999 0.17990001
0.24889 0.055748999 0.17608
0.25038999 0.055472001 0.17972
0.25016001 0.056145001 0.17735
0.24954 0.055052999 0.17794999
0.25020999 0.057030998 0.17918999
0.20902 -0.04064 0.11573
0.2076 -0.040808 0.11643
0.20828 -0.040716 0.11592
0.20781 -0.041140001 0.11519
0.20702 -0.040518999 0.11401
0.20712 -0.040702 0.11487
0.2075 -0.039455999 0.11386
0.20779 -0.040176999 0.1153
0.17004 -0.040697999 0.060403999
0.16941001 -0.039507002 0.058618002
0.16931 -0.039060999 0.057700999
0.16869999 -0.037744999 0.056701999
0.16914 -0.037944 0.055714998
0.17016 -0.038401999 0.060816001
0.16599 -0.037170999 0.053151999
0.16669001 -0.037806999 0.053537998
0.16680001 -0.038113002 0.053684998
0.16496 -0.038438998 0.051541999
0.1647 -0.037539002 0.050631002
0.22781999 -0.037820999 0.14595
0.18167 -0.037427999 0.076240003
0.22819 -0.039099 0.14444
0.18187 -0.037785999 0.074314997
0.22712 -0.036265001 0.14428
0.18156999 -0.036042999 0.074896999
0.1648 -0.037717 0.048694
0.16385999 -0.036750998 0.049419999
0.18089999 -0.035856999 0.075003996
0.18119 -0.033907998 0.074690998
0.16226999 -0.033801001 0.047448002
0.20451 -0.033140998 0.10986
0.20374 -0.033225 0.11025
0.20523 -0.032593001 0.10976
0.16055 -0.033344999 0.044091001
0.20362 -0.033504002 0.11058
0.16017 -0.033378001 0.045037001
0.16061001 -0.033395998 0.044108
0.17981 -0.031268999 0.074497998
0.15971 -0.032652002 0.043359
0.15966 -0.031665999 0.042723998
0.20465 -0.031555999 0.11012
0.16029 -0.032071002 0.042048998
0.20451 -0.029292 0.10999
0.192 -0.029859001 0.09008
0.19101 -0.030647 0.092147
0.19217999 -0.030321 0.089534998
0.15888 -0.03022 0.042495999
0.15888999 -0.028779 0.041503001
0.20487 -0.030912001 0.11023
0.17879 -0.028547 0.073944002
0.18036 -0.027376 0.073457003
0.20572001 -0.026743 0.11302
0.20577 -0.026838999 0.11195
0.18007 -0.027129 0.072952002
0.15827 -0.026156999 0.040360998
0.17941999 -0.026798001 0.073803
0.20963 -0.026193 0.12089
0.21255 -0.025690001 0.12126
0.2124 -0.026763 0.12095
0.20545 -0.025824999 0.11438
0.20626 -0.024788 0.11324
0.20735 -0.027485 0.11423
0.17944001 -0.026184 0.07299
0.17838 -0.02379 0.071909003
0.21292 -0.025681 0.12234
0.20608 -0.025381999 0.11286
0.17862999 -0.024545001 0.071336001
0.1788 -0.026381001 0.070890002
0.17956001 -0.025966 0.071639001
0.178 -0.024057999 0.071304001
0.21325 -0.02337 0.12238
0.20533 -0.024893999 0.11355
0.213 -0.023530999 0.12403
0.21346 -0.022337999 0.124
0.15662999 -0.022631001 0.038883001
0.20968001 -0.022500999 0.11738
0.20917 -0.022597 0.11716
0.20908 -0.023007 0.11888
0.20705 -0.022502 0.11424
0.17752001 -0.023189999 0.070913002
0.15629999 -0.020719999 0.039124999
0.21359999 -0.021662001 0.12237
0.15455 -0.021082001 0.038408998
0.21308 -0.021322999 0.12461
0.20874 -0.022345999 0.11541
0.17779 -0.021539999 0.069521002
0.2147 -0.021043999 0.12454
0.20964 -0.021290001 0.11717
0.20747 -0.021034 0.11719
0.20839 -0.021474 0.11685
0.20877001 -0.020699 0.1169
0.17662001 -0.021778001 0.069408
0.15492 -0.020873999 0.037137002
0.21541999 -0.019911001 0.12554
0.21543001 -0.01839 0.12591
0.21521001 -0.01812 0.12714
0.1754 -0.017433001 0.067795001
0.15533 -0.018742001 0.037390999
0.15649 -0.018138999 0.035891
0.21644001 -0.016659001 0.12689
0.15552001 -0.017108001 0.037172001
0.15478 -0.017589999 0.037438001
0.17591 -0.016599 0.067817003
0.23710001 -0.017036 0.15782
0.23695 -0.017162001 0.1573
0.23577 -0.016097 0.15696999
0.17701 -0.016308 0.067663997
0.15567 -0.016030001 0.037163001
0.21641 -0.015841 0.13025001
0.17678 -0.014604 0.068048
0.15397 -0.014129 0.037193
0.21759 -0.014566 0.12998
0.21884 -0.014907 0.13028
0.17506 -0.013131 0.068107001
0.17618001 -0.014683 0.066867001
0.2184 -0.01356 0.13078
0.15559 -0.013214 0.037145998
0.15545 -0.012781 0.036973
0.21817 -0.01209 0.13111
0.21935999 -0.01156 0.13191999
0.23339 -0.010532 0.15074
0.23168001 -0.012882 0.15129
0.23175 -0.011927 0.15028
0.22018 -0.010865 0.13158999
0.22015999 -0.012393 0.13192999
0.15588 -0.011076 0.037611999
0.21944 -0.011112 0.13307001
0.17478 -0.010318 0.065734997
0.22 -0.011342 0.13343
0.22022 -0.011342 0.13441999
0.22160999 -0.010475 0.13536
0.15561999 -0.0089346003 0.037604999
0.17499 -0.0099518998 0.065486997
0.17475 -0.0097599002 0.065578997
