# .PCD v0.7 - Point Cloud Data file format
VERSION 0.7
FIELDS x y z
SIZE 4 4 4
TYPE F F F
COUNT 1 1 1
WIDTH 1573
HEIGHT 1
VIEWPOINT 0 0 0 1 0 0 0
POINTS 1573
DATA ascii
0.22646999 0.14403 0.033998001
0.24106 0.14424001 0.027628999
0.22379 0.14499 0.035020001
0.24278 0.14585 0.027807999
0.24483 0.14691 0.025811
0.21877 0.15301999 0.038224
0.24724001 0.15658 0.024063
0.21833 0.15683 0.038472999
0.21912 0.15917 0.037928998
0.24803001 0.15898 0.024227001
0.24681 0.15992001 0.024955999
0.24666999 0.16185001 0.025467999
0.22076 0.16218001 0.036713999
0.24242 0.16607 0.02777
0.22202 0.16768999 0.03627
0.22424001 0.16865 0.035923999
0.22688 0.16997001 0.034458
0.22767 0.16926999 0.033578001
0.23344 0.17058 0.030017
0.23586001 0.17109001 0.029673001
0.23694 0.16956 0.028803
0.1982 0.051306002 0.048606001
0.25274 0.052514002 0.022415999
0.20728999 0.051596001 0.043476
0.19865 0.052508999 0.047970001
0.20851 0.053551 0.043116
0.19794001 0.053915001 0.048215002
0.19836999 0.055318002 0.047033999
0.20031001 0.056947 0.047465999
0.2014 0.05855 0.047428001
0.1992 0.059698999 0.047818001
0.19876 0.060564999 0.048091002
0.19682001 0.066009998 0.049082
0.19533999 0.064989001 0.048599001
0.19746 0.070266999 0.049160998
0.19788 0.071198002 0.048207998
0.20022 0.072613999 0.047486998
0.20048 0.072860003 0.046092998
0.20200001 0.073397003 0.046870001
0.20242999 0.074428 0.046057999
0.20197 0.075382002 0.047155999
0.22538 0.079581998 0.035574
0.22677 0.079207003 0.034852002
0.2282 0.079718001 0.034333002
0.22863001 0.079901002 0.033413
0.23352 0.079475001 0.032097999
0.20203 0.080638997 0.046425
0.20334999 0.080334 0.046087001
0.23533 0.080375999 0.03111
0.24414 0.079645999 0.026881
0.25097001 0.080393001 0.023381
0.20426001 0.079921 0.045132
0.20666 0.080576003 0.044133998
0.20558999 0.081561998 0.044069
0.20736 0.082308002 0.043910999
0.23782 0.13668001 0.028701
0.23338 0.13676 0.031248
0.23204 0.13675 0.030183
0.23507001 0.13636 0.029963
0.23901001 0.13681 0.028402001
0.22572 0.13731 0.034699
0.22586 0.13745999 0.035149999
0.22737999 0.13867 0.034235999
0.22587 0.1389 0.033865999
0.2406 0.13894001 0.027671
0.22578999 0.14016999 0.034483999
0.22693001 0.14049999 0.034168001
0.23968001 0.14053001 0.028241999
0.22813 0.14115 0.033604998
0.22953001 0.14109001 0.032832999
0.22926 0.14161 0.033160999
0.22936 0.14159 0.032706
0.23024 0.1407 0.031932998
0.23747 0.14203 0.029146999
0.23095 0.14245 0.032088999
0.22966 0.14268 0.033041
0.23819999 0.14185999 0.028953001
0.22842 0.14311001 0.034003999
0.23981 0.14187001 0.028145
0.22832 0.14369 0.034472998
0.24189 0.14393 0.027414
0.24135999 0.14503001 0.027944
0.22486 0.14444999 0.034915
0.22375999 0.14505 0.034917999
0.22339 0.1462 0.035838
0.22199 0.14744 0.035921
0.24406999 0.14693999 0.026566001
0.22147 0.14668 0.036789
0.2219 0.14751001 0.035951
0.24477001 0.14907999 0.025304999
0.24558 0.14797001 0.024602
0.22088 0.14831001 0.037395
0.22086 0.15038 0.037831001
0.21769001 0.15333 0.038546
0.24677999 0.15373001 0.025869999
0.24664 0.15539999 0.025210001
0.21876 0.15567 0.038198002
0.21843 0.15549 0.038481001
0.24817 0.15527 0.02413
0.2464 0.15710001 0.025185
0.219 0.15803 0.038024001
0.24694 0.15875 0.024532
0.24608 0.16079 0.025180001
0.2457 0.16443001 0.025533
0.24583 0.16201 0.026536999
0.22050001 0.16353001 0.037345
0.2216 0.16181 0.037225001
0.24304999 0.16403 0.026808999
0.24315 0.16562 0.026895
0.22135 0.16517 0.037648
0.22296999 0.16625001 0.035526998
0.24171001 0.16652 0.027673
0.23032001 0.16982999 0.033137999
0.23488 0.17014 0.030882001
0.23654 0.16994999 0.030389
0.22503 0.17094 0.035224002
0.19859 0.050409 0.047986999
0.25391001 0.051816002 0.021218
0.20651001 0.052032001 0.044085
0.25466999 0.051964998 0.021861
0.25147 0.053105 0.022542
0.25064 0.053955998 0.024
0.24943 0.053429 0.024099
0.25136 0.053606 0.024010999
0.19964001 0.055776998 0.047958001
0.19731 0.066918001 0.049084
0.19948 0.071608998 0.047575001
0.20223001 0.075856999 0.047251999
0.20069 0.076530002 0.048039
0.20031001 0.079481997 0.047942001
0.20033 0.080201 0.047029
0.22391 0.080264002 0.036451999
0.20840999 0.079754002 0.042651001
0.21163 0.079934999 0.041475002
0.21321 0.079903997 0.041427001
0.21453001 0.079873003 0.04095
0.21719 0.080031998 0.038718998
0.24766 0.079732001 0.024908001
0.24909 0.079181001 0.023659
0.25268 0.080360003 0.022312
0.25206 0.080521002 0.023101
0.23734 0.13493 0.029013
0.23714 0.13507999 0.028511999
0.23706 0.13748001 0.029456999
0.23547 0.13684 0.030928001
0.22648001 0.13685 0.034348
0.23501 0.13591 0.03098
0.23861 0.13765 0.028502
0.24038 0.13839 0.028322
0.22808 0.13753 0.034752999
0.22834 0.13948999 0.033252001
0.24044999 0.13946 0.028883999
0.23802 0.14042 0.029684
0.23706999 0.14233001 0.030339999
0.23199999 0.14 0.032356001
0.2324 0.14274 0.032430999
0.22442 0.14631 0.036114998
0.24614 0.14924 0.025549
0.24481 0.14866 0.026582999
0.22048999 0.1515 0.038066
0.21923999 0.15099999 0.037218999
0.21787 0.15329 0.038299002
0.21872 0.1573 0.038495
0.24601001 0.15831999 0.025916999
0.24635001 0.15927 0.026667001
0.2193 0.15904 0.039002001
0.22059 0.16085 0.037760001
0.24559 0.16179 0.024360999
0.22217999 0.16404 0.037427999
0.22126999 0.16643 0.035751998
0.22296999 0.16513 0.036701001
0.24270999 0.16707 0.026728
0.22509 0.17027 0.035344999
0.22983 0.16935 0.032992002
0.23999 0.16945 0.029340999
0.23941 0.17003 0.028067
0.23536 0.16946 0.030097
0.23293 0.1697 0.032568
0.22628 0.17156 0.034928001
0.23825 0.17115 0.029482
0.23969001 0.17073999 0.02887
0.23874 0.1716 0.029089
0.2384 0.17182 0.029306
0.20288 0.050455999 0.047568001
0.24766999 0.054083001 0.025185
0.19732 0.062812001 0.048381999
0.20028 0.078450002 0.047056001
0.21342 0.079547003 0.041106001
0.21878999 0.079586998 0.038855001
0.23128 0.079695001 0.032205001
0.23769 0.079604 0.030042
0.24006 0.08044 0.028454
0.24197 0.080058001 0.026411001
0.20612 0.080201 0.045430999
0.22962999 0.13877 0.033482999
0.23184 0.13984001 0.033209
0.23354 0.14049 0.032563001
0.23459999 0.14105999 0.031148
0.23379999 0.14219999 0.032308999
0.23559 0.14192 0.031114001
0.23513 0.14185999 0.030853
0.23644 0.14279 0.030958001
0.22592001 0.1453 0.035813
0.24649 0.15618999 0.026281999
0.22616 0.16838001 0.036150999
0.20096 0.050353002 0.048712
0.20151 0.056386001 0.046578001
0.20069 0.059378002 0.047614999
0.19829001 0.062747002 0.048576001
0.23114 0.079608001 0.033034001
0.22922 0.079117998 0.034019999
0.21042 0.080054998 0.042362999
0.2211 0.079985 0.036247
0.23476 0.079038002 0.031312
0.2386 0.079977997 0.02874
0.24506 0.079902001 0.026611
0.22909001 0.13629 0.032963999
0.23741999 0.13813999 0.030882001
0.23213001 0.13993999 0.033424001
0.23316 0.13992999 0.032529
0.23244999 0.14319 0.033022001
0.23820999 0.14308 0.030494999
0.23728 0.14387999 0.030387999
0.2265 0.14573 0.035797
0.24295001 0.14696001 0.027865
0.24469 0.14734 0.027055001
0.22073001 0.14956 0.037397999
0.24595 0.15098 0.025187001
0.24513 0.15137 0.026419001
0.22056 0.15223999 0.037803002
0.24602 0.15195 0.025358999
0.21918 0.154 0.038759999
0.24495 0.16157 0.026520001
0.22386 0.16678999 0.036947999
0.22818001 0.16886 0.034582999
0.23360001 0.16968 0.032703001
0.19954 0.051275 0.048413999
0.20598 0.051224001 0.046447001
0.20767 0.051346999 0.045949999
0.20239 0.056614999 0.048067
0.20327 0.056843001 0.047984
0.20166001 0.058063999 0.046750002
0.2023 0.073104002 0.047619998
0.20355 0.073916003 0.047763001
0.23556 0.14076 0.030348999
0.23443 0.14037 0.031879999
0.23803 0.14005999 0.030724
0.23812 0.14042 0.029434999
0.23145001 0.14297 0.033466998
0.23010001 0.14421 0.033481002
0.22944 0.14466 0.033964001
0.23039 0.14441 0.033849001
0.24041 0.14532 0.030988
0.22195999 0.14844 0.036596
0.24617 0.15189999 0.0264
0.21987 0.15813001 0.039506
0.22069 0.16103999 0.037983999
0.22107001 0.1602 0.037345
0.24518999 0.16321 0.027378
0.24217001 0.16610999 0.028726
0.22848 0.16983999 0.034835
0.25354001 0.05294 0.023086
0.25255999 0.053571999 0.023618
0.24929 0.054090999 0.025477
0.21078999 0.058150001 0.041512001
0.21190999 0.056837998 0.043591
0.21087 0.057365999 0.043051001
0.20100001 0.060729999 0.048046
0.20026 0.060848001 0.048811998
0.19876 0.071097001 0.049070001
0.19939999 0.071338996 0.049541
0.2014 0.072356999 0.047835
0.20273 0.076045997 0.047056001
0.20435999 0.076287001 0.047733001
0.20592 0.079596996 0.046714999
0.20625 0.080302 0.045387
0.20773 0.080863997 0.046323001
0.20937 0.079848997 0.043947998
0.2344 0.13694 0.03176
0.23758 0.13832 0.030582
0.23630001 0.13828 0.031024
0.22979 0.13805 0.034968
0.23868001 0.13956 0.030537
0.23652001 0.14222001 0.030232999
0.23562001 0.14302 0.031208999
0.2421 0.14702 0.028929001
0.22349 0.14677 0.036136001
0.22549 0.14797001 0.037383001
0.22376999 0.15023001 0.038314
0.22274999 0.15076999 0.038623001
0.22107001 0.14964999 0.038281001
0.22086 0.15238 0.039041001
0.21912999 0.15375 0.038768999
0.21953 0.15541001 0.038924001
0.24544001 0.1612 0.027418001
0.24586999 0.15927 0.027771
0.24636 0.15997 0.026417
0.24388 0.16268 0.028051
0.24350999 0.16421001 0.027881
0.22283 0.16368 0.037763
0.22352 0.16528 0.037276
0.24292 0.1644 0.027938001
0.24223 0.16477001 0.028943
0.22494 0.16504 0.037423
0.22545999 0.16914 0.036798999
0.23039 0.16804001 0.035186999
0.23009001 0.16875 0.033904001
0.22764 0.1692 0.036203999
0.19955 0.051173002 0.048928
0.19905999 0.052643999 0.049573999
0.20735 0.051819999 0.044828001
0.20851 0.052372999 0.044335
0.25501001 0.053489 0.02342
0.21069001 0.053975999 0.044160999
0.25115001 0.054021001 0.024567001
0.24821 0.054963998 0.026524
0.24658 0.054616999 0.025901999
0.19972999 0.053656001 0.048252001
0.2 0.055257998 0.047323
0.2014 0.056248002 0.049369998
0.2115 0.055353001 0.043095998
0.20254999 0.058157001 0.047486
0.20104 0.059569001 0.048188001
0.19834 0.062512003 0.049617
0.1987 0.064329997 0.049768001
0.19661 0.068779998 0.049408
0.19819 0.068719 0.049315002
0.20169 0.071295999 0.04831
0.25249001 0.072134003 0.022473
0.25334001 0.071427003 0.024191
0.25411999 0.072172999 0.022394
0.20317 0.076173998 0.046998002
0.20155001 0.077803001 0.048353001
0.20153999 0.078594998 0.047665
0.20307 0.079327002 0.048202001
0.23138 0.080257997 0.033775002
0.21641 0.080917001 0.040771998
0.23345 0.080064997 0.032986999
0.23909 0.079887003 0.030068999
0.2414 0.079586998 0.029129
0.24420001 0.080238998 0.02753
0.25104001 0.080196001 0.024312999
0.25308999 0.079864003 0.023969
0.23102 0.13639 0.033085998
0.23154999 0.13636 0.033780001
0.23224001 0.1364 0.033357002
0.23232 0.13544001 0.032435998
0.22885001 0.13722 0.034044001
0.23362 0.13676 0.032598998
0.22818001 0.13675 0.034887001
0.23508 0.13728 0.031626999
0.2286 0.13790999 0.034995001
0.23883 0.13811 0.030019
0.23106 0.13916001 0.033009999
0.23137 0.1384 0.034533001
0.23277 0.13941 0.033624001
0.23407 0.13862 0.032924999
0.23475 0.13898 0.032265
0.23639999 0.13862 0.031130999
0.23641001 0.14033 0.030546
0.23533 0.14387999 0.031913999
0.23225001 0.14392 0.034106001
0.23424999 0.14376 0.032963999
0.23692 0.14428 0.030681999
0.23814 0.14385 0.031091999
0.23115 0.14415 0.033440001
0.23949 0.14538001 0.031075999
0.22882 0.14483 0.035580002
0.24045999 0.14485 0.029593
0.24096 0.14619 0.028558999
0.22754 0.14623 0.035154998
0.22644 0.14702 0.036959
0.24222 0.14681999 0.028326999
0.22537 0.14656 0.036981001
0.2436 0.14815 0.029042
0.24395999 0.14861 0.027267
0.24393 0.14985999 0.027238
0.24453001 0.14958 0.026663
0.24521001 0.15109 0.026420999
0.24505 0.15019 0.027298
0.22141001 0.15119 0.037942
0.22235 0.15245 0.038132001
0.22096001 0.15183 0.038570002
0.22115999 0.15350001 0.038718998
0.2464 0.1564 0.027371
0.24602 0.15544 0.027714999
0.22064 0.15742999 0.038872
0.22021 0.15577 0.039278999
0.22069 0.15899 0.039308
0.22115999 0.1591 0.039248999
0.22186001 0.16312 0.037601002
0.24449 0.16171999 0.027996
0.22400001 0.16299 0.037395
0.24349999 0.16429 0.027903
0.22464 0.16637 0.036876999
0.22619 0.16862001 0.037122998
0.22837 0.16903999 0.035670001
0.22584 0.16987 0.036518998
0.22729 0.16993 0.036779001
0.23057 0.16845 0.034224998
0.23186 0.16892 0.032786001
0.23210999 0.1696 0.033872999
0.23387 0.16913 0.032914001
0.23931 0.16938999 0.030812999
0.23920999 0.16866 0.029674999
0.23951 0.16881 0.030401999
0.23754001 0.16996001 0.030758999
0.23875 0.1707 0.030391
0.19916999 0.061485 0.049507
0.19846 0.064271003 0.049756002
0.19724 0.066101 0.049003001
0.19688 0.068355002 0.050044999
0.19941001 0.067006998 0.049545001
0.19946 0.070486002 0.049337
0.25249001 0.071953997 0.024875
0.20321 0.074777 0.046321001
0.20168 0.077625997 0.048168
0.20207 0.079536997 0.047619998
0.20382001 0.078957997 0.047448002
0.21198 0.079534002 0.042660002
0.2137 0.079241 0.042066
0.2233 0.079901002 0.037252001
0.22481 0.079915002 0.037613999
0.22748999 0.079945996 0.036541
0.23763999 0.080227003 0.030724
0.23961 0.079908997 0.029545
0.24196 0.080113001 0.028415
0.24976 0.080481999 0.025965
0.23243 0.13806 0.033666
0.23804 0.14467999 0.030906999
0.22566999 0.14695001 0.036759999
0.22763 0.14679 0.036630001
0.24323 0.14918999 0.028844001
0.22215 0.15381999 0.037903
0.24645001 0.15744001 0.027518
0.22238 0.15941 0.03906
0.22346 0.16126999 0.038860001
0.24344 0.1626 0.028666001
0.24179 0.16418 0.030114001
0.24711999 0.054469999 0.02729
0.19893 0.065968998 0.050360002
0.21335 0.080112003 0.042493999
0.21889 0.079526 0.040688999
0.22073001 0.079699002 0.039202001
0.2229 0.07999 0.038748998
0.23248 0.080139004 0.033046
0.24767999 0.079862997 0.026812
0.24834999 0.079902999 0.026394
0.23509 0.13821 0.032572001
0.23374 0.13801 0.033110999
0.23285 0.14595 0.034072001
0.23119999 0.14559001 0.034724999
0.23722 0.14578 0.031900998
0.2286 0.14596 0.035611
0.24070001 0.14611 0.030176001
0.22593001 0.14756 0.03703
0.22458 0.14932001 0.038031001
0.22288001 0.15123001 0.037788
0.24420001 0.15173 0.028774001
0.22068 0.15508001 0.038830001
0.24471 0.15556 0.027783999
0.24589001 0.15350001 0.026764
0.24398001 0.15952 0.028712999
0.23218 0.16948 0.033349
0.2017 0.050776001 0.050455
0.25202999 0.053536002 0.024546999
0.21221 0.055402 0.043028999
0.21269999 0.056628998 0.043127
0.20329 0.057953998 0.047961
0.20730001 0.080273002 0.046259001
0.21751 0.080519997 0.041188002
0.22533 0.079176001 0.036304999
0.22925 0.079663999 0.035471
0.23027 0.079458997 0.035036001
0.23669 0.080016002 0.031721
0.23411 0.1452 0.033449002
0.22793999 0.14792 0.036626998
0.24349 0.14796001 0.029356999
0.22372 0.15263 0.038541999
0.24529999 0.15384001 0.028108001
0.22225 0.1552 0.03782
0.24422 0.15820999 0.027818
0.2221 0.15928 0.039175
0.24205001 0.16336 0.030149
0.20237 0.050682001 0.049261998
0.20378999 0.051476002 0.047003999
0.21043999 0.052501999 0.046732999
0.25007999 0.054545999 0.025455
0.20261 0.056476999 0.048595998
0.20204 0.072195999 0.049573001
0.20366 0.079392999 0.048691001
0.20409 0.079347 0.048982002
0.21612 0.080002002 0.042201001
0.21938001 0.079631001 0.040019002
0.23546 0.079627 0.032605998
0.23574001 0.14505 0.032561
0.22945 0.14653 0.035796002
0.24003001 0.14619 0.031454001
0.24059001 0.14747 0.031259
0.24143 0.14791 0.030946
0.24168999 0.14838 0.029937999
0.22232001 0.15595999 0.037893999
0.24268 0.16178 0.028379001
0.22481 0.16304 0.037976
0.22483 0.16334 0.038327001
0.24115001 0.16353001 0.030244
0.23141 0.1697 0.036118001
0.23312999 0.17002 0.035241
0.20028999 0.050836999 0.049024999
0.20082 0.052544001 0.049137998
0.20826 0.051853999 0.046696
0.21058001 0.052366 0.04465
0.25448 0.053220998 0.024509
0.25292999 0.054310001 0.025674
0.25336 0.054024 0.025149999
0.25184 0.054412998 0.026054
0.20212001 0.055716999 0.049647
0.2006 0.055397999 0.049463999
0.20281 0.055946 0.049304001
0.20454 0.056655001 0.048654001
0.20438001 0.056131002 0.048386998
0.20453 0.059062 0.048794001
0.20245001 0.059404999 0.049254999
0.20255999 0.060015999 0.048385002
0.20179 0.060389999 0.050055999
0.2005 0.062027 0.050381001
0.19984999 0.063068002 0.050278999
0.19953001 0.069149002 0.049929
0.20083 0.069760002 0.050714999
0.20133001 0.070557997 0.049440999
0.25251001 0.071722001 0.026124001
0.25268 0.072385997 0.025238
0.20262 0.072021998 0.048514001
0.20467 0.072920002 0.047974002
0.20591 0.076091997 0.047719002
0.20345999 0.076509997 0.048046999
0.20400999 0.077756003 0.048425999
0.25178999 0.080287002 0.025901999
0.24455 0.079489999 0.028252
0.25042 0.07959 0.026458001
0.23918 0.14665 0.031736001
0.22860999 0.14884 0.0372
0.22614001 0.14888 0.037243001
0.24284001 0.14945 0.030013001
0.22425 0.15144999 0.037873998
0.24387001 0.15121999 0.029769
0.22577 0.15053999 0.038463999
0.22442 0.15245 0.038298
0.24518999 0.15112001 0.028028
0.24517 0.15248001 0.029060001
0.22409999 0.15279 0.038518
0.24484999 0.15354 0.029138001
0.22369 0.15423 0.038695
0.22375 0.15561999 0.038584001
0.22420999 0.15714 0.038895998
0.22259 0.15764 0.039191999
0.24482 0.15855999 0.029004
0.22273 0.15794 0.039494999
0.22414 0.15955999 0.038442999
0.22395 0.15961 0.038835999
0.22385 0.16078 0.038221002
0.24367 0.15978999 0.029475
0.22511999 0.16060001 0.038504999
0.22397999 0.16188 0.037758
0.22522999 0.16268 0.03847
0.24160001 0.16257 0.030470001
0.24104001 0.16252001 0.031564999
0.24151 0.16408999 0.031344999
0.24105 0.16590001 0.029785
0.24058001 0.16514 0.031111
0.23899999 0.16541 0.031936999
0.22669999 0.1671 0.037250999
0.22649001 0.16869999 0.037498999
0.22906999 0.16802999 0.037397999
0.23081 0.16891 0.035928998
0.23921999 0.16845 0.031075001
0.23792 0.16807 0.032579001
0.22829001 0.16817001 0.037749
0.23397 0.16955 0.034897
0.2077 0.052267998 0.047499999
0.2088 0.051647 0.046303999
0.20197999 0.054478001 0.050717998
0.24628 0.055110998 0.027618
0.24707 0.054910999 0.027419999
0.24817 0.055149 0.028909
0.24845 0.054572999 0.028121
0.24612001 0.055367 0.028853999
0.20381001 0.059230998 0.048098002
0.20197999 0.061152998 0.049938999
0.20083 0.062665001 0.050832
0.20017 0.064374 0.050244
0.19978 0.068276003 0.050921999
0.19971 0.068516999 0.050646
0.25426 0.070009999 0.024412001
0.25413999 0.071197003 0.024734
0.20310999 0.072656997 0.049477
0.25218999 0.072575003 0.025766
0.20427001 0.076531 0.048565
0.22299001 0.079861 0.039531998
0.22431999 0.080173999 0.039946999
0.22538 0.080232002 0.037866998
0.23014 0.079315998 0.036309
0.23306 0.080072001 0.034595001
0.23425999 0.080338001 0.034667
0.24605 0.079194002 0.028782999
0.23725 0.14554 0.032434002
0.23756 0.14605001 0.032740999
0.23616999 0.14545999 0.033279002
0.23266 0.14771 0.033925999
0.23123001 0.14726999 0.034922998
0.2384 0.14697 0.032798
0.23111001 0.14692 0.035507001
0.22652 0.148 0.037937
0.24237999 0.14877 0.030254001
0.24292 0.15027 0.029281
0.24345 0.15121 0.029789001
0.24489 0.15518001 0.029367
0.22367001 0.15572 0.038658999
0.24505 0.15676001 0.028429
0.22263999 0.15972 0.039101999
0.24367 0.15999 0.029932
0.24275 0.16065 0.029245
0.24268 0.16122 0.030230001
0.22563 0.16542999 0.038524002
0.23886 0.16680001 0.031109
0.24037001 0.16638 0.031326
0.23937 0.16680001 0.031571001
0.20641001 0.051624 0.048385002
0.20146 0.052359 0.050149001
0.20088001 0.064299002 0.051240001
0.19967 0.066412002 0.051375002
0.20612 0.073743999 0.047958001
0.20464 0.077114999 0.048140999
0.20632 0.079991996 0.048103999
0.20646 0.079350002 0.048705
0.21085 0.079636 0.045196
0.21359999 0.079763003 0.043035001
0.21543001 0.079664998 0.042991001
0.22723 0.079793997 0.03661
0.22714999 0.079672001 0.038096
0.23977999 0.079977997 0.032154001
0.2441 0.079962999 0.030337
0.2482 0.080035001 0.027557001
0.2344 0.14554 0.034058999
0.23657 0.14699 0.032979
0.23578 0.14647 0.034072001
0.22968 0.14899001 0.036139
0.23984 0.14839 0.031527001
0.22761001 0.14945 0.037891001
0.22633 0.14916 0.037232999
0.24202999 0.15048 0.029945999
0.22538 0.15317 0.038892999
0.22676 0.15265 0.037904002
0.24325 0.15266 0.029348999
0.22579999 0.15356 0.038323
0.22418 0.15502 0.038754001
0.22403 0.15804 0.039735001
0.24375001 0.15807 0.030671
0.24251001 0.16064 0.030932
0.2419 0.16097 0.032012999
0.22714999 0.1652 0.037358001
0.23896 0.16719 0.032559
0.23816 0.1652 0.033160001
0.22770999 0.16704001 0.037687998
0.23094 0.16992 0.036079001
0.20326 0.054032002 0.05043
0.20062999 0.064544998 0.051267002
0.20566 0.073077999 0.048815001
0.20688 0.073381998 0.048684999
0.20439 0.078955002 0.048301
0.21913999 0.078919001 0.041956
0.21996 0.079910003 0.041579999
0.22205999 0.079957999 0.040438998
0.23134001 0.080246001 0.036603
0.23789001 0.079116002 0.03263
0.23867001 0.080012999 0.031833
0.24123999 0.079842001 0.031231999
0.23444 0.14665 0.034561001
0.2306 0.14779 0.035889
0.22944 0.14971 0.037606001
0.24146999 0.15085 0.031318001
0.22697 0.15103 0.038529001
0.24207 0.15222999 0.029917
0.22487 0.15571 0.039032999
0.24008 0.16283 0.031941
0.23984 0.16432001 0.031401999
0.23769 0.16395999 0.032218002
0.22819 0.16523001 0.038042001
0.20973 0.053342 0.047816999
0.25119999 0.055482998 0.027355
0.2498 0.054866999 0.028053001
0.19972999 0.066647999 0.050609
0.19942001 0.067171998 0.051194001
0.25202999 0.072985001 0.025459999
0.21686999 0.079550996 0.042505998
0.23254 0.079643004 0.036065001
0.23576 0.080067001 0.034074001
0.24326 0.079819001 0.031314
0.23939 0.14737999 0.033309001
0.23128 0.14789 0.036433998
0.22939 0.15085 0.037721999
0.24169999 0.15198 0.031676002
0.24360999 0.15373001 0.030939
0.24248999 0.15380999 0.030772001
0.24388 0.15491 0.030286999
0.24216001 0.15523 0.030710001
0.24236999 0.15628999 0.030934
0.24401 0.15654001 0.030624
0.22545999 0.15800001 0.038945999
0.22548001 0.1593 0.039941002
0.22619 0.16199 0.038375001
0.22804999 0.16168 0.036881
0.22792999 0.16319001 0.037673
0.22656 0.1609 0.038045
0.23746 0.16102999 0.033620998
0.23831999 0.16164 0.033216
0.23863 0.16208 0.033181001
0.23948 0.16108 0.032308001
0.23672999 0.16265 0.033181001
0.22714999 0.16456001 0.038307998
0.22854 0.16394 0.037852999
0.22925 0.16351999 0.037703
0.22931001 0.16379 0.037014
0.23677 0.1644 0.032883
0.2296 0.16585 0.036513999
0.23706 0.16483 0.033863999
0.2114 0.053107999 0.046556
0.21211 0.053052001 0.046211001
0.2155 0.053987999 0.045263998
0.21549 0.055287998 0.043439999
0.2154 0.054375 0.045042999
0.24955 0.055268001 0.029498
0.24807 0.056715 0.029782999
0.25294 0.056212999 0.025861001
0.25376999 0.055677999 0.025629001
0.20624 0.056713 0.049129002
0.20656 0.059128001 0.048774
0.20400999 0.059648 0.049139
0.20392001 0.060972001 0.049876999
0.20556 0.060433 0.049387999
0.20369001 0.060887001 0.050512999
0.20049 0.065981001 0.051143002
0.25272 0.071691997 0.028212
0.25068 0.073158003 0.027053
0.25161001 0.072676003 0.027857
0.25132999 0.072439998 0.028163999
0.20550001 0.076637998 0.048622999
0.25141999 0.079170004 0.025788
0.20964999 0.080238998 0.046285
0.21288 0.080283999 0.045527998
0.21645001 0.079816997 0.04298
0.24446 0.080476999 0.029851999
0.25025001 0.080476001 0.028070999
0.24908 0.079485998 0.028697001
0.23375 0.14802 0.035154998
0.23621 0.14755 0.034364998
0.23672999 0.14779 0.034302
0.23044001 0.1495 0.036148001
0.24033 0.14940999 0.032678001
0.24044999 0.15144999 0.031160001
0.22595 0.15376 0.038332
0.24217001 0.15508001 0.031675
0.22635999 0.15654001 0.038906999
0.24157 0.15662 0.031987999
0.22623 0.1582 0.037484001
0.23977 0.15784 0.032097999
0.24118 0.15805 0.031736001
0.24315 0.15761 0.030533999
0.22803999 0.15992001 0.038497999
0.24318001 0.1595 0.031913999
0.22840001 0.15955 0.037865002
0.23797999 0.1593 0.034232002
0.23882 0.15990999 0.032554001
0.22927 0.16013999 0.038153999
0.23687001 0.16254 0.034832001
0.23679 0.16162001 0.033983
0.23079 0.16177 0.036554001
0.23052 0.16256 0.037066001
0.23074999 0.16343001 0.036408
0.23722 0.16411 0.034914002
0.23714 0.16854 0.033631001
0.2375 0.16790999 0.034692999
0.23598 0.16942 0.033895999
0.20338 0.051475 0.049245
0.20908999 0.052476 0.047547001
0.20139 0.063180998 0.050708
0.20151 0.065672003 0.051782999
0.20215 0.070147999 0.051065002
0.25380999 0.070868999 0.026913
0.205 0.072443999 0.049743
0.20636 0.075795002 0.048050001
0.20757 0.076412 0.048671
0.20755 0.075438 0.048486002
0.20528001 0.078051001 0.048563998
0.25123999 0.079405002 0.026883001
0.20735 0.080055997 0.049377002
0.20857 0.080283999 0.04724
0.24753 0.079731002 0.029341999
0.23483001 0.14771999 0.034274001
0.23204 0.1485 0.035879999
0.23503 0.14814 0.035627
0.23078001 0.14923 0.036010001
0.24058001 0.15164 0.031675
0.22964001 0.15107 0.037059002
0.23038 0.15200999 0.037397001
0.22894999 0.15194 0.037548002
0.24025001 0.15259001 0.032802001
0.22837999 0.15222999 0.038543999
0.24137001 0.15425 0.032334998
0.24003001 0.15394001 0.032752998
0.24049 0.15568 0.032474998
0.22813 0.15563001 0.037856001
0.22857 0.15592 0.038031001
0.23861 0.1565 0.033358
0.23803 0.1561 0.03328
0.24042 0.15758 0.032373
0.2272 0.15676001 0.038075
0.24307001 0.15847 0.031300999
0.22832 0.15826 0.038511999
0.23687001 0.15729 0.033542
0.23895 0.15764999 0.033201002
0.23837 0.1585 0.033213999
0.22925 0.15644 0.037402999
0.22998001 0.15739 0.036896002
0.2396 0.16074 0.032775
0.24066 0.15993001 0.032391001
0.24174 0.15971 0.032799002
0.23765001 0.15888999 0.033231001
0.22612 0.16042 0.039376002
0.23641001 0.1591 0.034207001
0.23528001 0.15942 0.034676999
0.23659 0.16091 0.035225999
0.22859 0.15973 0.038672
0.23033001 0.15931 0.037859999
0.22981 0.16037001 0.036497001
0.23104 0.16123 0.037202001
0.24042 0.16024999 0.032086998
0.24122 0.16094001 0.032170001
0.2309 0.1626 0.037331
0.23097999 0.16384 0.03757
0.23108 0.16548 0.037957001
0.23641001 0.16519 0.034917999
0.23729999 0.16744 0.034153
0.23005 0.16693 0.037776001
0.23286 0.16932 0.036061998
0.2368 0.16969 0.03517
0.20653 0.050542999 0.048974
0.20756 0.051701002 0.048664
0.21195 0.053335998 0.044654999
0.25290999 0.055100001 0.025927
0.20381001 0.054674 0.050104
0.20371 0.055468 0.049663998
0.25378001 0.055918001 0.026879
0.2471 0.055737 0.029610001
0.20502999 0.055528 0.049830001
0.20567 0.056373999 0.049446002
0.20463 0.059115 0.04958
0.20096999 0.068522997 0.051486
0.20232999 0.069169998 0.051309999
0.20336001 0.072021998 0.049693
0.24984001 0.073103003 0.028696001
0.20693 0.073806003 0.049026001
0.20676 0.076628998 0.048583001
0.20612 0.076874003 0.048661001
0.25116 0.077918001 0.026946999
0.20550001 0.077303 0.049453001
0.20552 0.078841001 0.049979001
0.23190001 0.079704002 0.036251001
0.24287 0.080109999 0.032037999
0.24207 0.080297001 0.032037999
0.24649 0.080482997 0.030027
0.23683999 0.14748 0.035436001
0.23785 0.14883 0.034086999
0.23928 0.14879 0.032134999
0.23872 0.14923 0.033698
0.23409 0.1495 0.035882998
0.23304 0.14963999 0.03703
0.23958001 0.14997999 0.033034001
0.2397 0.15039 0.033137999
0.23161 0.15124001 0.037200999
0.22983 0.15270001 0.037841
0.22927 0.15403999 0.037167002
0.22842 0.15411 0.037698001
0.23977 0.15565 0.032729998
0.23897 0.15414 0.033882
0.22894999 0.15559 0.038518
0.23626 0.15745001 0.034410998
0.23720001 0.15772 0.034407999
0.23636 0.15817 0.034081001
0.2309 0.15926 0.037338
0.23733 0.1629 0.035059001
0.23013 0.16576 0.037760999
0.23805 0.16497 0.034242999
0.23017 0.16878 0.037184998
0.23111001 0.16889 0.036704
0.23718999 0.16851 0.034875002
0.20491 0.052090999 0.049559001
0.20276 0.051587999 0.050416999
0.20799001 0.051144 0.048854001
0.20354 0.05249 0.050832
0.20261 0.051959999 0.050476
0.21254 0.053939998 0.045997001
0.25187001 0.056028999 0.027827
0.25068 0.055374999 0.028853999
0.21690001 0.054848 0.043386001
0.21612 0.056132 0.042435002
0.21702 0.056543 0.042435002
0.21765999 0.055961002 0.044133998
0.20311999 0.061393 0.05057
0.20292 0.062922999 0.050900999
0.20141 0.066463999 0.051334001
0.205 0.071533002 0.050170001
0.20795 0.073495001 0.048625998
0.25075999 0.078422002 0.02916
0.21555001 0.080383003 0.044599
0.21919 0.080164999 0.043249998
0.22124 0.079682998 0.041467
0.22894 0.079420999 0.037875999
0.23779 0.079565004 0.033574
0.23762 0.14975999 0.034396
0.23501 0.14938 0.036184002
0.23255999 0.15096 0.037161998
0.23924001 0.15231 0.033526
0.23062 0.15255 0.037577
0.23153 0.15411 0.036807001
0.23796 0.15407 0.033771999
0.23795 0.15274 0.034908999
0.23174 0.15508001 0.037682999
0.23726 0.15531 0.034297999
0.23566 0.15545 0.036228001
0.23034 0.15764999 0.037604999
0.23537 0.15674999 0.035785999
0.23536 0.15855999 0.035530001
0.23105 0.15851 0.037418999
0.23249 0.15924001 0.036970999
0.23356 0.15883 0.037328001
0.23548999 0.16042 0.036123998
0.23241 0.16068999 0.037707999
0.23035 0.16914 0.037599999
0.23341 0.16982 0.03627
0.23608001 0.16993999 0.036141999
0.245 0.056272998 0.031196
0.20773 0.058843002 0.048160002
0.20524999 0.059076 0.048817001
0.20225 0.063908003 0.051089998
0.20257001 0.068914004 0.051072001
0.25205001 0.072301 0.029222
0.21098 0.079953998 0.048191
0.21457 0.080735996 0.04493
0.21333 0.080463998 0.046195999
0.21178 0.079421997 0.047258999
0.23390999 0.079851002 0.036765002
0.23927 0.080384001 0.033380002
0.24593 0.079898998 0.030567
0.24908 0.080008999 0.029534999
0.23665 0.1497 0.034313001
0.23339 0.15153 0.036134001
0.23659 0.15094 0.036054
0.23799001 0.15005 0.033996001
0.23304 0.15194 0.037446
0.23636 0.15447 0.035790998
0.23328 0.15526 0.037071999
0.23267999 0.15652999 0.036889002
0.21374001 0.053780001 0.046209
0.20579 0.056738 0.049024001
0.20428 0.071036004 0.051217001
0.25314999 0.071299002 0.028999999
0.20894 0.074996002 0.048891
0.20857 0.075717002 0.04857
0.20706999 0.077872999 0.049497999
0.22071999 0.080208004 0.042447999
0.22739001 0.080191001 0.039687999
0.22987001 0.079598002 0.037955001
0.23587 0.079907 0.036710002
0.24133 0.080077 0.031808998
0.24528 0.080583997 0.03159
0.23627 0.15041 0.035482999
0.23491 0.15241 0.035004999
0.23349001 0.1522 0.036912002
0.23607001 0.15207 0.035834
0.2341 0.15425999 0.036166999
0.23242 0.15468 0.037075002
0.23518001 0.15333 0.036373999
0.23502 0.15556 0.036587998
0.23568 0.15967999 0.036377002
0.23686001 0.16658001 0.035557002
0.23124 0.16659001 0.037363
0.21417999 0.054120999 0.046808999
0.21399 0.054487001 0.047063999
0.20475 0.054956999 0.051077999
0.20731001 0.057310998 0.049323998
0.20895 0.056703001 0.050244998
0.20856 0.058781002 0.049913
0.20423 0.070022002 0.051598001
0.25115001 0.071367003 0.029482
0.24873 0.074088998 0.029323
0.24964 0.072926 0.029488999
0.20943999 0.076921001 0.049056001
0.20905 0.08072 0.048517998
0.21751 0.079691 0.043850001
0.22578 0.080514997 0.040521
0.23379 0.15527 0.037307002
0.23559 0.15545 0.036596999
0.23374 0.15775 0.037424002
0.23363 0.15792 0.037013002
0.23352 0.15955 0.036435999
0.23695999 0.16613001 0.035813
0.20574 0.051750999 0.050505999
0.20492999 0.052322 0.050740998
0.20502 0.053206 0.050838999
0.21864 0.055445001 0.045302
0.24968 0.056519002 0.029580001
0.20711 0.055174001 0.050353002
0.24702001 0.056547001 0.029959001
0.20719001 0.060421001 0.051171999
0.20457999 0.061018001 0.050671
0.20431 0.063242003 0.051955
0.20372 0.063408002 0.051649999
0.20232999 0.065462001 0.051881999
0.20329 0.065200999 0.052067999
0.20218 0.066880003 0.052069001
0.20261 0.068595 0.051833998
0.25470999 0.070368998 0.028542999
0.25393 0.069755003 0.027338
0.20557 0.071684003 0.050664999
0.24982999 0.072748996 0.030439001
0.24811999 0.072819002 0.030544
0.20952 0.073264003 0.049391001
0.24912 0.073991999 0.030322
0.20768 0.078534 0.050189
0.2079 0.080287002 0.049830999
0.20892 0.079145998 0.049320001
0.2176 0.080103002 0.044438001
0.2246 0.080366999 0.041097999
0.22775 0.079177998 0.039724998
0.23282 0.080179997 0.037951
0.23946001 0.080646999 0.03461
0.23367 0.15561999 0.037395
0.23425999 0.15684 0.037037998
0.23509 0.15887 0.035893999
0.23555 0.15658 0.037202001
0.23464 0.15979999 0.037562001
0.23323999 0.16080999 0.036656
0.23583999 0.15919 0.036385
0.23322999 0.1612 0.038063999
0.23221 0.16258 0.038153999
0.23236001 0.16419999 0.038252998
0.23301999 0.16411 0.038375001
0.23375 0.16588999 0.037262
0.23332 0.16700999 0.037613001
0.23183 0.16706 0.038045
0.23616 0.16591001 0.035778999
0.23709001 0.16748001 0.035896
0.23202001 0.16856 0.038332
0.23710001 0.16850001 0.036052
0.23345 0.16887 0.037932999
0.23645 0.16889 0.036465999
0.20799001 0.052609 0.050434999
0.20697001 0.051504999 0.050174002
0.21043 0.053151 0.049123999
0.20959 0.052280001 0.049141001
0.21241 0.053631 0.047704998
0.20537999 0.054467998 0.051771
0.25119001 0.055661999 0.029386001
0.20761 0.056846 0.049082998
0.24725001 0.056338999 0.031282999
0.20529 0.060672 0.050441999
0.20576 0.059721999 0.050856002
0.20333999 0.063934997 0.051934
0.25373 0.068843 0.027841
0.20302001 0.069467001 0.051925998
0.20536999 0.070972003 0.050806999
0.25308001 0.070843004 0.029369
0.20663001 0.073316 0.050101001
0.25121999 0.072503999 0.029186999
0.20817 0.072756 0.049642
0.20997 0.074787997 0.048772998
0.20806 0.077463999 0.049872
0.24956 0.078598 0.029859999
0.25035 0.077321 0.030422
0.20803 0.079297997 0.050255001
0.25066 0.079268999 0.030924
0.24911 0.079315998 0.031700999
0.21464001 0.080150001 0.046362001
0.21611001 0.079544999 0.045712002
0.21758001 0.080641001 0.045756001
0.22048 0.079914004 0.044259999
0.22363 0.080026999 0.041560002
0.23228 0.080389 0.039414998
0.23820999 0.079967998 0.035533
0.24437 0.080464996 0.031713001
0.23441 0.15848 0.037781999
0.23636 0.16165 0.036931001
0.23678 0.16233 0.037333
0.23542 0.16452999 0.036603998
0.23604999 0.16535001 0.035882
0.23474 0.16610999 0.037161998
0.23479 0.16715001 0.036943998
0.23501 0.16946 0.037283
0.23447999 0.16942 0.037818
0.21686999 0.054724 0.046068002
0.24909 0.056940999 0.030745
0.25059 0.056662999 0.028643001
0.25022 0.056419998 0.030130001
0.20931999 0.058380999 0.049672
0.20682 0.070941001 0.05105
0.24722999 0.074978001 0.031541999
0.2226 0.080187 0.042261999
0.22899 0.080130003 0.039691001
0.24104001 0.079999 0.034557
0.24235 0.079820998 0.033868
0.24277 0.080317996 0.032974001
0.24749 0.079999998 0.032139
0.23568 0.1673 0.037204001
0.20810001 0.051116001 0.050466001
0.2475 0.056338999 0.031697001
0.24957 0.057686999 0.031041
0.21005 0.057278998 0.049543999
0.20787001 0.060299002 0.050209001
0.20395 0.064534001 0.051911999
0.20383 0.069388002 0.053006999
0.20479999 0.070229001 0.051272999
0.21077 0.073370002 0.049157001
0.24789 0.073834002 0.031684998
0.21035001 0.073839001 0.049669001
0.20967001 0.076445997 0.049779002
0.21059 0.079668 0.048232999
0.2128 0.079838 0.048498001
0.21414 0.079974003 0.048124999
0.21825001 0.080091 0.045338999
0.23017 0.080505997 0.038894001
0.23581 0.080008999 0.036630999
0.24601001 0.079637997 0.031585
0.23427001 0.16111 0.037475001
0.23342 0.16234 0.037726998
0.23646 0.16260999 0.037425999
0.23464 0.16433001 0.037443001
0.20823 0.055275999 0.049993999
0.24627 0.056625001 0.032752
0.20575 0.061824001 0.052473001
0.21094 0.074992999 0.04927
0.21082 0.077789001 0.049692001
0.22784001 0.079291001 0.040504999
0.22603001 0.080654003 0.042482998
0.23393001 0.079356 0.037160002
0.2357 0.079751998 0.037647001
0.23436999 0.16254 0.037852999
0.21009 0.052834 0.050273001
0.22025 0.056701001 0.045157999
0.21969 0.056646001 0.044211999
0.22006001 0.057050001 0.044966999
0.21156 0.057477999 0.049415
0.2114 0.058573999 0.050131999
0.21055 0.058049001 0.050297
0.20863 0.059785001 0.051410001
0.20689 0.061023999 0.052181002
0.20534 0.062148001 0.051844999
0.20467 0.067555003 0.05178
0.20448001 0.068770997 0.05257
0.25277001 0.069417998 0.029948
0.20742001 0.071193002 0.051169001
0.25020999 0.072470002 0.032381002
0.25002 0.079490997 0.031035
0.21028 0.079011001 0.050432999
0.21190999 0.079232 0.049963001
0.22167 0.079806998 0.043722
0.22538 0.079719 0.041910999
0.20721 0.052434999 0.052310001
0.20902 0.053495999 0.051079001
0.21360999 0.054699998 0.048928
0.21354 0.054256 0.049075998
0.20691 0.054714002 0.051608
0.21502 0.055186 0.047589999
0.20772 0.055512 0.052368
0.21509001 0.054439999 0.048225999
0.20799001 0.055291001 0.051344
0.21934 0.055686999 0.046220001
0.20845 0.056579001 0.050156001
0.20967001 0.057069 0.050636001
0.24680001 0.056834001 0.033810001
0.24798 0.057376001 0.032910999
0.24919 0.056531001 0.031599
0.20807 0.060534 0.050825998
0.20641001 0.062767997 0.052609
0.205 0.066368997 0.053176999
0.20417 0.067047 0.052680999
0.25378001 0.068245001 0.030932
0.25385001 0.068136998 0.029307
0.20619 0.069499999 0.052425999
0.20689 0.070183001 0.052274
0.20655 0.069949001 0.052048001
0.25113001 0.070730001 0.030593
0.25130999 0.071194999 0.031702001
0.20886999 0.071751997 0.051176
0.20922001 0.072977997 0.049922001
0.24963 0.072795004 0.030743999
0.20981 0.072910003 0.050283998
0.24832 0.072246999 0.0319
0.21103001 0.072979003 0.049633
0.24729 0.072945997 0.034228999
0.24676999 0.073843002 0.034164
0.21261001 0.074773997 0.048301999
0.21254 0.074559003 0.050101001
0.21153 0.075811997 0.050009001
0.2115 0.077105001 0.050747
0.20995 0.078599997 0.050956
0.25038999 0.078878 0.031904999
0.20929 0.078121997 0.050567001
0.24918 0.079512 0.031486999
0.24807 0.079451002 0.033036999
0.22042 0.080075003 0.045814998
0.23297 0.079994 0.040686999
0.2386 0.080234997 0.037273001
0.23921999 0.079516999 0.036014002
0.20986 0.053465001 0.050269999
0.21035001 0.056355 0.050638001
0.22217999 0.056044001 0.044966999
0.22146 0.056529999 0.042792
0.20528001 0.064484999 0.052352
0.20706999 0.071337998 0.052393999
0.21303999 0.075611003 0.049885999
0.24877 0.077760004 0.031564001
0.23228 0.079824001 0.041154001
0.23684999 0.079906002 0.037854999
0.24474999 0.079873003 0.034201998
0.24656001 0.079828002 0.033332001
0.21173 0.052935001 0.049240001
0.21974 0.056667 0.046073999
0.22161999 0.056775 0.046222001
0.20997 0.060313001 0.051135998
0.20653 0.068651997 0.052641001
0.24882001 0.072205 0.031998001
0.21427 0.079475999 0.048886999
0.21620999 0.080379002 0.046973001
0.21791001 0.080136001 0.046923999
0.22384 0.079579003 0.044259999
0.22299001 0.080316 0.045253001
0.22475 0.080329999 0.043342002
0.22741 0.07993 0.041990999
0.23021001 0.080546997 0.040465001
0.23478 0.080872998 0.037586
0.23757 0.079374999 0.036934
0.24506 0.079742 0.034892999
0.2105 0.053631 0.050742
0.24539 0.057064999 0.034472
0.20599 0.064692996 0.052795999
0.20607001 0.066133 0.053636
0.2534 0.067128003 0.03039
0.25218999 0.070197001 0.031691
0.21336 0.073357001 0.049159002
0.24857 0.079566002 0.032694001
0.2482 0.077261999 0.033656999
0.21145999 0.078597002 0.050863001
0.21283001 0.079323001 0.049687002
0.21906 0.079676002 0.046263002
0.22679 0.079957001 0.042941999
0.22846 0.080195002 0.041692998
0.23399 0.079797 0.039627001
0.24139 0.080422997 0.036332
0.24315999 0.079870999 0.035101999
0.21304999 0.054724999 0.049934
0.21493 0.054400001 0.04865
0.21197 0.058481999 0.050167002
0.20627999 0.067272 0.053362999
0.21241 0.072093002 0.051651001
0.21314999 0.072857 0.050756998
0.24587999 0.075979002 0.033666
0.24631999 0.074502997 0.034387
0.21526 0.080716997 0.047460999
0.2087 0.054393999 0.051676001
0.21035001 0.054294001 0.051922001
0.21258 0.054481 0.050294001
0.21007 0.054480001 0.052315
0.21069001 0.055562999 0.051849999
0.21821 0.056359999 0.048457
0.2168 0.056453001 0.048675001
0.21854 0.055633999 0.047394998
0.21204001 0.055969 0.050953999
0.22133 0.057243999 0.047132999
0.2119 0.056906998 0.050053
0.21332 0.056499999 0.050664999
0.21335 0.055817999 0.050172001
0.21165 0.059207998 0.050113998
0.2115 0.059397001 0.050886001
0.21014 0.060171001 0.051518999
0.20806 0.061515 0.052799001
0.20893 0.060796998 0.052506998
0.20886 0.062762 0.052372999
0.20686001 0.063695997 0.052464999
0.20754001 0.062615 0.052643999
0.20755 0.065474004 0.052981999
0.2069 0.066807002 0.053506002
0.25275999 0.066606 0.030967999
0.25251999 0.070638001 0.031869002
0.20851 0.070210002 0.052304
0.20916 0.071232997 0.051789001
0.25062999 0.071289003 0.033934999
0.25110999 0.071262002 0.032692
0.21071 0.071309 0.052096002
0.24699999 0.072564997 0.034899998
0.24831 0.072630003 0.034570999
0.21411 0.074233003 0.049529001
0.21377 0.075010002 0.049261
0.24542999 0.076063 0.035032
0.24552 0.074777 0.035687
0.21472999 0.075912997 0.049507
0.21585 0.075828999 0.049961999
0.21256 0.076229997 0.050438002
0.21251 0.077113003 0.050999999
0.2483 0.078478001 0.034143001
0.24793001 0.077492997 0.032947
0.24654999 0.079686999 0.034536999
0.21234 0.079999 0.049598001
0.21364 0.079585001 0.050595
0.21468 0.055691998 0.050808001
0.21449 0.058527999 0.051368002
0.20875999 0.063180998 0.052786998
0.20833001 0.06436 0.053964999
0.20671 0.068104997 0.053173002
0.20776001 0.067433998 0.053849
0.20784999 0.068213999 0.053119998
0.25275999 0.068239003 0.031994
0.25195 0.070589997 0.033036001
0.21070001 0.071624003 0.051529001
0.24919 0.072536997 0.034113001
0.24612001 0.072072998 0.035631999
0.21489 0.072577 0.049208999
0.21507999 0.074639 0.049343001
0.24445 0.074408002 0.035126001
0.21352001 0.077013999 0.050028998
0.21273001 0.077749997 0.050198998
0.24766999 0.077370003 0.034839001
0.21253 0.078607 0.051084001
0.21472 0.079437003 0.050604001
0.21692 0.081306003 0.048960999
0.23456 0.080502003 0.040821999
0.23849 0.079563998 0.039375
0.24075 0.080596998 0.038476001
0.24367 0.080219001 0.035751998
0.2456 0.079722002 0.035254002
0.2157 0.055691 0.050402001
0.21941 0.057119999 0.047451999
0.22312 0.057048 0.046395998
0.21516 0.057587001 0.049766
0.21510001 0.057535999 0.049942002
0.21219 0.059826002 0.050827999
0.21062 0.060212001 0.051720001
0.21094 0.061278 0.052237
0.20725 0.063837998 0.053116001
0.25312001 0.066009998 0.031870998
0.25356001 0.065800004 0.032768
0.25321001 0.066996001 0.031892002
0.21515 0.073278002 0.050563999
0.21627 0.074738003 0.049281999
0.24510001 0.076095 0.036014002
0.24793001 0.079254001 0.034809001
0.21969999 0.079370998 0.046992999
0.22564 0.080041997 0.04538
0.23105 0.080108002 0.042690001
0.23101 0.079567 0.041650999
0.23436999 0.079729997 0.039829001
0.23709001 0.079985999 0.039836001
0.21386001 0.054776002 0.050815001
0.21116 0.072159 0.052515
0.24524 0.072724998 0.036171999
0.24717 0.075962 0.036431
0.2473 0.075672999 0.034630999
0.21352001 0.079363003 0.050567001
0.21902999 0.079764001 0.047855999
0.22319999 0.079857998 0.046562001
0.22437 0.080068 0.045915
0.23 0.080283001 0.042560998
0.22787 0.079994999 0.043869998
0.24348 0.080716997 0.035517
0.2141 0.055466998 0.051008999
0.2184 0.056685999 0.050262999
0.21819 0.056272998 0.04972
0.22041 0.057016 0.049477
0.21436 0.060272999 0.051968001
0.20922001 0.070208997 0.052772999
0.21348999 0.071515001 0.052324999
0.21701001 0.075200997 0.049398001
0.24381 0.076141998 0.036979999
0.24389 0.074167997 0.036582001
0.21483999 0.076527998 0.050361998
0.21591 0.079908997 0.049387999
0.24257 0.080078997 0.037190001
0.2159 0.058226999 0.049853999
0.21608 0.056834999 0.050625
0.21613 0.059544999 0.050432999
0.2146 0.059475001 0.050136
0.21119 0.061462998 0.052545
0.21014 0.062213 0.053025
0.20866001 0.065823004 0.053160001
0.25285 0.065595999 0.033202998
0.25205001 0.06921 0.033356
0.21144 0.069650002 0.053100001
0.25022 0.069372997 0.034313001
0.24801999 0.071422003 0.034745
0.21495 0.073491 0.051103
0.2465 0.072140999 0.036513001
0.21653999 0.072820999 0.049414001
0.24467 0.073620997 0.037076999
0.21698999 0.074353002 0.049284998
0.24639 0.077537 0.036819
0.21780001 0.079879001 0.049617
0.23367 0.080309004 0.042206999
0.24596 0.080114 0.036320999
0.22071999 0.057285 0.049456
0.21363001 0.058623001 0.051104002
0.21317001 0.060584001 0.051959001
0.21359999 0.060966998 0.052526001
0.20962 0.064342998 0.053755999
0.2518 0.063153997 0.034561001
0.25189999 0.062022001 0.033746999
0.2525 0.063353002 0.033879001
0.25281 0.064227998 0.032940999
0.20861 0.068043001 0.053885002
0.25248 0.066777997 0.033511002
0.25198001 0.068403997 0.033379
0.2093 0.070045002 0.053828999
0.21184 0.070987001 0.052409999
0.24913 0.070759997 0.034878001
0.24796 0.071852997 0.035944
0.2447 0.072369002 0.037374999
0.24376 0.074763998 0.036841001
0.21787 0.073628999 0.049400002
0.24436 0.07621 0.036626
0.21515 0.077546999 0.050666001
0.24646001 0.079603001 0.036017999
0.21505 0.079291999 0.051368002
0.22172999 0.080311 0.048082002
0.23996 0.079680003 0.038839001
0.24361999 0.080086999 0.037337001
0.21477 0.056164 0.050432
0.21604 0.055424001 0.050446998
0.21547 0.056768999 0.050822999
0.21748 0.058975 0.050774001
0.21125001 0.062341001 0.053348001
0.20923001 0.064998999 0.053681001
0.20957001 0.066987999 0.054060999
0.25196001 0.067506 0.034058999
0.20959 0.068519004 0.053408999
0.20972 0.069389999 0.052815001
0.25121 0.069954999 0.034148999
0.24765 0.071811996 0.035939999
0.24713001 0.071865 0.036653001
0.24417999 0.072375 0.037416998
0.24286 0.074170001 0.037849002
0.24281 0.072714999 0.037896998
0.21852 0.073163003 0.051045001
0.24338999 0.075681001 0.038879
0.21929 0.075745001 0.049667001
0.24395999 0.076047003 0.037220001
0.21683 0.077138998 0.050726
0.21817 0.075737 0.049201999
0.21788999 0.076397002 0.050599001
0.21628 0.076350003 0.050547
0.24458 0.077726997 0.036936
0.22569001 0.080206998 0.045611002
0.22675 0.080112003 0.045364998
0.23108 0.080068 0.043795999
0.23257001 0.079714999 0.042778
0.23623 0.080096997 0.041285999
0.22227 0.056596 0.048273999
0.22269 0.057987999 0.048147
0.22386 0.057131998 0.046036001
0.21541999 0.059340999 0.051863
0.21008 0.063486002 0.053642001
0.25227001 0.065917999 0.033578999
0.21003 0.065282002 0.053762
0.25031 0.070669003 0.035569999
0.21437 0.071656004 0.051881999
0.21499 0.071281999 0.051635001
0.21976 0.074170999 0.050120998
0.24552999 0.079636998 0.036649
0.21619 0.079782002 0.050988
0.21636 0.080210999 0.050351001
0.22012 0.080052003 0.049803998
0.21965 0.079850003 0.048657998
0.22150999 0.079368003 0.047908001
0.22428 0.079903997 0.046436999
0.22894999 0.079921 0.044682998
0.23537 0.081069998 0.041591
0.24339999 0.079396002 0.038086999
0.22622 0.057726 0.045917001
0.22475 0.057619002 0.047486998
0.22697 0.05804 0.047047
0.22763 0.058134001 0.045556001
0.25 0.062470999 0.034554001
0.2106 0.067089997 0.053849999
0.24890999 0.070358001 0.036435001
0.21987 0.073045999 0.050262
0.21690001 0.079414003 0.050829001
0.24555001 0.078354001 0.036931001
0.223 0.080043003 0.04769
0.23052 0.080434002 0.04445
0.22904 0.058428001 0.046434
0.21629 0.059255999 0.050918002
0.21341 0.062526003 0.052809998
0.24958 0.06202 0.035496
0.24989 0.061535999 0.035315
0.25036001 0.061650999 0.034650002
0.21127 0.064955004 0.05314
0.25031 0.063869998 0.034598999
0.25248 0.065999001 0.035158999
0.25145 0.066954002 0.034400001
0.25130001 0.068295002 0.03441
0.21134999 0.069606997 0.053257
0.21274 0.070423998 0.053433999
0.21547 0.072203003 0.053017002
0.24102999 0.074068002 0.039393999
0.24186 0.076084003 0.038485002
0.22042 0.074375004 0.049787
0.22093 0.075327002 0.048611999
0.24302 0.076803997 0.039262
0.24484999 0.077808999 0.037464999
0.23925 0.079663001 0.039930001
0.21909 0.059007999 0.049592
0.22641 0.057665002 0.047571
0.21449 0.060883 0.052496001
0.25073999 0.068586998 0.035206001
0.24925999 0.069871999 0.036008999
0.24828 0.071516 0.036118999
0.21702 0.072741002 0.051208999
0.24538 0.072480999 0.038006
0.24231 0.073469996 0.039404999
0.2404 0.075740002 0.039712999
0.24037001 0.074501 0.039903998
0.24412 0.078635 0.038842998
0.22087 0.079838999 0.050338
0.23918 0.079916999 0.040821999
0.23895 0.080080003 0.041599002
0.24094 0.080461003 0.039411999
0.22123 0.058499999 0.049625002
0.21987 0.058090001 0.051020999
0.22459 0.057326 0.049316999
0.22373 0.057549998 0.048539001
0.22442999 0.058471002 0.048250001
0.21806 0.059649002 0.051502001
0.21833 0.059271999 0.051187001
0.24438 0.059264001 0.038887002
0.24377 0.058571 0.036600001
0.24455 0.059390001 0.036832999
0.21622001 0.061202999 0.052304
0.21743999 0.060134999 0.051987998
0.21409 0.060931001 0.052683
0.24829 0.061648 0.037142999
0.24854 0.060888 0.03576
0.21337 0.062533997 0.053328
0.24986 0.062537998 0.035962999
0.25130001 0.064602003 0.035466999
0.25042 0.066163003 0.035305001
0.21142 0.065926999 0.054076001
0.25128999 0.06696 0.036534999
0.21217 0.066962004 0.053969
0.21198 0.068147004 0.053888999
0.24935 0.069224998 0.036378998
0.21269 0.069456004 0.053456999
0.24834 0.070266999 0.037338
0.21442001 0.070747003 0.054226998
0.24758001 0.070789002 0.038433999
0.21675999 0.071520001 0.052847002
0.21757001 0.072195001 0.052007001
0.24638 0.071975 0.038401
0.24178 0.072140999 0.040325999
0.22097 0.073446997 0.050076999
0.22122 0.073748 0.049853999
0.24051 0.074525997 0.040353999
0.2404 0.072931997 0.040715002
0.22149999 0.075549997 0.0495
0.22239 0.074455 0.048877999
0.241 0.075783998 0.040982999
