# .PCD v0.7 - Point Cloud Data file format
VERSION 0.7
FIELDS x y z
SIZE 4 4 4
TYPE F F F
COUNT 1 1 1
WIDTH 1597
HEIGHT 1
VIEWPOINT 0 0 0 1 0 0 0
POINTS 1597
DATA ascii
0.034249999 0.12929 0.27595001
0.035420001 0.068435997 0.23463
0.030959999 0.081738003 0.25527
0.048539001 0.10107 0.24652
0.048493002 0.099958003 0.24666999
0.028270001 0.089968003 0.24330001
0.029568 0.090634003 0.24243
0.038075998 0.083663002 0.29493001
0.035709001 0.084454998 0.29538
0.037455998 0.083223 0.29453999
0.045662999 0.16780999 0.28409001
0.044232 0.16760001 0.28321001
0.045061 0.16709 0.28413001
0.038677 0.14125 0.28805
0.040127002 0.1429 0.28749001
0.037957001 0.12439 0.26348999
0.096624002 0.18344 0.25062999
0.043336 0.16935 0.25999999
0.036717001 0.1168 0.26464999
0.075355001 0.16892 0.23372
0.068944998 0.066168003 0.29475999
0.069038004 0.064920001 0.29655999
0.070528001 0.064531997 0.2965
0.039648999 0.10315 0.24764
0.039963 0.10357 0.24542999
0.061691001 0.17670999 0.25285
0.062169001 0.17631 0.25435999
0.046530999 0.12159 0.25143
0.022939 0.032636002 0.241
0.044627 0.12915 0.24483
0.067140996 0.12534 0.24169999
0.024711 0.036674 0.23100001
0.024989 0.037108999 0.2296
0.025548 0.036867 0.22995
0.033576999 0.1026 0.24831
0.028659999 0.077197999 0.29663
0.019769 0.034433998 0.2406
0.038387999 0.10847 0.25330999
0.039583001 0.15814 0.28478
0.031842001 0.083474003 0.23576
0.02496 0.043721002 0.24748001
0.024458 0.044183001 0.24574
0.023761 0.043216001 0.24699999
0.026581001 0.053931002 0.25646999
0.027398 0.0548 0.25764999
0.043416999 0.17253 0.27068999
0.037193999 0.16766 0.26361999
0.039577 0.10607 0.25189999
0.038137 0.1249 0.27864
0.038233999 0.12255 0.2793
0.03889 0.12389 0.27926999
0.028270001 0.079843 0.24586
0.042100001 0.14764 0.1902
0.027415 0.045393001 0.24291
0.056836002 0.17212 0.19226
0.056155998 0.1733 0.19266
0.13432001 0.16343001 0.26763001
0.13601001 0.16391 0.26818001
0.032513 0.15198 0.22711
0.032311998 0.15366 0.22612
0.032880999 0.13643999 0.22652
0.13461 0.16170999 0.26714
0.1346 0.16147999 0.26578999
0.067832001 0.1048 0.25391001
0.067143001 0.10346 0.25305
0.065629996 0.10406 0.25328001
0.033399999 0.14523 0.24705
0.034802001 0.14524999 0.24777
0.066875003 0.17626999 0.22796001
0.066462003 0.17554 0.22797
0.024721 0.04989 0.25198999
0.039848 0.16599999 0.27858001
0.038665999 0.16614 0.27957001
0.062648997 0.10632 0.25173
0.062691003 0.10563 0.25141999
0.040073 0.10063 0.24487001
0.033222999 0.15223999 0.22927999
0.033992998 0.15291999 0.22744
0.061767999 0.046103999 0.29249001
0.061418001 0.047132999 0.29394001
0.070776001 0.17251 0.24517
0.070188001 0.17321 0.24512
0.069325998 0.17172 0.2447
0.041919 0.10015 0.24427
0.077882998 0.16666 0.23271
0.076283 0.16649 0.23291001
0.025556 0.085752003 0.24337
0.052085001 0.14571001 0.18316001
0.094575003 0.18257999 0.25255999
0.050122 0.16061001 0.24282999
0.043575 0.16103999 0.20552
0.085106 0.085345998 0.27107
0.05333 0.16981 0.25347999
0.053303 0.1691 0.2527
0.051592998 0.15624 0.23765001
0.04995 0.15527999 0.23779
0.070818998 0.17264 0.24545
0.025567999 0.087231003 0.24950001
0.029363001 0.15161 0.26539999
0.030561 0.15056001 0.26399001
0.042470001 0.15662 0.24302
0.041138999 0.15582 0.24440999
0.037640002 0.11266 0.25819001
0.039195001 0.11124 0.25683999
0.038399 0.11136 0.25775999
0.031946 0.15752 0.27243999
0.031721 0.14238 0.21529
0.030557999 0.14329 0.21517
0.030727001 0.10238 0.25852999
0.047924999 0.12301 0.24947999
0.043517001 0.095937997 0.2412
0.033838 0.087839 0.23621
0.027717 0.035232 0.2281
0.027869999 0.033748001 0.22973
0.032283999 0.088811003 0.23767
0.030345 0.089399002 0.23906
0.03393 0.087053001 0.23619001
0.056869 0.037932001 0.2911
0.13733 0.16372 0.26504999
0.13786 0.16419999 0.26745999
0.033238001 0.15616 0.21656001
0.032251999 0.085267 0.26231
0.032995999 0.085322 0.26244
0.031225 0.085763998 0.26036
0.045389999 0.15637 0.24090999
0.030873001 0.14643 0.20446999
0.032333001 0.14606 0.20424999
0.03373 0.15967 0.27114999
0.034047 0.15679 0.27173999
0.033888999 0.16034 0.27322
0.037214998 0.12692 0.27823001
0.036130998 0.12878001 0.27921
0.076504998 0.16854 0.23202001
0.074078001 0.1673 0.23232
0.036897 0.10867 0.25962001
0.035602 0.10794 0.25681999
0.036478002 0.10872 0.2595
0.040628999 0.12145 0.28327999
0.042548001 0.12173 0.28241
0.033576 0.12842999 0.27394
0.033992 0.1285 0.27178001
0.067740999 0.18237001 0.22637001
0.06786 0.18399 0.22742
0.037926 0.13593 0.22130001
0.038490001 0.13676 0.22222
0.048413999 0.16112 0.24247999
0.046634 0.16004001 0.24181999
0.036348999 0.14515001 0.20021001
0.036086001 0.1436 0.19901
0.035312999 0.14444999 0.20042001
0.063118003 0.062173001 0.28762001
0.062789999 0.061471 0.28782001
0.063354 0.061411999 0.28913
0.039039999 0.10564 0.25170001
0.029772 0.13704 0.26986
0.029439 0.13784 0.27107
0.030857 0.13828 0.27237001
0.086112998 0.082645997 0.27247
0.083687998 0.082976997 0.27011999
0.048154999 0.10884 0.24911
0.039935999 0.16553999 0.28220999
0.039484002 0.16563 0.28268
0.037067 0.085706003 0.23503
0.055966999 0.17488 0.25632
0.049958002 0.11996 0.25077999
0.048588999 0.12014 0.25084999
0.034623001 0.14760999 0.24747001
0.037131999 0.16188 0.28099999
0.044686999 0.17122 0.27827999
0.047536999 0.17166001 0.27862
0.041000001 0.16132 0.28321999
0.039848998 0.16004001 0.28483999
0.069252998 0.1723 0.24277
0.069554001 0.17265999 0.24223
0.043958999 0.16379 0.19817001
0.032412 0.13734999 0.25551
0.033875 0.1285 0.27401999
0.041701999 0.15238 0.23738
0.040876999 0.15344 0.23638999
0.033732999 0.14041001 0.21757001
0.041469 0.091741003 0.28687
0.041749001 0.091392003 0.28586999
0.041035999 0.092978001 0.28477001
0.066600002 0.11878 0.24816
0.067253999 0.11833 0.24831
0.057792999 0.16094001 0.18393999
0.075379997 0.16226 0.23108999
0.074464001 0.16356 0.23149
0.028566999 0.03444 0.22837999
0.036956999 0.11742 0.26675999
0.037218001 0.11711 0.26592001
0.044130001 0.15577 0.18816
0.043728001 0.15724 0.18835001
0.046379 0.132 0.24503
0.057670001 0.038984999 0.29143
0.058242001 0.038998 0.29273
0.030453 0.14383 0.27537999
0.029028 0.15311 0.26548001
0.030958001 0.15488 0.26376
0.031367 0.15519001 0.26504999
0.053479999 0.12214 0.24358
0.025361 0.035656001 0.25984001
0.025578 0.036690999 0.25854
0.025827 0.035634 0.25971001
0.054641999 0.16013999 0.242
0.055360999 0.15934999 0.24212
0.13595 0.16385999 0.26815
0.0405 0.10664 0.27711999
0.032310002 0.14782999 0.28055999
0.036407001 0.15311 0.19886
0.029227 0.077365004 0.24721999
0.029526999 0.076273002 0.24529999
0.034864999 0.16037001 0.26061001
0.033927999 0.15889999 0.26012999
0.030717 0.14234 0.23287
0.027202001 0.041629001 0.23724
0.025502 0.042163 0.23837
0.066913001 0.17454 0.2287
0.066466004 0.17477 0.22938
0.085463002 0.036037002 0.27276999
0.085914999 0.036109999 0.27294001
0.026712 0.064433999 0.24098
0.025625 0.062346999 0.24088
0.025823999 0.063360997 0.24105
0.025449 0.070436001 0.24323
0.038476001 0.041942999 0.23635
0.031459 0.13325 0.26708999
0.031557001 0.13237 0.26706001
0.031257998 0.14711 0.23830999
0.031268001 0.13796 0.24023999
0.032545 0.13725001 0.23977999
0.028178999 0.036901001 0.22746
0.028952001 0.039131001 0.22657999
0.049256999 0.16199 0.24487001
0.056885 0.17482001 0.25876999
0.056093998 0.17577 0.25808999
0.034839001 0.10716 0.26157001
0.035358999 0.10665 0.26100999
0.079763003 0.041374002 0.27572
0.037239999 0.11009 0.25927001
0.038284 0.11243 0.25781
0.038794 0.096564002 0.23868001
0.035927001 0.096318997 0.23891
0.037980001 0.15424 0.19773
0.038518 0.084057003 0.28604001
0.038658001 0.083518997 0.28681999
0.030613 0.14866 0.25650001
0.067556001 0.16936 0.23734
0.031330999 0.10153 0.24843
0.032655999 0.10274 0.24857999
0.043694999 0.099431001 0.27956
0.051511001 0.10939 0.25005001
0.054334 0.10884 0.25027001
0.061678998 0.10879 0.25071999
0.059776999 0.10971 0.25189999
0.060382001 0.11129 0.25064999
0.045441002 0.11126 0.25154001
0.044151001 0.10934 0.25119999
0.044702001 0.11156 0.25268
0.045729 0.15897 0.24177
0.046285 0.15873 0.24253
0.12963 0.17459001 0.25834
0.12893 0.17560001 0.25931999
0.12879001 0.17433999 0.25957999
0.04958 0.16391 0.18818
0.05139 0.16388001 0.18858001
0.089844003 0.037379999 0.27519
0.032170001 0.1277 0.26535001
0.034107 0.12789001 0.26350999
0.05528 0.15628 0.18272001
0.036812 0.11141 0.26407
0.029627999 0.087516002 0.26016
0.050976001 0.15848 0.23989999
0.048772 0.15749 0.18659
0.048142999 0.15807 0.18574999
0.019522 0.038662001 0.23825
0.021532999 0.039719999 0.23741999
0.021038 0.037319001 0.23711
0.13898 0.16147999 0.26646999
0.13807 0.16237999 0.26802
0.139 0.162 0.26638001
0.030288 0.080015004 0.3001
0.060128 0.16729 0.24403
0.061687 0.16632999 0.24575999
0.030329 0.14517 0.23755001
0.02949 0.1459 0.23927
0.076425001 0.16004001 0.23167001
0.062406 0.051146001 0.29282001
0.085207 0.082138002 0.27140999
0.082829997 0.084425002 0.26987001
0.06566 0.059900999 0.29477999
0.066154003 0.061099999 0.29493001
0.068672001 0.10308 0.25452
0.064753003 0.17715999 0.26142001
0.064257003 0.17636 0.26267001
0.064377002 0.17656 0.26236001
0.052834 0.15431 0.18246999
0.052421998 0.15467 0.18133999
0.052944999 0.15554 0.18336999
0.030777 0.035195999 0.22335
0.030861 0.036176 0.22318
0.032510001 0.14651 0.2432
0.030733 0.15407 0.25780001
0.031913999 0.15598001 0.25872999
0.044333 0.17306 0.26506001
0.044156 0.17242 0.2649
0.029487001 0.14884999 0.20424999
0.032299001 0.14271 0.25384
0.031838 0.14481001 0.25429001
0.033337999 0.14371 0.25336999
0.042105 0.10256 0.27724999
0.044418 0.11029 0.25268999
0.044397 0.11004 0.25084999
0.046742 0.16558 0.19215
0.047614001 0.16561 0.19172999
0.046539001 0.16526 0.19262999
0.030252 0.15566 0.26776001
0.031346001 0.15550999 0.26894
0.031842001 0.15637 0.26697001
0.030726001 0.065177001 0.23628999
0.070525996 0.067837 0.29519999
0.070179999 0.067487001 0.29280001
0.029936001 0.082970999 0.29437
0.067676999 0.18257 0.22863001
0.068356998 0.18314999 0.22698
0.040027998 0.15864 0.19925
0.049123 0.1145 0.25305
0.041537002 0.10894 0.27965
0.030754 0.1415 0.21356
0.04335 0.15419 0.24424
0.034616001 0.10653 0.25128999
0.037996002 0.10844 0.27421001
0.032935001 0.14018001 0.25569999
0.032714002 0.14 0.25440001
0.033659998 0.13736001 0.25342
0.041390002 0.16271999 0.25082999
0.03224 0.13761 0.23732001
0.032717999 0.13643999 0.23859
0.035749 0.15312999 0.28112999
0.033994999 0.15316001 0.27943
0.034262002 0.050268002 0.24260999
0.038015001 0.16109 0.25378999
0.039778002 0.067893997 0.23723
0.039861001 0.068944998 0.2368
0.033326998 0.14544 0.24638
0.041776001 0.12615 0.25169
0.058324002 0.10392 0.25101
0.056683999 0.10469 0.2507
0.032701999 0.13359 0.26008999
0.036093 0.15933999 0.21046001
0.055192001 0.15533 0.23733
0.054198001 0.15455 0.23717999
0.042922001 0.16394 0.25279999
0.028488001 0.10108 0.25582999
0.028131001 0.092285 0.25788
0.026515 0.089984998 0.2561
0.040143002 0.16994999 0.27134001
0.041802 0.092767999 0.28235
0.052857 0.16008 0.18503
0.042139001 0.1258 0.25286001
0.071162 0.17295 0.24608
0.071193002 0.17343 0.24696
0.071748003 0.17354 0.24803001
0.033176001 0.13745999 0.22398999
0.030428 0.071882002 0.25400001
0.028666001 0.071748003 0.25330999
0.045354001 0.12522 0.25003001
0.021247 0.034247 0.24049
0.021842999 0.034003001 0.24036001
0.038975 0.12522 0.25841001
0.039673999 0.12282 0.2572
0.040252 0.12519 0.25786
0.074589998 0.15944999 0.23193
0.042056002 0.11937 0.28213
0.042102002 0.11741 0.28227001
0.044059999 0.11762 0.28371999
0.032901 0.10356 0.26155001
0.035611998 0.12162 0.27052999
0.031528 0.13199 0.27021
0.034371 0.13748001 0.25244001
0.042277001 0.11139 0.25454
0.030853 0.14278001 0.23327
0.030808 0.14233001 0.23492
0.030729 0.037390999 0.22345001
0.031576999 0.090052001 0.26222
0.032032002 0.087714002 0.26222
0.033087999 0.088362001 0.26385
0.030539 0.089327 0.26201001
0.031033 0.088665001 0.26137999
0.035117999 0.14004999 0.20821001
0.035248 0.14144 0.20656
0.063989997 0.066156 0.28724
0.043967001 0.16313 0.1957
0.041712999 0.16299 0.19711
0.13042 0.15761 0.26754001
0.024800999 0.049492002 0.25196999
0.023972999 0.047572002 0.25178
0.039914999 0.11557 0.27989
0.029221 0.056619 0.23862
0.033165 0.14515001 0.21974
0.034506999 0.13654 0.2306
0.061395999 0.049199 0.29484999
0.063546002 0.050756 0.29618001
0.034373999 0.13662 0.28022999
0.035188001 0.13756999 0.28014001
0.034665 0.13708 0.28132001
0.054481 0.15716 0.23965999
0.053167 0.15775 0.24044999
0.053252 0.15847 0.24102999
0.034219999 0.14534999 0.28241
0.040511001 0.056818999 0.24304
0.040925998 0.054969002 0.24286
0.064810999 0.1152 0.24984001
0.064598002 0.11476 0.24897
0.064909004 0.11494 0.24929
0.035778999 0.13435 0.24044999
0.035817999 0.15260001 0.28455999
0.036276001 0.15423 0.28382
0.034233999 0.07164 0.23453
0.035369001 0.070675999 0.23566
0.038075998 0.077816002 0.23356999
0.035953999 0.10178 0.24439
0.055181999 0.15734001 0.18244
0.056620002 0.15615 0.1812
0.045921002 0.16414 0.19076
0.046762001 0.16314 0.19146
0.0297 0.14859 0.27178001
0.038848002 0.15704 0.24804001
0.029454 0.14455999 0.26225001
0.029998999 0.14381 0.26339999
0.055334002 0.15297 0.18418001
0.064985998 0.056763999 0.29486001
0.029952001 0.15159 0.21520001
0.03108 0.15113001 0.21512
0.045044001 0.084913999 0.28939
0.043010999 0.085156001 0.28966999
0.044667002 0.083098002 0.28928
0.035225 0.15180001 0.23581
0.035172999 0.10424 0.24953
0.036076002 0.10408 0.24856
0.046285 0.15829 0.18704
0.076948002 0.17376 0.23033001
0.035121001 0.15254 0.27993
0.038934998 0.14736 0.19775
0.034848999 0.13824999 0.25082001
0.081448004 0.16029 0.23119
0.080930002 0.15993001 0.23016
0.081104003 0.15944999 0.23153
0.032283001 0.13776 0.27799001
0.049155999 0.15477 0.18263
0.049756002 0.15318 0.18327001
0.031380001 0.15746 0.26075
0.023603 0.068986997 0.25018001
0.067419998 0.1652 0.23786999
0.13718 0.16303 0.26302999
0.13854 0.16452 0.26216999
0.062786996 0.052200001 0.2942
0.063139997 0.052214 0.29312
0.036231 0.085790999 0.29530001
0.034734 0.086617 0.29581001
0.068767004 0.17253 0.24596
0.068961002 0.1714 0.2446
0.034487002 0.15881 0.252
0.076899998 0.17057 0.23169
0.031737 0.13832 0.23823
0.037817001 0.11776 0.26016
0.038562 0.11667 0.26006001
0.062437002 0.1177 0.24921
0.061983 0.11654 0.24669001
0.054122001 0.16700999 0.24557
0.051251002 0.1671 0.24537
0.053362999 0.16690999 0.24658
0.028736999 0.057239 0.24017
0.035006002 0.13651 0.23246001
0.030219 0.082147002 0.25329
0.024466 0.058254 0.25508001
0.034604002 0.15151 0.25031999
0.035379998 0.093703002 0.23807
0.035847999 0.094120003 0.23938
0.020318 0.035778999 0.22676
0.030433999 0.10044 0.25292
0.12847 0.17225 0.26552001
0.034171999 0.14992 0.22237
0.033070002 0.15073 0.22308999
0.12594 0.16265 0.26967001
0.036734 0.12395 0.27169001
0.033929002 0.13971999 0.24803001
0.033950001 0.14069 0.24702001
0.066220999 0.064818002 0.29229
0.037825 0.12103 0.26273999
0.030103 0.13564 0.27160999
0.030146999 0.13651 0.26989999
0.031045999 0.13939001 0.25565001
0.039811 0.091433004 0.28404
0.065991998 0.15752 0.23557
0.065311 0.15771 0.23534
0.056350999 0.17235 0.24998
0.034487002 0.060463998 0.23701
0.035059001 0.059213001 0.23919
0.064567998 0.17671999 0.24943
0.066578001 0.17551 0.24767999
0.038975 0.057273 0.24048001
0.048854999 0.16738001 0.19606
0.052386001 0.10911 0.25075001
0.052039001 0.10934 0.25173
0.042610999 0.14177001 0.19922
0.041979998 0.13996001 0.19926
0.038734 0.099628001 0.24369
0.038045999 0.098911002 0.24258
0.059983999 0.1171 0.24979
0.060713001 0.11758 0.24871001
0.032056 0.13237999 0.25907001
0.033 0.13174 0.26051
0.032104999 0.13225 0.26124001
0.035958 0.13053 0.25288999
0.031463999 0.079953998 0.29644001
0.030933 0.079729997 0.29719999
0.036052998 0.13549 0.25209001
0.036435999 0.13536 0.25268999
0.065743998 0.16559 0.23943
0.067323998 0.16497999 0.23905
0.034823 0.076228999 0.2324
0.033002999 0.076038003 0.23175
0.033124 0.076254003 0.23184
0.033342998 0.14650001 0.24687
0.034311 0.10503 0.25497001
0.039280999 0.10415 0.25075999
0.036908001 0.16037001 0.20942
0.036442 0.15733001 0.20948
0.030288 0.1437 0.27783
0.13545001 0.15945999 0.26482999
0.13519999 0.16092999 0.26635
0.031746998 0.13901 0.2288
0.032536998 0.14139999 0.22939
0.044716001 0.1075 0.25073999
0.036791999 0.10792 0.26857001
0.036761999 0.10719 0.26824999
0.081788003 0.088832997 0.27008
0.090836003 0.17888001 0.25358999
0.091728002 0.17951 0.25299001
0.038217999 0.071125999 0.23615
0.038139001 0.070684001 0.23744
0.039668001 0.069897003 0.23746
0.036258999 0.078915998 0.23119
0.027327999 0.089805998 0.25749001
0.026853999 0.064906999 0.24142
0.033043001 0.15626 0.27581
0.032171 0.15688001 0.27636999
0.056816999 0.16198 0.24262001
0.056421999 0.16345 0.24405999
0.072967 0.17256001 0.23263
0.072058998 0.17397 0.23145001
0.032731 0.14352 0.22208001
0.032042 0.14492001 0.22147
0.031129001 0.14454 0.22287001
0.033790998 0.14088 0.21681
0.033098999 0.14185999 0.21659
0.042002998 0.14692999 0.1953
0.027907001 0.087297998 0.25611001
0.064905003 0.06064 0.29029
0.063253999 0.061664999 0.28968
0.029829999 0.097038001 0.26308
0.029746 0.097919002 0.26258999
0.030459 0.097717002 0.2617
0.056848001 0.1585 0.1873
0.056393001 0.15865 0.18772
0.031307001 0.088068001 0.2378
0.031546 0.086861998 0.23638
0.030432999 0.086211003 0.23765001
0.066004999 0.062996 0.29304001
0.025245 0.034809001 0.25323999
0.081326 0.16076 0.23057
0.081191003 0.16066 0.23043001
0.046078 0.097713999 0.28385001
0.033643998 0.051631998 0.24202
0.066587999 0.10493 0.2536
0.065803997 0.10356 0.2525
0.031521 0.14304 0.23479
0.069807999 0.16692001 0.23507001
0.070363 0.16718 0.23297
0.070920996 0.16583 0.23464
0.047442999 0.1015 0.24563999
0.04194 0.11678 0.25501999
0.041494999 0.11747 0.25615001
0.13127001 0.15817 0.26712
0.065297 0.12967999 0.23947001
0.066495001 0.13063 0.24056
0.066500001 0.1303 0.23978999
0.027357999 0.095422998 0.25110999
0.025899 0.060012002 0.24262001
0.023446999 0.053406 0.25026
0.023255 0.056293 0.25016999
0.036798999 0.13752 0.21675999
0.037420999 0.13892999 0.21710999
0.034805 0.13818 0.21506
0.037330002 0.15718 0.20002
0.032472 0.14222001 0.21232
0.032613002 0.14049999 0.21258999
0.036796998 0.12057 0.27175999
0.035663001 0.1207 0.27041
0.024727 0.034834001 0.25624999
0.02764 0.075684004 0.2422
0.029200001 0.077096 0.24011
0.052607998 0.11542 0.25152001
0.054223999 0.11507 0.25132
0.026346 0.069390997 0.24347
0.066303998 0.18322 0.23027
0.028651999 0.034522001 0.22348
0.058079999 0.17708001 0.25698999
0.060107 0.17731 0.25701001
0.057633001 0.17689 0.2577
0.02816 0.073345996 0.24109
0.027534001 0.073639996 0.24285001
0.028750001 0.14432 0.20912001
0.045244001 0.17169 0.26166001
0.022783 0.040031001 0.23187999
0.021156 0.038998 0.23141
0.059794001 0.11206 0.25062999
0.045315001 0.089167997 0.23912001
0.046533 0.090843 0.2397
0.045903001 0.089732997 0.23916
0.042440001 0.16250999 0.25071001
0.042238999 0.1626 0.24952
0.035156 0.15996 0.27085
0.035487998 0.16042 0.27160001
0.045635 0.16558 0.19434001
0.068517998 0.16759001 0.24160001
0.067736 0.16848999 0.23955999
0.032235 0.15765999 0.26853001
0.032005001 0.15775999 0.26567999
0.032552999 0.15061 0.25150001
0.027210999 0.085738003 0.24704
0.026397999 0.084187001 0.24472
0.042011999 0.17082 0.27397001
0.043122999 0.16997001 0.27441001
0.038761001 0.13016 0.24853
0.035379 0.14049999 0.21016
0.035270002 0.1397 0.20963
0.072748996 0.182 0.22384
0.040587001 0.066014998 0.23762999
0.040872 0.067675002 0.23824
0.040583 0.066757001 0.23767
0.037859999 0.082764 0.2332
0.037505999 0.13384999 0.23118
0.037503 0.13517 0.22841001
0.039301999 0.13606 0.22864
0.038084999 0.15906 0.21263
0.050663002 0.14930999 0.18224999
0.036212999 0.16403 0.26679
0.062194999 0.16274001 0.24017
0.062128998 0.16147 0.23980001
0.024412001 0.046138 0.249
0.025861001 0.046452999 0.25022
0.13749 0.15827 0.26973
0.1376 0.1591 0.26756001
0.037142001 0.12723 0.27922001
0.038681999 0.12853999 0.27868
0.028399 0.093261003 0.24439
0.034155 0.1568 0.20254999
0.029271999 0.081453003 0.25479999
0.03026 0.080534004 0.25369
0.035866 0.049293999 0.24403
0.031235 0.15085 0.21787
0.044477001 0.15197 0.18639
0.039618 0.088668004 0.28955001
0.03633 0.081780002 0.29074001
0.040651999 0.15346 0.23474
0.041099999 0.1532 0.23438001
0.032710001 0.1494 0.22595
0.032453001 0.14955001 0.22304
0.054474 0.15926 0.18429001
0.055300999 0.16001 0.18423
0.045097999 0.17290001 0.26772001
0.029960999 0.078224003 0.23813
0.027841 0.044628002 0.25571001
0.027412999 0.043882001 0.25575
0.060086999 0.16688 0.24502
0.028732 0.051135 0.24199
0.030195 0.050939001 0.24127001
0.033999 0.16219001 0.26986
0.035792999 0.1635 0.26833001
0.057898 0.10871 0.25108999
0.032032002 0.14602999 0.21951
0.026174 0.085942999 0.24978
0.069358997 0.11746 0.24986
0.059271 0.15662999 0.18054
0.055898 0.12794 0.23931
0.024088001 0.050646 0.25424999
0.075387999 0.17351 0.22933
0.030838 0.15527 0.21058001
0.040971 0.12196 0.28134
0.13011999 0.17385 0.26003
0.1303 0.17382 0.25867
0.12963 0.17449 0.26073
0.073376998 0.16604 0.23238
0.055913001 0.15881 0.24141
0.035424002 0.14249 0.2499
0.064617001 0.16541 0.24083
0.064199001 0.16473 0.24009
0.031109 0.14356001 0.2194
0.049679998 0.15621001 0.18454
0.031720001 0.059096999 0.23653001
0.030366 0.060439002 0.23718999
0.074795 0.16667999 0.23306
0.12887 0.17681 0.26074001
0.12942 0.176 0.26219001
0.12977999 0.17414001 0.26128
0.027047001 0.035404 0.23029
0.026757 0.036522001 0.23003
0.025296999 0.047292002 0.25150001
0.055034999 0.1462 0.18023001
0.056242999 0.14646 0.18006
0.063745998 0.16523001 0.24270999
0.057895001 0.17678 0.26140001
0.057530999 0.17615999 0.26117
0.042101 0.14771999 0.18743999
0.043196 0.090447001 0.27726001
0.070093997 0.1734 0.24436
0.069378003 0.17214 0.24429999
0.035670001 0.15212999 0.23185
0.055677999 0.15555 0.18182001
0.049343999 0.15411 0.18409
0.047982998 0.15367 0.18516999
0.079373002 0.15976 0.22947
0.038945999 0.16689999 0.26431999
0.039145 0.16786 0.26420999
0.031001 0.14470001 0.21663
0.13395999 0.16531999 0.26644
0.13474 0.16463 0.26712999
0.085020997 0.038872998 0.27443001
0.037074 0.13862 0.21811999
0.032047 0.14173999 0.25477001
0.033507001 0.14001 0.25490001
0.031378999 0.1494 0.21509001
0.037296001 0.15341 0.28494999
0.044055 0.10457 0.24822
0.045577001 0.10547 0.24792001
0.032442 0.14274999 0.21039
0.030526999 0.15476 0.21464001
0.028116999 0.078884996 0.24341001
0.029563 0.078149997 0.24240001
0.026275 0.037822999 0.22814
0.13942 0.16234 0.26598001
0.13124 0.17541 0.26266
0.034272999 0.15432 0.21960001
0.036052998 0.15459999 0.21885
0.056910999 0.12021 0.24767999
0.057705 0.12003 0.24717
0.047155 0.164 0.19045
0.047313001 0.16441 0.19121
0.028028 0.085703 0.25295001
0.036598001 0.11357 0.27362001
0.037 0.12107 0.26655999
0.036389999 0.12052 0.26758
0.037296001 0.12116 0.2669
0.031194 0.039535001 0.22843
0.038123999 0.037025001 0.22642
0.036632001 0.036222 0.2281
0.036711 0.037333 0.22702999
0.043979 0.099127002 0.24408001
0.042002 0.10026 0.24498001
0.062013 0.042353 0.29255
0.037794001 0.13641 0.22869
0.053041998 0.16887 0.25097001
0.054366 0.17023 0.25044999
0.029115001 0.14845 0.27077001
0.023837 0.062284999 0.24675
0.047224998 0.17078 0.25555
0.049366001 0.1714 0.25598001
0.038019001 0.11668 0.27217001
0.023856999 0.060834002 0.2489
0.036428999 0.081772 0.28659001
0.037321001 0.081478 0.28746
0.027744001 0.076743998 0.29934001
0.027037 0.038518999 0.23316
0.049431998 0.12752999 0.24349999
0.047479 0.12557 0.24506
0.047699001 0.127 0.24411
0.036042001 0.12703 0.26644999
0.036109999 0.12740999 0.2658
0.035301998 0.13822 0.25229999
0.054205999 0.16617 0.19152001
0.052540001 0.16717 0.19122
0.053899001 0.16542 0.19278
0.034625001 0.13858999 0.25317001
0.036081001 0.12316 0.26629001
0.024126999 0.034673002 0.25365999
0.044108 0.09601 0.28415
0.041175999 0.15561999 0.28841999
0.041857 0.15707999 0.28742
0.085972004 0.036338001 0.27906999
0.086653002 0.036787 0.27759001
0.085726999 0.036539 0.27840999
0.033503 0.14898001 0.23451
0.030934 0.14911 0.23498
0.032549001 0.15076999 0.25424999
0.028733 0.15009999 0.20977999
0.031456001 0.1356 0.26431
0.059085 0.039138 0.2888
0.026681 0.076587997 0.29712999
0.031934999 0.14906999 0.23874
0.032696001 0.15024 0.23683999
0.062572002 0.11424 0.25073001
0.030578 0.14108001 0.27272001
0.029541001 0.14093 0.27061
0.031481002 0.15601 0.25878999
0.032811999 0.045031 0.24167
0.030309999 0.15482 0.21225999
0.058219999 0.039790999 0.29216999
0.069996998 0.16662 0.23508
0.068554997 0.16685 0.23526999
0.072747 0.16308001 0.23273
0.073889002 0.1629 0.23142999
0.073181003 0.16153 0.23252
0.080746002 0.037912 0.27520001
0.030075001 0.084944002 0.25757
0.062452 0.17633 0.25132999
0.12827 0.15994 0.26863
0.062933996 0.15728 0.2361
0.064166002 0.15977 0.23646
0.026681 0.066923998 0.23898999
0.026617 0.066915996 0.24078
0.02447 0.046360999 0.24485999
0.025405001 0.045570001 0.2445
0.023306999 0.064218998 0.25005999
0.046463002 0.16507 0.19684
0.079025999 0.16147999 0.23047
0.078227997 0.16316999 0.23172
0.038922001 0.15706 0.19864
0.037505001 0.15558 0.1978
0.089968003 0.17623 0.25350001
0.037291002 0.10844 0.26611
0.036525998 0.10931 0.26570001
0.030990001 0.076185003 0.25266999
0.036339 0.14331999 0.20088001
0.036949001 0.14230999 0.20247
0.040739 0.11891 0.28119999
0.039391998 0.12018 0.2814
0.038667999 0.15684 0.2832
0.038697001 0.15919 0.28512999
0.038862001 0.15805 0.28411999
0.058494002 0.036958002 0.29434001
0.046392001 0.16125999 0.24596
0.039618999 0.16812 0.27072001
0.037976999 0.16755 0.27041
0.079754002 0.035273999 0.27462
0.043425001 0.084967002 0.28319001
0.043825001 0.084601998 0.28251001
0.044695999 0.083911002 0.28231001
0.033054002 0.078902997 0.23274
0.035939999 0.11182 0.26100001
0.035402998 0.11113 0.26148
0.027363 0.037468001 0.23433
0.026972 0.038013 0.23374
0.12908 0.16287 0.26705
0.13034 0.16285001 0.26638001
0.033498999 0.15131 0.28101
0.033477999 0.15013 0.28083
0.034134001 0.14912 0.28062001
0.062378999 0.10541 0.2529
0.049642 0.15826 0.24185
0.040989 0.15172 0.19236
0.029198 0.088806003 0.2401
0.028057 0.081693999 0.25117999
0.027488999 0.082257003 0.25288999
0.041710999 0.097695 0.24152
0.040256001 0.099476002 0.24199
0.034736998 0.16075 0.27520001
0.030034 0.10023 0.25077999
0.028549001 0.099898003 0.25102001
0.067626998 0.16844 0.2394
0.031757001 0.081800997 0.23601
0.040150002 0.083277002 0.28613001
0.036013 0.12687001 0.26532
0.031661 0.14920001 0.27785
0.035156 0.15798999 0.27737999
0.052382998 0.16940001 0.19475999
0.04964 0.16957 0.19459
0.067052998 0.18152 0.22631
0.028196 0.039964002 0.2317
0.055163 0.17605001 0.27237999
0.054579001 0.17711 0.27114001
0.027177 0.096720003 0.25283
0.028665001 0.098986998 0.25137001
0.027532 0.096492998 0.25281
0.037075002 0.15906 0.21094
0.032923002 0.15257999 0.25589001
0.031470001 0.15109 0.25628
0.031748999 0.1523 0.25782001
0.078904003 0.036663 0.27417001
0.072685003 0.17407 0.24604
0.039657 0.15316001 0.24054
0.033813 0.10468 0.26278001
0.040708002 0.14944001 0.19678
0.051242001 0.099018 0.24695
0.13527 0.16613001 0.26699001
0.066832997 0.10658 0.25387001
0.066717997 0.11439 0.25097001
0.066458002 0.11447 0.25064999
0.065536 0.11428 0.25121
0.075420998 0.17 0.23215
0.032313 0.062559001 0.23627999
0.049074002 0.17388999 0.27072999
0.048659001 0.17495 0.27309999
0.031135 0.13372 0.26124999
0.031344 0.13707 0.26357001
0.030711001 0.13392 0.27441001
0.025108 0.067089997 0.24354
0.025273001 0.068112001 0.24447
0.035797 0.16301 0.25821
0.036031 0.12594 0.26598001
0.029463001 0.14116 0.26003
0.030126 0.14083999 0.25903001
0.028524 0.034120001 0.22220001
0.028873 0.033619002 0.22409999
0.076957002 0.17257001 0.23232
0.044133998 0.097562999 0.28154999
0.038690999 0.093341999 0.23712
0.060913 0.1258 0.24122
0.061597999 0.1242 0.24116001
0.032288 0.15228 0.22675
0.060490999 0.12499 0.24036001
0.026009999 0.043067999 0.25446001
0.024088001 0.043350998 0.25292
0.029975999 0.15161 0.20743001
0.030427 0.1489 0.22590999
0.03039 0.14918 0.22804999
0.031845 0.14984 0.22724
0.037055999 0.081689 0.28747001
0.029299 0.089656003 0.24106
0.03452 0.13887 0.21552999
0.037678 0.11653 0.26508
0.035427 0.085882001 0.28579
0.036352001 0.086046003 0.28566
0.032717001 0.15618999 0.25773001
0.032515999 0.15741999 0.25966999
0.043818999 0.1139 0.25217
0.070289001 0.17444 0.23803
0.069669999 0.17649999 0.23668
0.069026999 0.17488 0.23747
0.022125 0.034437999 0.24561
0.023538001 0.034554001 0.24493
0.041115999 0.11528 0.27998
0.040662002 0.11413 0.27871001
0.040637001 0.11399 0.27983001
0.059383001 0.041375998 0.28878999
0.049862001 0.16862001 0.2534
0.049447998 0.16782001 0.2511
0.033767 0.097344004 0.24176
0.050062999 0.16407999 0.24569
0.099082001 0.18311 0.24924
0.030044001 0.079258002 0.23942
0.035227001 0.085597001 0.28643
0.041142002 0.16433001 0.25336
0.084514998 0.086098 0.27147001
0.085528001 0.085360996 0.27124
0.037299 0.11071 0.25876999
0.033247001 0.15688001 0.25648999
0.036102001 0.15736 0.21616
0.034051001 0.15129 0.23533
0.033978999 0.15143999 0.23571999
0.077550001 0.15992001 0.23079
0.031117 0.14978001 0.22648001
0.023497 0.059181999 0.25249001
0.041126002 0.11564 0.27794999
0.03026 0.081964999 0.24181999
0.038819999 0.11024 0.27691001
0.040846001 0.10936 0.27875
0.037372999 0.14760999 0.28483999
0.026315 0.044043001 0.25127
0.037253 0.16525 0.27697
0.037388001 0.16441999 0.27768999
0.029617 0.14955001 0.25867999
0.034209002 0.15166999 0.19956
0.029565999 0.077018 0.24192999
0.022483001 0.036649 0.24897
0.024766 0.035123002 0.25092
0.045827001 0.10977 0.24981
0.036122002 0.10498 0.26751
0.056504998 0.17387 0.25371999
0.037176002 0.12408 0.27737001
0.028391 0.082151003 0.24852
0.027518 0.080449998 0.25015
0.047860999 0.11196 0.25263
0.046023998 0.11057 0.25233999
0.04803 0.11252 0.25264001
0.039804999 0.11151 0.27846
0.048179999 0.11944 0.25148001
0.038155001 0.096681997 0.27013999
0.039016999 0.097949997 0.27070001
0.042715002 0.094834998 0.27908
0.034065001 0.15772 0.21116
0.034361001 0.1578 0.21134
0.022360001 0.061434999 0.24461
0.024414999 0.060353 0.24363001
0.023592999 0.060263999 0.24433
0.039749999 0.16141 0.28443
0.031527001 0.078107998 0.25409001
0.032322001 0.078206003 0.25479999
0.031282999 0.077656999 0.25487
0.040351 0.094076 0.23948
0.069418997 0.17987999 0.23263
0.068124004 0.18139 0.23151
0.069870003 0.18023001 0.23468
0.051623002 0.15435 0.23801
0.059200998 0.10885 0.25119001
0.058536999 0.11001 0.25005001
0.05861 0.11096 0.25068
0.066682003 0.15942 0.23726
0.064266004 0.15968999 0.23722
0.031621002 0.084963001 0.26106
0.024481 0.055229001 0.25468001
0.036674 0.10373 0.26877001
0.041731998 0.088781998 0.27990001
0.040635001 0.086441003 0.28257
0.040116999 0.089438997 0.28126001
0.073556997 0.16563 0.23489
0.072095998 0.16595 0.23458
0.030142 0.14316 0.23546
0.030818 0.14050999 0.23525999
0.063437 0.17644 0.26642001
0.063908003 0.17736 0.26471001
0.063983001 0.17575 0.26361999
0.066977002 0.11118 0.25277999
0.066817001 0.1101 0.25263
0.064638004 0.10946 0.25182
0.065775 0.11418 0.25040999
0.063536003 0.11287 0.25002
0.035525002 0.15284 0.22386999
0.062853999 0.17642 0.26172
0.028022001 0.089582004 0.24686
0.028483 0.089713998 0.24484999
0.063790001 0.16940001 0.24639
0.038084999 0.15249 0.24598999
0.038263999 0.15211999 0.24635001
0.039712001 0.085712999 0.23445
0.041147999 0.086531997 0.23541
0.053167999 0.1637 0.24269
0.066884004 0.17749999 0.23443
0.068625003 0.17865001 0.23424999
0.037365999 0.15982001 0.20280001
0.036912002 0.15964 0.20477
0.036922999 0.16038001 0.20478
0.030497 0.14128 0.26526001
0.040123999 0.13277 0.23057
0.039854001 0.1337 0.23417
0.039016001 0.13435 0.23283
0.067360997 0.17127 0.23434
0.067723997 0.17244001 0.23371001
0.045421999 0.14562 0.18975
0.044268999 0.14726 0.18890999
0.065839 0.12914 0.23959
0.06481 0.12837 0.24053
0.054713 0.13195001 0.23754001
0.054963 0.13212 0.23722
0.030948 0.15272 0.26842001
0.030512 0.15206 0.26712
0.029485 0.043003 0.23816
0.032639999 0.1418 0.21354
0.047773998 0.15874 0.18641999
0.037326001 0.15734001 0.28327
0.036837999 0.15702 0.28187001
0.067945004 0.16814999 0.23323999
0.059326001 0.16276 0.18568
0.059757002 0.16321 0.1858
0.060284998 0.042307999 0.29258001
0.064962 0.060284 0.29407001
0.064574003 0.058768999 0.29355001
0.028369 0.037981998 0.22519
0.027758 0.087489001 0.24287
0.054225001 0.11766 0.24938001
0.054076001 0.11641 0.24975
0.053667001 0.17736 0.26181
0.053484999 0.17644 0.26069999
0.033535998 0.13892999 0.22385
0.026458001 0.08433 0.29905999
0.044987001 0.17358001 0.27042001
0.036451999 0.15621001 0.21979
0.036772002 0.15576001 0.21911
0.096427001 0.18393999 0.25044
0.080966003 0.086378001 0.26936999
0.023763999 0.066803999 0.25312999
0.054203 0.17546999 0.27283999
0.022646001 0.041103002 0.24692
0.040082999 0.12496 0.28103
0.041499 0.12709001 0.28228
0.032503001 0.14909001 0.23665
0.033408001 0.14940999 0.23677
0.027953999 0.033929002 0.25141999
0.029343 0.034432001 0.25147
0.028114 0.034494001 0.25196001
0.042603999 0.098823003 0.27911001
0.055748999 0.16859999 0.24546
0.061260998 0.049941 0.29089001
0.060497001 0.048592001 0.29032999
0.042603999 0.16972999 0.25672999
0.044084001 0.17061 0.25639001
0.038428999 0.053638 0.24214
0.024816999 0.050030001 0.25126001
0.028069001 0.081597 0.29482001
0.028608 0.081234001 0.29589
0.033131 0.13617 0.22472
0.031891 0.13826001 0.22651
0.054710001 0.15669 0.23869
0.025227999 0.058823001 0.24286
0.068713002 0.17444 0.2385
0.034185 0.15778001 0.25279
0.042098001 0.15947001 0.24833
0.050942 0.15651999 0.18433
0.035023998 0.14286 0.20125
0.034556001 0.14386 0.20176999
0.02086 0.035487998 0.23525
0.019649001 0.036107 0.2352
0.022054 0.035195999 0.23484001
0.030477 0.15379 0.26626
0.03104 0.15238 0.26679
0.035985999 0.089933999 0.23491
0.039958 0.1043 0.27360001
0.039508998 0.10399 0.27193999
0.037039999 0.069660999 0.23506001
0.037300002 0.070655003 0.23638999
0.034768 0.14191 0.28461999
0.03407 0.14136 0.28303999
0.048719 0.11696 0.25222999
0.049357999 0.11706 0.25260001
0.031365 0.085993998 0.23733
0.03145 0.085171998 0.23734
0.031205 0.086746998 0.237
0.026031001 0.055273999 0.24337
0.033539999 0.065355003 0.23517001
0.033576 0.066717997 0.23619001
0.023685999 0.040482 0.24553999
0.024008 0.041235998 0.24606
0.040979002 0.16042 0.2482
0.039523002 0.15917 0.24868999
0.043685 0.11474 0.25400001
0.044628002 0.11524 0.25319999
0.030720999 0.15189999 0.27193999
0.031101 0.058903001 0.23928
0.035482999 0.098242 0.26761001
0.036173001 0.099023998 0.26719001
0.044705 0.15888999 0.24150001
0.031341001 0.14143001 0.23344
0.038493 0.11446 0.27728
0.040238999 0.11487 0.27860999
0.062268 0.05432 0.29284999
0.062283002 0.052253999 0.29286
0.032813001 0.13219 0.26159999
0.031840999 0.13342001 0.26341999
0.032926999 0.13372 0.26332
0.032421 0.12918 0.26704001
0.043430001 0.099252 0.27924001
0.033799 0.10349 0.25046
0.050675001 0.10406 0.24898
0.057383001 0.10331 0.25159001
0.055936001 0.14802 0.18246
0.037772 0.16371 0.25413001
0.055452999 0.10622 0.25048
0.041239001 0.084261999 0.23602
0.034366 0.13066 0.25918999
0.021358 0.034139998 0.24198
0.039333999 0.15545 0.2448
0.039283998 0.15349001 0.24643999
0.060435999 0.17682999 0.25545999
0.060029998 0.17737 0.25628
0.062019002 0.17648 0.25687999
0.038114998 0.11244 0.27796999
0.03895 0.11455 0.27706
0.063625 0.055399999 0.29341999
0.077381998 0.034023002 0.27590999
0.050218999 0.16627 0.24996001
0.072153002 0.16088 0.23277
0.059767 0.033155002 0.29326001
0.059503999 0.033461001 0.29234001
0.029917 0.038493 0.22570001
0.036338001 0.044583999 0.24474999
0.034873001 0.044702999 0.24494
0.035211001 0.045092002 0.24529999
0.034407999 0.1514 0.22413
0.035222001 0.15138 0.22674
0.047683999 0.096515 0.24366
0.046532001 0.097057 0.24327999
0.042389002 0.086209998 0.28189
0.042211 0.085276999 0.28279001
0.12685999 0.16564 0.26659
0.035572998 0.15685999 0.28172001
0.040821999 0.085417002 0.28207999
0.041510999 0.086878002 0.28185001
0.044096 0.14940999 0.18616
0.035514999 0.12895 0.28064999
0.037425 0.1283 0.27886
0.024125 0.071006 0.24687999
0.024847001 0.069848001 0.24707
0.038359001 0.088409998 0.28384
0.033365998 0.080169 0.23525
0.031603999 0.13880999 0.22797
0.044927001 0.12309 0.24969
0.042098999 0.15293001 0.23608001
0.041209999 0.15448999 0.23633
0.066416003 0.18170001 0.22236
0.090025 0.081069998 0.27441001
0.048505999 0.17144001 0.28110999
0.048372 0.17248 0.27893999
0.046119999 0.1201 0.25218001
0.086565003 0.038029999 0.27311
0.046792999 0.14967 0.18438999
0.023988999 0.062272001 0.24705
0.023179 0.062267002 0.2471
0.03108 0.077707 0.25360999
0.030529 0.077393003 0.25165999
0.057108 0.15423 0.18335
0.055741001 0.15524 0.18502
0.056072999 0.15489 0.18329
0.036369 0.1089 0.25558999
0.025521001 0.053219002 0.24448
0.026777999 0.054124001 0.24382
0.022247 0.056042999 0.25316
0.038040001 0.14519 0.28560999
0.037565999 0.14424001 0.2863
0.037191 0.1453 0.28696999
0.030470001 0.084859997 0.23820999
0.029849 0.083994001 0.23912001
0.041492 0.16152 0.19496
0.045536 0.16252001 0.24707
0.046498001 0.16292 0.24815001
0.034765001 0.12848 0.25786
0.086384997 0.085597001 0.27346
0.060819 0.12794 0.23943999
0.032365002 0.14322001 0.24342
0.035066001 0.13485 0.23496
0.033172 0.046838 0.24395999
0.035397999 0.045722999 0.24414
0.037489001 0.15251 0.22938
0.044539999 0.10445 0.27932999
0.043414 0.10377 0.27932
0.035983998 0.11064 0.26901001
0.036517002 0.11245 0.26808
0.056042999 0.16365001 0.18629999
0.069326997 0.16762 0.23382001
0.046 0.16187 0.24498001
0.046029001 0.16023999 0.24519999
0.032290999 0.099646002 0.26308
0.033105999 0.10003 0.26148999
0.046452999 0.15745001 0.18851
0.045019999 0.15593 0.1886
0.056992002 0.12901001 0.2397
0.033346001 0.080332004 0.29721001
0.033535998 0.080851004 0.29855001
0.034329999 0.081331998 0.29826
0.038180999 0.03449 0.22386
0.036876999 0.03489 0.22657
0.13384999 0.15891001 0.26763999
0.13217001 0.15747 0.26778999
0.13596 0.16344 0.26864001
0.029749 0.034933001 0.22404
0.030485 0.033514 0.22236
0.027145 0.035091002 0.22595
0.049150001 0.16706 0.19474
0.050067998 0.16776 0.19619
0.042484 0.10914 0.24958999
0.044022001 0.10855 0.25018001
0.043531999 0.10885 0.24941
0.061089002 0.054783002 0.29122001
0.060942002 0.049986999 0.29355001
0.061694 0.048967 0.29347
0.062022001 0.049231999 0.29519999
0.03929 0.15795 0.28494
0.038718 0.16044 0.28435999
0.065972999 0.17718001 0.22763
0.066349998 0.17951 0.22732
0.043561999 0.15189999 0.1873
0.030314 0.15482 0.26065001
0.035656001 0.13733 0.28468999
0.035969 0.13741 0.28376001
0.03858 0.069871999 0.23461001
0.032712001 0.14892 0.24285001
0.032306001 0.14794999 0.24257
0.037202999 0.15072 0.24581
0.035921998 0.15084 0.24419001
0.037560001 0.11285 0.26324001
0.067300998 0.17415 0.23176999
0.066595003 0.17361 0.23171
0.066838004 0.18255 0.22931001
0.068851002 0.11613 0.24957
0.068141997 0.11463 0.25038001
0.036963999 0.12766001 0.25995001
0.032329001 0.076824002 0.23463
0.039241001 0.16618 0.27572
0.073840998 0.17929 0.22597
0.068568997 0.16952001 0.2413
0.067808002 0.16948 0.24179
0.044055998 0.16164 0.24944
0.041611999 0.16017 0.24909
0.033089001 0.15685999 0.27520999
0.045019001 0.08941 0.23871
0.056620002 0.16389 0.18732999
0.054933999 0.16321 0.18659
0.042449001 0.13557 0.22225
0.043373 0.13802999 0.22332001
0.069178 0.11045 0.25277999
0.068658002 0.11136 0.25264001
0.037868001 0.16141 0.25224999
0.072480999 0.16293 0.23348001
0.071479999 0.16396999 0.23483001
0.034145001 0.15785 0.27564001
0.034541 0.055396002 0.24076
0.039011002 0.15024 0.28692001
0.037703998 0.1487 0.28674001
0.042349 0.16972999 0.25885001
0.062221002 0.15826 0.23767
0.054506 0.15550999 0.18513
0.054432999 0.15387 0.18585999
0.055232 0.15445 0.18531001
0.036207002 0.039581001 0.23371001
0.037624002 0.039896999 0.23379999
0.039450999 0.040987 0.23425999
0.027055999 0.055190999 0.24379
0.044149 0.099592999 0.24606
0.043804001 0.099928997 0.24506
0.031566001 0.13078 0.26708999
0.032267001 0.13055 0.26613
0.031851001 0.13012999 0.26453999
0.037471998 0.050310999 0.24304999
0.045313001 0.17369001 0.27162001
0.029936001 0.14556 0.21539
0.031752001 0.15319 0.25431001
0.036428999 0.12203 0.27173001
0.13057999 0.16726001 0.26631001
0.033487 0.12929 0.25780001
0.035337001 0.12921999 0.25968
0.044379 0.1441 0.19836
0.043591 0.14458001 0.198
0.042351998 0.092348002 0.28180999
0.060125001 0.1217 0.24495
0.060371 0.12158 0.24438
0.033528 0.15838 0.27294999
0.034421001 0.14933001 0.2429
0.054035001 0.17637999 0.26010999
0.032616001 0.10568 0.25819001
0.082687996 0.037424002 0.27384999
0.08196 0.036781002 0.27511999
0.062268 0.12904 0.23983
0.033029001 0.14245 0.20686001
0.030331001 0.14516 0.242
0.031509999 0.14580999 0.24179
0.031342998 0.14555 0.23972
0.065802 0.17647 0.25749001
0.068233997 0.11563 0.25009
0.068060003 0.11717 0.24970999
0.030586001 0.14938 0.21575999
0.053160001 0.16129 0.24214
0.069421999 0.10913 0.25404
0.068842001 0.11072 0.25345001
0.030668 0.15029 0.20197999
0.079490997 0.040876001 0.27520001
0.050090998 0.10119 0.24755999
0.052703001 0.10152 0.24721
0.13096 0.17513999 0.25924
0.030055 0.1512 0.27384001
0.032170001 0.15312 0.27695999
0.036864001 0.15415999 0.19797
0.068683997 0.16793001 0.23251
0.070022002 0.16869999 0.23221999
0.069045998 0.16717 0.23277999
0.040227 0.15064 0.18809
0.040403001 0.11705 0.25758001
0.039444 0.11681 0.25909001
0.04772 0.1665 0.19502001
0.037659001 0.11195 0.27129
0.037558999 0.11046 0.27125001
0.029889001 0.1432 0.23974
0.13186 0.17377 0.26431
0.12938 0.17512999 0.26445001
0.12997 0.17589 0.26293999
0.033711001 0.14925 0.27950999
0.044721 0.12853999 0.24669001
0.04465 0.1293 0.24692
0.036665998 0.10239 0.24498001
0.047919001 0.11449 0.25242001
0.048385002 0.11223 0.25220001
0.061551999 0.052397002 0.28975999
0.061602 0.054437999 0.28946
0.061379999 0.054078002 0.28975999
0.028077001 0.082473002 0.24566001
0.13510001 0.16952001 0.26058
0.13505 0.16977 0.26007
0.034497999 0.15007 0.24282999
0.034084 0.14959 0.24432001
0.031670999 0.14313 0.25775
0.036862999 0.080293 0.23169
0.056719001 0.16874 0.24656001
0.058309998 0.16933 0.24537
0.063013002 0.065637998 0.28635001
0.065284997 0.063037999 0.28608
0.033293001 0.15026 0.23154999
0.032288998 0.15079001 0.23288999
0.046645001 0.163 0.19087
0.030282 0.081874996 0.24008
0.032290999 0.1496 0.22634
0.039806999 0.11381 0.2568
0.082658999 0.16021 0.23375
0.082177997 0.16153 0.23164999
0.081886999 0.16107 0.23127
0.089713 0.040412001 0.28145
0.089317001 0.040651999 0.27956
0.025738999 0.040479001 0.23551001
0.025481001 0.042135 0.23710001
0.027476 0.041499 0.23497
0.032391999 0.081554003 0.29927
0.033723 0.081177004 0.29756999
0.029049 0.092257001 0.25940001
0.024040001 0.042603999 0.24848001
0.030138001 0.14519 0.26456001
0.029340001 0.081248 0.25306001
0.039562002 0.1224 0.25885001
0.058155 0.12276 0.24356
0.030819001 0.13403 0.27517
0.041368999 0.14034 0.204
0.041641001 0.13925 0.20513999
0.067046002 0.063460998 0.29420999
0.068195999 0.063228004 0.29381001
0.065287001 0.063026004 0.29323
0.12569 0.1595 0.26995999
0.031187 0.14951999 0.23707999
0.032237999 0.14808001 0.23608001
0.038247999 0.12701 0.25702
0.070733003 0.15829 0.23346999
0.069986001 0.16056 0.23396
0.060605999 0.16111 0.23920999
0.060899001 0.16103999 0.23992001
0.033824999 0.13141 0.26082999
0.049954999 0.1256 0.24393
0.047153998 0.12576 0.24437
0.049502 0.12621 0.24321
0.036603 0.11391 0.27309999
0.059377 0.12161 0.24293
0.060943 0.12242 0.24222
0.026524 0.059137002 0.25514999
0.032318 0.14951 0.22198001
0.034054998 0.10283 0.25020999
0.031060001 0.15468 0.26236999
0.031396002 0.15528999 0.26137999
0.032444 0.1549 0.2638
0.030985 0.14399999 0.20652001
0.030601 0.14364 0.20655
0.039156001 0.15263 0.24432001
0.036750998 0.11563 0.26901999
0.037365999 0.11691 0.27061
0.03822 0.11662 0.26877999
0.13094001 0.17445999 0.26642001
0.035353001 0.10546 0.26374
0.033544999 0.10509 0.26157001
0.052018002 0.16982 0.19298001
0.041459002 0.12285 0.28261
0.038415 0.089997001 0.28854999
0.03819 0.090039 0.28966999
0.032906 0.14793999 0.24119
0.040545002 0.16266 0.19693001
0.041166 0.16215999 0.19887
0.033275999 0.14861999 0.22235
0.056065001 0.17005 0.19099
0.034759998 0.16288 0.26495999
0.035882 0.16379 0.26210999
0.024037 0.068671003 0.24797
0.024424 0.067659996 0.2476
0.054519001 0.14686 0.18114001
0.030381 0.10181 0.25147
0.030285999 0.10169 0.25233999
0.04448 0.14841001 0.18550999
0.043513 0.14804 0.18785
0.031436998 0.085992999 0.26106
0.029931 0.085473999 0.25949001
0.036400001 0.15234999 0.19666
0.024117 0.040996999 0.24321
0.032104999 0.051243 0.24169999
0.035004001 0.051635999 0.24302
0.043083001 0.093004003 0.28505999
0.044272002 0.093901001 0.28518999
0.043113001 0.093985997 0.28281
0.059080999 0.16188 0.23994
0.059652999 0.16106001 0.24305999
0.038876999 0.16237999 0.28104001
0.039500002 0.16411 0.28191999
0.037987001 0.16340999 0.28016999
0.043462999 0.1591 0.24461
0.045037001 0.17242 0.26309001
0.13065 0.17216 0.26538
0.13005 0.17126 0.26493999
0.13121 0.17098001 0.26517999
0.051665001 0.15697999 0.18459
0.034279998 0.062378999 0.23641001
0.068678997 0.17284 0.24022999
0.068821996 0.17303 0.23965999
0.068911001 0.17219999 0.2422
0.028004 0.085923001 0.25598001
0.028252 0.085449003 0.25729999
0.027891001 0.087421 0.25525001
0.031968001 0.14866 0.23815
0.032065 0.14907999 0.23803
0.074167997 0.16597 0.23134001
0.028287999 0.035519999 0.26104999
0.028029 0.035296001 0.26267999
0.050246 0.14534999 0.18448
0.052048001 0.17629001 0.25933999
0.040323999 0.16089 0.2026
0.038008999 0.16009 0.20297
0.063580997 0.13248 0.23871
0.060562 0.13176 0.23848
0.060516998 0.13121 0.23796
0.039296001 0.10308 0.24868999
0.062758997 0.12146 0.24408001
0.062272001 0.12298 0.24318001
0.064646997 0.17084999 0.24602
0.045026999 0.15916 0.18897
0.042257998 0.093061 0.23910999
0.035859 0.10964 0.26427001
0.039291002 0.16532999 0.28036001
0.03235 0.098760001 0.2633
0.033197999 0.12778001 0.26932999
0.085698999 0.090856999 0.27140999
0.082792997 0.092859 0.27166
0.084881 0.089722998 0.27153999
0.045194998 0.10033 0.24414
0.023344999 0.062413 0.25259
0.029314 0.045434002 0.24124999
0.03923 0.084784999 0.2929
0.040130001 0.084473997 0.29427999
0.042121001 0.083816998 0.29214999
0.028368 0.09104 0.24451999
0.039625999 0.070118003 0.23655
0.041414998 0.070974998 0.23823
0.042339001 0.14278001 0.19977
0.038849 0.10224 0.27223
0.037365999 0.10261 0.27195999
0.034887001 0.043963 0.24383999
0.046064999 0.17169 0.25584
0.046213001 0.16891 0.2536
0.045711 0.17069 0.25521001
0.038323 0.10098 0.27173999
0.038801 0.1001 0.27166
0.032276999 0.13022 0.27072999
0.023487 0.065916002 0.25092
0.052464999 0.16749001 0.25025001
0.056391001 0.17065001 0.19408999
0.055957001 0.17066 0.19369
0.061567001 0.052416999 0.29111001
0.027394 0.083126999 0.24828
0.045074999 0.16471 0.19284999
0.044045001 0.16497 0.19322
0.044673 0.16394 0.19255
0.02963 0.15178999 0.26346999
0.030606 0.15276 0.2622
0.029687 0.152 0.25974
0.037110001 0.038403001 0.23413
0.039560001 0.038964 0.23668
0.068150997 0.17640001 0.23676001
0.053768001 0.15962 0.18346
0.040082999 0.034724001 0.22359
0.028826 0.14617001 0.27193999
0.030223999 0.14476 0.27454999
0.088017002 0.078322001 0.27382001
0.088349 0.078984 0.27415001
0.022539999 0.038139999 0.24047001
0.031152001 0.080514997 0.23859
0.043212999 0.16675 0.28246
0.035985999 0.11327 0.26666
0.031507999 0.15374 0.26409
0.13602 0.16856 0.26183
0.024039 0.035399999 0.24961001
0.034460001 0.15336999 0.27803001
0.036145002 0.041779999 0.23864999
0.025488 0.044096999 0.24146
0.025938001 0.043825001 0.24084
0.035774 0.10884 0.25966999
0.037586 0.13589001 0.24927001
0.058885001 0.1117 0.25178999
0.031810001 0.10313 0.24992
0.13135 0.16835999 0.26603001
0.13349 0.16985001 0.26703
0.026663 0.068752997 0.25387999
0.042934999 0.10583 0.28027999
0.043595999 0.095262997 0.23966999
0.045246001 0.095104001 0.23992001
0.045635998 0.093828 0.23994
0.033842999 0.058876999 0.23789001
0.024940001 0.050080001 0.25303999
0.12955 0.17511 0.26517999
0.046197001 0.15964 0.24438
0.045492999 0.14128 0.19982
0.025251999 0.04786 0.25440001
0.044425 0.16384999 0.19205999
0.039542001 0.15953 0.20029999
0.038442001 0.16001 0.19949999
0.040895998 0.090263002 0.28819999
0.028976001 0.081206001 0.25152001
0.038734 0.12673 0.25896001
0.026064999 0.042309999 0.25808999
