# .PCD v0.7 - Point Cloud Data file format
VERSION 0.7
FIELDS x y z
SIZE 4 4 4
TYPE F F F
COUNT 1 1 1
WIDTH 1484
HEIGHT 1
VIEWPOINT 0 0 0 1 0 0 0
POINTS 1484
DATA ascii
0.31307 -0.049545001 0.023463
0.31461 -0.050232999 0.025525
0.31512001 -0.051259 0.023925999
0.30456999 -0.027623 0.039046001
0.27362999 0.035572 0.010693
0.2084 0.075429 0.050962999
0.23525 0.054104 0.018956
0.23504999 0.052134 0.021345001
0.32385001 0.066913001 0.066460997
0.32236001 0.068039998 0.067155004
0.30129999 0.044284001 0.007088
0.29986 0.044441 0.0062358002
0.26247001 0.016692 0.017671
0.32021001 -0.0020228999 0.030773001
0.21997 0.081949003 0.038208999
0.21894 0.081886999 0.037191
0.21933 0.083143003 0.038224999
0.27099001 0.038155001 0.012553
0.31294 0.074656002 0.093144
0.31323001 0.075367004 0.093167998
0.31241 0.073471002 0.092031002
0.26747999 0.013804 0.01103
0.26705 0.013263 0.010029
0.30649999 0.0255 0.015842
0.24759001 0.044925999 0.022054
0.24623001 0.046231002 0.021939
0.31125 -0.044282001 0.031927001
0.22104999 0.083384998 0.037152998
0.25262001 0.0019866 0.018501
0.25325999 0.0014561 0.020207999
0.27649999 -0.044261999 0.0038451999
0.26644 0.036279 0.02341
0.21488 0.069489002 0.036373001
0.30496001 -7.1456002e-06 0.023809999
0.22081 0.082879998 0.037052002
0.21913999 0.082849003 0.037021
0.29822999 0.023425 0.0097257001
0.31547999 -0.0079050995 0.030245
0.28347 0.094939001 0.067204997
0.31384 0.062374 0.015324
0.25097999 0.095342003 0.053715002
0.28387001 0.090470999 0.023579
0.28527001 0.089382 0.023530001
0.27724999 0.060823001 0.0015527999
0.27653 0.060757998 0.00043556001
0.27726001 0.06067 0.0018
0.29317999 -0.00051871 0.0053563998
0.29214999 -0.00046362999 0.0044669001
0.28661999 0.055055 -0.0016279001
0.28667 0.05517 -0.0017636
0.26820001 -0.045203999 0.0034514
0.26787999 -0.043156002 0.0032813
0.27844 -0.028498 0.012004
0.27816001 -0.02923 0.010906
0.29273999 0.027461 0.006943
0.29236001 0.0274 0.0080725998
0.26504999 0.074942999 0.031244
0.2651 0.076222003 0.031011
0.27860001 0.060412999 0.0010287
0.23736 0.070473 0.028293001
0.27893001 0.029513 0.0085282
0.27832001 0.029897001 0.0065933
0.27869999 0.029131999 0.0071796998
0.24541999 0.044679001 0.021648001
0.31744999 0.074417002 0.086415
0.31733999 0.074454002 0.086662002
0.27111 0.080181003 0.016886
0.29111999 0.0036531 0.0066986
0.30471 0.029733 0.015652999
0.30177999 0.051865999 0.0030586
0.29881001 0.050570998 0.0041435999
0.32523 -0.025602 0.033254001
0.25757 0.010517 0.015453
0.26366001 0.047630001 0.014109
0.29258001 0.013096 0.0080223
0.29396999 0.014244 0.0088494997
0.30676001 -0.011575 -0.01207
0.27537 -0.052802 0.0049131
0.27445 -0.051419001 0.0039344002
0.27427 -0.054432999 0.0062108999
0.26561001 -0.046103999 0.0049100998
0.26631001 -0.044326998 0.0022380999
0.24507 0.062346999 0.018921001
0.31481001 -0.0069193002 0.028965
0.31402001 0.078910001 0.099637002
0.31318 0.079373002 0.099936001
0.3136 0.079061002 0.097709998
0.24665 -0.051205002 0.02568
0.30236 0.0067950999 0.0188
0.32247999 -0.051309999 0.030780001
0.27309999 -0.0082587004 0.010965
0.29756001 0.0086751999 0.0064869998
0.28104001 0.056442998 0.00044869
0.29785001 0.068942003 0.0028998
0.29831001 0.070240997 0.0026187999
0.31986001 0.061544999 0.051259
0.32164001 0.060376 0.051704999
0.28644001 0.034812 0.0037434001
0.28568 0.033307001 0.0033596
0.28665 0.035190001 0.0035317
0.33044001 0.062669002 0.072419003
0.27283001 0.049899001 0.0021184999
0.26447999 0.074864 0.025738001
0.30827999 -0.0085351998 -0.011851
0.26916 -0.023204001 0.0034552
0.26876 -0.022608999 0.0036309999
0.26989999 -0.022910001 0.0034747
0.28547001 0.035840001 0.0044367998
0.22583 0.072136998 0.021854
0.31946999 0.062318001 0.048142999
0.31996 0.062648997 0.047293
0.29176 0.041473001 0.0042293002
0.26459 0.055174001 0.011458
0.31169 0.051399998 0.01457
0.31211999 0.052258998 0.015683999
0.31364 0.053304002 0.015332
0.28086001 0.030667 0.0062201
0.28073001 0.030446 0.0051181
0.28172001 0.030229 0.0063287001
0.26897001 0.077097997 0.012972
0.26892999 0.076295003 0.013589
0.32780001 0.068446003 0.072402
0.27950001 -0.046229001 0.0036865
0.24789999 0.053041998 0.013104
0.27680001 0.074653 0.0049641002
0.31746 -0.0014944 0.028507
0.26067001 0.072139002 0.025975
0.26273999 0.072131 0.027201001
0.31702 0.070175 0.070692003
0.31551 0.069784999 0.070160002
0.31690001 0.072111003 0.073291004
0.26675001 0.043168999 0.013525
0.29558 0.036024999 0.0073013999
0.32526001 -0.023560001 0.034472998
0.28724 0.047182001 0.0011716
0.28889999 0.046851002 0.0010339
0.25356001 0.061861999 0.01416
0.31716001 0.079416998 0.093254998
0.30318001 -0.0045746998 -0.010392
0.26148 0.090260997 0.048314001
0.2687 -0.051695 0.0035761001
0.30818999 0.021780999 0.021868
0.30906999 0.022759 0.022239
0.24607 -0.053252 0.013882
0.24681 -0.052163001 0.015034
0.31773999 -0.0096747 0.035062
0.25872999 -0.0022046 0.0084736003
0.31365001 -0.044149 0.027946999
0.30052 0.032423999 0.0098257
0.29919001 0.032207999 0.0091973003
0.30087 0.071263 0.0050069001
0.30221 0.07186 0.0062969001
0.30298001 0.069268003 0.0064177001
0.29381999 0.069472 0.00083308999
0.24814001 -0.051622 0.0253
0.25044 -0.051748 0.024836
0.25026 -0.049715001 0.024869001
0.23232999 0.056993999 0.020203
0.27954999 -0.050765999 0.0010657
0.29091001 0.080914997 0.0074550002
0.29113999 0.083066002 0.0068820999
0.28900999 0.083021998 0.0078667998
0.30436999 0.080839001 0.019276001
0.30474001 0.080645002 0.019495999
0.31284001 -0.047664002 0.024714001
0.26021999 0.07 0.025627
0.30785999 0.025129 0.027326001
0.31009999 0.024267999 0.026564
0.30915001 0.025559001 0.025935
0.26233 0.0099258004 0.0074860998
0.27373999 0.049834002 0.0011871
0.27458 0.048686001 0.0038477001
0.30700001 0.063165002 0.0079020998
0.30627999 0.063382 0.0076404
0.27083999 0.033994 0.015835
0.26029 0.085433997 0.051541999
0.26848999 0.037976 0.017558999
0.26727 0.038961001 0.018926
0.26695001 0.038019001 0.018715
0.32251 -0.0068291002 0.039363001
0.28239 0.030632 0.0055665001
0.32078001 -0.0054617999 0.035459999
0.31968001 -0.0055280998 0.032306001
0.26295999 0.053082 0.012243
0.30698001 0.074472003 0.013168
0.26504001 -0.019481 0.0039567002
0.26366001 -0.01945 0.0040632999
0.31738001 0.078128003 0.092298001
0.29832 0.039236002 0.0074968999
0.30383 -0.029472001 0.039035
0.2863 0.075162001 0.0038832
0.30976 0.060201999 0.010053
0.30699 0.072039999 0.011122
0.26625001 -0.017941 0.0052377
0.26343 -0.018389 0.0042653
0.31310999 0.081900001 0.095991999
0.28979999 0.094686002 0.069311999
0.26594999 -0.053888001 0.0096735004
0.26625001 -0.052668002 0.01055
0.26532999 -0.053061001 0.0087499004
0.28821 0.089206003 0.020304
0.28931001 0.088665001 0.02203
0.31990001 0.011406 0.032194
0.32069001 0.0090376996 0.033199999
0.32093 0.0094846003 0.032591
0.2233 0.087251998 0.041429002
0.32317001 0.071897998 0.076872997
0.30044001 0.0090707997 0.017927
0.31068999 0.018062999 0.023844
0.25551999 -0.046845999 0.010905
0.25439 -0.047458 0.013558
0.25501999 -0.046652999 0.013215
0.27619001 -0.052861001 0.0039746999
0.26798999 -0.025289999 0.0026380999
0.26668999 -0.024568999 0.00094931002
0.27763 -0.052689999 0.0071399999
0.27906001 -0.052457999 0.0058380002
0.27873001 -0.00069816998 0.014126
0.27871001 -0.0020483001 0.013312
0.21918 0.061073001 0.025955001
0.25499001 -0.02266 0.016347
0.25433001 -0.02399 0.01602
0.23577 0.068859003 0.025093
0.29481 0.086719997 0.020656001
0.29525 0.088191003 0.019495999
0.2395 0.068403997 0.026722999
0.23852 0.068811998 0.028028
0.31130001 0.046891 0.012943
0.26754999 -0.053185999 0.0050479001
0.26879001 -0.053033002 0.0055712
0.26842999 -0.05314 0.0069420999
0.23596001 0.066114001 0.020206001
0.23659 0.066348001 0.020777
0.26203001 0.0055292998 0.0069927
0.26229 0.0064673 0.0082125003
0.31501999 0.052940998 0.025973
0.31518 0.053822 0.026513999
0.31639999 0.052986 0.026285
0.27028 -0.053187001 0.0080546997
0.26881 -0.052737001 0.0074839001
0.29526001 0.0125 0.0087110996
0.26592001 0.0095191998 0.0058062002
0.30713999 -0.039723001 0.035092998
0.30728999 -0.038488999 0.034120001
0.32106999 0.065963 0.058874
0.28393999 0.014016 0.010476
0.32174 -0.042812999 0.029947
0.32093 -0.042578001 0.032099999
0.27474999 0.083387002 0.017136
0.22263999 0.055171002 0.030593
0.33245 0.064818002 0.077120997
0.33061999 0.064744003 0.075963996
0.28926 0.0036541999 0.013064
0.32339999 0.062383 0.058481999
0.32521001 0.062472999 0.058219999
0.32291999 0.063037001 0.058237001
0.25670001 0.0081089996 0.0139
0.25669 0.0088240998 0.012997
0.21618 0.082501002 0.050627001
0.30774 0.029273 0.023752
0.26932001 0.063005999 0.0049472
0.31757 -0.023274001 0.029127
0.31801 -0.023409 0.028292
0.26157001 0.081377 0.047561001
0.26056999 0.067171998 0.016186001
0.26308 0.067244999 0.016303999
0.28791001 0.011014 0.01033
0.28670999 0.0091489004 0.010252
0.26019999 0.084169 0.053312998
0.29297999 0.052127998 0.00026334001
0.29251 0.049782 0.00071266998
0.31624001 -0.053552002 0.030118
0.3159 -0.052914001 0.02825
0.31659001 -0.052487001 0.030679001
0.3272 -0.052370001 0.037593
0.32677999 -0.050285999 0.039205
0.30034 0.027024999 0.011251
0.30131999 0.027216 0.012492
0.29954001 0.026435001 0.011096
0.26978999 0.069219999 0.0067675998
0.26089999 0.081504002 0.049741998
0.26791 0.038198002 0.020312
0.26721999 0.037983999 0.019853
0.2581 -0.030029001 0.011583
0.25769001 -0.02829 0.010968
0.28088999 0.058334 -0.00019748999
0.26517001 0.07649 0.029614
0.2656 0.076026 0.028744999
0.29387999 -0.000208 0.0029602
0.25062001 0.044486001 0.023836
0.25099 -0.0033251999 0.022015
0.25207999 -0.0036122999 0.020152999
0.25828999 0.013736 0.017547
0.2933 0.0026527999 0.0030912
0.26370999 0.074790001 0.025932999
0.26480001 0.074492998 0.025684999
0.26594001 0.075567998 0.024621001
0.28573 0.024544001 0.0055152001
0.28514001 0.02551 0.0055523999
0.27271 0.027231 0.016247001
0.21518999 0.078408003 0.037257001
0.30583 -0.026632 0.032129001
0.2353 0.070000999 0.024559001
0.31472 0.067603 0.029402999
0.31527999 0.069682002 0.030849
0.31424001 0.067892998 0.03107
0.32163 0.070165001 0.070046999
0.25771999 -0.053718001 0.01753
0.25738999 -0.053645 0.017816
0.25527 -0.054306999 0.017325999
0.25411999 0.044968002 0.016759001
0.31716001 0.064868003 0.050827999
0.32036999 0.063340001 0.050303001
0.30634999 -0.0031326001 0.025164001
0.30449 -0.0038723 0.025175
0.28218001 0.077338003 0.0035391999
0.21805 0.064919002 0.024844
0.26734 0.049557999 0.011773
0.26640999 0.051970001 0.010206
0.32374001 0.062204 0.058734
0.32510999 0.061948001 0.059156001
0.32580999 -0.028032999 0.033560999
0.29749 -0.0048849001 -0.0030894
0.30158001 0.027984001 0.012178
0.29541001 0.062858 -0.00027980001
0.30024001 0.022591 0.012353
0.30206001 0.022364 0.011616
0.30256 0.060121 0.0045014
0.32394001 -0.042507 0.033861
0.30382001 0.076973997 0.010583
0.3026 0.077896997 0.011585
0.27625999 0.02654 0.010677
0.2748 0.025289999 0.0089507997
0.31553999 0.073732004 0.081059001
0.32205999 -0.0093882997 0.041508
0.32363999 -0.050429001 0.0341
0.32554001 -0.052055001 0.032669999
0.30972001 0.017982 0.021578999
0.27298999 -0.052552 0.0015776
0.2712 -0.052942 0.0022592
0.30487999 0.0039796 0.020331001
0.26367 -0.029181 0.0030360001
0.26295999 -0.029403999 0.0038935
0.27884001 0.00091167999 0.012107
0.25924999 -0.010677 0.012348
0.25856999 -0.0089662001 0.011511
0.31834999 0.070800997 0.070500001
0.30278 0.036173999 0.011028
0.32082 -0.0067579001 0.034485999
0.32021001 -0.0071186 0.034740999
0.30169001 0.024898 0.011441
0.30588001 0.0098714 0.019693
0.31355 -0.0098869996 0.032779001
0.25903001 -0.036327999 0.0096031995
0.31329 -0.046937998 0.025776001
0.31318 -0.046296 0.026358999
0.29497001 0.052255999 0.00132
0.29545 0.051761001 0.00098263996
0.29872999 0.0083705001 0.012578
0.26751 0.085583001 0.051242001
0.26655 0.066497996 0.0094985003
0.32622999 0.070809998 0.073986001
0.30023 0.072982997 0.0044387998
0.24654 0.062555 0.019874999
0.24598999 0.062959 0.019731
0.31534001 -0.0084677003 0.033128999
0.28558001 0.093686998 0.064375997
0.28633001 0.094299003 0.063308999
0.28543001 0.092069 0.061785001
0.21430001 0.069122002 0.035406001
0.25806999 -0.0078183003 0.011939
0.25806999 -0.0078608003 0.0097196
0.25949001 -0.0084028002 0.010272
0.28803 0.074684002 0.0033451
0.27822 0.088818997 0.065163001
0.31367001 -0.0028905 0.025397001
0.32238999 -0.03272 0.028959
0.30734 0.017418001 0.018874999
0.25286001 0.095559999 0.051306002
0.32165 0.055211 0.049823001
0.32190001 0.054149002 0.048101
0.23082 0.057505999 0.018252
0.26273 -0.018048 0.0066702999
0.26174 -0.017434999 0.0064424998
0.26890999 0.080819003 0.023146
0.26991001 0.080395997 0.022659
0.26868001 0.081046999 0.02485
0.23729999 0.056377001 0.018959001
0.23768 0.055938002 0.018601
0.23831999 0.056887999 0.018691
0.26558 0.042296998 0.014359
0.26216 -0.036109 0.0086612999
0.25655001 0.044998001 0.017314
0.25606 0.044801001 0.018292001
0.28718001 0.090708002 0.061841
0.28769001 0.090669997 0.062546
0.32510999 0.072965004 0.083627999
0.32517999 0.073858999 0.082268
0.32370001 0.072931997 0.083476
0.25977999 0.069371 0.023643
0.26045001 0.069449 0.023124
0.26350999 -0.042273998 0.0049510999
0.25095999 -0.0055789002 0.022523001
0.25301999 -0.004096 0.022758
0.27006999 0.024626 0.017529
0.27056 0.039494 0.012093
0.26866001 0.039485998 0.0099406997
0.27098 0.038880002 0.011857
0.28464001 0.062601998 2.6483e-05
0.31334999 0.066045001 0.020161999
0.31303 0.064387999 0.019486999
0.28942999 0.01283 0.0090330001
0.26052999 -0.017976001 0.0080930004
0.26003 -0.018030999 0.0074208998
0.25718999 -0.030913999 0.015585
0.25791001 -0.032090001 0.015622
0.31224 -0.007375 0.030642999
0.30340999 0.0088128997 0.018375
0.25580999 0.0048822998 0.012029
0.26357999 0.060943 0.011377
0.30245 0.069522001 0.0073544998
0.30327001 0.070423 0.0089319004
0.27814999 -0.043342002 0.0026366999
0.25224 -0.052459002 0.011172
0.25554001 -0.052761 0.011167
0.27362001 -0.027143 0.0035164999
0.27441001 -0.027316 0.0033445
0.26201999 0.00096743001 0.0071919998
0.26216999 0.00085651001 0.0071675
0.26394001 0.0023503001 0.0062520001
0.30465999 -0.020178 0.04016
0.30436 -0.019657999 0.039620999
0.28380999 0.083472997 0.010877
0.28490001 0.083143003 0.0096987002
0.26155999 -0.025669999 0.0026163
0.26233 -0.025711 0.0034413999
0.30737001 -0.0043569002 -0.011253
0.29839 0.048735 0.0031731999
0.29901999 0.086650997 0.021937
0.26501 0.074093997 0.018028
0.26690999 0.075548999 0.017646
0.26921999 -0.034653999 0.0010508
0.26978001 -0.035505999 -0.00012046
0.28117999 0.012753 0.0082745003
0.28097001 0.013281 0.0089868
0.32133001 0.066156998 0.066353001
0.32069999 0.067543 0.066096999
0.25362 0.096000001 0.054683998
0.25295001 0.096326999 0.05373
0.25297001 0.095879003 0.055124
0.26014999 0.072619997 0.02667
0.28452 0.029777 0.0059859999
0.28397 0.032612 0.0058888998
0.28709 0.030151 0.0043409001
0.32363001 -0.021071 0.031738002
0.26199001 -0.0060204002 0.0099352002
0.28911999 0.088995002 0.019553
0.25972 -0.033876002 0.0080538997
0.32618001 -0.046321001 0.038391002
0.29984999 0.037604999 0.0081168003
0.32104 0.061694 0.049284998
0.31999001 0.062509999 0.048052002
0.28672999 0.084643997 0.012887
0.26809001 -0.013405 0.0087641003
0.23034 0.061340999 0.017216001
0.22843 0.060378 0.016828001
0.29859999 0.011214 0.011289
0.22476999 0.088647999 0.045290999
0.27745 -0.036834002 0.0055438001
0.2784 -0.037200999 0.0050161998
0.22037999 0.085442998 0.046624001
0.22096001 0.086018004 0.044535998
0.26706001 0.076563001 0.019386001
0.32376 -0.036295 0.034217998
0.22263999 0.072273001 0.027021
0.28025001 0.066500001 0.00072469999
0.28582999 0.089106001 0.030001
0.25314999 -0.017252 0.020607
0.25336999 -0.018107999 0.020211
0.21899 0.080881998 0.034111999
0.26820999 0.046980001 0.0091020996
0.26809999 0.047718 0.0087091001
0.26697999 -0.042845 0.0039728
0.26657 -0.042179 0.0031079999
0.31819999 0.074312001 0.078548998
0.31151 -0.049756002 0.025536999
0.27303001 0.018881001 0.011133
0.27023 0.021957999 0.013073
0.27123001 0.021651 0.013308
0.29058 0.038251001 0.0057375999
0.28839999 0.040316999 0.0052685002
0.28929999 0.039200999 0.0042579998
0.33126 -0.052909002 0.046553001
0.33186999 -0.051978 0.045811001
0.33238 -0.051833 0.047106002
0.31259999 0.066591002 0.019491
0.31428 0.065861002 0.020701
0.27792001 0.051380001 -0.00017714
0.30230999 0.017114 0.015429
0.30292001 0.016363 0.016321
0.30418 0.054811001 0.0063085998
0.30636001 0.055932999 0.0043818001
0.28378999 0.0075615002 0.0088018999
0.28295001 0.0085057002 0.0095271999
0.32618999 -0.048294 0.038438
0.32537001 -0.047375999 0.036501002
0.25626001 -0.015922001 0.013771
0.31560999 -0.039282002 0.02743
0.31172001 0.066165999 0.016158
0.31992999 -0.052253 0.030881001
0.32109001 -0.052653 0.030423
0.32010999 -0.051812999 0.030805999
0.26927999 -0.053047001 0.010579
0.29265001 0.050450001 0.0010846
0.27954999 0.0049593998 0.0094231004
0.27915001 0.0035373 0.011006
0.27853999 0.0051295999 0.010856
0.26534 0.062809996 0.0087922001
0.2669 0.063873999 0.0090693003
0.26732999 0.061728001 0.0083769998
0.30864 0.011413 0.021142
0.30867001 0.012355 0.020478001
0.23072 0.060419001 0.017194999
0.22856 0.060017001 0.01911
0.26071 -0.05187 0.0095445001
0.27824 0.081120998 0.008068
0.29328001 0.057734001 0.00054759998
0.29506999 0.056775998 0.00090803002
0.32284999 0.053721 0.051327001
0.27965999 0.01606 0.0075292001
0.27903 0.015718 0.0077044
0.27722999 0.014208 0.0078003001
0.30193999 0.028371001 0.012193
0.30249 0.028032999 0.011376
0.27577001 -0.034733001 0.0026378999
0.27638999 -0.033661 0.0045981999
0.26457 0.086681999 0.049809001
0.26532 -0.029286999 0.0028289999
0.29719001 0.027473999 0.010139
0.31174001 0.042970002 0.01866
0.29758 0.012321 0.011535
0.31327 0.076084003 0.095215
0.25393 -0.052942 0.010129
0.25483 -0.052336 0.010125
0.29398999 0.029529 0.0089576002
0.32923999 -0.053681001 0.041200999
0.31196001 -0.033126999 0.027968001
0.24044999 0.066569999 0.028182
0.30337 0.026817 0.012356
0.30329999 0.026187999 0.012399
0.25264001 -0.0020639999 0.014619
0.2755 -0.030955 0.0040652999
0.26388001 0.075410001 0.031861
0.28652999 0.036614999 0.0054116002
0.27821001 -0.052687 0.0030052001
0.27983999 -0.052687999 0.0025408
0.27799001 -0.0029527999 0.015730999
0.27764001 -0.0041502998 0.014062
0.22542 0.076471999 0.032776002
0.22637001 0.077073 0.031711999
0.29225999 0.044317 0.004034
0.2622 -0.0095186001 0.010566
0.26392001 -0.0074099 0.0087711997
0.26374 -0.0090476004 0.0093320003
0.28005999 -0.050948001 0.0091311997
0.27970999 -0.051125001 0.0094905002
0.27974999 -0.050225001 0.0078883003
0.30441999 0.068539999 0.0073139002
0.27379999 0.058977 0.0026407
0.29694 0.088693 0.023362
0.26453 0.017301001 0.021640999
0.26256999 0.0078795999 0.0078210002
0.30385 0.040562 0.010147
0.30434999 0.041051999 0.010865
0.32385001 -0.01562 0.037454002
0.32484999 -0.016713999 0.037932999
0.26133001 0.014657 0.015119
0.26163 0.014938 0.015443
0.31265 -0.035034001 0.028034
0.31457001 -0.033418 0.027269
0.29172 0.085046999 0.012752
0.29260001 0.084013999 0.012858
0.26993999 0.030014999 0.01637
0.26934999 0.03033 0.018750999
0.26987001 0.031075999 0.019610999
0.29282001 0.0047501 0.0047611999
0.31922999 -0.0089937001 0.034508999
0.31134 0.020470999 0.031273
0.31042999 0.020498 0.031644002
0.32304001 -0.029941 0.031413
0.25154999 0.06481 0.018955
0.28476 0.084967002 0.013277
0.25815001 0.060862999 0.012929
0.26062 0.060803998 0.013228
0.25883001 0.060405001 0.012568
0.3096 -0.042610999 0.034063
0.27138999 0.022668 0.0142
0.30168 0.057801999 0.0037084999
0.30210999 0.056804001 0.0040190001
0.2631 0.011593 0.0081593003
0.26186001 0.010943 0.0088494001
0.32345 0.073330998 0.089906998
0.27070001 0.065122001 0.0046994998
0.27674001 0.053066 0.0022317001
0.27724999 0.052234001 0.0030451
0.26435 -0.038469002 0.0018645
0.26478001 -0.039117999 0.0015177
0.29859999 0.016178001 0.010559
0.29315001 0.0095383003 0.0089418003
0.23910999 0.068536997 0.026505999
0.26374 0.090412997 0.053374
0.26277 0.091564998 0.052602999
0.26273 0.090461999 0.052398
0.26513001 0.0032953001 0.0061077001
0.30723 0.024246 0.019668
0.30752 0.024515999 0.019131999
0.29620999 0.072388999 0.0035641999
0.28420001 0.087420002 0.020075001
0.28532001 0.089276999 0.019348999
0.23186 0.074831001 0.027121
0.31338 0.013797 0.024444001
0.31325999 0.013668 0.024685999
0.28670001 0.088973999 0.019575
0.28689 0.088127002 0.01981
0.23800001 0.066238999 0.022923
0.24033999 0.065148003 0.022666
0.29874 0.049883001 0.0012848
0.26043999 0.081208996 0.049660999
0.25962001 0.081542 0.050585002
0.28571999 0.095393002 0.065701999
0.31586 0.080291003 0.094048001
0.22179 0.082694001 0.037356
0.27619001 -0.034883998 0.0054898998
0.28525999 0.024982 0.0065616998
0.27687001 -0.036474999 0.0032758
0.27761999 -0.038830001 0.0028633999
0.27636999 -0.039012998 0.0022362999
0.30044001 0.071734004 0.0055479999
0.30179 0.071539 0.0053714002
0.29045001 0.091029003 0.067556001
0.28966001 0.092179 0.067942001
0.28566 0.088614002 0.026133001
0.28617999 0.090219997 0.027341999
0.24043 0.065255001 0.030850001
0.24164 0.066767 0.030299
0.2288 0.076164998 0.030435
0.22739001 0.075035997 0.032129999
0.30296999 0.049756002 0.0045844
0.30371001 0.051096998 0.0042496999
0.28898999 0.079357997 0.0048528998
0.29045001 0.078985997 0.0047745002
0.27048999 0.022608999 0.015252
0.27009001 0.024343001 0.01575
0.23673999 0.073515996 0.030947
0.28738999 0.011111 0.0095651001
0.24512 0.062024999 0.020022999
0.27562001 -0.049334999 0.00028894999
0.27702999 -0.050057001 -0.00010482
0.27516001 -0.048131 0.00031197999
0.28862 0.095260002 0.066721998
0.27258 -0.016836001 0.0134
0.25441 0.0044757999 0.014159
0.25591001 0.0058161998 0.014536
0.30372 0.080466002 0.01532
0.26824999 0.077275001 0.013874
0.26783001 0.075865999 0.013819
0.21909 0.082677998 0.03816
0.22 0.084297001 0.038789
0.26234999 0.083465002 0.048266999
0.26425001 0.085874997 0.048579
0.27081999 0.0027749001 0.0052316999
0.30889001 0.068324998 0.013612
0.27355999 0.086525001 0.041032001
0.26923001 -0.00097177998 0.0059513999
0.28316 0.03528 0.0051847999
0.28171 0.034508999 0.0054683001
0.22538 0.074625999 0.030061999
0.22453 0.074665003 0.029265
0.25579 0.093621999 0.057172
0.23779 0.057441998 0.017407
0.23873 0.057470001 0.018339001
0.30993 0.075939998 0.10358
0.31207001 0.076917998 0.10414
0.31088999 0.075781003 0.1046
0.28325999 0.087681003 0.017142
0.28439 0.085426003 0.014774
0.28384 0.086142004 0.014686
0.28420001 0.052037999 -0.00063975999
0.27921 0.044413 0.0033435
0.27739999 0.042950999 0.0039924998
0.27702999 0.043738998 0.0045452002
0.30779001 0.071248002 0.012549
0.25479001 0.094154 0.050184999
0.26932001 0.025245 0.020652
0.26813 0.024009001 0.018995
0.30166 0.063043997 0.0033942
0.30055001 0.062518999 0.0029926
0.24219 0.060931999 0.018704001
0.26751 0.00021827999 0.0065465998
0.25108001 0.04676 0.014152
0.25108999 0.047366999 0.013556
0.31176001 0.042592999 0.020691
0.31134 0.044750001 0.021709999
0.31167001 0.042114999 0.019950001
0.22328 0.071787 0.023066999
0.29763001 0.085992999 0.020156
0.27893999 0.060745001 -5.9305999e-05
0.28534999 0.084325001 0.013683
0.32723001 0.059385002 0.069109999
0.26953 0.083842002 0.037397999
0.26359999 0.045993 0.015197
0.28569001 0.042369999 0.0034471001
0.28636 0.043597002 0.0024814999
0.28422999 0.043731 0.0024435001
0.31387001 -0.040440999 0.028677
0.31423 -0.052228 0.023542
0.27002001 0.060249001 0.0036485
0.2502 -0.054979999 0.013838
0.30638999 0.034979999 0.016713999
0.27361 0.0095277 0.0064488999
0.2793 0.090640999 0.067671001
0.30023 0.005564 0.0083224
0.23063 0.065284997 0.017364001
0.23068 0.065003 0.017631
0.23364 0.064176999 0.018501
0.25367001 -0.0099726999 0.021694999
0.25308001 -0.0096790995 0.020889999
0.25192001 -0.0099435002 0.022255
0.30860999 0.071671002 0.016063999
0.31382999 0.016841 0.029725
0.26649001 0.087495998 0.052779
0.30429 -0.027143 0.040247999
0.30451 -0.026862999 0.041099999
0.30314001 -0.027264001 0.039825998
0.27383 -0.0039901002 0.010114
0.27634999 -0.0041610999 0.011639
0.28753999 0.083278999 0.010292
0.29437 0.051406 -0.00012726001
0.30313 -0.0060311998 -0.013457
0.32056001 0.057707001 0.043662999
0.31902 0.058307 0.044341002
0.31973001 0.059289999 0.044413
0.31612 0.077174999 0.089879997
0.25802001 0.066588998 0.020241
0.32762 0.062461 0.070004001
0.31064999 0.06521 0.01291
0.30893999 0.066233002 0.011527
0.27043 0.061500002 0.0058988999
0.30489001 -0.0080375997 -0.0090782996
0.23762 0.068793997 0.02561
0.2696 0.03726 0.015039
0.26879999 0.037873 0.015379
0.26232001 0.043915 0.023492999
0.24719 0.062465001 0.017415
0.23271 0.061393999 0.018499
0.27908 0.020053999 0.0098876003
0.26324001 0.051268 0.012512
0.26350999 0.049871001 0.011076
0.28347 0.064296998 -0.0011808
0.28376001 0.063542001 0.00074182003
0.30552 0.024444001 0.015315
0.30553001 0.023995001 0.017041
0.25650999 -0.051989999 0.0081329998
0.32124999 0.053964999 0.046085
0.32104 0.054857001 0.046172
0.21616 0.088013001 0.050363
0.21977 0.088004 0.048560999
0.21901999 0.087315001 0.049934998
0.25751999 0.0057808999 0.011575
0.27891999 0.026494 0.0078737
0.27814999 0.027647 0.0071413
0.28060001 0.01003 0.0078608999
0.30057999 0.050174002 0.0036383001
0.27577001 -0.0039177998 0.011929
0.30856001 0.063111 0.0085688001
0.26723999 0.014809 0.011102
0.26758999 0.014428 0.01086
0.28081 0.092312001 0.068770997
0.28874999 0.0089817997 0.011031
0.28775001 0.0073523 0.012038
0.27925 -0.034235001 0.0062298002
0.27711999 -0.032984 0.0064415
0.27684999 -0.034230001 0.0059238998
0.32192999 -0.0041510002 0.038812
0.22168 0.069009997 0.021731
0.27516001 -0.0065286001 0.012421
0.26109001 0.058093999 0.012193
0.25946 0.011021 0.019243
0.30167001 0.0086904997 0.017701
0.29815 0.031959001 0.0088539002
0.29879001 0.032054 0.0085690003
0.27609 -0.021264 0.011181
0.27572 -0.021643 0.011021
0.32047999 0.062840998 0.055273
0.32097 0.063859999 0.05497
0.29387 0.082672998 0.0086188996
0.25825 -0.046138 0.011094
0.25659001 -0.046992999 0.011564
0.25681001 -0.044989999 0.012343
0.32365 0.063479997 0.059014
0.26811001 0.024297001 0.021576
0.30867001 -0.025702 0.031264
0.25452 -0.049392 0.022437001
0.2281 0.081211999 0.037168998
0.22781 0.080582999 0.03585
0.2128 0.073826998 0.03607
0.27843001 0.083659001 0.01395
0.27779999 0.080894999 0.01053
0.21984001 0.085069999 0.042860001
0.27873001 0.068547003 0.0028313
0.27923 0.070568003 0.00039641
0.27175999 0.072885998 0.0068052001
0.27125001 0.073853999 0.0079316003
0.27067 0.074364997 0.0077201999
0.30245 -0.0063463999 -0.011658
0.31845999 0.0068231001 0.026896
0.22395 0.088598996 0.044073001
0.30056 0.051615 0.0032432
0.30164 0.052946001 0.0027842
0.21849 0.065428004 0.027294001
0.27039 0.039795998 0.0086585004
0.32565001 -0.046498001 0.035262
0.31981999 -0.0062738 0.032451998
0.31898001 0.067942999 0.066478997
0.31015 0.047215998 0.010894
0.26323 0.073760003 0.026879
0.26517001 0.074276999 0.025493
0.26356 0.072981998 0.028326999
0.26982999 -0.024847999 0.0028961999
0.27055001 -0.023348 0.0041403002
0.31817001 -0.039661001 0.027062999
0.31615999 -0.047951002 0.025371
0.31571999 -0.047366001 0.024749
0.30517 -0.018935001 0.040601
0.25099999 0.065411001 0.019854
0.25091001 0.064634003 0.021641999
0.25273001 0.063654996 0.021563999
0.29256001 0.051642001 0.00024788
0.29304999 0.050721999 0.0012974
0.29482001 0.038171001 0.0052385
0.31941 0.061106998 0.047897998
0.31937999 0.061183002 0.049920999
0.29679 0.033386 0.0074892002
0.25474 0.0084892996 0.017801
0.26797 0.057769001 0.0057681999
0.26699999 0.057379 0.0056543001
0.26719999 -0.016883999 0.0075806002
0.22031 0.067817003 0.024586
0.25931001 -0.044468999 0.016280999
0.22358 0.063648 0.020072
0.22509 0.056395002 0.02507
0.2247 0.063010998 0.018200999
0.30561 0.029192001 0.017115001
0.32122001 -0.028026 0.029679
0.25639999 0.0097516002 0.018536
0.28308001 0.050133001 0.00021336001
0.28088999 0.050772998 -8.1573002e-05
0.21526 0.073073998 0.036943998
0.22389001 0.081570998 0.034401
0.31428 0.067704998 0.025201
0.31442001 0.068617001 0.025139
0.31294 0.068052001 0.023915
0.30642 0.030166 0.018093999
0.30737001 0.030851999 0.018254999
0.30730999 0.029843001 0.019633999
0.25224999 -0.0022615001 0.017555
0.25187999 0.00024224 0.017419999
0.23353 0.073577002 0.028078999
0.23364 0.073151998 0.027615
0.21723001 0.08732 0.049757
0.3105 0.018073 0.024576999
0.31119001 0.018569 0.025715999
0.31316 0.082886003 0.096199997
0.30809 -0.021373 0.033831
0.30785999 -0.02258 0.031268001
0.25503001 -0.052607 0.0090186996
0.25600001 -0.053592999 0.0078550996
0.30022001 0.0030228 0.00010024
0.30076 0.0017559 0.00013991
0.32269999 0.074606001 0.089417003
0.32256001 0.072962001 0.089078002
0.31040001 0.082245 0.097833
0.30875 0.078938998 0.022405
0.30895001 0.075566001 0.024821
0.32515001 -0.018965 0.035138
0.32512 -0.019881001 0.036541998
0.29359999 0.069623999 0.00079631002
0.22417 0.088486001 0.041896001
0.22141001 0.057983998 0.023301
0.22143 0.057163998 0.022597
0.2362 0.052351002 0.020950001
0.23632 0.053890999 0.020682
0.31599 -0.0015994 0.026660999
0.30249 -0.00084942998 -0.0058052
0.30173999 -0.0002792 -0.0072662998
0.31371999 0.079167001 0.092391998
0.31165001 0.079208001 0.095482998
0.32712001 -0.044272002 0.040043
0.30478999 -0.026544999 0.033918999
0.29749 0.0057243998 0.0062165
0.29638001 0.0075706001 0.0051263999
0.29558 0.0070302999 0.0057978998
0.30107999 0.075015001 0.0080896001
0.30133 0.076930001 0.0078036999
0.30320999 0.075980999 0.0089387
0.21515 0.080902003 0.041444
0.30012 0.086843997 0.026797
0.30134001 0.085083999 0.026132001
0.27594 0.087912999 0.032818999
0.27326 0.087192997 0.033179998
0.26482001 0.073363997 0.02386
0.26399001 0.073190004 0.021857999
0.31847 -0.00030667 0.029796001
0.31915 -0.00066836999 0.029131001
0.31880999 0.0020641 0.029596001
0.32014999 0.061292998 0.048914999
0.31948 0.062236 0.048423
0.28941 0.0055203 0.012515
0.30429 -0.021159001 0.042424001
0.31878999 -0.050887 0.024374999
0.31648999 -0.052468002 0.023623001
0.27853999 0.084633 0.014904
0.27862999 0.084248997 0.015861001
0.2414 0.050937001 0.017983999
0.24225 0.050193999 0.016783001
0.27416 0.084293 0.019295
0.2735 0.084083997 0.020524001
0.25920999 0.013845 0.019802
0.30759001 0.02283 0.023009
0.30076 0.078734003 0.0089287004
0.25317001 -0.015395 0.021357
0.25301999 -0.015557 0.019177999
0.27019 -0.047564998 0.0015818001
0.26012 0.015061 0.019497
0.31375 0.011584 0.023631001
0.26894 0.0035633999 0.0057331999
0.31062999 0.040761001 0.018498
0.27239001 0.050198998 0.0024873
0.27327001 0.050340001 0.0028043999
0.32431 -0.025804 0.030789999
0.23536 0.068024002 0.022964999
0.29268 0.071615003 0.0021403001
0.29592001 -0.0025810001 -0.0013883
0.30357999 0.01547 0.017178999
0.30489999 0.015655 0.018828999
0.23108999 0.049993001 0.027536999
0.28490999 0.087006003 0.015468
0.23766001 0.054545 0.018175
0.27575001 -0.049447 0.00057082
0.26429 0.015179 0.019094
0.22465999 0.087572999 0.04369
0.30405 0.01347 0.015992999
0.30355 0.01286 0.017306
0.31184 0.041696001 0.016398
0.32543001 -0.021671001 0.032218002
0.31443 -0.0014006 0.024998
0.30987999 0.083338 0.097007997
0.30823001 0.083535001 0.098247997
0.25073001 0.045984998 0.018405
0.27689999 -0.034083001 0.0063
0.32172 -0.0032790001 0.035514999
0.3204 0.077014998 0.094364002
0.32117999 0.078082003 0.094223998
0.31948999 0.076945998 0.095071003
0.28327999 0.045720998 0.0015092
0.31501999 0.066552997 0.022388
0.31490001 0.064868003 0.024141001
0.31389001 0.064406 0.024214
0.29418001 0.059606001 0.00080213998
0.24519999 0.058398001 0.016806001
0.26265001 -0.015711 0.0091022998
0.25472999 0.0066052 0.017733
0.24255 0.047061998 0.01884
0.25558001 0.06154 0.013378
0.31290999 0.059386 0.012698
0.31154001 0.058079999 0.012975
0.32943001 -0.048962999 0.042381
0.33307001 -0.050609998 0.054035999
0.26818001 0.031877998 0.022203
0.26888999 0.032267999 0.022802001
0.29778999 0.079686001 0.0076878001
0.30873999 0.025192 0.020802001
0.26557001 0.067964002 0.01024
0.31266001 -0.050827 0.024428001
0.31389999 0.065876998 0.022575
0.26095 -0.0070063001 0.0093508996
0.26148 -0.0062270998 0.010116
0.32455 -0.052131999 0.035510998
0.30732 0.066673003 0.0088632004
0.31057999 0.019693 0.028453
0.30998999 0.021558 0.028317001
0.27978 0.022291999 0.010291
0.27123001 0.0077769998 0.0059484998
0.31755999 0.016602 0.034878001
0.31799001 0.015519 0.037121002
0.26425001 0.076026 0.033160001
0.21631999 0.082431003 0.049380001
0.21512 0.081937 0.048333999
0.32126001 -0.017771 0.031909
0.29708001 0.020946 0.0098706
0.31690001 0.076223999 0.089625999
0.28380001 0.067598 0.00018757
0.28422001 0.069186002 0.00029150999
0.24106 0.057519998 0.015798001
0.24189 0.057627 0.014617
0.21255 0.079287 0.050108001
0.21235 0.078768 0.049082998
0.21363001 0.079536997 0.052423
0.32238001 -0.037827 0.031106999
0.2211 0.087764002 0.049012002
0.30917999 0.083439998 0.097098
0.31106001 0.083099 0.097342998
0.29054999 0.013518 0.0093740998
0.26341999 0.0060478998 0.0067110001
0.25665 -0.0037503999 0.010518
0.25628999 -0.0029364999 0.010856
0.25477001 -0.0023274999 0.010831
0.25988001 -0.020094 0.0049633002
0.29087001 0.090115003 0.032116
0.32148001 -0.038968999 0.029122001
0.2911 0.033020001 0.0055658999
0.28413999 0.095431998 0.065590002
0.28483 0.095389999 0.065050997
0.31964001 -0.0048709 0.035002001
0.28691 0.0059433002 0.013104
0.31968999 -0.044070002 0.028341999
0.25817001 -0.045387 0.014612
0.25874001 -0.043345999 0.014576
0.25874999 -0.044744 0.01578
0.29131001 0.0018249 0.0088443002
0.31762001 0.080173001 0.096661001
0.31110001 0.068908997 0.01387
0.26214001 0.010188 0.0094272997
0.32381999 0.062003002 0.057309002
0.32376 0.063144997 0.056621999
0.28749001 0.033171002 0.004133
0.26864001 0.049531002 0.0059643001
0.26943001 0.048942 0.0068831001
0.29516 -0.0031139001 0.00038973
0.29666999 -0.0023713 -8.7531e-05
0.30655 -0.0017435 -0.0088683004
0.30766001 -0.0022291001 -0.0091902995
0.28749001 0.088083997 0.020694001
0.28606999 0.087812997 0.018765001
0.28639999 0.019293999 0.0080736
0.28523999 0.018077999 0.0090891998
0.27285001 0.073448002 0.0063713999
0.27423 0.0070873001 0.0081673004
0.27423 0.0076760999 0.0066490001
0.27601001 0.0084439004 0.0069287
0.26594001 -0.047752999 0.0043182001
0.26543999 0.073642001 0.01375
0.25922999 -0.0044200998 0.0091070002
0.26359999 0.071562 0.049679
0.26159 0.070129998 0.048703998
0.24184 0.062151998 0.020184999
0.29716 -0.0051854001 0.0013303
0.29521 -0.0048330999 0.0011707
0.26785001 0.042748 0.01062
0.26886001 0.044911999 0.010847
0.32201999 -0.0037382999 0.039466001
0.28885001 0.065050997 0.00086882
0.30263001 0.059271 0.0033676
0.29376 0.074519999 0.0042428998
0.26881 -0.024946 0.0019552
0.26855999 -0.024600999 0.0036315999
0.27008 -0.024395 0.0026183999
0.23717999 0.072287999 0.028183
0.25466999 -0.02115 0.014904
0.27103999 0.081886999 0.032187998
0.26179999 -0.043396998 0.013878
0.26245001 -0.043352999 0.013065
0.26069999 -0.044695001 0.012733
0.32356 -0.046952002 0.031860001
0.32302999 -0.045949001 0.030223999
0.26627001 0.015026 0.0099310996
0.2613 0.044948 0.021818001
0.26005 0.044787001 0.023003999
0.25988999 0.045037001 0.022109
0.30309999 0.025017001 0.011897
0.32117999 0.063868001 0.060286
0.32275 0.065629996 0.059659
0.31387001 0.019202 0.028994
0.31286001 0.018720999 0.028124999
0.25703001 0.010212 0.015103
0.31347001 0.017402001 0.030874001
0.30649 0.010241 0.018844999
0.25433001 0.065110996 0.020316999
0.25413999 0.00098794 0.013333
0.30959001 -0.034074999 0.031429999
0.30844 -0.034451999 0.030493001
0.21362001 0.077105001 0.038748998
0.31748 -0.040858001 0.0285
0.31665999 -0.040476002 0.027411999
0.31393 0.053417999 0.018802
0.31393 0.053137001 0.017492
0.22705001 0.077945001 0.033840999
0.22906999 0.077376999 0.036688998
0.2291 0.076309003 0.036649998
0.23293 0.075737 0.031145001
0.23332 0.075612999 0.031550001
0.28349 0.027420999 0.0054519
0.32065001 0.074859001 0.079419002
0.30820999 -0.038453002 0.032411002
0.30789 -0.03968 0.033016998
0.30768001 -0.037686002 0.032628
0.31648999 -0.015694 0.032876
0.31738001 -0.013986 0.035046
0.29260001 0.056570001 -0.00025263999
0.31400001 -0.0059159002 0.028955
0.31505001 -0.0054898998 0.028038001
0.22150999 0.086822003 0.049779002
0.26378 -0.038072001 0.0027600999
0.30722001 0.015804 0.021485001
0.31129 0.080018997 0.097023003
0.30917001 0.082731001 0.096513003
0.31068 0.082234003 0.095556997
0.25698 -0.045129001 0.015961999
0.21945 0.061971001 0.024576999
0.28024 0.089559004 0.043784998
0.25904 0.014024 0.01283
0.28038999 0.029962 0.0066335001
0.31389999 -0.015038 0.032779999
0.31525999 -0.014052 0.033666998
0.29736999 0.086398996 0.018673999
0.2987 0.086883999 0.020057
0.26251 0.043180998 0.018947
0.27362999 0.024474001 0.012552
0.26238 -0.0084159998 0.0095202001
0.23382001 0.057613 0.019950001
0.24459 0.058688998 0.014086
0.3134 0.072206996 0.078437999
0.31428 0.071961001 0.076583996
0.28332001 0.084491 0.011766
0.31679001 -0.049649999 0.024696
0.31626001 -0.050622001 0.023961
0.30669999 0.027843 0.02111
0.32231 -0.052028999 0.028960001
0.24950001 0.064019002 0.020688999
0.24973001 0.062981002 0.020343
0.28917 0.034230001 0.0048731002
0.27228999 0.051731002 0.0014734
0.21844999 0.085474998 0.046929002
0.21648 0.084820002 0.048349999
0.21698 0.085845001 0.048069
0.30601001 0.019959999 0.01935
0.26899001 0.0095178001 0.0061444999
0.27741 0.00036219001 0.010363
0.26242 0.062730998 0.012276
0.26435 0.063074 0.012494
0.27654001 -0.0024608001 0.011869
0.27662 -0.001422 0.011
0.26925001 0.039444 0.012908
0.26912001 0.037363 0.013874
0.25257 -0.049633998 0.012088
0.25163999 -0.049679998 0.011936
0.32663 -0.021358 0.039324
0.25935999 0.067651004 0.024625
0.25935999 0.066932999 0.023227001
0.29938999 -0.0045917998 -0.0058374
0.29936999 -0.0053877998 -0.0037620999
0.30012 -0.0039927 -0.0042862999
0.28613999 0.086998001 0.019175
0.30480999 -0.00043464001 -0.0048166001
0.26159 -0.052694 0.008072
0.25920999 -0.052960999 0.007671
0.30276999 0.079719998 0.013662
0.24436 0.045334 0.020312
0.26295999 0.073682003 0.032449
0.28725001 0.089575 0.026382999
0.24278 0.046994999 0.018796001
0.26245001 0.039306 0.028467
0.26210999 0.039831001 0.028503001
0.26203999 0.041386001 0.028844999
0.32541001 0.057275999 0.058113001
0.29211 0.062031001 -0.0012063
0.30717 0.063000999 0.0079263002
0.33287999 -0.050273001 0.047228999
0.33140001 -0.048643 0.046303999
0.33250001 -0.049543001 0.049153
0.21015 0.072039999 0.042390998
0.24956 -0.051238 0.025247
0.25001001 -0.050209001 0.025199
0.30175 0.052430999 0.0041899001
0.30193001 0.063088998 0.0028341999
0.27489999 0.033057999 0.0099959001
0.27500001 0.032797001 0.0092267999
0.22623999 0.067527004 0.018314
0.29916 0.082737997 0.013238
0.32032001 -0.048904002 0.025769999
0.31996 -0.048524 0.026900001
0.32113999 -0.050012998 0.02792
0.29723001 0.082404003 0.0097155003
0.29859 0.080838002 0.010754
0.26868999 0.079058997 0.025092
0.26839 0.079586998 0.025362
0.26758999 0.085878998 0.050464001
0.25992 -0.026788 0.0045862002
0.26034999 -0.028541001 0.0063201999
0.27135 0.0096495003 0.006515
0.25957999 0.045752998 0.018157
0.29853001 0.062803999 0.0016237
0.29800999 0.062737003 0.0021935001
0.30265 0.084256999 0.026124001
0.30315 0.083107002 0.025041001
0.2272 0.078371003 0.033934999
0.26640001 0.0096452003 0.0064916001
0.25779 0.065517001 0.020218
0.2306 0.073849 0.029012
0.27689001 -0.054761 0.0034099999
0.2895 0.065746002 -0.00051168998
0.22548001 0.061229002 0.017857
0.28296 0.065452002 -0.00055514002
0.32627001 0.057530001 0.069975004
0.32788 0.059714001 0.067910001
0.25374001 0.064479999 0.017719001
0.32179999 -0.048209999 0.029015999
0.32121 -0.046842001 0.028511001
0.32168999 -0.046326 0.029361
0.21269999 0.074960001 0.037370998
0.31884 0.063574001 0.048645001
0.31942001 0.064324997 0.051288001
0.28086999 0.0022924 0.016426001
0.28272 0.0015886 0.017047999
0.28319001 0.0026487 0.018762
0.30476999 -0.021682 0.033952001
0.33221 -0.051121999 0.045589998
0.22113 0.087323003 0.042927001
0.30129999 0.031784002 0.011746
0.28933001 0.082760997 0.0092872996
0.28817999 0.083005004 0.0099603003
0.31276 0.05669 0.013671
0.22204 0.079732999 0.032712001
0.28863999 0.092912003 0.065684997
0.26661 0.075854003 0.016867001
0.26868001 0.076164 0.018654
0.29811999 0.075395003 0.0067805001
0.29848 0.074215002 0.0062889
0.27283001 0.028653 0.014404
0.26949 0.028842 0.01487
0.28704 0.089303002 0.022637
0.24626 0.056857001 0.014002
0.25525999 0.060056999 0.011412
0.25508001 0.058357 0.011665
0.31088999 -0.0032925999 0.025603
0.23689 0.069297001 0.024726
0.32082 0.059718002 0.044484999
0.23425999 0.072374001 0.026399
0.23418 0.071644999 0.027690001
0.28621 0.096542001 0.068015002
0.29692 0.066468 0.0022722001
0.29914999 0.065295003 0.0026012999
0.31126001 -0.048486002 0.025691001
0.32934999 0.068043001 0.077289999
0.33102 0.067599997 0.077293001
0.31832001 0.073036 0.081482999
0.31951001 0.074470997 0.079461001
0.22646999 0.076293997 0.029259
0.21454 0.075589001 0.037955999
0.22155 0.088023998 0.043244001
0.25981 -0.029757001 0.0034632001
0.30138999 0.059799999 0.0041201999
0.30197999 0.061127 0.0029136001
0.32058999 0.049617 0.049848001
0.31843001 0.049345002 0.046783999
0.31979999 0.049787 0.048958998
0.30873001 0.045046002 0.010331
0.30669001 0.044241998 0.0082614999
0.29256001 0.0082222996 0.0068725999
0.27215999 0.079066001 0.011188
0.27287 0.078033999 0.012456
0.29684001 0.044397 0.0067870999
0.27377999 0.057452001 0.0022827
0.27610999 0.048013002 0.0024544001
0.26339 0.077206001 0.049695
0.26277 -0.041924 0.0074951998
0.30068001 0.064395003 0.0017814999
0.25670999 -0.025359999 0.011708
0.32640001 -0.036265999 0.034928001
0.32561001 -0.035303999 0.035101999
0.32578 -0.036309 0.036540002
0.31323999 0.049578 0.019478001
0.2131 0.077619001 0.045008998
0.2509 0.053996 0.013009
0.26512 0.051647 0.0096169999
0.31268001 0.018232999 0.031470001
0.30454001 0.075938001 0.011271
0.3028 0.076035 0.011164
0.32837999 0.070689999 0.079290003
0.29346001 0.0027393999 0.0041621998
0.29372001 0.0029545 0.0034199001
0.24735001 0.055441 0.014513
0.24598999 0.055592 0.015477
0.24751 0.056203999 0.01352
0.31613001 0.051141001 0.026875
0.3145 0.051832002 0.026865
0.31985 0.051146999 0.047499999
0.31081 0.019056 0.025736
0.30149001 0.0011709 0.0015623
0.21945 0.069424003 0.025688
0.30456001 -0.022348 0.038837001
0.28463 0.087153003 0.01505
0.24744 0.062407002 0.018136
0.24668001 0.063373998 0.018319
0.26942 0.058175001 0.0053615998
0.26995999 0.057215001 0.0039913999
0.27395999 0.087072 0.032111
0.23802 0.065159999 0.021256
0.25742999 -0.017131001 0.012877
0.25677001 -0.017354 0.012871
0.26888999 0.021734999 0.014839
0.27511999 0.079744004 0.010981
0.27294999 0.031679001 0.011007
0.28038001 0.0017065 0.012728
0.27862 0.088729002 0.065251999
0.32663 0.06216 0.067998998
0.25171 -0.049054001 0.01194
0.27579001 -0.0032464999 0.01165
0.30498999 -0.018588999 0.041283999
0.30462 -0.018901 0.043593999
0.26984 0.024367999 0.015387
0.30274001 0.073496997 0.0069503002
0.30197999 0.074405998 0.0074225999
0.30385 0.071277 0.0084058
0.29473999 0.04741 0.0056284
0.29635 0.048418999 0.0055749998
0.31342 -0.0071721999 0.030234
0.2419 0.065587997 0.029790999
0.24169999 0.065627001 0.028510001
0.28622001 0.046583001 0.00030955
0.28566 0.046484001 0.00089894002
0.28477001 0.046122 0.0010698
0.27564001 0.069686003 0.0027025
0.30838999 0.078495003 0.025967
0.30724001 0.079046004 0.025626
0.27790999 -0.036819 0.0083732
0.27919999 -0.03537 0.0078031002
0.27678999 -0.036764 0.0085709998
0.30759999 0.024878999 0.019750999
0.26451001 -0.052639998 0.0061969999
0.26392001 -0.052907001 0.0055506998
0.26582 -0.053013001 0.0059133
0.32545999 -0.024325 0.034561999
0.31303999 -0.046785001 0.025121
0.30361 0.024699001 0.014584
0.32264999 0.074832 0.081707999
0.31918001 0.050976999 0.043836001
0.29989001 0.016891999 0.013089
0.32031 -0.015444 0.032878999
0.31979001 0.067441002 0.064149998
0.24122 0.055193 0.016326999
0.29910001 0.025827 0.010545
0.25538 0.087766998 0.048932999
0.25612 0.089612998 0.050115
0.25433999 0.088441998 0.049307
0.29978999 0.030254001 0.0096270004
0.28 0.024943 0.0061197998
0.27928999 0.02595 0.0064977999
0.28670999 0.087076999 0.017245
0.27520999 0.049150001 0.0030594
0.27598 0.049428999 0.0029281999
0.25764999 -0.049713999 0.0081858002
0.23822001 0.066105001 0.024676999
0.22699 0.074176997 0.027512999
0.32813001 -0.044364002 0.045366999
0.32800999 -0.044589002 0.045446999
0.32732999 -0.044968002 0.044702999
0.21882001 0.063551001 0.022078
0.22057 0.063679002 0.022329001
0.23633 0.065999001 0.022979001
0.23997 0.064924002 0.028658001
0.30985999 0.040213 0.014272
0.30436999 0.043327 0.0075327
0.27096999 -0.049408998 0.0019525
0.27044001 0.031491999 0.024171
0.27024999 0.030429 0.022644
0.26809999 0.031539001 0.024744
0.27494001 -0.017268 0.01358
0.27447999 -0.019084999 0.013735
0.28367999 0.090370998 0.059881002
0.24000999 0.069124997 0.030398
0.2394 0.070614003 0.031676002
0.23919 0.069090001 0.030909
0.26662001 0.01517 0.01304
0.3064 0.0020985 0.021971
0.28369999 0.066737004 -0.0011238999
0.30759001 -0.0086148996 -0.010239
0.3073 -0.0096546998 -0.010887
0.24439 0.051017001 0.014797
0.27768001 0.057387002 5.2222e-05
0.27803001 0.053897999 0.0010145
0.28977999 0.028565001 0.0060836999
0.21741 0.064661004 0.026350999
0.27371001 -0.018279999 0.011819
0.31883001 0.049311001 0.046145
0.31751001 -0.042952001 0.028317001
0.31733 -0.042881999 0.028472001
0.31540999 -0.019893 0.030099001
0.31499001 -0.020949 0.029151
0.29155999 0.080115996 0.0045095002
0.26752001 0.080233 0.032607999
0.22233 0.073670998 0.030068999
0.30024001 0.085490003 0.020733001
0.30531999 -0.0019954001 -0.0094234003
0.30745 -0.0026125 -0.010508
0.26157999 -0.026496001 0.0039585
0.26271999 -0.026058 0.0037905001
0.28437999 0.059066001 -0.00083524
0.28400001 0.057521001 -0.00098188
0.24503 0.059601001 0.015736001
0.25336999 0.0067611998 0.020300999
0.25466001 0.0075734002 0.017139001
0.26041001 -0.032198999 0.0052680001
0.26919001 -0.053346001 0.0083587999
0.26205 0.070064001 0.019376
0.24454001 0.062694997 0.018592
0.30127001 0.067254998 0.0024387999
0.30101001 0.064143002 0.0032919
0.32826 -0.046167001 0.044665001
0.30515 0.033498999 0.015063
0.31380001 0.073114 0.086580001
0.31406 0.072649002 0.087445997
0.28467 0.090054996 0.033737998
0.30136999 0.079921998 0.012617
0.3028 0.054717999 0.0042764
0.30746001 0.03441 0.015596
0.32082999 0.077538997 0.096460998
0.29168999 0.05779 -0.0013477
0.28889 0.058217 -0.00043606001
0.27851999 -0.029224001 0.012266
0.27805001 -0.029589999 0.013437
0.27792999 -0.031408001 0.012566
0.26563999 -0.014601 0.0091343997
0.26501 -0.013804 0.0092145
0.21639 0.079741001 0.039901
0.28376999 0.026792999 0.0053436998
0.24029 0.060488999 0.017785
0.24133 0.059826002 0.017725
0.24133 0.060022 0.017314
0.26574999 0.0050817998 0.0049104998
0.28327999 0.014812 0.010303
0.32657 -0.049844999 0.037624002
0.28268999 0.048067 0.0015043
0.29010001 0.094640002 0.066909
0.24323 0.062029 0.017557001
0.30963001 0.059907999 0.0099857002
0.30947 0.059824999 0.0085522998
0.30217001 0.077445999 0.0099215005
0.26255 0.071383998 0.060653999
0.26238999 0.071450002 0.059625
0.26241001 0.071680002 0.060972001
0.25935999 -0.017205 0.01045
0.31092 -0.052577 0.030094
0.30621001 0.077418 0.014885
0.30506 0.077823997 0.014986
0.28388 0.090221003 0.029393001
0.28295001 0.089345999 0.028123001
0.28213999 0.090559997 0.030706
0.31446001 0.058882002 0.017405
0.28141001 0.078353003 0.0050483001
0.27441001 0.068631001 0.0042528999
0.31400999 0.063862003 0.018119
0.27794001 0.028247001 0.0080225002
0.27948999 0.077207997 0.0051369001
0.27871001 0.076476999 0.0047637001
0.22227 0.087963 0.046868999
0.29824001 0.044909999 0.0069053001
0.33203 -0.050237998 0.043494001
0.29822001 0.023375001 0.0098329997
0.31196001 -0.022357 0.030034
0.27090999 0.026504001 0.014111
0.27138001 0.026309 0.014406
0.26131001 0.079080999 0.049396001
0.25971001 0.079870999 0.050703999
0.27566001 -0.045977999 0.002051
0.27156001 0.00056764 0.006329
0.28409001 0.085447997 0.014817
0.26102999 0.064563997 0.015155
0.26177001 -0.037207998 0.0058382
0.26929 0.0084447004 0.0068875998
0.29671001 0.0089389002 0.0089472998
0.29249001 0.090080999 0.028655
0.32077 -0.0072575002 0.037608001
0.32433999 -0.049809001 0.031672999
