# .PCD v0.7 - Point Cloud Data file format
VERSION 0.7
FIELDS x y z
SIZE 4 4 4
TYPE F F F
COUNT 1 1 1
WIDTH 1384
HEIGHT 1
VIEWPOINT 0 0 0 1 0 0 0
POINTS 1384
DATA ascii
0.016380001 -0.071847998 0.0079253996
0.017328 -0.071866997 0.0066490001
-0.0065877 0.029461 -0.0070265001
0.015022 0.041584998 -0.015304
0.029767999 -0.075558998 -0.012816
0.038485002 -0.066230997 -0.037342001
-0.010909 0.015529 -0.0054910001
0.040585 -0.085134998 -0.038511001
0.0129 0.085335001 -0.0053349002
-0.0064483001 -0.072057001 -0.034991998
-0.015632 -0.049446002 -0.0047539999
-0.029375 -0.078884996 -0.038605999
-0.0052180002 -0.083339997 0.033287
-0.0039134999 -0.083276004 0.032933
-0.0039303 -0.081956998 0.032962002
0.0073372 0.052870002 0.0068279002
0.018719999 -0.0077613001 -0.016093999
-0.0039033999 -0.092084996 -0.049488999
-0.0043959999 0.094264001 -0.024984
-0.011455 0.055388 -0.026350001
0.018755 0.01263 -0.011321
-0.015657 -0.032878999 -0.020316999
0.026091 -0.084674999 0.0035867
0.016183 0.031429999 -0.017697999
0.017589999 0.031491 -0.017645
-0.012759 0.041021999 -0.020809
-0.0031361999 0.078001998 -0.0056930999
-0.032781001 -0.089602001 0.0091426997
-0.033020001 -0.090751 0.0077722999
0.041425001 -0.060476001 -0.033713002
-0.0067536002 -0.028756 -0.017089
0.0061479001 -0.086906999 -0.042835001
0.013945 -0.030499 -0.0066708
0.015252 0.042002998 -0.0049337
0.034919001 -0.081988998 -0.036534
-0.014238 -0.036685999 -0.018942
0.015023 0.012986 -0.025291
0.0023638001 0.04425 -0.028752999
0.0034449999 0.045171998 -0.029333999
0.03686 -0.077574998 -0.036268
0.014957 -0.032844 -0.018826
0.00085900002 -0.016348001 -0.0018924
-0.0002259 -0.015154 -0.0019731999
-0.0002212 -0.01644 -0.0019323
-0.019707 -0.063827001 0.0018905
-0.0062173 0.022527 -0.017477
0.0011821 0.067914002 -0.029271999
0.011941 -0.031929001 -0.024677999
0.0076560001 0.031397 -0.0024621
0.0070453999 0.035371002 -0.023662001
-0.0044263001 0.093362004 0.0055443998
-0.0043310001 0.092007004 0.0065279999
-0.022407999 -0.01012 -0.019346001
-0.0058415998 0.095413998 -0.020385999
-0.0085725002 0.052893002 -0.0091294004
-0.013721 0.029041 -0.017522
-0.014458 -0.037106998 -0.0030274999
0.042955 -0.066822 -0.026494
0.011438 -0.021427 -0.023879001
-0.041556001 -0.090843998 0.0010237
-0.012126 -0.086736999 0.039590999
-0.058364 -0.090726003 -0.027594
-0.0078066001 -0.040544 0.0041530002
-0.0084797004 -0.039432 0.0045373999
0.011155 -0.035402998 0.0082516996
0.0099227997 -0.035519 0.0087639
-0.0040738001 -0.086002998 0.043377999
-0.017073 -0.035730001 -0.013597
0.0064432998 0.036968 0.0012862
-0.0033114001 0.043260999 -0.024506001
0.011098 0.066739 -0.0061218999
0.010767 0.065387003 -0.0049473001
-0.013709 -0.034286998 -0.023395
-0.026627 -0.079575002 -0.036752
-0.026829001 -0.079017997 -0.037450999
0.013624 -0.077059999 0.013964
-0.046840999 -0.085844003 -0.022621
-0.011113 0.018828999 -0.0045921002
-0.0052586999 -0.039030999 0.0075818002
-0.0050792 -0.024002001 0.0021845
-0.020307999 -0.064414002 0.0027340001
-0.0064301998 0.030492 -0.0035178
-0.0029175 0.034045 -0.022547999
0.0072431001 -0.06825 -0.032203
0.0083601996 -0.068678997 -0.032159999
0.010653 -0.029436 -0.024646999
0.022053 0.055167001 -0.01833
0.0070484001 0.019867999 -0.0011742
-0.0092840996 -0.059238002 0.02235
-0.011656 0.045825001 -0.0034056001
0.0023987 -0.086972997 0.045938
0.0071703 -0.0060206 0.0039522001
-0.0047065001 0.035592999 -0.0039822999
0.018327 0.051201001 -0.005225
-0.01532 0.044082001 -0.025145
-0.017832 0.011041 -0.025106
-0.018593 0.010865 -0.024614999
-0.025497001 -0.076877996 0.0012392
0.025225 -0.058240999 -0.0099385995
0.024527 -0.058660999 -0.010279
-0.0052429 -0.0063049002 -0.022831
-0.0045503001 -0.005039 -0.023150999
-0.0043766 -0.042199001 -0.028132999
-0.001426 -0.035200998 0.009881
0.0061434 0.041538 0.0079584001
0.02234 -0.01135 -0.028444
0.02203 -0.012572 -0.028491
0.017442999 -0.047828 -0.0035389999
-0.0041948999 0.0024414 0.0129
0.0069837999 0.077160001 -0.028439
0.016215 0.035262 -0.01918
-0.014143 0.034403 -0.023495
-0.021242 -0.069522999 0.0012737
-0.021226 -0.070560999 0.0012516
0.014957 0.0076608001 -0.029913001
-0.014066 0.041538 -0.020386999
-0.015247 0.040279999 -0.020858999
-0.017883001 -0.017976001 -0.021485999
0.041646 -0.094164997 -0.049414001
0.03892 -0.057831001 -0.028561
-0.011623 0.071906999 -0.011685
-0.00059394003 0.022360001 0.0017488
-0.0094868001 0.051679 -0.011558
-0.0048427 0.037037998 -0.021695999
-0.0042801001 0.036858 -0.021798
0.017586 0.053002 -0.0049522999
0.011286 -0.066711001 0.021872999
0.0062201 -0.016323 0.010587
0.0057516 -0.023367999 0.0048954999
-0.0028003999 0.10075 -0.017527999
-0.025563 -0.069185004 -0.039074
0.0082289996 0.077910997 0.0055431002
0.018021001 0.046062 -0.027014
-0.010232 -0.089603998 0.048353001
-0.0092770997 -0.089939997 0.048238002
-0.011215 0.033705998 -0.021829
-0.0081335995 0.028802 -0.024318
-0.019172 -0.060350999 -0.0086575998
0.011251 0.10071 -0.016216001
0.0098965 0.10045 -0.016302999
0.020314001 -0.058024 -0.015093
-0.0086991005 -0.058812 0.014158
-0.0093015004 -0.058488999 0.0143
0.014962 -0.032449 -0.0036791
0.016293 -0.032425001 -0.0023002001
0.016248999 -0.032446999 -0.0036408999
-0.017337 0.050381999 -0.019053999
0.019889001 -0.084423997 -0.035404
-0.01483 -0.093029998 0.045607001
-0.0022787 -0.0072432002 -0.025358999
-0.0026491 -0.031539999 -0.024972999
-0.0027162 -0.031946 -0.026379
-0.0065509998 -0.075612999 0.034371
-0.0052712001 -0.075723998 0.033218998
-0.0063799 -0.075464003 0.033252999
-0.036777999 -0.074964002 -0.019151
0.0016341 -0.016205 -0.00038476
-0.0064621 -0.060823001 0.0091049001
-0.0065418999 -0.060621001 0.010566
-0.0019521 0.026152 2.0428e-05
-0.0072945999 -0.061517999 0.023553999
0.0062083001 0.060396999 0.0065668002
-0.00090977998 0.022836 -0.00061776
-0.012811 -0.0044471999 -0.0093981
-0.016628999 -0.045359999 -0.0059843999
0.010537 -0.090446003 -0.04713
-0.037696999 -0.093304001 -0.0093227997
-0.017086999 -0.036493 -0.0048032999
-0.016943 -0.035654001 -0.0049640001
0.050376002 -0.086116001 -0.027628001
0.0026593001 0.097823001 0.0057816999
-0.0062636002 -0.044000998 -0.026039001
0.011972 -0.063821003 0.023913
0.012087 -0.062985003 0.024052
0.0060871001 0.031055 0.0044694999
0.034935001 -0.088159002 -0.043125
0.018767999 -0.036219999 -0.02014
0.00025508 -0.017725 -0.021694001
-0.020393001 -0.055399999 -0.033973001
-0.021635 -0.055381998 -0.033950999
0.01479 -0.088279001 -0.045279998
0.0022612 0.018918 0.0015403
0.00088065001 0.01908 0.0019477
-0.019823 -0.071300998 0.0013313
0.040718999 -0.087196998 -0.043416999
-0.00066923001 -0.05931 0.028949
0.036433998 -0.061652001 -0.024832999
0.011299 0.065486997 -0.022578999
0.02014 -0.09347 -0.041561
0.020562001 -0.094398998 -0.040329002
-0.045593001 -0.082970001 -0.030387999
0.011655 -0.022846 -0.021601001
-0.010942 -0.092386998 0.050551001
0.021384999 0.0062290998 -0.0010426
0.0054162 -0.031801 -0.025853001
0.02342 -0.08749 -0.032120999
0.0074479999 -0.065697998 -0.033519
0.024530999 -0.002229 -0.028413
0.052333001 -0.091326997 -0.038710002
0.012385 -0.093369 0.016913
0.04391 -0.093378 -0.021307999
0.045223001 -0.094246 -0.021613
0.045414999 -0.093336001 -0.021516001
0.0083007999 0.049327001 -0.00077018002
0.018678 0.095784001 -0.014094
0.019535 0.095751002 -0.014272
-0.0077454001 0.020311 -0.0046907002
-0.0079127997 0.021093 -0.0045973998
0.0033756001 0.051993001 -0.021748001
0.027959 0.0089592002 -0.015946999
0.028146001 0.0074236998 -0.015860001
0.022179 -0.061104 -0.0022917001
-0.02465 -0.080381997 0.0038846999
0.036322001 -0.067952998 -0.015382
0.0011811 0.097411998 0.0079875002
0.0023930001 0.097910002 0.0075821001
0.0044688 0.08117 -0.023347
0.022892 0.049105 -0.016239
0.0048182001 -0.078112997 0.037361
0.0049561998 -0.079271004 0.037110001
0.0053655999 -0.078247003 0.037765998
-0.041992001 -0.090919003 -0.0025638
0.019252 -0.052623 -0.0072710998
0.016152 -0.0060864999 -0.00078613003
-0.014855 0.073352002 -0.023367001
-0.0089598997 -0.0088042002 -0.020055
0.00071143999 0.039014 -0.024112999
0.011011 0.012674 0.01038
0.032632001 -0.086972997 -0.0084389001
0.0065724002 0.020261001 -0.00055837003
0.0065636002 0.020815 -0.00043874001
0.043577999 -0.060230002 -0.028375
-0.013795 -0.0093087004 -0.02813
-0.012024 0.073412001 -0.024305001
0.019516001 0.051335 -0.023933001
0.019531 0.051100001 -0.024814
-0.0077746999 0.080545999 -0.016551999
-0.0089814002 0.080600999 -0.017387999
-0.020881001 -0.074074998 -0.03545
-0.021167001 0.0088772997 -0.017663
0.01085 -0.030485 -0.016764
-0.0057550999 0.081414998 -0.00031621999
-0.03427 -0.058061 -0.029356999
-0.035092 -0.058389999 -0.029432001
0.012885 0.034035001 -0.023359001
-0.019417999 0.01164 -0.016136
-0.010464 -0.070459001 -0.035783999
-0.01526 0.041540001 -0.020377001
-0.0060434998 -0.064677 0.029398
0.0037795999 0.059057001 -0.025072001
0.0041113002 0.060405001 -0.024793001
-0.0028013 0.0038185001 0.015730999
-0.002199 0.0032718999 0.016132999
-0.035913002 -0.070638001 -0.031638999
-0.036322001 -0.070298001 -0.031222001
0.020555999 -0.01336 -0.027667001
0.020818001 -0.013504 -0.026911
0.020141 -0.046728998 -0.016235
0.020492001 -0.047548 -0.016599
0.0036825 -0.066526003 -0.033751
0.011529 -0.030075001 0.00010483
0.012027 -0.030539 0.00017626
0.0082713999 -0.0087360004 -0.025198
0.018071 -0.055879001 -0.00061023002
0.0023233001 0.059188999 0.0081411004
0.0036269 0.059292998 0.0078659998
0.002445 0.060307 0.0084333997
0.0049697999 -0.065641001 -0.033829
-0.029219 -0.076755002 -0.038040999
-0.029472999 -0.077091999 -0.038778
-0.012573 -0.088339999 0.029472001
-0.0026699 -0.035464 -0.029886
0.0086449003 -0.060408998 0.024294
-0.038371 -0.091026001 -0.0077403998
0.0083128 -0.0022958999 -0.025792001
0.0049800999 0.08309 -0.022430001
0.02145 0.044112999 -0.018983001
0.020129001 0.044137001 -0.019691
0.013794 0.039019 -0.0073782001
0.013212 -0.071902998 0.015098
-0.039359 -0.072149001 -0.031468999
-0.040185999 -0.072301 -0.031941999
-0.040247999 -0.073192999 -0.031488001
0.042383 -0.090410002 -0.047269002
0.018749001 0.011251 0.0017903
0.047981001 -0.092104003 -0.022086
0.049132999 -0.093360998 -0.022791
0.049378999 -0.092118002 -0.022459
0.0062186001 -0.058219001 0.023231
-0.015358 -0.019205 -0.010966
-0.016267 -0.018502999 -0.010422
0.00065017998 -0.011608 0.0098109003
0.012811 -0.094644003 0.044535998
0.013959 0.01592 -0.016972
-0.0090308003 -0.061664 -0.033744998
0.003614 0.081878997 -0.022947
0.021265 -0.055647999 -0.0099531002
0.013192 0.083093002 -0.0075869001
0.012465 0.083272003 -0.0075039002
0.025257999 -0.0077755 -0.017338
-0.010518 -0.089492999 0.012235
-0.0072881002 -0.0088184997 -0.0021480001
0.0035015 0.083302997 -0.022596
0.0083732 0.026153 -0.019404
0.0080203004 0.025908999 -0.019402999
0.030223001 -0.086213 0.004125
0.029596001 -0.086410999 0.0034057
0.028922001 -0.086222 0.0040865
-0.026569 -0.076831996 -0.036920998
-0.027434001 -0.076623 -0.036977999
0.0036305001 0.10036 -0.019156
-0.0029165 0.047786001 -0.022585999
-0.0024514999 0.047986999 -0.021597
-0.0026942 -0.072398998 0.034474
0.0085695004 -0.035521999 0.0089816004
0.035765 -0.079917997 -0.020888999
-0.0112 0.001448 0.001069
-0.0026638 -0.015131 0.001437
-0.0035681 -0.015028 0.0020738
-0.013337 0.050099999 -0.024413001
0.020576 -0.056697 -0.015788
0.0078558 0.016623 -0.023769001
-0.03049 -0.058244999 -0.022211
0.010521 -0.045611002 -0.026676999
-0.0035087999 0.090815 0.0014598001
-0.023458 -0.094646998 0.019950001
-0.036292002 -0.079365 -0.041474
-0.0043935999 0.018317999 -0.0030266
-0.0043596998 0.01798 -0.0030312
-0.017564001 -0.037836 -0.0049510002
0.023813 0.012315 -0.014933
-0.020106999 -0.078326002 0.013895
-0.020986 -0.07886 0.013557
-0.0055284998 0.033891 -0.0057644001
-0.0052792002 0.032930002 -0.0057198
0.025583999 -0.0089045996 -0.026934
-0.024817999 -0.080370001 0.0083825001
-0.039163999 -0.072443999 -0.035068002
0.0024415001 -0.041625999 0.0088534001
-0.0083132004 0.040025 -0.014684
0.0048870002 -0.069269001 0.038180999
0.00611 -0.069288 0.038284
-0.0058776001 0.066214003 -0.024307
-0.035493001 -0.090102002 0.0072277999
-0.048094001 -0.083311997 -0.031438001
0.0045282999 0.065269001 -0.0017322
-0.0044123 0.056244001 -0.025948999
0.013733 -0.065766998 -0.032588001
0.013394 -0.066214003 -0.031907
-0.0065445001 -0.082009003 0.033068001
0.028613999 -0.063689999 -0.0092281001
0.023761 0.011171 -0.026366999
-0.0062521002 -0.030230001 -0.025861001
0.016059 0.035347998 -0.018037001
0.017333001 0.035151999 -0.018103
-0.035557002 -0.074336998 -0.022644
0.020002 -0.032637 -0.016321
0.018823 0.049082998 -0.020318
0.0065347999 0.041106001 -0.023031
0.010868 -0.028074 -0.0033394
-0.039326999 -0.091890998 -0.019354001
0.0048715998 0.10001 -0.016306
0.0061440002 -0.027721001 0.0024723001
0.017453 0.073095001 -0.023869
0.021573 -0.032710999 -0.015065
0.0086212996 -0.05872 0.023587
0.007311 -0.058983002 0.023218
0.0014495 -0.016153 0.013852
-0.047129001 -0.089624003 -0.021430001
-0.014641 -0.094531 0.047183
0.020494999 -0.046519 -0.015175
0.042964 -0.066878997 -0.020936999
-0.014608 0.055473998 -0.023010001
-0.043437999 -0.065440997 -0.029091001
0.014651 0.099207997 -0.024679
0.012921 0.022648999 -0.018903
-0.013715 -0.0038085999 -0.0047725001
0.010373 0.013001 0.011816
0.0096923998 0.013429 0.011719
0.00235 0.0025348 0.016301
-0.0036106 0.064218998 -0.0047817002
0.011212 0.064268 -0.0084336996
0.011231 0.098484002 -0.0049307998
0.011278 0.097075 -0.0049811001
0.035746001 -0.062537998 -0.021963
-0.010271 -0.039053999 0.0013298
0.0085826004 -0.022582 0.010253
0.018885 0.090887003 -0.014568
-0.010777 0.046293002 -0.013533
0.0091824001 0.079387002 -0.024607001
0.0075984001 0.092290998 -0.020321
0.0072265002 0.093475997 -0.02091
0.0075571002 0.093162 -0.020489
0.0137 0.088269003 -0.0052001998
0.014816 0.088312998 -0.0047439998
0.0035892001 -0.034049999 0.010086
-0.014081 -0.093124002 -0.042815
-0.0076413001 0.0050088 -0.028884999
-0.0089955004 0.0050769998 -0.028682999
0.017956 -0.0079229996 -0.015844001
-0.0078576999 -0.023929 -0.018827001
-0.0077169002 -0.094448 -0.049578998
-0.0076390998 -0.093304001 -0.049603999
-0.031337 -0.076577999 -0.039577
0.0020184999 -0.012617 -0.00070719997
0.0099376999 0.061726999 -0.0027691
0.0095905 0.0061315 0.015013
0.010245 0.0056332001 0.014799
0.010206 0.0064413999 0.01457
-0.018433999 0.0068564001 -0.014598
0.025103999 0.0075516002 -0.027752999
0.024560001 0.0075439001 -0.028419999
0.017072 -0.013883 -0.009172
0.013423 -0.02648 -0.0144
0.0036150001 -0.060008001 -0.029243
-0.014146 -0.041475002 -0.020109
0.0075885002 -0.0077606998 0.0077054002
-0.0085693002 -0.0064583002 -0.0054259999
-0.018343 -0.013368 -0.025798
0.010849 0.072071999 -0.0041121999
0.010014 0.071975999 -0.0036179
0.010119 0.071310997 -0.0042599002
-0.0014097 -0.075675003 -0.038077001
-0.0016801 -0.076268002 -0.038511999
-0.0091174003 0.0012412 -0.028576
0.026425 0.011544 -0.020091999
0.027272999 0.010951 -0.019962
0.012425 -0.05178 -0.024993001
0.0080116 0.072669998 0.0053874999
-0.0075965999 -0.086754002 -0.045793999
-0.0078903995 -0.087269001 -0.046142999
0.012412 -0.041533001 -0.024904
0.011424 -0.041483 -0.025247
-0.024278 -0.075521 0.00064649998
0.016533 -0.090887003 -0.046579
0.016894 -0.090017997 -0.046092998
-0.041444 -0.090763003 -0.0056012999
-0.011175 -0.080169 0.02516
-0.011623 -0.079859003 0.025718
-0.0014677 -0.084457003 -0.041652001
-0.032777999 -0.085049003 0.0039447998
-0.033355001 -0.085282996 0.0029253
0.0018929 0.091922 -0.022608999
-0.002142 -0.030971 0.0033398999
-0.013661 -0.031922001 -0.023275999
0.01073 -0.018435 -0.026908001
-0.0075861998 -0.0087564001 0.00030759
-0.0065877 -0.010054 0.0014562
-0.021064 -0.072195001 -0.0015784
0.0049099 0.013696 0.011825
-0.0041951002 -0.049123999 -0.027647
0.011335 0.099613003 -0.0052021001
0.0023566 0.075638004 0.0067236
-0.030377001 -0.064351 -0.015315
0.012269 0.022663999 -0.0060148998
-0.015866 -0.041221 -0.017765
-0.015555 -0.040194999 -0.017578
-0.0013687999 0.049222 -0.021351
0.0074187 0.061845001 0.00016756001
0.0080479998 0.061388001 0.00083397003
0.026187001 -0.090833001 -0.034145001
-0.0090913996 0.060509998 -0.01091
0.013756 -0.010586 -0.020144001
0.0014624 0.082267001 -0.023288
0.0013539999 0.083098002 -0.023401
0.01379 0.061829001 -0.012447
0.044050999 -0.088596001 -0.021814
0.022744 -0.013832 -0.028116001
0.015403 0.015489 -0.013251
-0.0036198001 -0.032460999 0.0097660003
0.016922999 0.017735999 -0.015283
0.020053999 -0.055443998 -0.025303001
0.020024 -0.066973001 0.0039769998
0.0021939001 -0.0087714996 0.015857
0.0054382998 0.10043 -0.023281001
0.0098521002 0.050407998 -0.026435999
0.031869002 -0.089910001 -0.041104998
-0.014306 0.0037952999 -0.0049318001
0.016124999 -0.0040948 -0.0046254001
-0.024195001 -0.060244001 -0.038539998
-0.0055820998 0.035450999 -0.0057573998
0.0076468 -0.059916001 -0.030378001
-0.042739999 -0.066510998 -0.031172
0.011827 -0.025629001 -0.021415001
-0.021748001 -0.063989997 -0.0034547001
-0.018529 -0.069522001 0.0060199001
-0.016612999 -0.031629 -0.015022
-0.015317 -0.031709999 -0.015002
0.015486 0.070625 -0.023417
-0.00062488997 0.077936999 -0.021785
0.013311 0.039347999 -0.020405
0.012953 0.020570001 -0.0046485001
-0.0026556 0.10069 0.00049076002
-0.003088 0.099569999 0.0014244
0.0062544998 -0.089446999 0.047366001
0.0061594001 -0.088334002 0.047221001
0.041416001 -0.068203002 -0.028902
0.040973 -0.068489999 -0.029704001
0.0088440003 0.079180002 -0.0023985
-0.010357 0.079697996 -0.018781999
0.049063001 -0.090737998 -0.022415999
0.036088001 -0.059323002 -0.017515
0.044277001 -0.081253998 -0.024557
0.043745998 -0.081413999 -0.024481
-0.032474 -0.058217 -0.015419
0.026944 0.00013664999 -0.016918
-0.012406 0.057146002 -0.011844
0.019056 -0.057358999 -0.030356999
-0.0039488999 -0.018903 0.0023223001
0.043497998 -0.076091997 -0.029725
0.042847 -0.075531997 -0.028971
-0.010596 -0.006025 -0.026286
0.0058812001 0.039271001 -0.022098999
-0.015454 -0.050425 -0.0099796997
0.0078667002 0.097456999 -0.0014413
0.0074743 0.042821001 -0.0043612001
0.0072423001 0.042918999 -0.0040914998
-0.0054720999 0.0027325 -0.028228
-0.0054211998 0.0032369001 -0.028278001
0.0069558001 -0.00078309001 0.016184
0.0061030998 -4.0325001e-05 0.016712001
0.017963 0.0050189001 0.00076232001
0.011231 -0.042884 0.0036299
0.021342 -0.064236 -0.0010797
0.0093194004 -0.088500001 0.046778999
0.0095044002 0.055417001 0.00033626001
0.0096767005 0.056738 0.0014344
-0.052101001 -0.088225998 -0.023816001
0.019128 -0.091077998 -0.04442
0.018719999 -0.090800002 -0.045391001
0.0053357002 0.038003001 0.0011718
-0.0092797 0.065782003 -0.01613
0.017734 0.044158 -0.020408999
0.017553 0.042782001 -0.020191999
-0.037957001 -0.081951998 -0.030045999
-0.037046999 -0.081859 -0.031468999
-0.027891999 -0.065330997 -0.039533999
0.003395 0.05517 -0.024635
-0.016099 -0.082754999 0.014765
0.0047817999 -0.015191 0.015329
0.0057621999 -0.015086 0.015063
0.0031138 0.045704 0.0046536
0.016013 0.029175 -0.021278
0.016595 0.030253001 -0.021391001
0.012203 0.059289001 -0.0074025001
-0.040472999 -0.084097996 -0.030820999
-0.0039606998 0.049118999 0.0066650002
-0.010937 -0.031858999 0.0061196
0.0095012002 -0.021455999 0.0089595001
-0.030928999 -0.084331997 0.00072970998
0.013692 -0.054547001 0.0052851001
0.014605 -0.054703999 0.0050710002
-0.010927 -0.077803999 -0.037762001
-0.010133 -0.077077001 -0.038977999
-0.013323 -0.088941999 0.043315999
0.00095860002 0.037719999 0.0053371
0.013097 -0.094426997 -0.0081711002
-0.027791001 -0.087471001 0.013976
0.0018644 -0.038718998 -0.027166
0.022220001 -0.033759002 -0.013742
0.022047 -0.033695001 -0.01496
0.022084 -0.032892998 -0.01483
0.0036187 0.014011 0.00014004001
-0.0067540999 -0.017720001 -0.022985
-0.0071752002 -0.016724 -0.022309
-0.0090041002 -0.080588996 0.034478001
-0.0094939005 -0.080609001 0.035292
0.0085554002 0.078309998 -0.0061293002
0.0096175997 -0.094494 0.024408
-0.024189999 -0.090897001 -0.035466999
-0.012462 0.066621996 -0.019161999
-0.01237 0.068065003 -0.019211
-0.0091171004 -0.031502001 -0.018854
0.0086062998 0.013844 0.010397
-0.01406 0.013434 -0.02263
0.019402999 0.044075999 -0.021981001
-0.017955 -0.080813996 -0.033766001
-0.018866001 -0.081396997 -0.033557002
-0.012809 -0.031688001 -0.022611
-0.0077399001 -0.015134 -0.0057465001
0.027203999 -0.089835003 0.019051
-0.0043139998 0.043988001 6.9283997e-05
0.01871 0.054117002 -0.023897
0.019090001 0.052852999 -0.023907
0.018843999 0.052907001 -0.02516
0.012267 0.017666001 -0.01891
-0.015319 -0.0037767999 -0.013856
-0.016576 -0.0034979 -0.014149
-0.016727 -0.0041287998 -0.014538
-0.013095 -0.049348999 0.002906
-0.030378999 -0.055923998 -0.016573999
-0.029196 -0.055856001 -0.016509
0.014895 -0.069572002 0.01039
0.015104 -0.070538998 0.01042
-0.0037420001 0.045407999 -0.022436
-0.0036019001 0.046447001 -0.022893
-0.012916 0.093339004 -0.025149999
-0.012448 0.093229003 -0.026074
0.036284 -0.072141998 -0.022744
-0.020666 -0.071130998 0.00017689
-0.020865999 -0.071106002 -0.00083808001
0.017797001 0.089752004 -0.022117
-0.025379 -0.094562002 -0.035640001
-0.027548 -0.094833001 -0.037085999
-0.0072527002 -0.021369001 -0.01791
-0.041848999 -0.062231001 -0.028264999
-0.045526002 -0.084994003 -0.023122
0.020587999 0.05215 -0.019428
0.0085471999 -0.060555 -0.033466
0.032637 -0.089510001 -0.0086410996
-0.020626999 -0.074027002 0.0053226999
0.020865999 -0.047063001 -0.014891
0.020850001 -0.047214001 -0.01572
-0.018648 -0.034217 -0.0074320999
0.016563 0.081193 -0.011767
-0.032489002 -0.071996003 -0.039561
-0.035879001 -0.079737 -0.020059001
0.012474 0.014229 -0.023964999
0.0099833999 -0.057952002 -0.027317001
0.014576 0.041189 -0.024088999
-0.0048107998 0.062949002 0.0047942
-0.0054079001 0.063098997 0.0042237998
0.017643001 -0.030221 -0.013817
0.017821001 -0.030102 -0.012496
-0.0063477 0.061797 -0.0063089002
-0.011376 -0.081951 -0.040107999
-0.017541001 -0.073252998 -0.035808001
0.012042 -0.088873997 0.037326001
0.030073 -0.075680003 -0.037966002
0.019718001 -0.040243 -0.013387
0.016768999 -0.013772 -0.013085
-0.018583 0.037866998 -0.023827
-0.01278 0.0012622999 -0.029905999
0.0098762 0.071488 -0.021209
0.017084001 0.015349 -0.0038258
0.037239999 -0.068893 -0.016511999
0.036929 -0.068355002 -0.015881
-0.022391001 -0.073709004 -0.0016543
-0.02296 -0.074082002 -0.0011354
-0.0088010998 -0.060006998 0.010284
-0.0031973 -0.092046998 -0.049006
-0.015208 -0.047820002 -0.0010659
0.0072617 0.093257003 -0.002353
0.0069276998 0.093979999 -0.0020766
0.01368 -0.032442 -0.0024144
0.020274 -0.051658001 -0.010022
0.020540001 -0.050416 -0.0099432999
-0.0043464 0.082043998 -0.02124
0.017413 -0.051626999 -0.0023964001
0.0096274 -0.025358001 -0.025333
0.0094208 -0.024411 -0.025490001
0.041397002 -0.070593998 -0.023677001
-0.018332001 0.0026127 -0.027911
0.010436 0.082777999 -0.0053543998
0.012584 0.059211001 -0.027489999
-0.0013666 -0.055287 0.019428
0.010099 0.085529998 -0.0010531
0.0050373999 0.10027 -0.01206
-0.015587 -0.054485999 -0.025074
0.011117 -0.027858 -0.022636
-0.010535 -0.088744 0.047885001
-0.011565 -0.089433998 0.047430001
-0.0089196004 0.032763001 -0.025277
0.016561 -0.069021001 0.0057266001
0.013914 0.054072998 -0.0103
-0.016076 0.010962 -0.0014293001
0.0036035001 0.019923 -0.026538
0.017581999 0.053047001 -0.0059976
0.0061059999 -0.070299 -0.033659
-0.031863999 -0.067769997 -0.041607998
0.0087796999 0.071759 -0.021176999
-0.038626 -0.082889996 -0.029518001
-0.038577002 -0.081992 -0.029193001
0.0051897001 -0.074623004 -0.035213001
-0.017991999 -0.065536 0.006488
0.0086874003 0.10053 -0.0035778999
-0.011541 -0.07322 0.024463
-0.00050626998 0.018092001 -0.0031393
-0.0078841001 0.0088540995 -0.029385
-0.0073910998 0.0074967002 -0.029712001
-0.021867 -0.075194001 0.00073971
-0.0092639001 0.023907 -0.014533
-0.0090811001 0.025216 -0.014501
0.045363002 -0.094259001 -0.049031001
-0.0027822 -0.032017998 0.0065627
-0.0026741 -0.031948 0.0079274997
0.0060589002 0.079193003 0.0051648002
0.033082999 -0.085975997 -0.038624998
0.033930998 -0.088201001 0.0041693999
0.0087161995 -0.023817999 0.0067189001
-0.041271999 -0.081688002 -0.025633
-0.041806001 -0.081540003 -0.025498001
-0.019177999 -0.056441002 -0.031513002
-0.0029360999 0.079037003 -0.023848001
0.017503001 -0.032545 -0.016271999
0.018735999 -0.032602001 -0.016277
0.0099553 0.067016996 -0.0038645
0.010476 0.066398002 -0.0044728001
0.016608 -0.0058022002 -0.0053916001
0.016194999 -0.0063503999 -0.0060832999
-0.047013 -0.089717999 -0.046567999
-0.045618001 -0.08952 -0.046730001
-0.0071236999 0.030258 -0.0082446998
-0.0078737 0.029485 -0.0083638998
-0.019012 -0.086994998 -0.031830002
-0.023348 -0.076543003 -0.035870999
-0.0099836998 -0.086877003 0.0156
-0.014197 -0.072250001 0.011679
0.0073686 0.050395001 0.0071846
0.0039105001 0.081233002 0.0033197
0.0137 0.014915 -0.022655001
-0.0069281999 0.078203 -0.013947
0.0065317 -0.067433 0.037712999
-0.035057999 -0.078938998 -0.016759001
-0.0093095005 -0.059882 0.024014
0.0011034 0.049488001 -0.025119999
0.023672 0.011091 -0.0098834997
-0.01254 0.095831998 -0.025103999
-0.014664 0.0022845 -0.010063
0.00012226999 -0.031264 -0.00063879997
0.0040361001 -0.065076001 0.026541
-0.0064734002 0.099950001 -0.012492
0.022260001 -0.0010596 -0.030059
0.023943 -0.0011969 -0.029114
0.02269 -0.0013838999 -0.029317999
0.015254 0.066858001 -0.0083363
0.003581 -0.080558002 0.033392001
-0.0051807002 0.050457001 -0.0023833001
-0.013585 -0.08828 -0.038897999
0.022761 -0.0087764002 -0.028165
-0.0092056999 0.031472001 -0.01123
-0.0095539996 0.031528998 -0.01001
-0.013647 -0.089501001 0.033411998
-0.010339 -0.076063998 0.024338
0.021715 0.072585002 -0.015864
-0.015233 -0.010332 -0.021235
0.012012 -0.017664 -0.020133
-0.031380001 -0.090907998 0.015094
-0.016578 -0.094534002 0.015683001
-0.015852001 -0.094690003 0.01503
-0.015911 -0.093487002 0.0149
0.0069521 -0.050604999 0.0067571001
-0.031096 -0.094711997 -0.014341
0.023295 0.089708 -0.018573999
0.0071696001 0.083146997 -0.023948999
0.0069419998 0.083952002 -0.024459001
0.0064794999 0.084025003 -0.024204999
0.012493 -0.040293999 0.0066294
-0.0062417001 -0.0076214001 -0.0050332998
-0.045991998 -0.080287002 -0.023136999
0.0085140001 0.10034 -0.015118
0.025738001 -0.0043115998 -0.027047001
0.011195 0.039092999 -0.0046162
0.012267 0.039128002 -0.005039
-0.039496999 -0.057774 -0.031122999
-0.039324999 -0.058320001 -0.030719001
0.0045121 -0.032357 0.0043933
-0.035985999 -0.083002999 -0.034116998
0.010946 0.093942001 -0.0066839
0.023768 -0.071148001 -0.0013979001
0.020019 0.051594 -0.019897999
0.043501999 -0.065440997 -0.029751999
0.022614 -0.035130002 -0.01132
0.0085003003 0.012347 -0.031234
-0.010821 0.067289002 -0.018232999
-0.0039392998 -0.031934001 0.0090250997
0.0087756002 0.055378001 -0.0033429
-0.00064357999 0.012721 -0.023466
-0.0064703999 -0.064175002 -0.035436999
-0.0055407002 -0.063643001 -0.035149999
0.018391 0.026520001 -0.014974
-0.0015554 0.023891 -0.0035308001
-0.0011857999 0.024482001 -0.0043624998
0.00031949999 0.00027553999 0.016302999
0.01545 -0.047653001 0.0034437
-0.0030749 -0.075508997 0.034504
0.0093953004 -0.066232003 -0.032497
0.0099066002 -0.066725999 -0.031709
0.0062221 0.084146999 -0.02507
0.037622999 -0.062528998 -0.037579
0.00063656998 0.037376001 -0.020541999
0.0073287999 0.094522998 -0.02146
0.0094341002 0.075335003 -0.0206
-0.037571002 -0.074579 -0.036042001
-0.038079999 -0.076007001 -0.036440998
-0.0052061002 -0.039583001 0.0070507
0.027503001 -0.094531 0.020252001
-0.022174999 -0.075283997 0.0055465
-0.011373 0.072127998 -0.027636001
0.018691 -0.060525 -0.003583
0.018119 -0.060300998 -0.003061
-0.0027363 -0.070164002 -0.035253
-0.0072618001 0.093341 -0.015823999
-0.0074149002 0.093355998 -0.015127
-0.013817 -0.058708001 -0.028448001
-0.012807 -0.058917999 -0.028679
0.012719 0.078156002 -0.0089501999
0.022544 0.0075472002 -0.030139999
0.0046649999 0.0051004002 -0.031385999
0.010432 -0.016341999 -0.016069001
0.010555 -0.015382 -0.016063999
0.012736 -0.092015997 0.042082001
0.0022797999 0.095732003 -0.023052
0.018480999 -0.091063 -0.046222001
-0.041841 -0.063142002 -0.02258
0.0041943998 0.071621999 -0.028279001
0.01298 -0.091819003 0.043453999
0.00122 0.097409002 0.00067103998
-0.0074958 0.093367003 -0.014045
0.0087355003 0.097162001 -0.02225
-0.023709999 -0.057461999 -0.015002
-0.0081016002 -0.028876999 -0.024207
0.0011524 -0.037907999 0.0088996999
0.023539999 0.095884003 -0.017579
0.014866 0.059296001 -0.027667999
-0.039409999 -0.061691999 -0.026357001
0.014584 0.050613001 -0.00032342001
0.0087484 0.070835002 -0.0032323
-0.023259001 -0.057673 -0.036880001
-0.0024784999 -0.038757 -0.0277
-0.0039189998 -0.079333 -0.040516
-0.0087970002 0.074385002 -0.0098730996
0.014909 0.015082 -0.0024258001
-0.0084456 -0.066071004 0.026389999
-0.0090685003 -0.066496998 0.026922001
0.054611001 -0.08901 -0.026141999
0.055197999 -0.089470997 -0.026436999
-0.013256 -0.051642999 -0.0021987001
-0.025797 -0.069369003 -0.0087048002
0.010188 0.036281001 -0.019331999
0.033512 -0.081941999 -0.039158002
0.0069227 0.092950001 -0.0033160001
0.046271998 -0.075714998 -0.027236
0.022077 -0.066992998 0.0013087
0.0091075003 0.014324 -0.0012765001
0.021108 -0.059579 -0.015428
-0.017653 -0.059250001 -0.012516
0.017502001 -0.023947001 -0.011247
-0.035206001 -0.070242003 -0.042369001
-0.011636 -0.058394 0.0143
-0.0074617001 0.067874998 -0.026870999
-0.014217 -0.031778 -0.014954
-0.015338 -0.069021001 0.0092286998
-0.057484001 -0.088133998 -0.027487
-0.0013439 0.055328 0.0060423999
-0.0053400001 0.013788 0.0027900001
-0.023776 -0.078529 0.0089093996
-0.011301 0.040167999 -0.0077875
0.036534 -0.084246002 -0.022569001
0.03641 -0.084884003 -0.021941001
0.020416999 -0.0559 -0.013851
0.030291 -0.092067003 -0.01716
0.030211 -0.093203999 -0.017177001
-0.011901 -0.061554 0.024436001
-0.037946001 -0.094691999 -0.045786999
-0.0072372998 0.057902001 -0.00064525002
-0.0069813998 -0.0041570999 -0.0028744
-0.032843001 -0.082120001 -0.038180001
-0.032816999 -0.083066002 -0.037953999
-0.014916 0.0076151001 0.00023593
-0.031366002 -0.077284999 -0.0063311998
-0.031773001 -0.078184001 -0.0048362999
-0.031270999 -0.077523999 -0.0051985998
-0.036796998 -0.083517998 -0.03387
0.0079442002 0.041257001 -0.020327
0.019988 -0.069433004 0.0015856
0.00077794999 0.084739998 -0.021687999
-0.015729001 -0.035473999 -0.0021044
-0.0023696001 0.078603998 -0.021537
-0.010823 -0.015284 -0.012953
-0.016776999 -0.087153003 0.015071
0.041230999 -0.073394999 -0.030601
0.016536999 -0.036665998 0.00034170001
0.017417001 -0.036242999 0.0015438
0.0051060999 -0.017408 0.014867
-0.010303 -0.087155998 -0.044123001
0.020544 0.0024631 -0.0035572001
0.020904001 0.0024993001 -0.0024550001
0.011737 0.0074864002 0.012124
0.011348 0.0075459001 0.013114
-0.017837999 -0.0097800996 -0.018901
-0.012283 -0.062215999 0.024365
-0.016183 -0.059524 0.0089026
-0.0052262 0.027889 -0.0038709
-0.014848 -0.019191001 -0.013714
-0.0070767002 0.081166998 -0.017026
0.025211999 -0.070239 -0.035115998
0.0035931 -0.062043 -0.034111999
0.0019479 0.087084003 -0.022376001
-0.013814 0.013205 -0.018832
0.040052999 -0.068910003 -0.030111
0.043263 -0.086360998 -0.043605
0.043699998 -0.086346999 -0.043657001
0.020847 0.070612997 -0.018637
0.031580001 -0.065320998 -0.013305
0.031603001 -0.064386003 -0.013436
0.0091041001 0.00076215999 0.015760999
-0.00096213998 -0.032864999 0.0096739996
-0.018119 -0.054304 -0.0087320004
0.016147001 0.042845 -0.026176
0.01276 0.018944999 -0.0064833001
0.0085669998 0.010386 0.014751
-0.049557999 -0.087255001 -0.040336002
0.025985001 0.0087168999 -0.026108
-0.0065703001 -0.010069 -0.0037148001
0.0045787999 0.077205002 0.0069490001
0.0051027001 0.076788999 0.0076086
-0.0052515999 -0.021400001 0.0023188
-0.0061555998 -0.021016 0.0022148001
0.01629 -0.022755001 -0.0087294998
-0.014592 0.059204001 -0.025402
-0.014964 0.059073001 -0.024854001
-0.013719 -0.088435002 0.039602999
-0.0090086004 0.018933 -0.016422
0.013576 -0.058892 0.0074934
0.0073988 -0.056914002 0.0081890998
0.0072170999 -0.056258999 0.0085789002
0.0027923 -0.0079627996 0.016088
0.035186 -0.060463998 -0.021522
0.0030555001 0.074841 -0.027841
-0.025405001 -0.060722999 -0.035286002
-0.00015558999 -0.054154001 0.014241
-0.00023328001 -0.05429 0.012876
0.014078 -0.0082211001 -0.024749
-0.0017951 0.042371001 -0.025521999
-0.020763 -0.068181001 0.00032903999
-0.0059091998 0.061236002 -0.0018073
0.0096287001 -0.08602 0.030781999
-0.010689 -0.088619001 0.023026001
0.0099518001 0.0011240999 -0.025638999
0.017117999 -0.0049371002 -0.00075748999
-0.0026869001 -0.031920999 0.0092403004
-0.0063760001 0.039540999 -0.0040922002
0.022497 -0.093282998 0.021875
0.022523999 -0.092053004 0.021796999
-0.0027522999 -0.083278999 -0.041809
-0.0014399 -0.083339997 -0.041809998
-0.0027188 -0.084578 -0.041706
0.013373 0.0098029999 0.0085428003
-0.019314 -0.059588 -0.016319999
-0.019303 -0.059684999 -0.015051
0.026621001 0.0061213002 -0.025226001
-0.038531002 -0.090760998 -0.046261001
-0.034621999 -0.071405999 -0.033047002
0.028286001 0.0042177001 -0.016651999
0.036488999 -0.076993003 -0.018607
0.0048615001 0.018934 -0.027392
0.054632001 -0.087994002 -0.029008999
-0.0041215001 0.087402999 -0.022391999
-0.01105 0.013481 -0.022964001
0.011791 -0.012591 -0.018346
0.01148 -0.012732 -0.017605999
0.042890999 -0.093489997 -0.020979
-0.020328 0.010134 -0.016257999
0.035018999 -0.086749002 -0.0036534001
-0.036803 -0.057147998 -0.03077
0.0061984998 -0.078381002 -0.038915001
0.0058825002 -0.077869996 -0.038472999
0.029607 -0.092191003 -0.016835
0.029594 -0.090864003 -0.016778
0.0041275001 0.010498 -0.028135
0.018384 -0.082468003 -0.038642
0.023381 0.076585002 -0.017177001
0.02232 -0.090443 0.021142
0.0095589003 -0.081606001 0.024080001
0.02094 -0.062992997 0.0011368
-0.01158 -0.073181003 0.036800001
-0.01075 -0.072846003 0.036471002
-0.020678001 -0.016690999 -0.021609999
0.041113999 -0.065203004 -0.033955
-0.022042001 -0.066940002 -0.0023278
0.015032 -0.051697999 0.0029955001
0.017248999 0.071846999 -0.023379
0.020277999 -0.041273002 -0.0061283
0.0097139003 0.065724999 -0.0039285999
0.0085941004 0.065416001 -0.0033441
0.0086418996 0.064342 -0.0034753999
-0.0034012999 0.015493 0.00068379001
0.010104 -0.068175003 0.036993001
0.0095768999 -0.067213997 0.036894999
-0.012743 -0.0037638999 -0.0099307001
0.0095637003 0.048186 0.0050308998
-0.020915 0.010123 -0.018959001
0.0066759 0.069066003 0.0040330999
-0.022857999 -0.076879002 0.0016046
-0.024132 -0.076824002 0.0013579
-0.033486001 -0.093232997 0.0079726996
-0.0071709999 -0.047788002 0.0044725998
-0.045118999 -0.079850003 -0.02337
0.0053535998 0.0051111998 -0.030513
0.021343 0.0088526001 -0.030556001
0.022461001 0.0087257 -0.029997
-0.0084458003 0.0011857999 -0.028224999
0.024180001 0.0034789001 -0.013148
-0.0076881 0.035188001 -0.026782
0.049869999 -0.088377997 -0.037363
-0.0071788002 0.052138001 0.00086561998
-0.012295 -0.031902999 -0.024757
0.013314 0.083524004 -0.0016209
-0.046617001 -0.086526997 -0.035861
0.036313001 -0.060874999 -0.025502
0.012219 0.089263998 -0.0076122
-0.011545 0.078980997 -0.014262
-0.019169001 -0.057087 -0.030251
0.0060208999 -0.020241 0.0020442
-0.015321 -0.075676002 -0.035317998
-0.016576 -0.076865003 -0.035123002
-0.034384001 -0.063179001 -0.016487001
-0.034428 -0.062556997 -0.017155999
0.01154 0.065251 -0.023678999
0.019242 -0.040488999 -0.0095985997
-0.0082737003 -0.0023221001 -0.027193001
-0.029181 -0.068204001 -0.040309999
-0.040438 -0.074753001 -0.021613
0.017899999 -0.0073326998 -0.0051843999
-0.009575 -0.090311997 0.015705001
-0.0098318998 -0.090736002 0.015531
-0.010074 -0.085732996 0.015523
0.00021627999 0.014663 0.0074711
0.019264 -0.089143001 -0.042555001
-0.00020049 0.0037586 0.016519001
0.013436 0.089974001 -0.01143
0.012126 -0.020114999 0.0017263
0.0066304998 0.0025493 -0.028189
0.029270001 -0.074453004 -0.011949
0.010988 -0.018942 0.00039142999
0.011387 -0.018909 0.0011672
0.0021691001 0.025157001 0.0015014
-0.014142 -0.063239999 0.016817
-0.014227 -0.063073002 0.017974
-0.0054266001 -0.0075156 -0.022899
-0.0047483002 -0.0075607998 -0.023336999
-0.008986 0.096123002 -0.020879
0.012805 -0.094508998 0.040793002
0.012452 -0.094554 0.039654002
0.0061586001 0.088073999 -0.0039678998
0.018288 -0.069347002 0.0037414001
-0.0072897999 0.065408997 -0.025578
-0.00069070997 -0.052898001 -0.028651999
0.013251 0.090897001 -0.0090178996
-0.00061448 0.028465999 -0.021532999
-0.011568 0.079617999 -0.016297
-0.0064836 -0.083232999 0.033406999
-0.0065262001 -0.083677001 0.034345999
0.027644999 -0.062931001 -0.036525998
0.019079 -0.05181 -0.020083999
0.0023296 -0.016364999 0.014381
-0.0049140002 0.085617997 -0.021483
-0.0022519 0.092256002 -0.00068631
0.021162 0.073513001 -0.01417
0.014667 -0.040321 0.0052938
-0.036874 -0.083559997 -0.035500001
0.024993001 -0.069348998 -0.035285
0.0099004004 -0.065779999 -0.033027999
0.011121 -0.066214003 -0.031955
-0.0052247001 -0.075361997 0.031908002
-0.013382 -0.090410002 -0.044544
0.0063739 0.0057537998 0.016152
0.011464 -0.045219999 0.0031423999
-0.0072623999 0.10122 -0.021039
0.00037893001 0.10033 -0.003457
0.0062274998 -0.042842999 -0.028651999
-0.0099986997 -0.077500001 0.036982
-0.014656 -0.043581001 -0.00076040998
-0.014828 -0.043136001 -0.0012537
-0.0039114999 0.078571998 -0.02667
-0.017442999 0.035918999 -0.021815
-0.018038001 0.036527 -0.022589
-0.017416 0.035581999 -0.022585999
0.0025553 -0.048464 -0.026929
-0.0059337001 0.051509 -0.028235
-0.0024824 0.032722 -0.0036382
-0.0027007 -0.064012997 -0.034170002
-0.0066193999 -0.0087812999 -0.021400001
-0.016958 -0.064230002 0.0081161996
0.0083803004 0.031558 0.0015124
0.0082160002 0.032538 0.00034098001
0.0048993998 0.0075877998 0.015745999
0.010399 -0.076632001 0.036892001
-0.013081 0.036539 -0.023652
-0.016599 -0.093362004 0.015392
0.0049112001 -0.065521002 0.028146001
0.0035689999 -0.064452998 0.029376
0.0042486 -0.0077983998 -0.025857
-0.044484999 -0.090686999 -0.046838999
-0.044426002 -0.091012999 -0.047967002
-0.045187 -0.091410004 -0.047832999
-0.013271 -0.086957 0.035757001
0.0095576998 -0.076021999 0.026742
-0.018255999 0.046634 -0.02128
0.0053845001 0.056433 -0.028432
-0.012866 -0.060749002 -0.034782998
-0.011809 -0.060419001 -0.034646001
-0.035829 -0.055891 -0.032616001
0.01007 -0.021528 -0.026442001
-0.0027079999 0.021376999 -0.019087
-0.0020405999 0.020784 -0.019229
-0.031773001 -0.059282999 -0.014925
-0.0025227 0.082222 0.0014421
-0.0020051999 0.081896 0.00027953001
0.0039369999 0.036848001 0.0073970002
-0.037939999 -0.078930996 -0.021669
0.017666001 -0.031622998 -0.0085375998
0.03122 -0.065797001 -0.012724
0.030572999 -0.065540001 -0.012111
0.0080861999 0.074587002 0.0033012
-0.001809 -0.092100002 0.049612999
0.0088801999 -0.084523 0.024398999
0.0059457999 0.063998997 0.00042398999
0.021017 -0.021206999 -0.027310999
0.020553 0.053171001 -0.019432001
-0.038520999 -0.0638 -0.035590999
0.0057795001 -0.01251 0.0020405001
-0.0080631003 -0.022644 -0.020118
-0.010061 0.011741 0.00089594
0.026368 -0.078059003 -0.032754999
0.011207 -0.040376998 -0.025186
-0.00042307001 0.028413 -0.022211
-0.036745999 -0.078157 -0.017785
0.012584 0.012076 0.0029187
0.012242 0.011868 0.0025653001
0.0099766999 0.027713999 -0.021101
-0.05559 -0.088325001 -0.033921
0.010956 0.013444 0.0029136001
-0.045903999 -0.078217998 -0.025407
-0.041361999 -0.074490003 -0.029795
-0.041239001 -0.075140998 -0.030208999
0.028539 0.00038727999 -0.019246001
-0.044374999 -0.068029001 -0.023885
0.016116001 -0.052972 -0.025074
0.016674999 -0.022832001 -0.023102
0.01275 0.0074260002 0.0083501004
0.0087347003 0.011061 -0.029121
-0.012554 0.066843003 -0.014612
-0.027021 -0.093364 0.019272
0.030216999 -0.056903999 -0.015001
0.0023403999 0.001257 0.016449001
0.017798999 0.038075 -0.014391
-0.010182 -0.060375001 0.0055522001
-0.025517 -0.088285998 0.016857
-0.010077 0.054177999 -0.0094798999
-0.011051 -0.082846999 0.019355001
-0.012716 -0.059184998 -0.025102001
-0.025293 -0.063565001 -0.038727
-0.0083079003 -0.0088045001 -0.0054982002
0.010954 0.027595 -0.021744
0.012376 0.04022 -0.013566
0.0086278003 -0.058013 0.023033001
-0.0081225 -0.037705999 -0.025528001
-0.010198 -0.086127996 0.042192999
-0.0099595999 -0.086368002 0.043081
0.0086701997 0.0062158001 0.015402
0.0078632003 0.0053061 0.015968001
0.012304 -0.074455 0.014291
-0.044684 -0.088156998 -0.044163
0.011419 -0.0506 -0.025342001
0.0086418996 0.065530002 -0.022737
0.0085297003 0.066811003 -0.023673
-0.013813 -0.094374999 -0.046873
-0.0036851 0.025091 -0.020147
0.043412998 -0.089167997 -0.045618001
0.0061903 -0.032763001 -0.030032
0.0043445001 0.072108001 -0.026702
-0.016355 -0.059319999 -0.00233
-0.021667 -0.056728002 -0.019018
-0.010354 -0.058563001 0.013334
0.013226 0.042769 -0.022705
0.0072634998 -0.077363998 -0.038648002
-0.0036549 0.031884 -0.0031043999
-0.028511999 -0.083167002 -0.01396
-0.029012 -0.083237998 -0.013262
-0.028618 -0.082386002 -0.013736
-0.046133999 -0.089061998 -0.04442
-0.046980001 -0.089210004 -0.044638
0.010439 0.064479001 -0.0046752002
0.010404 0.065627001 -0.0044002999
-0.0030999 0.10024 -0.013365
-0.030198 -0.076879002 -0.012814
-0.037159 -0.064441003 -0.036947999
-0.00012229 -0.080108002 0.033953998
-0.0068358998 0.08986 -0.014952
0.011169 -0.084514998 -0.041352998
-0.012031 -0.064528003 0.023006
-0.012279 -0.063868999 0.023289001
0.033436999 -0.080068998 -0.040725999
-0.00089114002 0.10003 0.0040076999
0.012437 -0.063014999 -0.031318001
-0.016034 0.052333001 -0.022065001
-0.0047474001 0.058162 -0.025571
0.0050909002 0.068084002 -0.023758
0.0046611 0.055443998 -0.027830999
-0.010098 -0.080733001 0.036024
-0.00051806 -0.0090846997 0.0062211999
0.0026372999 0.062105 -0.023099
0.052903999 -0.089419998 -0.024862001
0.0094501004 -0.091098003 0.020897999
0.010909 -0.067065001 0.025415
0.015083 -0.092110001 0.018351
-0.0013838999 0.092041001 -0.022600999
-0.027484 -0.082934998 -0.033319
0.014868 0.010191 0.0053605
-0.010422 0.076030999 -0.027790001
-0.011209 0.075448997 -0.027656
-0.010764 0.075893998 -0.02644
0.012485 0.047935002 -0.0013779
-0.0087094996 -0.0039001999 0.0024915
-0.0093080001 -0.0026743 0.0018754
-0.0092481002 -0.0037597001 0.0019069
0.028267 -0.075092003 -0.0055248002
0.0098003997 0.062977999 -0.022678001
0.0041228998 0.033018 0.0039055999
-0.0089764996 0.037815999 -0.012375
-0.0026765999 0.013443 0.011486
-0.01217 -0.086473003 0.038387999
-0.012275 -0.086103998 0.037802
0.012399 -0.015132 -0.015027
0.013691 -0.016381999 -0.014838
0.011159 -0.075191997 -0.037096001
0.017372999 0.045821 -0.0084827999
0.016294001 0.045614999 -0.0087713003
-0.036516 -0.069041997 -0.038722001
-0.010141 0.085786998 -0.0057735001
-0.0071089002 0.024992 -0.023225
-0.01123 -0.0066004 -0.026626
-0.011667 -0.0062132999 -0.027693
0.011234 0.017738 -0.0014184
-0.017493 -0.094870999 -0.030780001
-0.0039650002 -0.085111998 0.039089002
0.034848999 -0.064893 -0.015438
-0.037390999 -0.093344003 0.0049184998
-0.0056933002 -0.060238 0.011217
0.019869 -0.012724 -0.025155
-0.027928 -0.064510003 -0.039058998
0.010376 -0.026001001 0.00076813
0.011156 -0.083224997 -0.041613001
0.011216 -0.082121 -0.041301001
-0.0077395998 -0.078175999 -0.040233001
-0.0079893004 -0.077460997 -0.039834999
-0.0064035999 -0.089621998 -0.046751998
-0.0069650998 -0.089764997 -0.047658
0.014696 0.013566 -0.0011468
0.0030312 -0.010678 0.00077779999
0.022908 0.050498001 -0.017650001
0.012505 0.044075999 -0.022655001
0.0087192999 0.017796 -0.0022757
-0.019268 -0.0024765001 -0.016251
0.0048912 -0.020168999 0.0016255
-0.044489998 -0.089697003 -0.046372
-0.044578001 -0.0889 -0.046177998
-0.044046 -0.089474 -0.046091001
0.0018992 -0.030161999 0.00067123998
-0.010176 0.087485 -0.027147001
0.038596999 -0.077664003 -0.020455001
0.010575 -0.077335 0.037891999
0.016269 0.065246999 -0.015489
0.0054682 -0.034063 0.0097025996
0.026053 0.010884 -0.022283999
-0.0038971 -0.039032001 -0.028938999
-0.011626 0.013288 0.0032005
0.0061369999 -0.018996 0.0020238
0.013574 -0.038279001 0.0061460002
-0.00023039 -0.035579 -0.030377001
0.00032806001 -0.035980001 -0.029928001
-0.014924 -0.010484 -0.022298999
0.033946998 -0.059331 -0.026302001
0.0011427 -0.074266002 -0.034193002
0.01313 0.01511 -0.00038158
-0.007251 0.052037999 0.0025488001
0.025788 -0.010914 -0.018124999
0.011242 0.063101999 -0.0083275996
0.010143 0.055323999 0.0027695999
0.012281 -0.091843002 -0.048186999
-0.037142001 -0.078051001 -0.032806002
-0.00065487 0.058722999 0.0070255999
-0.0052160998 -0.057985 0.012917
0.013331 0.0050840001 0.0075373999
-0.024093 -0.057239 -0.031902999
0.017676 -0.057948001 -0.0010627999
0.0040115002 -0.0088553 -0.02121
0.011396 0.090907 -0.0050635999
0.010905 0.090397 -0.0056157
0.015448 0.015132 -0.011682
0.015446 0.016063999 -0.011749
0.0021511 0.037799001 -0.025622999
0.0028927 0.037817001 -0.025842
0.0028162 -0.017715 -0.020523001
-0.0013007 -0.059682999 0.025756
-0.0071263001 0.028432 -0.014342
0.0072659999 0.043017998 -0.027525
-0.025557 -0.068521999 -0.039604999
-0.0049178 0.07976 -0.0044299001
-0.016797001 -0.033918001 -0.01764
-0.017046999 -0.033519998 -0.016421
-0.013191 -0.055566002 0.0031310001
-0.01309 -0.056720998 0.0027844999
-0.035541002 -0.093282998 -0.018026
-0.016832 -0.035317998 -0.017511001
-0.0076203998 0.047878001 -0.028788
0.0083486 0.015849 -0.02588
-0.021167999 0.0086259004 -0.021081001
0.010079 -0.077 0.034471001
0.036040001 -0.060112 -0.034529001
-0.015924999 0.0075566 -0.0097633004
-0.016284 0.0078691998 -0.0093058003
0.014991 0.067073002 -0.01543
0.021929 -0.070317999 -0.00065309001
0.039333001 -0.068218 -0.032908998
-0.0072734999 -0.090015002 0.049348
-0.007518 -0.089709997 0.048485
0.013307 0.034469999 -0.0053792
0.012805 -0.093496002 0.045903001
-0.017092999 0.050616998 -0.018354001
0.0049561001 0.083129004 0.00042919
0.0053713 -0.051197 0.0059368
0.022471 0.10154 -0.020855
-0.0077387001 0.095530003 -0.02052
0.010358 -0.034263998 0.0083550001
-0.0094055999 -0.031228 -0.0054754
-0.0029013001 -0.028999001 0.0037306999
0.011224 -0.065701999 -0.032717001
-0.0066467999 0.0088544004 -0.029724
-0.0073814001 0.0087556001 -0.029763
0.019545 -0.00074729999 -0.00092928001
-0.0055721998 0.064475 0.0029674
-0.01747 -0.041278001 -0.0074107
-0.012572 -0.010985 -0.022394
-0.019127 0.011091 -0.022591
0.010817 -0.092883997 0.049104001
-0.0090103 0.10258 -0.026459999
0.0061646998 0.078736998 0.0058307
0.0061356002 0.078263998 0.0065326998
-0.0070721 -0.021468 -0.0014707
0.019766999 -0.093300998 -0.042741001
-0.0022289001 -0.02885 0.003207
-0.0019616 -0.027938999 0.0023805001
-0.0026538 -0.027601 0.0029267001
-0.0016627 0.060414001 0.0069182999
0.018493 0.064409003 -0.024723999
0.034244001 -0.071713999 -0.037962001
-0.0092577003 -0.080715001 0.026936
-0.0088596996 -0.08185 0.02695
0.0041292999 0.0047048 -0.031989001
0.018846 -0.010044 -0.029818
-0.0027497001 -0.073269002 -0.035358001
-0.0031232 -0.073761001 -0.036194999
0.0015572 -0.075092003 -0.035654001
-0.014747 0.0068011 -0.0031697
0.0099114003 -0.032694001 -0.028765
0.0086589996 -0.032437 -0.027696
0.0098975003 -0.032488 -0.027674001
0.0099152997 -0.079369001 0.038210001
-0.0063994001 0.066578001 -0.025296999
-0.01246 -0.079288997 0.025599999
0.0099135004 -0.064218998 -0.032807
0.009993 -0.063530996 -0.032664001
0.011237 -0.058123 0.022862
0.033314999 -0.094371997 -0.042392999
0.036114 -0.088549003 -0.0055057001
0.050209001 -0.087292001 -0.036350001
-0.018098 0.011497 -0.022731001
-0.0065219998 -0.087263003 0.047026001
-0.014179 -0.089426003 0.040746
-0.014006 -0.089533001 0.039471
-0.011939 0.010819 0.0020425001
-0.0049164998 0.031881001 -0.0019938
-0.00022884 -0.070578001 -0.033895001
-5.6762001e-05 -0.071910001 -0.033792
-0.0055964999 0.017262001 -0.00061992003
0.0095776003 0.089428 -0.0046762
-0.017826 -0.020137001 -0.016322
-0.016671 -0.020074001 -0.016378
-0.017986 -0.020039 -0.015035
-0.0074322 0.041841999 -0.0040901001
0.0073811999 -0.060529999 0.024355
-0.0097436002 0.039407998 -0.014924
0.018967001 -0.075218998 0.0054800999
0.0035887 0.10081 -0.021387
0.011294 0.086675003 -0.0013356
0.010022 -0.086039998 -0.042819999
0.022265 -0.036175001 -0.0086799003
0.0036869 -0.013861 0.010512
0.0046819001 -0.015133 0.01089
-0.010506 -0.089450002 0.021826001
6.7690999e-05 0.080329999 0.0049414998
