# .PCD v0.7 - Point Cloud Data file format
VERSION 0.7
FIELDS x y z
SIZE 4 4 4
TYPE F F F
COUNT 1 1 1
WIDTH 1491
HEIGHT 1
VIEWPOINT 0 0 0 1 0 0 0
POINTS 1491
DATA ascii
0.10667 -0.017199 0.87572002
0.10809 -0.01719 0.87526
0.10948 -0.017176 0.87456
0.11087 -0.017162001 0.87383997
0.11229 -0.017152 0.87336999
0.11365 -0.017136 0.87252003
0.11503 -0.01712 0.87173998
0.1164 -0.017106 0.87101001
0.11775 -0.017089 0.87011999
0.11909 -0.017069999 0.86916
0.12048 -0.017058 0.86853999
0.12187 -0.017046999 0.86802
0.12329 -0.017041 0.86768001
0.12476 -0.017041 0.86767
0.12621 -0.017038999 0.86760002
0.12767 -0.017038001 0.86752999
0.12909999 -0.017033 0.86725998
0.13052 -0.017027 0.86697
0.13187 -0.017012 0.86619997
0.13326 -0.017003 0.86575001
0.13463999 -0.016992999 0.86523002
0.13604 -0.016984001 0.86479998
0.13743 -0.016976001 0.86435997
0.13887 -0.016973 0.86425
0.14030001 -0.016968001 0.86400002
0.14173 -0.016965 0.86385
0.14318 -0.016964 0.86375999
0.14461 -0.016961001 0.86360002
0.14603999 -0.016957 0.86342001
0.14747 -0.016953999 0.86325002
0.14891 -0.016952001 0.86316001
0.15036 -0.01695 0.86308002
0.15178999 -0.016946999 0.86291999
0.15324999 -0.016946999 0.86290002
0.15471999 -0.016948 0.86296999
0.15621001 -0.016952001 0.86315
0.1577 -0.016956 0.86334997
0.15922999 -0.016961999 0.86368001
0.16072001 -0.016965 0.86385
0.16222 -0.016969999 0.86408001
0.16373 -0.016975001 0.86434001
0.16524 -0.016981 0.86461997
0.16677999 -0.016988 0.86497998
0.1683 -0.016993999 0.86532003
0.16982 -0.016999001 0.86557001
0.17133 -0.017004 0.86583
0.17286 -0.017011 0.86618
0.17443 -0.017021 0.86668998
0.17601 -0.017031999 0.86723
0.17763001 -0.017046999 0.86800998
0.17928 -0.017064 0.86888999
0.18092 -0.01708 0.86970001
0.1825 -0.017091 0.87024999
0.18412 -0.017104 0.87092
0.1857 -0.017114 0.87142003
0.18728 -0.017124999 0.87194997
0.18890999 -0.017139001 0.87266999
0.19058 -0.017155999 0.87355
0.19225 -0.017173 0.87444001
0.19396 -0.017193999 0.87549001
0.1957 -0.017216999 0.87664002
0.19746999 -0.017242 0.87791997
0.19924 -0.017267 0.87919998
0.20104 -0.017294001 0.88055003
0.20283 -0.01732 0.88189
0.20462 -0.017345 0.88316
0.20643 -0.017371001 0.88450998
0.20827 -0.0174 0.88597
0.21019 -0.017434999 0.88777
0.21223 -0.017480001 0.89003998
0.21427999 -0.017524 0.89229
0.21633001 -0.017569 0.89455003
0.21844999 -0.017617 0.89701998
0.22058 -0.017666001 0.89951998
-0.01143 -0.017457999 0.97292
-0.0097775003 -0.017445 0.97218001
-0.0081238002 -0.017423 0.97096002
-0.0064723999 -0.017397 0.96947998
-0.0048254998 -0.017368 0.96788001
-0.0031848 -0.017344 0.96653998
-0.0015479 -0.017312 0.96474999
8.2876999e-05 -0.017278001 0.96284997
0.0017064 -0.017235 0.96048999
0.0033211 -0.017189 0.95788002
0.0049246 -0.017132999 0.95480001
0.0065179002 -0.017078999 0.95175999
0.0080995997 -0.017021 0.94856
0.0096770003 -0.016975001 0.94599998
0.011247 -0.016930999 0.94351
0.012812 -0.016891999 0.94134998
0.014376 -0.016859001 0.93953001
0.015938999 -0.016833 0.93808001
0.017492 -0.016801 0.93627
0.019045001 -0.016775001 0.93482
0.020594001 -0.016749 0.93339998
0.022136999 -0.016723 0.93191999
0.023678999 -0.016698999 0.93063003
0.025209 -0.016671 0.92904001
0.026728 -0.016638 0.92723
0.028237 -0.016604001 0.92532003
0.029750001 -0.016574999 0.92372
0.031261999 -0.016549001 0.92225999
0.032783002 -0.01653 0.92119998
0.034301002 -0.016511001 0.92014003
0.035813998 -0.016492 0.91904998
0.037312001 -0.016466999 0.91768003
0.038809001 -0.016443999 0.91637999
0.040293999 -0.016418001 0.91492999
0.041790999 -0.016398 0.91385001
0.043294001 -0.016383 0.91297001
0.044813 -0.016373999 0.91246998
0.046319 -0.016361 0.91175002
0.047839999 -0.016354 0.91135001
0.049348 -0.016342999 0.91075999
0.050840002 -0.016326999 0.90990001
0.052328002 -0.016311999 0.90903002
0.053824 -0.016299 0.90833998
0.055323999 -0.016288999 0.90776002
0.056802999 -0.016272999 0.90685999
0.058299001 -0.016263001 0.90628999
0.059762001 -0.016244 0.90524
0.061225999 -0.016225999 0.90426999
0.062688001 -0.016209001 0.90331
0.064181 -0.016201001 0.90283
0.065674998 -0.016193001 0.90237999
0.067180999 -0.016187999 0.90211999
0.068677999 -0.016181 0.90175003
0.070165001 -0.016173 0.90126997
0.071649998 -0.016163999 0.90078002
0.073049001 -0.016137 0.89925998
0.074450999 -0.016111 0.89783001
0.075833999 -0.016082 0.89624
0.077210002 -0.016053 0.89463001
0.078566 -0.016021 0.89284003
0.080007002 -0.016008001 0.89208001
0.081455 -0.015996 0.89143002
0.08292 -0.015988 0.89098001
0.084394999 -0.015982 0.89064997
0.085900001 -0.015982 0.89064002
0.087338999 -0.015969999 0.88995999
0.088725999 -0.015949 0.88879001
0.090083003 -0.015923001 0.88735998
0.091444001 -0.015899001 0.88599998
0.092756003 -0.015867 0.88423002
0.094136 -0.015848 0.88316
0.095558003 -0.015836 0.88249999
0.096970998 -0.015822999 0.88178003
0.098356001 -0.015806001 0.88084
0.099752001 -0.015791001 0.88002002
0.10112 -0.015773 0.87901998
0.10249 -0.015755 0.87801999
0.10389 -0.015741 0.87722999
0.10528 -0.015727 0.87645
0.10669 -0.015718 0.87590998
0.10811 -0.015709 0.87544
0.1095 -0.015695 0.87466002
0.11088 -0.015682001 0.87393999
0.1123 -0.015674001 0.87345999
0.11367 -0.015659999 0.87268001
0.11505 -0.015645999 0.87190002
0.11644 -0.015634 0.87125999
0.1178 -0.01562 0.87045997
0.11916 -0.015606 0.86966997
0.12055 -0.015595 0.86905003
0.12194 -0.015585 0.86853999
0.12336 -0.015579 0.8682
0.12482 -0.015578 0.86811
0.12626 -0.015575 0.86795998
0.12772 -0.015573 0.86786997
0.12914 -0.015567 0.86752999
0.13054 -0.01556 0.86715001
0.1319 -0.015548 0.86645001
0.13330001 -0.01554 0.86598998
0.13468 -0.01553 0.86548001
0.13608 -0.015523 0.86505997
0.13747001 -0.015515 0.86462998
0.1389 -0.015511 0.86443001
0.14031 -0.015505 0.86408001
0.14173999 -0.015502 0.86391997
0.1432 -0.015502 0.86391997
0.14465 -0.015501 0.86385
0.1461 -0.0155 0.86375999
0.14754 -0.015498 0.86368001
0.14899001 -0.015497 0.86360002
0.15044001 -0.015495 0.86352003
0.15188 -0.015494 0.86343998
0.15334 -0.015494 0.86343002
0.15482999 -0.015496 0.86357999
0.15633 -0.015501 0.86382997
0.15784 -0.015506 0.86409998
0.15937001 -0.015512 0.86444998
0.16087 -0.015516 0.86469001
0.16237 -0.015519 0.86486
0.16388001 -0.015524 0.86510998
0.16538 -0.015528 0.86532003
0.16690999 -0.015534 0.86567998
0.16844 -0.01554 0.86602998
0.16997001 -0.015546 0.86636001
0.17149 -0.015551 0.86663002
0.17304 -0.015559 0.86704999
0.17461 -0.015568 0.86758
0.17619 -0.015578 0.86812001
0.17782 -0.015592 0.86892003
0.17947 -0.015608 0.86979997
0.18110999 -0.015622 0.87059999
0.18271001 -0.015634 0.87123001
0.18432 -0.015645999 0.87190002
0.18591 -0.015655 0.87241
0.18748 -0.015663 0.87285
0.1891 -0.015675001 0.87356001
0.19076 -0.015690001 0.87436002
0.19245 -0.015706999 0.87532997
0.19418 -0.015728001 0.87647998
0.19596 -0.015752001 0.87782001
0.19776 -0.015776001 0.87919003
0.19953001 -0.015799999 0.88047999
0.20130999 -0.015822001 0.88173002
0.20307 -0.015843 0.8829
0.20483001 -0.015864 0.88406998
0.20661999 -0.015887 0.88534999
0.20846 -0.015913 0.88679999
0.21039 -0.015946001 0.88861001
0.21252 -0.015992999 0.89125001
0.21464001 -0.016039001 0.89380002
0.2168 -0.016086999 0.89647001
0.21899 -0.016137 0.89925998
-0.0097754002 -0.015794 0.97197998
-0.0081244996 -0.015779 0.97105998
-0.0064751999 -0.015760001 0.96990001
-0.0048282002 -0.015736001 0.96842003
-0.0031870001 -0.015716 0.96719998
-0.001549 -0.015687 0.96539998
8.2913e-05 -0.015658 0.96359998
0.0017078 -0.01562 0.96126002
0.0033241999 -0.015579 0.95876998
0.0049295002 -0.01553 0.95577002
0.0065243999 -0.015481 0.95270997
0.0081065996 -0.015427 0.94937998
0.0096832998 -0.015382 0.94661999
0.011252 -0.015339 0.94398999
0.012816 -0.015301 0.94164002
0.014379 -0.01527 0.93971997
0.015939999 -0.015243 0.93809003
0.017492 -0.015214 0.93628001
0.019043 -0.015189 0.93474001
0.02059 -0.015165 0.93325001
0.022133 -0.015141 0.93177998
0.023675 -0.015119 0.93048
0.0252 -0.01509 0.92869002
0.026714001 -0.015059 0.92676997
0.028222 -0.015028 0.92483002
0.02973 -0.015 0.92312002
0.031242 -0.014976 0.92166001
0.032768998 -0.014962 0.92079002
0.034288999 -0.014946 0.91982001
0.035806 -0.01493 0.91883999
0.037307002 -0.01491 0.91755998
0.038807999 -0.01489 0.91636997
0.040297002 -0.014868 0.91500998
0.041790999 -0.014849 0.91385001
0.043294001 -0.014835 0.91297001
0.044813 -0.014827 0.91246998
0.046314001 -0.014814 0.91165
0.047825001 -0.014804 0.91108
0.049337 -0.014796 0.91056001
0.050824001 -0.01478 0.90961999
0.052306999 -0.014765 0.90867001
0.053808 -0.014755 0.90807003
0.055307999 -0.014746 0.90749002
0.056786001 -0.014731 0.9066
0.058281999 -0.014722 0.90601999
0.059749998 -0.014706 0.90505999
0.061214 -0.014691 0.90408999
0.062682003 -0.014677 0.90322
0.064175002 -0.014669 0.90274
0.065674998 -0.014663 0.90237999
0.067180999 -0.014659 0.90213001
0.068677999 -0.014653 0.90175003
0.070164002 -0.014645 0.90126002
0.071649 -0.014637 0.90077001
0.073049001 -0.014612 0.89925998
0.074442998 -0.014588 0.89774001
0.075825997 -0.014562 0.89613998
0.077201001 -0.014535 0.89451998
0.078564003 -0.014508 0.89283001
0.080007002 -0.014496 0.89208001
0.081463002 -0.014486 0.89152002
0.082928002 -0.014479 0.89107001
0.084394 -0.014472 0.89064002
0.085874997 -0.014468 0.89038002
0.087311998 -0.014457 0.88968998
0.088708997 -0.014439 0.88861001
0.090070002 -0.014417 0.88722003
0.09144 -0.014396 0.88595998
0.092767 -0.01437 0.88433999
0.094145998 -0.014352 0.88325
0.095558003 -0.01434 0.88249999
0.096980996 -0.01433 0.88186997
0.098375998 -0.014316 0.88101
0.099775001 -0.014303 0.88022
0.10116 -0.014288 0.87928998
0.10254 -0.014273 0.87836999
0.10391 -0.014258 0.87747997
0.1053 -0.014244 0.87661999
0.10671 -0.014235 0.87607002
0.10812 -0.014226 0.87550998
0.10949 -0.014212 0.87465
0.11088 -0.014201 0.87393999
0.1123 -0.014193 0.87345999
0.11369 -0.014182 0.87277001
0.11507 -0.01417 0.87207001
0.11648 -0.014163 0.87160999
0.11787 -0.014153 0.87098002
0.11925 -0.014141 0.87028003
0.12064 -0.014133 0.86974001
0.12204 -0.014124 0.86922002
0.12345 -0.014117 0.86878002
0.12488 -0.014113 0.86852002
0.12632 -0.01411 0.86835998
0.12775999 -0.014106 0.86812001
0.12916 -0.014099 0.86769998
0.13056 -0.014092 0.86724001
0.13192999 -0.014082 0.86660999
0.13332 -0.014074 0.86615002
0.13472 -0.014067 0.86572999
0.13613001 -0.014062 0.86540997
0.13753 -0.014055 0.86497998
0.13896 -0.014052 0.86475998
0.14035 -0.014045 0.86432999
0.14177001 -0.014041 0.86409003
0.14322001 -0.014039 0.86400998
0.14467999 -0.014039 0.86400002
0.14612 -0.014038 0.86391997
0.14759 -0.014038 0.86391997
0.14906 -0.014039 0.86400002
0.15052 -0.014039 0.86400998
0.15198 -0.014039 0.86400998
0.15346 -0.014041 0.86408001
0.15494999 -0.014043 0.86423999
0.15644 -0.014046 0.86443001
0.15795 -0.014051 0.86470002
0.15945999 -0.014055 0.86497998
0.16097 -0.014059 0.86523998
0.16248 -0.014063 0.86549002
0.16401 -0.014069 0.86583
0.16553 -0.014073 0.86610001
0.16707 -0.01408 0.86653
0.16862001 -0.014087 0.86694998
0.17014 -0.014092 0.86723
0.17166001 -0.014096 0.86750001
0.17321 -0.014103 0.86793
0.17479999 -0.014113 0.86852002
0.17637999 -0.014122 0.86908001
0.17803 -0.014136 0.86996001
0.17967001 -0.014149 0.87076002
0.1813 -0.014162 0.87155002
0.18289 -0.014171 0.87208998
0.18450999 -0.014182 0.87278003
0.18610001 -0.01419 0.87331003
0.18769 -0.014199 0.87384999
0.18934 -0.014212 0.87462002
0.19101 -0.014226 0.87550002
0.1927 -0.014242 0.87650001
0.19446 -0.014263 0.87774998
0.19627 -0.014286 0.87919003
0.19806001 -0.014308 0.88055998
0.19983999 -0.014329 0.88182998
0.2016 -0.014348 0.88299
0.20333 -0.014365 0.88405001
0.2051 -0.014384 0.88520998
0.20689 -0.014405 0.88648999
0.20872 -0.014427 0.88788003
0.21075 -0.014464 0.89012003
0.21299 -0.014514 0.89322001
0.21520001 -0.014561 0.89612001
0.21743999 -0.01461 0.89911997
0.21972001 -0.014661 0.90224999
-0.0081749 -0.01422 0.97707999
-0.0064975 -0.014165 0.97324002
-0.0048433999 -0.014139 0.97147
-0.0031916001 -0.014097 0.96860999
-0.0015489 -0.014049 0.96533
8.2949999e-05 -0.014028 0.96384001
0.0017087 -0.013998 0.96179003
0.0033267001 -0.013965 0.95951003
0.0049335002 -0.013921 0.95652997
0.0065295999 -0.013877 0.95346999
0.0081129 -0.013828 0.95011997
0.0096886996 -0.013785 0.94714999
0.011257 -0.013745 0.94441003
0.012821 -0.013709 0.94196999
0.014381 -0.013679 0.93985999
0.015939999 -0.013653 0.93813002
0.017492 -0.013627 0.93629003
0.019041 -0.013603 0.93465
0.020587999 -0.013581 0.93314999
0.022133 -0.013561 0.93175
0.023675 -0.013542 0.93045998
0.025194 -0.013513 0.92848998
0.026706001 -0.013484 0.92646003
0.028209001 -0.013454 0.92440999
0.029713999 -0.013428 0.92260998
0.031221 -0.013405 0.92106003
0.032754 -0.013395 0.92036998
0.034278002 -0.013383 0.91951001
0.035794999 -0.013369 0.91855001
0.037299 -0.013351 0.91737002
0.038803 -0.013335 0.91626
0.040293001 -0.013316 0.91491997
0.041788001 -0.013299 0.91377002
0.043295 -0.013288 0.91298002
0.044810001 -0.013279 0.91238999
0.046305999 -0.013266 0.91148001
0.047816001 -0.013257 0.91088998
0.049327001 -0.01325 0.91036999
0.050813999 -0.013236 0.90943998
0.052303001 -0.013224 0.90859002
0.053808 -0.013216 0.90807003
0.055302002 -0.013206 0.90740001
0.056779999 -0.013193 0.90649998
0.058269002 -0.013183 0.90583003
0.059737001 -0.013169 0.90486002
0.061200999 -0.013155 0.90390003
0.062674999 -0.013144 0.90311998
0.064168997 -0.013137 0.90265
0.065674998 -0.013133 0.90237999
0.067180999 -0.013129 0.90211999
0.068677001 -0.013124 0.90174001
0.070164002 -0.013117 0.90125
0.071640998 -0.013108 0.90066999
0.073040999 -0.013086 0.89916998
0.074436001 -0.013064 0.89766002
0.075828001 -0.013043 0.89616001
0.077203996 -0.013019 0.89455003
0.078582004 -0.012997 0.89302999
0.080026001 -0.012986 0.89230001
0.081482001 -0.012978 0.89172
0.082938001 -0.01297 0.89117002
0.084394 -0.012962 0.89064002
0.085855998 -0.012956 0.89019001
0.087289996 -0.012945 0.88946003
0.088694997 -0.012931 0.88846999
0.090057001 -0.012911 0.88709003
0.09144 -0.012894 0.88595998
0.092776999 -0.012872 0.88442999
0.094154999 -0.012856 0.88332999
0.095558003 -0.012844 0.88249999
0.096989997 -0.012836 0.88195997
0.098387003 -0.012824 0.88111001
0.099785998 -0.012812 0.88031
0.10117 -0.012798 0.87937999
0.10253 -0.012784 0.87835997
0.10389 -0.012768 0.87730002
0.10527 -0.012756 0.87642998
0.10668 -0.012746 0.87579
0.10808 -0.012737 0.87515998
0.10946 -0.012726 0.87437999
0.11086 -0.012717 0.87375998
0.11228 -0.01271 0.87329
0.11369 -0.012702 0.87277001
0.11509 -0.012695 0.87225002
0.11653 -0.012691 0.87197
0.11794 -0.012684 0.87151998
0.11935 -0.012677 0.87099999
0.12074 -0.012669 0.87048
0.12213 -0.01266 0.86985999
0.12351 -0.012651 0.86922997
0.12492 -0.012644 0.86878002
0.12634 -0.012639 0.86843997
0.12774 -0.012633 0.86804003
0.12915 -0.012627 0.86760998
0.13055 -0.012621 0.86716002
0.13191999 -0.012611 0.86653
0.13331001 -0.012605 0.86609
0.13474 -0.012601 0.86584002
0.13616 -0.012598 0.86558998
0.13756 -0.012592 0.86518002
0.139 -0.01259 0.86502999
0.14041001 -0.012584 0.86467999
0.14181 -0.01258 0.86435002
0.14326 -0.012578 0.86426002
0.14472 -0.012578 0.86425
0.14614999 -0.012576 0.86409003
0.14760999 -0.012576 0.86408001
0.14910001 -0.012578 0.86423999
0.15056001 -0.012578 0.86426002
0.15206 -0.012581 0.86443001
0.15355 -0.012583 0.86458999
0.15504999 -0.012587 0.86483997
0.15656 -0.012591 0.86511999
0.15809 -0.012596 0.86548001
0.15961 -0.0126 0.86576003
0.16114999 -0.012606 0.86618
0.16268 -0.012611 0.86650997
0.16421001 -0.012616 0.86685997
0.16573 -0.01262 0.86714
0.16727 -0.012626 0.86756003
0.16881 -0.012631 0.86790001
0.17031001 -0.012634 0.86809999
0.17185 -0.012639 0.86844999
0.17342 -0.012647 0.86896002
0.17501 -0.012656 0.86956
0.17659 -0.012664 0.87011999
0.17824 -0.012676 0.87098998
0.17986 -0.012687 0.87168998
0.1815 -0.012698 0.87247998
0.1831 -0.012707 0.87311
0.18475001 -0.012719 0.8739
0.18636 -0.012728 0.87453002
0.18797 -0.012737 0.87515002
0.18962 -0.012748 0.87594002
0.19129001 -0.012761 0.87682998
0.19302 -0.012777 0.87791997
0.19478001 -0.012796 0.87919998
0.19659001 -0.012817 0.88063997
0.19836999 -0.012835 0.88191003
0.20012 -0.012852 0.88309002
0.20182 -0.012866 0.88398999
0.20354 -0.01288 0.88494998
0.20529 -0.012895 0.88603002
0.2071 -0.012915 0.88739997
0.21072 -0.013046 0.89639997
0.21304999 -0.013096 0.89984
-0.026175 -0.015074 1.0357
-0.028007001 -0.013357 1.0387
-0.026103999 -0.013282 1.0329
-0.024233 -0.014956 1.0276
-0.024220999 -0.013207 1.0271
-0.02249 -0.014952 1.0273
-0.022479 -0.013204 1.0269001
-0.020750999 -0.01495 1.0272
-0.020741001 -0.013203 1.0268
-0.018995 -0.013196 1.0262001
-0.0065374998 -0.012592 0.97924
-0.0048627001 -0.012542 0.97535998
-0.0031973999 -0.012478 0.97036999
-0.0015489 -0.012413 0.96535999
8.2985003e-05 -0.012399 0.96420002
0.0017098 -0.012375 0.96239001
0.0033296 -0.012349 0.96033001
0.0049387999 -0.012313 0.95756
0.0065373001 -0.012275 0.95459998
0.0081225997 -0.012232 0.95125997
0.0096992999 -0.012193 0.94818002
0.011268 -0.012156 0.94533998
0.012832 -0.012123 0.94278002
0.014389 -0.012092 0.94037998
0.015945001 -0.012067 0.93843001
0.017495001 -0.012042 0.93647999
0.019043 -0.012019 0.93471998
0.020585001 -0.011997 0.93300998
0.022128999 -0.011979 0.93160999
0.023670999 -0.011963 0.9303
0.025188001 -0.011936 0.92826003
0.026697 -0.011909 0.92615002
0.028200001 -0.011883 0.92409003
0.029701 -0.011858 0.92219001
0.031204 -0.011837 0.92056
0.032738999 -0.01183 0.91996998
0.034263 -0.011819 0.91913003
0.035783999 -0.011808 0.91826999
0.037292 -0.011794 0.91719002
0.038800001 -0.011781 0.91617
0.040293001 -0.011765 0.91491997
0.041792002 -0.011751 0.91386998
0.043299999 -0.011741 0.91308999
0.044810001 -0.011732 0.91240001
0.046305001 -0.01172 0.91147
0.047809999 -0.011712 0.91079003
0.049322002 -0.011705 0.91026998
0.050809 -0.011693 0.90934998
0.052303001 -0.011683 0.90859002
0.053808 -0.011677 0.90807003
0.055296998 -0.011667 0.90731001
0.056772999 -0.011655 0.90639001
0.058254998 -0.011645 0.90561002
0.059723001 -0.011633 0.90464997
0.061186999 -0.01162 0.90368003
0.062668003 -0.011612 0.90302002
0.064162001 -0.011606 0.90256
0.065674998 -0.011604 0.90237999
0.067180999 -0.0116 0.90211999
0.068671003 -0.011594 0.90165001
0.070156001 -0.011588 0.90114999
0.071633004 -0.01158 0.90056998
0.073046997 -0.011563 0.89923
0.074450999 -0.011545 0.89784002
0.075851999 -0.011527 0.89644998
0.077235997 -0.011508 0.89493001
0.078622997 -0.011489 0.89349997
0.080053002 -0.011478 0.8926
0.081501998 -0.011469 0.89194
0.082956001 -0.011462 0.89135998
0.084394 -0.011453 0.89064002
0.085837997 -0.011444 0.88999999
0.087268002 -0.011435 0.88924003
0.088678002 -0.011423 0.8883
0.090043001 -0.011405 0.88696003
0.091436997 -0.011392 0.88594002
0.092785001 -0.011374 0.88450998
0.094163999 -0.01136 0.88340998
0.095558003 -0.011348 0.88249999
0.096998997 -0.011342 0.88203001
0.098396003 -0.011331 0.88120002
0.099794999 -0.011321 0.8804
0.10118 -0.011309 0.87945002
0.10254 -0.011295 0.87842
0.10388 -0.01128 0.87720001
0.10526 -0.011268 0.87632
0.10666 -0.01126 0.87568003
0.10806 -0.011251 0.87497002
0.10944 -0.011241 0.87418997
0.11084 -0.011234 0.87364
0.11226 -0.011228 0.87318999
0.11367 -0.011222 0.87269002
0.1151 -0.011216 0.87226999
0.11654 -0.011214 0.87208003
0.11798 -0.011211 0.87181997
0.11941 -0.011206 0.87149
0.12084 -0.011202 0.87114
0.12223 -0.011195 0.87058997
0.12361 -0.011186 0.86993998
0.125 -0.011179 0.86938
0.12640999 -0.011174 0.86894
0.1278 -0.011167 0.86843997
0.1292 -0.011161 0.86793
0.13057999 -0.011153 0.86738002
0.13195001 -0.011146 0.86676002
0.13334 -0.011139 0.86624998
0.13477001 -0.011136 0.86601001
0.1362 -0.011134 0.86584997
0.1376 -0.011129 0.86544001
0.13905001 -0.011127 0.86531001
0.14045 -0.011122 0.86495
0.14184999 -0.011117 0.86454999
0.14329 -0.011116 0.86444998
0.14475 -0.011116 0.86443001
0.14618 -0.011113 0.86426002
0.14766 -0.011114 0.86434001
0.14916 -0.011118 0.86458999
0.15063 -0.011118 0.86461997
0.15214001 -0.011121 0.86488003
0.15364 -0.011125 0.86513001
0.15518001 -0.01113 0.86554998
0.15672 -0.011136 0.86598998
0.15828 -0.011143 0.86653
0.15983 -0.011148 0.86695999
0.16139001 -0.011154 0.86745
0.1629 -0.011158 0.86772001
0.16444001 -0.011163 0.86808997
0.16595 -0.011165 0.86829001
0.16748001 -0.01117 0.86862999
0.16901 -0.011174 0.86896002
0.17053001 -0.011177 0.86922002
0.17206 -0.011181 0.86950999
0.17364 -0.011188 0.87009001
0.17524 -0.011196 0.87071002
0.17681 -0.011202 0.87118
0.17844 -0.011213 0.87197
0.18006 -0.011221 0.87265998
0.18167999 -0.01123 0.87336999
0.18331 -0.01124 0.87408
0.18497001 -0.011251 0.87497002
0.18662 -0.011261 0.87576997
0.18826 -0.011271 0.87650001
0.18993001 -0.011282 0.87737
0.19160999 -0.011293 0.87826997
0.19333 -0.011308 0.87936002
0.19507 -0.011322 0.88046998
0.19686 -0.011339 0.88182002
0.19863001 -0.011355 0.88309002
0.20037 -0.011369 0.88417
0.20205 -0.01138 0.88498998
0.20378999 -0.011393 0.88603997
0.20557 -0.011409 0.88726997
0.20744 -0.01143 0.88884997
0.2113 -0.011559 0.89888
0.21385001 -0.011614 0.90320998
0.21549 -0.013152 0.90368003
0.21642999 -0.011671 0.90762001
0.21777 -0.013198 0.90684003
0.21870001 -0.011711 0.91071999
0.2217 -0.013342 0.91672999
-0.027690001 -0.011465 1.027
-0.025935 -0.011457 1.0262001
-0.024188999 -0.011451 1.0258
-0.022444 -0.011446 1.0253
-0.020701 -0.01144 1.0247999
-0.018952001 -0.01143 1.0239
-0.017240001 -0.01318 1.025
-0.017193999 -0.011412 1.0223
-0.015481 -0.013158 1.0233001
-0.015432 -0.011387 1.02
-0.013637 -0.011329 1.0148
-0.0032134999 -0.010887 0.97525001
-0.0015545 -0.010816 0.96885002
8.3206003e-05 -0.010791 0.96666002
0.0017129 -0.010763 0.96412998
0.0033344999 -0.010737 0.96174002
0.0049442002 -0.010702 0.95859998
0.0065445998 -0.010669 0.95565999
0.0081326002 -0.010633 0.95243001
0.0097102998 -0.010597 0.94924998
0.011279 -0.010563 0.94620001
0.012842 -0.010533 0.94351
0.014397 -0.010504 0.94089001
0.015951 -0.01048 0.93874002
0.017496999 -0.010455 0.93655998
0.01904 -0.010434 0.9346
0.020578001 -0.010412 0.93269998
0.022121999 -0.010397 0.93129998
0.023661001 -0.010381 0.92991
0.025178 -0.010358 0.92786998
0.026688 -0.010336 0.92584997
0.028191 -0.010313 0.92379999
0.029688001 -0.010291 0.92180997
0.031195 -0.010274 0.92027003
0.032731999 -0.010268 0.91977
0.034260001 -0.01026 0.91903001
0.035783999 -0.010251 0.91828001
0.037299 -0.010241 0.91737002
0.038807001 -0.01023 0.91635001
0.040305 -0.010217 0.91518998
0.041800998 -0.010204 0.91406
0.043308999 -0.010195 0.91327
0.044810001 -0.010186 0.91240001
0.046303999 -0.010175 0.91145003
0.047804002 -0.010166 0.91066003
0.049311001 -0.01016 0.91008002
0.050799001 -0.01015 0.90916002
0.052297 -0.010142 0.90849
0.053801998 -0.010136 0.90798002
0.055286001 -0.010127 0.90713
0.056767002 -0.010118 0.90628999
0.058242999 -0.010108 0.90542001
0.059709001 -0.010097 0.90445
0.061172999 -0.010086 0.90349001
0.062661 -0.01008 0.90292001
0.064156003 -0.010075 0.90246999
0.065674998 -0.010074 0.90237999
0.067180999 -0.010071 0.90211999
0.068671003 -0.010066 0.90165001
0.070156001 -0.01006 0.90114999
0.071633004 -0.010054 0.90056998
0.073059998 -0.010041 0.8994
0.074473001 -0.010026 0.89810002
0.075883999 -0.010012 0.89683002
0.077278003 -0.0099961003 0.89541
0.078671999 -0.0099809002 0.89405
0.080086 -0.0099689001 0.89297003
0.081527002 -0.0099603999 0.89222002
0.082965001 -0.0099520003 0.89146
0.084386997 -0.0099419001 0.89055997
0.085812002 -0.0099326996 0.88972998
0.087226003 -0.0099224001 0.88880998
0.088634998 -0.009912 0.88787001
0.090007998 -0.0098978002 0.88660997
0.091410004 -0.0098874001 0.88568002
0.092767999 -0.0098724999 0.88433999
0.094172001 -0.0098630004 0.88349003
0.095567003 -0.0098529002 0.88257998
0.097009003 -0.0098476997 0.88212001
0.098406002 -0.0098382998 0.88128
0.099795997 -0.0098285004 0.8804
0.10117 -0.0098169995 0.87936997
0.10252 -0.0098045003 0.87825
0.10385 -0.0097898999 0.87694001
0.10523 -0.00978 0.87605
0.10664 -0.0097738001 0.87550002
0.10802 -0.0097650001 0.87471002
0.10941 -0.0097570997 0.87400001
0.11083 -0.0097519001 0.87353998
0.11225 -0.0097468998 0.87309003
0.11367 -0.0097423 0.87266999
0.11512 -0.0097394995 0.87243003
0.11658 -0.0097383996 0.87233001
0.11804 -0.0097374003 0.87224001
0.11949 -0.0097356997 0.87208998
0.12093 -0.0097329998 0.87184
0.12235 -0.0097279996 0.8714
0.12374 -0.0097216005 0.87081999
0.12513 -0.0097152004 0.87024999
0.12651999 -0.0097092995 0.86971998
0.12789001 -0.0097019002 0.86905998
0.12927 -0.009695 0.86843997
0.13064 -0.0096878 0.86778998
0.132 -0.0096798996 0.86708999
0.13338 -0.0096733999 0.86650002
0.1348 -0.0096706003 0.86625999
0.13624001 -0.0096688 0.86610001
0.13764 -0.0096642002 0.86568999
0.13909 -0.0096629998 0.86557001
0.14050999 -0.0096599003 0.8653
0.14192 -0.0096562998 0.86497998
0.14336 -0.0096552996 0.86488003
0.14482 -0.0096551003 0.86486
0.14625999 -0.0096533 0.86470002
0.14772999 -0.0096541001 0.86478001
0.14924 -0.0096568996 0.86502999
0.15071 -0.0096573997 0.86506999
0.15222 -0.0096604005 0.86533999
0.15374 -0.0096640997 0.86567003
0.15531 -0.0096706999 0.86625999
0.15686999 -0.0096768001 0.86681002
0.15845001 -0.0096838996 0.86743999
0.16001 -0.0096896999 0.86795998
0.16157 -0.0096950997 0.86844999
0.16309001 -0.0096981004 0.86872
0.16464999 -0.0097032003 0.86917001
0.16617 -0.0097064003 0.86947
0.16771001 -0.0097102001 0.86979997
0.16924 -0.0097137997 0.87011999
0.17073999 -0.0097156996 0.87029999
0.17227 -0.0097188 0.87057
0.17386 -0.0097254999 0.87116998
0.17546 -0.0097326003 0.87180001
0.17704999 -0.0097387005 0.87234998
0.17868 -0.0097473003 0.87313002
0.18028 -0.0097540999 0.87374002
0.18190999 -0.0097620999 0.87445003
0.18355 -0.0097709997 0.87524998
0.18522 -0.0097810999 0.87615001
0.1869 -0.0097912 0.87704998
0.18855 -0.0098002004 0.87786001
0.19023 -0.0098101003 0.87875003
0.19191 -0.0098200999 0.87963998
0.19362 -0.0098312004 0.88063997
0.19532999 -0.0098424004 0.88164002
0.19711 -0.0098572997 0.88296998
0.19887 -0.0098703997 0.88415003
0.20062 -0.0098826997 0.88525999
0.20234001 -0.0098938001 0.88625002
0.20413999 -0.0099083995 0.88756001
0.20599 -0.0099253999 0.88907999
0.20795 -0.0099472003 0.89103001
0.21197 -0.010066 0.90170002
0.21462999 -0.01012 0.90653002
0.21739 -0.010178 0.91167998
-0.042176001 -0.011629 1.0417
-0.043712001 -0.0098130004 1.0364
-0.041924 -0.0098045003 1.0355
-0.040213998 -0.011572 1.0365
-0.040121 -0.0097917998 1.0341001
-0.038421001 -0.011559 1.0354
-0.038314 -0.0097767999 1.0326
-0.036630001 -0.011546 1.0343
-0.036515001 -0.0097626001 1.0311
-0.034830999 -0.01153 1.0328
-0.034726001 -0.0097495997 1.0297
-0.03303 -0.011511 1.0311
-0.032931998 -0.0097340001 1.028
-0.031238999 -0.011493 1.0295
-0.031155 -0.0097214999 1.0267
-0.029463001 -0.011479 1.0283
-0.029386999 -0.0097110998 1.0256
-0.027620999 -0.0096998997 1.0244
-0.025862999 -0.0096899997 1.0233999
-0.024119001 -0.0096843997 1.0228
-0.022375001 -0.0096779 1.0221
-0.020636 -0.0096723996 1.0215
-0.018890999 -0.0096634999 1.0206
-0.017140999 -0.0096495999 1.0191
-0.015388 -0.0096303998 1.0171
-0.01361 -0.0095897 1.0128
-0.011838 -0.011249 1.0077
-0.01185 -0.0095509999 1.0087
-0.010111 -0.0095194001 1.0053999
-0.0048929001 -0.010956 0.98140001
-0.0032315999 -0.0092863999 0.98075998
-0.0015626 -0.0092211002 0.97386003
8.3496998e-05 -0.0091896001 0.97053999
0.0017181 -0.0091569005 0.96709001
0.0033416001 -0.0091257002 0.96380001
0.0049513001 -0.0090896003 0.95998001
0.00655 -0.0090562003 0.95644999
0.0081393002 -0.0090255002 0.95321
0.0097182998 -0.0089955004 0.95003998
0.011289 -0.0089672003 0.94704998
0.012852 -0.0089405999 0.94424999
0.014407 -0.0089154998 0.94159001
0.015959 -0.0088932002 0.93923002
0.017503001 -0.0088707004 0.93686002
0.019042 -0.0088502998 0.93470001
0.020576 -0.0088304002 0.93260998
0.022117 -0.0088163 0.93111002
0.023654001 -0.0088023003 0.92962998
0.025175 -0.0087845996 0.92777002
0.026684999 -0.0087655 0.92575002
0.028191 -0.0087470002 0.92379999
0.029689001 -0.0087283002 0.92181998
0.031197 -0.0087144999 0.92036003
0.032731999 -0.0087088002 0.91977
0.034260001 -0.0087019 0.91903001
0.035787001 -0.0086955996 0.91835999
0.037303999 -0.0086871004 0.91746998
0.038812 -0.0086776 0.91646999
0.040314 -0.0086674001 0.91539001
0.041809998 -0.0086567001 0.91425002
0.043313999 -0.0086484002 0.91338003
0.044810001 -0.0086391997 0.91241002
0.046303 -0.0086300001 0.91144001
0.047798 -0.0086217001 0.91056001
0.049300998 -0.0086153001 0.90989
0.050788 -0.0086065996 0.90897
0.052296001 -0.0086019002 0.90846997
0.053801998 -0.0085971002 0.90797001
0.055286001 -0.0085893003 0.90714002
0.056777999 -0.0085829003 0.90647
0.058254 -0.0085746003 0.90559
0.059716001 -0.0085647004 0.90454
0.061179001 -0.0085556004 0.90358001
0.062666997 -0.0085501 0.903
0.064156003 -0.0085450001 0.90246999
0.065674998 -0.0085442998 0.90237999
0.067180999 -0.0085418001 0.90211999
0.068671003 -0.0085373996 0.90166003
0.070156999 -0.0085327001 0.90116
0.071633004 -0.0085271001 0.90056998
0.073068 -0.0085169002 0.89950001
0.074490003 -0.0085057002 0.89831001
0.075910002 -0.0084945997 0.89714003
0.077303998 -0.0084811002 0.89570999
0.078704 -0.0084688002 0.89441001
0.080118001 -0.0084584998 0.89332002
0.081551 -0.0084504997 0.89248002
0.082980998 -0.0084424997 0.89162999
0.084402002 -0.0084338002 0.89072001
0.085812002 -0.0084244004 0.88972998
0.087217003 -0.0084148999 0.88871998
0.088627003 -0.0084060999 0.88779002
0.090007998 -0.0083948998 0.88660997
0.091412 -0.0083862003 0.88568997
0.092785001 -0.0083750002 0.88450998
0.0942 -0.0083678002 0.88375002
0.095596001 -0.0083593 0.88284999
0.097029001 -0.0083542001 0.88230997
0.098425001 -0.0083461003 0.88146001
0.099804997 -0.0083368998 0.88047999
0.10117 -0.0083263004 0.87936997
0.10251 -0.0083149998 0.87817001
0.10384 -0.0083024995 0.87685001
0.10522 -0.0082940999 0.87597001
0.10662 -0.0082881004 0.87532997
0.10799 -0.0082799997 0.87447
0.10939 -0.0082740001 0.87383997
0.11081 -0.0082695 0.87336999
0.11223 -0.0082654003 0.87292999
0.11366 -0.0082622003 0.87259001
0.11514 -0.008262 0.87256998
0.11662 -0.0082625998 0.87263
0.11811 -0.0082633998 0.87272
0.11957 -0.0082628997 0.87266999
0.12104 -0.0082622003 0.87260002
0.12245 -0.0082582003 0.87216997
0.12385 -0.0082529997 0.87163001
0.12525 -0.0082478998 0.87107998
0.12664001 -0.0082430001 0.87055999
0.12799001 -0.0082350997 0.86973
0.12936001 -0.0082283001 0.86900997
0.13070001 -0.0082203997 0.86817998
0.13203 -0.0082120001 0.86729997
0.13338999 -0.0082056001 0.86660999
0.13482 -0.0082029998 0.86635
0.13626 -0.0082015004 0.86618
0.13767 -0.0081983004 0.86584997
0.13913 -0.0081981001 0.86583
0.14056 -0.0081963995 0.86563998
0.14199001 -0.0081941001 0.86540002
0.14342999 -0.0081932005 0.86531001
0.14489 -0.0081930999 0.8653
0.14633 -0.0081917001 0.86514997
0.14781 -0.0081924004 0.86523002
0.14932001 -0.0081949001 0.86548001
0.15078001 -0.0081952 0.86550999
0.15231 -0.0081983004 0.86584997
0.15384001 -0.0082021998 0.86625999
0.15543 -0.0082087005 0.86694998
0.15702 -0.0082149999 0.86760998
0.15862 -0.0082219001 0.86834002
0.16018 -0.008227 0.86887997
0.16176 -0.0082323998 0.86944997
0.16328999 -0.0082357004 0.86979002
0.16485 -0.0082398998 0.87023997
0.16639 -0.0082433997 0.87061
0.16793001 -0.0082467003 0.87096
0.16945 -0.0082489001 0.87119001
0.17095 -0.0082505001 0.87136
0.1725 -0.0082539003 0.87172002
0.17408 -0.0082590003 0.87225997
0.17569 -0.0082657002 0.87295997
0.17730001 -0.0082716998 0.87360001
0.17893 -0.0082790004 0.87436998
0.18054 -0.0082849003 0.875
0.18218 -0.0082924003 0.87577999
0.18382999 -0.0083001005 0.87660003
0.18550999 -0.0083085997 0.87748998
0.18719999 -0.0083179995 0.87848997
0.18888 -0.0083264997 0.87939
0.19056 -0.0083349999 0.88028997
0.19222 -0.0083426004 0.88108999
0.19391 -0.008351 0.88196999
0.19558001 -0.0083587002 0.88279003
0.19733 -0.0083697001 0.88395
0.19909 -0.0083809001 0.88514
0.20085999 -0.0083924001 0.88634002
0.20263 -0.0084036002 0.88753003
0.20452 -0.0084196003 0.88922
0.20647 -0.0084376996 0.89112997
0.20851 -0.0084592998 0.89341003
0.21414 -0.0086254003 0.91095001
-0.051297002 -0.0099245999 1.0482
-0.052659001 -0.0080848997 1.0401
-0.050864 -0.0080791004 1.0393
-0.049286999 -0.0098767998 1.0431
-0.049047001 -0.0080690999 1.038
-0.047311001 -0.0098328004 1.0385
-0.047242999 -0.0080607999 1.0369999
-0.045511998 -0.0098233996 1.0375
-0.045430999 -0.0080503002 1.0355999
-0.043614 -0.0080380999 1.0341001
-0.041816 -0.0080284998 1.0328
-0.040008001 -0.0080161002 1.0312001
-0.038192999 -0.0080011003 1.0293
-0.036387 -0.0079867002 1.0274
-0.034604002 -0.0079758996 1.0261
-0.032820001 -0.0079640998 1.0245
-0.031052999 -0.0079549998 1.0233999
-0.029297 -0.0079480996 1.0225
-0.027544999 -0.0079410998 1.0216
-0.025788 -0.0079319999 1.0204
-0.024042999 -0.0079255998 1.0196
-0.022298999 -0.0079183001 1.0186
-0.020558 -0.0079108998 1.0177
-0.018812999 -0.0079004997 1.0164
-0.017072 -0.00789 1.015
-0.01533 -0.0078769 1.0132999
-0.013589 -0.0078606 1.0112
-0.011861 -0.0078485003 1.0096999
-0.010142 -0.0078389999 1.0084
-0.0083651999 -0.0094668996 0.99983001
-0.0084034996 -0.0078075998 1.0044
-0.0066285999 -0.0094010001 0.99286997
-0.0066658002 -0.0077614002 0.99844998
-0.0049504 -0.0077184001 0.99293
-0.0015715 -0.0076136002 0.97943997
8.3977e-05 -0.0075856 0.97583997
0.0017258 -0.007551 0.97139001
0.0033531 -0.0075177001 0.96710002
0.0049637998 -0.0074811 0.96240002
0.0065612001 -0.0074474998 0.95807999
0.0081455996 -0.0074153999 0.95394999
0.0097267004 -0.0073914002 0.95086002
0.011298 -0.0073680999 0.94787002
0.012861 -0.0073456001 0.94496
0.014417 -0.0073242998 0.94221997
0.015968001 -0.0073052002 0.93976003
0.017510001 -0.0072858999 0.93729001
0.019049 -0.0072682002 0.93501002
0.020581 -0.0072511001 0.93281001
0.022120001 -0.0072385999 0.93120998
0.023655999 -0.0072271 0.92971998
0.025177 -0.0072126999 0.92786002
0.026688 -0.0071971002 0.92585999
0.028197 -0.0071826 0.92400002
0.029695 -0.0071673002 0.92202997
0.031204 -0.0071558999 0.92056
0.032736 -0.0071505001 0.91987002
0.034260001 -0.0071439999 0.91904002
0.035783999 -0.0071382001 0.91828001
0.037303999 -0.0071319998 0.91749001
0.038817 -0.0071248999 0.91658002
0.040320002 -0.0071167001 0.91552001
0.041818999 -0.0071085002 0.91446
0.043322999 -0.0071016001 0.91358
0.044815 -0.0070932 0.91250002
0.046308 -0.0070857001 0.91153002
0.047803 -0.0070787999 0.91065001
0.049306002 -0.0070735998 0.90996999
0.050797001 -0.007067 0.90912998
0.052310001 -0.0070638 0.90871
0.053817 -0.0070600002 0.90823001
0.055309001 -0.0070544002 0.90750998
0.056807 -0.0070500001 0.90693998
0.058285002 -0.0070432001 0.90606999
0.059741002 -0.0070344 0.90493
0.0612 -0.0070262002 0.90386999
0.062679999 -0.0070207999 0.90319002
0.064162001 -0.0070159002 0.90256
0.065669 -0.0070139002 0.9023
0.067175001 -0.0070119002 0.90204
0.068663999 -0.0070083002 0.90157002
0.070150003 -0.0070043998 0.90107
0.071621001 -0.0069992999 0.90042001
0.073069997 -0.0069923 0.89951003
0.074499004 -0.0069837002 0.89841002
0.075925998 -0.0069753001 0.89732999
0.077321 -0.0069642998 0.89591998
0.078727998 -0.0069547999 0.89469999
0.080141 -0.0069462 0.89358002
0.081568003 -0.006939 0.89266002
0.082989998 -0.0069317999 0.89173001
0.084411003 -0.0069245999 0.89081001
0.085827 -0.0069173998 0.88988
0.087224998 -0.0069090002 0.88880002
0.088634998 -0.0069018002 0.88788003
0.090016998 -0.0068927002 0.88669997
0.091421001 -0.0068855002 0.88577998
0.092795998 -0.0068764002 0.88461
0.094219998 -0.0068712998 0.88395
0.095618002 -0.0068644001 0.88305998
0.097052 -0.0068601999 0.88252002
0.098445997 -0.0068533998 0.88164002
0.099823996 -0.0068456 0.88064998
0.10118 -0.0068362998 0.87945002
0.10252 -0.0068270001 0.87826002
0.10385 -0.0068167001 0.87693
0.10522 -0.0068096998 0.87603003
0.10662 -0.0068043 0.87532997
0.10799 -0.0067976001 0.87447
0.10939 -0.0067926999 0.87383997
0.11081 -0.0067889998 0.87336999
0.11223 -0.0067856 0.87292999
0.11365 -0.0067824 0.87252003
0.11514 -0.0067829001 0.87257999
0.11662 -0.0067836 0.87265998
0.11811 -0.0067844 0.87277001
0.11959 -0.0067846002 0.87279999
0.12108 -0.0067852 0.87287003
0.12251 -0.0067826002 0.87252998
0.12393 -0.0067798002 0.87217999
0.12534 -0.0067763999 0.87175
0.12673999 -0.0067725 0.87124002
0.12808999 -0.0067659002 0.87039
0.12943999 -0.0067595001 0.86956
0.13077 -0.0067523001 0.86864001
0.13209 -0.0067448001 0.86767
0.13344 -0.0067387 0.86689001
0.13485 -0.0067357998 0.86651999
0.13627 -0.0067337998 0.86625999
0.13767999 -0.0067313001 0.86593997
0.13913999 -0.0067312 0.86592001
0.14059 -0.0067304 0.86583
0.14203 -0.0067292 0.86567003
0.14349 -0.0067292 0.86567003
0.14496 -0.0067290999 0.86566001
0.14641 -0.0067285001 0.86558998
0.14788 -0.0067292 0.86567003
0.14939 -0.0067310999 0.86590999
0.15087 -0.0067318999 0.86601001
0.15239 -0.0067345002 0.86635
0.15392999 -0.0067377002 0.86677003
0.15554 -0.0067436998 0.86754
0.15714 -0.0067495001 0.86829001
0.15874 -0.0067554 0.86904001
0.16033 -0.0067602 0.86966002
0.16192 -0.0067651998 0.87031001
0.16345 -0.0067679002 0.87064999
0.16501001 -0.0067714001 0.87111002
0.16655999 -0.0067743999 0.87149
0.1681 -0.0067770998 0.87182999
0.16962001 -0.0067790002 0.87207001
0.17114 -0.0067809001 0.87233001
0.17269 -0.0067837001 0.87269002
0.17429 -0.0067885998 0.87331003
0.17591 -0.0067941002 0.87401998
0.17753001 -0.0067997002 0.87474
0.17917 -0.0068057999 0.87553
0.18080001 -0.0068113999 0.87625003
0.18245 -0.0068176002 0.87704003
0.18411 -0.0068244999 0.87792999
0.18579 -0.0068315002 0.87883002
0.18749 -0.0068391999 0.87983
0.18917 -0.0068462999 0.88073999
0.19084001 -0.0068525998 0.88155001
0.19248 -0.0068581998 0.88226002
0.19415 -0.0068643 0.88305998
0.19580001 -0.0068699 0.88378
0.19753 -0.0068783001 0.88485998
0.19930001 -0.0068875998 0.88604999
0.20108999 -0.0068977 0.88735002
0.20296 -0.0069104 0.88897997
0.20497 -0.0069273999 0.89117002
0.20702 -0.0069456999 0.89352
0.20915 -0.0069664 0.89618999
-0.054880999 -0.0063756998 1.0489
-0.052622002 -0.0063173999 1.0393
-0.050813999 -0.0063109999 1.0383
-0.048983 -0.0063012 1.0367
-0.04716 -0.0062918002 1.0351
-0.045334 -0.0062814001 1.0334001
-0.043506999 -0.0062698 1.0315
-0.041703999 -0.0062608998 1.03
-0.039891001 -0.0062497002 1.0282
-0.038075 -0.0062370002 1.0261
-0.03627 -0.0062249 1.0240999
-0.034492001 -0.0062165 1.0228
-0.032717999 -0.0062079998 1.0213
-0.030956 -0.006201 1.0202
-0.029203 -0.0061948998 1.0192
-0.027456 -0.0061893002 1.0183001
-0.025700999 -0.0061813998 1.017
-0.023956999 -0.0061749001 1.0159
-0.022213001 -0.0061675999 1.0147001
-0.020473 -0.0061602001 1.0135
-0.018733 -0.0061514 1.012
-0.017000001 -0.0061436002 1.0107
-0.015269 -0.0061344998 1.0093
-0.013541 -0.0061247 1.0075999
-0.011823 -0.0061172 1.0064
-0.010109 -0.0061093001 1.0051
-0.0083902003 -0.0060953 1.0028
-0.0066698999 -0.0060724998 0.99905998
-0.0049605002 -0.0060477001 0.99497998
-0.0032500001 -0.0076669999 0.98632002
-0.0032635001 -0.0060200999 0.99043
-0.0015813001 -0.0059902002 0.98552001
8.4451e-05 -0.0059666 0.98163003
0.0049871001 -0.0058772 0.96692997
0.0065847002 -0.0058443998 0.96152002
0.0081668003 -0.0058134999 0.95643997
0.0097423997 -0.0057889 0.95240003
0.011307 -0.0057656001 0.94857001
0.012874 -0.0057492 0.94586998
0.014434 -0.0057338001 0.94334
0.015985999 -0.0057183998 0.94079
0.017527999 -0.0057027 0.93821001
0.019063 -0.0056874999 0.93572003
0.020593001 -0.0056733 0.93339002
0.022127001 -0.0056619002 0.93150002
0.023662999 -0.0056528002 0.93000001
0.025185 -0.0056415 0.92815
0.026698999 -0.0056298999 0.92624003
0.028209001 -0.0056187999 0.92440999
0.029711001 -0.0056073 0.92251998
0.031218 -0.0055979001 0.92097002
0.032745998 -0.005593 0.92016
0.03427 -0.0055877999 0.91930997
0.035794001 -0.0055831 0.91854
0.037319001 -0.0055788001 0.91784
0.038837001 -0.0055740001 0.91703999
0.040344 -0.0055681001 0.91608
0.041841 -0.0055612 0.91494
0.043345001 -0.0055557 0.91404003
0.044833001 -0.0055487002 0.91286999
0.046326999 -0.0055427998 0.91189998
0.047819 -0.005537 0.91095001
0.049322002 -0.0055328002 0.91026998
0.050813001 -0.0055276002 0.90942001
0.052326001 -0.0055251 0.90899998
0.053835001 -0.0055223 0.90853
0.055334002 -0.0055185999 0.90792
0.056839 -0.0055156001 0.90744001
0.058318 -0.0055104 0.90658998
0.059769001 -0.0055030002 0.90535998
0.061221 -0.0054958998 0.90419
0.062693998 -0.0054910001 0.90338999
0.064168997 -0.0054865 0.90265
0.065663002 -0.0054838001 0.90221
0.067166999 -0.0054822001 0.90192997
0.068655998 -0.0054792999 0.90145999
0.070142001 -0.0054763001 0.90096998
0.071620002 -0.0054728002 0.90039998
0.073089004 -0.0054688998 0.89974999
0.074519999 -0.0054623 0.89866
0.075948998 -0.0054557999 0.8976
0.077344 -0.0054472 0.89617997
0.078744002 -0.0054393001 0.89486998
0.080150001 -0.0054319999 0.89368999
0.081584997 -0.0054270001 0.89284998
0.083010003 -0.0054214001 0.89194
0.084436998 -0.0054163001 0.89108998
0.085854001 -0.0054106 0.89016002
0.087251 -0.0054039001 0.88906002
0.088661 -0.0053983 0.88813001
0.090052001 -0.0053917002 0.88704997
0.091449 -0.0053856 0.88604999
0.092832997 -0.0053790999 0.88497001
0.094250001 -0.0053745001 0.88423002
0.095641002 -0.0053686998 0.88326001
0.097065002 -0.0053647999 0.88262999
0.098466001 -0.0053599002 0.88182002
0.099844001 -0.0053539001 0.88082999
0.10121 -0.0053471001 0.87971997
0.10256 -0.0053404002 0.87861001
0.10389 -0.0053323 0.87728
0.10526 -0.0053262999 0.87629002
0.10665 -0.0053218999 0.87557
0.10802 -0.0053166999 0.87471002
0.10942 -0.0053129001 0.87408
0.11084 -0.0053101 0.87361997
0.11226 -0.0053074001 0.87317997
0.11367 -0.0053043999 0.87268001
0.11515 -0.0053043002 0.87266999
0.11663 -0.0053043999 0.87269002
0.11813 -0.0053055999 0.87289
0.11961 -0.0053058001 0.87291998
0.1211 -0.0053066998 0.87307
0.12255 -0.0053054998 0.87287003
0.124 -0.0053043999 0.87268001
0.12543 -0.0053023002 0.87234998
0.12684 -0.0052998001 0.87191999
0.12819 -0.0052944999 0.87106001
0.12953 -0.005289 0.87015003
0.13084 -0.0052828002 0.86914003
0.13214999 -0.0052764998 0.86808997
0.13349 -0.0052712001 0.86723
0.13489 -0.0052685002 0.86677998
0.13629 -0.0052662999 0.86641997
0.13771001 -0.0052642999 0.86610001
0.13916001 -0.0052637998 0.86601001
0.14060999 -0.0052633998 0.86593002
0.14206 -0.0052629001 0.86584997
0.14352 -0.0052629001 0.86584997
0.14499 -0.0052629001 0.86584997
0.14646 -0.0052633001 0.86593002
0.14796001 -0.0052642999 0.86609
0.14946 -0.0052657998 0.86633998
0.15096 -0.0052669998 0.86651999
0.15248001 -0.0052689998 0.86685997
0.15402 -0.0052716001 0.86729002
0.15563001 -0.0052764001 0.86807001
0.15723 -0.0052808002 0.86879998
0.15883 -0.0052852998 0.86953998
0.16043 -0.0052894 0.87022001
0.16201 -0.005293 0.87080997
0.16355 -0.0052951998 0.87116998
0.16511001 -0.0052979998 0.87163001
0.16666999 -0.0053007002 0.87208003
0.16821 -0.0053029 0.87243003
0.16975001 -0.0053049 0.87277001
0.17130999 -0.0053074001 0.87318999
0.17287999 -0.0053102002 0.87364
0.1745 -0.0053145001 0.87435001
0.17613 -0.0053194002 0.87515002
0.17779 -0.0053246999 0.87603003
0.17944001 -0.0053297002 0.87685001
0.18109 -0.0053345999 0.87765998
0.18274 -0.0053396001 0.87847
0.18441001 -0.0053448998 0.87935001
0.18607 -0.0053499001 0.88016999
0.18776999 -0.0053559002 0.88116002
0.18945999 -0.0053615002 0.88207
0.19111 -0.0053659002 0.88281
0.19275001 -0.0053702001 0.88350999
0.1944 -0.0053745001 0.88422
0.19608 -0.0053794002 0.88502002
0.19781999 -0.0053861002 0.88612002
0.19961999 -0.0053943 0.88748002
0.20149 -0.0054043001 0.88911998
0.2035 -0.0054175998 0.89130998
0.20558 -0.0054329 0.89383
0.20771 -0.0054492 0.89651
0.20985 -0.0054655001 0.89919001
-0.054698002 -0.0045822002 1.0454
-0.052499998 -0.0045448998 1.0369
-0.050698001 -0.0045405002 1.0359
-0.048852999 -0.0045318999 1.034
-0.047017999 -0.0045234999 1.0319999
-0.045194998 -0.0045157 1.0303
-0.043368001 -0.0045067999 1.0282
-0.041570999 -0.0045003998 1.0268
-0.039767999 -0.0044928999 1.025
-0.037960999 -0.0044840998 1.0231
-0.036157999 -0.0044749002 1.021
-0.034378 -0.0044678999 1.0194
-0.032602999 -0.0044608 1.0177
-0.03084 -0.0044547999 1.0164
-0.029088 -0.0044495999 1.0152
-0.027345 -0.0044451999 1.0142
-0.025598001 -0.0044395998 1.0129
-0.02386 -0.0044347998 1.0118001
-0.022120999 -0.0044291001 1.0105
-0.020385001 -0.0044232002 1.0091
-0.018657001 -0.0044177999 1.0079
-0.016935 -0.0044133002 1.0069
-0.015215 -0.004408 1.0057
-0.013501 -0.0044034999 1.0046999
-0.01179 -0.0043986998 1.0036
-0.010078 -0.0043919999 1.002
-0.0083657997 -0.0043826001 0.99989003
-0.0066606002 -0.0043728999 0.99768001
-0.0049613998 -0.0043617999 0.99515003
-0.0032708 -0.0043508001 0.99263
-0.001588 -0.004338 0.98970002
8.4906002e-05 -0.0043242001 0.98655999
0.0017358999 -0.0059390999 0.97711003
0.0017451 -0.0043054 0.98228002
0.0033727 -0.0059126001 0.97275001
0.0033914 -0.0042873002 0.97812998
0.0066147 -0.0042336001 0.96588999
0.0081947995 -0.0042065 0.95971
0.0097647998 -0.0041840998 0.95459002
0.011322 -0.0041633002 0.94985998
0.01288 -0.0041478998 0.94634002
0.014446 -0.0041381 0.94410002
0.016001999 -0.0041278 0.94173998
0.017545 -0.0041164001 0.93914998
0.019078 -0.0041045998 0.93645
0.020607 -0.0040938002 0.93401003
0.022136001 -0.0040846001 0.93190002
0.023670999 -0.0040775998 0.93031001
0.025195999 -0.0040699001 0.92853999
0.026714001 -0.0040620002 0.92673999
0.028224999 -0.0040540001 0.92492002
0.02973 -0.0040461002 0.92312002
0.031238001 -0.0040393001 0.92155999
0.032761 -0.0040349001 0.92056
0.034283999 -0.0040310998 0.91969001
0.035808999 -0.0040277001 0.91891003
0.037333999 -0.0040246001 0.91821003
0.038853001 -0.0040211999 0.91744
0.040362 -0.0040170001 0.91649002
0.041859001 -0.0040119998 0.91534001
0.043359 -0.0040075998 0.91434002
0.044847 -0.0040024999 0.91316998
0.046337999 -0.0039979001 0.91211998
0.047830999 -0.0039937999 0.91118002
0.04933 -0.0039904001 0.91040999
0.050825 -0.0039869999 0.90963
0.052340001 -0.0039852001 0.90922999
0.053854998 -0.0039836001 0.90886003
0.055360001 -0.0039813002 0.90833998
0.056869999 -0.0039796 0.90794998
0.058350001 -0.0039757998 0.90707999
0.059796002 -0.00397 0.90575999
0.061241001 -0.0039645 0.90448999
0.062706999 -0.0039605 0.90358001
0.064175002 -0.0039567999 0.90274
0.065655999 -0.0039541 0.90211999
0.067152999 -0.0039523998 0.90174001
0.068640001 -0.0039503002 0.90125
0.070124999 -0.0039480999 0.90075999
0.071603999 -0.0039456999 0.90021002
0.073089004 -0.0039436999 0.89974999
0.074533999 -0.0039396998 0.89883
0.075971998 -0.0039355 0.89787
0.077375002 -0.0039296001 0.89653999
0.078776002 -0.0039239 0.89523
0.080182001 -0.0039185998 0.89402997
0.081616998 -0.0039149998 0.89320999
0.083035998 -0.0039106999 0.89222997
0.084464997 -0.0039070002 0.89139003
0.085890003 -0.0039033 0.89054
0.087287001 -0.0038985 0.88942999
0.088698998 -0.0038944001 0.88850999
0.090098001 -0.0038900001 0.88749999
0.091486998 -0.0038852999 0.88642001
0.092871003 -0.0038805001 0.88533002
0.094287001 -0.0038772 0.88457
0.095669001 -0.0038725999 0.88352001
0.097084001 -0.0038693999 0.88279998
0.098494001 -0.0038662001 0.88207
0.099872999 -0.0038619 0.88107997
0.10124 -0.0038570999 0.88
0.10261 -0.0038527001 0.87900001
0.10395 -0.0038472 0.87774003
0.1053 -0.0038425 0.87667
0.10668 -0.0038389 0.87584001
0.10806 -0.0038351 0.87497002
0.10946 -0.0038323 0.87435001
0.11088 -0.0038304001 0.8739
0.1123 -0.0038284 0.87345999
0.11373 -0.0038268999 0.87309998
0.1152 -0.0038268 0.87309003
0.11667 -0.0038264999 0.87300998
0.11817 -0.0038274 0.87322003
0.11966 -0.0038278 0.87331003
0.12114 -0.0038278 0.87331003
0.12259 -0.003827 0.87312001
0.12405 -0.0038264999 0.87300998
0.12548 -0.003825 0.87266999
0.12689 -0.0038230999 0.87225002
0.12825 -0.0038197001 0.87146002
0.1296 -0.003816 0.87063003
0.13093001 -0.0038119999 0.86971003
0.13224 -0.0038075 0.86868
0.13358 -0.0038038001 0.86782998
0.13496 -0.0038014001 0.86729002
0.13635001 -0.0037990999 0.86676002
0.13775 -0.0037972 0.86633998
0.13918 -0.0037964999 0.86616999
0.14064001 -0.0037962 0.86610001
0.14210001 -0.0037962 0.86610001
0.14356001 -0.0037962 0.86610001
0.14503001 -0.0037962 0.86610001
0.14652 -0.0037968999 0.86625999
0.14801 -0.0037976999 0.86642998
0.14951999 -0.0037988001 0.86669999
0.15104 -0.0038000001 0.86697
0.15257999 -0.0038019 0.86739999
0.15412 -0.0038038001 0.86783999
