# .PCD v0.7 - Point Cloud Data file format
VERSION 0.7
FIELDS x y z
SIZE 4 4 4
TYPE F F F
COUNT 1 1 1
WIDTH 1503
HEIGHT 1
VIEWPOINT 0 0 0 1 0 0 0
POINTS 1503
DATA ascii
0.079347 0.01188 0.74440998
0.080808997 0.01191 0.74629003
0.082282998 0.011941 0.74822003
0.083797999 0.011976 0.75046003
0.085300997 0.012009 0.75252002
0.086792998 0.01204 0.75444001
0.088246003 0.012064 0.75595999
0.089658 0.012082 0.75708997
0.091027997 0.012094 0.75783998
0.092373997 0.012103 0.75836998
0.093680002 0.012106 0.75856
-0.055530999 0.013502 0.76481003
-0.054069001 0.01346 0.76242
-0.052625999 0.01342 0.76020002
-0.051164001 0.013374 0.75759
-0.049701001 0.013325 0.75481999
-0.048276 0.013284 0.75248998
-0.046852 0.013242 0.75006002
-0.045437999 0.013199 0.74765003
-0.044046 0.013161 0.74549001
-0.042665999 0.013124 0.74339998
-0.041305002 0.013091 0.74153
-0.039964002 0.013062 0.73992002
-0.038642999 0.013039 0.73856997
-0.037335999 0.013018 0.73742002
-0.036040001 0.013 0.73641002
-0.034742001 0.012981 0.73528999
-0.033452 0.012963 0.73426002
-0.032152999 0.012939 0.73294002
-0.030848 0.012911 0.73136997
-0.029557001 0.012888 0.73003
-0.028269 0.012864 0.72864997
-0.02699 0.012841 0.72737002
-0.025722999 0.012822 0.72632003
-0.024467001 0.012808 0.72548997
-0.02321 0.012791 0.72452998
-0.021965999 0.01278 0.72390002
-0.020725001 0.012769 0.72329003
-0.01949 0.012761 0.72285998
-0.018258 0.012754 0.72244
-0.017024999 0.012745 0.72196001
-0.015794 0.012737 0.72147
-0.014562 0.012726 0.72084999
-0.013331 0.012714 0.72017998
-0.012103 0.012703 0.71956998
-0.010878 0.012694 0.71903002
-0.0096538002 0.012682 0.71837997
-0.0084336 0.012673 0.71789002
-0.0072150002 0.012665 0.71739
-0.0059981998 0.012656 0.71691
-0.0047841002 0.012651 0.7166
-0.0035715001 0.012647 0.71635997
-0.0023598 0.012643 0.71618003
-0.0011488 0.01264 0.71600997
6.1628001e-05 0.012641 0.71605998
0.0012722 0.012641 0.71607
0.0024824 0.01264 0.71596998
0.0036917999 0.012637 0.71579999
0.0049001998 0.012632 0.71553999
0.0061055999 0.012623 0.71504998
0.0073107001 0.012617 0.71468002
0.0085167 0.012614 0.71450001
0.0097238999 0.012613 0.71443999
0.010933 0.012614 0.71451002
0.012142 0.012615 0.71456999
0.01335 0.012615 0.71456999
0.014558 0.012615 0.71455997
0.015764 0.012614 0.71451002
0.016971 0.012613 0.71445
0.018177001 0.012612 0.71439999
0.019384 0.012611 0.71433997
0.020587999 0.012609 0.71423
0.021792 0.012607 0.71411002
0.022996999 0.012606 0.71404999
0.024205999 0.012607 0.7141
0.025415 0.012608 0.71416998
0.026629001 0.012611 0.71433997
0.027842 0.012613 0.71446002
0.029053999 0.012615 0.71456999
0.030262001 0.012615 0.71456999
0.031475 0.012617 0.71468002
0.032685999 0.012618 0.71473998
0.033904999 0.012622 0.71498001
0.035124 0.012626 0.71517998
0.036346 0.01263 0.71543002
0.037565 0.012633 0.71561003
0.038789999 0.012638 0.7159
0.04002 0.012644 0.71623999
0.041251998 0.012651 0.71662003
0.042495999 0.012661 0.71715999
0.043744002 0.012671 0.71776003
0.044996001 0.012682 0.71837002
0.046248998 0.012693 0.71897
0.047511999 0.012705 0.71969002
0.048778001 0.012718 0.72042
0.050051 0.012732 0.72121
0.051339999 0.012749 0.72219002
0.052637 0.012768 0.72324002
0.053943001 0.012788 0.72434998
0.055243 0.012805 0.72535002
0.056536 0.01282 0.72619998
0.057815999 0.012832 0.72687
0.059085 0.012841 0.72736001
0.060350999 0.012848 0.72780001
0.061629001 0.012858 0.72834998
0.062923998 0.012871 0.72908998
0.064222999 0.012885 0.72984999
0.065531 0.012899 0.73067999
0.066845998 0.012915 0.73154998
0.068168998 0.012931 0.73247999
0.069495998 0.012948 0.73342001
0.070868 0.012972 0.73479003
0.072267003 0.013 0.73637998
0.073686004 0.013031 0.73812997
0.075129002 0.013065 0.74005002
0.076559998 0.013095 0.74179
0.077976003 0.013123 0.74334002
0.079410002 0.013152 0.745
0.080858 0.013183 0.74673998
0.082318999 0.013215 0.74853998
0.08382 0.013252 0.75066
0.085322998 0.013288 0.75272
0.086816996 0.013322 0.75465
0.088273004 0.01335 0.75619
0.089686997 0.01337 0.75734001
0.091058001 0.013383 0.75809002
0.092399001 0.013392 0.75857002
0.093696997 0.013394 0.75870001
-0.059806999 0.013592 0.76991999
-0.059801999 0.014896 0.76986003
-0.058440998 0.014881 0.76907998
-0.057038002 0.014854 0.76769
-0.055541001 0.014801 0.76494002
-0.054078002 0.014755 0.76256001
-0.052620001 0.014707 0.76011002
-0.051155999 0.014656 0.75746
-0.049701001 0.014605 0.75480998
-0.048296001 0.014566 0.75279999
-0.046884 0.014523 0.75057
-0.045481 0.01448 0.74835998
-0.044096 0.014441 0.74633002
-0.042721 0.014403 0.74436998
-0.041352 0.014364 0.74237001
-0.040006001 0.014332 0.74067998
-0.038679 0.014304 0.73926002
-0.037367001 0.01428 0.73803997
-0.036067002 0.01426 0.73697001
-0.034774002 0.01424 0.73597002
-0.033482999 0.01422 0.73495001
-0.032186002 0.014196 0.73369002
-0.030882001 0.014167 0.73218
-0.029592 0.014142 0.73088998
-0.0283 0.014114 0.72946
-0.027019 0.014089 0.72816002
-0.025749 0.014068 0.72705001
-0.024488 0.014049 0.72610003
-0.023226 0.014028 0.72501999
-0.021979 0.014015 0.72433001
-0.020734999 0.014002 0.72365999
-0.019499 0.013993 0.72316998
-0.018267 0.013986 0.72280002
-0.017034 0.013976 0.72232002
-0.015799999 0.013966 0.72176999
-0.014567 0.013953 0.72114003
-0.013336 0.01394 0.72047001
-0.012107 0.013927 0.7198
-0.010883 0.013918 0.71932
-0.0096594002 0.013908 0.71880001
-0.0084392997 0.0139 0.71837002
-0.0072210999 0.013893 0.71799999
-0.0060043 0.013886 0.71763998
-0.0047895 0.013881 0.71741003
-0.0035759001 0.013878 0.71723002
-0.0023628001 0.013874 0.71706003
-0.0011501 0.01387 0.71682
6.1676998e-05 0.013869 0.71679997
0.0012734 0.013868 0.71674001
0.0024844999 0.013865 0.71657997
0.0036947001 0.013861 0.71635002
0.0049035 0.013854 0.71601999
0.0061087999 0.013843 0.71542001
0.0073136999 0.013834 0.71498001
0.0085188998 0.013828 0.71468002
0.0097262999 0.013827 0.71461999
0.010935 0.013829 0.71469003
0.012145 0.01383 0.71474999
0.013352 0.013829 0.71469998
0.01456 0.013828 0.71468002
0.015766 0.013826 0.71455997
0.016971 0.013824 0.71445
0.018178999 0.013824 0.71445
0.019386999 0.013824 0.71445
0.020593001 0.013823 0.71439999
0.0218 0.013823 0.71439999
0.023010001 0.013824 0.71445
0.024222 0.013826 0.71455997
0.025434 0.013829 0.71469003
0.026649 0.013832 0.71486998
0.027860001 0.013833 0.71493
0.029069999 0.013834 0.71498001
0.030277001 0.013833 0.71491998
0.031488001 0.013834 0.71496999
0.032699998 0.013835 0.71504003
0.033920001 0.01384 0.71529001
0.035140999 0.013845 0.71552998
0.036366001 0.013851 0.71583003
0.037588999 0.013855 0.71607
0.038814999 0.013861 0.71635997
0.040049002 0.013869 0.71676999
0.041283 0.013876 0.71714997
0.042523999 0.013886 0.71763998
0.04377 0.013896 0.71818
0.045022 0.013908 0.71877998
0.046271998 0.013918 0.71933001
0.047536001 0.013932 0.72005999
0.048806999 0.013948 0.72083998
0.050085001 0.013964 0.72170001
0.051375002 0.013983 0.72267997
0.052673001 0.014003 0.72373003
0.053971 0.014023 0.72473001
0.055266999 0.014041 0.72566003
0.056556001 0.014056 0.72645998
0.057840999 0.01407 0.72718
0.059115998 0.014081 0.72772998
0.060392 0.014092 0.72829002
0.061675001 0.014104 0.72891003
0.062976003 0.014119 0.72970003
0.064272001 0.014133 0.73040003
0.065580003 0.014148 0.73122001
0.0669 0.014166 0.73214
0.068230003 0.014185 0.73313999
0.069567002 0.014205 0.73416001
0.070949003 0.014233 0.73562002
0.072348997 0.014264 0.73720998
0.073769003 0.014298 0.73896003
0.075207002 0.014334 0.74081999
0.076638997 0.014368 0.74256003
0.078056999 0.014398 0.74410999
0.079492003 0.01443 0.74576998
0.080922 0.01446 0.74733001
0.082367003 0.014492 0.74897999
0.083852001 0.01453 0.75094998
0.085348003 0.014569 0.75294
0.086845003 0.014606 0.75489002
0.088301003 0.014636 0.75642997
0.089725003 0.01466 0.75765002
0.091096997 0.014675 0.75840998
0.092440002 0.014684 0.75892001
-0.05979 0.016198 0.76969999
-0.058421001 0.016178999 0.76880997
-0.057037 0.016155001 0.76767999
-0.05556 0.016102999 0.76520997
-0.054104 0.016054999 0.76291001
-0.052637 0.016000999 0.76036
-0.051173002 0.015946001 0.75771999
-0.049725998 0.015892001 0.75520003
-0.048324 0.015851 0.75325
-0.046920002 0.015807001 0.75114
-0.045522999 0.015763 0.74905002
-0.044135999 0.01572 0.74702001
-0.042761002 0.015679 0.74506003
-0.041390002 0.015636999 0.74305999
-0.040040001 0.0156 0.74132001
-0.038711999 0.01557 0.73988998
-0.037395999 0.015543 0.73861003
-0.036095001 0.015521 0.73752999
-0.034802999 0.015501 0.73659003
-0.033514999 0.015481 0.73563999
-0.032219 0.015456 0.73444998
-0.030924 0.015429 0.73317999
-0.029634999 0.015403 0.73196
-0.028340001 0.015372 0.73047
-0.027054001 0.015343 0.72911
-0.025779 0.015318 0.72790998
-0.024509 0.015293 0.72672999
-0.023243001 0.015269 0.72557002
-0.021994 0.015253 0.72482002
-0.020747 0.015238 0.72408003
-0.019509001 0.015226 0.72354001
-0.018276 0.015219 0.72316998
-0.017041 0.015207 0.72263998
-0.015806001 0.015195 0.72202998
-0.014573 0.015181 0.72140002
-0.01334 0.015167 0.72070998
-0.01211 0.015152 0.72000003
-0.010885 0.015142 0.71951997
-0.0096634002 0.015133 0.7191
-0.0084434999 0.015125 0.71872997
-0.0072255 0.015119 0.71842998
-0.0060093999 0.015115 0.71824998
-0.0047944002 0.015113 0.71814001
-0.0035798 0.01511 0.71802998
-0.0023656001 0.015108 0.71792001
-0.0011515 0.015103 0.71766001
6.1756e-05 0.015101 0.71758002
0.0012746 0.015098 0.71745998
0.0024868001 0.015094 0.71723998
0.0036975001 0.015086 0.71688998
0.0049068001 0.015078 0.71649998
0.0061122999 0.015064 0.71583003
0.0073174001 0.015054 0.71533
0.0085217999 0.015045 0.71491998
0.0097294999 0.015044 0.71486002
0.010939 0.015045 0.71493
0.012148 0.015046 0.71495003
0.013355 0.015043 0.71483999
0.014563 0.015043 0.71481001
0.015767001 0.015039 0.71461999
0.016971 0.015035 0.71445
0.01818 0.015036 0.71451002
0.019388 0.015036 0.71451002
0.020595999 0.015036 0.71451002
0.021807 0.015039 0.71461999
0.023019001 0.015041 0.71473998
0.024234001 0.015045 0.71491998
0.025451001 0.01505 0.71517003
0.026668999 0.015055 0.71540999
0.027879 0.015055 0.71542001
0.02909 0.015056 0.71547002
0.030294999 0.015054 0.71534002
0.031504001 0.015054 0.71534002
0.032714002 0.015054 0.71534997
0.033932 0.015058 0.71553999
0.035153002 0.015063 0.71578002
0.036378 0.015069 0.71607
0.037602 0.015074 0.71631998
0.038832001 0.015082 0.71666998
0.040070001 0.015092 0.71714997
0.041306999 0.015101 0.71758002
0.042553 0.015113 0.71812999
0.0438 0.015124 0.71867001
0.045047998 0.015135 0.71921003
0.046298999 0.015146 0.71974999
0.047564 0.015162 0.72048002
0.048831999 0.015177 0.72122002
0.050115999 0.015197 0.72214001
0.051406 0.015217 0.72311997
0.052703999 0.015239 0.72416002
0.053998001 0.015259 0.72509003
0.055294 0.015278 0.72601998
0.056584001 0.015295 0.72681999
0.057870999 0.015311 0.72755998
0.059151001 0.015324 0.72816998
0.060433999 0.015337 0.72878999
0.061719 0.01535 0.72942001
0.063015997 0.015366 0.73016
0.064317003 0.015381 0.73091
0.065619998 0.015397 0.73167002
0.066946998 0.015418 0.73264998
0.068295002 0.015443 0.73382998
0.069651 0.015469 0.73505002
0.071042001 0.015501 0.73659003
0.072454996 0.015537 0.73830003
0.073870003 0.015572 0.73997003
0.075297996 0.015609 0.74172002
0.076719999 0.015643001 0.74334002
0.078133002 0.015674001 0.74483001
0.079556003 0.015706999 0.74637002
0.080978997 0.015737999 0.74786001
0.082402997 0.015768999 0.74931002
0.083873004 0.015807001 0.75112998
0.085341997 0.015844001 0.75288999
0.086829998 0.015883001 0.75476003
0.088289 0.015915999 0.75632
0.089736 0.015946001 0.75774997
0.091130003 0.015966 0.75869
-0.059783999 0.017501 0.76962
-0.058409002 0.017479001 0.76866001
-0.057041001 0.017457999 0.76773
-0.055580001 0.017406 0.76547998
-0.054124001 0.017355001 0.76319999
-0.052646 0.017293001 0.76049
-0.051196001 0.017238 0.75805998
-0.049745001 0.017178999 0.75547999
-0.048342999 0.017135 0.75353998
-0.046941999 0.017088 0.75150001
-0.045554999 0.017045001 0.74958003
-0.044174999 0.017000999 0.74766999
-0.042801999 0.016958 0.74576998
-0.041429002 0.016913 0.74377
-0.040073998 0.016872 0.74195999
-0.038741 0.016837001 0.74045002
-0.037418999 0.016806001 0.73905998
-0.036116999 0.016781 0.73799002
-0.034828 0.016760999 0.73711002
-0.033544 0.016742 0.73628002
-0.032249998 0.016717 0.73515999
-0.030962 0.016693 0.73408002
-0.029673999 0.016666001 0.73293
-0.028379999 0.016634 0.73150003
-0.027092 0.016603 0.73013002
-0.025811 0.016572 0.7288
-0.024533 0.016541 0.72742999
-0.023260999 0.016511999 0.72614002
-0.022007 0.016492 0.72525001
-0.020756001 0.016472001 0.72438997
-0.019517001 0.01646 0.72385001
-0.018284 0.016452 0.72347999
-0.017049 0.01644 0.72296
-0.015812 0.016425001 0.72229999
-0.014578 0.016410001 0.72166002
-0.013345 0.016394001 0.72096997
-0.012113 0.016377 0.7202
-0.010888 0.016365999 0.71970999
-0.0096666999 0.016357001 0.71934003
-0.0084464001 0.016349001 0.71897
-0.0072289999 0.016345 0.71878999
-0.0060139 0.016345 0.71878999
-0.0047984002 0.016344 0.71873999
-0.0035830999 0.016342999 0.71868998
-0.0023679 0.016341001 0.71862
-0.0011525 0.016333999 0.71832001
6.1808001e-05 0.016331 0.71816999
0.0012757001 0.016328 0.71805
0.0024887 0.016322 0.71777999
0.0037002999 0.016314 0.71743
0.0049100998 0.016303999 0.71697998
0.0061158999 0.016287001 0.71625
0.0073211002 0.016274 0.71569002
0.0085260002 0.016264999 0.71526998
0.0097337002 0.016262 0.71516001
0.010944 0.016264001 0.71522999
0.012152 0.016263001 0.71520001
0.013358 0.016259 0.71502
0.014565 0.016256999 0.71493
0.015768001 0.016251 0.71468002
0.016971 0.016246 0.71445
0.018182 0.016248999 0.71455997
0.019391 0.016249999 0.71463001
0.020601001 0.016252 0.71469003
0.021815 0.016255001 0.71486002
0.023031 0.016261 0.71508998
0.024248 0.016266 0.71534997
0.025469 0.016274 0.71565998
0.026690001 0.016280999 0.71596998
0.027903 0.016282 0.71603
0.029115001 0.016283 0.71608001
0.03032 0.016279999 0.71595001
0.03153 0.016279999 0.71594
0.032740999 0.016279999 0.71594
0.033957001 0.016283 0.71605998
0.035179 0.016287999 0.71629
0.036405001 0.016295001 0.71658999
0.037629999 0.016301 0.71684998
0.038864002 0.016310001 0.71727002
0.040105999 0.016322 0.71780002
0.041345 0.016332 0.71824002
0.042589001 0.016344 0.71873999
0.043832999 0.016354 0.71921998
0.045079 0.016364999 0.71969002
0.046330001 0.016378 0.72022998
0.047596 0.016394001 0.72096002
0.048870001 0.016412999 0.72176999
0.050154001 0.016434001 0.7227
0.051440999 0.016454 0.72360998
0.052735001 0.016477 0.72457999
0.054024 0.016496001 0.72544998
0.055317 0.016516 0.72632003
0.056612 0.016535999 0.72718
0.057905 0.016554 0.72798997
0.059192002 0.016569 0.72867
0.060481001 0.016585 0.72935998
0.061772 0.016601 0.73004001
0.063069999 0.016618 0.73079002
0.064372003 0.016635001 0.73154002
0.065677002 0.016651999 0.73231
0.067005999 0.016674999 0.73329997
0.068366997 0.016705001 0.73461002
0.069738001 0.016735001 0.73597002
0.071130998 0.01677 0.73751003
0.072552003 0.016811 0.73927999
0.073967002 0.016848 0.74093997
0.075388998 0.016887 0.74260998
0.076806001 0.016922001 0.74417001
0.078226998 0.016957 0.74572998
0.079640001 0.01699 0.74716002
0.081058003 0.017022001 0.74857998
0.082461998 0.017051 0.74984002
0.083910003 0.017088 0.75146002
0.085339002 0.01712 0.75286001
0.086804003 0.017158 0.75454003
0.088249996 0.017191 0.75599003
0.089712001 0.017225999 0.75753999
-0.059783 0.018805001 0.76962
-0.058396999 0.018778 0.76849997
-0.057025999 0.018754 0.76753002
-0.055569999 0.018701 0.76533997
-0.05412 0.018647 0.76314002
-0.052648 0.018583 0.76051003
-0.051215 0.01853 0.75834
-0.049775999 0.018471001 0.75594997
-0.048377998 0.018425999 0.75408
-0.046978999 0.018377 0.75209999
-0.045595001 0.018332001 0.75024998
-0.044211 0.018284 0.74827999
-0.042835999 0.018237 0.74637002
-0.041459002 0.018186999 0.74431002
-0.040098999 0.018141 0.74242002
-0.038761999 0.018102 0.74085999
-0.037439 0.018068001 0.73945999
-0.036137 0.018042 0.73839003
-0.034846999 0.01802 0.73750001
-0.033565 0.018002 0.73673999
-0.032276001 0.017976999 0.73574001
-0.030994 0.017956 0.73484999
-0.029709 0.017929999 0.73378003
-0.028418001 0.017898001 0.73247999
-0.02713 0.017865 0.73114002
-0.025844 0.017831 0.72974002
-0.024560001 0.017794 0.72824001
-0.023282999 0.017759001 0.72680998
-0.022023 0.017734 0.72579998
-0.02077 0.017712001 0.72487003
-0.01953 0.017697999 0.72431999
-0.018294999 0.017688001 0.72390002
-0.01706 0.017677 0.72342998
-0.015822001 0.017659999 0.72276998
-0.014587 0.017645 0.72211999
-0.013353 0.017627001 0.72138
-0.01212 0.017608 0.72060001
-0.010894 0.017594 0.72005999
-0.0096712997 0.017585 0.71968001
-0.0084498003 0.017574999 0.71925998
-0.0072324998 0.017572001 0.71913999
-0.0060172998 0.017573001 0.71920002
-0.0048011998 0.017572001 0.71916002
-0.0035852001 0.017571 0.71911001
-0.0023693 0.017569 0.71903998
-0.0011532 0.017562 0.71872997
6.1840998e-05 0.017557001 0.71854001
0.0012764001 0.017554 0.71842003
0.0024900001 0.017548 0.71815997
0.0037018999 0.017538 0.71775001
0.0049117999 0.017525 0.71723998
0.006118 0.017507 0.71649998
0.0073237 0.017494 0.71595001
0.008529 0.017483 0.71552998
0.0097377999 0.017481999 0.71547002
0.010948 0.017483 0.71552998
0.012157 0.017483 0.71548998
0.013363 0.017478 0.71530998
0.014571 0.017476 0.71521002
0.015774 0.01747 0.71495998
0.016977999 0.017464001 0.71473002
0.018189 0.017467 0.71485001
0.019399 0.017469 0.71491998
0.020609999 0.017471001 0.71499997
0.021826001 0.017476 0.71521997
0.023043999 0.017483 0.71551001
0.024265001 0.017491 0.71583003
0.025488 0.0175 0.71621001
0.026714999 0.017510001 0.71662998
0.027929001 0.017511999 0.71670002
0.029142 0.017512999 0.71675003
0.030347999 0.017510001 0.71661001
0.031557001 0.017508 0.71653998
0.032763001 0.017506 0.71643001
0.033978999 0.017508 0.71653998
0.035202 0.017514 0.71676999
0.036430001 0.017521 0.71708
0.037661001 0.017531 0.71745998
0.038899999 0.017542001 0.71793997
0.040144 0.017555 0.71846998
0.041384 0.017565999 0.71890998
0.042624999 0.017577 0.71934003
0.043866999 0.017587001 0.71977001
0.045109998 0.017596999 0.72017998
0.046362001 0.01761 0.72071999
0.047625002 0.017627001 0.72140002
0.048903 0.017648 0.72226
0.050188001 0.017671 0.72319001
0.051476002 0.017693 0.72409999
0.052765999 0.017715 0.72500998
0.054056 0.017735999 0.72587001
0.055344999 0.017756 0.72668999
0.056637 0.017775999 0.72750002
0.057934999 0.017797001 0.72836
0.059227999 0.017816 0.72912002
0.060518 0.017833 0.72981
0.061815001 0.017851001 0.73056
0.063119002 0.01787 0.73135
0.064425997 0.017890001 0.73215997
0.065738998 0.01791 0.73299998
0.067080997 0.017937999 0.73412001
0.068449996 0.017971 0.73549998
0.069834001 0.018007999 0.73698002
0.071230002 0.018045999 0.73853999
0.072653003 0.018089 0.74032003
0.074069999 0.018130001 0.74197
0.075493 0.018169999 0.74364001
0.076899 0.018206 0.74507999
0.078316003 0.018242 0.74658
0.079723999 0.018276 0.74794
0.081136003 0.018309001 0.74931002
0.082534 0.018338 0.75050002
0.083976999 0.018376 0.75206
0.085377 0.018404 0.75319999
0.08681 0.018438 0.75458997
-0.059804998 0.020117 0.76990002
-0.058412001 0.020086 0.7687
-0.057023998 0.020053999 0.76749998
-0.055571999 0.019998999 0.76537001
-0.054122001 0.019941 0.76317
-0.052650001 0.019873001 0.76055002
-0.051229 0.019820999 0.75854999
-0.049802002 0.019763 0.75634003
-0.048407 0.019716 0.75453001
-0.047015999 0.019667 0.75269002
-0.045643002 0.019624 0.75103003
-0.044264 0.019576 0.74918997
-0.042892002 0.019528 0.74734998
-0.041513 0.019474 0.74527001
-0.040146999 0.019422 0.74330997
-0.038801 0.019378001 0.74159998
-0.037466999 0.019336 0.74001002
-0.036157999 0.019305 0.73882002
-0.034864001 0.01928 0.73786998
-0.033581998 0.01926 0.73711002
-0.032297 0.019237 0.73622
-0.031022999 0.019219 0.73552001
-0.029741 0.019193999 0.73457998
-0.028456001 0.019165 0.73346001
-0.027169 0.019131999 0.73219001
-0.025881 0.019095 0.73079002
-0.024591001 0.019052999 0.72916001
-0.02331 0.019013001 0.72766
-0.022043999 0.018982001 0.72645998
-0.020786 0.018955 0.72542
-0.019540999 0.018937999 0.72474998
-0.018305 0.018926 0.72433001
-0.017069999 0.018913999 0.72385001
-0.015833 0.018897999 0.72324997
-0.014597 0.018881001 0.72261
-0.013363 0.018863 0.72191
-0.012128 0.018842001 0.72108001
-0.0109 0.018826 0.72048002
-0.0096760998 0.018813999 0.72004002
-0.0084544998 0.018805001 0.71967
-0.0072360998 0.0188 0.71948999
-0.0060203001 0.018802 0.71956003
-0.0048032999 0.0188 0.71947998
-0.0035867 0.018797999 0.71942002
-0.0023701 0.018794 0.71928
-0.0011536001 0.018786 0.71897
6.1858998e-05 0.018782999 0.71884
0.0012769999 0.018781999 0.71878999
0.0024914001 0.018776 0.71856999
0.003704 0.018765001 0.71815997
0.0049148998 0.018753 0.71768999
0.006122 0.018734001 0.71696001
0.0073289 0.018720999 0.71645999
0.0085353004 0.01871 0.71605998
0.0097449999 0.018709 0.71599001
0.010955 0.018709 0.71600002
0.012164 0.018705999 0.71588999
0.01337 0.0187 0.71565998
0.014577 0.018696001 0.71551001
0.015781 0.018689999 0.71526003
0.016984999 0.018684 0.71504003
0.018197 0.018687 0.71516001
0.019408001 0.018688999 0.71522999
0.020618999 0.018691 0.71530998
0.021837 0.018697999 0.71559
0.023057999 0.018707 0.71595001
0.024279 0.018716 0.71626002
0.025505999 0.018727001 0.71670002
0.026735 0.018739 0.71717
0.027952 0.018743001 0.7173
0.029167 0.018743999 0.71735001
0.030378999 0.018743999 0.71733999
0.031589001 0.018742001 0.71727002
0.032795999 0.018739 0.71714997
0.034010999 0.01874 0.71720999
0.035238001 0.018748 0.71749997
0.036467001 0.018756 0.71780998
0.037700001 0.018766001 0.71819001
0.038941 0.018779 0.71868002
0.040185001 0.018793 0.71921003
0.041423 0.018803 0.71959001
0.042661 0.018812001 0.71995997
0.043903999 0.018823 0.72036999
0.045147002 0.018834 0.72078001
0.046399999 0.018848 0.72131997
0.047665 0.018866001 0.722
0.048939999 0.018887 0.72280997
0.050225999 0.018911 0.72373003
0.051511001 0.018933 0.72459
0.052797999 0.018956 0.72544998
0.054085001 0.018976999 0.72626001
0.055369001 0.018996 0.727
0.056655999 0.019016 0.72775
0.057959002 0.01904 0.72865999
0.059254002 0.019060001 0.72943002
0.060550001 0.01908 0.73019999
0.061852001 0.019100999 0.73098999
0.063166 0.019123999 0.73189998
0.064480998 0.019146999 0.73278999
0.065806001 0.019173 0.73374999
0.067156002 0.019204 0.73493999
0.068531998 0.019241 0.73637998
0.069917001 0.01928 0.73786002
0.071314998 0.019321 0.73942
0.072736003 0.019366 0.74115998
0.074148998 0.019408001 0.74276
0.075574003 0.019452 0.74443001
0.076981001 0.019489 0.74586999
0.078400001 0.019529 0.74737
0.079815 0.019566 0.74879998
0.081229001 0.019601 0.75015998
0.082634002 0.019633999 0.75141001
0.084078997 0.019675 0.75297999
0.085455999 0.019699 0.75388998
0.086854003 0.019726999 0.75497001
-0.059841 0.021435 0.77035999
-0.058458999 0.021406 0.76932001
-0.057062998 0.021369999 0.76802999
-0.05562 0.021314999 0.76603001
-0.054173 0.021255 0.76389003
-0.052699 0.021182001 0.76125002
-0.051268 0.021121999 0.75911999
-0.049839001 0.021060999 0.75691003
-0.048436001 0.021007 0.75498998
-0.047045998 0.020956 0.75316
-0.045678999 0.020914 0.75163001
-0.044307999 0.020865999 0.74992001
-0.042941999 0.020819001 0.74821001
-0.041570999 0.020765999 0.74631
-0.040206 0.020713 0.74440002
-0.038853999 0.020663001 0.74261999
-0.037510999 0.020615 0.74088001
-0.036189999 0.020576 0.73948002
-0.034883998 0.020543 0.73829001
-0.033594999 0.020517999 0.7374
-0.032310002 0.020493001 0.73651999
-0.03104 0.020477001 0.73593998
-0.029761 0.020453 0.73508
-0.028485 0.020429 0.73421001
-0.027199 0.020396 0.73300999
-0.025913 0.020359 0.73167002
-0.024621001 0.020313 0.73005003
-0.02334 0.020273 0.72860003
-0.022067999 0.020236 0.72728002
-0.020809 0.020207001 0.72622001
-0.019561 0.020186 0.72548002
-0.018322 0.020173 0.72500002
-0.017084001 0.020158 0.72447002
-0.015845999 0.020141 0.72386003
-0.01461 0.020124 0.72323
-0.013373 0.020103 0.72248
-0.012138 0.020079 0.72163999
-0.010908 0.020060999 0.72096997
-0.0096819997 0.020047 0.72048002
-0.0084589999 0.020035001 0.72004998
-0.0072397999 0.020029999 0.71986002
-0.006023 0.020029999 0.71986997
-0.0048054 0.020028001 0.71978003
-0.0035882001 0.020026 0.71972001
-0.0023711999 0.020022999 0.71961999
-0.0011542001 0.020014999 0.71932
6.1892999e-05 0.020011 0.71920002
0.0012777 0.020012001 0.71920002
0.0024927999 0.020005001 0.71898001
0.0037062 0.019994 0.71856999
0.0049182 0.019982999 0.71815997
0.0061269002 0.019965 0.71754003
0.0073350002 0.019951999 0.71706003
0.0085437996 0.019943999 0.71676999
0.0097540002 0.019941 0.71666002
0.010965 0.019939 0.7166
0.012172 0.019933 0.71638
0.013379 0.019926 0.71613002
0.014586 0.019920999 0.71594
0.015791001 0.019913999 0.71569997
0.016995 0.019908 0.71548003
0.018208001 0.019911001 0.71559
0.019417999 0.019911001 0.71560001
0.020628 0.019912001 0.71561003
0.021846 0.019920001 0.7159
0.023068 0.019929999 0.71625
0.024292 0.01994 0.71662998
0.025520001 0.019954 0.71710998
0.026752001 0.019967999 0.71763998
0.027973 0.019974001 0.71784002
0.029192001 0.019977 0.71796
0.030405 0.019977 0.71794999
0.031615999 0.019974999 0.71788001
0.032823998 0.019972 0.71776998
0.034042999 0.019974999 0.71788001
0.035271 0.019982999 0.71818
0.036502 0.019991999 0.71850002
0.037735999 0.020003 0.71888
0.03898 0.020017 0.71941
0.040222999 0.020031 0.71989
0.041462 0.020041 0.72026002
0.042700998 0.020051001 0.72062999
0.043944001 0.020062 0.72103
0.045185 0.020072 0.72139001
0.046440002 0.020088 0.72193003
0.047701001 0.020105001 0.72255999
0.048976999 0.020127 0.72336
0.05026 0.020151 0.72421998
0.051545002 0.020175001 0.72508001
0.052834 0.020199001 0.72595
0.054125998 0.020222999 0.72680998
0.055406999 0.020242 0.72750002
0.056697998 0.020264 0.72828001
0.058001 0.02029 0.72918999
0.059296999 0.020311 0.72996002
0.060594998 0.020333 0.73074001
0.061907999 0.020358 0.73164999
0.063229002 0.020385001 0.73263001
0.064557001 0.020413 0.73364002
0.065895997 0.020444 0.73474997
0.067258999 0.020481 0.73606998
0.068636999 0.020521 0.73750001
0.070017003 0.02056 0.73891997
0.071405999 0.0206 0.74036002
0.072815999 0.020645 0.74197
0.074219003 0.020687001 0.74347001
0.075645998 0.020733001 0.74514002
0.077062003 0.020775 0.74664998
0.078482002 0.020817 0.74816
0.079899997 0.020857001 0.74958998
0.081326999 0.020897999 0.75107002
0.082736999 0.020934001 0.75234002
0.084178999 0.020976 0.75387001
0.085582003 0.021008 0.75501001
0.087021001 0.021047 0.75642002
-0.061239 0.022777 0.77157003
-0.059896 0.022762001 0.77107
-0.05852 0.022733999 0.77012002
-0.057114001 0.022692 0.76871002
-0.055668999 0.022632999 0.76672
-0.054221001 0.022569999 0.76457
-0.052740999 0.02249 0.76186001
-0.051295999 0.022422001 0.75954002
-0.049860999 0.022353999 0.75725001
-0.048457999 0.022297001 0.75533003
-0.04707 0.022244999 0.75356001
-0.045711 0.022204001 0.75216001
-0.044349998 0.022159001 0.75063998
-0.042994998 0.022113999 0.74913001
-0.041630998 0.022063 0.74738997
-0.040270999 0.02201 0.74561
-0.038913999 0.021956 0.74375999
-0.037560999 0.0219 0.74186999
-0.036224999 0.021850999 0.74019998
-0.034906998 0.021809001 0.73878998
-0.033608999 0.021777 0.73769999
-0.03232 0.021748999 0.73676002
-0.031051001 0.021732001 0.73619002
-0.029779 0.021712 0.73552001
-0.028509 0.021692 0.73483998
-0.027226999 0.021661 0.73377001
-0.025944 0.021624999 0.73255998
-0.024657 0.021582 0.73110998
-0.023374001 0.021539999 0.72966999
-0.022101 0.021500999 0.72834998
-0.020839 0.021469001 0.72728002
-0.019588999 0.021446999 0.72652
-0.018347001 0.021431001 0.72596997
-0.017107001 0.021415001 0.72544003
-0.015868001 0.021397 0.72483999
-0.014629 0.021379 0.72421002
-0.01339 0.021354999 0.72341001
-0.012153 0.021330001 0.72254997
-0.010921 0.02131 0.72188002
-0.0096926 0.021291999 0.72126001
-0.0084675001 0.021276999 0.72078001
-0.0072471001 0.021272 0.72057998
-0.0060283998 0.021269999 0.72052002
-0.0048088999 0.021264 0.72030997
-0.0035906001 0.021260001 0.72018999
-0.0023725999 0.021255 0.72004002
-0.0011547999 0.021245999 0.71973002
6.1929997e-05 0.021243 0.71960998
0.0012785 0.021243 0.71961999
0.0024945 0.021238999 0.71947002
0.0037089 0.021228001 0.71911001
0.0049223001 0.021218 0.71877003
0.0061332001 0.021203 0.71827
0.0073432 0.021190999 0.71785998
0.0085541001 0.021183999 0.71763003
0.0097657004 0.021181 0.71752
0.010977 0.021176999 0.71739
0.012184 0.021167001 0.71705002
0.013391 0.021159999 0.71679997
0.014598 0.021152001 0.71653998
0.015804 0.021144999 0.71631002
0.01701 0.021139 0.71609002
0.018221 0.02114 0.71613002
0.019432001 0.02114 0.71612
0.020643 0.02114 0.71612
0.021862 0.021148 0.71640998
0.023085 0.021159001 0.71676999
0.024309 0.02117 0.71714997
0.025539 0.021184999 0.71763998
0.026772 0.021199999 0.71816999
0.027996 0.021207999 0.71842998
0.029217999 0.021213001 0.71862
0.030438 0.021217 0.71872997
0.031652998 0.021217 0.71872002
0.032864999 0.021214999 0.71866
0.034085002 0.021218 0.71877998
0.035312001 0.021225 0.71902001
0.036541 0.021233 0.71928
0.037774 0.021242 0.71960002
0.039016001 0.021256 0.72007
0.040256999 0.021268999 0.72048998
0.041496001 0.02128 0.72086
0.042737 0.021291001 0.72123998
0.043981001 0.021303 0.72165
0.045226999 0.021314999 0.72206002
0.046482999 0.021330999 0.72261
0.047743 0.021348 0.72318
0.049019001 0.021372 0.72397
0.050298002 0.021395 0.72477001
0.051580001 0.021419 0.72557002
0.052870002 0.021444 0.72644001
0.054163001 0.021469999 0.72731
0.055441 0.021489 0.72794002
0.056731999 0.021512 0.72872001
0.05804 0.021539999 0.72968
0.059337001 0.021562999 0.73045999
0.060651001 0.021591 0.73141003
0.061985999 0.021624999 0.73256999
0.063330002 0.021662001 0.73379999
0.064668 0.021694001 0.7349
0.066026002 0.021732001 0.73619002
0.067391999 0.021771999 0.73752999
0.068761997 0.021810999 0.73886001
0.070128001 0.021847 0.74008
0.071502998 0.021885 0.74137002
0.072901003 0.021929 0.74285001
0.074305996 0.021973001 0.74434
0.075735003 0.022022 0.74602002
0.077165999 0.022071 0.74766999
0.078596003 0.022118 0.74924999
0.080017 0.022159999 0.75068998
0.081435002 0.022201 0.75207001
0.082852997 0.02224 0.75340003
0.084284 0.022282001 0.75480998
0.085708 0.02232 0.75611001
0.087141998 0.022360999 0.75747001
-0.061305001 0.024110001 0.77239001
-0.059953999 0.024092 0.77181
-0.058577999 0.024063 0.77086997
-0.057162002 0.024015 0.76934999
-0.055721 0.023955001 0.76741999
-0.054272 0.023889 0.76529002
-0.052790999 0.023804 0.76258999
-0.051339 0.023729 0.76016998
-0.049897 0.023654001 0.75779003
-0.048487 0.023592001 0.75577998
-0.047098 0.023536 0.75401002
-0.045743 0.023495 0.75266999
-0.044388998 0.023452001 0.75129002
-0.043042999 0.023411 0.74997997
-0.041689001 0.023362 0.74844003
-0.040339999 0.023313999 0.74687999
-0.038984999 0.023259001 0.74510998
-0.037625998 0.023197999 0.74315
-0.036277 0.023138 0.74124998
-0.034944002 0.023085 0.73956001
-0.033631999 0.023042999 0.73820001
-0.032336999 0.023010001 0.73714
-0.031064 0.02299 0.73650998
-0.029795 0.022971001 0.73591
-0.028527001 0.022952 0.73528999
-0.027247 0.022921 0.73430002
-0.025969001 0.022888999 0.73326999
-0.024688 0.022851 0.73205
-0.023409 0.022810001 0.73074001
-0.022136001 0.022771001 0.72948998
-0.020874999 0.022740999 0.72852999
-0.019623 0.022717001 0.72776997
-0.018376 0.022697 0.72711003
-0.017131999 0.022678001 0.72650999
-0.015892001 0.022661 0.72596002
-0.014651 0.022639001 0.72526997
-0.013409 0.022612 0.72439998
-0.01217 0.022585001 0.72354001
-0.010936 0.022564 0.72285002
-0.0097041996 0.022541 0.72213
-0.0084768999 0.022523999 0.72158003
-0.0072539002 0.022514001 0.72126001
-0.0060326001 0.022507001 0.72103
-0.0048115002 0.022496 0.72069001
-0.0035921 0.022491001 0.72049999
-0.0023733999 0.022484001 0.72030002
-0.0011551999 0.022473 0.71995002
6.1936997e-05 0.022471 0.71989
0.0012789 0.022471 0.71989
0.0024955999 0.022468001 0.71978998
0.0037107 0.022458 0.71945
0.0049255001 0.022451 0.71923
0.0061380998 0.022438999 0.71885002
0.0073499 0.022428 0.71850997
0.0085619995 0.022421001 0.71828997
0.0097752996 0.022419 0.71822
0.010987 0.022414999 0.71807998
0.012195 0.022404 0.71771997
0.013405 0.022397 0.71752
0.014614 0.022391001 0.71732002
0.015821001 0.022383999 0.71709001
0.017028 0.022376999 0.71686
0.018238001 0.022374 0.71678001
0.019446 0.022369999 0.71665001
0.020656001 0.022368999 0.7166
0.021876 0.022376999 0.71688002
0.023097999 0.022387 0.71719003
0.024324 0.022399001 0.71758002
0.025556 0.022415999 0.71811998
0.02679 0.022433 0.71866
0.028015999 0.022441 0.71893001
0.029240999 0.022449 0.71916997
0.030463999 0.022453999 0.71934003
0.031679999 0.022453999 0.71934003
0.032892998 0.022452001 0.71928
0.034115002 0.022456 0.71939999
0.03534 0.022461999 0.71957999
0.036568999 0.022469999 0.71982998
0.037802 0.022479 0.72013998
0.039042 0.022492001 0.72055
0.040284 0.022505 0.72096997
0.041528001 0.022519 0.72140998
0.042769998 0.022531001 0.72178
0.044018999 0.022545001 0.72226
0.04527 0.02256 0.72273999
0.046523999 0.022576001 0.72324002
0.047782999 0.022593001 0.7238
0.049056999 0.022616001 0.72452998
0.050331999 0.022639001 0.72526002
0.051615 0.022663999 0.72606999
0.05291 0.022693001 0.72698998
0.054200001 0.022719 0.72781003
0.055479001 0.022739001 0.72845
0.056772001 0.022763001 0.72922999
0.058081001 0.022793001 0.73019999
0.059384 0.02282 0.73104
0.06072 0.022856999 0.73224998
0.062077999 0.022902001 0.73367
0.063437998 0.022945 0.73505002
0.064793997 0.022985 0.73633999
0.066165 0.023029 0.73774999
0.067534998 0.023071 0.73909003
0.068903998 0.023111001 0.74036998
0.070258997 0.023145 0.74146998
0.071627997 0.023181999 0.74265999
0.073018998 0.023225 0.74404001
0.074413002 0.023267999 0.74541003
0.075833999 0.023317 0.74699998
0.077274002 0.023371 0.74870998
0.078699999 0.023419 0.75024003
0.080123998 0.023464 0.75169998
0.081543997 0.023507001 0.75308001
0.082970001 0.023551 0.75446999
0.084395997 0.023592999 0.75581998
0.085827 0.023635 0.75717002
0.087263003 0.023677001 0.75853002
0.08867 0.023711 0.75959003
-0.061347 0.025436999 0.77293003
-0.059992 0.025417 0.77231002
-0.058618002 0.025387 0.77139997
-0.057208002 0.02534 0.76999003
-0.055776998 0.025281001 0.76819003
-0.054331999 0.025214 0.76613998
-0.052854002 0.025126999 0.76349002
-0.051394999 0.025045 0.76099998
-0.049945001 0.024963001 0.75850999
-0.048519999 0.02489 0.75629002
-0.047123 0.024827 0.75440001
-0.045763999 0.024782 0.75301999
-0.044415999 0.024739999 0.75174999
-0.043076999 0.024700999 0.75057
-0.041735999 0.024659 0.74927998
-0.040399998 0.024615999 0.74799001
-0.039051 0.024563 0.74637002
-0.037689999 0.024498999 0.74441999
-0.036332 0.024432 0.74238002
-0.034984 0.024367001 0.74040997
-0.033658002 0.024313999 0.73878998
-0.032359 0.024276 0.73764998
-0.031081 0.024251999 0.73689997
-0.029812001 0.024233 0.73633999
-0.028548 0.024216 0.73584002
-0.027272001 0.024188001 0.73496997
-0.025994999 0.024157001 0.73400998
-0.024722001 0.024124 0.73303998
-0.023445001 0.024086 0.73185998
-0.022172 0.024047 0.73069
-0.02091 0.024016 0.72974998
-0.019655 0.023991 0.72898
-0.018404 0.023967 0.72825003
-0.017158 0.023945 0.72759002
-0.015914001 0.023925001 0.72697997
-0.014671 0.023902001 0.72627997
-0.013427 0.023872999 0.72539997
-0.012185 0.023843 0.72447997
-0.010949 0.023817999 0.72373998
-0.0097158998 0.023793999 0.72299999
-0.0084870998 0.023776 0.72245002
-0.0072614001 0.023762001 0.72201002
-0.0060378001 0.02375 0.72165
-0.0048151002 0.023736 0.72123998
-0.0035943 0.023726 0.72092998
-0.0023745 0.023716001 0.72061998
-0.0011556 0.023704 0.72026002
6.1965002e-05 0.023703 0.72025001
0.0012797 0.023706 0.72030997
0.0024973 0.023704 0.72026998
0.0037138001 0.023697 0.72004002
0.0049303002 0.023693001 0.71994001
0.0061448002 0.023683 0.71963
0.0073584998 0.023674 0.71934998
0.0085725999 0.023668 0.71917999
0.0097872997 0.023666 0.71911001
0.011 0.02366 0.71890998
0.012208 0.023646001 0.71850002
0.013418 0.023638001 0.71824998
0.014627 0.023629 0.71798998
0.015835 0.02362 0.7177
0.017043 0.023612 0.71746999
0.018254001 0.02361 0.71739
0.019463001 0.023605 0.71727002
0.020674 0.023603 0.71720999
0.021893 0.023611 0.71744001
0.023115 0.02362 0.7177
0.024341 0.023631999 0.71807998
0.025572 0.023647999 0.71855998
0.026805 0.023664 0.71903998
0.028032999 0.023674 0.71935999
0.029261 0.023684001 0.71967
0.030485 0.02369 0.71983999
0.031704001 0.023692001 0.71990001
0.032921001 0.023692001 0.71990001
0.034141 0.023693999 0.71995002
0.035367001 0.023699 0.72012001
0.036596 0.023707001 0.72036999
0.037827 0.023716001 0.72061002
0.039067999 0.023729 0.72103
0.040313002 0.023745 0.72149998
0.041559 0.023759 0.72194999
0.042801999 0.023771999 0.72232997
0.044055998 0.02379 0.72288001
0.045309 0.023806 0.72336
0.046562999 0.023822 0.72385001
0.047823999 0.023840999 0.72442001
0.049098 0.023864999 0.72513998
0.050374001 0.023887999 0.72587001
0.051658999 0.023915 0.72667998
0.052955002 0.023946 0.72759998
0.054246001 0.023972999 0.72842997
0.055526 0.023994001 0.72907001
0.056823999 0.024021 0.72991002
0.058145002 0.024057001 0.73098999
0.059459999 0.024089999 0.73198003
0.060819998 0.024138 0.73345
0.062203001 0.024194 0.73514003
0.063583001 0.024246 0.73673999
0.064948998 0.024290999 0.73809999
0.066327997 0.024339 0.73956001
0.067694999 0.024381001 0.74084002
0.069049001 0.024417 0.74194002
0.070390001 0.024447 0.74285001
0.071749002 0.024482001 0.74392003
0.073129997 0.024524 0.74517
0.074515 0.024565 0.74642998
0.075938001 0.024617 0.74801999
0.077385999 0.024676001 0.74979001
0.078819998 0.024728 0.75138003
0.080251001 0.024777999 0.75288999
0.081674002 0.024823001 0.75427997
0.083100997 0.024869001 0.75566
0.084513001 0.024908001 0.75686002
0.085934997 0.02495 0.75812
0.087366998 0.024993001 0.75941998
0.088806003 0.025037 0.76075
0.090078004 0.023743 0.76063001
-0.061383002 0.026763 0.77337998
-0.060022 0.026738999 0.77269
-0.058649 0.026709 0.77181
-0.057252999 0.026666 0.77057999
-0.055830002 0.026609 0.76892
-0.054393999 0.026543001 0.76701999
-0.052925002 0.026456 0.76450998
-0.051459 0.026368 0.76195002
-0.049998 0.026276 0.75932002
-0.048558 0.026192 0.75689
-0.047152001 0.026122 0.75485998
-0.045788001 0.026071999 0.75340998
-0.044438999 0.026028 0.75215
-0.043106001 0.025991 0.75107998
-0.041774999 0.025953 0.74997997
-0.040451001 0.025916999 0.74892998
-0.039111 0.025868 0.74752998
-0.037758999 0.025807999 0.74576998
-0.036394998 0.025735 0.74366999
-0.035038002 0.025661999 0.74155998
-0.033698998 0.025597 0.73967999
-0.032387 0.025548 0.73828
-0.031098999 0.025516 0.73733997
-0.029828001 0.025494 0.73672003
-0.028562 0.025477 0.73620999
-0.027287999 0.025449 0.73540998
-0.026015 0.025420001 0.73457003
-0.024746999 0.025393 0.73378998
-0.023475001 0.025358999 0.73280001
-0.022205999 0.025325 0.73181999
-0.020945 0.025296001 0.73100001
-0.01969 0.025272001 0.73027998
-0.018436 0.025243999 0.72948998
-0.017185001 0.025219001 0.72876
-0.015937001 0.025193 0.72802001
-0.014691 0.025167 0.72724998
-0.013444 0.025134999 0.72632998
-0.012201 0.025103001 0.72539997
-0.010963 0.025077 0.72465998
-0.0097283004 0.025051 0.72391999
-0.0084972 0.02503 0.72330999
-0.0072694002 0.025013 0.72280997
-0.0060438998 0.024998 0.72237998
-0.0048194998 0.024981 0.72188997
-0.0035971999 0.024968 0.72150999
-0.0023761999 0.024955001 0.72114003
-0.0011564 0.024940999 0.72071999
6.2004001e-05 0.024938 0.72065002
0.0012804 0.024940001 0.72070998
0.0024985 0.024938 0.72062999
0.0037159 0.024932001 0.72046
0.0049335998 0.02493 0.72042
0.0061498 0.024923 0.72021002
0.0073644998 0.024914 0.71994001
0.0085803 0.024909999 0.71982998
0.0097962003 0.024907 0.71976
0.01101 0.024901001 0.71956998
0.01222 0.024886999 0.71916002
0.013432 0.024879999 0.71897
0.014643 0.024874 0.71877998
0.015852001 0.024863999 0.71850002
0.017061001 0.024855999 0.71825999
0.018271999 0.024851 0.71811998
0.019481 0.024844 0.71793997
0.020692 0.024840999 0.71783
0.021911999 0.024848999 0.71806002
0.023134001 0.024858 0.71832001
0.024360999 0.024870001 0.71868002
0.025591001 0.024885001 0.7191
0.026822001 0.024899 0.71951997
0.028049 0.024908001 0.71978003
0.029278001 0.024919 0.72008002
0.030502999 0.024924999 0.72026002
0.031725999 0.024929 0.72038001
0.032946002 0.024931001 0.72043997
0.034169 0.024935 0.72053999
0.035393 0.024939001 0.72065997
0.036621001 0.024945 0.72083998
0.037852 0.024954 0.72109002
0.039094001 0.024968 0.72150999
0.040337998 0.024983 0.72194999
0.041586999 0.025 0.72244
0.042835001 0.025016 0.72288001
0.044089999 0.025033999 0.72342002
0.045343 0.025051 0.72390997
0.046603002 0.02507 0.72446001
0.047864001 0.02509 0.72501999
0.049139 0.025115 0.72575003
0.050416999 0.025140001 0.72649002
0.051707 0.02517 0.72735
0.053004999 0.025203001 0.72829002
0.054297999 0.025231 0.72912002
0.055582002 0.025255 0.72979999
0.05689 0.025288001 0.73075002
0.058217999 0.025327999 0.73192
0.059551999 0.025369 0.7331
0.060929 0.025427001 0.73477
0.062332001 0.025493 0.73667002
0.063722 0.025551001 0.73834997
0.065090999 0.025598001 0.73971999
0.066467002 0.025645999 0.74111003
0.067823999 0.025686 0.74225998
0.069158003 0.025715999 0.74311
0.070483997 0.025741 0.74383998
0.071843997 0.025777999 0.74489999
0.073223002 0.02582 0.74611998
0.074611999 0.025864 0.74739999
0.076041996 0.025921 0.74905002
0.077496 0.025984 0.75085998
0.078930996 0.026038 0.75243998
0.080360003 0.026089 0.75391001
0.081784002 0.026137 0.75529999
0.083205998 0.026183 0.75661999
0.084605001 0.026219999 0.75769001
0.086014003 0.026258999 0.75882
0.087445997 0.026303999 0.76011002
0.088862002 0.026342999 0.76124001
0.090240002 0.026369 0.76200002
-0.060029998 0.028053001 0.77279001
-0.058655001 0.02802 0.77188998
-0.057268001 0.02798 0.77078998
-0.055858999 0.027927 0.76933002
-0.054432999 0.027863 0.76756001
-0.052976999 0.02778 0.76528001
-0.051516 0.027690001 0.76279002
-0.050051998 0.027594 0.76015002
-0.048610002 0.027504999 0.75770003
-0.047192998 0.027426001 0.75551999
-0.045818999 0.027368 0.75392997
-0.044466 0.027319999 0.75260001
-0.043127999 0.027278 0.75146002
-0.041797001 0.027239 0.75037003
-0.040479001 0.027205 0.74945003
-0.039149001 0.027161 0.74823999
-0.037802 0.027102999 0.74662
-0.036442999 0.027031001 0.74465001
-0.035087001 0.026957 0.74260002
-0.033741999 0.026884999 0.74063998
-0.032423001 0.026830001 0.73909998
-0.031128 0.026791001 0.73803002
-0.029850001 0.026763 0.73728001
-0.028579 0.026741 0.73663998
-0.027306 0.026713001 0.73589998
-0.026032999 0.026683999 0.73508
-0.024769001 0.026660001 0.73443002
-0.023499001 0.026629001 0.73356003
-0.022235001 0.0266 0.73276001
-0.020973001 0.02657 0.73193997
-0.019717 0.026546 0.73128998
-0.018459 0.026515 0.73041999
-0.017206 0.026486 0.72962999
-0.015954999 0.026456 0.72882003
-0.014706 0.026426001 0.72798997
-0.013458 0.026393 0.72706002
-0.012213 0.026358999 0.72614002
-0.010975 0.026334001 0.72544998
-0.0097388998 0.026307 0.72470999
-0.0085065998 0.026285 0.72409999
-0.0072769001 0.026265001 0.72354001
-0.00605 0.026249001 0.72311002
-0.0048234998 0.026226999 0.72250003
-0.0035995999 0.026209 0.72201002
-0.0023775999 0.026193 0.72156
-0.001157 0.026175 0.72108001
6.2027997e-05 0.026171001 0.72093999
0.001281 0.026172999 0.72101003
0.0024997999 0.026172001 0.72099
0.0037181 0.026168 0.72087997
0.0049369 0.026169 0.7209
0.0061543998 0.026164001 0.72075999
0.0073706 0.026156001 0.72053999
0.0085875001 0.026152 0.72043002
0.0098051997 0.026152 0.72042
0.011021 0.026147 0.72029001
0.012233 0.026133999 0.71994001
0.013446 0.026126999 0.71974999
0.014659 0.026121 0.71956998
0.015869999 0.026110001 0.71928
0.01708 0.026101001 0.71903998
0.018292001 0.026097 0.71890998
0.019504 0.026092 0.71877998
0.020717001 0.02609 0.71872002
0.021938 0.026095999 0.71889001
0.023158999 0.026102999 0.71907997
0.024385 0.026114 0.71938998
0.025612 0.026125001 0.71969002
0.026839999 0.026136 0.71999002
0.028066 0.026145 0.72022998
0.029296 0.026156001 0.72052997
0.030522 0.026163001 0.72071999
0.031748999 0.026169 0.72091001
0.032972999 0.026174 0.72103
0.034194998 0.026176 0.72108001
0.035417002 0.026178 0.72114003
0.036642 0.026182 0.72127002
0.037875 0.026192 0.72152001
0.039115001 0.026205 0.72189999
0.04036 0.026221 0.72232997
0.041611999 0.026241001 0.72288001
0.042863999 0.026258999 0.72337002
0.044119 0.026278 0.72390997
0.045377001 0.026298 0.72446001
0.046641 0.026319999 0.72507
0.047905002 0.026341001 0.72562999
0.049180999 0.026368 0.72636998
0.050464999 0.026396999 0.72716999
0.051755998 0.026428999 0.72804999
0.053056002 0.026463 0.72899002
0.054349001 0.026493 0.72981
0.055644002 0.026520999 0.73061001
0.056958999 0.026559001 0.73163003
0.058299001 0.026605999 0.73294002
0.05965 0.026656 0.73431998
0.061044998 0.026722999 0.73616999
0.062456001 0.026794 0.73812997
0.063844003 0.026853001 0.73975003
0.06521 0.026900999 0.74106002
0.066570997 0.026945001 0.74226999
0.067911997 0.026978999 0.74321002
0.069228999 0.027003 0.74387002
0.070565 0.027032999 0.74469
0.071934 0.027074 0.74584001
0.073329002 0.027124001 0.74720001
0.074732997 0.027175 0.74861002
0.076172002 0.027237 0.75032002
0.077615 0.027299 0.75202
0.079053 0.027356001 0.7536
0.080485001 0.027410001 0.75507998
0.081894003 0.027454 0.75630999
0.083318003 0.027502 0.75762999
0.084702998 0.027535999 0.75857002
0.086084999 0.027567999 0.75944
0.087467998 0.027598999 0.76030999
0.088881001 0.027639 0.76139998
0.090232998 0.027659001 0.76194
0.091658004 0.0277 0.76309001
-0.060052998 0.029374 0.77309
-0.058669999 0.029336 0.77209997
-0.057287998 0.029297 0.77105999
-0.055883002 0.029244 0.76966
-0.054462001 0.02918 0.76797003
-0.05302 0.029100999 0.76589
-0.051576 0.029015999 0.76367998
-0.05012 0.028922001 0.76117998
-0.048671 0.028826 0.75866002
-0.047242999 0.028736999 0.75632
-0.045855001 0.028667999 0.75452
-0.044493001 0.028612999 0.75305003
-0.043150999 0.028568 0.75186002
-0.041822001 0.028527999 0.75081998
-0.040507 0.028496001 0.74997002
-0.039182 0.028454 0.74888003
-0.037838001 0.028395999 0.74734998
-0.036485001 0.028325999 0.74550998
-0.035128001 0.028248001 0.74347001
-0.033778999 0.028170999 0.74142998
-0.032455001 0.028109999 0.73982
-0.031153001 0.028063999 0.73861003
-0.029868999 0.028031001 0.73773998
-0.028596999 0.028006 0.73710001
-0.027325001 0.02798 0.73640001
-0.026053 0.027951 0.73565
-0.024792001 0.027930999 0.73510998
-0.023525 0.027903 0.73436999
-0.022260001 0.027873 0.73357999
-0.020996001 0.027841 0.73275
-0.019738 0.027814001 0.73203999
-0.018475 0.027776999 0.73106003
-0.017219 0.027744001 0.73019999
-0.015966 0.027711 0.72931999
-0.014716 0.027679 0.72849
-0.013467 0.027643999 0.72755998
-0.012223 0.027611 0.72668999
-0.010983 0.027582999 0.72595
-0.0097463997 0.027557001 0.72526997
-0.0085131004 0.027534001 0.72465998
-0.007282 0.027511001 0.72404999
-0.0060538002 0.027492 0.72355998
-0.0048269001 0.027471 0.72301
-0.0036022 0.027451999 0.72250998
-0.0023791001 0.027433001 0.72201002
-0.0011577 0.027415 0.72153002
6.2063002e-05 0.027409 0.72136998
0.0012817 0.027411001 0.72143
0.002501 0.027408 0.72136003
0.0037203 0.027407 0.72131002
0.0049398998 0.027408 0.72134
0.0061586001 0.027403999 0.72125
0.0073758001 0.027396001 0.72104001
0.0085942 0.027395001 0.72100002
0.0098130004 0.027394 0.72099
0.011031 0.027392 0.72091001
0.012244 0.027380001 0.72061998
0.013459 0.027372999 0.72043997
0.014673 0.027365999 0.72025001
0.015884001 0.027355 0.71995002
0.017096 0.027346 0.71970999
0.018308001 0.027339 0.71951997
0.019521 0.027334001 0.71939999
0.020737 0.027334001 0.71938998
0.021957999 0.02734 0.71956998
0.023181001 0.027347 0.71974999
0.02441 0.027361 0.72011
0.025637999 0.027372999 0.72040999
0.026861001 0.027378 0.72055
0.028088 0.027386 0.72077
0.029317999 0.027396999 0.72105998
0.030540001 0.0274 0.72114998
0.031766001 0.027406 0.72130001
0.032993 0.027412999 0.72147
0.034212999 0.027412999 0.72147
0.035436001 0.027415 0.72153002
0.036664002 0.027422 0.72171003
0.037900999 0.027433001 0.72201002
0.039143998 0.027449001 0.72244
0.040392999 0.027468 0.72293001
0.041644 0.027487 0.72342002
0.042895999 0.027504999 0.72390997
0.044156 0.027527999 0.72451001
0.045419 0.027551999 0.72512001
0.046684999 0.027574999 0.72575003
0.047956999 0.027601 0.72643
0.049238998 0.027631 0.72722
0.050528001 0.027664 0.72808999
