# .PCD v0.7 - Point Cloud Data file format
VERSION 0.7
FIELDS x y z
SIZE 4 4 4
TYPE F F F
COUNT 1 1 1
WIDTH 1527
HEIGHT 1
VIEWPOINT 0 0 0 1 0 0 0
POINTS 1527
DATA ascii
0.059232999 0.015091 0.94566
0.060757998 0.015073 0.94452
0.062265001 0.015052 0.94317001
0.063767001 0.01503 0.94178998
0.065211996 0.014996 0.93967003
0.066630997 0.014958 0.93729001
0.068010002 0.014913 0.93445998
0.069311 0.014853 0.93071997
0.070625998 0.014799 0.92732
0.072011001 0.014761 0.92497998
0.073448002 0.014736 0.92338997
0.074974999 0.014729 0.92297
0.076617002 0.014745 0.92395002
0.078244001 0.014757 0.92471999
0.079920001 0.014778 0.92602998
0.081569001 0.014793 0.92697001
0.083226003 0.014809 0.92798001
0.084977999 0.014841 0.92998999
0.086783998 0.014881 0.93248999
0.088629 0.014927 0.93532997
0.090507999 0.014976 0.93842
0.092370003 0.015021 0.94123
0.094132997 0.015048 0.94295001
0.095821999 0.015063 0.94388002
0.097460002 0.01507 0.9443
0.099087 0.015074 0.94458997
0.10071 0.015079 0.94487
0.10227 0.015073 0.94450998
0.10387 0.015073 0.94450003
0.10547 0.015074 0.94458002
0.10707 0.015075 0.94459999
0.10866 0.015074 0.94454002
0.11028 0.015077 0.94475001
0.11187 0.015075 0.94464999
0.11342 0.015069 0.94423997
0.11493 0.015057 0.94351
0.11637 0.015037 0.94226998
0.11778 0.015014 0.94081002
-0.14421999 0.018155999 1.0285
-0.14210001 0.018107001 1.0257
-0.13985001 0.018041 1.0219001
-0.1376 0.017972 1.018
-0.13545001 0.017917 1.0149
-0.13342001 0.017874001 1.0124
-0.13145 0.017837999 1.0105
-0.12966999 0.017828999 1.0099
-0.12801 0.017835001 1.0103
-0.12639999 0.017849 1.011
-0.12485 0.017873 1.0124
-0.12334 0.017902 1.0141
-0.12181 0.017929001 1.0156
-0.12024 0.017951 1.0168
-0.11864 0.017968001 1.0178
-0.117 0.017981 1.0185
-0.11531 0.017987 1.0189
-0.11362 0.017991001 1.0191
-0.11193 0.017997 1.0194
-0.11022 0.017999001 1.0195
-0.10851 0.018000999 1.0197001
-0.1068 0.018003 1.0197999
-0.10507 0.018003 1.0197999
-0.10334 0.018000999 1.0197001
-0.1016 0.017997 1.0195
-0.099838004 0.017991001 1.0191
-0.098044999 0.017978 1.0184
-0.096230999 0.017960999 1.0174
-0.094365999 0.017934 1.0158
-0.092458002 0.017897001 1.0138
-0.090549 0.017858 1.0116
-0.088638 0.017818 1.0093
-0.086712003 0.017773001 1.0067
-0.084787004 0.017726 1.0041
-0.082895003 0.017685 1.0017
-0.080976002 0.017635001 0.99896002
-0.079043001 0.017581001 0.99588001
-0.077127002 0.017527999 0.99289
-0.075237997 0.017479001 0.99011999
-0.073391996 0.017439 0.9878
-0.071592003 0.017407 0.98601002
-0.069862001 0.017391 0.98512
-0.068158999 0.017382 0.98457998
-0.066487998 0.017379999 0.98448002
-0.064837001 0.017384 0.98469001
-0.063193999 0.01739 0.98503
-0.061558001 0.017398 0.98549002
-0.059932999 0.017410001 0.98616999
-0.058345001 0.017433001 0.98750001
-0.056834001 0.017481999 0.99027002
-0.055360999 0.017546 0.99387997
-0.053886998 0.017612999 0.99769002
-0.052452002 0.017697999 1.0025001
-0.050994001 0.017781001 1.0072
-0.049522001 0.017864 1.0118999
-0.048073001 0.017960999 1.0174
-0.013815 0.018149 1.028
-0.012057 0.018118 1.0263
-0.010301 0.018082 1.0243
-0.0085517 0.018044 1.0221
-0.0068076998 0.018002 1.0197001
-0.0050696 0.017951 1.0168999
-0.0033425 0.017907999 1.0144
0.0034745 0.017690999 1.0021
0.0051213 0.017529 0.99293
0.0067321998 0.017355001 0.98306
0.016171999 0.015189 0.95174998
0.014464 0.016688 0.94528002
0.016027 0.016651999 0.94322997
0.017587001 0.016619001 0.94139999
0.019149 0.016593 0.93993002
0.020741999 0.016597001 0.94011998
0.022333 0.016597999 0.94016999
0.023934999 0.016607 0.94068003
0.025536001 0.016613999 0.94107997
0.027131001 0.016616 0.94120002
0.028729999 0.016620999 0.94148999
0.030340999 0.016631 0.94207001
0.031952001 0.016641 0.94261003
0.033578001 0.016657 0.94353998
0.035215002 0.016677 0.94466001
0.036851998 0.016695 0.94568998
0.038493 0.016713001 0.94673002
0.040125001 0.016727 0.94747001
0.041746002 0.016734 0.94791001
0.043352999 0.016736001 0.94800001
0.044953998 0.016735001 0.94797999
0.046542 0.016729999 0.94766998
0.048135001 0.016727 0.94748002
0.049720999 0.016721999 0.9472
0.051290002 0.016711 0.94660002
0.052859999 0.016701 0.94604999
0.054421999 0.016690001 0.94541001
0.055989999 0.016681001 0.94489002
0.057533 0.016665 0.94401002
0.059094999 0.016656 0.94347
0.060566001 0.016621999 0.94154
0.062013999 0.016582999 0.93935001
0.063451 0.016543999 0.93712997
0.064819999 0.016488999 0.93401998
0.066160999 0.01643 0.93067998
0.067520998 0.016378 0.92773998
0.068811998 0.016313 0.92401999
0.070130996 0.016256001 0.92083001
0.071540996 0.016223 0.91895002
0.073009998 0.016204 0.91788
0.074560001 0.016204 0.91785997
0.076231003 0.016229 0.91930002
0.077889003 0.016251 0.92052001
0.079596996 0.016282 0.92229003
0.081271999 0.016305 0.92360002
0.082957 0.016329 0.92497998
0.084723003 0.016369 0.92720002
0.086568996 0.016421 0.93019003
0.08845 0.016479 0.93344003
0.090356998 0.016539 0.93686002
0.092244998 0.016594 0.93994999
0.094030999 0.016628999 0.94193
0.095717996 0.016644999 0.94286001
0.097355001 0.016651999 0.94327003
0.098977998 0.016657 0.94354999
0.10058 0.016659001 0.94362998
0.10213 0.016650001 0.94314998
0.1037 0.016648 0.94300997
0.10527 0.016643999 0.94277
0.10683 0.016639 0.94248998
0.10841 0.016635001 0.94231999
0.11 0.016635001 0.94230998
0.11155 0.016628001 0.94191998
0.11307 0.016619001 0.94138998
0.11456 0.016604001 0.94055003
0.11601 0.016584 0.93941998
0.11745 0.016563 0.93818998
-0.14002 0.019797999 1.0232
-0.13786 0.019735999 1.02
-0.13568 0.019669 1.0166
-0.1336 0.019617001 1.0138
-0.13158999 0.019572999 1.0116
-0.12980001 0.019561 1.0109
-0.12813 0.019567 1.0112
-0.12651999 0.019580999 1.012
-0.12497 0.019608 1.0134
-0.12347 0.019641999 1.0151
-0.12193 0.019669 1.0166
-0.12034 0.019691 1.0177
-0.11872 0.019707 1.0185
-0.11708 0.019719999 1.0192
-0.11538 0.019725 1.0194
-0.11367 0.019726999 1.0195
-0.11197 0.019731 1.0197999
-0.11025 0.019732 1.0197999
-0.10854 0.019734999 1.0199
-0.10681 0.019734001 1.0199
-0.10511 0.019739 1.0201
-0.1034 0.019741001 1.0202
-0.10167 0.01974 1.0202
-0.099921003 0.019734999 1.02
-0.098148003 0.019725 1.0195
-0.096345 0.019709 1.0186
-0.094493002 0.019681999 1.0172
-0.092572004 0.019639 1.015
-0.09065 0.019595001 1.0127
-0.088711001 0.019545 1.0101
-0.086750999 0.019487999 1.0072
-0.084795997 0.01943 1.0042
-0.082893997 0.019382 1.0017
-0.080946997 0.019322 0.99861002
-0.078993998 0.019257 0.99526
-0.077065997 0.019196 0.99211001
-0.075176999 0.019142 0.98931998
-0.073345996 0.019100999 0.98717999
-0.071566001 0.019071 0.98565
-0.069853 0.019059001 0.98500001
-0.068158001 0.01905 0.98456001
-0.066486999 0.019048 0.98447001
-0.064834997 0.019052001 0.98466003
-0.063193001 0.019059001 0.98500001
-0.061556 0.019068001 0.98545003
-0.059923999 0.019079 0.98602003
-0.058364999 0.019114001 0.98784
-0.056874 0.019174 0.99096
-0.05542 0.019251 0.99493998
-0.053957999 0.019330001 0.99901003
-0.052535001 0.019428 1.0041
-0.051061001 0.019514 1.0085
-0.049516 0.019577 1.0118001
-0.0068064001 0.019726001 1.0195
-0.0050709001 0.019680001 1.0171
-0.0033450001 0.019641999 1.0152
0.0017757 0.019339001 0.99945998
0.0034419 0.019207999 0.99273002
0.012919 0.016758 0.94923002
0.011236 0.018238001 0.94259
0.012796 0.018192001 0.94019002
0.014359 0.018158 0.93845999
0.015946999 0.018159 0.93852001
0.017538 0.018164 0.93875998
0.019134 0.018173 0.93923002
0.020729 0.018178999 0.93952
0.02232 0.018181 0.93963999
0.023921 0.018191 0.94014001
0.025521999 0.018199001 0.94055003
0.027116001 0.018200999 0.94068003
0.028715 0.018207001 0.94098002
0.030324001 0.018217999 0.94155997
0.031931002 0.018227 0.94200999
0.033553999 0.018243 0.94284999
0.035188999 0.018265 0.94397002
0.036826 0.018285001 0.94499999
0.038462002 0.018302999 0.94595999
0.040091999 0.018317999 0.94669002
0.041710999 0.018325999 0.94709998
0.043311 0.018324999 0.94708002
0.044904999 0.018322 0.94694
0.046486001 0.018315 0.94654
0.048071001 0.018309001 0.94622999
0.049644999 0.018299 0.94573998
0.051199999 0.018283 0.94493002
0.052749999 0.018267 0.94409001
0.054296002 0.01825 0.94322002
0.055842999 0.018235 0.94240999
0.057376001 0.018216001 0.94142002
0.058883999 0.01819 0.94009
0.060298 0.018137001 0.93737
0.061689001 0.01808 0.93443
0.063073002 0.018025 0.93155003
0.064383999 0.017951 0.92774999
0.065704003 0.017883001 0.92425001
0.067042999 0.017824 0.92118001
0.068382002 0.017766999 0.91825002
0.069739997 0.017718 0.91569
0.071189001 0.017693 0.91442001
0.072706997 0.017686 0.91407001
0.074297003 0.017697001 0.91463
0.075948998 0.017721999 0.91588998
0.077600002 0.017744999 0.91711003
0.079309002 0.017781001 0.91895002
0.080983996 0.017806999 0.92032999
0.082679003 0.017836999 0.92188001
0.084449001 0.017882001 0.92418998
0.086317003 0.017945999 0.92747998
0.088212997 0.018013 0.93093997
0.090145998 0.018084999 0.93466997
0.092059001 0.01815 0.93805999
0.093870997 0.018193999 0.94033003
0.095573001 0.018216001 0.94142997
0.097217999 0.018226 0.94195002
0.098839 0.018231001 0.94221997
0.10043 0.018230001 0.94218999
0.10196 0.018219 0.94160998
0.10351 0.018213 0.94126999
0.10506 0.018206 0.94090998
0.10661 0.018198 0.94050002
0.10815 0.01819 0.94011003
0.10972 0.018185999 0.93989998
0.11124 0.018174 0.9393
0.11274 0.01816 0.93857002
0.1142 0.018141 0.93756998
0.11565 0.01812 0.93646002
0.1171 0.018100001 0.93544
-0.13371 0.021353001 1.0147001
-0.13169999 0.021306001 1.0124
-0.12991001 0.021291999 1.0118001
-0.12823001 0.021298001 1.0121
-0.12661 0.021313 1.0128
-0.12506001 0.021341 1.0141
-0.12355 0.021376001 1.0158
-0.12201 0.021407001 1.0173
-0.1204 0.021426 1.0181
-0.11876 0.021441 1.0189
-0.1171 0.021453001 1.0194
-0.1154 0.021457 1.0196
-0.11367 0.021454999 1.0195
-0.11198 0.021462001 1.0199
-0.11026 0.021462999 1.0199
-0.10855 0.021466 1.02
-0.10683 0.021466 1.02
-0.10513 0.021472 1.0203
-0.10342 0.021475 1.0204999
-0.1017 0.021476001 1.0204999
-0.099967003 0.021474 1.0204
-0.098205 0.021466 1.02
-0.096410997 0.021451 1.0193
-0.094541997 0.021416999 1.0177
-0.092611 0.021369001 1.0154001
-0.090666004 0.021314999 1.0129
-0.088712998 0.021258 1.0101
-0.086741999 0.021193 1.0071
-0.084804997 0.021135001 1.0043
-0.082895003 0.021081001 1.0017
-0.080945998 0.021015 0.99858999
-0.078980997 0.020941 0.99510002
-0.077045999 0.020873001 0.99184
-0.075167 0.020817 0.98918003
-0.073353998 0.020777 0.98729002
-0.071590997 0.020749999 0.986
-0.069891997 0.020740001 0.98554999
-0.068203002 0.020733001 0.98521
-0.066529997 0.020731 0.98509997
-0.064884998 0.020737 0.98541999
-0.063242003 0.020745 0.98576999
-0.061604001 0.020754 0.98623002
-0.059982002 0.02077 0.98697001
-0.05844 0.020815 0.98912001
-0.056958001 0.020885 0.99242002
-0.055509999 0.020972 0.99655998
-0.054049999 0.021059001 1.0007
-0.052615002 0.021162 1.0056
-0.051103 0.02124 1.0093
-0.049532998 0.021299001 1.0121
-0.0050742999 0.021418 1.0178
0.0097230999 0.018391 0.95051003
0.0081035001 0.019971 0.94902003
0.0096463999 0.019845 0.94300997
0.011177 0.019733001 0.93768001
0.012758 0.019726001 0.93737
0.014347 0.019732 0.93764001
0.015933 0.019733001 0.93769002
0.017524 0.01974 0.93801999
0.019118 0.019748 0.93840998
0.020710999 0.019754 0.93870997
0.022303 0.019758999 0.93892002
0.023902999 0.019769 0.93941998
0.025502 0.019778 0.93983001
0.027098 0.019783 0.94006002
0.028697999 0.019791 0.94044
0.030307001 0.019803001 0.94102001
0.031909999 0.019811001 0.94138002
0.033528 0.019826001 0.94212002
0.035158999 0.019848 0.94314998
0.036793999 0.01987 0.94419003
0.038424999 0.019888001 0.94505
0.040054001 0.019903 0.94577998
0.041666001 0.019909 0.94608003
0.043258999 0.019907 0.94594997
0.044842999 0.0199 0.94562
0.046416 0.019889001 0.94510001
0.047988001 0.019878 0.94458997
0.049552001 0.019865001 0.94397998
0.051098 0.019846 0.94305003
0.052632999 0.019824 0.94199997
0.054155 0.019797999 0.94076997
0.055674002 0.019772001 0.93956
0.057184 0.019745 0.93827999
0.058639001 0.019701 0.93618
0.060005002 0.01963 0.93281001
0.061354 0.019557999 0.92935997
0.062693 0.019485001 0.92593002
0.063966997 0.019397 0.92172998
0.065275997 0.019323001 0.91823
0.066656999 0.019274 0.91588002
0.06803 0.019223999 0.91351998
0.069433004 0.019184999 0.91166002
0.070919998 0.019169999 0.91096002
0.072480999 0.019176001 0.91123003
0.074060999 0.019185999 0.91171002
0.075698003 0.019211 0.91286999
0.077335 0.019234 0.91396999
0.079037003 0.019272 0.91579998
0.080715001 0.019303 0.91727
0.082405999 0.019336 0.91883999
0.084169 0.019384 0.92113
0.086044997 0.019455999 0.92455
0.087940998 0.019531 0.92807001
0.089890003 0.019613 0.93200999
0.091829002 0.019691 0.93572003
0.093686998 0.019749001 0.93848002
0.095416002 0.019779 0.93988001
0.097088002 0.019796001 0.94068998
0.098718002 0.019804001 0.94107002
0.10031 0.019804001 0.94104999
0.10182 0.019788999 0.94037998
0.10336 0.019778 0.93984002
0.10488 0.019766999 0.93928999
0.1064 0.019754 0.93867999
0.10792 0.019741001 0.93808001
0.10946 0.019732 0.93766999
0.11095 0.019716 0.93686998
0.11244 0.0197 0.93614
0.1139 0.019679001 0.93513
0.11536 0.019657999 0.93414003
0.11682 0.019637 0.93313998
0.11944 0.018215001 0.94141001
0.11869 0.019686 0.93545997
-0.11367 0.023182999 1.0195
-0.11198 0.023190999 1.0199
-0.11026 0.023192 1.0199
-0.10854 0.023192 1.0199
-0.10681 0.023192 1.0199
-0.094475999 0.023126001 1.017
-0.092533998 0.023071 1.0146
-0.090581 0.023011001 1.0118999
-0.088642001 0.022952 1.0093
-0.086710997 0.022892 1.0067
-0.084794998 0.022834999 1.0042
-0.082897 0.022779001 1.0017999
-0.080959 0.022710999 0.99874997
-0.079002 0.022634 0.99536997
-0.077074997 0.022562001 0.99221998
-0.075205997 0.022505 0.98970002
-0.073409997 0.022467 0.98804998
-0.071653999 0.022441 0.98686999
-0.069966003 0.022434 0.98659003
-0.068273999 0.022426 0.98624003
-0.066606 0.022426 0.98623002
-0.064969003 0.022437001 0.98668998
-0.063337997 0.02245 0.98725998
-0.061698999 0.022461001 0.98773998
-0.060081001 0.02248 0.98860002
-0.058527 0.022524999 0.99058998
-0.057027001 0.022593999 0.99362999
-0.055564001 0.022683 0.99752998
-0.054083999 0.022770001 1.0013
-0.052632 0.022875 1.0059
-0.051109001 0.022954 1.0095
0.0065589999 0.020155 0.95776999
0.0049271998 0.021723 0.95529997
0.0064981999 0.021577001 0.94888002
0.0080533996 0.021446999 0.94314998
0.0096148001 0.021373 0.93992001
0.011169 0.021306001 0.93698001
0.012748 0.021299001 0.93665999
0.014335 0.021303 0.93684
0.015919 0.021304 0.93687999
0.017510001 0.021313 0.93729001
0.019103 0.021322001 0.93766999
0.020693 0.021327 0.93787998
0.022283999 0.021331999 0.93810999
0.023882 0.021343 0.93861002
0.02548 0.021353001 0.93902999
0.027077001 0.021360001 0.93934
0.02868 0.021371 0.93981999
0.030286999 0.021384001 0.94041002
0.031885002 0.02139 0.94066
0.033498 0.021404 0.94128001
0.035119001 0.021422001 0.94208002
0.036743999 0.021441 0.94292003
0.038369998 0.021459 0.94369
0.039992999 0.021474 0.94433999
0.041598 0.021477999 0.94454002
0.043189 0.021475 0.94441003
0.044769 0.021467 0.94406998
0.046335999 0.021454001 0.94347
0.047899 0.021439999 0.94286001
0.049449999 0.021421 0.94202
0.050981 0.021395 0.94090003
0.052487001 0.021361001 0.93936998
0.053987 0.021326 0.93783998
0.055470999 0.021287 0.93614
0.056951001 0.021249 0.93444997
0.058370002 0.021190999 0.93189001
0.059714001 0.021109 0.92829001
0.061030999 0.021021999 0.92445999
0.062353 0.020941 0.92091
0.063605003 0.020841001 0.91652
0.064925998 0.020768 0.91329998
0.066333003 0.020725001 0.91141999
0.067731 0.020680999 0.9095
0.069164999 0.020651 0.90815002
0.070687003 0.020647001 0.90797001
0.072251998 0.020655001 0.90834999
0.073835 0.020668 0.90893
0.075466 0.020694001 0.91007
0.077096999 0.020718999 0.91115999
0.078785002 0.020757999 0.91288
0.080464996 0.020794 0.91443998
0.082153 0.02083 0.91601998
0.083893999 0.020878 0.91812998
0.085752003 0.020951999 0.92140001
0.087650999 0.021034 0.92501003
0.089608997 0.021127 0.92909998
0.091567002 0.021217 0.93304998
0.093482003 0.021294 0.93642002
0.095251001 0.021335 0.93825001
0.096941002 0.021358 0.93926001
0.098578997 0.021369001 0.93974
0.10017 0.021369001 0.93972999
0.10169 0.021356 0.93914998
0.10323 0.021345999 0.93871999
0.10476 0.021333 0.93817002
0.10627 0.021317 0.93747002
0.10777 0.021302 0.93677998
0.10928 0.021288 0.93616998
0.11075 0.021265 0.93516999
0.11223 0.021245999 0.93432999
0.11367 0.021221001 0.93322998
0.11513 0.021198001 0.93223
0.11655 0.021171 0.93105
0.118 0.021148 0.93002999
0.12057 0.019734001 0.93776
0.11941 0.021119 0.92874998
-0.084794 0.024536001 1.0042
-0.082892001 0.024475999 1.0017
-0.080972999 0.024408 0.99892002
-0.079034001 0.024331 0.99576998
-0.077132002 0.024262 0.99295002
-0.075280003 0.024207 0.99067998
-0.073499002 0.024172001 0.98923999
-0.071754999 0.024148 0.98825997
-0.070064001 0.024141001 0.98798001
-0.06837 0.024132 0.98762
-0.066707 0.024134999 0.98773003
-0.065076001 0.024149001 0.98831999
-0.063445002 0.024164001 0.98894
-0.061804 0.024176 0.98943001
-0.060183 0.024196999 0.99028999
-0.058616001 0.024241 0.99208999
-0.057105999 0.024312001 0.995
-0.055613 0.024395 0.99839997
-0.054097999 0.024473 1.0016
0.0048676999 0.023061 0.94378
0.0064405999 0.022980001 0.94046998
0.0080052996 0.022908 0.93752998
0.0095846998 0.022895001 0.93699002
0.011164 0.022884 0.93655002
0.012743 0.022876 0.93624002
0.014328 0.022880999 0.93642998
0.015914001 0.022884 0.93655998
0.017503001 0.022892 0.93686998
0.019091999 0.022899 0.93716002
0.020680999 0.022903999 0.93734998
0.022271 0.022909001 0.93756998
0.023866 0.022918999 0.93798
0.025460999 0.022926999 0.93831003
0.027054001 0.022933001 0.93853998
0.028653 0.022941999 0.93893999
0.030253001 0.022952 0.93932998
0.031847998 0.022957001 0.93954998
0.033457998 0.022972001 0.94015002
0.035071999 0.022988999 0.94082999
0.036690999 0.023006 0.94155997
0.038309 0.023022 0.94220001
0.039921001 0.023033001 0.94265002
0.041515 0.023034001 0.94266999
0.043099001 0.023027999 0.94243997
0.044667002 0.023015 0.94191998
0.046225 0.022998 0.94121999
0.047775999 0.022979001 0.94042999
0.049307998 0.022952 0.93932003
0.050827999 0.022921 0.93808001
0.052322999 0.022880999 0.93643999
0.053807002 0.022839 0.93471003
0.055266999 0.02279 0.93269002
0.056729998 0.022744 0.93083
0.058118001 0.022671999 0.92786002
0.059441 0.022578999 0.92404002
0.060741 0.022482 0.92008001
0.062045999 0.022391001 0.91636997
0.063336998 0.022299999 0.91264999
0.064663 0.022226 0.90960002
0.066072002 0.022182999 0.90784001
0.067501999 0.022148 0.90643001
0.068968996 0.022127001 0.90556997
0.070465997 0.022116 0.90513998
0.072047003 0.022132 0.90577
0.073638998 0.022150001 0.90653002
0.075259 0.022175999 0.90758002
0.076899998 0.022206999 0.90884
0.078575999 0.022245999 0.91044998
0.080251999 0.022283999 0.91201001
0.081951 0.022327 0.91376001
0.083672002 0.022375001 0.91570002
0.085487999 0.022445001 0.91856998
0.087366998 0.022529 0.92202002
0.089323997 0.02263 0.92615002
0.091288999 0.022729 0.93020999
0.093234003 0.02282 0.93393999
0.095058002 0.022879001 0.93636
0.096795 0.022916 0.93785
0.098452002 0.022932 0.93853003
0.10004 0.022933001 0.93853998
0.10158 0.022923 0.93813002
0.10312 0.022911999 0.93769002
0.10463 0.022895001 0.93698001
0.10612 0.022876 0.93620002
0.10761 0.022856001 0.93541002
0.1091 0.022836 0.9346
0.11054 0.022807 0.93339998
0.112 0.022784 0.93246001
0.11343 0.022755001 0.93124998
0.11488 0.02273 0.93024999
0.11632 0.022702999 0.92913997
0.11777 0.022681 0.92822999
0.11919 0.022652 0.92703998
0.1213 0.021175999 0.93124998
0.12062 0.022627 0.92603999
0.12319 0.021230999 0.93365002
0.12202 0.022596 0.92474997
-0.080948003 0.026093001 0.99861002
-0.079043999 0.026023 0.99589998
-0.077177003 0.025961 0.99352998
-0.075358003 0.025913 0.99169999
-0.073599003 0.025884001 0.99058998
-0.071861997 0.025861001 0.98973
-0.070176996 0.025857 0.98956001
-0.068471998 0.025845001 0.98910999
-0.066808999 0.025847999 0.98923999
-0.065176003 0.025864 0.98983002
-0.063548997 0.025883 0.99056
-0.061905 0.025896 0.99105
-0.060288001 0.025921 0.99202001
-0.058713999 0.025966 0.99374998
0.0032957001 0.023226 0.95055997
0.0016803 0.024713 0.94578999
0.0032627 0.024589 0.94103003
0.0048373002 0.024506999 0.93787998
0.0064194999 0.024494 0.93739998
0.0079998998 0.024481 0.93689001
0.0095784003 0.024467001 0.93637002
0.011157 0.024458 0.93602997
0.012737 0.024452999 0.93583
0.014322 0.024458 0.93605
0.015908999 0.024465 0.93628001
0.017496999 0.024472 0.93658
0.019083001 0.024475001 0.93668002
0.020668 0.024476999 0.93677002
0.022256 0.024482001 0.93695998
0.023848001 0.024490001 0.93726999
0.025441 0.024498999 0.93759
0.027036 0.024506999 0.93791997
0.028631 0.024514999 0.93822002
0.030226 0.024522999 0.93851
0.031817 0.024526 0.93862998
0.033413999 0.024534 0.93892998
0.035016 0.024544001 0.93932003
0.036623999 0.024557 0.93983001
0.038229998 0.024568999 0.94025999
0.039829001 0.024575001 0.94049001
0.041414998 0.024572 0.9404
0.042994 0.024566 0.94015002
0.044553999 0.02455 0.93954003
0.046100002 0.024527 0.93866998
0.047644999 0.024506001 0.93786001
0.049167 0.024474001 0.93664002
0.050678 0.024439 0.93529999
0.052163001 0.024394 0.93357998
0.053636 0.024346 0.93173999
0.055073 0.024285 0.92941999
0.056519002 0.024232 0.92736
0.057884999 0.024148 0.92414999
0.059250999 0.024068 0.92109001
0.060589001 0.023980999 0.91777003
0.061917 0.023894999 0.91447002
0.063236997 0.023809999 0.91122001
0.064585999 0.023739001 0.90853
0.065953001 0.023678999 0.90619999
0.067367002 0.023637 0.90461999
0.068836004 0.023616999 0.90381998
0.070322998 0.023603 0.90329999
0.071893997 0.023616999 0.90385002
0.073491 0.023638999 0.90469998
0.075101003 0.023665 0.90568
0.076738998 0.023698 0.90693998
0.078403004 0.023737 0.90845001
0.080081001 0.023779999 0.91007
0.081767 0.023823 0.91171998
0.083485998 0.023872999 0.91365999
0.085262999 0.023939 0.91614997
0.087108001 0.024019999 0.91927999
0.089019999 0.024117 0.92299002
0.090979002 0.024223 0.92704999
0.092929997 0.024324 0.93089002
0.094800003 0.0244 0.93382001
0.096583001 0.024452001 0.93579
0.098274 0.024479 0.93684
0.099878997 0.024483999 0.93703002
0.10143 0.024476999 0.93673998
0.10297 0.024465 0.93630999
0.10447 0.024447 0.93559998
0.10596 0.024426 0.93480003
0.10743 0.0244 0.93381
0.10889 0.024374001 0.93279999
0.11031 0.024339 0.93147999
0.11176 0.024312001 0.93044001
0.11316 0.024276 0.92905998
0.11461 0.024250001 0.92806
0.11605 0.024223 0.92704999
0.11752 0.024202 0.92622
0.11894 0.024173999 0.92514002
0.12039 0.024150001 0.92425001
0.12179 0.024117 0.92298001
0.1234 0.022562001 0.92337
0.12315 0.024078 0.92150003
0.12522 0.022608999 0.92531002
0.12451 0.024041001 0.92008001
-0.075406998 0.027612001 0.99234998
-0.073674001 0.027590999 0.99159998
-0.071943998 0.02757 0.99085999
-0.070265003 0.027569 0.99080998
-0.068558998 0.027556 0.99036002
-0.066899002 0.027562 0.99057001
-0.065249003 0.027573001 0.99094999
-0.063620001 0.027593 0.99166
-0.061967 0.027603 0.99203998
-0.060341001 0.027627001 0.99287999
0.0016653 0.026082 0.93735999
0.0032492999 0.026077 0.93717998
0.0048326999 0.026071001 0.93698001
0.0064133001 0.026058 0.93649
0.0079921996 0.026044 0.93598998
0.0095701003 0.026031001 0.93554997
0.011149 0.026024999 0.93532997
0.012731 0.026025999 0.93535
0.014317 0.026035 0.93567997
0.015904 0.026044 0.93601
0.017492 0.026052 0.93629998
0.019075001 0.026052 0.93629003
0.020655001 0.026048999 0.93619001
0.022237999 0.026048999 0.93618
0.023825999 0.026055001 0.93638003
0.025413999 0.026061 0.93660003
0.027008999 0.026071999 0.93699002
0.028602 0.026079999 0.93729001
0.030196 0.026087999 0.93757999
0.031787999 0.026093001 0.93778002
0.033383999 0.026102001 0.93808001
0.034975 0.026105 0.93821001
0.036568999 0.026110999 0.93840998
0.038162999 0.026117001 0.93861002
0.039742 0.026112 0.93843001
0.041312002 0.026101001 0.93804002
0.042877 0.026087999 0.93760002
0.044427998 0.026068 0.93687999
0.045959 0.026038 0.93580002
0.047494002 0.026013 0.93488002
0.049011 0.025978999 0.93365997
0.050517 0.025942 0.93232
0.051998001 0.025893999 0.93062001
0.053461999 0.025842 0.92873001
0.054891001 0.025775 0.92635
0.056320999 0.025713 0.92411
0.057689998 0.025628 0.92104
0.059067 0.02555 0.91824001
0.060412001 0.025462 0.91509002
0.061744001 0.025374001 0.91192001
0.063065 0.025286 0.90873998
0.064411998 0.025211001 0.90606999
0.065774001 0.025146 0.90373999
0.067204997 0.025110001 0.90244001
0.068686001 0.025094001 0.90186
0.070185997 0.025085 0.90153003
0.071754001 0.0251 0.90209001
0.073353 0.025126001 0.903
0.074954003 0.025150999 0.90390003
0.076595999 0.025188001 0.90524
0.078257002 0.02523 0.90675998
0.079939 0.025277 0.90845001
0.081620999 0.025323 0.91009003
0.083334997 0.025376 0.912
0.085083999 0.025438 0.91422999
0.086896002 0.025516 0.91703999
0.088761002 0.025606999 0.92031002
0.090673998 0.025707999 0.92394
0.092607997 0.025812 0.92767
0.094494 0.025899 0.93080002
0.096303001 0.025962999 0.93308002
0.098035 0.026004 0.93456
0.099676996 0.02602 0.93514001
0.10125 0.026017001 0.93502998
0.10279 0.026008001 0.93469
0.1043 0.02599 0.93405998
0.10578 0.025965 0.93316001
0.10723 0.025934 0.93206
0.10867 0.025903 0.93093002
0.11008 0.025864 0.92952001
0.11151 0.025831999 0.92838001
0.11291 0.025792001 0.92693001
0.11435 0.025764 0.92593002
0.11579 0.025736 0.92493999
0.11724 0.025711 0.92404997
0.11867 0.025682 0.92299002
0.12012 0.025660001 0.92219001
0.12153 0.025627 0.92101997
0.12289 0.025587 0.91956002
0.12427 0.02555 0.91825998
0.12631001 0.024087001 0.92183
0.12561999 0.025509 0.91677999
-0.073701002 0.029283 0.99195999
-0.071994998 0.029270999 0.99155998
-0.070331 0.029276 0.99172997
-0.068622001 0.029262001 0.99125999
-0.066959001 0.029268 0.99146003
-0.065292001 0.029271999 0.99159002
-0.063653 0.029289 0.99217999
0.0016632 0.027635001 0.93616003
0.0032452999 0.027631 0.93602997
0.0048273001 0.027628999 0.93594003
0.0064070998 0.027618 0.93558002
0.0079845004 0.027604001 0.93507999
0.0095627001 0.027596001 0.93483001
0.011142 0.027593 0.93471003
0.012725 0.027598999 0.93493003
0.014312 0.027612001 0.93537998
0.015900999 0.027625 0.93581003
0.017487001 0.027631 0.93601
0.019068001 0.027629999 0.93597001
0.020646 0.027623 0.93576002
0.022222999 0.027618 0.93555999
0.023807 0.027620999 0.93566
0.025392 0.027624 0.93576998
0.026983 0.027633 0.93607002
0.028571 0.027639 0.93627
0.030161001 0.027644999 0.93646997
0.031750999 0.027651001 0.93668002
0.033341002 0.027657 0.93687999
0.034926001 0.027657 0.93690002
0.036509998 0.027657 0.93690002
0.038093001 0.027657 0.93689001
0.039655998 0.027642 0.9364
0.041212 0.027624 0.93579
0.042764999 0.027605001 0.93515003
0.044303 0.027579 0.93423998
0.045823999 0.027543001 0.93304998
0.047348998 0.027512999 0.93202001
0.048859999 0.027477 0.93079001
0.050358001 0.027435999 0.92940003
0.051835999 0.027387001 0.92773002
0.053307001 0.027337 0.92603999
0.054738998 0.02727 0.92378002
0.056166999 0.027205 0.92158997
0.057528999 0.027113 0.91845
0.058894001 0.027027 0.91554999
0.060215 0.026924999 0.91210997
0.061540999 0.026830999 0.90890998
0.062854998 0.026736001 0.90570998
0.064223997 0.026668999 0.90341997
0.065610997 0.026612001 0.90151
0.06707 0.026587 0.90063
0.068566002 0.026575999 0.90028
0.070077002 0.026572 0.90013999
0.071635999 0.026586 0.90060002
0.073224999 0.02661 0.90143001
0.074814998 0.026633 0.90222001
0.076459996 0.026675001 0.90363997
0.078119002 0.02672 0.90516001
0.079806998 0.026773 0.90695
0.081495002 0.026823999 0.90867001
0.083214 0.026883001 0.91068
0.084931999 0.026939999 0.91259998
0.086710997 0.027013 0.91509002
0.088522002 0.027093999 0.91782999
0.090383999 0.027186999 0.92098999
0.092261001 0.027282 0.92418998
0.094131 0.027372001 0.92723
0.095948003 0.027442999 0.92964
0.097708002 0.027496001 0.93144
0.099389002 0.027525 0.93243003
0.101 0.027534001 0.93272001
0.10256 0.02753 0.93259001
0.10406 0.027511001 0.93195999
0.10553 0.027481999 0.93094999
0.10695 0.027442999 0.92966002
0.10838 0.027407 0.92843002
0.10977 0.027363 0.92693001
0.1112 0.02733 0.92580003
0.1126 0.02729 0.92444998
0.11404 0.02726 0.92344999
0.11549 0.027233999 0.92255998
0.11694 0.027208 0.92168999
0.11838 0.027179999 0.92072999
0.11983 0.027156999 0.91995001
0.12124 0.027124999 0.91887999
0.12261 0.027083 0.91744
0.12399 0.027047001 0.91623002
0.12534 0.027004 0.91475999
0.12740999 0.025558 0.91855001
0.12671 0.026966 0.91349
0.12926 0.025617 0.92065001
0.12807 0.026927 0.91215003
0.0032424999 0.029192001 0.93519002
0.0048234002 0.029191 0.93516999
0.0064022001 0.029182 0.93485999
0.0079782996 0.029166 0.93436003
0.0095563 0.029161001 0.93421
0.011135 0.02916 0.93418002
0.012719 0.029170999 0.93450999
0.014309 0.029191 0.93515998
0.015899001 0.029208001 0.93568999
0.017481999 0.029211 0.93579
0.019060999 0.029206 0.93563998
0.020636 0.029196 0.93531001
0.02221 0.029186999 0.93502003
0.023791 0.029186999 0.93502998
0.02537 0.029184001 0.93494999
0.026955999 0.02919 0.93514001
0.02854 0.029193999 0.93524998
0.030122001 0.029194999 0.93528998
0.031709999 0.029201001 0.93549001
0.033302002 0.029209999 0.93576998
0.034880999 0.029207001 0.93568999
0.036458001 0.029204 0.93558002
0.038034 0.029200001 0.93544
0.039586 0.029177999 0.93475002
0.041131001 0.029153001 0.93393999
0.042672001 0.029127 0.93311
0.044197001 0.029092001 0.93199998
0.045708999 0.029052 0.93071002
0.047224998 0.029017 0.92958999
0.048728999 0.028976999 0.92829001
0.050223 0.028934 0.92690998
0.051708002 0.028888 0.92544001
0.053187001 0.028841 0.92394
0.054627001 0.028777 0.92189002
0.05607 0.028718 0.91999
0.057395998 0.028603001 0.91632998
0.058719002 0.028494 0.91281998
0.059996001 0.028368 0.90877998
0.061289001 0.028255999 0.90518999
0.062578999 0.028147001 0.90173
0.063998997 0.028101999 0.90025997
0.065425999 0.028061001 0.89897001
0.066924997 0.028053001 0.89868999
0.068452999 0.028055999 0.89879
0.069982998 0.02806 0.89893001
0.071538001 0.028074 0.89938003
0.073117003 0.028096 0.90008998
0.074694 0.028116999 0.90077001
0.076321997 0.028155999 0.90201002
0.077986002 0.028206 0.90360999
0.079673998 0.028263999 0.90544999
0.081376001 0.028323 0.90736002
0.083094001 0.028386001 0.90935999
0.084808998 0.028445 0.91127002
0.086547002 0.028510001 0.91336
0.088303998 0.028579 0.91557002
0.090099998 0.028658999 0.9181
0.091909997 0.028739 0.92067999
0.093739003 0.028822999 0.92337
0.095550001 0.028898001 0.92578
0.097306997 0.028956 0.92761999
0.098995999 0.028991001 0.92874998
0.10063 0.02901 0.92934
0.1022 0.029008999 0.92932999
0.10371 0.028992999 0.92881
0.10519 0.028968001 0.92799997
0.10663 0.028933 0.92689002
0.10807 0.028898001 0.92575997
0.10947 0.028853999 0.92435998
0.1109 0.028820001 0.92325997
0.11231 0.028782999 0.92207998
0.11375 0.028751999 0.92109001
0.11521 0.028727001 0.92027998
0.11666 0.028702 0.91949999
0.1181 0.028673001 0.91855001
0.11955 0.028648 0.91777003
0.12097 0.028618 0.91679001
0.12234 0.028576 0.91544998
0.12374 0.028541001 0.91434002
0.12512 0.028503999 0.91316003
0.12650999 0.028468 0.91201001
0.12789001 0.028432 0.91086
0.12946001 0.026895 0.91106999
0.1293 0.028405 0.90996999
0.13131 0.02696 0.91327
0.13070001 0.028375 0.90899998
0.0016608 0.030765001 0.93482
0.0032409001 0.030763 0.93475997
0.0048210002 0.030762 0.93471998
0.0063986001 0.030749001 0.93434
0.0079739001 0.030733 0.93383998
0.0095511004 0.030727999 0.93370003
0.011129 0.030727001 0.93366998
0.012712 0.030739 0.93401003
0.014301 0.03076 0.93466997
0.015891001 0.030778 0.93519998
0.017472999 0.030781001 0.93528998
0.01905 0.030773001 0.93505001
0.020623 0.030762 0.93471003
0.022194 0.030749001 0.93432999
0.023770999 0.030746 0.93423998
0.025345 0.03074 0.93405002
0.026929 0.030745 0.93422002
0.028509 0.030746 0.93423998
0.030089 0.030747 0.93426001
0.031672001 0.030750001 0.93436003
0.033257999 0.030756 0.93454999
0.034830999 0.030750001 0.93436003
0.036400001 0.030741001 0.93406999
0.037966002 0.03073 0.93374997
0.039514001 0.030707 0.93304998
0.041051999 0.030677 0.93212998
0.042585 0.030646 0.93120998
0.044107001 0.030610001 0.93010002
0.045616001 0.030567 0.92881
0.047123998 0.030526999 0.92760003
0.048629999 0.030487999 0.92640001
0.050120998 0.030443 0.92502999
0.051608 0.030397 0.92365003
0.053089 0.030351 0.92224997
0.054543 0.030293001 0.92048001
0.055945002 0.03021 0.91794997
0.057231002 0.030069999 0.91371
0.058502998 0.029931 0.90947002
0.059732001 0.029777 0.90478998
0.060989998 0.029645 0.90078002
0.062311999 0.029549999 0.89788997
0.063777998 0.029526001 0.89715999
0.065251999 0.029506 0.89657003
0.066789001 0.029516 0.89684999
0.068333998 0.029527999 0.89723998
0.069874004 0.029538 0.89753002
0.071419999 0.029549999 0.89788997
0.072988003 0.02957 0.89850003
0.074552998 0.029588001 0.89907002
0.076162003 0.029623 0.90012002
0.077822 0.029676 0.90171999
0.079522997 0.029742001 0.90372998
0.081234001 0.029809 0.90575999
0.082948998 0.029874999 0.90777999
0.084668003 0.02994 0.90976
0.086384997 0.030002 0.91165
0.088094003 0.030060001 0.91338998
0.089836001 0.030126 0.91540998
0.091605 0.030199001 0.91763002
0.093385004 0.030273 0.91987997
0.095164999 0.030345 0.92205
0.096914001 0.030405 0.92387003
0.098615997 0.030448001 0.92518997
0.10026 0.030471001 0.92589003
0.10184 0.030478001 0.92607999
0.10338 0.030468 0.92578
0.10486 0.030445 0.92509001
0.10631 0.030412 0.92409003
0.10776 0.030381 0.92315
0.10918 0.030342 0.92197001
0.11062 0.030309999 0.92098999
0.11206 0.030277999 0.92000002
0.11351 0.030247999 0.91911
0.11496 0.030221 0.91829997
0.11641 0.030196 0.91751999
0.11784 0.030165 0.91657001
0.11929 0.030138001 0.91578001
0.12071 0.030106001 0.91479999
0.12209 0.030065 0.91355002
0.1235 0.030032 0.91255999
0.12491 0.029999999 0.91158003
0.12632 0.029968999 0.91064
0.12772 0.029939 0.90969998
0.12916 0.029916 0.90900999
0.13057999 0.029887 0.90815002
0.13259 0.028449999 0.91141999
0.13199 0.029859999 0.90731001
0.13449 0.028526001 0.91386002
0.13343 0.029837999 0.90666002
0.0016603 0.032338999 0.93450999
0.0032397001 0.032334998 0.93440002
0.0048190001 0.032333001 0.93432999
0.0063959002 0.03232 0.93395001
0.0079706004 0.032302 0.93344998
0.0095479004 0.032299999 0.93339002
0.011127 0.032303002 0.93346
0.012711 0.032318 0.9339
0.0143 0.032341 0.93456
0.01589 0.032361999 0.93518001
0.017471001 0.032361999 0.93518001
0.019047 0.032354001 0.93493003
0.020617999 0.032338999 0.93450999
0.022183999 0.032319002 0.93392998
0.023755999 0.032308999 0.93365002
0.025326001 0.032299001 0.93335003
0.026903 0.032297999 0.93331999
0.028478 0.032294001 0.93321002
0.030056 0.032295 0.93322998
0.031637002 0.032297999 0.93333
0.033220999 0.032304 0.93349999
0.034793001 0.032297999 0.93333
0.036355998 0.032285001 0.93295002
0.037916001 0.032269999 0.93251997
0.039457999 0.032242998 0.93172002
0.040989999 0.032207999 0.93072999
0.042513002 0.032170001 0.92962998
0.044032 0.032132 0.92852002
0.045538001 0.032086998 0.92723
0.047045 0.032044999 0.92602998
0.048547 0.032003999 0.92483002
0.050035998 0.031957 0.92346001
0.051520001 0.031909 0.92207003
0.053004 0.031863 0.92076999
0.054423001 0.031784002 0.91846001
0.055787999 0.031676002 0.91535997
0.057032 0.031509001 0.91052002
0.058253001 0.031337999 0.90557998
0.059450999 0.031164 0.90053999
0.060743999 0.031045999 0.89714998
0.062098999 0.030965 0.89481002
0.063600004 0.030959999 0.89466
0.065109998 0.030958001 0.89460999
0.066662997 0.030977 0.89516002
0.068207003 0.030990999 0.89556003
0.069752 0.031005001 0.89595997
0.071301997 0.031021001 0.89640999
0.072866 0.031041 0.89700001
0.074428 0.031060001 0.89756
0.076025002 0.031093 0.89850003
0.077688999 0.031151 0.90017003
0.079386003 0.03122 0.90215999
0.081101999 0.031293999 0.90429997
0.082815997 0.031364001 0.90632999
0.084541 0.031435002 0.9084
0.086246997 0.031497002 0.91018999
0.087944001 0.031553999 0.91184002
0.089657001 0.031615 0.91358
0.091390997 0.031681001 0.91548002
0.093125001 0.031744 0.91732001
0.094857 0.031805001 0.91908002
0.096568003 0.031856999 0.92057002
0.09826 0.031900998 0.92184001
0.099901997 0.031927001 0.92262
0.10149 0.031938002 0.92291999
0.10305 0.031934999 0.92282999
0.10455 0.031918 0.92234999
0.10602 0.031891 0.92155999
0.10749 0.031865999 0.92084002
0.10895 0.031835001 0.91996002
0.1104 0.031806 0.91909999
0.11186 0.031778999 0.91832
0.11331 0.031750999 0.91751999
0.11475 0.031721 0.91665
0.11619 0.031691 0.91578001
0.11762 0.031658001 0.91482002
0.11905 0.031626999 0.91394001
0.12046 0.031592999 0.91295999
0.12185 0.031553999 0.91180998
0.12329 0.031525999 0.91101003
0.12472 0.031500001 0.91026002
0.12616 0.031474002 0.90951997
0.12759 0.031449001 0.90877998
0.12904 0.031428002 0.90818
0.13046999 0.031401999 0.90741998
0.1319 0.031374998 0.90666002
0.13336 0.031358998 0.90618002
0.13534001 0.029921999 0.90921003
0.1348 0.031339001 0.90561002
0.13729 0.030012 0.91192001
0.13626 0.031323001 0.90513998
0.0016609 0.033936001 0.93485999
0.0032405001 0.033927999 0.93465
0.0048199999 0.033923 0.93452001
0.0063959002 0.033902999 0.93395001
0.0079712998 0.033888001 0.93353999
0.0095498003 0.033888999 0.93357003
0.01113 0.033895999 0.93375999
0.012715 0.033911999 0.93419999
0.014304 0.033934999 0.93484998
0.015895 0.033957001 0.93545002
0.017475 0.033953998 0.93536001
0.019049 0.033941999 0.93502998
0.02062 0.033927001 0.9346
0.022183999 0.033902001 0.93392003
0.02375 0.033884 0.93343002
0.025317 0.033868998 0.93300998
0.026888 0.033861 0.93278003
0.028456001 0.033849999 0.93248999
0.030029001 0.033847 0.93239999
0.031606 0.033847 0.93239999
0.033185001 0.033849999 0.93248999
0.034754999 0.033844002 0.93232
0.036316 0.033829998 0.93193001
0.037873998 0.033814002 0.93150997
0.039414998 0.033785 0.9307
0.040943999 0.033748999 0.92970002
0.042466 0.033709001 0.92861003
0.043983001 0.033668999 0.92750001
0.045488 0.033622 0.92620999
0.046992999 0.033578001 0.92501003
0.048489999 0.033532001 0.92374003
0.049966998 0.033475999 0.92218
0.051433999 0.033415999 0.92053002
0.052905001 0.033362001 0.91904998
0.054283999 0.033255 0.91610998
0.055606999 0.033121001 0.91240001
0.056841999 0.032942001 0.90749002
0.058053002 0.032760002 0.90248001
0.059262 0.032586001 0.89767998
0.060591999 0.032485001 0.89490002
0.061983999 0.032421999 0.89315999
0.063488998 0.032419998 0.89309001
0.065007001 0.032423001 0.89319998
0.066550002 0.032439999 0.89363998
0.068089999 0.032453999 0.89402997
0.069633998 0.032469001 0.89444
0.071183003 0.032485999 0.89490998
0.072738998 0.032504998 0.89543998
0.074304998 0.032528002 0.89607
0.075883999 0.032554999 0.89683002
0.077542998 0.032614999 0.89848
0.079236001 0.032687001 0.90046
0.080957003 0.032768 0.90267998
0.082676001 0.032844 0.90478998
0.084422 0.032929 0.90711999
0.086126 0.032993998 0.90891999
0.087821998 0.033054002 0.91057003
0.089532003 0.033117 0.91229999
0.091237999 0.033177 0.91395003
0.092940003 0.033233002 0.91548997
0.094646998 0.033289 0.91702998
0.096320003 0.033332001 0.91821003
0.097976997 0.033367001 0.91918999
0.099613003 0.033394001 0.91993999
0.1012 0.033404998 0.92023998
0.10275 0.033402 0.92016
0.10427 0.033392001 0.91987002
0.10577 0.033374 0.91937
0.10726 0.033355001 0.91886002
0.10874 0.033330999 0.91820002
0.11021 0.033307001 0.91754001
0.11168 0.033282999 0.91687
0.11313 0.033254001 0.91609001
0.11457 0.033222999 0.91521001
0.11601 0.033190999 0.91434997
0.11743 0.033156998 0.91339999
0.11885 0.033121001 0.91241997
0.12026 0.033085998 0.91144001
0.12166 0.033048 0.91039002
0.12311 0.033023 0.90970999
0.12457 0.033002999 0.90915
0.12604 0.032986 0.90868002
0.1275 0.032965001 0.90812999
0.12897 0.032947 0.90762001
0.1304 0.032922 0.90693998
0.13180999 0.032892 0.90609998
0.13327 0.032873999 0.90560001
0.13472 0.032853 0.90503001
0.13618 0.032836001 0.90456998
0.13902999 0.031603001 0.91325003
0.13846999 0.033016998 0.90956002
0.0016637 0.035581999 0.93646997
0.0032432 0.035542 0.93542999
0.0048229001 0.035528999 0.93509001
0.0063991998 0.035503998 0.93443
0.0079763001 0.035493001 0.93413001
0.0095570004 0.035498001 0.93427002
0.01114 0.035509001 0.93456
0.012726 0.035526998 0.93502003
0.014315 0.035548002 0.93557
0.015905 0.035565998 0.93607002
0.017484 0.035558999 0.93586999
0.019056 0.03554 0.93536001
0.020625001 0.035519 0.93483001
0.022189001 0.035493001 0.93412
0.023752 0.035468999 0.93351001
0.025317 0.03545 0.93299001
0.026887 0.035441 0.93274999
0.028455 0.035429001 0.93246001
0.030028 0.035425998 0.93237001
0.031605002 0.035425998 0.93237001
0.033183999 0.035429001 0.93246001
0.03475 0.035418998 0.93219
0.036307 0.035401002 0.93169999
0.037865002 0.035383999 0.93127
0.039400999 0.035349999 0.93036002
0.040925998 0.035309002 0.92927998
0.042445999 0.035266999 0.92817003
0.043963 0.035224002 0.92706001
0.045453999 0.035165001 0.92550999
0.046953 0.035115998 0.92422003
0.048432998 0.035057001 0.92265999
0.049894001 0.034988001 0.92084002
0.051332999 0.034906998 0.91872001
0.052767999 0.03483 0.91667002
0.054106999 0.034694001 0.91311997
0.055392999 0.034534 0.90890002
0.056628 0.034350999 0.90407002
0.057861 0.034177002 0.89949
0.059114002 0.034022 0.89543003
0.060478002 0.033938002 0.89322001
0.061903998 0.033893 0.89200997
0.0634 0.033886001 0.89183998
0.064912997 0.033888999 0.89191002
0.066445999 0.033900999 0.89223999
0.067988999 0.033918999 0.89270002
0.069536 0.033938002 0.89319998
0.071092002 0.033959001 0.89376003
0.072646998 0.033980001 0.89431
0.074219003 0.034007002 0.89503002
0.075782001 0.034030002 0.89561999
0.077422999 0.034086 0.89709002
0.079103999 0.034157 0.89895999
0.080829002 0.034244001 0.90125
0.082547002 0.034324002 0.90337998
0.084307 0.034419999 0.90587997
0.086026996 0.034495 0.90786999
0.087729 0.034561001 0.90960997
0.089428999 0.034623999 0.91126001
0.091132 0.034685999 0.91289002
0.092814997 0.034738 0.91426003
0.094499998 0.034789 0.91562003
0.096151002 0.034827001 0.91659999
0.097782999 0.034855999 0.91737002
0.099394999 0.034878001 0.91793001
0.10098 0.034889001 0.91823
0.10253 0.034889001 0.91824001
0.10407 0.034885 0.91812003
0.1056 0.034876 0.91790998
0.10712 0.034864999 0.91759998
0.10861 0.034846999 0.91714001
0.1101 0.034825999 0.91658002
0.11156 0.0348 0.91589999
0.11301 0.034770001 0.91510999
0.11444 0.034734 0.91416001
0.11588 0.034701001 0.91329002
0.1173 0.034664001 0.91232002
0.11871 0.034628 0.91136003
0.12012 0.034589998 0.91038001
0.12155 0.034557 0.90951002
0.123 0.034534998 0.90891999
0.12448 0.034517001 0.90846002
0.12594999 0.034501001 0.90802002
0.12741999 0.034483001 0.90754002
0.12887 0.034460001 0.90696001
0.13029 0.034430999 0.90618998
0.13169999 0.034398999 0.90534002
0.13316 0.03438 0.90485001
0.13461 0.034359001 0.90429002
0.13607 0.034341 0.90381998
0.13790999 0.034419 0.90587997
0.0016678 0.037259001 0.93874002
0.0032488001 0.037191 0.93703002
0.0048285001 0.037158001 0.93618
0.0064066998 0.037131 0.93551999
0.0079857996 0.03712 0.93523997
0.0095686 0.037126999 0.93540001
0.011154 0.037138999 0.93571001
0.01274 0.037154 0.93607998
0.014328 0.037168 0.93642998
0.015919 0.037186 0.93690002
0.017498 0.037174001 0.93660003
0.019068999 0.037149999 0.93598998
0.020637 0.037124999 0.93535
0.022198999 0.037092 0.93453002
0.023758 0.03706 0.93373001
0.025322 0.037039999 0.93321002
0.026891001 0.037027001 0.93289
0.028458999 0.037016001 0.93260998
0.030036001 0.037016001 0.93260998
0.031613 0.037016001 0.93260998
0.033188999 0.037016001 0.93260998
0.034759 0.037007999 0.93241
0.036318999 0.036991999 0.93200999
0.037873 0.036970999 0.93147999
0.039409999 0.036935002 0.93058002
0.040931001 0.036889002 0.92940003
0.042447001 0.036839999 0.92817998
0.043954 0.036789 0.92689002
0.045435 0.036719002 0.92513001
0.046923999 0.036660001 0.92365003
0.048392002 0.036589999 0.92186999
0.049830001 0.036502 0.91965997
0.051233999 0.036394998 0.91696
0.052625999 0.036286 0.91421002
0.053918 0.036116 0.90992999
0.055167001 0.035927001 0.90517002
0.056414999 0.035748001 0.90066999
0.057686001 0.035592999 0.89675999
0.058989 0.035464998 0.89354002
0.060401998 0.035408001 0.89209002
0.061872002 0.035386 0.89153999
0.063359998 0.035374999 0.89128
0.064865999 0.035374999 0.89126003
0.066384003 0.035381 0.89142001
0.067918003 0.035395 0.89177001
0.069463 0.035413999 0.89225
0.071018003 0.035436999 0.89284003
0.072572 0.035459001 0.89339
0.074148998 0.035491001 0.89419001
0.075715996 0.035517 0.89485002
0.077348001 0.035572 0.89622998
0.079020999 0.035643 0.89802003
0.080734998 0.035730001 0.90020001
0.082459003 0.035817001 0.90240997
0.08422 0.035918001 0.90495002
0.085941002 0.035998002 0.90696001
0.087650001 0.03607 0.90878999
0.089354001 0.036138002 0.91048998
0.091054998 0.036201999 0.91210997
0.092726998 0.036253002 0.91339999
0.094411001 0.036307 0.91474998
0.096069001 0.036350001 0.91582
0.097709 0.036382999 0.91667002
0.099311002 0.036403 0.91715997
0.10089 0.036414001 0.91744
0.10244 0.036414001 0.91744
0.10398 0.03641 0.91733998
0.10551 0.036401998 0.91714001
0.10703 0.036391001 0.91687
0.10854 0.036375999 0.91649002
0.11003 0.036357 0.91601002
0.11148 0.036325999 0.91522998
0.11293 0.036293998 0.91443002
0.11435 0.036256 0.91345
0.11577 0.036217 0.91249001
0.11719 0.036178999 0.91153002
0.11862 0.036144 0.91065001
0.12003 0.036106002 0.90969002
0.12147 0.036075 0.90890998
0.12294 0.036056001 0.90841001
0.12441 0.036037002 0.90794998
0.12588 0.03602 0.90750998
0.12735 0.036001001 0.90704
0.12879001 0.035975002 0.90636998
0.1302 0.035939999 0.90549999
0.13160001 0.035905998 0.90464997
0.13305999 0.035886999 0.90416002
0.13449 0.035861999 0.90351999
0.13595 0.035843998 0.90306997
0.13741 0.035824001 0.90258002
8.1354003e-05 0.039127 0.94541001
0.0016713 0.038934 0.94075
0.0032543 0.038844999 0.93861002
0.0048354999 0.038801 0.93753999
0.0064158998 0.038773 0.93686998
0.0079972995 0.038761001 0.93658
0.0095814997 0.038764998 0.93667001
0.011169 0.038778 0.93697
0.012757 0.038791999 0.93731999
0.014346 0.038802002 0.93756002
0.015935 0.038812999 0.93782997
0.017512999 0.038796 0.93741
0.019084999 0.038770001 0.93678999
0.020649999 0.038736001 0.93597001
0.022213001 0.038702 0.93514001
0.023774 0.038669001 0.93434
0.025339 0.038647 0.93383002
0.026907001 0.038631 0.93344003
0.028479001 0.038623001 0.93325001
0.030057 0.038623001 0.93325001
0.031633999 0.038624 0.93325001
0.033211999 0.038624 0.93325001
0.034782998 0.038615 0.93305999
0.036348 0.038601998 0.93273997
0.037900001 0.038577002 0.93213999
0.039438002 0.038539998 0.93124002
0.040959001 0.038490999 0.93004
0.042470999 0.038435999 0.92872
0.043974001 0.038376998 0.92729998
0.045449998 0.0383 0.92544001
0.046932001 0.038233001 0.92382002
0.048390001 0.038151 0.92183
0.049810998 0.038045999 0.91930002
0.051167 0.037898999 0.91575003
0.052506 0.037749 0.91211998
0.053732999 0.037528999 0.90680999
0.054972999 0.037330002 0.90199
0.056235 0.037156999 0.89780998
0.057553999 0.037029002 0.89472002
0.058908001 0.036929 0.89231002
0.060369998 0.036901001 0.89162999
0.061834 0.036874998 0.89099997
0.063321002 0.036862999 0.89072001
0.064814001 0.036857001 0.89055997
0.066320002 0.036855999 0.89055002
0.067846 0.036867999 0.89082003
0.069388002 0.036887001 0.89129001
0.070941001 0.036911 0.89187002
0.072494 0.036934 0.89243001
0.074083 0.036974002 0.89339
0.075668998 0.037011001 0.89428997
0.077307999 0.037071999 0.89576
0.078979 0.037145998 0.89754999
0.080691002 0.037234999 0.89971
0.082420997 0.037330002 0.90200001
0.084183 0.037436001 0.90455002
0.085905001 0.037519999 0.90657997
0.087605998 0.037592001 0.90833002
0.089307003 0.037661999 0.91000998
0.090977997 0.037717 0.91135001
0.092629001 0.037762001 0.91242999
0.094302997 0.037813999 0.91369998
0.095959999 0.037859 0.91478002
0.097599998 0.037895001 0.91565001
0.099210002 0.037919 0.91623002
0.10079 0.037930999 0.91650999
0.10234 0.037930999 0.91650999
0.10389 0.037930001 0.91649997
0.10544 0.037930001 0.91649002
0.10697 0.037923001 0.91632003
0.10848 0.037911002 0.91602999
0.10998 0.037893999 0.91562998
0.11144 0.037865002 0.91491997
0.11288 0.037827998 0.91404003
0.1143 0.037788 0.91305
0.11572 0.037748002 0.91209
0.11714 0.037707001 0.91110998
0.11857 0.037671998 0.91025001
0.11999 0.037636001 0.90938997
0.12143 0.037604 0.90863001
0.1229 0.037583999 0.90812999
0.12437 0.037565 0.90766001
0.12582999 0.037542 0.90713
