# .PCD v0.7 - Point Cloud Data file format
VERSION 0.7
FIELDS x y z
SIZE 4 4 4
TYPE F F F
COUNT 1 1 1
WIDTH 1573
HEIGHT 1
VIEWPOINT 0 0 0 1 0 0 0
POINTS 1573
DATA ascii
0.057293002 -0.13998 0.84618002
0.058679 -0.13987 0.84552997
0.060066 -0.13977 0.84494001
0.061450999 -0.13967 0.84434998
0.062818997 -0.13954 0.84354001
0.064194001 -0.13943 0.84288001
0.065567002 -0.13932 0.84220999
0.066926003 -0.13918 0.84139001
0.068279997 -0.13905001 0.84056002
0.069638997 -0.13891999 0.8398
0.071002997 -0.13880999 0.83914
0.072373003 -0.13872001 0.83858001
0.073762 -0.13867 0.83825999
0.075158 -0.13863 0.83802003
0.076553002 -0.13858999 0.83778
0.077924997 -0.13851 0.83731002
0.079306997 -0.13845 0.83695
0.080673002 -0.13837001 0.83644998
0.082038999 -0.13829 0.83595997
0.083434001 -0.13826001 0.83578002
0.084847003 -0.13824999 0.83577001
0.086237997 -0.13822 0.83556998
0.087641999 -0.13821 0.83547997
0.089043997 -0.13819 0.83538002
0.090429999 -0.13815001 0.83513999
0.091843002 -0.13815001 0.83515
0.093273997 -0.13818 0.83532
0.094705999 -0.13821 0.8355
0.096138 -0.13823999 0.83566999
0.097577997 -0.13828 0.83590001
0.099000998 -0.13829 0.83598
0.10042 -0.1383 0.83607
0.10186 -0.13833 0.83622998
0.10329 -0.13835999 0.83638
0.10472 -0.13838001 0.83653998
0.1062 -0.13846 0.83700001
0.10767 -0.13854 0.83749002
0.10915 -0.13861001 0.83793002
0.11062 -0.13868 0.83835
0.11213 -0.1388 0.83903998
0.1136 -0.13886 0.83946002
0.11508 -0.13894001 0.83990002
0.11658 -0.13902999 0.84047002
0.11809 -0.13913999 0.84109998
0.11958 -0.13922 0.84158999
0.12112 -0.13935 0.84241998
0.12268 -0.13951001 0.84333003
0.12427 -0.13969 0.84442002
0.12587 -0.13988 0.84557003
0.12745 -0.14004 0.84658003
0.12898 -0.14015 0.84724998
0.13056 -0.14031 0.84820998
0.13214 -0.14046 0.84911001
0.13372999 -0.14063001 0.85013998
0.13539 -0.14086001 0.85150999
0.13713001 -0.14117 0.85341001
0.13905001 -0.14166 0.85635
0.14119001 -0.14236 0.86056
0.14334001 -0.14305 0.86474001
0.1454 -0.14364 0.86833
0.14741001 -0.14417 0.87155002
0.14997999 -0.14523 0.87796003
0.0090984004 -0.14563 0.88944
0.010579 -0.14531 0.88751
0.012053 -0.145 0.88559002
0.013505 -0.14451 0.88261998
0.014956 -0.14411999 0.88022
0.016408 -0.14379001 0.87825
0.017854 -0.14348 0.87634999
0.019293001 -0.14317 0.87445998
0.020728 -0.14286999 0.87260002
0.022159999 -0.14259 0.87093002
0.023592001 -0.14235 0.86943001
0.025023 -0.14213 0.86809999
0.026456 -0.14194 0.86694998
0.027886 -0.14176001 0.86584002
0.029317001 -0.14161 0.86488998
0.030748 -0.14146 0.86400002
0.032175999 -0.14132001 0.86312997
0.033581998 -0.1411 0.86176997
0.034993 -0.14091 0.86062998
0.036389001 -0.14068 0.85924
0.037788 -0.14048 0.85803002
0.039181001 -0.14027999 0.85676998
0.040585 -0.14012 0.85584003
0.041986998 -0.13997 0.85492003
0.043396998 -0.13986 0.85421997
0.044792999 -0.13970999 0.85330999
0.046197999 -0.13959999 0.85262001
0.047591999 -0.13946 0.85178
0.048988 -0.13933 0.85101002
0.050376002 -0.13919 0.85016
0.051766999 -0.13907 0.84939998
0.053151 -0.13892999 0.84856999
0.054547999 -0.13884 0.84797001
0.055943001 -0.13874 0.84740001
0.057337999 -0.13865 0.84683001
0.058729 -0.13856 0.84626001
0.060118001 -0.13846 0.84566998
0.061505001 -0.13835999 0.84508002
0.062879004 -0.13823999 0.84435999
0.064262003 -0.13815001 0.84377003
0.065637 -0.13804001 0.84311002
0.066997997 -0.13790999 0.84228998
0.068355002 -0.13777 0.84147
0.069714002 -0.13765 0.84069997
0.071071997 -0.13752 0.83995003
0.072440997 -0.13743 0.83937001
0.073825002 -0.13736001 0.83897001
0.075214997 -0.13731 0.83866
0.076610997 -0.13727 0.83841997
0.077985004 -0.1372 0.83794999
0.079369999 -0.13714001 0.83761001
0.080743998 -0.13707 0.83718997
0.082126997 -0.13702001 0.83684999
0.083525002 -0.13699 0.83669001
0.084940001 -0.13699 0.83669001
0.086340003 -0.13697 0.83655
0.087746002 -0.13695 0.83647001
0.089140996 -0.13692001 0.83629
0.090527996 -0.13688 0.83604997
0.091932997 -0.13687 0.83596998
0.093347996 -0.13687 0.83598
0.094770998 -0.13688999 0.83607
0.096194997 -0.13689999 0.83616
0.097625002 -0.13693 0.83631003
0.099056996 -0.13695 0.83645999
0.10048 -0.13696 0.83653998
0.10191 -0.13699 0.83669001
0.10335 -0.13700999 0.83683997
0.10478 -0.13704 0.83699
0.10624 -0.13709 0.83731002
0.10771 -0.13716 0.83772999
0.10918 -0.13722999 0.83815998
0.11065 -0.1373 0.83857
0.11215 -0.1374 0.83919001
0.11363 -0.13747001 0.83960998
0.11511 -0.13755 0.84012997
0.11662 -0.13765 0.84070998
0.11814 -0.13776 0.84143001
0.11964 -0.13786 0.84201998
0.12119 -0.138 0.84284002
0.12274 -0.13813999 0.84375
0.12434 -0.13833 0.84490001
0.12594999 -0.13854 0.84614998
0.12756 -0.13873 0.84733999
0.12914 -0.13889 0.84828001
0.13075 -0.13907 0.84939998
0.13235 -0.13924 0.85047001
0.13399 -0.13945 0.85175002
0.1357 -0.13973001 0.85346001
0.1375 -0.1401 0.85566998
0.13947999 -0.14064001 0.85900998
0.14158 -0.14128999 0.86293
0.14363 -0.14187001 0.86650997
0.14561 -0.14237 0.86953998
0.14754 -0.14282 0.87229002
0.0091003003 -0.14415 0.88963002
0.010582 -0.14385 0.88779002
0.012062 -0.1436 0.88626999
0.013514 -0.14311001 0.88321
0.014965 -0.14271 0.88075
0.016418001 -0.14239 0.87878001
0.017863 -0.14207 0.8768
0.019303 -0.14176001 0.87489998
0.020738 -0.14146 0.87304997
0.022174001 -0.14120001 0.87146002
0.023607999 -0.14097001 0.87004
0.025043 -0.14077 0.86879998
0.02648 -0.1406 0.86774999
0.027914001 -0.14044 0.86672002
0.029345 -0.14026999 0.86570001
0.030773001 -0.14011 0.86471999
0.032196 -0.13993999 0.86365998
0.033603001 -0.13971999 0.86229998
0.035014 -0.13954 0.86116999
0.036415 -0.13933 0.85987002
0.037815999 -0.13913 0.85865998
0.039216001 -0.13895001 0.85755002
0.040617999 -0.13879 0.85653001
0.042016 -0.13862 0.85551
0.043421999 -0.13849001 0.85473001
0.044817999 -0.13834 0.8538
0.046220001 -0.13822 0.85303003
0.047619998 -0.1381 0.85227001
0.049022 -0.13799 0.85158998
0.050416999 -0.13786 0.85083997
0.051809002 -0.13774 0.85009003
0.05319 -0.13759001 0.84917998
0.054586001 -0.1375 0.84856999
0.055977002 -0.13739 0.84790999
0.057365999 -0.13728 0.84726
0.058763999 -0.1372 0.84675997
0.060159001 -0.13711999 0.84625
0.061540999 -0.13700999 0.84557998
0.062922001 -0.13689999 0.84491998
0.064310998 -0.13682 0.84441
0.065687999 -0.13672 0.84376001
0.067056 -0.1366 0.84302998
0.068420999 -0.13648 0.84227997
0.069775 -0.13634001 0.84144002
0.071126997 -0.13620999 0.84061998
0.072497003 -0.13610999 0.84002
0.073881 -0.13604 0.83960998
0.075264998 -0.13598 0.83921999
0.076661997 -0.13594 0.83898002
0.078042999 -0.13587999 0.83858001
0.079429001 -0.13582 0.83824003
0.080807 -0.13575999 0.83784002
0.082200997 -0.13572 0.83759999
0.083608001 -0.1357 0.83752
0.085026003 -0.13571 0.83753997
0.086427003 -0.13569 0.83740002
0.087834001 -0.13567001 0.83731002
0.089227997 -0.13564 0.83710998
0.090616003 -0.1356 0.83686
0.092013001 -0.13557 0.83669001
0.093425997 -0.13557 0.83669001
0.094841003 -0.13557 0.83669001
0.096256003 -0.13557 0.83669001
0.097678997 -0.13558 0.83675998
0.099110998 -0.13561 0.83691001
0.10053 -0.13561 0.83692998
0.10196 -0.13564 0.83709002
0.1034 -0.13565999 0.83723998
0.10483 -0.13569 0.83740997
0.10628 -0.13573 0.83765
0.10774 -0.13578001 0.838
0.10921 -0.13585 0.83841002
0.11068 -0.13592 0.83881998
0.11217 -0.13601001 0.83937001
0.11365 -0.13607 0.83978999
0.11515 -0.13617 0.84037
0.11665 -0.13626 0.84095001
0.11818 -0.13639 0.84175998
0.11971 -0.13651 0.84252
0.12127 -0.13665999 0.84342003
0.12284 -0.13682 0.84441
0.12445 -0.13702001 0.84562999
0.12608001 -0.13723999 0.84697998
0.1277 -0.13744999 0.84827
0.12932 -0.13764 0.84947997
0.13096 -0.13785 0.85078001
0.13259 -0.13805 0.85202003
0.13428 -0.13831 0.85363001
0.13605 -0.13865 0.85569
0.13789999 -0.13906001 0.85821003
0.13995001 -0.13965 0.86186999
0.14202 -0.14025 0.86558998
0.14397 -0.14074001 0.86857003
0.14585 -0.14113 0.87102002
0.14847 -0.14223 0.87778997
0.0091073997 -0.14274999 0.89032
0.010592 -0.14248 0.88862997
0.012074 -0.14224 0.88713002
0.013528 -0.14176001 0.88415003
0.014981 -0.14137 0.88168001
0.016433001 -0.14104 0.87962002
0.017875001 -0.14068 0.87739003
0.019314 -0.14036 0.87540001
0.020748001 -0.14004999 0.87347001
0.022182999 -0.13978 0.87181002
0.023621 -0.13957 0.87049001
0.025061 -0.13940001 0.86940998
0.026502 -0.13924 0.86844999
0.027939999 -0.13909 0.86751997
0.029371001 -0.13892999 0.86649001
0.030797999 -0.13876 0.86541998
0.032218002 -0.13857 0.86426997
0.033626001 -0.13835999 0.86290997
0.035036001 -0.13816001 0.8617
0.036442 -0.13797 0.86049998
0.037843 -0.13778 0.85929
0.039244998 -0.1376 0.85816002
0.040642999 -0.13742 0.85706002
0.042041 -0.13725001 0.85602999
0.043441001 -0.1371 0.85509002
0.044837002 -0.13695 0.85413998
0.046239 -0.13683 0.85338002
0.047644999 -0.13672 0.85271001
0.049052998 -0.13663 0.85213
0.050459001 -0.13653 0.85154998
0.051856998 -0.13643 0.85087001
0.053234 -0.13627 0.84987998
0.054623999 -0.13615 0.84917003
0.05601 -0.13603 0.84841001
0.057395 -0.13591 0.84767997
0.058788002 -0.13582 0.84710997
0.060189001 -0.13575 0.84666997
0.061577 -0.13565999 0.84606999
0.062958002 -0.13555001 0.84542
0.064349003 -0.13547 0.84491003
0.065733001 -0.13538 0.84434003
0.067114003 -0.13529 0.84376001
0.068485998 -0.13518 0.84309
0.069849998 -0.13506 0.84235001
0.071203001 -0.13493 0.84151
0.072568998 -0.13482 0.84085
0.073940001 -0.13473 0.84028
0.075310998 -0.13463999 0.83973002
0.076700002 -0.13459 0.83938998
0.078080997 -0.13451999 0.83898002
0.079466999 -0.13447 0.83864999
0.080854997 -0.13440999 0.83832997
0.082257003 -0.13439 0.83816999
0.083667003 -0.13438 0.83811003
0.085092001 -0.13439 0.83819002
0.086502001 -0.13438 0.83811998
0.087908998 -0.13437 0.83802998
0.089307003 -0.13434 0.83784997
0.090703003 -0.13431001 0.83766001
0.092092 -0.13427 0.83740997
0.093497999 -0.13425 0.83732998
0.094896004 -0.13423 0.83717
0.096300997 -0.13422 0.83708
0.097714998 -0.13421001 0.83708
0.099149004 -0.13424 0.83723998
0.10057 -0.13424 0.83727002
0.10201 -0.13428 0.83752
0.10345 -0.13431001 0.83767003
0.10489 -0.13434 0.83784002
0.10632 -0.13436 0.83801001
0.10778 -0.13441999 0.83832997
0.10925 -0.13448 0.83873999
0.11073 -0.13456 0.83921999
0.11223 -0.13465001 0.8398
0.11372 -0.13473 0.84029001
0.11522 -0.13483 0.84092999
0.11674 -0.13494 0.84157997
0.11827 -0.13507 0.84240001
0.11982 -0.13519999 0.84324998
0.12138 -0.13535 0.84416997
0.12296 -0.13552 0.84524
0.12458 -0.13573 0.84653997
0.12624 -0.13597 0.84806001
0.12789001 -0.13620999 0.84952998
0.12955999 -0.13646001 0.85105002
0.13123 -0.13669001 0.85255003
0.13288 -0.13691001 0.85387999
0.13458 -0.13717 0.85551
0.13639 -0.13754 0.85781997
0.13829 -0.13799 0.86062002
0.14027999 -0.13852 0.86392999
0.14229 -0.13905001 0.86725003
0.1442 -0.13948999 0.86996001
0.14675 -0.14050999 0.87636
0.0091316001 -0.14162 0.89267999
0.010609 -0.14119001 0.89002001
0.012086 -0.14087 0.88801003
0.013543 -0.14041001 0.88511002
0.014997 -0.14002 0.88260001
0.016447 -0.13966 0.88034999
0.017887 -0.13929 0.87800002
0.019324999 -0.13896 0.87590998
0.020757999 -0.13863 0.87388998
0.022193 -0.13837001 0.87222999
0.023634 -0.13818 0.87098998
0.025076 -0.13801 0.86993998
0.026518 -0.13786 0.86899
0.027957 -0.13771001 0.86804998
0.029386001 -0.13753 0.86693001
0.030811001 -0.13734999 0.86578
0.032233998 -0.13718 0.86469001
0.033645999 -0.13697 0.86342001
0.035057001 -0.13677999 0.86221999
0.036471002 -0.13662 0.86118001
0.037873 -0.13642 0.85996002
0.039271999 -0.13623001 0.85876
0.040667001 -0.13605 0.85755998
0.042066 -0.13587999 0.85654002
0.043458 -0.13571 0.85543001
0.044854999 -0.13556001 0.85448998
0.046257999 -0.13544001 0.85372001
0.047667999 -0.13534001 0.85314
0.049082998 -0.13527 0.85264999
0.050494999 -0.13519 0.85216999
0.051899999 -0.13508999 0.85157001
0.05328 -0.13495 0.85062999
0.054667 -0.13482 0.84982997
0.056047 -0.13468 0.84898001
0.057438001 -0.13458 0.84832001
0.058827002 -0.13448 0.84767002
0.060224 -0.1344 0.84717
0.061613001 -0.13429999 0.84657001
0.063000999 -0.13421001 0.84597999
0.064387999 -0.13412 0.84542
0.065771997 -0.13403 0.84483999
0.067161001 -0.13395 0.84434003
0.068539999 -0.13386001 0.84376001
0.069913 -0.13375001 0.84310001
0.071276002 -0.13362999 0.84236997
0.072648004 -0.13354 0.84175998
0.074013002 -0.13343 0.84109998
0.075377002 -0.13333 0.84046
0.076752998 -0.13325 0.83996999
0.078133002 -0.13319001 0.83954
0.079512998 -0.13312 0.83912998
0.080900997 -0.13307001 0.83881003
0.082303002 -0.13304 0.83864999
0.083714001 -0.13303 0.83857
0.085130997 -0.13303 0.83858001
0.086542003 -0.13302 0.83850998
0.087950997 -0.13301 0.83842999
0.089350998 -0.13298 0.83825999
0.090750001 -0.13296001 0.83809
0.092139997 -0.13292 0.83784997
0.093547001 -0.1329 0.83776999
0.094935998 -0.13287 0.83752
0.096340999 -0.13285001 0.83743
0.097746 -0.13283999 0.83734
0.099179998 -0.13286 0.83749998
0.1006 -0.13287 0.83753997
0.10206 -0.13292 0.83787
0.10349 -0.13294999 0.83802998
0.10494 -0.13298 0.83825999
0.10638 -0.13301 0.83841997
0.10783 -0.13305999 0.83872998
0.10931 -0.13313 0.83920997
0.11081 -0.13322 0.83977997
0.11231 -0.13332 0.84038001
0.1138 -0.13339999 0.84087998
0.11532 -0.13350999 0.84158999
0.11683 -0.13361 0.84223998
0.11837 -0.13375001 0.84307998
0.11994 -0.13391 0.84407997
0.12152 -0.13407999 0.84516001
0.12312 -0.13426 0.84631997
0.12476 -0.1345 0.84779
0.12645 -0.13476001 0.84947002
0.12812001 -0.13501 0.85104001
0.12982 -0.13528 0.85272998
0.13151 -0.13553999 0.85439003
0.13316999 -0.13575999 0.85575002
0.13486999 -0.13602 0.85737997
0.13669001 -0.13638 0.85969001
0.13858999 -0.13683 0.86249
0.14054 -0.1373 0.86548001
0.14249 -0.13777 0.86844999
0.1451 -0.13887 0.87537998
0.0091594001 -0.14053001 0.89541
0.010633 -0.14 0.89203
0.012106 -0.13959 0.88942999
0.013565 -0.13913999 0.88654
0.015019 -0.13873 0.88392001
0.016469 -0.13835 0.88154
0.017906999 -0.13796 0.87898999
0.019340999 -0.13759001 0.87664002
0.020772999 -0.13725001 0.87449998
0.022205999 -0.13697 0.87273997
0.023646001 -0.13677 0.87142003
0.025087001 -0.13659 0.87029999
0.026531 -0.13644999 0.86943001
0.027970999 -0.1363 0.86848003
0.029398 -0.13610999 0.86726999
0.030822 -0.13593 0.86610001
0.032246001 -0.13575999 0.86501998
0.033659 -0.13556001 0.86374998
0.035071 -0.13538 0.86256999
0.036488 -0.13522001 0.86159998
0.037891001 -0.13503 0.86036998
0.039291002 -0.13484 0.85917997
0.040686999 -0.13466001 0.85798001
0.042087 -0.1345 0.85696
0.043478999 -0.13432001 0.85584998
0.044877 -0.13417 0.85491002
0.046278998 -0.13405 0.85412002
0.047690999 -0.13395999 0.85354
0.049111001 -0.1339 0.85314
0.050528999 -0.13383 0.85272998
0.051934998 -0.13373999 0.85215002
0.053321999 -0.13361 0.85128999
0.054710001 -0.13348 0.85048997
0.056086 -0.13333 0.84956002
0.057472002 -0.13322 0.84882998
0.058867 -0.13313 0.84824997
0.060260002 -0.13304 0.84767002
0.061650001 -0.13294999 0.84707999
0.063043997 -0.13287 0.84657001
0.064432003 -0.13278 0.84600002
0.065811999 -0.13267 0.84535003
0.067206003 -0.13260999 0.84491998
0.068595 -0.13253 0.84442002
0.069976002 -0.13244 0.84386998
0.071347997 -0.13234 0.84322
0.072727002 -0.13225999 0.84268999
0.074086003 -0.13214 0.84193999
0.075443 -0.13202 0.84119999
0.076805003 -0.13191999 0.84053999
0.07818 -0.13184001 0.84004998
0.079545997 -0.13175 0.83947998
0.080932997 -0.13169999 0.83914
0.082327001 -0.13166 0.83889002
0.083728999 -0.13164 0.83872998
0.085138999 -0.13162 0.83864999
0.086557001 -0.13162 0.83864999
0.087967001 -0.13161001 0.83858001
0.089377001 -0.13160001 0.83850002
0.090786003 -0.13158999 0.83841997
0.092185996 -0.13156 0.83827001
0.093594 -0.13155 0.83819002
0.094984002 -0.13151 0.83794999
0.096389003 -0.13150001 0.83784997
0.097793996 -0.13147999 0.83775002
0.099229001 -0.13151 0.83791
0.10065 -0.13151 0.83793998
0.10211 -0.13156 0.83825999
0.10354 -0.13158999 0.83841997
0.10498 -0.13161001 0.83858001
0.10641 -0.13162 0.83866
0.10786 -0.13167 0.83897001
0.10936 -0.13176 0.83952999
0.11088 -0.13188 0.84029001
0.1124 -0.132 0.84105003
0.11391 -0.1321 0.84171999
0.11544 -0.13223 0.84249997
0.11695 -0.13233 0.84315002
0.11849 -0.13245 0.84391999
0.12006 -0.13260999 0.84492999
0.12165 -0.13279 0.84609997
0.12325 -0.13298 0.84726
0.12492 -0.13322 0.84882998
0.12661999 -0.13349999 0.85061002
0.1283 -0.13376001 0.85227001
0.13001999 -0.13404 0.85404998
0.13174 -0.13433 0.85587001
0.13339999 -0.13454001 0.85724002
0.13510001 -0.13479 0.85885
0.13693 -0.13516 0.86122
0.13877 -0.13553999 0.86357999
0.14066 -0.13596 0.86624998
0.14258 -0.13639 0.86904001
0.0077057001 -0.1401 0.90243
0.0091859 -0.13941 0.898
0.010658 -0.13882001 0.89415002
0.012126 -0.13832 0.89091998
0.013586 -0.13785 0.88793999
0.015041 -0.13743 0.88523
0.016492 -0.13705 0.88274997
0.017928001 -0.13662 0.88002002
0.01936 -0.13623001 0.87748998
0.02079 -0.13587999 0.87524003
0.022224 -0.1356 0.87344003
0.023662001 -0.13538 0.87203002
0.025099 -0.13518 0.87074
0.026542 -0.13503 0.86978
0.027979 -0.13486999 0.86873001
0.029401001 -0.13466001 0.86734998
0.030822 -0.13446 0.86610001
0.032249 -0.13431001 0.86510003
0.033666 -0.13412 0.86391997
0.035082001 -0.13395999 0.86282998
0.036506001 -0.13383 0.86202002
0.037912998 -0.13365 0.86088002
0.039317001 -0.13348 0.85974997
0.040718 -0.13331001 0.85864002
0.042123001 -0.13316 0.85768998
0.043513 -0.13297001 0.85650998
0.044911001 -0.13282999 0.85556
0.04631 -0.13269 0.85469002
0.047718 -0.13259 0.85402
0.049134001 -0.13251001 0.85352999
0.050553001 -0.13245 0.85312998
0.051964998 -0.13237 0.85263002
0.053353999 -0.13224 0.85180002
0.054742999 -0.13212 0.85101002
0.056120999 -0.13198 0.85009003
0.057507001 -0.13186 0.84934002
0.058897 -0.13176 0.84868002
0.060291 -0.13167 0.84810001
0.061682001 -0.13158 0.84750998
0.063077003 -0.13150001 0.847
0.064464003 -0.13141 0.84643
0.065844998 -0.13131 0.84578001
0.06724 -0.13124 0.84534001
0.068634003 -0.13117 0.84491003
0.070023999 -0.1311 0.84443998
0.071399003 -0.131 0.84381998
0.072779998 -0.13091999 0.84329998
0.074144997 -0.13082001 0.84261
0.075496003 -0.13068999 0.84179002
0.076851003 -0.13056999 0.84105003
0.078226 -0.1305 0.84053999
0.079585999 -0.13039 0.83989
0.080958001 -0.13032 0.83939999
0.082350001 -0.13028 0.83912998
0.083745003 -0.13023999 0.83889002
0.085147001 -0.13021 0.83872998
0.086565003 -0.13021 0.83872998
0.087982997 -0.13021 0.83872998
0.089392997 -0.1302 0.83864999
0.090810001 -0.1302 0.83864999
0.092220001 -0.13019 0.83858001
0.093636997 -0.13019 0.83858001
0.095028996 -0.13015001 0.83833998
0.096435003 -0.13014001 0.83824998
0.097841002 -0.13011999 0.83815002
0.099266998 -0.13014001 0.83823001
0.10069 -0.13014001 0.83824003
0.10213 -0.13018 0.83849001
0.10356 -0.13019 0.83857
0.10499 -0.1302 0.83864999
0.10642 -0.13021 0.83872998
0.10788 -0.13026001 0.83904999
0.10938 -0.13037001 0.83971
0.11092 -0.13051 0.84062999
0.11247 -0.13066 0.84157002
0.114 -0.13078 0.84240001
0.11554 -0.13091999 0.84327
0.11707 -0.13102999 0.84399003
0.11861 -0.13115001 0.84476
0.12019 -0.13132 0.84584999
0.12181 -0.13152 0.84717
0.12344 -0.13173001 0.84851003
0.12512 -0.13199 0.85017997
0.12683 -0.13228001 0.85202998
0.12852 -0.13254 0.85369003
0.13022 -0.1328 0.85540003
0.13194001 -0.13308001 0.85715997
0.13359 -0.13327999 0.85846001
0.13527 -0.13349999 0.85991001
0.13706 -0.13383 0.86201
0.13886 -0.13416 0.86418003
0.14072999 -0.13455001 0.86666
0.14263 -0.13496 0.86930001
0.0031659 -0.14176001 0.9131
0.001625 -0.14045 0.91465002
0.0031681 -0.14031 0.91374999
0.0047013001 -0.14150999 0.91152
0.0047053001 -0.14009 0.91228002
0.0062116999 -0.14082 0.90705001
0.0062227999 -0.13953 0.90867001
0.0077235 -0.13889 0.90451998
0.0092077004 -0.13822 0.90012997
0.01068 -0.13759001 0.89602
0.012145 -0.13703001 0.89235997
0.013606 -0.13654 0.88920999
0.015061 -0.13610999 0.88641
0.016511999 -0.13572 0.88383001
0.017949 -0.13529 0.88102001
0.019378999 -0.13486999 0.87832999
0.020808 -0.13451 0.87598997
0.022241 -0.13422 0.87409002
0.023678999 -0.134 0.87265003
0.025114 -0.13379 0.87125999
0.026555 -0.13362999 0.87020999
0.027989 -0.13345 0.86905998
0.029410999 -0.13324 0.86767
0.030827999 -0.13302 0.86625999
0.032255001 -0.13287 0.86526
0.033675 -0.1327 0.86417001
0.035096001 -0.13255 0.86317003
0.036520999 -0.13242 0.86237001
0.037937 -0.13226999 0.86141002
0.039342001 -0.1321 0.86027998
0.040748 -0.13195001 0.85926002
0.042153001 -0.1318 0.85830998
0.043549001 -0.13163 0.85720998
0.044943001 -0.13146999 0.85618001
0.046344001 -0.13134 0.85531002
0.047745999 -0.13122 0.85452998
0.049162 -0.13113999 0.85403001
0.050577 -0.13107 0.85355002
0.051995002 -0.131 0.85312998
0.053394999 -0.1309 0.85246003
0.054792002 -0.13079 0.85176998
0.056180999 -0.13067999 0.85101002
0.057574 -0.13056999 0.85031998
0.058959998 -0.13045999 0.84957999
0.060343001 -0.13034 0.84884
0.061728999 -0.13023999 0.84816003
0.063112997 -0.13014001 0.84749001
0.064496003 -0.13004 0.84684002
0.065876998 -0.12994 0.84618998
0.067272 -0.12987 0.84574002
0.068667002 -0.12980001 0.84530997
0.070063002 -0.12974 0.84491003
0.071438998 -0.12965 0.84429997
0.072823003 -0.12957001 0.84378999
0.074189 -0.12946001 0.84310001
0.075539999 -0.12933999 0.84227997
0.076889001 -0.12921 0.84145999
0.078263998 -0.12913001 0.84095001
0.079617001 -0.12902001 0.84021997
0.080981001 -0.12893 0.83964002
0.082365997 -0.12887999 0.83929002
0.083752997 -0.12883 0.83897001
0.085148998 -0.12879001 0.83875
0.086566001 -0.12879001 0.83873999
0.087982997 -0.12879001 0.83872998
0.089392997 -0.12878001 0.83864999
0.090810001 -0.12878001 0.83864999
0.092228003 -0.12878001 0.83864999
0.093645997 -0.12878001 0.83864999
0.095046997 -0.12876 0.83850002
0.096463002 -0.12876 0.83849001
0.09787 -0.12874 0.83841002
0.099288002 -0.12874 0.83840001
0.10071 -0.12874 0.83841002
0.10214 -0.12876999 0.83857
0.10356 -0.12876999 0.83858001
0.10499 -0.12878001 0.83864999
0.10642 -0.12879001 0.83872998
0.10788 -0.12885 0.83911997
0.10941 -0.12898 0.83993
0.11097 -0.12915 0.84103
0.11254 -0.12932 0.84214997
0.1141 -0.12947001 0.84315002
0.11566 -0.12962 0.8441
0.11719 -0.12973 0.84482002
0.11872 -0.12984 0.84557998
0.12031 -0.13000999 0.84666997
0.12194 -0.13022999 0.84807998
0.12359 -0.13045999 0.84959
0.12529001 -0.13073 0.85136002
0.12701 -0.13101999 0.85321999
0.12871 -0.13128 0.85494
0.13041 -0.13154 0.85663998
0.13211 -0.13179 0.85825002
0.13375001 -0.13198 0.85947001
0.1354 -0.13218001 0.86075997
0.13714001 -0.13245 0.86251998
0.1389 -0.13274001 0.86443001
0.14075001 -0.1331 0.86681002
0.14262 -0.13349 0.86928999
7.8808996e-05 -0.14064001 0.91592002
0.0016255 -0.13894001 0.91495001
0.0031691999 -0.13880999 0.91408002
0.0047069001 -0.13858999 0.91259998
0.0062291999 -0.13812999 0.90960002
0.0077346 -0.13756 0.90582001
0.0092212996 -0.13689999 0.90145999
0.010694 -0.13624001 0.89712
0.012156 -0.13563 0.89310998
0.013616 -0.13513 0.88985002
0.015072 -0.13471 0.88704002
0.016525 -0.13433 0.88454002
0.017966 -0.13392 0.88187999
0.019396 -0.13349999 0.87911999
0.020826999 -0.13315 0.87678999
0.022260999 -0.13286 0.87489003
0.023698 -0.13263001 0.87335998
0.02513 -0.13239001 0.87181002
0.026571 -0.13223 0.87074
0.028004 -0.13203999 0.86949998
0.029425999 -0.13183001 0.86809999
0.03084 -0.13160001 0.86660999
0.032265 -0.13144 0.86552
0.033684999 -0.13127001 0.86442
0.035106 -0.13112 0.86343002
0.036533002 -0.131 0.86265999
0.037955999 -0.13088 0.86185998
0.03937 -0.13074 0.86091
0.040780999 -0.13060001 0.85996997
0.042192999 -0.13046999 0.85911
0.043593001 -0.13031 0.8581
0.044985 -0.13014001 0.85698003
0.046381999 -0.13 0.85601002
0.047781002 -0.12986 0.85516
0.049192999 -0.12977999 0.85456997
0.050608002 -0.12970001 0.85407001
0.052030999 -0.12965 0.85372001
0.053442001 -0.12957001 0.85321999
0.054846998 -0.12948 0.85262001
0.056242999 -0.12938 0.85193998
0.057636999 -0.12927 0.85126001
0.059018999 -0.12915 0.85043001
0.060391001 -0.12901001 0.84952003
0.061765 -0.12887999 0.84865999
0.063143 -0.12876 0.84789002
0.064520001 -0.12864999 0.84715998
0.065895997 -0.12853999 0.84643
0.067286998 -0.12846 0.84592998
0.068680003 -0.1284 0.84548002
0.070076004 -0.12833001 0.84507
0.071451999 -0.12824 0.84445
0.072843 -0.12817 0.84402001
0.074216999 -0.12808 0.84342003
0.075575002 -0.12797 0.84267002
0.076926 -0.12785 0.84186
0.078300998 -0.12777001 0.84135002
0.079648003 -0.12764999 0.84055001
0.081005 -0.12755001 0.83987999
0.082382001 -0.12748 0.83945
0.083760999 -0.12741999 0.83904999
0.085150003 -0.12737 0.83876002
0.086567 -0.12737 0.83875
0.087982997 -0.12737 0.83872998
0.089392997 -0.12736 0.83864999
0.090810001 -0.12736 0.83864999
0.092228003 -0.12736 0.83864999
0.093645997 -0.12736 0.83864999
0.095055997 -0.12735 0.83858001
0.096473001 -0.12735 0.83858001
0.097882003 -0.12734 0.83850002
0.099298999 -0.12734 0.83850002
0.10072 -0.12734 0.83850002
0.10214 -0.12735 0.83858001
0.10356 -0.12735 0.83858001
0.10499 -0.12736 0.83864999
0.10642 -0.12738 0.83880001
0.10789 -0.12744001 0.83919001
0.10944 -0.12759 0.84015
0.11101 -0.12777001 0.84134001
0.1126 -0.12795 0.84254998
0.11416 -0.12811001 0.84356999
0.11573 -0.12826 0.84460002
0.11725 -0.12836 0.84525001
0.11878 -0.12848 0.84601003
0.12038 -0.12864999 0.84717
0.12205 -0.12890001 0.84882998
0.12373 -0.12916 0.85053003
0.12545 -0.12946001 0.85247999
0.12718 -0.12975 0.85442001
0.12887999 -0.13000999 0.85610998
0.13056 -0.13023999 0.85764003
0.13224 -0.13045999 0.85908002
0.13386001 -0.13063 0.86021
0.13551 -0.13082001 0.86141998
0.13722 -0.13106 0.86300999
0.13896 -0.13132 0.86475998
0.14078 -0.13166 0.86695999
0.14261 -0.132 0.86919999
0.0016268 -0.1375 0.91566998
0.0031717999 -0.13738 0.91483003
0.0047116 -0.13718 0.91350001
0.0062354999 -0.13673 0.91052002
0.0077418 -0.13615 0.90666002
0.0092292 -0.13548 0.90222001
0.010703 -0.13484 0.89793998
0.012165 -0.13422 0.89381999
0.013625 -0.13372 0.89047003
0.015084 -0.13331001 0.88774002
0.016539 -0.13293999 0.88530999
0.017982 -0.13254 0.88265002
0.019413 -0.13213 0.87989998
0.020848 -0.13179 0.87765002
0.022283001 -0.13151 0.87576002
0.02372 -0.13127001 0.87414998
0.025150999 -0.13101999 0.87252003
0.026590999 -0.13085 0.87137002
0.028021 -0.13065 0.87005001
0.029441001 -0.13043 0.86856002
0.030856 -0.1302 0.86704999
0.032279 -0.13003001 0.86589003
0.033698998 -0.12986 0.86477
0.035123002 -0.12972 0.86383998
0.036550999 -0.1296 0.86308002
0.037978999 -0.1295 0.86237001
0.039400999 -0.12938 0.86159003
0.040817998 -0.12926 0.86075002
0.042231001 -0.12913001 0.8599
0.043641001 -0.12899999 0.85903001
0.045035001 -0.12883 0.85790998
0.046433002 -0.12869 0.85694999
0.047828998 -0.12853999 0.85601002
0.049237002 -0.12843999 0.85532999
0.050648 -0.12835 0.85474998
0.052073002 -0.1283 0.85440999
0.053486001 -0.12823001 0.85391003
0.054896999 -0.12815 0.85339999
0.056299999 -0.12806 0.85281003
0.057697002 -0.12796 0.85214001
0.059074 -0.12783 0.85123003
0.060440999 -0.12767 0.85021001
0.061802 -0.12751999 0.84917003
0.063166998 -0.12737 0.84821999
0.064538002 -0.12725 0.84740001
0.065908998 -0.12713 0.8466
0.067294002 -0.12704 0.84601998
0.068687998 -0.12698001 0.84557003
0.070082001 -0.12691 0.84514999
0.071451999 -0.12681 0.84445
0.072843 -0.12673999 0.84402001
0.074224003 -0.12667 0.84350002
0.07559 -0.12657 0.84284002
0.076941997 -0.12645 0.84204
0.078325003 -0.12638 0.8416
0.079677999 -0.12627 0.84087002
0.081036001 -0.12616999 0.84020001
0.082405999 -0.12609001 0.83969003
0.083783999 -0.12603 0.83928001
0.085164003 -0.12597001 0.83890003
0.086574003 -0.12596001 0.83881003
0.087982997 -0.12594999 0.83872998
0.089392997 -0.12594 0.83864999
0.090810001 -0.12594 0.83864999
0.092228003 -0.12594 0.83864999
0.093645997 -0.12594 0.83864999
0.095063999 -0.12594 0.83864999
0.096482001 -0.12594 0.83864999
0.097898997 -0.12594 0.83864999
0.099316999 -0.12594 0.83864999
0.10073 -0.12594 0.83864999
0.10215 -0.12594 0.83864999
0.10357 -0.12594 0.83864999
0.10499 -0.12594 0.83864999
0.10643 -0.12596001 0.83880001
0.10789 -0.12602 0.83920002
0.10945 -0.12617999 0.84024
0.11104 -0.12637 0.84152001
0.11263 -0.12656 0.84280998
0.1142 -0.12672 0.84390002
0.11578 -0.12689 0.84500003
0.11729 -0.12698001 0.84557003
0.11884 -0.12710001 0.84640998
0.12045 -0.12729 0.84766001
0.12213 -0.12755001 0.84941
0.12384 -0.12784 0.8513
0.12559 -0.12816 0.85342997
0.12732001 -0.12843999 0.85531998
0.12899999 -0.12868001 0.85692
0.13067 -0.12888999 0.85834002
0.1323 -0.12907 0.85952997
0.13392 -0.12922999 0.86057001
0.13555001 -0.1294 0.86168998
0.13725001 -0.12962 0.86319
0.13897 -0.12987 0.86484998
0.14076 -0.13018 0.86688
0.14255001 -0.13046999 0.86884999
7.8855002e-05 -0.13609 0.91659999
0.001627 -0.13597 0.91580999
0.0031723999 -0.13585 0.91499001
0.0047129998 -0.13567001 0.91377002
0.006238 -0.13524 0.91088998
0.0077447002 -0.13466001 0.90701002
0.0092334002 -0.13402 0.90263999
0.010708 -0.13338 0.89836001
0.012171 -0.13277 0.89427
0.013633 -0.13229001 0.89102
0.015093 -0.13189 0.88828999
0.016548 -0.13151 0.88578999
0.017991999 -0.13112 0.88312
0.019424999 -0.13072 0.88044
0.020863 -0.1304 0.87829
0.022301 -0.13012999 0.87647003
0.023739999 -0.12988999 0.87488002
0.025171001 -0.12965 0.87322998
0.02661 -0.12947001 0.87199003
0.028039001 -0.12926 0.87058002
0.029456999 -0.12902001 0.86901999
0.030873001 -0.1288 0.86751997
0.032292999 -0.12861 0.86625999
0.033713002 -0.12843999 0.86511999
0.035137001 -0.12830999 0.86418003
0.036564998 -0.12819 0.86341
0.037994001 -0.12808999 0.86271
0.039423998 -0.12800001 0.86210001
0.040846001 -0.12788001 0.86133999
0.042265002 -0.12777001 0.86058003
0.043680001 -0.12764999 0.85979998
0.045079 -0.1275 0.85877001
0.046479002 -0.12736 0.85780001
0.047871999 -0.12721001 0.85677999
0.049276002 -0.12709001 0.85601002
0.050684001 -0.12699001 0.85534
0.052108999 -0.12694 0.85500002
0.053518999 -0.12685999 0.85443997
0.054935999 -0.1268 0.85402
0.056345999 -0.12672 0.85350001
0.057744 -0.12661999 0.85282999
0.059117001 -0.12647 0.85184002
0.060483001 -0.12632 0.85080999
0.061838999 -0.12615 0.84968001
0.063193001 -0.12599 0.84856999
0.064562999 -0.12586001 0.84772003
0.065934002 -0.12574001 0.84692001
0.067313001 -0.12564 0.84625
0.068700999 -0.12557 0.84573001
0.070095003 -0.12549999 0.84530002
0.071464002 -0.12540001 0.84460002
0.072856002 -0.12534 0.84417999
0.074251004 -0.12527999 0.84381002
0.075626001 -0.1252 0.84324002
0.076986 -0.12509 0.84252
0.078377001 -0.12503999 0.84217
0.079732001 -0.12493 0.84143001
0.081083 -0.12482 0.84069997
0.082446001 -0.12473 0.84009999
0.083815999 -0.12466 0.83960003
0.085179001 -0.12457 0.83904999
0.086580999 -0.12455 0.83888
0.087982997 -0.12453 0.83872998
0.089392997 -0.12452 0.83864999
0.090810001 -0.12452 0.83864999
0.092228003 -0.12452 0.83864999
0.093645997 -0.12452 0.83864999
0.095063999 -0.12452 0.83864999
0.096482001 -0.12452 0.83864999
0.097898997 -0.12452 0.83864999
0.099316999 -0.12452 0.83864999
0.10073 -0.12452 0.83864999
0.10215 -0.12452 0.83864999
0.10358 -0.12453 0.83872998
0.10501 -0.12454 0.83880001
0.10646 -0.12457 0.83903998
0.10793 -0.12463 0.83945
0.10947 -0.12478 0.84043002
0.11105 -0.12495 0.84161001
0.11263 -0.12513 0.84281999
0.1142 -0.12527999 0.84382999
0.11577 -0.12545 0.84492999
0.11729 -0.12554 0.84557003
0.11886 -0.12569 0.84656
0.12049 -0.1259 0.84798002
0.1222 -0.12619001 0.84991002
0.12395 -0.1265 0.85205001
0.12572999 -0.12684999 0.85434997
0.12746 -0.12713 0.85624999
0.12915 -0.12737 0.85786003
0.13079999 -0.12756 0.85918999
0.13240001 -0.1277 0.86013001
0.134 -0.12784 0.86107999
0.1356 -0.12799001 0.86203003
0.13726 -0.12818 0.86330998
0.13897 -0.12841 0.86486
0.14075001 -0.12869 0.86680001
0.1425 -0.12895 0.86851001
7.8830999e-05 -0.1345 0.91635001
0.0016266 -0.13439 0.91557997
0.0031717001 -0.13427 0.91478997
0.0047113998 -0.13406999 0.91346997
0.0062368 -0.13367 0.91071999
0.0077446001 -0.13312 0.90697998
0.0092340996 -0.13249999 0.90271002
0.010711 -0.13188 0.89854002
0.012177 -0.13131 0.89466
0.013642 -0.13086 0.89159
0.015103 -0.13045999 0.88887
0.016558999 -0.1301 0.88635999
0.018005 -0.12972 0.88378
0.019440999 -0.12932999 0.88116997
0.020881999 -0.12903 0.87910002
0.022324 -0.12878001 0.87738001
0.023766 -0.12854999 0.87585002
0.025199 -0.12830999 0.87418997
0.026636001 -0.12811001 0.87285
0.02806 -0.12788001 0.87127
0.029479999 -0.12764999 0.86969
0.030894 -0.12741999 0.86812001
0.032311998 -0.12722 0.86677998
0.03373 -0.12704 0.86556
0.035154 -0.1269 0.8646
0.03658 -0.12678 0.86374998
0.038008999 -0.12668 0.86306
0.039439999 -0.12659 0.86243999
0.040865999 -0.12649 0.86176002
0.042286001 -0.12637 0.86101002
0.043706 -0.12627 0.86031002
0.045111001 -0.12613 0.85936999
0.046512 -0.126 0.85842001
0.047906 -0.12583999 0.85738999
0.049315002 -0.12574001 0.85667998
0.050717998 -0.12563001 0.85592002
0.052138999 -0.12557 0.85549998
0.053555001 -0.12549999 0.85501999
0.054972999 -0.12543 0.85459
0.056384001 -0.12536 0.85408002
0.057787001 -0.12526999 0.85347003
0.059161 -0.12512 0.85249001
0.060529999 -0.12497 0.85146999
0.061887 -0.12481 0.85033
0.063235998 -0.12463 0.84915
0.064594999 -0.12449 0.84814
0.065964997 -0.12437 0.84732002
0.067337997 -0.12426 0.84657001
0.068720996 -0.12417 0.84597999
0.070109002 -0.12409 0.84547001
0.071483999 -0.124 0.84482998
0.072876997 -0.12394 0.84442002
0.074272998 -0.12389 0.84407002
0.075663 -0.12383 0.84366
0.077032 -0.12374 0.84302002
0.078424998 -0.12368 0.84267002
0.079779997 -0.12358 0.84193999
0.081133001 -0.12347 0.84121001
0.082474999 -0.12335 0.84039003
0.083835997 -0.12326 0.8398
0.085189 -0.12317 0.83914
0.086580999 -0.12313 0.83889002
0.087975003 -0.12309 0.83864999
0.089392997 -0.12309 0.83864999
0.090810001 -0.12309 0.83864999
0.092228003 -0.12309 0.83864999
0.093645997 -0.12309 0.83864999
0.095063999 -0.12309 0.83864999
0.096482001 -0.12309 0.83864999
0.097898997 -0.12309 0.83864999
0.099316999 -0.12309 0.83864999
0.10073 -0.12309 0.83864999
0.10215 -0.12309 0.83864999
0.10359 -0.12312 0.83880001
0.10503 -0.12314 0.83897001
0.1065 -0.1232 0.83937001
0.10797 -0.12326 0.83978999
0.10952 -0.1234 0.84075999
0.11107 -0.12355 0.84175998
0.11264 -0.12371 0.84288001
0.11418 -0.12384 0.84372997
0.11575 -0.12399 0.84476
0.11727 -0.12409 0.84540999
0.11886 -0.12425 0.84654999
0.1205 -0.12448 0.84807003
0.12223 -0.12478 0.85010999
0.124 -0.12511 0.85241002
0.1258 -0.12547 0.85486001
0.12754001 -0.12576 0.85684001
0.12924001 -0.126 0.85846001
0.13089 -0.12620001 0.85979998
0.13248999 -0.12633 0.86071998
0.13407999 -0.12646 0.86158001
0.13567001 -0.12659 0.86243999
0.13733 -0.12677 0.86372
0.13901 -0.12698001 0.86511999
0.14076 -0.12724 0.86686999
0.14248 -0.12746 0.86839002
0.0031707 -0.13268 0.91451001
0.0047105001 -0.13249999 0.91329998
0.0062392 -0.13218001 0.91105998
0.0077491002 -0.13166 0.90752
0.0092406003 -0.13106 0.90333998
0.010718 -0.13045999 0.89920002
0.012186 -0.12988999 0.89530998
0.013651 -0.12943 0.89214998
0.015113 -0.12904 0.88942999
0.016569 -0.12867001 0.88691998
0.018018 -0.12830999 0.88441002
0.019456999 -0.12794 0.88187999
0.020901 -0.12766001 0.87990999
0.022346999 -0.12741999 0.87829
0.023791 -0.12720001 0.87677997
0.025223 -0.12695 0.87502003
0.026660001 -0.12675001 0.87362999
0.028082 -0.1265 0.87194997
0.029503001 -0.12627 0.87036997
0.030920999 -0.12605999 0.86887997
0.032340001 -0.12586001 0.86754
0.033753 -0.12566 0.86615998
0.035174999 -0.12551001 0.86511999
0.036598001 -0.12537999 0.86418003
0.038024999 -0.12526 0.86339998
0.039455999 -0.12517001 0.86278999
0.040886 -0.12509 0.86219001
0.042309999 -0.12499 0.86150002
0.043736 -0.1249 0.86089998
0.045141999 -0.12476 0.85996997
0.046544999 -0.12463 0.85903001
0.047935002 -0.12447 0.85790998
0.049334999 -0.12434 0.85703999
0.050733 -0.12422 0.85618001
0.052154001 -0.12415 0.85575002
0.053571001 -0.12408 0.85527003
0.054990001 -0.12402 0.85484999
0.056400001 -0.12394 0.85431999
0.057797998 -0.12385 0.85364002
0.059172999 -0.1237 0.85264999
0.060541999 -0.12356 0.85163999
0.061907001 -0.12341 0.85061002
0.063262999 -0.12325 0.84951001
0.064622998 -0.1231 0.84851003
0.065991998 -0.12298 0.84767002
0.067359 -0.12286 0.84684002
0.068736002 -0.12276 0.84617001
0.070116997 -0.12268 0.84557003
0.071498998 -0.12259 0.84500003
0.072892003 -0.12253 0.84460002
0.074298002 -0.1225 0.84434003
0.075695999 -0.12245 0.84402001
0.077073 -0.12237 0.84346998
0.078465 -0.12232 0.84311002
0.079820998 -0.12221 0.84237999
0.081174001 -0.12211 0.84164
0.082516 -0.12199 0.84081
0.083875999 -0.1219 0.84020001
0.085229002 -0.1218 0.83954
0.086612999 -0.12175 0.83920002
0.087999001 -0.12171 0.83889002
0.089409001 -0.12169 0.83880001
0.090818003 -0.12168 0.83872998
0.092228003 -0.12167 0.83864999
0.093645997 -0.12167 0.83864999
0.095063999 -0.12167 0.83864999
0.096482001 -0.12167 0.83864999
0.097898997 -0.12167 0.83864999
0.099326 -0.12168 0.83872998
0.10076 -0.1217 0.83888
0.1022 -0.12173 0.83903998
0.10366 -0.12177 0.83934999
0.10512 -0.12182 0.83968002
0.10661 -0.1219 0.84025002
0.10808 -0.12196 0.84061003
0.10959 -0.12206 0.84132999
0.11112 -0.12218 0.84214002
0.11267 -0.12231 0.84305
0.11418 -0.1224 0.84369999
0.11573 -0.12253 0.84459001
0.11725 -0.12264 0.84530997
0.11885 -0.12281 0.84653002
0.12051 -0.12305 0.84815001
0.12226 -0.12336 0.85029
0.12405 -0.12372 0.85275
0.12588 -0.12409 0.85535002
0.12763 -0.12439 0.85741001
0.12933999 -0.12464 0.85913002
0.131 -0.12484 0.86048001
0.13259 -0.12497 0.86141002
0.13417 -0.12508 0.86216998
0.13575 -0.1252 0.86295003
0.1374 -0.12537 0.86413997
0.13908 -0.12557 0.86553001
0.1408 -0.1258 0.86712003
0.14249 -0.126 0.86847001
0.0031699999 -0.1311 0.91430002
0.0047101001 -0.13094001 0.91321999
0.0062401001 -0.13065 0.91118997
0.0077467998 -0.13009 0.90724999
0.0092366999 -0.12947001 0.90296
0.010715 -0.12888999 0.89894003
0.012186 -0.12838 0.89535999
0.013657 -0.12797 0.89252001
0.01512 -0.1276 0.88988
0.016579 -0.12725 0.88744998
0.018029001 -0.12689 0.88494003
0.019471001 -0.12654001 0.88249999
0.020918 -0.12627 0.88063002
0.022368001 -0.12605 0.87910998
0.023812 -0.12582 0.87752998
0.025243999 -0.12557 0.87576002
0.02668 -0.12536 0.87427998
0.028100001 -0.1251 0.8725
0.029521 -0.12488 0.87090999
0.030943001 -0.12467 0.86949998
0.032364 -0.12449 0.86818999
0.033775002 -0.12427 0.86672002
0.035197001 -0.12412 0.86565
0.036616001 -0.12397 0.8646
0.038040001 -0.12385 0.86374998
0.039469 -0.12375 0.86307001
0.040902998 -0.12368 0.86254001
0.042327002 -0.12358 0.86185002
0.043754 -0.12349 0.86124998
0.045164999 -0.12337 0.86040002
0.046572998 -0.12325 0.85953999
0.047963999 -0.12309 0.85842001
0.049364001 -0.12296 0.85753
0.050756998 -0.12282 0.85658997
0.052170001 -0.12274 0.85600001
0.053585999 -0.12267 0.85551
0.055 -0.1226 0.85500997
0.056405999 -0.12251 0.85440999
0.057804 -0.12241 0.85372001
0.059183002 -0.12228 0.85280001
0.060548998 -0.12213 0.85172999
0.061919998 -0.12199 0.85079002
0.063277997 -0.12183 0.84969997
0.064636998 -0.12169 0.84869999
0.066007003 -0.12157 0.84785998
0.067380004 -0.12146 0.84710002
0.068751 -0.12135 0.84635001
0.070133001 -0.12127 0.84575999
0.071519002 -0.1212 0.84525001
0.072912998 -0.12114 0.84483999
0.074313998 -0.12109 0.84452999
0.075719997 -0.12106 0.84429002
0.07711 -0.121 0.84388
0.078504004 -0.12095 0.84353
0.079860002 -0.12084 0.84279001
0.081220001 -0.12075 0.84210998
0.082561001 -0.12063 0.84127998
0.083916001 -0.12053 0.84060001
0.085270002 -0.12044 0.83994001
0.086655997 -0.12039 0.83960998
0.088041998 -0.12034 0.83929002
0.089442998 -0.12032 0.83912998
0.090843998 -0.12029 0.83895999
0.092244998 -0.12027 0.83880001
0.093653999 -0.12026 0.83872998
0.095072001 -0.12026 0.83872998
0.096491002 -0.12026 0.83872998
0.097909003 -0.12026 0.83872998
0.099344 -0.12028 0.83888
0.1008 -0.12033 0.83919001
0.10225 -0.12037 0.83946002
0.10373 -0.12044 0.83995003
0.10521 -0.12051 0.84044999
0.10672 -0.1206 0.84109998
0.10818 -0.12065 0.84144998
0.10968 -0.12073 0.84201998
0.11119 -0.12082 0.84263998
0.11271 -0.12093 0.84337997
0.1142 -0.12099 0.84382999
0.11572 -0.1211 0.84456998
0.11725 -0.1212 0.84530002
0.11885 -0.12138 0.84652001
0.12052 -0.12162 0.84820998
0.12228 -0.12194 0.85044003
0.12409 -0.12231 0.85298997
0.12593 -0.12269 0.85567999
0.12769 -0.123 0.85782999
0.12942 -0.12326 0.85964
0.13108 -0.12346 0.86102003
0.13268 -0.12359 0.86194998
0.13425 -0.1237 0.86271
0.13584 -0.12382 0.86356002
0.13747001 -0.12397 0.8646
0.13913999 -0.12416 0.86590999
0.14084999 -0.12437 0.86741
0.14252 -0.12455 0.86865997
0.0031683 -0.12947001 0.91378999
0.0047089998 -0.12936001 0.91299999
0.0062408 -0.12912001 0.9113
0.0077439002 -0.1285 0.90691
0.0092310002 -0.12785999 0.90240002
0.010709 -0.12729999 0.89844
0.012184 -0.12684 0.89519
0.013659 -0.12648 0.89267999
0.015123 -0.12611 0.89004999
0.016584 -0.12578 0.88771999
0.018036 -0.12544 0.88529998
0.019481 -0.12511 0.88296002
0.020931 -0.12485 0.88116002
0.022382 -0.12464 0.87966001
0.023825999 -0.12441 0.87808001
0.02526 -0.12416 0.87629998
0.026696 -0.12395 0.87481999
0.028115001 -0.12369 0.87295997
0.02954 -0.12348 0.87146997
0.030964 -0.12328 0.87006998
0.032389 -0.12311 0.86883998
0.033799998 -0.1229 0.86734998
0.035220999 -0.12274 0.86625999
0.036637001 -0.12258 0.86510998
0.038061999 -0.12246 0.86425
0.039489001 -0.12235 0.8635
0.040922999 -0.12227 0.86296999
0.042348001 -0.12218 0.86228001
0.043775 -0.12209 0.86167002
0.045187999 -0.12197 0.86083001
0.046592001 -0.12184 0.85988998
0.047982 -0.12168 0.85876
0.049378 -0.12154 0.85778999
0.050767999 -0.1214 0.85676998
0.052175 -0.1213 0.85609001
0.053592 -0.12123 0.8556
0.055001002 -0.12115 0.85501999
0.056407001 -0.12106 0.85442001
0.057804 -0.12096 0.85373002
0.059188999 -0.12084 0.85288
0.060559001 -0.1207 0.85187
0.061937001 -0.12058 0.85101002
0.063299999 -0.12044 0.85000002
0.064661004 -0.1203 0.84900999
0.066031002 -0.12018 0.84816998
0.067405 -0.12007 0.84741002
0.068770997 -0.11995 0.84658998
0.070146002 -0.11986 0.84591001
0.071539 -0.1198 0.84548002
0.072933003 -0.11974 0.84507
0.074334003 -0.11969 0.84476
0.075741 -0.11966 0.84451997
0.077145003 -0.11962 0.84425998
0.078533001 -0.11956 0.84384
0.079889998 -0.11946 0.84311002
0.081251003 -0.11936 0.84243
0.082599998 -0.11926 0.84166998
0.083949 -0.11915 0.84092999
0.085313 -0.11907 0.84037
0.086700998 -0.11903 0.84004998
0.088087998 -0.11898 0.83973002
0.089488 -0.11896 0.83955002
0.090888001 -0.11893 0.83937001
0.09228 -0.1189 0.83912998
0.093681 -0.11887 0.83895999
0.095097996 -0.11887 0.83895999
0.096509002 -0.11886 0.83889002
0.097919002 -0.11885 0.83882999
0.099372998 -0.1189 0.83911997
0.10085 -0.11896 0.83960003
0.10231 -0.11902 0.83999002
0.10382 -0.11911 0.84066999
0.10533 -0.11922 0.84139001
0.10683 -0.11931 0.84202999
0.1083 -0.11936 0.84239
0.10978 -0.11942 0.84280002
0.11127 -0.11948 0.84325999
0.11276 -0.11955 0.84373999
0.11422 -0.11959 0.84402001
0.11573 -0.11967 0.84459001
0.11725 -0.11977 0.84530997
0.11885 -0.11994 0.84652001
0.12052 -0.12018 0.84820998
0.12229 -0.12051 0.85051
0.12411 -0.12088 0.85316002
0.12597001 -0.12128 0.85595
0.12774999 -0.1216 0.85820001
0.12949 -0.12188 0.86017001
0.13116001 -0.12207 0.86154002
0.13276 -0.12221 0.86249
0.13433 -0.12231 0.86324
0.13594 -0.12244 0.86417001
0.13755 -0.12258 0.86514002
0.13923 -0.12277 0.86646003
0.14092 -0.12297 0.86786997
0.14259 -0.12314 0.86909997
0.14498 -0.12541001 0.87461001
0.14426 -0.12331 0.87031001
0.010698 -0.12564 0.89745998
0.012179 -0.12526999 0.89481997
0.01366 -0.12498 0.89275002
0.015129 -0.12465 0.89039999
0.016596001 -0.12436 0.88834
0.018051 -0.12404 0.88602
0.019498 -0.12372 0.88375002
0.020947 -0.12346 0.88186002
0.022397 -0.12323 0.88024998
0.023841999 -0.12301 0.87866002
0.025276 -0.12276 0.87687999
0.026711 -0.12254 0.87532997
0.028134 -0.12229 0.87355
0.029563 -0.1221 0.87215
0.030988 -0.1219 0.87076002
0.032418001 -0.12174 0.86962003
0.033829998 -0.12153 0.86813003
0.035248999 -0.12137 0.86694998
0.036665998 -0.12121 0.86579001
0.038088001 -0.12107 0.86484998
0.039512001 -0.12096 0.86401999
0.040943999 -0.12087 0.86341
0.042369001 -0.12077 0.86271
0.043793 -0.12068 0.86202002
0.045205999 -0.12056 0.86118001
0.046606001 -0.12042 0.86014998
0.047998 -0.12026 0.85903001
0.049387999 -0.12011 0.85795999
0.050774001 -0.11996 0.85685998
0.052175999 -0.11985 0.85610998
0.053596001 -0.11979 0.85567999
0.055006001 -0.11971 0.85509998
0.056412 -0.11963 0.85451001
0.057815 -0.11954 0.85387999
0.059204999 -0.11943 0.85311002
0.060575999 -0.11929 0.85211003
0.061953999 -0.11917 0.85126001
0.063322999 -0.11904 0.85031003
0.064684004 -0.1189 0.84930998
0.066047996 -0.11877 0.84838998
0.067423001 -0.11867 0.84763998
0.068796001 -0.11856 0.84689999
0.070165999 -0.11846 0.84615999
0.071552999 -0.11839 0.84564
0.072945997 -0.11833 0.84522003
0.074340001 -0.11827 0.84482998
0.075740002 -0.11823 0.84451002
0.077151 -0.1182 0.84432
0.078547999 -0.11816 0.84399998
0.079914004 -0.11807 0.84336001
0.081283003 -0.11798 0.84276998
0.082640998 -0.11789 0.84209001
0.083998002 -0.11779 0.84141999
0.085372001 -0.11773 0.84094
0.086768001 -0.11769 0.84069997
0.088157997 -0.11765 0.84039998
0.089559004 -0.11763 0.84021997
0.090952002 -0.11759 0.83995998
0.092335001 -0.11754 0.83961999
0.093718 -0.1175 0.83929998
0.095135003 -0.1175 0.83928001
0.096546002 -0.11749 0.83920997
0.097957999 -0.11748 0.83915001
0.099421002 -0.11753 0.83952999
0.10092 -0.11762 0.84017003
0.1024 -0.11769 0.84065002
0.1039 -0.11778 0.84135002
0.10543 -0.1179 0.84214002
0.10693 -0.11799 0.84277999
0.1084 -0.11804 0.84314001
0.10988 -0.11809 0.84355998
0.11136 -0.11815 0.84395999
0.11284 -0.1182 0.84434003
0.11429 -0.11823 0.84451002
0.11578 -0.1183 0.84500003
0.11729 -0.11838 0.84557003
0.11889 -0.11854 0.84678
0.12055 -0.11877 0.84837002
0.12231 -0.11909 0.85066998
0.12414 -0.11946 0.85333002
0.12601 -0.11987 0.85623002
0.1278 -0.12019 0.85856003
0.12955999 -0.12048 0.86061001
0.13123 -0.12068 0.86205
0.13285001 -0.12083 0.86308002
0.13443001 -0.12093 0.86383998
0.13605 -0.12108 0.86484998
0.13766 -0.12121 0.86583
0.13933 -0.12139 0.86707002
0.141 -0.12156 0.86830997
0.14266001 -0.12173 0.86953002
0.14432 -0.12189 0.87064999
0.14596 -0.12351 0.87168002
0.14602999 -0.12209 0.8721
0.010691 -0.12404 0.89688998
0.012181 -0.12377 0.89494002
0.013668 -0.12354 0.89327002
0.015141 -0.12324 0.89111
0.01661 -0.12296 0.88907999
0.018066 -0.12264 0.88678002
0.019515 -0.12232 0.88449001
0.020961 -0.12204 0.88240999
0.022407999 -0.1218 0.88068998
0.023852 -0.12157 0.87900001
0.025286 -0.12132 0.87722999
0.026722001 -0.12111 0.87567002
0.02815 -0.12088 0.87405998
0.029583 -0.1207 0.87273002
0.031012001 -0.12052 0.87143999
0.032446001 -0.12037 0.87037998
0.033863001 -0.12018 0.86899
0.035282001 -0.12001 0.86773998
0.036695998 -0.11984 0.86650002
0.038116001 -0.11969 0.86546999
0.039535999 -0.11957 0.86453998
0.040964998 -0.11947 0.86383998
0.04239 -0.11937 0.86313999
0.043814 -0.11927 0.86243999
0.045224 -0.11915 0.86151999
0.046620999 -0.119 0.86041999
0.048007 -0.11883 0.85921001
0.049389001 -0.11866 0.85797
0.050769001 -0.11849 0.85677999
0.052170001 -0.11839 0.85601002
0.053591002 -0.11833 0.85558999
0.055006001 -0.11826 0.85509998
0.056418002 -0.11819 0.85459
0.057821002 -0.1181 0.85396999
0.059216999 -0.11801 0.85328001
0.060589001 -0.11787 0.85229999
0.061967999 -0.11776 0.85145003
0.063344002 -0.11764 0.85058999
0.064709999 -0.11751 0.84965003
0.066068999 -0.11737 0.84865999
0.067443997 -0.11726 0.84789997
0.068815999 -0.11716 0.84715003
0.070187002 -0.11706 0.84640998
0.071574003 -0.11699 0.8459
0.072967999 -0.11693 0.84548002
0.074362002 -0.11687 0.84507
0.075754002 -0.11682 0.84467
0.077165 -0.11679 0.84447998
0.078562997 -0.11675 0.84416002
0.079945996 -0.11668 0.84368998
0.081331 -0.11662 0.84327
0.082705997 -0.11655 0.84275001
0.084072001 -0.11647 0.84215999
0.08546 -0.11642 0.84182
0.086859003 -0.11639 0.84157997
0.088251002 -0.11635 0.84127998
0.089647003 -0.11632 0.84104002
0.091031998 -0.11627 0.84069997
0.092399999 -0.1162 0.84021997
0.093773998 -0.11614 0.8398
0.095182002 -0.11613 0.83969998
0.096593 -0.11612 0.83961999
0.098006003 -0.11611 0.83955997
0.099469997 -0.11616 0.83995003
0.10097 -0.11625 0.84059
0.10245 -0.11632 0.84107
0.10395 -0.11641 0.84175003
0.10548 -0.11653 0.84261
0.10699 -0.11662 0.84325999
0.10847 -0.11668 0.84371001
0.10996 -0.11674 0.84412998
0.11143 -0.1168 0.84451997
0.1129 -0.11684 0.84482998
0.11435 -0.11686 0.84500003
