# .PCD v0.7 - Point Cloud Data file format
VERSION 0.7
FIELDS x y z
SIZE 4 4 4
TYPE F F F
COUNT 1 1 1
WIDTH 1576
HEIGHT 1
VIEWPOINT 0 0 0 1 0 0 0
POINTS 1576
DATA ascii
0.13406999 0.054055002 0.85228997
0.13544001 0.054026999 0.85184997
0.13682 0.054001 0.85144001
0.13823 0.053989999 0.85127002
0.13964 0.053978998 0.85110003
0.14105 0.053969 0.85093999
0.14242999 0.053948 0.85061002
0.14376999 0.053911 0.85001999
0.14537001 0.053970002 0.85095
0.14791 0.052923001 0.85737002
0.14797001 0.054396 0.85768002
0.033055998 0.057744 0.88674998
0.034464002 0.05759 0.88440001
0.035851002 0.057418 0.88174999
0.037211999 0.057218 0.87867999
0.038555 0.057007998 0.87545002
0.039887998 0.056798 0.87224001
0.041234002 0.056621999 0.86952001
0.042592 0.056473002 0.86724001
0.043958001 0.056345001 0.86527997
0.045345001 0.056249999 0.86382002
0.046728998 0.056159001 0.86242002
0.048096001 0.056053001 0.86079001
0.049449001 0.055937 0.85900998
0.050794002 0.055819001 0.85720003
0.052124001 0.055691998 0.85525
0.053461999 0.055580001 0.85352999
0.054792002 0.055466 0.85176998
0.056101002 0.055337001 0.84978998
0.057390001 0.055195 0.84761
0.058674999 0.055055998 0.84547001
0.059937 0.054903001 0.84312999
0.061218999 0.054774001 0.84114999
0.062524997 0.054673001 0.83960003
0.063858002 0.054598998 0.83846003
0.065187 0.054524999 0.83732998
0.066524997 0.054462001 0.83635002
0.067852996 0.054393001 0.83530003
0.069177002 0.054324001 0.83424002
0.070479997 0.054241002 0.83296001
0.071787998 0.054166 0.83181
0.073100999 0.054097001 0.83074999
0.074433997 0.054044001 0.82994002
0.075781003 0.054005001 0.82933003
0.077141002 0.053975001 0.82888001
0.078580998 0.054001998 0.82928997
0.080034003 0.054035999 0.82981998
0.081606001 0.054149002 0.83153999
0.083925001 0.053319 0.84069002
0.083307996 0.054342002 0.83451003
0.085166998 0.054629002 0.83892
0.087085001 0.054945 0.84377003
0.088999003 0.055247001 0.84842002
0.090796001 0.055468999 0.85181999
0.092464998 0.055606999 0.85394001
0.094033003 0.055679999 0.85505998
0.095499001 0.055691998 0.85523999
0.096974 0.055709001 0.85551
0.098440997 0.055721 0.85569
0.099905998 0.055730999 0.85584003
0.10135 0.05573 0.85583001
0.10281 0.055739 0.85597003
0.10429 0.055755999 0.85622001
0.10579 0.055778999 0.85658997
0.10727 0.055798002 0.85688001
0.10877 0.055824999 0.85729003
0.11026 0.055845998 0.85760999
0.11171 0.055847 0.85763001
0.11315 0.055842999 0.85756999
0.1146 0.055842001 0.85754001
0.11603 0.055830002 0.85736001
0.11744 0.055814002 0.85711002
0.11888 0.055808 0.85702997
0.12031 0.055798002 0.85687
0.12172 0.055780999 0.85661
0.12313 0.055762999 0.85632998
0.1245 0.05573 0.85583001
0.12587 0.055697002 0.85532999
0.12724 0.055663999 0.85482001
0.12862 0.055636 0.85439003
0.12999 0.055603001 0.85387999
0.13136999 0.055576 0.85346001
0.13274001 0.055543002 0.85297
0.13410001 0.055511001 0.85246003
0.13546 0.055477001 0.85194999
0.13683 0.055449001 0.85152
0.13821 0.055427998 0.85118997
0.13959999 0.055406999 0.85087001
0.141 0.05539 0.85061002
0.14235 0.055357002 0.85009998
0.14392 0.055408999 0.85089999
0.14579999 0.055574998 0.85343999
0.14868 0.056116998 0.86177999
0.15113001 0.055018999 0.86748999
0.15176 0.056724999 0.87111002
0.15790001 0.056389999 0.88911003
0.15499 0.057376999 0.88112998
0.15796 0.057916999 0.88941997
0.034481999 0.059119999 0.88485998
0.035879001 0.058958001 0.88243002
0.037245002 0.058759999 0.87946999
0.038592 0.058547001 0.87629002
0.039928 0.058334999 0.87309998
0.041271001 0.058148 0.87031001
0.042629998 0.057994001 0.86800998
0.043995999 0.057861999 0.86602002
0.045373999 0.057751 0.86436999
0.046753 0.057650998 0.86286998
0.048112001 0.057530999 0.86107999
0.049458999 0.057406001 0.8592
0.050799999 0.057278998 0.85731
0.052129 0.057147 0.85532999
0.053458001 0.057022002 0.85346001
0.054781999 0.056899 0.85162002
0.056086 0.056761999 0.84956002
0.057363 0.056605 0.84722
0.058630999 0.056446001 0.84483999
0.059884999 0.056283001 0.84240001
0.061159 0.056145001 0.84033
0.062465001 0.056042001 0.83879
0.063796997 0.055966999 0.83766001
0.065132 0.055897001 0.83661997
0.066468 0.055831999 0.83564001
0.067789003 0.055755999 0.83451003
0.069099002 0.055675 0.83329999
0.070398003 0.055588 0.83199
0.071712002 0.055516001 0.83091998
0.073023997 0.055445999 0.82986999
0.074363001 0.055397999 0.82915998
0.075709 0.055357002 0.82854003
0.077058002 0.055321001 0.82799
0.078405 0.055282999 0.82743001
0.079760998 0.055254001 0.82699001
0.081228003 0.055300999 0.82769001
0.082824998 0.055433001 0.82967001
0.084587 0.055670001 0.83320999
0.088416003 0.056313999 0.84285998
0.090311997 0.056609999 0.84728003
0.092088997 0.056821998 0.85045999
0.093754999 0.056961 0.85254002
0.095311999 0.05703 0.85358
0.096885003 0.057107002 0.85472
0.098361999 0.057124998 0.85500002
0.099836998 0.057142001 0.85525
0.10129 0.057147998 0.85534
0.10278 0.057169002 0.85565001
0.10427 0.057197001 0.85606998
0.10579 0.057232998 0.85661
0.10729 0.057263002 0.85706002
0.10881 0.057301 0.85763001
0.11032 0.057328001 0.85803998
0.11178 0.057335999 0.85815001
0.11324 0.057339001 0.85819
0.1147 0.057344001 0.85826999
0.11615 0.057342 0.85824001
0.11757 0.057331 0.85807002
0.11901 0.057325002 0.85799003
0.12044 0.057314001 0.85782999
0.12184 0.057291001 0.85747999
0.12323 0.057262 0.85703999
0.12459 0.057220999 0.85644001
0.12594999 0.057181999 0.85584998
0.12730999 0.057142999 0.85526001
0.12869 0.057114001 0.85482001
0.13006 0.057078999 0.85430998
0.13143 0.057050001 0.85387999
0.1328 0.057016999 0.85337001
0.13416 0.056981999 0.85285002
0.13552 0.056947 0.85233998
0.13688 0.056914002 0.85184002
0.13823999 0.056880999 0.85135001
0.13959999 0.056848001 0.85086
0.14094999 0.056814998 0.85035998
0.14251 0.056862999 0.85108
0.14436001 0.057023998 0.85349
0.14656 0.057319 0.85790002
0.14943001 0.057870001 0.86615002
0.15243 0.058458999 0.87496001
0.15523 0.058959 0.88244998
0.038608 0.060056999 0.87664002
0.039960001 0.059863001 0.87380999
0.041313998 0.059684999 0.87120003
0.042677999 0.059533998 0.86900002
0.044050001 0.059402999 0.86708999
0.045423999 0.059282999 0.86533999
0.046797 0.059168 0.86366999
0.048147 0.059032999 0.86168998
0.049485002 0.058892 0.85964
0.050815001 0.05875 0.85756999
0.052134 0.058603998 0.85541999
0.053452998 0.058463998 0.85338998
0.054772001 0.058332 0.85145998
0.056074001 0.058189999 0.84938997
0.057347 0.058024999 0.84697998
0.058609001 0.057856999 0.84451997
0.059866998 0.057693999 0.84214997
0.061140001 0.057551999 0.84008002
0.062440999 0.057441998 0.83846998
0.063772 0.057365 0.83734
0.065112002 0.057298001 0.83636999
0.066436999 0.057220999 0.83525002
0.067749999 0.057138 0.83402997
0.069052003 0.057048999 0.83273
0.070349999 0.056958999 0.83142
0.071652003 0.056876998 0.83021998
0.072957002 0.056800999 0.82911003
0.074281 0.056742001 0.82824999
0.075609997 0.056688 0.82745999
0.076935001 0.056634001 0.82666999
0.078270003 0.056589 0.82600999
0.079625003 0.056559 0.82558
0.081018001 0.056557 0.82555997
0.082519002 0.05663 0.82661003
0.084182002 0.056809001 0.82922
0.086492002 0.055991001 0.83802003
0.085983001 0.057073001 0.83309001
0.087806001 0.057344999 0.83705002
0.089795001 0.057712998 0.84243
0.091684997 0.058008 0.84672999
0.093465 0.058224998 0.84990001
0.095123 0.058361001 0.85188001
0.096799001 0.058502998 0.85395998
0.098292001 0.058533002 0.85439003
0.099788003 0.058563001 0.85483003
0.10127 0.058586001 0.85517001
0.1028 0.058630001 0.85580999
0.10432 0.058676001 0.85649002
0.10586 0.058724999 0.85720003
0.1074 0.058773 0.85790002
0.10893 0.058818001 0.85856003
0.11044 0.058846001 0.85896999
0.11191 0.05886 0.85916001
0.11338 0.058867 0.85926998
0.11484 0.058873001 0.85935998
0.11631 0.058878001 0.85942
0.11775 0.058871999 0.85934001
0.11919 0.058867 0.85926998
0.12061 0.058850002 0.85903001
0.122 0.058821 0.85860002
0.12337 0.058784001 0.85806
0.12472 0.058736999 0.85737002
0.12606999 0.05869 0.85668999
0.12741999 0.058644 0.85601002
0.12879001 0.058607999 0.85549003
0.13015001 0.058568001 0.85491002
0.13150001 0.058527999 0.85431999
0.13285001 0.058487002 0.85373002
0.13422 0.058451999 0.85320002
0.13558 0.058416001 0.85268998
0.13691001 0.058371 0.85202998
0.13826001 0.058331002 0.85145003
0.13957 0.058279999 0.85070002
0.14088 0.058226999 0.84992999
0.14268 0.058373999 0.85206997
0.14485 0.058667999 0.85636997
0.14737 0.059101 0.86268002
0.15027 0.059671 0.87099999
0.15315001 0.060224 0.87908
0.15550999 0.060566999 0.88407999
0.039965 0.061352 0.87392002
0.041333999 0.061191998 0.87164003
0.042713001 0.061057001 0.86971003
0.044094998 0.060934 0.86795998
0.045469999 0.060811002 0.86620998
0.046840001 0.060688 0.86445999
0.048190001 0.060548 0.86246997
0.049524002 0.060396999 0.86031997
0.050845001 0.060238998 0.85807002
0.052154999 0.060077 0.85575002
0.053461999 0.059921 0.85354
0.05477 0.059774 0.85144001
0.056067001 0.059622001 0.84928
0.057335 0.059448 0.84680003
0.058596998 0.059277002 0.84434998
0.059861999 0.059115998 0.84206003
0.061135001 0.058970999 0.83999997
0.062435001 0.058858 0.83838999
0.063767001 0.058779001 0.83726001
0.065105997 0.058710001 0.83627999
0.066417001 0.058619998 0.83499998
0.067717001 0.058522999 0.83362001
0.069012001 0.058426 0.83223999
0.070303001 0.058329999 0.83086997
0.071598001 0.058240999 0.82959998
0.072897002 0.058157999 0.82841998
0.074211001 0.058090001 0.82745999
0.075521 0.058022 0.82648998
0.076835997 0.057960998 0.82560998
0.078157 0.057905 0.82481003
0.079511002 0.057875998 0.82440001
0.080904 0.057875 0.82438999
0.082315996 0.057888001 0.82458001
0.083880998 0.058006 0.82625997
0.085565001 0.058201 0.82903999
0.087265998 0.058402002 0.83188999
0.089244999 0.058779001 0.83727002
0.091247 0.059160002 0.84268999
0.093167998 0.059475999 0.84719998
0.094968997 0.059707999 0.85049999
0.096786 0.059943002 0.85383999
0.098298997 0.059985001 0.85444999
0.099831998 0.060038999 0.85521001
0.10134 0.060075 0.85573
0.10289 0.060137998 0.85663003
0.10444 0.060192998 0.8574
0.10599 0.060249999 0.85821998
0.10752 0.060295001 0.85886002
0.10905 0.060341999 0.85952997
0.11055 0.060364999 0.85986
0.11203 0.060378 0.86004001
0.11349 0.060384002 0.86014003
0.11496 0.060389999 0.86022002
0.11642 0.060396001 0.86028999
0.11787 0.060391001 0.86022002
0.11931 0.060385998 0.86015999
0.12074 0.060373999 0.85997999
0.12215 0.060348999 0.85962999
0.12352 0.060311999 0.85909998
0.12487 0.060263 0.85839999
0.12622 0.060214002 0.85769999
0.12756 0.06016 0.85693002
0.12892 0.060116999 0.85632998
0.13026001 0.060070999 0.85566998
0.13161001 0.060024001 0.85500002
0.13294999 0.059976999 0.85433
0.13431001 0.059939001 0.8538
0.13567001 0.059904002 0.85329002
0.13699999 0.059852999 0.85255998
0.13833 0.059804998 0.85188001
0.13964 0.059748001 0.85108
0.14111 0.059762999 0.85127997
0.14312001 0.060005002 0.85473001
0.14556 0.060417 0.86058998
0.14838 0.060977001 0.86857003
0.15117 0.061516002 0.87625998
0.15374 0.061953999 0.88248998
0.041338 0.062674999 0.87171
0.042738002 0.062567003 0.87022001
0.044128999 0.062454998 0.86865002
0.045506999 0.06233 0.86691999
0.046877999 0.062204 0.86517
0.048225001 0.062054999 0.86308998
0.049554002 0.061894 0.86084998
0.050871 0.061725002 0.8585
0.05218 0.061558001 0.85618001
0.053474002 0.061381001 0.85372001
0.05477 0.061216999 0.85144001
0.056054998 0.061048999 0.84909999
0.057317 0.060865 0.84653997
0.05858 0.060690001 0.84411001
0.059856001 0.060538001 0.84198999
0.061142001 0.060401998 0.84008998
0.062447999 0.060292002 0.83857
0.063778996 0.060210001 0.83743
0.065112002 0.060132999 0.83635998
0.066417001 0.060035001 0.83499002
0.067709997 0.05993 0.83353001
0.068995997 0.059822999 0.83205003
0.070280001 0.059719 0.83060002
0.071566999 0.059622001 0.82924998
0.072858997 0.059531 0.82799
0.074151002 0.059445001 0.82678998
0.075443998 0.059363 0.82564998
0.076756001 0.059298001 0.82475001
0.078077003 0.059241999 0.82397002
0.079433002 0.059215002 0.82358998
0.080833003 0.059220001 0.82366002
0.082243003 0.059232999 0.82384002
0.083708003 0.059284002 0.82454997
0.085276 0.059406001 0.82624
0.086859003 0.059533 0.82801002
0.088835001 0.059921999 0.83341998
0.090865001 0.060334001 0.83916003
0.092913002 0.060745999 0.84487998
0.094847001 0.061071001 0.84941
0.096787997 0.061391 0.85386002
0.098311 0.061441001 0.85456002
0.099864997 0.061508998 0.85549003
0.10139 0.061558999 0.85619998
0.10297 0.061636999 0.85727
0.10454 0.061705999 0.85822999
0.10611 0.061774999 0.8592
0.10764 0.061822001 0.85984999
0.10918 0.061870001 0.86050999
0.11067 0.061887 0.86075997
0.11213 0.061893001 0.86084002
0.11359 0.061893001 0.86084002
0.11505 0.061898999 0.86092001
0.11652 0.061905 0.861
0.11798 0.061905 0.86101002
0.11943 0.061905999 0.86101002
0.12086 0.061894 0.86084998
0.12228 0.061875001 0.86058003
0.12367 0.061841998 0.86013001
0.12503 0.061794002 0.85944998
0.12638 0.061744001 0.85876
0.12772 0.061693002 0.85804999
0.12908 0.061648998 0.85743999
0.13042 0.061595 0.85668999
0.13176 0.061546002 0.85601002
0.1331 0.061496001 0.85531998
0.13445 0.061452001 0.85470998
0.1358 0.061411001 0.85413003
0.13713001 0.061358001 0.85339999
0.13846 0.061308999 0.85271001
0.13981 0.061266001 0.85211998
0.14139999 0.061331999 0.85303003
0.14354999 0.061636001 0.85727
0.14613 0.062116001 0.86394
0.14882 0.062633 0.87112999
0.1514 0.063097 0.87757999
0.042743001 0.064049996 0.87031001
0.044142999 0.063947 0.86892003
0.045526002 0.063826002 0.86728001
0.046898 0.063698001 0.86553001
0.048248999 0.063550003 0.86352998
0.04958 0.063385002 0.86128002
0.050902002 0.063219003 0.85903001
0.052216999 0.063054003 0.85677999
0.053506002 0.062867001 0.85424
0.054788001 0.062679999 0.85170001
0.056060001 0.062493 0.84917003
0.057314999 0.062297001 0.84649003
0.058573 0.062112998 0.84399998
0.059852 0.061960001 0.84192002
0.061154999 0.061838999 0.84028
0.062472999 0.061737001 0.83889002
0.063799001 0.061648998 0.83769
0.065126002 0.061563998 0.83653998
0.066430002 0.061462 0.83516002
0.067716002 0.061349001 0.83361
0.06899 0.061228 0.83197999
0.070266001 0.061115 0.83042997
0.071539 0.061003 0.82892001
0.072809003 0.060892999 0.82743001
0.074086003 0.060793001 0.82607001
0.075370997 0.060702998 0.82484001
0.076682001 0.060637999 0.82394999
0.07801 0.060587 0.82326001
0.079379998 0.060570002 0.82302999
0.080778003 0.060575999 0.82310998
0.082185999 0.060587 0.82327002
0.083631001 0.060626 0.82380003
0.085097 0.060679 0.82450998
0.086561002 0.060727999 0.82516998
0.088422 0.061048999 0.82955003
0.090464003 0.061484002 0.83546001
0.092556 0.061939001 0.84162998
0.094623998 0.062364001 0.84741002
0.096707001 0.062785998 0.85315001
0.098362997 0.062922999 0.85500002
0.099927999 0.062999003 0.85602999
0.10147 0.063057996 0.85683
0.10306 0.063144997 0.85803002
0.10465 0.063226998 0.85913002
0.10624 0.063308999 0.86026001
0.10778 0.063362002 0.86097002
0.10931 0.063405 0.86154997
0.11079 0.063414998 0.86168998
0.11223 0.063408002 0.86159998
0.11367 0.063395999 0.86144
0.11511 0.063391 0.86136001
0.11658 0.063395999 0.86144
0.11804 0.063396998 0.86144
0.11949 0.063396998 0.86144
0.12094 0.063391 0.86136001
0.12237 0.063377999 0.86119002
0.12378 0.063353002 0.86084998
0.12515999 0.063316002 0.86034
0.12653001 0.063276 0.85980999
0.12788001 0.063225999 0.85912001
0.12924001 0.063180998 0.8585
0.13059001 0.063129999 0.85781002
0.13191999 0.063073002 0.85705
0.13325 0.063015997 0.85626
0.13461 0.062976003 0.85571998
0.13598 0.062939003 0.85522002
0.13731 0.062886 0.8545
0.13868999 0.062858999 0.85413003
0.1401 0.062841997 0.85390002
0.14177001 0.062941 0.85525
0.14399999 0.063289002 0.85997999
0.14641 0.063702002 0.86558002
0.14883 0.064115003 0.87120003
0.048253998 0.065021001 0.86361003
0.049598999 0.06487 0.86162001
0.050937001 0.064719997 0.85961998
0.05226 0.064558998 0.85747999
0.053560998 0.064379998 0.85509998
0.054841999 0.064188004 0.85255003
0.056102999 0.063982002 0.84982002
0.057351001 0.063772 0.84702998
0.058607999 0.063583001 0.84451997
0.059884001 0.063422002 0.84237999
0.061184999 0.063294001 0.84068
0.062509 0.063196003 0.83938003
0.063836001 0.063105002 0.83816999
0.065163001 0.063018002 0.83701998
0.066468999 0.062914997 0.83564001
0.067749999 0.062793002 0.83402997
0.069012001 0.062659003 0.83225
0.070274003 0.062528998 0.83052999
0.071520001 0.062392 0.82868999
0.072774 0.062266 0.82703
0.074037001 0.062153 0.82552999
0.075322002 0.062061001 0.82431
0.076627001 0.06199 0.82336003
0.077959999 0.061942998 0.82274002
0.079329997 0.061926998 0.82252002
0.080728002 0.061932001 0.82258999
0.082125999 0.061937999 0.82266998
0.083561003 0.061971001 0.82310998
0.085000999 0.062006 0.82358003
0.086437002 0.062038001 0.82398999
0.088310003 0.062376998 0.82849997
0.090374 0.062838003 0.83462
0.092500001 0.063327 0.84112
0.094626002 0.063801996 0.84742999
0.096748002 0.064259999 0.85351002
0.098412998 0.064405002 0.85544002
0.099986002 0.064487003 0.85653001
0.10154 0.064553998 0.85742003
0.10313 0.064645 0.85863
0.10474 0.064741001 0.8599
0.10634 0.064831004 0.86110002
0.10789 0.064884998 0.86181003
0.10941 0.064923003 0.86232001
0.11087 0.064926997 0.86237001
0.11231 0.064911999 0.86217999
0.11373 0.064893 0.86192
0.11517 0.064880997 0.86176002
0.11662 0.064880997 0.86176002
0.11808 0.064880997 0.86176002
0.11954 0.064880997 0.86176002
0.12098 0.064874999 0.86167997
0.12243 0.064869002 0.86159998
0.12385 0.064851001 0.86136001
0.12524 0.064819999 0.86093998
0.12664001 0.064787 0.86050999
0.12800001 0.064741001 0.85991001
0.12936001 0.064695999 0.85930997
0.13073 0.064650998 0.85870999
0.13206001 0.064594001 0.85794997
0.13338 0.064529002 0.85707998
0.13473 0.064480998 0.85645002
0.13608 0.064436004 0.85584998
0.13742 0.064387999 0.85522002
0.13884 0.064375997 0.85505003
0.14030001 0.064382002 0.85513997
0.14206 0.064524002 0.85702002
0.14413001 0.064805999 0.86075997
0.14628001 0.065114997 0.86487001
0.050949 0.066192001 0.85982001
0.052292999 0.066054001 0.85802001
0.053610999 0.065890998 0.85591
0.054899 0.065701 0.85343999
0.056150999 0.065479003 0.85055
0.057397 0.065260999 0.84772003
0.058653999 0.065064996 0.84517998
0.059925999 0.064894997 0.84297001
0.061225999 0.064763002 0.84126002
0.062556997 0.064668998 0.84003001
0.063885003 0.064575002 0.83881003
0.065208003 0.064482003 0.83759999
0.066520996 0.064382002 0.83630002
0.067791998 0.064245999 0.83454001
0.069048002 0.064102001 0.83266997
0.070289999 0.063951999 0.83070999
0.071520001 0.063796997 0.82870001
0.072760001 0.063656002 0.82687002
0.074022003 0.063538998 0.82534999
0.075306997 0.063446 0.82415003
0.076618999 0.063378997 0.82327998
0.077959999 0.063336998 0.82273
0.079328999 0.063320003 0.82251
0.08072 0.063321002 0.82251
0.082111001 0.063321002 0.82252002
0.083539002 0.063349001 0.82288998
0.084963001 0.063373998 0.82321
0.086383 0.063395001 0.82348001
0.088273004 0.063754 0.82814997
0.090357997 0.064241998 0.83447999
0.092492998 0.064747997 0.84105998
0.094659999 0.065261997 0.84773999
0.096809 0.065747999 0.85404998
0.098459996 0.065886997 0.85584998
0.10002 0.065963998 0.85685003
0.10157 0.066024996 0.85764998
0.12383 0.066298999 0.86119998
0.12524 0.066279002 0.86094999
0.12666 0.066257998 0.86067998
0.12805 0.066225 0.86025
0.12943999 0.066192999 0.85982001
0.13083 0.066159002 0.85939002
0.13218001 0.066108003 0.85872
0.13349999 0.066041999 0.85786998
0.13485 0.065991998 0.85721999
0.1362 0.065944999 0.85661
0.13756999 0.065908 0.85613
0.13902 0.065909997 0.85614997
0.14054 0.065944001 0.85658997
0.14232001 0.066097997 0.85859001
0.05229 0.067505002 0.85798001
0.053629 0.067364998 0.85619998
0.054935001 0.067192003 0.85399002
0.056194998 0.066973001 0.85121
0.057449002 0.066757001 0.84847999
0.058710001 0.066560999 0.84597999
0.059981 0.066385001 0.84373999
0.061276 0.066243999 0.84193999
0.062613003 0.066151999 0.84077001
0.063940004 0.066055 0.83955002
0.065260001 0.065954 0.83825999
0.066574 0.065852001 0.83696002
0.067846 0.065713003 0.83520001
0.069089003 0.065553002 0.83317
0.070317 0.065385997 0.83104002
0.071534 0.065214001 0.82884997
0.072759002 0.065057002 0.82686001
0.074014001 0.064932004 0.82527
0.075300999 0.064838 0.82407999
0.076613002 0.064769 0.82319999
0.077959999 0.064732 0.82273
0.079328001 0.064714 0.82249999
0.080719002 0.064714 0.82251
0.082111001 0.064714998 0.82252002
0.083531998 0.064738996 0.82283002
0.084955998 0.064764 0.82314003
0.086374998 0.064785004 0.82340002
0.088276997 0.065160997 0.82819003
0.090377003 0.065669999 0.83464998
0.092533998 0.066202998 0.84143001
0.094688997 0.066720001 0.84799999
0.096825004 0.067207001 0.85418999
0.098453 0.067332998 0.85579002
0.13353001 0.067511 0.85804999
0.13488001 0.067460001 0.8574
0.13621999 0.06741 0.85676998
0.13761 0.067377999 0.85636002
0.13907 0.067386001 0.85646999
0.14061999 0.067433 0.85707003
0.054965001 0.068677001 0.85446
0.056244001 0.068475001 0.85194999
0.057517 0.068276003 0.84947997
0.058791 0.068089001 0.84715003
0.060063001 0.067907996 0.84490001
0.061354 0.067757003 0.84302002
0.062685996 0.067656003 0.84175998
0.064015001 0.067557 0.84052998
0.065334998 0.067451999 0.83923
0.066644996 0.067341998 0.83785999
0.067910999 0.067193002 0.83600003
0.069147997 0.067022003 0.83388001
0.070357002 0.066831999 0.83151001
0.071553998 0.066637002 0.82909
0.072760001 0.066459 0.82686001
0.074006997 0.066324003 0.82519001
0.075286999 0.066221997 0.82393003
0.076599002 0.066152997 0.82305998
0.077953003 0.066120997 0.82266998
0.079328999 0.066109002 0.82251
0.08072 0.066109002 0.82251
0.082111001 0.06611 0.82252002
0.083531998 0.066133998 0.82282001
0.084948003 0.066152997 0.82306999
0.086482003 0.066261999 0.82441998
0.088413 0.066666998 0.82946002
0.090533003 0.067201003 0.83609998
0.092684999 0.067740001 0.84280998
0.094826996 0.068255998 0.84922999
0.096825004 0.068654999 0.85418999
0.056253999 0.069931999 0.85210001
0.057549998 0.069757 0.84998
0.058848999 0.069592997 0.84798002
0.060134001 0.069421999 0.8459
0.061427999 0.069269001 0.84403002
0.062761001 0.069165997 0.84276998
0.064095996 0.069068998 0.84158999
0.065412 0.068956003 0.84021997
0.066721998 0.068842001 0.83882999
0.067988999 0.068689004 0.83696997
0.069225997 0.068513997 0.83482999
0.070423998 0.068305999 0.83230001
0.071613997 0.068099998 0.82977998
0.072806001 0.067902997 0.82739002
0.074046001 0.067758001 0.82562
0.075312003 0.067642003 0.82419997
0.076618999 0.067566 0.82327998
0.077967003 0.067528002 0.82280999
0.079342999 0.067515001 0.82266003
0.080734998 0.067515999 0.82266998
0.082134001 0.067523003 0.82274997
0.083554 0.067546003 0.82304001
0.085028999 0.067612998 0.82384998
0.086635001 0.067780003 0.82589
0.088689998 0.068287 0.83205998
0.090813003 0.068829998 0.83868003
0.092952996 0.069369003 0.84525001
0.095009997 0.06983 0.85087001
0.057534002 0.071177997 0.84973001
0.058857001 0.071041003 0.84810001
0.060167 0.070895001 0.84636003
0.061484002 0.070763998 0.8448
0.062825002 0.070666 0.84362
0.064167 0.070573002 0.84252
0.065484002 0.070458002 0.84113997
0.066802002 0.070348002 0.83982998
0.068081997 0.070205003 0.83811998
0.069334 0.070037998 0.83613002
0.070533998 0.069825999 0.83359998
0.071731001 0.069620997 0.83115
0.072910003 0.069404997 0.82857001
0.074135996 0.069242001 0.82661998
0.075382002 0.069103003 0.82495999
0.076682001 0.069017999 0.82394999
0.078016996 0.068967 0.82334
0.079407997 0.068966001 0.82332999
0.080807999 0.068972997 0.82341999
0.082217999 0.068988003 0.82358998
0.083646998 0.069018997 0.82396001
0.085185997 0.069137 0.82537001
0.086854003 0.069353998 0.82797003
0.088853002 0.069825001 0.83358997
0.090937003 0.070348002 0.83982003
0.093001999 0.070839003 0.84569001
0.060173001 0.072337002 0.84644002
0.06151 0.072227001 0.84516001
0.062857002 0.072132997 0.84406
0.064205997 0.072045997 0.84302998
0.065530002 0.071934998 0.84174001
0.066857003 0.071831003 0.84052002
0.068158001 0.071704999 0.83904999
0.069434002 0.071557999 0.83732998
0.070656002 0.071362004 0.83503997
0.071869001 0.071165003 0.83274001
0.073054001 0.070950001 0.83020997
0.074281 0.070781 0.82823998
0.075521 0.070630997 0.82647997
0.076807998 0.070529997 0.82529998
0.078134 0.070468001 0.82458001
0.079519004 0.070459999 0.82448
0.080916002 0.070463002 0.82451999
0.082331002 0.070481002 0.82472003
0.083772004 0.070519999 0.82519001
0.085320003 0.070646003 0.82665998
0.087039001 0.070909001 0.82972997
0.088976003 0.071337 0.83475
0.090975001 0.071800999 0.84017003
0.092965998 0.072245002 0.84535998
0.065543003 0.073375002 0.84188998
0.066882998 0.073284 0.84085
0.068212003 0.073186003 0.83972001
0.069517002 0.073064998 0.83832997
0.070763998 0.072889999 0.83631998
0.072007 0.072717004 0.83433998
0.073221996 0.072522998 0.83212
0.07446 0.072359003 0.83023
0.075701997 0.072205 0.82846999
0.076982997 0.072093002 0.82718003
0.078295 0.072013997 0.82628
0.079667002 0.071990997 0.82602
0.08106 0.071988001 0.82598001
0.082471997 0.072002001 0.82612997
0.083924003 0.072049998 0.82669002
0.085481003 0.072183996 0.82823002
0.087223001 0.072467998 0.83148003
0.089060001 0.072820999 0.83552998
0.090961002 0.073214002 0.84004003
0.070839003 0.074386001 0.83721
0.072117999 0.074245997 0.83563
0.073371999 0.074086003 0.83383
0.074635997 0.073941 0.83219999
0.075898997 0.073801003 0.83061999
0.077182002 0.073686004 0.82933003
0.078488998 0.073596999 0.82832003
0.079846002 0.073556997 0.82788002
0.081226997 0.073540002 0.82767999
0.082624003 0.073537998 0.82766002
0.084077999 0.073586002 0.82819998
0.085633002 0.073719002 0.82969999
0.087272003 0.073918998 0.83195001
0.073495001 0.075626001 0.83522999
0.074786998 0.075503998 0.83388001
0.076082997 0.075392 0.83263999
0.077391997 0.075295001 0.83157003
0.078694999 0.075198002 0.83050001
0.080032997 0.075135 0.82981002
0.081396997 0.075099997 0.82941997
0.082765996 0.075069003 0.82907999
0.084197 0.075094998 0.82937002
0.085680999 0.075167999 0.83016998
0.077506997 0.076819003 0.83280998
0.078813002 0.076719999 0.83173001
0.080123 0.076628 0.83074999
0.081464998 0.076568998 0.8301
0.082806997 0.076513 0.82950002
0.16274001 -0.035101 1.0572
0.16102999 -0.033325002 1.0577
0.16367 -0.033500999 1.0633
0.15929 -0.031543002 1.0581
0.1618 -0.031684 1.0628
0.16358 -0.031679999 1.0627
0.16643 -0.033696 1.0695
0.16539 -0.031683002 1.0628
0.15677001 -0.031396002 1.0532
0.15752 -0.029753 1.0582
0.15990999 -0.029864 1.0622
0.1617 -0.029864 1.0622
0.16348 -0.029859999 1.0621001
0.16529 -0.029864 1.0622
0.16804001 -0.031845 1.0683
0.16711 -0.029867001 1.0623
0.18062 -0.031833 1.0678999
0.17793 -0.029874999 1.0626
0.17964999 -0.029863 1.0622
0.18316001 -0.031961001 1.0721
0.15673 -0.027818 1.0529
0.15975 -0.028035 1.0611
0.16152 -0.028031999 1.061
0.16329999 -0.028028 1.0609
0.16513 -0.028035 1.0611
0.16696 -0.028042 1.0614001
0.16892999 -0.029871 1.0625
0.1688 -0.02805 1.0617
0.17079 -0.029882001 1.0628
0.17068 -0.028062999 1.0622
0.17263 -0.029890001 1.0631
0.17252 -0.028069999 1.0625
0.17443 -0.029890999 1.0631
0.17432 -0.028070999 1.0625
0.1762 -0.029887 1.063
0.17608 -0.028063999 1.0622
0.17778 -0.02805 1.0617
0.17948 -0.028035 1.0611
0.1814 -0.029855 1.0619
0.18122 -0.028027 1.0608
0.18318 -0.029851999 1.0618
0.183 -0.028023999 1.0607001
0.18498001 -0.029852999 1.0618
0.18482 -0.028028 1.0609
0.18675999 -0.029850001 1.0617
0.18663 -0.028031999 1.061
0.18854 -0.029849 1.0617
0.18844 -0.028034 1.0611
0.19029 -0.029841 1.0614001
0.19019 -0.028028 1.0608
0.19204 -0.029834 1.0611
0.19193999 -0.028021 1.0606
0.19378 -0.029826 1.0609
0.19369 -0.028014001 1.0603
0.19643 -0.029956 1.0655
0.19543 -0.028007001 1.0601
0.19904999 -0.03008 1.0699
0.15891001 -0.026098 1.0555
0.1613 -0.026196999 1.0595
0.16306999 -0.026194001 1.0594
0.16492 -0.026203999 1.0598
0.16680001 -0.026216 1.0603
0.16864 -0.026224 1.0606
0.17050999 -0.026236 1.0611
0.17237 -0.026246 1.0615
0.17415 -0.026244 1.0614001
0.17588 -0.026234999 1.0611
0.1776 -0.026224 1.0606
0.1793 -0.026210001 1.0601
0.18102001 -0.0262 1.0597
0.18282001 -0.0262 1.0597
0.18466 -0.026207 1.0599
0.18647 -0.026210999 1.0601
0.18829 -0.026214 1.0602
0.19006 -0.026210001 1.0601
0.1918 -0.026203999 1.0598
0.19355001 -0.026199 1.0596
0.1953 -0.026192 1.0592999
0.19709 -0.027988 1.0592999
0.19699 -0.026179999 1.0588
0.19967 -0.028100001 1.0635999
0.19866 -0.026163001 1.0582
0.16058999 -0.024294 1.0549001
0.16259 -0.024327001 1.0563
0.16468 -0.024371 1.0583
0.16658001 -0.024387 1.0589
0.16842 -0.024394 1.0592
0.17027 -0.024402 1.0596
0.17211001 -0.02441 1.0599
0.17387 -0.024405001 1.0597
0.17557999 -0.024394 1.0592999
0.17732 -0.024388 1.059
0.17904 -0.024377 1.0585001
0.18076 -0.024367999 1.0581
0.18255 -0.024369 1.0581
0.18442 -0.024379 1.0585999
0.18626 -0.024385 1.0589
0.18809 -0.024390999 1.0591
0.18988 -0.024390001 1.0591
0.19164 -0.024387 1.0589
0.19340999 -0.024383999 1.0588
0.19513001 -0.024375999 1.0585001
0.19685 -0.024367001 1.0581
0.19851001 -0.024351001 1.0574
0.20039 -0.026155001 1.0579
0.20024 -0.024343999 1.0571001
0.20209999 -0.026146 1.0575
0.20193 -0.024333 1.0566
0.20479 -0.026261 1.0621001
0.20370001 -0.024331 1.0565
0.15943 -0.022342 1.0472
0.16168 -0.022409 1.0504
0.16404 -0.022489 1.0541
0.16617 -0.022537 1.0563
0.16822 -0.022570999 1.058
0.17004 -0.022576001 1.0582
0.17185 -0.022578999 1.0583
0.17355999 -0.022569001 1.0579
0.17528 -0.02256 1.0574
0.17704 -0.022555999 1.0573
0.17877001 -0.02255 1.057
0.18052 -0.022544 1.0567
0.18234999 -0.02255 1.057
0.18423 -0.022561001 1.0575
0.18607999 -0.022568 1.0578001
0.18793 -0.022576001 1.0582
0.18971001 -0.022575 1.0581
0.19145 -0.022569999 1.0579
0.19318999 -0.022564 1.0576
0.19491 -0.022555999 1.0573
0.19661 -0.022546001 1.0568
0.19829001 -0.022534 1.0562
0.20002 -0.022528 1.0559
0.20174 -0.02252 1.0556
0.20353 -0.022521 1.0556
0.20553 -0.024336001 1.0567
0.20537999 -0.022528 1.056
0.20746 -0.024352999 1.0575
0.20731001 -0.022544 1.0567
0.21039 -0.024484999 1.0632
0.20928 -0.022564 1.0576
0.16316999 -0.020592 1.0484999
0.16559 -0.020672999 1.0526
0.16789 -0.020737 1.0559
0.16991 -0.020765999 1.0574
0.17166001 -0.020761 1.0571001
0.17332 -0.020747 1.0563999
0.17501 -0.020736 1.0558
0.17678 -0.020733001 1.0556999
0.17852999 -0.02073 1.0555
0.18029 -0.020726999 1.0554
0.18212 -0.020732 1.0556
0.184 -0.020742999 1.0562
0.18584 -0.020749001 1.0565
0.18769 -0.020756001 1.0569
0.18948001 -0.020756001 1.0568
0.19122 -0.020750999 1.0566
0.19295999 -0.020746 1.0563
0.19469 -0.020741001 1.0561
0.19641 -0.020733001 1.0556999
0.19811 -0.020725001 1.0553
0.19987001 -0.020722 1.0551
0.20161 -0.020718001 1.0549001
0.2034 -0.020718001 1.0549001
0.20523 -0.020723 1.0552
0.20716 -0.020737 1.0559
0.20909999 -0.020753 1.0567
0.21121 -0.022578999 1.0583
0.211 -0.020764999 1.0573
0.21405999 -0.022692 1.0635999
0.2129 -0.020775 1.0578001
0.16669001 -0.018812999 1.0484
0.16895001 -0.018866001 1.0513999
0.17094 -0.018890001 1.0527
0.17286 -0.018905999 1.0536
0.17482001 -0.018925 1.0546
0.17659999 -0.018925 1.0546
0.17838 -0.018924 1.0546
0.18014 -0.018921999 1.0545
0.18196 -0.018926 1.0547
0.18381999 -0.018934 1.0551
0.18564001 -0.018936999 1.0553
0.18746001 -0.018942 1.0556
0.18923999 -0.018941 1.0555
0.19098 -0.018936999 1.0553
0.19272 -0.018932 1.0549999
0.19448 -0.018928999 1.0549001
0.19621 -0.018925 1.0546
0.19795001 -0.018920001 1.0544
0.19972 -0.018920001 1.0544
0.20149 -0.018918 1.0542001
0.20327 -0.018918 1.0543
0.2051 -0.018921999 1.0545
0.20703 -0.018935001 1.0552
0.20895 -0.018948 1.0559
0.21087 -0.018959999 1.0566
0.21279 -0.018972 1.0573
0.21466 -0.020772999 1.0577
0.21455 -0.01897 1.0571001
0.2172 -0.020845 1.0614001
0.21618 -0.018956 1.0563999
0.17156 -0.016991001 1.0457
0.17383 -0.017041 1.0487
0.17591 -0.017069999 1.0505
0.17798001 -0.017098 1.0522
0.18003 -0.017123999 1.0539
0.18184 -0.017127 1.054
0.18367 -0.017131001 1.0543
0.18547 -0.017132999 1.0544
0.1873 -0.017137 1.0546
0.18908 -0.017137 1.0546
0.19084001 -0.017135 1.0545
0.1926 -0.017132999 1.0544
0.19436 -0.017131001 1.0542001
0.19609 -0.017127 1.054
0.19785 -0.017124999 1.0539
0.19963001 -0.017123999 1.0539
0.20139 -0.017123001 1.0538
0.20317 -0.017123001 1.0538
0.205 -0.017127 1.054
0.2069 -0.017136 1.0546
0.20882 -0.017147001 1.0553
0.21076 -0.017161001 1.0561
0.21269999 -0.017173 1.0569
0.21447 -0.017170999 1.0567
0.21608999 -0.017158 1.0559
0.17669 -0.015203 1.0446
0.17905 -0.015254 1.0481
0.18118 -0.015284 1.0502
0.1833 -0.015313 1.0520999
0.18538 -0.015338 1.0539
0.18718 -0.01534 1.054
0.18896 -0.01534 1.054
0.19073001 -0.015338 1.0539
0.19249 -0.015336 1.0538
0.19427 -0.015336 1.0538
0.19603001 -0.015335 1.0536
0.19780999 -0.015335 1.0536
0.19959 -0.015335 1.0536
0.20137 -0.015335 1.0536
0.20317 -0.015336 1.0538
0.205 -0.01534 1.054
0.2069 -0.015349 1.0546
0.20882 -0.015358 1.0553
0.21074 -0.015368 1.056
0.21263 -0.015376 1.0565
0.21434 -0.015371 1.0561
0.21596999 -0.015359 1.0553
0.17769 -0.013375 1.0402
0.18015 -0.013427 1.0441999
0.18261001 -0.013478 1.0482
0.18503 -0.013526 1.0519
0.18712001 -0.013549 1.0536
0.18889999 -0.013549 1.0536
0.19068 -0.013549 1.0536
0.19246 -0.013549 1.0536
0.19424 -0.013549 1.0536
0.19603001 -0.013549 1.0536
0.19780999 -0.013549 1.0536
0.19959 -0.013549 1.0536
0.20137 -0.013549 1.0536
0.2032 -0.013552 1.0539
0.20502999 -0.013555 1.0541
0.20693 -0.013563 1.0548
0.20885 -0.013572 1.0554
0.21078999 -0.013582 1.0562
0.21266 -0.013587 1.0566
0.21437 -0.013582 1.0563
0.21600001 -0.013572 1.0555
0.18155999 -0.011634 1.0422
0.18436 -0.0117 1.0481
0.18679 -0.011742 1.0518
0.18889999 -0.011762 1.0536
0.19066 -0.011761 1.0535001
0.19244 -0.011761 1.0535001
0.19422001 -0.011761 1.0535001
0.19599999 -0.011761 1.0535001
0.19779 -0.011761 1.0535001
0.19959 -0.011762 1.0536
0.20137 -0.011762 1.0536
0.20321999 -0.011767 1.054
0.20508 -0.011771 1.0544
0.20699 -0.011778 1.0551
0.20891 -0.011786 1.0556999
0.21087 -0.011795 1.0566
0.21273001 -0.0118 1.057
0.21445 -0.011796 1.0566
0.21610001 -0.011789 1.056
0.18325999 -0.0098646004 1.0418
0.18609001 -0.0099216998 1.0479
0.18856999 -0.0099590998 1.0518
0.19064 -0.0099742003 1.0534
0.19242001 -0.009974 1.0534
0.19419999 -0.0099739004 1.0534
0.19598 -0.009974 1.0534
0.19776 -0.0099742003 1.0534
0.19959 -0.0099764001 1.0536
0.20139 -0.0099775 1.0538
0.20327 -0.0099822003 1.0542001
0.20514999 -0.0099873003 1.0548
0.20709001 -0.0099948002 1.0556
0.20903 -0.010002 1.0563999
0.21099 -0.01001 1.0572
0.21286 -0.010014 1.0576
0.21458 -0.010011 1.0573
0.21623001 -0.010005 1.0566
0.18784 -0.0081444997 1.0477
0.19025999 -0.0081722997 1.0513
0.19237 -0.0081863003 1.0531
0.19414 -0.0081861001 1.0531
0.19595 -0.0081871999 1.0532
0.19774 -0.0081874998 1.0533
0.19960999 -0.0081912 1.0538
0.20144001 -0.0081930999 1.054
0.20336001 -0.0081989001 1.0547
0.2053 -0.0082050003 1.0555
0.20728999 -0.0082131 1.0566
0.20925 -0.0082202004 1.0575
0.21123999 -0.0082278997 1.0585001
0.21311 -0.0082310997 1.0589
0.21486001 -0.0082296003 1.0587
0.21668001 -0.0082307998 1.0588
0.21997 -0.010094 1.0661
0.22011 -0.0082924999 1.0668
0.22386 -0.010189 1.0761
0.22367001 -0.0083582997 1.0752
0.18708 -0.0063427002 1.0434999
0.1899 -0.0063780001 1.0493
0.19236 -0.0064009 1.0531
0.19414 -0.0064007998 1.0531
0.19595 -0.0064018001 1.0532
0.19776 -0.0064027002 1.0534
0.19966 -0.0064065 1.054
0.20152999 -0.0064094998 1.0545
0.20349 -0.0064149001 1.0554
0.20547999 -0.0064213001 1.0563999
0.20749 -0.0064284001 1.0576
0.20949 -0.0064348001 1.0587
0.2115 -0.0064416998 1.0598
0.21343 -0.0064456998 1.0605
0.21528 -0.0064474 1.0607001
0.21727 -0.0064532999 1.0617
0.22041 -0.0064928001 1.0682
0.22364999 -0.0065349001 1.0750999
0.22742 -0.0084295999 1.0844001
0.22702999 -0.0065802 1.0826
0.18915001 -0.0045812 1.0452
0.19201 -0.0046072998 1.0512
0.19414 -0.0046158 1.0531
0.19597 -0.0046168999 1.0534
0.19780999 -0.0046182 1.0536
0.19972999 -0.0046215001 1.0544
0.20166001 -0.0046247998 1.0552
0.20367 -0.0046299002 1.0563
0.20568 -0.0046350998 1.0575
0.20774999 -0.0046414998 1.0589
0.2098 -0.0046472 1.0602
0.21183001 -0.0046522999 1.0614001
0.21378 -0.0046557998 1.0622
0.21573 -0.0046591 1.063
0.21785 -0.0046660001 1.0645
0.22074001 -0.0046890001 1.0698
0.22374 -0.0047141998 1.0755
0.22679999 -0.0047402 1.0815001
0.23039 -0.0066240998 1.0898
0.19089 -0.0028089001 1.045
0.19343001 -0.0028202999 1.0492001
0.19566 -0.0028269 1.0517
0.19788 -0.0028331999 1.054
0.19981 -0.0028351999 1.0548
0.20589 -0.0028454 1.0585999
0.20801 -0.0028498999 1.0603
0.21010999 -0.0028541 1.0618
0.21214999 -0.0028573 1.063
0.2141 -0.0028593999 1.0638
0.21614 -0.0028625999 1.0650001
0.21833999 -0.0028679001 1.0669
0.22099 -0.0028788999 1.0711
0.22373 -0.0028909 1.0755
0.19675 -0.0010405 1.048
0.20818999 -0.0010535 1.0612
0.21028 -0.001055 1.0626
0.21231 -0.0010562 1.0638
0.21428999 -0.0010571 1.0647
0.21635 -0.0010583 1.066
0.2186 -0.0010605 1.0682
0.14828999 -0.019789999 1.0077
0.1455 -0.017947 1.0002
0.14851999 -0.01811 1.0092
0.1471 -0.016431 1.0112
0.14940999 -0.016496999 1.0152
0.15132999 -0.018243 1.0167
0.15149 -0.016536999 1.0177
0.15384001 -0.018337 1.0219001
0.15328 -0.016545 1.0182
0.14432999 -0.016310999 1.0038
0.14563 -0.014741 1.0128
0.14792 -0.014799 1.0168
0.14979 -0.014813 1.0178
0.1513 -0.014793 1.0164
0.15286 -0.014778 1.0154001
0.15538 -0.016584 1.0206
0.15469 -0.014789 1.0161
0.15779001 -0.016657 1.0251
0.15681 -0.014826 1.0187
0.14327 -0.012966 1.0082999
0.1464 -0.013093 1.0182
0.14826 -0.013105 1.0192
0.14974999 -0.013085 1.0176001
0.15128 -0.013069 1.0163
0.15286 -0.013057 1.0154001
0.15448 -0.013048 1.0147001
0.15634 -0.01306 1.0157
0.15900999 -0.014871 1.0218
0.15821999 -0.013074 1.0167
0.16121 -0.014915 1.0247999
0.16009 -0.013087 1.0177
0.14399999 -0.011313 1.0134
0.14670999 -0.011391 1.0204
0.14820001 -0.011373 1.0188
0.14971 -0.011357 1.0173
0.15125 -0.011343 1.0161
0.15284 -0.011334 1.0153
0.15446 -0.011327 1.0146
0.15606999 -0.011319 1.0139
0.15769 -0.011313 1.0132999
0.15928 -0.011304 1.0125
0.16222 -0.013119 1.0203
0.16111 -0.011312 1.0132999
0.16432001 -0.01315 1.0226001
0.16292 -0.011318 1.0139
0.16619 -0.013161 1.0235
0.16471 -0.011324 1.0144
0.14154001 -0.0095450003 1.0081
0.14429 -0.0096151996 1.0154999
0.14659999 -0.0096541997 1.0196
0.14811 -0.0096404999 1.0182
0.14964999 -0.0096282 1.0168999
0.15119 -0.0096172998 1.0157
0.15279999 -0.0096103996 1.015
0.15442 -0.0096046999 1.0144
0.15605 -0.0095992004 1.0138
0.15771 -0.0095958998 1.0135
0.1593 -0.0095884996 1.0127
0.1609 -0.0095817 1.012
0.16242 -0.0095704002 1.0108
0.16389 -0.0095568998 1.0093
0.16678999 -0.011349 1.0166
0.16561 -0.0095576001 1.0094
0.16896001 -0.011379 1.0193
0.16744 -0.0095646996 1.0102
0.13821 -0.0094341999 0.99637002
0.13661 -0.0077498001 0.99697
0.13951001 -0.0078181997 1.0058
0.14232001 -0.0078796996 1.0137
0.1446 -0.0079108998 1.0177
0.14652 -0.0079212999 1.0190001
0.14803 -0.0079100998 1.0176001
0.14958 -0.0079009002 1.0164
0.15114 -0.0078926003 1.0153
0.15276 -0.0078876996 1.0147001
0.15439001 -0.0078832004 1.0141
0.15605 -0.0078804996 1.0138
0.15774 -0.0078795999 1.0137
0.15934999 -0.0078745 1.013
0.16097 -0.0078697996 1.0124
0.16249 -0.0078605004 1.0112
0.16393 -0.0078477003 1.0096
0.16534001 -0.0078338003 1.0078
0.16684 -0.0078242002 1.0065
0.1693 -0.0095728999 1.011
0.16835 -0.0078152996 1.0053999
0.17151999 -0.0096017998 1.0141
0.17021 -0.0078226998 1.0063
0.13845 -0.0061414 1.0104001
0.14082 -0.0061704 1.0152
0.14313 -0.0061964998 1.0195
0.14497 -0.0062012998 1.0203
0.14650001 -0.0061932001 1.0189
0.148 -0.0061837998 1.0174
0.14954001 -0.0061765001 1.0161999
0.15108 -0.0061691999 1.015
0.15271001 -0.0061654001 1.0143
0.15433 -0.0061619999 1.0138
0.15601 -0.0061606001 1.0136
0.15773 -0.0061606001 1.0136
0.15934999 -0.0061573 1.013
0.16097 -0.0061535998 1.0124
0.16249 -0.0061463998 1.0112
0.16391 -0.0061356998 1.0095
0.16532999 -0.0061248001 1.0077
0.16682 -0.0061173001 1.0064
0.16833 -0.0061102998 1.0053
0.16989 -0.0061050002 1.0044
0.17248 -0.0078482004 1.0096
0.1718 -0.0061126002 1.0057
0.17516001 -0.0078921001 1.0153
0.17407 -0.0061328001 1.0089999
0.13742 -0.0044507999 1.0154999
0.13978 -0.0044714999 1.0202
0.14167 -0.0044765002 1.0213
0.14352 -0.0044803 1.0222
0.14497 -0.0044718999 1.0203
0.14648999 -0.0044654999 1.0188
0.14797001 -0.0044582002 1.0171
0.14951 -0.0044529 1.0159
0.15106 -0.0044481 1.0148
0.15267 -0.0044450001 1.0141
0.1543 -0.0044425 1.0135
0.15599 -0.0044419998 1.0134
0.15769 -0.0044415998 1.0132999
0.15932 -0.0044391998 1.0128
0.16095001 -0.0044368999 1.0123
0.16247 -0.0044316999 1.0111001
0.16391 -0.0044244998 1.0095
0.16534001 -0.0044172001 1.0078
0.16684 -0.0044117002 1.0065
0.16834 -0.0044062999 1.0053
0.16987 -0.0044018999 1.0043
0.17144001 -0.0043988 1.0036
0.17335001 -0.0044041001 1.0048
0.17676 -0.0061670998 1.0146
0.17563 -0.0044188001 1.0082
0.13632999 -0.0027419999 1.0201
0.13869999 -0.0027548999 1.0249
0.14060999 -0.0027584 1.0262001
0.14207999 -0.0027532 1.0243
0.14352 -0.0027476 1.0222
0.14497 -0.0027423999 1.0202
0.14647 -0.0027381 1.0187
0.14793 -0.0027334001 1.0168999
0.14948 -0.0027300999 1.0157
0.15105 -0.0027274999 1.0147001
0.15265 -0.0027256 1.0140001
0.15428001 -0.002724 1.0134
0.15599 -0.002724 1.0134
0.15767001 -0.0027234999 1.0132
0.1593 -0.002722 1.0127
0.16092999 -0.0027206 1.0122
0.16245 -0.0027174 1.011
0.16391 -0.0027133001 1.0095
0.16537 -0.0027091999 1.0079
0.16687 -0.0027059 1.0067
0.16834 -0.0027022001 1.0053
0.16985001 -0.0026990999 1.0042
0.1714 -0.0026968999 1.0033
0.17298999 -0.0026952999 1.0027
0.17490999 -0.0026986999 1.0039999
0.13716 -0.0010189 1.0263
0.13911 -0.0010205 1.0279
0.14066 -0.0010192 1.0266
0.14214 -0.0010172999 1.0247
0.14358 -0.0010153 1.0227
0.14501999 -0.0010132 1.0206
0.14648999 -0.0010115 1.0189
0.14796001 -0.0010098 1.0171
0.14949 -0.0010085 1.0158
0.15108 -0.0010076 1.0149
0.15268999 -0.0010069 1.0142
0.15431 -0.0010063 1.0136
0.15601 -0.0010062 1.0135
0.15769 -0.001006 1.0132999
0.15929 -0.0010053 1.0125999
0.16091999 -0.0010048 1.0121
0.16245 -0.0010037 1.011
0.16393 -0.0010022999 1.0096
0.16539 -0.0010008001 1.008
0.16689 -0.00099956 1.0068001
0.16835999 -0.00099818001 1.0053999
0.16986001 -0.00099702994 1.0043
0.1714 -0.00099609001 1.0033
0.17298999 -0.00099546998 1.0027
0.17459001 -0.00099491002 1.0021
0.17756 -0.0027133001 1.0094
0.17685001 -0.00099817 1.0053999
0.13478 0.00071739999 1.0214
0.13756999 0.00072302 1.0294
0.13914999 0.00072218 1.0282
0.14071 0.00072125002 1.0269001
0.14221001 0.00072007999 1.0252
0.14365 0.0007186 1.0231
0.14507 0.00071708002 1.0209
0.14653 0.00071577 1.0191
0.14799 0.00071451999 1.0173
0.14951999 0.00071361999 1.016
0.15113001 0.00071311003 1.0153
0.15276 0.00071267999 1.0147001
0.15439001 0.00071227999 1.0141
0.15606 0.00071211997 1.0139
0.15772 0.00071186997 1.0135
0.15933 0.00071137003 1.0128
0.16094001 0.00071093999 1.0122
0.16247 0.00071012002 1.0111001
0.16396999 0.00070923998 1.0098
0.16542 0.00070815999 1.0082999
0.16690999 0.00070723001 1.0069
0.16835999 0.00070616999 1.0053999
0.16986001 0.00070535002 1.0043
0.17138 0.00070461002 1.0032001
0.17297 0.00070416997 1.0026
0.17456999 0.00070377003 1.002
0.17651001 0.00070475001 1.0034
0.17961 -0.0010041 1.0113
0.17888001 0.00070743001 1.0072
0.13517 0.0024560001 1.0244
0.13756 0.0024677999 1.0293
0.13913999 0.0024649 1.0281
0.14071 0.0024621 1.0269001
0.14225 0.0024586001 1.0255001
0.14369 0.0024536999 1.0233999
0.14512999 0.0024486999 1.0214
0.14658999 0.0024443001 1.0195
0.14805 0.0024399001 1.0177
0.14958 0.0024369 1.0164
0.15121 0.0024353999 1.0158
0.15284 0.0024339999 1.0152
0.15448 0.0024329 1.0148
0.15614 0.0024319999 1.0144
0.15778001 0.0024309 1.0139
0.15939 0.0024292001 1.0132
0.161 0.0024277 1.0125999
0.16253 0.0024249 1.0114
0.16404 0.0024220999 1.0102
0.1655 0.0024184 1.0087
0.16697 0.002415 1.0073
0.16838001 0.0024108 1.0056
0.16986001 0.0024077001 1.0043
0.17136 0.0024049999 1.0031
0.17295 0.0024035 1.0025001
0.17455 0.0024021 1.0019
0.17617001 0.0024011 1.0015
0.17814 0.0024049 1.0031
0.18127 0.00071014999 1.0111001
0.18010999 0.0024085001 1.0046
0.13557 0.0042050998 1.0275
0.13759001 0.0042137001 1.0296
0.13919 0.0042093 1.0285
0.14078 0.0042049 1.0274
0.14233001 0.0041994001 1.0261
0.14381 0.0041919998 1.0243
0.14524999 0.0041835001 1.0222
0.14670999 0.0041759 1.0203
0.14816999 0.0041685002 1.0185
0.14968 0.0041626999 1.0171
0.1513 0.0041597998 1.0164
0.15295 0.0041578999 1.0159
0.15459 0.0041561001 1.0154999
0.15624 0.0041541001 1.015
0.15787999 0.0041521001 1.0145
0.15948001 0.0041490998 1.0138
0.16108 0.0041462001 1.0131
0.16261999 0.0041419999 1.012
0.16414 0.0041371002 1.0109
0.16559 0.0041307001 1.0093
0.16704001 0.0041243001 1.0077
0.16845 0.0041171 1.006
0.1699 0.0041109999 1.0045
0.1714 0.0041061998 1.0033
0.17297 0.0041033002 1.0026
0.17456999 0.0041009998 1.002
0.17617001 0.0040988 1.0015
0.1778 0.0040973998 1.0012
0.17939 0.0040950002 1.0006
0.18246999 0.0024172999 1.0082
0.18132 0.0041005998 1.0019
0.13596 0.0059635998 1.0304
0.13764 0.0059612002 1.0299
0.13925 0.0059555001 1.029
0.14083999 0.0059492001 1.0279
0.14241 0.0059421002 1.0267
0.14393 0.0059330999 1.0251
0.14538001 0.0059218002 1.0231
0.14685 0.0059111002 1.0213
0.14832 0.0059012002 1.0196
0.14982 0.0058923 1.0181
0.15143 0.0058880998 1.0173
0.15307 0.0058848001 1.0168
0.15471999 0.0058821999 1.0163
0.15633 0.0058782999 1.0156
0.15797 0.0058753002 1.0151
0.15955 0.0058704 1.0143
0.16114999 0.0058662998 1.0136
0.16271999 0.0058610002 1.0127
0.16424 0.0058543002 1.0115
0.1657 0.0058452999 1.0099
0.16711999 0.0058354 1.0082
0.16853 0.0058251 1.0064
0.16993999 0.0058150999 1.0046999
0.17143001 0.0058082002 1.0035
0.17298999 0.0058034998 1.0027
0.17459001 0.0058002002 1.0021
0.17617001 0.0057965 1.0015
0.1778 0.0057943999 1.0010999
0.17938 0.0057909 1.0005
0.18096 0.0057875002 0.99993998
0.18325 0.0041057998 1.0032001
0.18249001 0.0057823998 0.99905998
0.18523 0.0041121002 1.0048
0.18406001 0.0057784002 0.99838001
0.18758 0.0041264002 1.0082999
0.18591 0.0057836999 0.99928999
0.13327999 0.0076563 1.0232
0.13598999 0.0077121998 1.0306
0.13766 0.0077081998 1.0301
0.13928001 0.0077016 1.0292
0.14086001 0.0076927999 1.028
0.14245 0.0076846001 1.0269001
0.14399 0.0076744002 1.0256
0.14549001 0.0076617999 1.0239
0.14697 0.0076489002 1.0222
0.14847 0.0076370002 1.0206
0.14997999 0.0076262001 1.0191
0.15155999 0.0076188999 1.0182
0.15317 0.0076136002 1.0175
0.15481 0.0076094 1.0168999
0.15642001 0.0076041999 1.0161999
0.15804 0.0075996001 1.0156
0.15964 0.0075940001 1.0148
0.16124 0.0075886999 1.0141
0.16283 0.0075828 1.0132999
0.16436 0.0075742998 1.0122
0.16582 0.0075627998 1.0107
0.16723 0.0075491001 1.0088
0.16861001 0.0075349002 1.0069
0.17 0.0075209001 1.0051
0.17148 0.0075113 1.0038
0.17301001 0.0075042001 1.0028
0.17461 0.0074999002 1.0023
0.17618001 0.0074948999 1.0016
0.17779 0.0074912999 1.0010999
0.17938 0.0074867001 1.0005
0.18096 0.0074823 0.99992001
0.18251 0.0074764998 0.99913001
0.18409 0.0074721002 0.99855
0.18555 0.0074629001 0.99732
0.18825001 0.0058037001 1.0028
0.18771 0.0074820002 0.99987
0.13079 0.0093368003 1.0173
0.1336 0.0094133001 1.0256
0.13596 0.0094571002 1.0304
0.13763 0.0094523001 1.0299
0.13926999 0.0094454 1.0290999
0.14086001 0.0094355997 1.028
0.14247 0.0094266003 1.0271
0.14405 0.0094164005 1.026
0.14559001 0.0094040995 1.0246
0.14711 0.0093906997 1.0232
0.14865001 0.0093783997 1.0218
0.15018 0.0093660001 1.0204999
0.15174 0.0093558999 1.0194
0.15332 0.0093470998 1.0184
0.15494999 0.0093416004 1.0178
0.15654001 0.0093341004 1.017
0.15815 0.0093275001 1.0163
0.15975 0.0093206996 1.0154999
0.16135 0.0093141003 1.0148
0.16294 0.0093067996 1.0140001
0.16449 0.0092973998 1.013
0.16595 0.0092834998 1.0115
0.16735999 0.0092668002 1.0096999
0.16875 0.0092492001 1.0077
0.17012 0.0092310002 1.0058
0.17158 0.0092182001 1.0044
0.17309 0.0092083998 1.0033
0.17467 0.0092019998 1.0026
0.17622 0.0091947997 1.0017999
0.17781 0.0091894995 1.0012
0.17938 0.0091829998 1.0005
0.18096 0.0091776 0.99993998
0.18251 0.0091703003 0.99914998
0.18409 0.0091650002 0.99857002
0.18557 0.0091546001 0.99743998
0.18762 0.0091722002 0.99936002
0.13146 0.011118 1.0225
0.13388 0.011176 1.0278
0.13589001 0.011198 1.0299
0.13756 0.011193 1.0294
0.13922 0.011186 1.0287
0.14083 0.011175 1.0278
0.14245 0.011166 1.0269001
