# .PCD v0.7 - Point Cloud Data file format
VERSION 0.7
FIELDS x y z
SIZE 4 4 4
TYPE F F F
COUNT 1 1 1
WIDTH 1542
HEIGHT 1
VIEWPOINT 0 0 0 1 0 0 0
POINTS 1542
DATA ascii
0.093301997 -0.14363 0.96739
0.095104001 -0.14387999 0.96908998
0.096827999 -0.14401001 0.96994001
0.098541997 -0.14411999 0.97066998
0.10023 -0.14418 0.97110999
0.10193 -0.14426 0.97165
0.10359 -0.1443 0.97188002
0.10526 -0.14432999 0.97210002
0.1069 -0.14432999 0.97207999
0.10853 -0.14431 0.97196001
0.11014 -0.14426 0.97163999
0.11174 -0.14421 0.97131997
0.11335 -0.14416 0.97100002
0.11495 -0.14411999 0.97068
0.11656 -0.14407 0.97038001
0.11816 -0.14403 0.97007
0.11977 -0.14399 0.96985
0.12137 -0.14395 0.96952999
0.12296 -0.14388999 0.96912003
0.1245 -0.14377999 0.9684
0.12594999 -0.14356001 0.96692997
0.12739 -0.14335001 0.96548998
0.12875 -0.14304 0.96342999
0.13015001 -0.14278001 0.96169001
0.13154 -0.14252999 0.95999998
-0.01127 -0.14081 0.95937002
-0.0095602004 -0.13952 0.95058
-0.0079471003 -0.13941 0.94985002
-0.0063379998 -0.13934 0.94936001
-0.0047325999 -0.13933 0.94926
-0.0031274999 -0.13931 0.94916999
-0.0015226 -0.13928001 0.94896001
8.1623999e-05 -0.13922 0.94853997
0.0016847 -0.13918 0.94827998
0.0032870001 -0.13914999 0.94805002
0.0048902999 -0.13917001 0.94814998
0.0064955 -0.13921 0.94848001
0.0081027001 -0.13928001 0.94893003
0.0097102998 -0.13933 0.94926
0.011319 -0.13936999 0.94954997
0.012924 -0.13936999 0.94954997
0.014528 -0.13936 0.94945002
0.016131001 -0.13934 0.94933999
0.017733 -0.13932 0.94922
0.019332999 -0.13929 0.94898999
0.020931 -0.13924 0.94869
0.022527 -0.1392 0.94836998
0.024122 -0.13914999 0.94805002
0.025712 -0.13908 0.94755
0.027299 -0.139 0.94704998
0.028883999 -0.13892999 0.94654
0.030468 -0.13885 0.94600999
0.032046001 -0.13876 0.94538999
0.033619002 -0.13865 0.94467002
0.035192002 -0.13856 0.94405001
0.036770999 -0.13850001 0.94362003
0.038359001 -0.13846999 0.94341999
0.039951 -0.13846 0.94335002
0.041554999 -0.13849001 0.94357002
0.043164 -0.13854 0.94387001
0.044764999 -0.13855 0.94397998
0.046365 -0.13857 0.94406998
0.047961 -0.13857 0.94408
0.049536999 -0.13851 0.94367999
0.051093999 -0.13841 0.94296998
0.052650001 -0.13831 0.94230002
0.054200999 -0.1382 0.94155997
0.055757001 -0.13811 0.94097
0.057331 -0.13807 0.94068998
0.058908999 -0.13804001 0.94049001
0.060485002 -0.13801 0.94028002
0.062073 -0.13801 0.94024998
0.063683003 -0.13805 0.94055003
0.065278001 -0.13806 0.94062001
0.066891 -0.13811 0.94094998
0.068535998 -0.13822 0.94169998
0.070165999 -0.13829 0.94221002
0.071796 -0.13835999 0.94268
0.073468 -0.13851 0.94370002
0.075221002 -0.1388 0.94568002
0.076958999 -0.13905001 0.94739002
0.078739002 -0.13936999 0.94954997
0.080504999 -0.13965 0.95143998
0.082295001 -0.13996001 0.95354998
0.084051996 -0.1402 0.95520002
0.085821003 -0.14045 0.95692003
0.087627001 -0.14075001 0.95897001
0.089483 -0.14112 0.96148998
0.091333002 -0.14147 0.96385998
0.093143001 -0.14174999 0.96574003
0.094976 -0.14205 0.96777999
0.096750997 -0.14225 0.96916997
0.098509997 -0.14242999 0.97035998
0.10024 -0.14255001 0.97122997
0.10196 -0.14267001 0.97201002
0.10364 -0.14272 0.97236001
0.10532 -0.14277001 0.97267997
0.10697 -0.14275999 0.97267002
0.1086 -0.14274999 0.97254997
0.1102 -0.1427 0.97222
0.11181 -0.14264999 0.97187001
0.11341 -0.1426 0.97153002
0.11501 -0.14255001 0.97119999
0.11662 -0.1425 0.97088999
0.11824 -0.14247 0.97069001
0.11986 -0.14246 0.97057998
0.12149 -0.14244001 0.97048002
0.12311 -0.14241 0.97027999
0.12469 -0.14235 0.96986002
0.12617999 -0.14218 0.96869999
0.12763999 -0.14198001 0.96735001
-0.012898 -0.13925 0.95978999
-0.011172 -0.13797 0.95102
-0.0095560998 -0.13785 0.95016998
-0.0079445997 -0.13776 0.94954002
-0.0063359002 -0.13768999 0.94904
-0.0047304998 -0.13766 0.94884002
-0.0031258001 -0.13763 0.94863999
-0.0015216999 -0.1376 0.94843
8.1557999e-05 -0.13754 0.94801003
0.0016838 -0.1375 0.94775999
0.0032852001 -0.13747001 0.94752997
0.0048881001 -0.1375 0.94771999
0.0064933002 -0.13756 0.94817001
0.0081010005 -0.13764 0.94871998
0.0097092995 -0.13770001 0.94915998
0.011319 -0.13776 0.94954997
0.012924 -0.13776 0.94954997
0.014527 -0.13775 0.94945002
0.016131001 -0.13773 0.94933999
0.017733 -0.13771001 0.94920999
0.019334 -0.13767999 0.94901001
0.020931 -0.13764 0.94870001
0.022524999 -0.13758001 0.94827002
0.024117 -0.13751 0.94783998
0.025706001 -0.13744 0.94733
0.02729 -0.13734999 0.94673002
0.028872 -0.13726 0.94612002
0.030451 -0.13717 0.94549
0.032024998 -0.13707 0.94476002
0.033592999 -0.13695 0.94396001
0.035165999 -0.13686 0.94334
0.036743999 -0.13680001 0.94291002
0.038332999 -0.13677999 0.94278997
0.039928 -0.13677999 0.94282001
0.041531999 -0.13682 0.94304001
0.043132 -0.13683 0.94316
0.044725999 -0.13683 0.94316
0.046316002 -0.13682 0.94305998
0.047905002 -0.13681 0.94296998
0.049479 -0.13675 0.94257998
0.05105 -0.13669001 0.94217002
0.052618001 -0.13663 0.94173002
0.054186001 -0.13657001 0.94130999
0.055755001 -0.13651 0.94092
0.05734 -0.1365 0.94082999
0.058929998 -0.1365 0.94081998
0.060520001 -0.13649 0.94081002
0.062121999 -0.13652 0.94098997
0.063744999 -0.13659 0.94147003
0.065352999 -0.13662 0.94171
0.066981003 -0.1367 0.94221997
0.068639003 -0.13683 0.94309998
0.070280999 -0.13692001 0.94375002
0.071920998 -0.13699999 0.94432998
0.073595002 -0.13715 0.94533002
0.075336002 -0.13741 0.94712001
0.077068001 -0.13764 0.94872999
0.078835003 -0.13793001 0.95069999
0.080586001 -0.13817 0.95240003
0.082359999 -0.13845 0.95429999
0.084082998 -0.13863 0.95554
0.085796997 -0.13879 0.95665002
0.087532997 -0.13898 0.95795
0.089334004 -0.13925999 0.95989001
0.091127999 -0.13953 0.96170998
0.092937 -0.1398 0.96359998
0.094797999 -0.14014 0.96596998
0.096634001 -0.14044 0.96799999
0.098447002 -0.14069 0.96973997
0.10023 -0.14089 0.97114998
0.10199 -0.14105 0.97224998
0.10369 -0.14114 0.97280997
0.10538 -0.14120001 0.97321999
0.10704 -0.14121 0.97332001
0.10868 -0.14121 0.97330999
0.11029 -0.14116 0.97299999
0.1119 -0.14111 0.97264999
0.1135 -0.14105999 0.97228003
0.11509 -0.14099 0.97182
0.11668 -0.14093 0.97140998
0.1183 -0.1409 0.97119999
0.11993 -0.14089 0.97109002
0.12155 -0.14087 0.97099
0.12422 -0.14204 0.97902
-0.014411 -0.13659 0.95257998
-0.012783 -0.13639 0.95124
-0.011166 -0.13629 0.95049
-0.0095520001 -0.13618 0.94976002
-0.0079418998 -0.13610999 0.94923002
-0.0063336999 -0.13603 0.94870001
-0.0047283 -0.13598999 0.94839001
-0.003124 -0.13594 0.94808
-0.0015209001 -0.13591 0.94788003
8.1519996e-05 -0.13586999 0.94757003
0.0016831 -0.13584 0.94735003
0.0032839 -0.13581 0.94713998
0.0048865001 -0.13585 0.94743001
0.0064919 -0.13592 0.94796997
0.0080992999 -0.13601001 0.94853002
0.0097083002 -0.13608 0.94906998
0.011319 -0.13615 0.94954997
0.012924 -0.13615 0.94954997
0.014528 -0.13614 0.94945002
0.016131001 -0.13612001 0.94935
0.017734 -0.13610999 0.94924003
0.019335 -0.13608 0.94905001
0.020932 -0.13604 0.94875002
0.022526 -0.13598 0.94832999
0.024118001 -0.13591 0.94788003
0.025706001 -0.13584 0.94735003
0.027287001 -0.13573 0.94663
0.028865 -0.13563 0.94590002
0.030443 -0.13553999 0.94525999
0.032014001 -0.13541999 0.94444001
0.033581 -0.1353 0.94362998
0.035156999 -0.13522001 0.94309002
0.036734 -0.13516 0.94265997
0.038320001 -0.13513 0.94246
0.039912999 -0.13514 0.94247001
0.041512001 -0.13515 0.94257998
0.043102 -0.13514 0.9425
0.044690002 -0.13513 0.94239998
0.046271998 -0.13510001 0.94217998
0.047855001 -0.13507 0.94198
0.049426999 -0.13501 0.94160002
0.051008001 -0.13497999 0.94138998
0.052588001 -0.13495 0.94117999
0.054166999 -0.13492 0.94097
0.055746 -0.13489 0.94077998
0.057337001 -0.13489 0.94077998
0.058928002 -0.1349 0.94079
0.060525 -0.13491 0.94089001
0.062128 -0.13494 0.94108999
0.063753001 -0.13501 0.94159001
0.065374002 -0.13507 0.94202
0.067024 -0.13519 0.94282001
0.068691 -0.13533001 0.94383001
0.070350997 -0.13545001 0.94468999
0.072006002 -0.13556001 0.94543999
0.073674001 -0.13569 0.94634998
0.075384997 -0.13589001 0.94774002
0.077101998 -0.13609 0.94915003
0.078844003 -0.13632999 0.95081002
0.080587 -0.13655999 0.95240998
0.082353003 -0.13682 0.95422
0.084066004 -0.13698 0.95536
0.085759997 -0.13710999 0.95622998
0.087461002 -0.13723999 0.95716
0.089210004 -0.13744 0.95857
0.090952002 -0.13763 0.95985001
0.092736997 -0.13787 0.96153003
0.094595 -0.13821 0.96390003
0.096473001 -0.13857 0.96639001
0.098339997 -0.13889 0.96868002
0.10019 -0.13919 0.97074002
0.10199 -0.13941 0.97226
0.10374 -0.13954 0.97320998
0.10545 -0.13963 0.97382998
0.10712 -0.13966 0.97403997
0.10878 -0.13968 0.97416002
0.1104 -0.13965 0.97397
0.112 -0.13959 0.97354001
0.11359 -0.13952 0.97307003
0.11613 -0.14060999 0.98062003
-0.019484 -0.1383 0.96454
-0.021131 -0.13677 0.96526998
-0.019299001 -0.13537 0.95538998
-0.017674999 -0.13692001 0.95489001
-0.017664 -0.13522001 0.95431
-0.016042 -0.13676 0.95378
-0.016032999 -0.13506 0.95322001
-0.014403 -0.13489 0.95203
-0.012777 -0.13472 0.95077997
-0.011161 -0.13461 0.95006001
-0.0095477998 -0.13451 0.94935
-0.0079383999 -0.13444 0.94881999
-0.0063307998 -0.13436 0.94827998
-0.0047260001 -0.13431001 0.94793999
-0.0031222 -0.13426 0.94753999
-0.0015202001 -0.13424 0.94744003
8.1528997e-05 -0.13421001 0.94724
0.0016827 -0.13420001 0.94713998
0.0032835 -0.13418999 0.94704002
0.0048865001 -0.13424 0.94743001
0.0064919 -0.13432001 0.94796997
0.0080992999 -0.1344 0.94853002
0.0097083002 -0.13447 0.94906998
0.011319 -0.13454001 0.94954997
0.012924 -0.13454001 0.94954997
0.014528 -0.13452999 0.94946003
0.016132999 -0.13452999 0.94945002
0.017738 -0.13452999 0.94945002
0.019340999 -0.13451 0.94936001
0.020942001 -0.13449 0.94916999
0.022536 -0.13443001 0.94875002
0.024126999 -0.13435 0.94822001
0.025712 -0.13426 0.94757003
0.027287999 -0.13413 0.94665003
0.028863 -0.13401 0.94581997
0.030440001 -0.13392 0.94515997
0.032007001 -0.13379 0.94423997
0.033569999 -0.13366 0.94331998
0.035145 -0.13358 0.94278002
0.036719002 -0.13350999 0.94226003
0.0383 -0.13347 0.94196999
0.039891999 -0.13347 0.94196999
0.041489001 -0.13348 0.94207001
0.043072999 -0.13346 0.94187999
0.044654999 -0.13342001 0.94164997
0.04623 -0.13337 0.94130999
0.047805 -0.13333 0.94098997
0.049376 -0.13327999 0.94060999
0.050960001 -0.13326 0.94050997
0.052545 -0.13325 0.94041002
0.054129001 -0.13323 0.94032001
0.055713002 -0.13322 0.94022
0.057303 -0.13322 0.94022
0.058899 -0.13323 0.94032001
0.060502 -0.13326 0.94054002
0.062107 -0.13330001 0.94076997
0.063732997 -0.13337 0.94129002
0.065361001 -0.13345 0.94182003
0.067019001 -0.13358 0.94274002
0.068687998 -0.13372 0.94378
0.070355996 -0.13386001 0.94475001
0.072008997 -0.13397001 0.94549
0.073669001 -0.13407999 0.94628
0.075346999 -0.13422 0.94726998
0.077045001 -0.13439 0.94845003
0.078766003 -0.13459 0.94986999
0.080505997 -0.13481 0.95144999
0.082271002 -0.13507 0.95327002
0.083993003 -0.13525 0.95451999
0.085676 -0.13536 0.95529002
0.087346002 -0.13544001 0.95590001
0.089060001 -0.13559 0.95695001
0.090758003 -0.13571 0.95779997
0.092509001 -0.13590001 0.95915997
0.094342999 -0.13620999 0.96133
0.096265003 -0.13663 0.96430999
0.098174997 -0.13702001 0.96706003
0.10008 -0.1374 0.96970999
0.10195 -0.13770001 0.97185999
0.10376 -0.13792001 0.97342002
0.10548 -0.13802999 0.97416002
0.10717 -0.13808 0.97448999
0.10885 -0.13812 0.97482997
0.11048 -0.1381 0.97465998
0.11208 -0.13804001 0.97422999
0.11367 -0.13797 0.97375
0.11876 -0.14176001 0.98869002
0.11725 -0.14027999 0.99005997
-0.022554001 -0.13389 0.95640999
-0.020924 -0.13381 0.95582002
-0.019288 -0.13367 0.95480001
-0.017650001 -0.13349 0.95354998
-0.01602 -0.13334 0.95245999
-0.014392 -0.13316999 0.95128
-0.012769 -0.13302 0.95016003
-0.011156 -0.13293999 0.94963002
-0.0095437001 -0.13285001 0.94893998
-0.0079351002 -0.13277 0.94841999
-0.0063282 -0.1327 0.94787002
-0.0047240001 -0.13265 0.94752997
-0.0031204999 -0.13258 0.94704998
-0.0015195 -0.13258 0.94704002
8.1505001e-05 -0.13257 0.94695002
0.0016823 -0.13257 0.94695002
0.0032832001 -0.13257 0.94695002
0.0048865001 -0.13264 0.94743001
0.0064919 -0.13270999 0.94796997
0.0080992999 -0.13279 0.94853002
0.0097083002 -0.13286 0.94906998
0.011319 -0.13293 0.94954997
0.012924 -0.13293 0.94954997
0.01453 -0.13294999 0.94963998
0.016138 -0.13296001 0.94973999
0.017744999 -0.13297001 0.94985002
0.019351 -0.13297001 0.94985002
0.020955 -0.13296001 0.94975001
0.022547999 -0.13289 0.94924998
0.024137 -0.1328 0.94862002
0.02572 -0.1327 0.94788003
0.027294001 -0.13256 0.94686002
0.028866 -0.13242 0.94591999
0.030440999 -0.13232 0.94516999
0.032003999 -0.13218001 0.94415998
0.033567 -0.13204999 0.94323999
0.035140999 -0.13197 0.94268
0.036715001 -0.1319 0.94216001
0.038288999 -0.13183001 0.94169003
0.039875999 -0.13181999 0.94160002
0.041464001 -0.1318 0.94148999
0.043037001 -0.13175 0.9411
0.044608001 -0.13169 0.94068003
0.046177 -0.13163 0.94023001
0.047745001 -0.13157 0.93980998
0.049313001 -0.13151 0.93940997
0.050900001 -0.13151 0.93940997
0.052489001 -0.13151 0.93940997
0.054083001 -0.13153 0.93950999
0.055677 -0.13154 0.93961
0.057271 -0.13155 0.93970001
0.058865 -0.13157 0.93980002
0.060467999 -0.13160001 0.94001001
0.062072001 -0.13163 0.94023001
0.063703001 -0.13170999 0.94085002
0.065337002 -0.1318 0.94147998
0.066996001 -0.13192999 0.94242001
0.068666004 -0.13208 0.94347
0.070339002 -0.13223 0.94452
0.071978003 -0.13231 0.94507003
0.073628001 -0.13240001 0.94575
0.075281002 -0.13249999 0.94643003
0.076948002 -0.13260999 0.94726002
0.078645997 -0.13277 0.94841999
0.080389999 -0.13301 0.95008999
0.082148999 -0.13325 0.95185
0.083889998 -0.13347 0.95336002
0.085579999 -0.13359 0.95423001
0.087238997 -0.13366 0.95472997
0.088922001 -0.13376001 0.95547003
0.090586998 -0.13383999 0.95599997
0.092299998 -0.13398001 0.95700002
0.094097003 -0.13423 0.95881999
0.095983997 -0.1346 0.96148998
0.097920999 -0.13503 0.96455997
0.099873997 -0.13547 0.96767998
0.10179 -0.13584 0.97034001
0.10452 -0.13727 0.98053998
-0.024180001 -0.13395 0.95678997
-0.025815001 -0.13241 0.95744002
-0.024180001 -0.13232 0.95677
-0.022552 -0.13225999 0.95633
-0.020918 -0.13214999 0.95554
-0.019278999 -0.13199 0.95437002
-0.017638 -0.13179 0.95291001
-0.016008999 -0.13164 0.95183003
-0.014384 -0.13149001 0.95076001
-0.012763 -0.13135 0.94973999
-0.011151 -0.13128 0.94923002
-0.0095405001 -0.13119 0.94862002
-0.0079325 -0.13112 0.94810998
-0.0063260999 -0.13105001 0.94757003
-0.0047231 -0.13101999 0.94734001
-0.0031202 -0.13096 0.94695002
-0.0015194 -0.13096 0.94695002
8.1505001e-05 -0.13096 0.94695002
0.0016823 -0.13096 0.94695002
0.0032832001 -0.13096 0.94695002
0.0048865001 -0.13102999 0.94743001
0.0064925002 -0.13112 0.94805998
0.0081010005 -0.13121 0.94871998
0.0097113997 -0.1313 0.94936001
0.011323 -0.13138001 0.94994998
0.01293 -0.13139001 0.95003998
0.014538 -0.1314 0.95014
0.016146 -0.13142 0.95025003
0.017755 -0.13144 0.95036
0.01936 -0.13142 0.95028001
0.020964 -0.13141 0.95016998
0.022558 -0.13134 0.94966
0.024145 -0.13124 0.94893003
0.025730999 -0.13115001 0.94827998
0.027308 -0.13101999 0.94735003
0.028878 -0.13088 0.94633001
0.030451 -0.13076 0.94547999
0.032014001 -0.13062 0.94445002
0.033571001 -0.13045999 0.94334
0.035142001 -0.13037001 0.94269001
0.036715001 -0.1303 0.94217002
0.038284998 -0.13022 0.94160002
0.039868001 -0.13019 0.94138998
0.041450001 -0.13016 0.94117999
0.043017998 -0.1301 0.94068003
0.044583999 -0.13003001 0.94016999
0.046147998 -0.12995 0.93963999
0.047710001 -0.12988 0.93911999
0.049270999 -0.12981001 0.93861997
0.050857 -0.12981001 0.9386
0.052444998 -0.12981001 0.93861997
0.054044001 -0.12984 0.93883002
0.055643 -0.12987 0.93904001
0.057241999 -0.12988999 0.93922001
0.058835 -0.12991001 0.93931001
0.060435999 -0.12993 0.93950999
0.062038001 -0.12996 0.93971997
0.063660003 -0.13003001 0.94022
0.065292999 -0.13011999 0.94082999
0.066949002 -0.13025001 0.94177002
0.068611003 -0.13038 0.94272
0.070275001 -0.13051 0.94366997
0.071911 -0.13057999 0.94420999
0.073551998 -0.13066 0.94477999
0.075179003 -0.13071001 0.94515002
0.076825999 -0.13079999 0.94575
0.078510001 -0.13094001 0.94678003
0.080251999 -0.13117 0.94845003
0.082010999 -0.13142 0.95025998
0.083769001 -0.13166 0.95197999
0.085477002 -0.13180999 0.95306998
0.087142996 -0.13189 0.95367002
0.088813998 -0.13198 0.95431
0.090457 -0.13202 0.95463002
0.092134997 -0.13212 0.95529002
0.093874998 -0.13229001 0.95656002
0.095701002 -0.13258 0.95864999
0.097580001 -0.13293 0.9612
0.10039 -0.13452999 0.97271001
-0.025800999 -0.13072 0.95692003
-0.024168 -0.13063 0.95630002
-0.022541 -0.13057999 0.95586002
-0.020907 -0.13045999 0.95503998
-0.019269001 -0.1303 0.95387
-0.017628999 -0.1301 0.95240003
-0.016001999 -0.12997 0.95141
-0.014379 -0.12984 0.95045
-0.012759 -0.12970001 0.94945002
-0.011148 -0.12963 0.94892001
-0.0095381998 -0.12955 0.94839001
-0.0079306001 -0.12948 0.94788003
-0.0063247001 -0.12941 0.94735998
-0.0047225999 -0.1294 0.94724
-0.0031202 -0.12936001 0.94695002
-0.0015194 -0.12936001 0.94695002
8.1482001e-05 -0.12937 0.94704002
0.0016825 -0.12937 0.94704998
0.0032835 -0.12937 0.94704998
0.0048876 -0.12944999 0.94761997
0.0064945002 -0.12955 0.94835001
0.0081035998 -0.12964 0.94904
0.0097156996 -0.12975 0.94979
0.01133 -0.12984 0.95046997
0.012938 -0.12985 0.95056999
0.014546 -0.12987 0.95068002
0.016155001 -0.12988 0.95078999
0.017765 -0.12989999 0.95091999
0.019370999 -0.12988999 0.95084
0.020974001 -0.12986 0.95062
0.022568 -0.12978999 0.95007998
0.024155 -0.12967999 0.94933999
0.025739999 -0.12958001 0.94861001
0.027317001 -0.12946001 0.94768
0.028888 -0.12932 0.94665003
0.030458 -0.12919 0.94569999
0.032017998 -0.12903 0.94457
0.033574998 -0.12887999 0.94344002
0.035142001 -0.12878001 0.94269001
0.036715001 -0.12871 0.94217002
0.038279999 -0.12861 0.94148999
0.039859001 -0.12857001 0.94117999
0.041435 -0.12852 0.94082999
0.043001998 -0.12845001 0.94032001
0.044564001 -0.12837 0.93974
0.046128001 -0.1283 0.93923002
0.047688998 -0.12823001 0.93870997
0.049247999 -0.12816 0.93818003
0.050827999 -0.12814 0.93807
0.052420001 -0.12816 0.93818003
0.054026 -0.12820999 0.93852001
0.055631001 -0.12825 0.93883997
0.057236001 -0.12829 0.93913001
0.058828998 -0.1283 0.93922001
0.060423002 -0.12830999 0.93931001
0.062017001 -0.12833001 0.93940997
0.063625999 -0.12837 0.93971002
0.065242998 -0.12842 0.94011998
0.066882998 -0.12852 0.94084001
0.068527997 -0.12862 0.94158
0.070175 -0.12873 0.94231999
0.071800999 -0.12878001 0.94274998
0.073425002 -0.12884 0.94313997
0.075033002 -0.12886 0.94331998
0.076660998 -0.12892 0.94371998
0.078332998 -0.12904 0.94463998
0.080054 -0.12924001 0.94612002
0.081818998 -0.12951 0.94802999
0.083599001 -0.12977999 0.95005
0.085337996 -0.12998 0.95152998
0.087030999 -0.13011 0.95244998
0.088728003 -0.13023999 0.95337999
0.090378001 -0.13029 0.95379001
0.092033997 -0.13034999 0.95424002
0.093728997 -0.13046999 0.95507002
0.095494002 -0.13067 0.95657998
0.097306997 -0.13094001 0.95850998
-0.025774 -0.12896 0.95592999
-0.024146 -0.12890001 0.95542997
-0.02252 -0.12884 0.95499003
-0.020887 -0.12872 0.95411998
-0.019252 -0.12858 0.95305002
-0.017617 -0.1284 0.95178002
-0.015993999 -0.12829 0.95090997
-0.014375 -0.12819 0.95016003
-0.012757 -0.12806 0.94926
-0.011146 -0.12800001 0.94881999
-0.0095370002 -0.12793 0.94827002
-0.0079295002 -0.12785999 0.94774997
-0.0063240002 -0.12779 0.94726002
-0.0047225002 -0.12779 0.94722998
-0.0031202 -0.12774999 0.94695002
-0.0015195 -0.12775999 0.94704002
8.1530998e-05 -0.12779 0.94724
0.0016831 -0.12781 0.94735003
0.0032850001 -0.12782 0.94746
0.0048901001 -0.12791 0.94813001
0.0064980001 -0.12801 0.94885999
0.0081080999 -0.12811001 0.94955999
0.0097222999 -0.12822001 0.95042998
0.011338 -0.12831999 0.95113999
0.012947 -0.12833001 0.95125002
0.014557 -0.12835 0.95134002
0.016167 -0.12836 0.95144999
0.017774999 -0.12836 0.95147002
0.019382 -0.12835 0.95138001
0.020982999 -0.12830999 0.95106
0.022577999 -0.12823001 0.95051003
0.024165999 -0.12813 0.94976002
0.025752001 -0.12803 0.94902998
0.02733 -0.12791 0.94810998
0.028901 -0.12777001 0.94709003
0.030468 -0.12763 0.94603002
0.032024998 -0.12746 0.94476998
0.033578001 -0.12729 0.94353002
0.035140999 -0.12718 0.94268
0.036715001 -0.12711 0.94216001
0.038276002 -0.127 0.94139999
0.03985 -0.12695 0.94097
0.041421 -0.12688001 0.94050997
0.042982999 -0.1268 0.93989998
0.044539999 -0.12671 0.93923002
0.046103001 -0.12664001 0.93871999
0.047662999 -0.12657 0.93818998
0.049221002 -0.1265 0.93765998
0.050799999 -0.12648 0.93753999
0.052391 -0.1265 0.93765998
0.053996 -0.12655 0.93800998
0.055606999 -0.1266 0.93844002
0.057213001 -0.12665001 0.93875003
0.058812 -0.12667 0.93893999
0.060405001 -0.12668 0.93902999
0.061999001 -0.1267 0.93913001
0.063593 -0.12671 0.93923002
0.065195002 -0.12673999 0.93943
0.066804998 -0.12678 0.93972999
0.068430997 -0.12684999 0.94024003
0.07006 -0.12692 0.94077998
0.071675003 -0.12695999 0.94111001
0.073296003 -0.12702 0.94148999
0.074918002 -0.12706999 0.94186002
0.076543003 -0.12712 0.94226998
0.078220002 -0.12726 0.94327998
0.079930998 -0.12744001 0.94466001
0.081698 -0.12771 0.94663
0.083475001 -0.12797999 0.94863999
0.085222997 -0.12819999 0.95025003
0.086925998 -0.12834001 0.95130002
0.088643 -0.1285 0.95247
0.090294003 -0.12856001 0.95289999
0.091940001 -0.1286 0.95326
0.093601003 -0.12867001 0.95376998
0.095299996 -0.12879001 0.95463997
0.097037002 -0.12895 0.95585001
-0.025723999 -0.12709001 0.95403999
-0.024103999 -0.12706 0.95376998
-0.022487 -0.12703 0.95358998
-0.020861 -0.12694 0.95292997
-0.019233 -0.12683 0.95208001
-0.017604001 -0.12669 0.95104998
-0.015985001 -0.1266 0.95038003
-0.014369 -0.12651999 0.94976002
-0.012753 -0.12642001 0.94897002
-0.011143 -0.12636 0.94853002
-0.0095349997 -0.12630001 0.94808
-0.0079279002 -0.12623 0.94756001
-0.0063234 -0.12616999 0.94716001
-0.0047225002 -0.12617999 0.94722998
-0.0031208999 -0.12616999 0.94713998
-0.00152 -0.12620001 0.94734001
8.1532999e-05 -0.12624 0.94765002
0.001684 -0.12627 0.94787002
0.0032868001 -0.12628999 0.94800001
0.0048929001 -0.12638 0.94867003
0.0065024002 -0.12649 0.94950002
0.0081137 -0.12658 0.95020998
0.00973 -0.12671 0.95117998
0.011346 -0.12681 0.95188999
0.012958 -0.12683 0.95209002
0.014568 -0.12683 0.95208001
0.016178999 -0.12684 0.95217001
0.017787 -0.12683 0.95208001
0.019393999 -0.12682 0.95197999
0.020992 -0.12675001 0.95147002
0.022588 -0.12668 0.95091999
0.024176 -0.12658 0.95016998
0.025762999 -0.12648 0.94944
0.027341999 -0.12636 0.94853997
0.028917 -0.12623 0.94760001
0.030482 -0.12608001 0.94643998
0.032035001 -0.1259 0.94507003
0.033583999 -0.12571999 0.94371003
0.035145 -0.12559 0.94277
0.036715001 -0.12551001 0.94216001
0.038276002 -0.12541001 0.94139999
0.039845999 -0.12534 0.94088
0.041412 -0.12526 0.94032001
0.042973001 -0.12518001 0.93970001
0.044525001 -0.12508 0.93892002
0.046083 -0.125 0.93831998
0.047637001 -0.12491 0.93769002
0.049185 -0.12482 0.93698001
0.050747 -0.12477 0.93658
0.052326001 -0.12476 0.93650001
0.053923 -0.12479 0.93673003
0.055532001 -0.12484 0.93717003
0.057147 -0.12491 0.93766999
0.058757 -0.12496 0.93805999
0.060361002 -0.125 0.93835002
0.061960999 -0.12503 0.93855
0.063553996 -0.12503999 0.93864
0.065146998 -0.12504999 0.93873
0.066739999 -0.12506001 0.93882
0.068347998 -0.1251 0.93910003
0.069964997 -0.12515999 0.93950999
0.071579002 -0.1252 0.93983001
0.073197998 -0.12525 0.94023001
0.074826002 -0.12532 0.94071001
0.076457001 -0.12537999 0.94120997
0.078134 -0.12552001 0.94224
0.079839997 -0.1257 0.94357997
0.081596002 -0.12594999 0.94543999
0.083366998 -0.12621 0.94740999
0.085124001 -0.12644 0.94914001
0.086838 -0.1266 0.95033002
0.088565998 -0.12677 0.95165002
0.090235002 -0.12685999 0.95227998
0.091889001 -0.12692 0.95274001
0.093551002 -0.12699001 0.95326
0.095200002 -0.12704 0.95363998
0.096869998 -0.12711 0.95420998
-0.025676999 -0.12525 0.95230001
-0.024064001 -0.12523 0.95218998
-0.022453001 -0.12523 0.95216
-0.020832 -0.12515999 0.95163
-0.019211 -0.12507001 0.95099002
-0.017588001 -0.12497 0.95016998
-0.015973 -0.1249 0.94964999
-0.014359 -0.12483 0.94914001
-0.012747 -0.12475 0.94854999
-0.011138 -0.1247 0.94813001
-0.0095320996 -0.12465 0.94778001
-0.0079271998 -0.12461 0.94746
-0.0063240002 -0.12458 0.94725001
-0.0047236001 -0.12461 0.94744003
-0.0031222 -0.12462 0.94755
-0.0015208001 -0.12466 0.94786
8.1605998e-05 -0.1247 0.94818002
0.001685 -0.12474 0.94841999
0.0032887 -0.12475 0.94854999
0.0048957998 -0.12484 0.94923002
0.0065068998 -0.12496 0.95015001
0.0081198998 -0.12507001 0.95095003
0.0097383996 -0.12521 0.95200998
0.011357 -0.12531 0.95280999
0.012972 -0.12535 0.95310998
0.014582 -0.12534 0.95300001
0.016193001 -0.12533 0.95297998
0.017797999 -0.12530001 0.95267999
0.019404 -0.12526999 0.95247
0.020998999 -0.12518001 0.95177001
0.022595 -0.1251 0.95122999
0.024184 -0.12501 0.95047998
0.025774 -0.12492 0.94985002
0.027354 -0.12481 0.94894999
0.028929999 -0.12468 0.94802999
0.030492 -0.12452 0.94676
0.032042 -0.12432 0.94528002
0.033589002 -0.12413 0.94383001
0.035145 -0.12399 0.94278002
0.036715001 -0.12391 0.94216001
0.038279999 -0.12382 0.94148999
0.039850999 -0.12376 0.94098997
0.041416999 -0.12369 0.94044
0.042973999 -0.12359 0.93971002
0.044520002 -0.12347 0.93882
0.046066999 -0.12337 0.93800998
0.047612 -0.12326 0.93719
0.049148999 -0.12314 0.93629003
0.050698001 -0.12306 0.93567002
0.052262999 -0.12302 0.93537003
0.053845 -0.12302 0.93537998
0.055450998 -0.12307 0.93579
0.057059001 -0.12313 0.93621999
0.058674 -0.1232 0.93673003
0.060288999 -0.12326 0.93721998
0.061900001 -0.12332 0.93763
0.063492998 -0.12333 0.93774998
0.065084003 -0.12334 0.93782997
0.066666998 -0.12334 0.93778998
0.068256997 -0.12335 0.93786001
0.069858998 -0.12337 0.93807
0.071470998 -0.12342 0.93842
0.073089004 -0.12347 0.93883002
0.074730001 -0.12356 0.93950999
0.076375 -0.12366 0.94020998
0.078059003 -0.1238 0.94134003
0.079764001 -0.12398 0.94268
0.081524 -0.12424 0.94462001
0.083286002 -0.12448 0.94648999
0.085038997 -0.12471 0.94819999
0.086759001 -0.12487 0.94946998
0.088496 -0.12506001 0.95089
0.090173997 -0.12515999 0.95164001
0.091835998 -0.12523 0.95218998
0.093497001 -0.12530001 0.95270997
0.095147997 -0.12535 0.95310998
0.096771002 -0.12537 0.95323002
-0.027240001 -0.12342 0.95068002
-0.025636001 -0.12344 0.9508
-0.024026001 -0.12342 0.95068002
-0.022415999 -0.12341 0.95058
-0.0208 -0.12335 0.95016003
-0.019183001 -0.12329 0.94964999
-0.017566999 -0.12321 0.94902998
-0.015957 -0.12317 0.94871002
-0.014348 -0.12312 0.94839001
-0.01274 -0.12307 0.94801003
-0.011134 -0.12304 0.94778001
-0.0095308004 -0.12303 0.94765002
-0.0079277996 -0.12301 0.94753999
-0.0063260002 -0.12302 0.94756001
-0.0047256998 -0.12306 0.94787002
-0.003124 -0.12308 0.94808
-0.0015218999 -0.12314 0.94850999
8.1662998e-05 -0.12319 0.94892001
0.0016864 -0.12324 0.94924998
0.0032919999 -0.12326 0.94946003
0.0049009998 -0.12336 0.95023
0.0065131001 -0.12347 0.95106
0.0081268996 -0.12356 0.95177001
0.0097458996 -0.12369 0.95274001
0.011365 -0.12378 0.95344001
0.012981 -0.12382 0.95375001
0.014592 -0.12381 0.95363998
0.016204 -0.1238 0.95363998
0.01781 -0.12376 0.95331001
0.019416999 -0.12373 0.95309001
0.02101 -0.12363 0.95227998
0.022607001 -0.12356 0.95173001
0.024196999 -0.12346 0.95098001
0.025784999 -0.12337 0.95025998
0.027363 -0.12324 0.94927001
0.028936001 -0.1231 0.94823998
0.030495999 -0.12293 0.94687998
0.032042999 -0.12272 0.94532001
0.033589002 -0.12253 0.94384998
0.035146002 -0.1224 0.94278997
0.036715001 -0.12232 0.94217002
0.038284998 -0.12224 0.94160002
0.039855 -0.12218 0.9411
0.041418999 -0.1221 0.94047999
0.042966001 -0.12198 0.93954998
0.044502001 -0.12183 0.93844002
0.046034001 -0.12169 0.93733001
0.047566999 -0.12155 0.93629998
0.049095999 -0.12142 0.93528003
0.050636999 -0.12133 0.93453997
0.052191999 -0.12127 0.93409002
0.053764001 -0.12125 0.93397999
0.055362001 -0.12129 0.93428999
0.056961998 -0.12134 0.93462998
0.058575001 -0.12141 0.93515003
0.060194999 -0.12149 0.93576998
0.061811 -0.12155 0.93629003
0.063409999 -0.12158 0.93651998
0.065007001 -0.12161 0.93671
0.066587999 -0.1216 0.93668002
0.068168998 -0.1216 0.93664998
0.069767997 -0.12163 0.93685001
0.071377002 -0.12167 0.93719
0.073009998 -0.12175 0.93781
0.074672997 -0.12188 0.93879002
0.076342002 -0.12201 0.93980002
0.078033 -0.12217 0.94103003
0.079747997 -0.12236 0.9425
0.081491999 -0.12259 0.94424999
0.083236001 -0.1228 0.94591999
0.084976003 -0.12301 0.94748998
0.086692996 -0.12317 0.94875002
0.088427 -0.12335 0.95015001
0.090121999 -0.12347 0.95108998
0.091793001 -0.12356 0.95174003
0.093464002 -0.12364 0.95236999
0.095123999 -0.12371 0.95288002
0.096758999 -0.12374 0.95310998
-0.027208 -0.12167 0.94954997
-0.025603 -0.12167 0.94954997
-0.023995001 -0.12165 0.94945002
-0.022384999 -0.12163 0.94924998
-0.020772999 -0.12159 0.94893003
-0.019161999 -0.12154 0.94861001
-0.017549001 -0.12148 0.94809002
-0.015942 -0.12145 0.94786
-0.014337 -0.12142 0.94765002
-0.012732 -0.1214 0.94746
-0.011129 -0.12138 0.94735003
-0.0095285997 -0.12139 0.94744003
-0.0079277996 -0.12141 0.94753999
-0.0063275001 -0.12144 0.94778001
-0.0047273999 -0.12149 0.94822001
-0.0031254999 -0.12154 0.94854999
-0.0015229 -0.12161 0.94914001
8.1685997e-05 -0.12167 0.94955999
0.0016879 -0.12173 0.95007002
0.0032951999 -0.12177 0.95038998
0.0049063 -0.12188 0.95125997
0.0065202001 -0.12199 0.95209998
0.0081366003 -0.12209 0.95288998
0.0097564999 -0.12221 0.95376998
0.011377 -0.1223 0.95447999
0.012996 -0.12235 0.95488
0.014609 -0.12234 0.95480001
0.016223 -0.12234 0.95479
0.017829999 -0.12228 0.95438999
0.019433999 -0.12223 0.95394999
0.021024 -0.1221 0.95291001
0.022619 -0.12201 0.95225
0.024204999 -0.12189 0.95130998
0.025793999 -0.1218 0.95060003
0.027372001 -0.12167 0.94958001
0.028943 -0.12152 0.94844002
0.030502001 -0.12135 0.94705999
0.032051999 -0.12116 0.94558001
0.033596002 -0.12096 0.94404
0.035153002 -0.12082 0.94299001
0.036726002 -0.12076 0.94244999
0.038295999 -0.12068 0.94187999
0.039864 -0.12061 0.94130999
0.041423999 -0.12052 0.94059002
0.042957999 -0.12036 0.93936002
0.044477999 -0.12018 0.93792999
0.045993 -0.11999 0.93650001
0.047513999 -0.11984 0.93527001
0.049036 -0.11969 0.93414998
0.050579999 -0.11961 0.93348998
0.052127998 -0.11954 0.93295997
0.053693999 -0.11951 0.93274999
0.055282 -0.11954 0.93295002
0.056874 -0.11957 0.93317997
0.058476999 -0.11962 0.93360001
0.060093999 -0.1197 0.93419999
0.061708 -0.11977 0.93472999
0.063307002 -0.1198 0.935
0.064902 -0.11983 0.93520999
0.066482 -0.11982 0.93519002
0.068066999 -0.11983 0.93523997
0.069669999 -0.11987 0.93554002
0.071285002 -0.11993 0.93598002
0.072938003 -0.12004 0.93689001
0.074624002 -0.12021 0.93817002
0.076310001 -0.12037 0.93940997
0.078019999 -0.12055 0.94086999
0.079765998 -0.12079 0.94270998
0.081502996 -0.121 0.94436997
0.083228998 -0.12119 0.94584
0.084957004 -0.12137 0.94727999
0.086662002 -0.12152 0.94840997
0.088370003 -0.12166 0.94954002
0.090065002 -0.12178 0.95049
0.091744997 -0.12188 0.95124
0.093415 -0.12196 0.95187002
0.095073998 -0.12203 0.95238
0.096707001 -0.12206 0.9526
-0.027189 -0.11997 0.94888997
-0.025582001 -0.11996 0.94879001
-0.023974 -0.11994 0.94862002
-0.022360999 -0.11989 0.94822001
-0.020749999 -0.11985 0.94788998
-0.019141 -0.1198 0.94757003
-0.01753 -0.11974 0.94705999
-0.015924999 -0.11971 0.94683999
-0.014323 -0.1197 0.94673002
-0.012723 -0.1197 0.94673997
-0.011122 -0.1197 0.94676
-0.0095247002 -0.11974 0.94704998
-0.0079271002 -0.11979 0.94746
-0.0063284002 -0.11985 0.94791001
-0.0047285999 -0.11992 0.94845003
-0.0031268999 -0.11998 0.94897002
-0.0015237 -0.12007 0.94964999
8.1771002e-05 -0.12012 0.95007998
0.0016889001 -0.12019 0.95062
0.0032971001 -0.12023 0.95095998
0.0049097999 -0.12036 0.95194
0.0065262001 -0.12049 0.95297998
0.0081457999 -0.12061 0.95398003
0.0097685 -0.12074 0.95494998
0.011394 -0.12085 0.95583999
0.013016 -0.12091 0.95633
0.014632 -0.1209 0.95626998
0.016247001 -0.1209 0.95618999
0.017854 -0.12083 0.95568001
0.019455999 -0.12075 0.95502001
0.021043001 -0.12059 0.95376003
0.022635 -0.12048 0.95288998
0.024217 -0.12033 0.95175999
0.025803 -0.12023 0.95091999
0.027378 -0.12009 0.94980001
0.028945001 -0.11993 0.94853997
0.030501001 -0.11974 0.94704998
0.032051999 -0.11955 0.94558001
0.033596002 -0.11936 0.94404
0.035153002 -0.11923 0.94300002
0.036727 -0.11916 0.94247001
0.038300999 -0.1191 0.94199002
0.039868999 -0.11903 0.94142002
0.041416999 -0.1189 0.94041997
0.042939 -0.11872 0.93896002
0.044447001 -0.1185 0.93726999
0.045945998 -0.11828 0.93553001
0.047456 -0.1181 0.93412
0.048982002 -0.11798 0.93311
0.050521001 -0.11789 0.93239999
0.052069001 -0.11782 0.93190002
0.053633001 -0.1178 0.93169999
0.055213999 -0.11781 0.93181002
0.056802001 -0.11784 0.93200999
0.058402002 -0.11789 0.93238997
0.060008999 -0.11795 0.93287998
0.061613999 -0.118 0.93330002
0.063215002 -0.11804 0.93364
0.064808004 -0.11807 0.93384999
0.066393003 -0.11808 0.93393999
0.067978002 -0.11809 0.93401998
0.069586001 -0.11814 0.93440998
0.071198002 -0.1182 0.93484002
0.072865002 -0.11834 0.93594998
0.074568003 -0.11853 0.93747002
0.076281004 -0.11873 0.93904001
0.078006998 -0.11894 0.94071001
0.079775997 -0.11921 0.94283003
0.081505001 -0.1194 0.94439
0.083213001 -0.11956 0.94566
0.084928997 -0.11973 0.94696999
0.086613998 -0.11985 0.94788998
0.088312998 -0.11998 0.94893003
0.090017997 -0.12011 0.94998997
0.091716997 -0.12023 0.95095003
0.093396001 -0.12032 0.95168
0.095082 -0.12042 0.95244998
0.096713997 -0.12045 0.95266002
-0.027179999 -0.11833 0.94859999
-0.025572 -0.1183 0.94840997
-0.02396 -0.11826 0.94806999
-0.022343 -0.11819 0.94747001
-0.020732 -0.11813 0.94704998
-0.019122001 -0.11808 0.94663
-0.017512999 -0.11802 0.94612002
-0.01591 -0.11799 0.94590998
-0.01431 -0.11799 0.94590002
-0.012713 -0.11801 0.94603002
-0.011116 -0.11803 0.94625002
-0.0095207999 -0.11808 0.94665998
-0.0079261996 -0.11817 0.94735003
-0.0063288999 -0.11825 0.94799
-0.0047295 -0.11833 0.94863999
-0.0031279 -0.11841 0.94926
-0.0015243 -0.11851 0.95003998
8.1781996e-05 -0.11856 0.95047998
0.0016897999 -0.11864 0.95113999
0.0032997001 -0.11871 0.95169002
0.0049143001 -0.11885 0.95279998
0.0065329 -0.11899 0.95394999
0.0081559001 -0.11915 0.95516002
0.0097818002 -0.11928 0.95625001
0.01141 -0.11941 0.95726001
0.013036 -0.11947 0.95775998
0.014655 -0.11947 0.95778
0.016272999 -0.11946 0.95769
0.01788 -0.11938 0.95706999
0.019482 -0.11929 0.95630002
0.02107 -0.11913 0.95501
0.022659 -0.11899 0.95390999
0.024235001 -0.11881 0.95248002
0.025816999 -0.11868 0.95143002
0.027387001 -0.11851 0.95008999
0.028945001 -0.11832 0.94853997
0.030498 -0.11812 0.94695002
0.032051999 -0.11795 0.94556999
0.033596002 -0.11776 0.94405001
0.035154 -0.11763 0.94301999
0.036731001 -0.11758 0.94257998
0.038300999 -0.1175 0.94199997
0.039866 -0.11742 0.94134003
0.0414 -0.11726 0.94003999
0.042907 -0.11704 0.93826002
0.044402 -0.1168 0.93633002
0.045889001 -0.11655 0.93436998
0.047389001 -0.11636 0.93279999
0.048923999 -0.11626 0.93200999
0.050473001 -0.1162 0.93151999
0.052026998 -0.11615 0.93114001
0.053599998 -0.11615 0.93112999
0.055186 -0.11617 0.93132001
0.056761999 -0.11618 0.93134999
0.058354001 -0.11621 0.93162
0.059946001 -0.11624 0.93190002
0.061540999 -0.11628 0.93219
0.063132003 -0.11631 0.93241
0.064722002 -0.11633 0.93261999
0.066304997 -0.11634 0.93270999
0.067895003 -0.11637 0.93287998
0.069502003 -0.11642 0.93327999
0.071121 -0.11648 0.93382001
0.072807997 -0.11666 0.93522
0.074533999 -0.11688 0.93703997
0.076270998 -0.11712 0.93892998
0.078015 -0.11736 0.94081002
0.079783998 -0.11762 0.94292998
0.081504002 -0.1178 0.94437999
0.083185002 -0.11792 0.94534999
0.084873997 -0.11805 0.94635999
0.086539 -0.11814 0.94707
0.088228002 -0.11825 0.94801003
0.089922003 -0.11837 0.94897997
0.091631003 -0.11851 0.95006001
0.093309999 -0.1186 0.9508
0.094995998 -0.1187 0.95159
0.096634001 -0.11874 0.95187998
-0.027167 -0.11666 0.94812
-0.025556 -0.11662 0.94780999
-0.023941999 -0.11657 0.94735003
-0.022322999 -0.11648 0.94664001
-0.020711999 -0.11641 0.94612002
-0.019100999 -0.11635 0.94559002
-0.017493 -0.11629 0.94507998
-0.015892001 -0.11626 0.94487
-0.014296 -0.11627 0.94497001
-0.012702 -0.1163 0.94519001
-0.011109 -0.11635 0.94562
-0.0095164999 -0.11643 0.94622999
-0.0079244003 -0.11654 0.94713002
-0.0063282 -0.11663 0.94788003
-0.0047295 -0.11672 0.94862998
-0.0031281 -0.11681 0.94935
-0.0015247 -0.11692 0.95025003
8.1799997e-05 -0.11699 0.95078999
0.0016907 -0.11709 0.95165002
0.0033021001 -0.11719 0.95239002
0.0049188999 -0.11735 0.95370001
0.0065398999 -0.1175 0.95498002
0.0081674997 -0.11769 0.95651001
0.0097981002 -0.11786 0.95784003
0.011431 -0.118 0.95898998
0.013059 -0.11806 0.95950001
0.014683 -0.11807 0.95959002
0.0163 -0.11803 0.95929003
0.017906001 -0.11793 0.95845997
0.019508 -0.11782 0.95757002
0.021096 -0.11765 0.95617002
0.022679999 -0.11748 0.95479
0.024251999 -0.11728 0.95311999
0.025828 -0.11712 0.95185
0.027392 -0.11693 0.95028001
0.028948 -0.11672 0.94862998
0.030501001 -0.11653 0.94704998
0.032058999 -0.11637 0.94576001
0.033603001 -0.11618 0.94424999
0.035161 -0.11606 0.94321001
0.036734998 -0.11599 0.94268
0.038300999 -0.11591 0.94199002
0.039856002 -0.1158 0.94112998
0.041377001 -0.1156 0.93954003
0.042874001 -0.11536 0.93753999
0.044358 -0.11509 0.93539
0.045844 -0.11486 0.93344998
0.047347002 -0.11467 0.93199003
0.048896998 -0.11461 0.93149
0.050455 -0.11458 0.93119001
0.052019 -0.11455 0.93099999
0.053596999 -0.11456 0.93107998
0.055178002 -0.11458 0.93120003
0.056754 -0.11458 0.93123001
0.058341 -0.11461 0.93142003
0.059921 -0.11462 0.93150002
0.061501 -0.11463 0.93159002
0.063083 -0.11464 0.93169999
0.064666003 -0.11465 0.93180001
0.066247001 -0.11466 0.93189001
0.067836002 -0.11469 0.93207002
0.069448002 -0.11475 0.93256003
0.071079001 -0.11483 0.93327999
0.072782002 -0.11503 0.93488002
0.074510001 -0.11526 0.93673998
0.076261997 -0.11552 0.93882
0.078013003 -0.11576 0.94079
0.079774998 -0.11601 0.94281
0.081478 -0.11616 0.94408
0.083149001 -0.11627 0.94493002
0.084817 -0.11636 0.94572002
0.086460002 -0.11642 0.94620001
0.088136002 -0.11653 0.94701999
0.089819998 -0.11663 0.9479
0.091536 -0.11678 0.94907999
0.093225002 -0.11688 0.94994003
0.094921999 -0.117 0.95085001
0.096561998 -0.11704 0.95117003
-0.028757 -0.115 0.94770002
-0.027145 -0.11496 0.94734001
-0.025533 -0.11492 0.94699001
-0.023918999 -0.11485 0.94645
-0.022299999 -0.11475 0.94564003
-0.020688999 -0.11469 0.94509
-0.019081 -0.11462 0.94454998
-0.017472999 -0.11455 0.94396001
-0.015873 -0.11452 0.94373
-0.014279 -0.11453 0.94383001
-0.012686 -0.11456 0.94405001
-0.011097 -0.11462 0.94458997
-0.0095081003 -0.11472 0.9454
-0.0079185003 -0.11485 0.94643003
-0.0063248998 -0.11496 0.94738001
-0.0047280001 -0.11508 0.94834
-0.0031276001 -0.11518 0.94916999
-0.0015246 -0.1153 0.95016998
8.1837003e-05 -0.11538 0.95082003
0.0016909 -0.11549 0.95175999
0.0033028 -0.1156 0.95261002
0.0049200999 -0.11576 0.95393997
0.0065449998 -0.11597 0.95570999
0.0081781 -0.11622 0.95775002
0.0098153995 -0.11644 0.95953
0.011455 -0.11662 0.96101999
0.01309 -0.1167 0.96171999
0.014713 -0.11669 0.96158999
0.016328 -0.11661 0.96095997
0.017929999 -0.11646 0.95973003
0.019528 -0.11632 0.95855999
0.021113999 -0.11613 0.95696002
0.022689 -0.11591 0.95516998
0.024256 -0.11568 0.95328999
0.025826 -0.1155 0.95178002
0.027387001 -0.11529 0.95008999
0.028943 -0.11509 0.94844002
0.030494999 -0.1149 0.94687003
0.032053001 -0.11475 0.94559002
0.033599999 -0.11457 0.94415998
0.035158001 -0.11445 0.94313997
0.036731001 -0.11438 0.94257998
0.038295999 -0.1143 0.94187999
0.039847001 -0.11418 0.94090003
0.041358002 -0.11396 0.93910003
0.042849999 -0.1137 0.93699998
0.044328 -0.11343 0.93478
0.045818999 -0.11321 0.93294001
0.047327001 -0.11305 0.93159002
0.048886001 -0.11301 0.93128002
0.050448999 -0.11298 0.93107998
0.052017 -0.11297 0.93097001
0.053596001 -0.11298 0.93106002
0.055176999 -0.113 0.93118
0.056754 -0.113 0.93122
0.058340002 -0.11303 0.93141001
0.059914 -0.11302 0.9314
0.061489001 -0.11302 0.9314
0.063063003 -0.11302 0.9314
0.064639002 -0.11303 0.93141001
0.066212997 -0.11303 0.93141001
0.0678 -0.11305 0.93158001
0.069412 -0.11311 0.93207002
0.071050003 -0.1132 0.93289
0.072752997 -0.1134 0.93450999
0.074481003 -0.11363 0.93638003
0.076232001 -0.11388 0.93844998
0.077982001 -0.11412 0.94041002
0.079733998 -0.11435 0.94233
0.081433997 -0.1145 0.94357002
0.083102003 -0.1146 0.94440001
0.084758997 -0.11468 0.94507003
0.086391002 -0.11473 0.94545001
0.088054001 -0.11481 0.94613999
0.089723997 -0.1149 0.94689
0.091429003 -0.11503 0.94796002
0.093125999 -0.11515 0.94892001
0.094832003 -0.11528 0.94994998
0.096483 -0.11533 0.95039999
0.098223001 -0.1171 0.95168
0.098144002 -0.11539 0.95091999
-0.02713 -0.11329 0.94685
-0.025517 -0.11324 0.94638997
-0.0239 -0.11316 0.94571
-0.022278 -0.11304 0.9447
-0.020664001 -0.11295 0.94396001
-0.019053999 -0.11286 0.94322997
-0.017448001 -0.11279 0.94261003
-0.015849 -0.11275 0.94230998
-0.014257 -0.11276 0.94239002
-0.012667 -0.11279 0.94261003
-0.011081 -0.11286 0.94323999
-0.0094948001 -0.11296 0.94408
-0.0079092002 -0.11311 0.94532001
-0.0063188998 -0.11325 0.94648999
-0.0047249999 -0.1134 0.94774002
-0.0031262999 -0.11352 0.94876999
-0.0015242 -0.11367 0.94997001
8.1808001e-05 -0.11376 0.95073003
0.0016906 -0.11386 0.95157999
0.0033019001 -0.11395 0.95232999
0.0049172002 -0.11407 0.95337999
0.0065437001 -0.11433 0.95552999
0.0081804004 -0.11463 0.95802999
0.0098249 -0.11492 0.96046001
0.011472 -0.11516 0.96241999
0.013114 -0.11529 0.96350002
0.014737 -0.11524 0.96311998
0.016348001 -0.11513 0.96215999
0.017944001 -0.11493 0.96051002
0.019539 -0.11476 0.95910001
0.021122999 -0.11455 0.95738
0.022692 -0.1143 0.95529002
0.024256 -0.11406 0.95327997
0.025823001 -0.11387 0.95165998
0.027378 -0.11364 0.94977999
0.028933 -0.11345 0.94813001
0.030486001 -0.11326 0.94656998
0.03204 -0.1131 0.94520998
0.033587001 -0.11293 0.94376999
0.035147 -0.11281 0.94283003
0.036715999 -0.11274 0.94220001
0.038281001 -0.11265 0.94150001
0.039829999 -0.11253 0.94050002
0.041340001 -0.11232 0.93867999
0.042831 -0.11206 0.93658
0.044314001 -0.11181 0.93447
0.045809001 -0.11161 0.93274999
0.047323 -0.11146 0.93150997
0.048886999 -0.11143 0.93131
0.050450999 -0.11141 0.93111002
0.052019 -0.1114 0.93101001
0.053599 -0.11141 0.93110001
0.055179 -0.11142 0.93120998
0.056754999 -0.11143 0.93124002
0.058341 -0.11145 0.93142003
0.059914999 -0.11145 0.93141001
0.061489001 -0.11145 0.93141001
0.063064002 -0.11145 0.93141001
0.064639002 -0.11145 0.93142003
0.066214003 -0.11145 0.93142003
0.067795001 -0.11146 0.93150997
0.069404997 -0.11151 0.93198001
0.071050003 -0.11162 0.93289
0.072747 -0.11181 0.93443
0.074467003 -0.11202 0.93620002
0.076223001 -0.11228 0.93834001
0.077962004 -0.1125 0.94018
0.079697996 -0.1127 0.94190001
0.081396997 -0.11285 0.94314998
0.083063997 -0.11295 0.94397002
0.084711999 -0.11302 0.94454998
0.086344004 -0.11306 0.94493002
0.087995999 -0.11313 0.94551998
0.089654997 -0.11321 0.94615
0.091346003 -0.11332 0.94709998
0.093039997 -0.11344 0.94805002
0.094746001 -0.11356 0.94909
0.096405998 -0.11363 0.94963998
0.098075002 -0.1137 0.95025003
0.10072 -0.11651 0.96012998
0.099725001 -0.11375 0.95067
-0.028723 -0.11166 0.94657999
-0.027109001 -0.1116 0.94612002
-0.025496 -0.11154 0.94559002
-0.023874 -0.11143 0.94467998
-0.022252999 -0.11131 0.94365001
-0.020639 -0.11121 0.94279999
-0.019029999 -0.11112 0.94207001
-0.017425001 -0.11104 0.94137001
-0.015828 -0.11101 0.94106001
-0.014237 -0.111 0.94103003
-0.012648 -0.11102 0.94116002
-0.011063 -0.11108 0.94168001
-0.0094801001 -0.11119 0.94261003
-0.0078969998 -0.11134 0.94385999
-0.0063093002 -0.11148 0.94505
-0.0047184001 -0.11164 0.94641
-0.0031222999 -0.11177 0.94756001
-0.0015221999 -0.11191 0.94869
8.1728998e-05 -0.11201 0.94954002
0.0016886001 -0.11212 0.95047998
0.003298 -0.1122 0.95121998
0.0049112998 -0.11232 0.95223999
0.0065413001 -0.11267 0.95516998
0.0081831003 -0.11304 0.95833999
0.0098358998 -0.11342 0.96153998
0.011491 -0.11371 0.96401
0.013133 -0.11382 0.96495003
0.014752 -0.11373 0.96414
0.016361 -0.11358 0.96292001
0.017953999 -0.11336 0.96103001
0.019546 -0.11317 0.9594
0.021127 -0.11295 0.95756
0.022694999 -0.1127 0.95542002
0.024256 -0.11245 0.95331001
0.025819 -0.11224 0.9515
0.027373999 -0.11202 0.94963002
0.028928 -0.11182 0.94797999
0.030478001 -0.11163 0.94633001
0.032031 -0.11147 0.94496
0.033578001 -0.1113 0.94352001
0.035133999 -0.11117 0.94248998
0.036699999 -0.11109 0.94177997
0.038260002 -0.111 0.94099998
0.039804999 -0.11087 0.93990999
0.041322 -0.11068 0.93827999
0.042821001 -0.11045 0.93637002
0.04431 -0.11022 0.93439001
0.045814998 -0.11004 0.93286002
0.047334 -0.1099 0.93172002
0.048893001 -0.10987 0.93142998
0.050457999 -0.10985 0.93124002
0.052026998 -0.10984 0.93115002
0.053606998 -0.10985 0.93124002
0.055187002 -0.10986 0.93133998
0.056761999 -0.10986 0.93134999
0.058341999 -0.10987 0.93144
0.059916001 -0.10987 0.93142998
0.061491001 -0.10987 0.93142998
0.063065998 -0.10987 0.93142998
0.06464 -0.10987 0.93144
0.066215001 -0.10987 0.93144
0.067795999 -0.10988 0.93151999
0.069406003 -0.10994 0.93199003
0.071050003 -0.11004 0.93290001
0.072738998 -0.11021 0.93434
0.074450999 -0.11041 0.93599999
0.076205 -0.11066 0.93810999
0.077935003 -0.11086 0.93984002
0.079662003 -0.11106 0.94147998
0.081359997 -0.1112 0.94272
0.083044 -0.11132 0.94374001
0.084694996 -0.11139 0.94436002
0.086337 -0.11145 0.94485998
0.087990001 -0.11152 0.94546002
0.089639001 -0.11159 0.94599003
0.091300003 -0.11166 0.94663
0.092981003 -0.11176 0.94744998
0.094664998 -0.11186 0.94827998
0.096325003 -0.11192 0.94883001
0.097992003 -0.112 0.94945002
0.099648997 -0.11205 0.94994998
0.10228 -0.11481 0.95953
0.10127 -0.11207 0.95006001
-0.027077001 -0.10987 0.94499999
-0.025463 -0.1098 0.94439
-0.023845 -0.1097 0.94353998
-0.022226 -0.10958 0.94248998
-0.020612 -0.10947 0.94155997
-0.019003 -0.10937 0.94073999
-0.0174 -0.10929 0.94002998
-0.015804 -0.10924 0.93962002
-0.014214 -0.10923 0.93950999
-0.012627 -0.10924 0.93961
-0.011044 -0.1093 0.94011998
-0.0094641997 -0.10941 0.94103998
-0.0078828996 -0.10954 0.94217998
-0.0062973001 -0.10967 0.94326001
-0.0047094999 -0.10982 0.94462001
-0.003116 -0.10995 0.94567001
-0.0015193 -0.11009 0.94690001
8.1555001e-05 -0.11022 0.94802999
0.0016877 -0.11045 0.94998002
0.0032972 -0.11056 0.95098001
0.0049156998 -0.11081 0.95309001
0.0065520001 -0.11123 0.95674998
0.0082005002 -0.11166 0.96038002
0.0098561002 -0.11202 0.96350998
0.011514 -0.11231 0.96596003
0.013155 -0.11237 0.96652001
0.014771 -0.11224 0.96537
0.016375 -0.11205 0.96372998
0.017965 -0.1118 0.96161997
0.019548999 -0.11156 0.95958
0.021124 -0.11131 0.95741999
0.022686999 -0.11104 0.95508999
0.024245 -0.11079 0.95288002
0.025805 -0.11056 0.95098001
0.027358999 -0.11035 0.94913
0.028915999 -0.11017 0.94756001
0.030463999 -0.10997 0.94590002
0.032017 -0.10981 0.94453001
0.033562001 -0.10965 0.94309002
0.035117999 -0.10952 0.94204998
0.036679 -0.10943 0.94124001
0.038238999 -0.10934 0.94046998
0.039783001 -0.10922 0.93939
0.041308001 -0.10905 0.93796003
0.042817 -0.10885 0.93628001
0.044312 -0.10864 0.93441999
0.045825999 -0.10848 0.93308997
0.047352999 -0.10837 0.93211001
0.048912998 -0.10833 0.93181002
0.050478999 -0.10831 0.93162
0.052053999 -0.10831 0.93162
0.053629 -0.10831 0.93162
0.055202998 -0.10831 0.93162
0.056777999 -0.10831 0.93162
0.058359001 -0.10832 0.93171
0.059939999 -0.10833 0.93181002
0.061522 -0.10835 0.93190002
0.063097998 -0.10835 0.93190998
0.064672999 -0.10835 0.93190002
0.066241004 -0.10833 0.93181002
0.067809999 -0.10832 0.93171
0.069406003 -0.10836 0.93199998
0.071042001 -0.10845 0.93279999
0.072709002 -0.10858 0.93393999
0.074403003 -0.10875 0.93540001
0.076146998 -0.10898 0.93739998
0.077876002 -0.10919 0.93914002
0.079612002 -0.10939 0.94089001
0.081326 -0.10956 0.94231999
0.083035 -0.10971 0.94363999
0.084705003 -0.10981 0.94446999
0.086367004 -0.10989 0.94519001
0.088032 -0.10997 0.94590998
0.08969 -0.11005 0.94652998
0.091339998 -0.11011 0.94704998
0.093010001 -0.11019 0.94774997
0.094682999 -0.11027 0.94845998
0.096332997 -0.11032 0.94892001
0.097992003 -0.11038 0.94944
