# .PCD v0.7 - Point Cloud Data file format
VERSION 0.7
FIELDS x y z
SIZE 4 4 4
TYPE F F F
COUNT 1 1 1
WIDTH 1521
HEIGHT 1
VIEWPOINT 0 0 0 1 0 0 0
POINTS 1521
DATA ascii
0.096918002 -0.24448 0.93904001
0.096887 -0.24281 0.93874002
0.098525003 -0.24453001 0.93922001
0.098463997 -0.24278 0.93864
0.1001 -0.2445 0.93913001
0.10002 -0.24271999 0.93838
0.10172 -0.24458 0.93940997
0.10165 -0.24281 0.93873
0.10334 -0.24466 0.93972999
0.10328 -0.24291 0.93911999
-0.0061565 -0.23695999 0.92216998
-0.0045917002 -0.23666 0.921
-0.0030318 -0.23643 0.92009997
-0.0014746001 -0.23616 0.91905999
7.9024001e-05 -0.23596001 0.91828001
0.0016291999 -0.23564 0.91701001
0.003174 -0.23524 0.91544998
0.004714 -0.23485 0.91396999
0.0062509002 -0.23455 0.91277999
0.0077828001 -0.23421 0.91147
0.0093157999 -0.23401 0.91069001
0.010849 -0.23388 0.91018999
0.012374 -0.23362 0.90916997
0.013899 -0.23342 0.9084
0.015423 -0.23323999 0.90768999
0.016945001 -0.23307 0.90701997
0.01846 -0.23284 0.90612
0.019987 -0.23277999 0.9059
0.021505 -0.23264 0.90534002
0.023024 -0.23252 0.90487999
0.024553001 -0.23251 0.90483999
0.02609 -0.23258001 0.90512002
0.027631 -0.23266999 0.90544999
0.029175 -0.23277 0.90586001
0.030727001 -0.23293 0.90648001
0.032265998 -0.23298 0.90666997
0.033806 -0.23303001 0.90685999
0.035346001 -0.23307 0.90704
0.036897998 -0.23319 0.90749002
0.038463 -0.23338 0.90823001
0.040042002 -0.23363 0.90920001
0.041639999 -0.23398 0.91055
0.043235 -0.23428001 0.91171998
0.044837002 -0.23459999 0.91295999
0.046429001 -0.23484001 0.91391999
0.048007 -0.235 0.91452998
0.049578998 -0.23512 0.91501999
0.051157001 -0.23526999 0.91557997
0.052733 -0.23538999 0.91605997
0.054299999 -0.23547 0.91637999
0.055907 -0.23571999 0.91733003
0.057519998 -0.23597001 0.91830999
0.059156001 -0.23630001 0.91961998
0.060784999 -0.23659 0.92074001
0.062426999 -0.23692 0.92201
0.064046003 -0.23714 0.92286998
0.065668002 -0.23737 0.92374003
0.067299999 -0.23762 0.92471999
0.068939999 -0.23788001 0.92572999
0.070574999 -0.23811001 0.92666
0.072226003 -0.23839 0.92774999
0.073886998 -0.23869 0.92891002
0.075525999 -0.23891 0.92975003
0.077157997 -0.23909999 0.93048
0.078787997 -0.23927 0.93115997
0.080394 -0.23936 0.93151999
0.081977002 -0.23939 0.93160999
0.083595 -0.23951 0.9321
0.085262001 -0.23977 0.93308997
0.086929001 -0.24002001 0.93405998
0.088598996 -0.24026 0.93502003
0.090295002 -0.24056999 0.93620998
0.091955997 -0.24078 0.93700999
0.093566999 -0.24084 0.93726999
0.095173001 -0.24089999 0.93747997
0.096793003 -0.24098 0.93782997
0.098376997 -0.24098 0.93782002
0.099933997 -0.24090999 0.93755001
0.10238 -0.24296001 0.94551003
-0.0077295001 -0.23582 0.92383999
-0.0061554001 -0.23535 0.92199999
-0.0045910999 -0.23507001 0.92088002
-0.0030308999 -0.2348 0.91983002
-0.001474 -0.23451 0.91868001
7.8972997e-05 -0.23428001 0.91779
0.0016281001 -0.23393001 0.91641998
0.0031713 -0.23349001 0.91468
0.0047104 -0.23312999 0.91327
0.0062469002 -0.23285 0.91218001
0.0077785999 -0.23254 0.91096997
0.0093125999 -0.23239 0.91039002
0.010848 -0.23231 0.91007
0.012372 -0.23203 0.90899003
0.013898 -0.23185 0.90829003
0.015419 -0.23164999 0.90748
0.016941 -0.23147 0.90679997
0.018456999 -0.23126 0.90597999
0.019988 -0.23126 0.90594
0.021511 -0.23116 0.90557998
0.023037 -0.23111001 0.90539002
0.024569999 -0.23114 0.90548003
0.026109001 -0.23120999 0.90577
0.027651001 -0.2313 0.90609998
0.029193001 -0.23138 0.90641999
0.03074 -0.23149 0.90687001
0.032276001 -0.23151 0.90695
0.033813 -0.23153999 0.90704
0.035353001 -0.23158 0.90722001
0.036908999 -0.23172 0.90776998
0.038488001 -0.23198999 0.90880001
0.040084001 -0.23233999 0.91017002
0.041699 -0.23276 0.91184002
0.043306999 -0.23311999 0.91323
0.044916 -0.23345 0.91456002
0.046505 -0.23367 0.91540003
0.048078999 -0.23379999 0.91589999
0.049648002 -0.2339 0.9163
0.051229 -0.23404001 0.91685998
0.052802 -0.23413999 0.91724998
0.054370999 -0.23422 0.91756999
0.055973999 -0.23444 0.91842997
0.057588 -0.23469 0.91939998
0.059220001 -0.235 0.92061001
0.060844 -0.23525999 0.92163998
0.062481001 -0.23556 0.9228
0.064088002 -0.23573001 0.92347002
0.065688998 -0.23587 0.92404002
0.067294002 -0.23602 0.92461997
0.068910003 -0.23621 0.92532998
0.070520997 -0.23636 0.92594999
0.072162002 -0.23661 0.92692
0.073822998 -0.23691 0.92809999
0.075469002 -0.23716 0.92905003
0.07711 -0.23737 0.92989999
0.078754999 -0.23759 0.93076998
0.080369003 -0.23771 0.93123001
0.081944004 -0.23771 0.93124002
0.083562002 -0.23784 0.93172002
0.085217997 -0.23806 0.93260998
0.086865999 -0.23826 0.93338001
0.088524997 -0.23848 0.93423003
0.090217002 -0.23878001 0.93540001
0.091867 -0.23895 0.93610001
0.093474001 -0.23902 0.93633997
0.095074996 -0.23906 0.93651998
0.096690997 -0.23914 0.93684
0.098283999 -0.23917 0.93693
0.099841997 -0.23909999 0.93668997
0.10492 -0.24516 0.95406002
0.10318 -0.24323 0.95284998
-0.015667999 -0.23778 0.93150997
-0.017247999 -0.23627999 0.93180001
-0.015657 -0.23604999 0.93089998
-0.01407 -0.23582 0.92998999
-0.0093080997 -0.23625 0.92550999
-0.010894 -0.23671 0.92730999
-0.010889 -0.23502 0.92685997
-0.0093023004 -0.23453 0.92492998
-0.0077252998 -0.23413 0.92334002
-0.0061522 -0.23367 0.92150998
-0.0045881001 -0.23334999 0.92026001
-0.0030286 -0.23307 0.91914999
-0.0014728 -0.23276 0.91791999
7.8928002e-05 -0.23252 0.917
0.0016265 -0.23215 0.91552001
0.0031681999 -0.23171 0.91377997
0.0047068 -0.2314 0.91257
0.0062433002 -0.23117 0.91166002
0.0077765998 -0.23094 0.91074002
0.0093133003 -0.23085999 0.91044998
0.010851 -0.23083 0.91033
0.012374 -0.23054001 0.90916997
0.013902 -0.23038 0.90855002
0.015424 -0.23017 0.90772003
0.016944 -0.22998001 0.90696001
0.018461 -0.22977 0.90614998
0.019996 -0.22981 0.90628999
0.02152 -0.22972 0.90594
0.023049001 -0.2297 0.90586001
0.024588 -0.22977 0.90613002
0.02613 -0.22985999 0.90651
0.02767 -0.22992 0.90675002
0.029213 -0.23 0.90705001
0.030755 -0.23006999 0.90731001
0.032288998 -0.23006 0.9073
0.033822998 -0.23006999 0.90731001
0.035371002 -0.23016 0.90767002
0.036935002 -0.23035 0.90841001
0.038527999 -0.23069 0.90976
0.040139999 -0.23111001 0.91144001
0.041768 -0.23159 0.91333997
0.043382999 -0.23198 0.91483998
0.044989999 -0.23229 0.91606998
0.046576999 -0.23248 0.91680998
0.048142001 -0.23255 0.91711003
0.049708001 -0.23263 0.9174
0.051290002 -0.23277 0.91795999
0.052866001 -0.23287 0.91837001
0.054437 -0.23295 0.91869003
0.056035001 -0.23314001 0.91943002
0.057649001 -0.23338 0.92036998
0.059275001 -0.23366 0.92146999
0.060901999 -0.23391999 0.92251003
0.062527999 -0.23417 0.92348999
0.064127997 -0.23431 0.92404997
0.065709002 -0.23438001 0.92431998
0.067286 -0.23443 0.92452002
0.068879001 -0.23453 0.92492002
0.070473999 -0.23464 0.92532998
0.072111003 -0.23487 0.92627001
0.073771998 -0.23517001 0.92746001
0.075424999 -0.23544 0.92851001
0.077073999 -0.23568 0.92947
0.078735001 -0.23594999 0.93052
0.080340996 -0.23604999 0.93090999
0.081918001 -0.23605999 0.93093997
0.083526 -0.23616 0.93132001
0.085153997 -0.23631001 0.93191999
0.086781003 -0.23644 0.93246001
0.088426001 -0.23662999 0.93318999
0.090098001 -0.23688 0.93417001
0.091735996 -0.23703 0.93475997
0.093336999 -0.23707999 0.93497998
0.094926998 -0.23710001 0.93506002
0.096542999 -0.23718999 0.93541002
0.098145999 -0.23724 0.93562001
0.10052 -0.23913001 0.94305003
-0.022054 -0.23714 0.93522
-0.023654001 -0.23575 0.93598002
-0.022048 -0.23549999 0.93497998
-0.020448999 -0.23687001 0.93414998
-0.020442 -0.2352 0.93379998
-0.018847 -0.23658 0.93300003
-0.018838 -0.23489 0.93256998
-0.017238 -0.23457 0.93128002
-0.015644999 -0.23429 0.93017
-0.014056 -0.23401 0.92905998
-0.012468 -0.23368999 0.92778999
-0.010877 -0.23322 0.92592001
-0.0092932004 -0.23274 0.92403001
-0.0077189999 -0.23238 0.92259002
-0.0061471998 -0.23192 0.92076999
-0.0045833001 -0.23154999 0.91930002
-0.0030251001 -0.23124 0.91807997
-0.0014712 -0.23095 0.91693997
7.8810997e-05 -0.2307 0.91592002
0.0016246 -0.23033001 0.91444999
0.0031651 -0.22993 0.91289002
0.0047026998 -0.22965001 0.91178
0.0062393998 -0.22948 0.91109002
0.0077744001 -0.22933 0.91048002
0.0093136001 -0.22933 0.91048002
0.010853 -0.22933 0.91047001
0.012376 -0.22903 0.90930998
0.013905 -0.22889 0.90875
0.015427 -0.22868 0.90793002
0.016946999 -0.22848 0.90710002
0.018466 -0.22830001 0.90640002
0.020003 -0.22836 0.90663999
0.021528 -0.22826999 0.90627998
0.02306 -0.22826999 0.90628999
0.024602 -0.22836 0.90663999
0.026145 -0.22846 0.90702999
0.027688 -0.22853 0.90732998
0.029231001 -0.2286 0.90761
0.030771 -0.22864 0.90776998
0.032308001 -0.22866 0.90784001
0.033847 -0.22869 0.90794998
0.035399999 -0.22881 0.90842003
0.036970999 -0.22902 0.90928
0.038573001 -0.22940999 0.91082001
0.040192001 -0.22987001 0.91262001
0.041822001 -0.23035 0.91452998
0.043444 -0.23074999 0.91611999
0.045053001 -0.23106 0.91734999
0.046636 -0.23122001 0.91799003
0.048198 -0.23127 0.91817999
0.049766 -0.23134001 0.91846001
0.051350001 -0.23148 0.91902
0.052932002 -0.2316 0.91952002
0.054510999 -0.23171 0.91993999
0.056116 -0.23192 0.92075998
0.057732001 -0.23215 0.9217
0.059349 -0.23238 0.92260998
0.060970999 -0.23262 0.92355001
0.062586002 -0.23282 0.92435002
0.064175002 -0.23292001 0.92473
0.065748997 -0.23296 0.92488998
0.067318998 -0.23298 0.92496997
0.068890996 -0.233 0.92508
0.070464 -0.23303001 0.92519999
0.072079003 -0.2332 0.92584997
0.073715001 -0.23342 0.92675
0.07536 -0.23367 0.92769998
0.077014998 -0.23393001 0.92874998
0.078690998 -0.23424999 0.93001002
0.080306999 -0.23436999 0.93052
0.081882998 -0.23438001 0.93054998
0.083471999 -0.23443 0.93071997
0.085060999 -0.23446999 0.93089002
0.086943999 -0.2353 0.93421
0.088887997 -0.23627999 0.93807
0.090880997 -0.23734 0.94229001
0.095752999 -0.23757 0.94321001
-0.028449999 -0.23616 0.93760002
-0.030064 -0.23479 0.93848997
-0.028462 -0.23466 0.93798
-0.026858 -0.23609 0.93734998
-0.026864 -0.23455 0.93753999
-0.025258999 -0.23596001 0.9368
-0.025257999 -0.23435999 0.93677998
-0.02365 -0.23412 0.93581003
-0.02204 -0.23382001 0.93462002
-0.02043 -0.23349001 0.93326998
-0.018825 -0.23315001 0.93191999
-0.017221 -0.23275 0.93035001
-0.015625 -0.23241 0.92896003
-0.014034 -0.23207 0.92760998
-0.012447 -0.23173 0.92624003
-0.01086 -0.23127 0.92443001
-0.0092778001 -0.23079 0.92250001
-0.0077062999 -0.23043001 0.92106998
-0.0061384002 -0.23003 0.91946
-0.0045771999 -0.22969 0.9181
-0.0030215001 -0.22940999 0.91697001
-0.0014696 -0.22915 0.91592002
7.8693003e-05 -0.22885001 0.91474998
0.0016227 -0.22851001 0.91337001
0.0031618001 -0.22814 0.91192001
0.0046991999 -0.22793999 0.91110998
0.0062369001 -0.22785001 0.91073
0.0077738999 -0.22777 0.91042
0.0093141999 -0.2278 0.91053998
0.010854 -0.2278 0.91053998
0.012377 -0.22750001 0.90935999
0.013903 -0.22732 0.90862
0.015426 -0.22713 0.90788001
0.016948 -0.22695 0.90715998
0.018472999 -0.22685 0.90674001
0.020014999 -0.22695 0.90715998
0.021546001 -0.22693001 0.90705001
0.023081999 -0.22695 0.90714002
0.024625 -0.22703999 0.90750003
0.026168 -0.22711 0.90780997
0.027709 -0.22717001 0.90802997
0.02925 -0.22722 0.90820998
0.030789999 -0.22724999 0.90834999
0.032331999 -0.22729 0.90851998
0.033876002 -0.22735 0.90872997
0.035438001 -0.22751001 0.90941
0.037018001 -0.22778 0.91044998
0.038623001 -0.22815999 0.912
0.040238999 -0.22859 0.91369998
0.041862 -0.22901 0.91539001
0.043478999 -0.22938 0.91685998
0.045079999 -0.22964001 0.91790998
0.046661001 -0.22978 0.91847003
0.048223998 -0.22983 0.91867
0.049800999 -0.22995 0.91912001
0.051387001 -0.23009001 0.91969001
0.052976001 -0.23024 0.92028999
0.054563999 -0.23037 0.92082
0.056177001 -0.23061 0.92176002
0.057794999 -0.23084 0.92271
0.059408002 -0.23105 0.92352998
0.061023999 -0.23126 0.92436999
0.062633999 -0.23142999 0.92506999
0.064218 -0.2315 0.92534
0.065779999 -0.2315 0.92532003
0.067342997 -0.23149 0.92528999
0.068907 -0.23149 0.9253
0.070465997 -0.23147 0.92522001
0.072058998 -0.23157001 0.92559999
0.07367 -0.23171 0.92618001
0.075310998 -0.23194 0.9271
0.076963998 -0.2322 0.92813998
0.078643002 -0.23253 0.92944002
0.080268003 -0.23267999 0.93006003
0.081857003 -0.23273 0.93024999
0.083701998 -0.23349001 0.93327999
0.085570998 -0.23429 0.93646997
0.087783001 -0.23598 0.94322997
-0.030074 -0.23328 0.93882
-0.028471 -0.23315001 0.93829
-0.026865 -0.23298 0.93760002
-0.025253 -0.23273 0.93659002
-0.023637 -0.23241 0.93529999
-0.022025 -0.23208 0.93397999
-0.020412 -0.2317 0.93245
-0.018803 -0.2313 0.93083
-0.017197 -0.23085 0.92905003
-0.015599 -0.23046 0.92746001
-0.014007 -0.23006 0.92584997
-0.012422 -0.22969 0.92435002
-0.010838 -0.22925 0.92259002
-0.0092618996 -0.22882999 0.92092001
-0.0076922998 -0.22846 0.91939998
-0.0061281999 -0.22809 0.91791999
-0.0045701 -0.22777 0.91666001
-0.0030171999 -0.22753 0.91569
-0.0014676 -0.22728001 0.91465002
7.8628e-05 -0.22702999 0.91365999
0.0016212 -0.22674 0.91249001
0.0031600001 -0.22646999 0.91141999
0.0046982002 -0.22634 0.9109
0.0062374002 -0.22632 0.91080999
0.0077761998 -0.22629 0.91069001
0.0093189003 -0.22637001 0.91099
0.010859 -0.22637001 0.91099
0.012384 -0.22609 0.90987998
0.013911 -0.22589999 0.90912998
0.015436 -0.22574 0.90847999
0.016961001 -0.22559001 0.90785998
0.018488999 -0.22551 0.90754998
0.020033 -0.22562 0.90798002
0.021568 -0.22562 0.90798002
0.023104999 -0.22564 0.90807003
0.024648 -0.22571 0.90836
0.02619 -0.22577 0.90858001
0.027729999 -0.22579999 0.90869999
0.029271999 -0.22584 0.90888
0.030813999 -0.22588 0.90904999
0.032364 -0.22598 0.90941
0.033916 -0.22608 0.90982002
0.035487998 -0.22629 0.91068
0.037078001 -0.22660001 0.91191
0.038679998 -0.22695 0.91336
0.040290002 -0.22732 0.91483998
0.041903 -0.22769 0.9163
0.043511 -0.228 0.91754001
0.0451 -0.22819 0.91832
0.046682999 -0.22833 0.91890001
0.048252001 -0.22841001 0.91921002
0.049832001 -0.22853 0.91968
0.051419001 -0.22867 0.92026001
0.053015001 -0.22885001 0.92097002
0.054609999 -0.229 0.92161
0.056228001 -0.22925 0.92259002
0.057849001 -0.22949 0.92356002
0.059463002 -0.2297 0.92439002
0.061073001 -0.22987001 0.92510003
0.062675998 -0.23002 0.92567998
0.064254001 -0.23006 0.92585999
0.065817997 -0.23006 0.92584997
0.067374997 -0.23003 0.92574
0.068939999 -0.23003 0.92574
0.070497997 -0.23001 0.92565
0.072276004 -0.23069 0.92838001
0.073887996 -0.23082 0.92891997
0.075534001 -0.23105 0.92984998
0.077188998 -0.2313 0.93085003
0.079099998 -0.23229 0.93483001
0.080770999 -0.23255 0.93589002
0.082396999 -0.23267999 0.93638998
0.084559999 -0.23429 0.94286001
-0.030081 -0.23174 0.93902999
-0.028473999 -0.23158 0.93835998
-0.026860001 -0.23135 0.93743002
-0.02524 -0.23102 0.93610001
-0.023614001 -0.2306 0.93440002
-0.021997999 -0.23022 0.93286002
-0.020384001 -0.2298 0.93114001
-0.018774999 -0.22937 0.92943001
-0.017169001 -0.22891 0.92755002
-0.015572 -0.22849 0.92584002
-0.013979 -0.22803999 0.92401999
-0.012397 -0.22767 0.92251003
-0.010816 -0.22721 0.92067999
-0.0092447 -0.22685 0.91921002
-0.0076799002 -0.22653 0.91791999
-0.0061192 -0.2262 0.91657001
-0.0045635002 -0.22589999 0.91534001
-0.0030133999 -0.22570001 0.91452998
-0.0014657 -0.22544 0.91347998
7.8548001e-05 -0.2252 0.91250998
0.0016196 -0.22498 0.91162997
0.0031580999 -0.22479001 0.91084999
0.0046962998 -0.22471 0.91055
0.0062370002 -0.22476 0.91074002
0.0077779 -0.22480001 0.91088998
0.0093208002 -0.22487 0.91118002
0.010861 -0.22486 0.91114998
0.012388 -0.22463 0.91021001
0.013916 -0.22445001 0.90947002
0.015444 -0.22431 0.90893
0.016971 -0.22418 0.90838999
0.018502001 -0.22413 0.90818
0.020044999 -0.22421999 0.90854001
0.021582 -0.22421999 0.90855998
0.023119999 -0.22425 0.90867001
0.024667 -0.22434001 0.90903997
0.026211999 -0.22441 0.90933001
0.027755 -0.22446001 0.90952998
0.029301999 -0.22453 0.90979999
0.030846 -0.22458 0.90999001
0.032404002 -0.22471 0.91055
0.033967 -0.22487 0.91117001
0.035548002 -0.22513001 0.91222
0.037145 -0.22545999 0.91355997
0.03875 -0.22581001 0.91499001
0.040344998 -0.22608 0.91610003
0.041942 -0.22634 0.91715997
0.043533001 -0.22655 0.91799998
0.045109 -0.22667 0.91848999
0.046686999 -0.22679999 0.91900003
0.048262 -0.2269 0.91939998
0.049848001 -0.22703999 0.91999
0.051440999 -0.22721 0.92066997
0.053049002 -0.22743 0.92155999
0.054655999 -0.22763 0.92237997
0.056281999 -0.2279 0.92347002
0.057905 -0.22815 0.92445999
0.059519999 -0.22835 0.92527002
0.061124001 -0.22849999 0.92587
0.062715001 -0.22859 0.92625999
0.064286999 -0.22860999 0.92635
0.065858997 -0.22863001 0.92642999
0.067424998 -0.22863001 0.92642999
0.068999 -0.22866 0.92653
0.070557997 -0.22863001 0.92644
0.072360002 -0.22938 0.92947
0.073977001 -0.22951999 0.93004
0.075634003 -0.22978 0.93109
0.077297002 -0.23004 0.93215001
0.079287 -0.23125 0.93704998
0.081256002 -0.23235001 0.94151002
0.082935996 -0.2326 0.94251001
-0.031688001 -0.23029 0.93961
-0.030081 -0.23015 0.93904001
-0.028471 -0.22996999 0.93829
-0.026851 -0.22968 0.93711001
-0.025223 -0.22927999 0.93548
-0.023588 -0.22877 0.93338001
-0.021965001 -0.22829001 0.93144
-0.020346001 -0.2278 0.92943001
-0.018736999 -0.22734 0.92755002
-0.017131999 -0.22685 0.92558002
-0.015539 -0.22643 0.92386001
-0.01395 -0.22599 0.92205
-0.012369 -0.2256 0.92045999
-0.010794 -0.2252 0.91881001
-0.0092278998 -0.22487999 0.91754001
-0.0076676998 -0.22462 0.91645998
-0.0061108 -0.22434001 0.91532999
-0.0045586 -0.22409999 0.91435999
-0.0030105 -0.22393 0.91364998
-0.0014645 -0.22372 0.91276997
7.8498e-05 -0.22352999 0.912
0.0016192 -0.22338 0.91140002
0.0031583 -0.22326 0.91092002
0.0046977 -0.22324 0.91082001
0.0062389998 -0.22329 0.91104001
0.0077804001 -0.22332001 0.91118002
0.0093219001 -0.22335 0.91128999
0.01086 -0.2233 0.91108
0.012389 -0.22308999 0.91022998
0.013917 -0.22292 0.90952998
0.015446 -0.22279 0.90902001
0.016976001 -0.22271 0.90864998
0.018510001 -0.22269 0.90859002
0.020052001 -0.22276001 0.90886003
0.021591 -0.22278 0.90897
0.023135001 -0.22284999 0.90925002
0.024682 -0.22294 0.90961999
0.026229 -0.22302 0.90991998
0.027775999 -0.22308999 0.9102
0.029325999 -0.22317 0.91056001
0.030874999 -0.22324 0.91083997
0.032444999 -0.22345001 0.91169
0.034015998 -0.22364999 0.91250002
0.035604998 -0.22394 0.91368997
0.037204999 -0.22427 0.91504002
0.038805 -0.22458 0.9163
0.040387001 -0.22476 0.91703999
0.041972 -0.22495 0.91779
0.043549001 -0.22508 0.91834998
0.045120001 -0.22517 0.91872001
0.046698 -0.22529 0.91921002
0.048278999 -0.22542 0.91971999
0.049874999 -0.22561 0.92049003
0.051475 -0.22579999 0.92127001
0.053094 -0.22606 0.92233002
0.054708 -0.22628 0.92325002
0.056340002 -0.22657 0.92442
0.057959002 -0.22679 0.92532003
0.059567999 -0.22696 0.92602003
0.061154999 -0.22703999 0.92633998
0.062744997 -0.22713 0.92671001
0.064319 -0.22714999 0.92680001
0.065899 -0.2272 0.92699999
0.067481004 -0.22724999 0.92720002
0.069063 -0.2273 0.92738998
0.070621997 -0.22727001 0.92728001
0.072659999 -0.22875001 0.93331999
0.074577004 -0.2298 0.93757999
-0.033277001 -0.22871 0.93962997
-0.031686001 -0.22868 0.93953001
-0.030081 -0.22856 0.93901998
-0.028468 -0.22836 0.9382
-0.026842 -0.22801 0.93678999
-0.025206 -0.22754 0.93484998
-0.023565 -0.22695 0.93243003
-0.021933001 -0.22639 0.93010002
-0.020313 -0.22585 0.92789
-0.018702 -0.22533999 0.92581999
-0.017100999 -0.22487 0.92386001
-0.01551 -0.22445001 0.92216003
-0.013926 -0.22404 0.92047
-0.012349 -0.22366001 0.91891003
-0.010778 -0.22330999 0.91745001
-0.0092152003 -0.22302 0.91627997
-0.0076580001 -0.22278 0.91529
-0.0061042001 -0.22255 0.91433001
-0.0045546 -0.22236 0.91355997
-0.0030082001 -0.22221 0.91295999
-0.0014638 -0.22205 0.91228998
7.8477999e-05 -0.22191 0.91171998
0.001619 -0.22181 0.91131997
0.0031587 -0.22174001 0.91101998
0.0046997 -0.22179 0.91119999
0.0062417001 -0.22183999 0.91143
0.0077837999 -0.22188 0.91158003
0.0093248002 -0.22188 0.91158003
0.010862 -0.2218 0.91127002
0.012391 -0.22159 0.91040999
0.01392 -0.22143 0.90973997
0.01545 -0.22131 0.90925997
0.016982 -0.22125 0.90899003
0.018518001 -0.22125 0.90899003
0.020059001 -0.22129001 0.90916997
0.021600001 -0.22133 0.90934998
0.023147 -0.22142 0.90970999
0.024695 -0.22152001 0.91009003
0.026242999 -0.22159 0.91042
0.027791001 -0.22167 0.91071999
0.029345 -0.22178 0.91115999
0.030901 -0.22189 0.91162002
0.032476 -0.22212 0.91258001
0.034053002 -0.22234 0.91350001
0.035652 -0.22268 0.91487998
0.037253 -0.22301 0.91623002
0.038849 -0.22328 0.91733003
0.040426001 -0.22342999 0.91794002
0.042011999 -0.22361 0.91868001
0.043582 -0.22369 0.91903001
0.045148998 -0.22375999 0.91930997
0.046728 -0.22387999 0.91979003
0.048308998 -0.22400001 0.92030001
0.049902 -0.22417 0.92098999
0.051507998 -0.22438 0.92185998
0.053128999 -0.22464 0.92294002
0.054744001 -0.22487 0.92387003
0.056377001 -0.22515 0.92504001
0.057996999 -0.22537 0.92593002
0.059599999 -0.22551 0.92651999
0.061186001 -0.22559001 0.92681003
0.062776998 -0.22566999 0.92717999
0.064351998 -0.22570001 0.92728001
0.065940998 -0.22577 0.92758
0.067532003 -0.22585 0.92789
0.069114998 -0.22589999 0.92808998
0.070926003 -0.22667 0.93127
0.073284999 -0.22912 0.94134998
-0.033273999 -0.22709 0.93954003
-0.031683002 -0.22707 0.93945998
-0.030075001 -0.22691999 0.93883002
-0.028461 -0.22669999 0.93792999
-0.026828 -0.22631 0.93630999
-0.025188001 -0.22578999 0.93415999
-0.023538999 -0.22513001 0.93142998
-0.021904999 -0.22451 0.92887998
-0.020283001 -0.22395 0.92654997
-0.018673001 -0.22342999 0.92438
-0.017077999 -0.223 0.92260998
-0.015491 -0.22262 0.92104
-0.013911 -0.22224 0.91948003
-0.012335 -0.22186001 0.91791999
-0.010769 -0.22156 0.91665
-0.0092070997 -0.22126999 0.91547
-0.0076513998 -0.22104 0.91451001
-0.0060995999 -0.22082999 0.91364002
-0.0045516002 -0.22067 0.91295999
-0.0030066001 -0.22055 0.91246998
-0.0014632 -0.22042 0.91193002
7.8425997e-05 -0.22035 0.91163999
0.0016193 -0.2203 0.91145003
0.0031594001 -0.22025 0.91126001
0.0047010002 -0.2203 0.91144001
0.0062432 -0.22035 0.91165
0.0077856001 -0.22037999 0.91179001
0.0093259998 -0.22036 0.91169
0.010864 -0.2203 0.91145003
0.012396 -0.22013 0.91075999
0.013928 -0.22001 0.91026002
0.015459 -0.2199 0.90978998
0.016992999 -0.21986 0.90960997
0.018529 -0.21984001 0.90951997
0.020067001 -0.21984001 0.90951997
0.021607 -0.21986 0.90960997
0.023154 -0.21995001 0.90998
0.024703 -0.22003999 0.91038001
0.026257001 -0.22017001 0.91088998
0.027812 -0.22028001 0.91137999
0.029376 -0.22046 0.91210002
0.03094 -0.22062001 0.91276002
0.032520998 -0.22087 0.91382003
0.0341 -0.2211 0.91475999
0.035696998 -0.22141001 0.91602999
0.037289001 -0.22167 0.91710001
0.038876999 -0.22188 0.91799003
0.040451001 -0.22201 0.91850001
0.042036999 -0.22217999 0.91924
0.043609001 -0.22227 0.91960001
0.045182999 -0.22237 0.91999
0.046767 -0.2225 0.92056
0.048358999 -0.22267 0.92124999
0.049954001 -0.22284 0.92194003
0.051566999 -0.22307 0.92290998
0.053185001 -0.22330999 0.92391998
0.054802001 -0.22353999 0.92483997
0.056426998 -0.22378001 0.92585999
0.058040999 -0.22397 0.92663997
0.059638999 -0.22409 0.92712998
0.061225001 -0.22416 0.92741001
0.062817998 -0.22425 0.92777997
0.064401001 -0.2243 0.92799002
0.065999001 -0.2244 0.92839998
0.067598999 -0.2245 0.92882001
0.069192998 -0.22458 0.92913002
0.071043 -0.22545999 0.93279999
-0.033273999 -0.22549 0.93952
-0.031682 -0.22547001 0.93943
-0.030072 -0.22531 0.93875003
-0.028452 -0.22505 0.93766999
-0.026817 -0.22463 0.93593001
-0.025172001 -0.22407 0.93357003
-0.023519 -0.22336 0.93063998
-0.021880999 -0.2227 0.92789
-0.020261001 -0.22214 0.92556
-0.018653 -0.22161999 0.92338997
-0.017061001 -0.22122 0.92172998
-0.015478 -0.22087 0.92026001
-0.0139 -0.22052 0.9188
-0.012329 -0.22019 0.91742003
-0.010766 -0.21995001 0.91641003
-0.0092059001 -0.21969 0.91535002
-0.0076513002 -0.21949001 0.91448998
-0.0061006001 -0.21932 0.9138
-0.0045528999 -0.21918 0.91320997
-0.0030075 -0.21906 0.91272998
-0.0014638 -0.21896 0.91228998
7.8500001e-05 -0.21889 0.91202003
0.00162 -0.21885 0.91183001
0.0031602001 -0.21876 0.91147
0.0047014998 -0.21878 0.91156
0.0062433002 -0.21881001 0.91167003
0.0077856001 -0.21884 0.91179001
0.0093243001 -0.21877 0.91152
0.010862 -0.21872 0.91127998
0.012393 -0.21855 0.91057998
0.013925 -0.21843 0.91008002
0.015456 -0.21832 0.90961999
0.016992001 -0.21829 0.90951997
0.018529 -0.21829 0.90951997
0.020068999 -0.21831 0.90960997
0.021610999 -0.21836001 0.90978998
0.023163 -0.21849 0.91034001
0.024718 -0.21863 0.91092998
0.026278 -0.21879999 0.91162997
0.027837001 -0.21894 0.91222
0.029409001 -0.21916001 0.91312999
0.030979 -0.21935 0.91391999
0.032563001 -0.21961001 0.91500998
0.034143999 -0.21983001 0.91593999
0.035737 -0.2201 0.91706997
0.037322 -0.22031 0.91791999
0.038906001 -0.22048999 0.91869003
0.040477999 -0.22059999 0.91911
0.042061999 -0.22076 0.91978002
0.043648001 -0.22091 0.92043
0.045233998 -0.22105999 0.92104
0.046822999 -0.22121 0.92166001
0.048422001 -0.22138999 0.92243999
0.050023001 -0.22158 0.92321002
0.051623002 -0.22175001 0.92391002
0.053231999 -0.22194 0.92473
0.054848999 -0.22216 0.92563999
0.056469001 -0.22238 0.92654997
0.058079001 -0.22255 0.92725003
0.05968 -0.22267 0.92774999
0.061273001 -0.22276001 0.92812997
0.062867999 -0.22284999 0.92851001
0.064465001 -0.22295 0.92891002
0.066078 -0.22308999 0.92951
0.067694001 -0.22324 0.93011999
0.069349997 -0.22351 0.93124998
0.071241997 -0.22451 0.93541002
-0.034862 -0.22390001 0.93954003
-0.033264998 -0.22384 0.93927002
-0.031672001 -0.22381 0.93911999
-0.030063 -0.22364999 0.93844998
-0.028441001 -0.22337 0.93728
-0.026806001 -0.22295 0.93554002
-0.025161 -0.22239 0.93316001
-0.023511 -0.2217 0.9303
-0.021873999 -0.22104999 0.92758
-0.020257 -0.22053 0.92536002
-0.018650999 -0.22003999 0.92330998
-0.017061001 -0.21966 0.92174
-0.015478 -0.21931 0.92027003
-0.0139 -0.21896 0.9188
-0.01233 -0.21866 0.91750997
-0.010768 -0.21844 0.91661
-0.0092081996 -0.2182 0.91557997
-0.0076525998 -0.21797 0.91465002
-0.0061017 -0.21781 0.91395998
-0.0045532002 -0.21764 0.91325998
-0.0030074001 -0.21751 0.9127
-0.0014637 -0.2174 0.91224998
7.8509001e-05 -0.21737 0.91214001
0.0016203 -0.21735001 0.91202998
0.0031612001 -0.21728 0.91174001
0.0047033001 -0.21732 0.91189998
0.0062454999 -0.21734001 0.91198999
0.0077875 -0.21735001 0.91202003
0.0093267001 -0.21728 0.91175997
0.010865 -0.21723001 0.91153002
0.012396 -0.21705 0.91075999
0.013928 -0.21693 0.91026002
0.015459 -0.21682 0.90978998
0.016992999 -0.21676999 0.90960997
0.018529 -0.21675 0.90951997
0.020071 -0.21679001 0.90969998
0.021616001 -0.21686 0.90999001
0.023171 -0.21702 0.91065001
0.024729 -0.21719 0.91135001
0.0263 -0.21743999 0.91238999
0.027868999 -0.21764 0.91325998
0.029453 -0.21794 0.91448998
0.031035 -0.2182 0.91557997
0.032625999 -0.21848001 0.91676998
0.034201998 -0.21865 0.91749001
0.035785001 -0.21885 0.91830999
0.037360001 -0.21898 0.91885
0.038929999 -0.21907 0.91925001
0.040507 -0.21919 0.91977
0.042096999 -0.21938001 0.92053998
0.043694999 -0.21958999 0.92141998
0.045293 -0.21978 0.92224002
0.046893999 -0.21998 0.92306
0.048492 -0.22014999 0.92377001
0.05009 -0.22031 0.92444003
0.051681001 -0.22043 0.92495
0.053284001 -0.22059 0.92563999
0.054896001 -0.22078 0.92642999
0.056511 -0.22097 0.92723
0.058116999 -0.22112 0.92785001
0.059718002 -0.22124 0.92834002
0.061313 -0.22133 0.92874002
0.062922001 -0.22147 0.92931002
0.064534999 -0.22160999 0.92992002
0.066165 -0.22181 0.93072999
0.067803003 -0.22202 0.93163002
0.069519997 -0.22247 0.93352997
0.071465999 -0.22362 0.93835998
-0.034855001 -0.22226 0.93934
-0.033254001 -0.22217999 0.93897998
-0.031660002 -0.22213 0.93877
-0.030052001 -0.22198001 0.93813002
-0.028431 -0.2217 0.93695003
-0.026799999 -0.22131 0.93531001
-0.025157001 -0.22077 0.93303001
-0.023512 -0.22014 0.93036997
-0.021880001 -0.21955 0.92785001
-0.020268001 -0.21908 0.92585999
-0.018664001 -0.21862 0.92394
-0.017074 -0.21827 0.92245001
-0.01549 -0.21791001 0.92095
-0.013908 -0.21752 0.91930002
-0.012335 -0.2172 0.91793001
-0.010772 -0.21697 0.91694999
-0.0092118001 -0.21673 0.91592997
-0.0076555 -0.21651 0.91500002
-0.0061045 -0.21636 0.91438001
-0.0045548002 -0.21617 0.91359001
-0.0030084001 -0.21603 0.91301
-0.001464 -0.2159 0.91245002
7.8486999e-05 -0.21586999 0.91232002
0.0016206 -0.21584 0.91219997
0.0031618001 -0.21578 0.91192001
0.0047042002 -0.21581 0.91207999
0.0062467 -0.21583 0.91215998
0.0077881999 -0.21582 0.91210002
0.0093275001 -0.21575999 0.91184002
0.010867 -0.21573 0.91171002
0.0124 -0.21557 0.91104001
0.013934 -0.21547 0.91062999
0.015465 -0.21536 0.91016001
0.017000001 -0.21532001 0.90996999
0.018537 -0.21529 0.90987998
0.020079 -0.21534 0.91005999
0.021627 -0.21543001 0.91046
0.023188001 -0.21563999 0.91131997
0.024747999 -0.21581 0.91204
0.026326001 -0.21610001 0.91329002
0.027905 -0.21638 0.91444999
0.029498 -0.21672 0.91588998
0.031087 -0.21699999 0.91710001
0.032680001 -0.21728 0.91829002
0.034254 -0.21743 0.91887999
0.035828002 -0.21754999 0.91942
0.037400998 -0.21765999 0.91986001
0.038968999 -0.21773 0.92017001
0.040555999 -0.21789999 0.92087001
0.042151999 -0.2181 0.92175001
0.043761998 -0.21836001 0.92281997
0.045357998 -0.21853 0.92356998
0.046962 -0.21873 0.92440999
0.048556 -0.21887 0.92500001
0.050145999 -0.21899 0.92548001
0.051727001 -0.21905001 0.92576998
0.053319 -0.21917 0.92624998
0.054924998 -0.21933 0.92693001
0.056540001 -0.21951 0.92771
0.058153 -0.21968 0.92842001
0.059760999 -0.21981999 0.92901999
0.061376002 -0.21998 0.92969
0.062992997 -0.22014 0.93036997
0.064617001 -0.22032 0.93111002
0.066257998 -0.22054 0.93203998
0.067914002 -0.2208 0.93314999
0.069651 -0.22131 0.93528998
0.071814001 -0.22311001 0.94292998
-0.033252001 -0.22057 0.93891001
-0.031654 -0.22050001 0.93858999
-0.030046999 -0.22035 0.93796998
-0.028426001 -0.22008 0.9368
-0.026796 -0.21969999 0.93519998
-0.025157001 -0.21919 0.93303001
-0.023518 -0.21862 0.93058997
-0.02189 -0.21807 0.92828
-0.020282 -0.21765999 0.92650998
-0.018681001 -0.21725 0.92478001
-0.01709 -0.21690001 0.92329001
-0.015504 -0.21654999 0.92177999
-0.013919 -0.21613 0.92000002
-0.012344 -0.21579 0.91852999
-0.010778 -0.21552999 0.91746002
-0.0092168003 -0.21529 0.91643
-0.0076595 -0.21506999 0.91547
-0.0061075999 -0.21492 0.91483998
-0.0045566 -0.21471 0.91395003
-0.0030092001 -0.21455 0.91327
-0.0014643 -0.21438999 0.91260999
7.8507001e-05 -0.21436 0.91248
0.0016208 -0.21432 0.91228998
0.0031622001 -0.21426 0.91204
0.0047049001 -0.21430001 0.91220999
0.0062477002 -0.21432 0.91231
0.0077887001 -0.21428999 0.91215003
0.0093278997 -0.21422 0.91188002
0.010869 -0.21421 0.91183001
0.012403 -0.21408001 0.91126001
0.013939 -0.21401 0.91096002
0.015472 -0.21391 0.91057003
0.017008999 -0.21389 0.91046
0.018546 -0.21386001 0.91035998
0.020090001 -0.21391 0.91055
0.021641999 -0.21404 0.91110998
0.02321 -0.21428999 0.91218001
0.024778999 -0.21453001 0.91317999
0.026365001 -0.21487001 0.91464001
0.027954999 -0.21521001 0.91609001
0.029555 -0.21558 0.91767001
0.031148 -0.21586999 0.91889
0.032736 -0.21610001 0.91988999
0.034313001 -0.21624 0.92044997
0.035882 -0.21631999 0.92079997
0.037454002 -0.2164 0.92115998
0.039025001 -0.21648 0.92149001
0.040617999 -0.21667001 0.92228001
0.042213 -0.21685 0.92308003
0.043825999 -0.21710999 0.92417002
0.045419 -0.21726 0.92479998
0.047017999 -0.21742 0.92550999
0.048608001 -0.21753 0.92597997
0.050193001 -0.21762 0.92635
0.051769 -0.21765999 0.92651999
0.053357001 -0.21775 0.92690998
0.054958999 -0.21788999 0.92749
0.056570001 -0.21806 0.92821002
0.058184002 -0.21822999 0.92891997
0.059794001 -0.21837001 0.92953002
0.061415002 -0.21855 0.93028998
0.063042 -0.21873 0.93107998
0.064686999 -0.21897 0.93211001
0.066344999 -0.21923999 0.93326002
0.068025 -0.21957999 0.93466997
0.069792002 -0.22017001 0.93717998
0.071780004 -0.22141001 0.94248003
-0.033250999 -0.21897 0.93888003
-0.031652998 -0.2189 0.93855
-0.03005 -0.21878 0.93804997
-0.028426001 -0.21849 0.9368
-0.026799001 -0.21814001 0.93529999
-0.025163 -0.21765999 0.93326002
-0.023529001 -0.21714 0.93102002
-0.021904999 -0.21664999 0.92891002
-0.020300001 -0.21628 0.92730999
-0.018699 -0.2159 0.92567998
-0.017107001 -0.21555001 0.92421001
-0.015519 -0.21520001 0.92268002
-0.013932 -0.21478 0.92088997
-0.012354 -0.21441001 0.91930002
-0.010786 -0.21413 0.91811001
-0.0092220996 -0.21386001 0.91696
-0.0076629999 -0.21360999 0.91588998
-0.0061098998 -0.21345 0.91518003
-0.0045579001 -0.21322 0.91421998
-0.0030101 -0.21306001 0.91354001
-0.0014647 -0.21291 0.91286999
7.8527002e-05 -0.21288 0.91273999
0.0016211 -0.21281999 0.91249001
0.0031632001 -0.21278 0.91233999
0.0047066002 -0.21283001 0.91253
0.0062497999 -0.21285 0.91262001
0.0077904998 -0.21279 0.91236001
0.0093307998 -0.21274 0.91215998
0.010872 -0.21273001 0.91211998
0.012407 -0.21259999 0.91157001
0.013945 -0.21256 0.91136998
0.015481 -0.21249001 0.91109002
0.017019 -0.21246 0.91096997
0.018557001 -0.21244 0.91087002
0.020103 -0.21250001 0.91114002
0.021661 -0.21268 0.91188997
0.023236999 -0.21299 0.91323
0.024816001 -0.2133 0.91453999
0.026412001 -0.2137 0.91628999
0.028014001 -0.21411 0.91802001
0.029617 -0.21448 0.91960001
0.03121 -0.21473999 0.92074001
0.032798 -0.21495 0.92163002
0.034373999 -0.21506 0.92208999
0.035941999 -0.21512 0.92233998
0.037517 -0.21520001 0.92272002
0.039090998 -0.21528 0.92306
0.040688001 -0.21547 0.92387998
0.042282 -0.21563999 0.92457998
0.043885998 -0.21584 0.92545003
0.045471001 -0.21594 0.92587
0.047065999 -0.21607 0.92644
0.048647001 -0.21614 0.92672002
0.050228 -0.21619999 0.92698997
0.051800001 -0.21622001 0.92708999
0.05339 -0.21630999 0.92747998
0.054988001 -0.21642999 0.92798001
0.056600999 -0.2166 0.92870998
0.058216002 -0.21676999 0.92943001
0.059827 -0.21691 0.93005002
0.061457001 -0.21712001 0.93090999
0.063084997 -0.2173 0.93172002
0.064744003 -0.21759 0.93294001
0.066417001 -0.21789999 0.93427998
0.068121001 -0.2183 0.93598998
0.069923997 -0.21899 0.93895
0.071939997 -0.2203 0.94458002
-0.033229999 -0.21725 0.93829
-0.031631 -0.21716 0.93791002
-0.030034 -0.21707 0.93753999
-0.028415 -0.21682 0.93645
-0.026795 -0.21652 0.93514001
-0.025165001 -0.21608999 0.93330997
-0.023538999 -0.21566001 0.93144
-0.021921 -0.21523 0.92958999
-0.020316999 -0.21488 0.92808998
-0.018719001 -0.21455 0.92663997
-0.017128 -0.21425 0.92535001
-0.01554 -0.21392 0.92392999
-0.013951 -0.21351001 0.92215002
-0.01237 -0.21313 0.92053002
-0.010798 -0.21280999 0.91913998
-0.0092294998 -0.21247999 0.91769999
-0.0076676998 -0.21219 0.91645002
-0.0061129001 -0.212 0.91564
-0.004559 -0.21172 0.91443002
-0.0030106001 -0.21154 0.91365999
-0.0014649 -0.21139 0.91298002
7.8557998e-05 -0.21134 0.91276997
0.001621 -0.21126001 0.91242999
0.0031636001 -0.21126001 0.91245002
0.0047070999 -0.2113 0.91263002
0.0062505002 -0.21132 0.91271001
0.0077912998 -0.21126001 0.91245002
0.0093326 -0.21122999 0.91232997
0.010874 -0.21122999 0.91228998
0.012411 -0.21111999 0.91184002
0.013951 -0.2111 0.91175002
0.015489 -0.21106 0.91157001
0.017028 -0.21103001 0.91145998
0.018567 -0.21100999 0.91136998
0.020119 -0.21114001 0.91189998
0.021686001 -0.21138 0.91294003
0.023269 -0.21174 0.91451001
0.024857 -0.2121 0.91605002
0.026464 -0.21256 0.91807002
0.028072 -0.21299 0.9199
0.029673999 -0.21333 0.92137003
0.031270001 -0.21359 0.92250001
0.032861002 -0.21379 0.92337
0.034432001 -0.21386001 0.92365003
0.035996001 -0.21387 0.92370999
0.037569001 -0.21393999 0.92400998
0.039142001 -0.214 0.92426002
0.040736001 -0.21416 0.92497998
0.042332001 -0.21432 0.92567003
0.043919001 -0.21443 0.92615002
0.045499001 -0.2145 0.92644
0.047088999 -0.21461 0.92690003
0.048666 -0.21465001 0.9271
0.050244998 -0.2147 0.92730999
0.051828999 -0.21477 0.92760003
0.053424001 -0.21488 0.92808002
0.055024002 -0.215 0.92859
0.056637999 -0.21517 0.92931002
0.058254 -0.21533 0.93002999
0.059866 -0.21548 0.93065
0.061496999 -0.21568 0.93151999
0.063132003 -0.21588001 0.93241
0.064800002 -0.21619 0.93374002
0.066494003 -0.21657 0.93536001
0.068230003 -0.21706 0.93747997
0.070015997 -0.21769001 0.94019002
0.072034001 -0.21899 0.94581002
-0.033232 -0.21567 0.93835002
-0.031629998 -0.21556 0.93788999
-0.030029001 -0.21545 0.93739998
-0.028415 -0.21523 0.93642002
-0.026797 -0.21495 0.93520999
-0.025172001 -0.21457 0.93357003
-0.023549 -0.21416999 0.93181998
-0.021934999 -0.21379 0.93018001
-0.020330001 -0.21345 0.92869002
-0.018732 -0.21313 0.92733002
-0.017143 -0.21286 0.92614001
-0.015557 -0.21258 0.92492002
-0.013969 -0.21222 0.92334002
-0.012387 -0.21186 0.92176002
-0.010812 -0.21153 0.92035002
-0.0092404997 -0.21117 0.91878998
-0.0076759001 -0.21086 0.91742998
-0.0061189001 -0.21065 0.91652
-0.0045632999 -0.21037 0.91530001
-0.0030127999 -0.21015 0.91434002
-0.0014658 -0.20997 0.91355002
7.8593002e-05 -0.20987999 0.91315001
0.0016213 -0.20975 0.91260999
0.0031639 -0.20973 0.91253
0.0047073001 -0.20976999 0.91267997
0.0062503 -0.20976999 0.91268998
0.007791 -0.20971 0.91242999
0.0093323998 -0.20969 0.91232002
0.010874 -0.20968001 0.91228998
0.012412 -0.2096 0.91193002
0.013955 -0.20962 0.91201001
0.015497 -0.20962 0.91202003
0.017042 -0.20965999 0.91219002
0.018588001 -0.2097 0.91237998
0.020145999 -0.20987 0.91311002
0.02172 -0.21016 0.91437
0.023309 -0.21055 0.91606998
0.024902999 -0.21093 0.91773999
0.02651 -0.21138 0.91969001
0.028117999 -0.21178 0.92141002
0.029717 -0.21207 0.92271
0.031312 -0.21231 0.92374003
0.032898001 -0.21247 0.92443001
0.034471001 -0.21253 0.92469001
0.036036 -0.21254 0.92474002
0.037610002 -0.21259999 0.92501003
0.039184 -0.21266 0.92526001
0.040771 -0.21278 0.92576998
0.042358 -0.21289 0.92624998
0.043937001 -0.21295001 0.92651999
0.045513 -0.21299 0.92671001
0.047099002 -0.21308 0.9271
0.048682999 -0.21315999 0.92742002
0.050269 -0.21323 0.92774999
0.051863998 -0.21334 0.92821997
0.053461 -0.21345 0.92870998
0.055061001 -0.21357 0.92921001
0.056674998 -0.21373001 0.92992002
0.058290999 -0.21389 0.93063003
0.059903 -0.21403 0.93123001
0.061540999 -0.21425 0.93219
0.063184001 -0.21448 0.93318999
0.064861 -0.21481 0.93462002
0.066572003 -0.21523 0.93645
0.068318002 -0.21574999 0.93870002
0.070090003 -0.21631999 0.94117999
0.072074004 -0.21751 0.94634998
-0.033236999 -0.21411 0.93848997
-0.031631999 -0.21399 0.93794
-0.030029001 -0.21386001 0.93739003
-0.028418001 -0.21366 0.93654001
-0.026803 -0.21341 0.93542999
-0.025179001 -0.21304999 0.93383998
-0.023561001 -0.21269999 0.93229997
-0.021949001 -0.21235 0.93077999
-0.020343 -0.21201 0.92929
-0.018748 -0.21174 0.92811
-0.017161001 -0.21151 0.92711002
-0.015575 -0.21127 0.92603999
-0.013991 -0.21098 0.92477
-0.012409 -0.21066 0.92338002
-0.010832 -0.21036001 0.92206001
-0.0092572998 -0.20999999 0.92045999
-0.0076882001 -0.20964 0.91891003
-0.0061267 -0.20937 0.91769999
-0.0045670001 -0.20898999 0.91605002
-0.0030137 -0.20866001 0.91461998
-0.001466 -0.20845 0.91365999
7.8559002e-05 -0.20833001 0.91315001
0.0016208 -0.20814 0.91232997
0.0031628001 -0.20812 0.91223001
0.0047058002 -0.20816 0.91238999
0.0062496001 -0.20819999 0.91258001
0.0077916998 -0.20818 0.91250998
0.0093342997 -0.20818 0.91250002
0.010878 -0.20818999 0.91255999
0.012417 -0.20813 0.91228002
0.01396 -0.20815 0.91237998
0.015506 -0.20819999 0.91257
0.017057 -0.20829999 0.91303998
0.018609 -0.20839 0.91342998
0.020174 -0.20861 0.91438001
0.021755001 -0.20894 0.91584003
0.023344999 -0.20931999 0.91749001
0.024943 -0.20971 0.91921002
0.026551999 -0.21015 0.92115003
0.028159 -0.21053 0.92277998
0.029758999 -0.21080001 0.92399001
0.031355001 -0.21103001 0.92501003
0.032937001 -0.21115001 0.92552
0.034508001 -0.21119 0.92567998
0.036075 -0.2112 0.92574
0.037643 -0.21122 0.92580998
0.039213002 -0.21125001 0.92593998
0.040792 -0.21132 0.92624998
0.042371001 -0.21138 0.92653
0.043942001 -0.2114 0.92662001
0.045522001 -0.21146999 0.92690003
0.047109999 -0.21156 0.92730999
0.048700001 -0.21166 0.92774999
0.050292 -0.21175 0.92817003
0.051897001 -0.21190999 0.92883003
0.053495999 -0.21201999 0.92931998
0.055096999 -0.21213 0.92983001
0.056706998 -0.21227001 0.93045002
0.058322001 -0.21243 0.93112999
0.059939999 -0.21258 0.93180001
0.061586 -0.21283001 0.93286997
0.063244998 -0.21311 0.93409002
0.064939 -0.21348 0.93572998
0.066665001 -0.21393999 0.93777001
0.068421997 -0.21448 0.94011998
0.070211999 -0.21510001 0.94282001
0.072006002 -0.2157 0.94545001
-0.030029999 -0.21228001 0.93743002
-0.028425001 -0.21213 0.93674999
-0.026815001 -0.21191999 0.93583
-0.025192 -0.21157999 0.93434
-0.023576001 -0.21125001 0.93290001
-0.021964001 -0.21091001 0.9314
-0.020357 -0.21058001 0.92991
-0.018763 -0.21032999 0.92882001
-0.017177001 -0.21014 0.92800999
-0.015594 -0.20995 0.92714
-0.014012 -0.20973 0.92618001
-0.012432 -0.20949 0.92509001
-0.010853 -0.20920999 0.92387003
-0.0092756003 -0.20885 0.92228001
-0.0077014999 -0.20845 0.92049998
-0.0061336998 -0.20805 0.91876
-0.0045697 -0.20756 0.91658998
-0.0030153999 -0.20723 0.91513997
-0.0014667 -0.207 0.91412997
7.8611003e-05 -0.20687 0.91355997
0.0016213 -0.20666 0.91259998
0.0031636001 -0.20661999 0.91246003
0.0047058002 -0.20660999 0.91237998
0.0062489999 -0.20663001 0.91249001
0.0077912002 -0.20661999 0.91245002
0.0093336999 -0.20661999 0.91244
0.010879 -0.20667 0.91267002
0.012422 -0.20667 0.91267002
0.013969 -0.20674001 0.91295999
0.015519 -0.20682999 0.91336
0.017077999 -0.207 0.91412002
0.018634001 -0.20712 0.91464001
0.020204 -0.20736 0.91570997
0.021786001 -0.20769 0.91716999
0.023376999 -0.20805 0.91876
0.024971001 -0.20839 0.92027003
0.026582001 -0.20883 0.92218
0.028192 -0.20919999 0.92382997
0.029793 -0.20948 0.92505002
0.031390999 -0.2097 0.92606002
0.032977 -0.20983 0.92663997
0.034543 -0.20983 0.92662001
0.036107998 -0.20982 0.92659003
0.037673999 -0.20982 0.92659003
0.039237998 -0.20981 0.92651999
0.040809002 -0.20983 0.92663002
0.042383 -0.20987 0.92680001
0.043946002 -0.20985 0.92671001
0.045527 -0.20992 0.92699999
0.047118999 -0.21003 0.92750001
0.048716001 -0.21015 0.92804003
0.050312001 -0.21027 0.92855
0.051924001 -0.21043999 0.92931002
0.053523999 -0.21055 0.92979997
0.055126999 -0.21066999 0.93032998
0.056731999 -0.21078999 0.93085003
0.058341999 -0.21092001 0.93144
0.059971999 -0.21111999 0.93229997
0.061627001 -0.21139 0.93348998
0.063304 -0.21172 0.93496001
0.065012999 -0.21213999 0.93681002
0.066761002 -0.21266 0.93911999
0.068526 -0.21321 0.94155997
0.070312001 -0.2138 0.94417
0.072093002 -0.21435 0.94659001
-0.030022999 -0.21064 0.93721998
-0.028431 -0.21059 0.93697
-0.026828 -0.21043 0.93629003
-0.025212999 -0.21017 0.93510002
-0.023598 -0.20986 0.93374997
-0.021983 -0.20952 0.93221003
-0.020372 -0.20916 0.93062001
-0.018777 -0.20891 0.92951
-0.017192001 -0.20874999 0.92879999
-0.015611 -0.2086 0.92813998
-0.01403 -0.20843001 0.92738003
-0.012452 -0.20825 0.92657
-0.010874 -0.20803 0.92561001
-0.0092976997 -0.20778 0.92448002
-0.0077225999 -0.20745 0.92300999
-0.0030201999 -0.20601 0.91658998
-0.0014682 -0.20566 0.91503
7.8684003e-05 -0.20555 0.91456002
0.0016233 -0.20536999 0.91373998
0.0031671999 -0.20531 0.91347998
0.0047113998 -0.2053 0.91346997
0.0062564001 -0.20533 0.91359001
0.0078012999 -0.20534 0.91363001
0.0093459999 -0.20534 0.91364002
0.010893 -0.2054 0.91389
0.012437 -0.20537999 0.9138
0.013986 -0.20543 0.91403002
0.015538 -0.20552 0.91444999
0.017100001 -0.20572001 0.91531003
0.01866 -0.20586 0.91595
0.020231999 -0.2061 0.91702002
0.021814 -0.20640001 0.91835999
0.023402 -0.20671 0.91971999
0.024992 -0.207 0.92101997
0.026596 -0.20737 0.92265999
0.028204 -0.20772 0.92423999
0.029805999 -0.208 0.92546999
0.031404998 -0.20823 0.92646998
0.032995 -0.20838 0.92714
0.034565002 -0.20839 0.92721999
0.036130998 -0.20839 0.92719001
0.037698999 -0.20839 0.92717999
0.039259002 -0.20835 0.92702001
0.040823001 -0.20833001 0.92694002
0.042392999 -0.20835 0.92699999
0.043954 -0.20832001 0.92689002
0.045536 -0.20839 0.92717999
0.047129001 -0.2085 0.92769003
0.048726 -0.20862 0.92822999
0.050322 -0.20874 0.92874002
0.051934998 -0.20891 0.92948997
0.053534999 -0.20902 0.93000001
0.05514 -0.20914 0.93054003
0.056744002 -0.20926 0.93106002
0.058359999 -0.20941 0.93172002
0.060003001 -0.20964 0.93278003
0.061675001 -0.20997 0.93422002
0.063376002 -0.21037 0.93602002
0.065100998 -0.21084 0.93808001
0.066858001 -0.21137001 0.94047999
0.068631001 -0.21194001 0.94299001
0.070404999 -0.21247999 0.94541001
0.072173998 -0.21299 0.94765002
-0.030055 -0.20928 0.93822002
-0.028461 -0.20920999 0.93794
-0.026854999 -0.20906 0.93722999
-0.02524 -0.20881 0.93611997
-0.023623999 -0.20851 0.93476999
-0.022 -0.20810001 0.93292999
-0.020385001 -0.20772 0.93122
-0.018787 -0.20744 0.93000001
-0.017200001 -0.20727 0.92921001
-0.015619 -0.20714 0.92864001
-0.014042 -0.20703 0.92817003
-0.012465 -0.2069 0.92756999
-0.010889 -0.20676 0.92694002
-0.0093168998 -0.20664001 0.92638999
-0.0030246 -0.20475 0.91794002
7.8794001e-05 -0.2042 0.91544002
0.0016254 -0.20408 0.91491002
0.0031715001 -0.20404001 0.91474003
0.0047189998 -0.20409 0.91495001
0.0062671001 -0.20412999 0.91513997
0.0078144995 -0.20413999 0.91518003
0.0093609998 -0.20412 0.91510999
0.010911 -0.20417 0.91535002
0.012456 -0.20413999 0.91517001
0.014005 -0.20417 0.91531003
0.01556 -0.20426001 0.91573
0.017124999 -0.20446999 0.91667002
0.018688001 -0.20461001 0.91728997
0.020258 -0.20479999 0.91816998
0.021834999 -0.20503999 0.91921997
0.023418 -0.2053 0.92036998
0.025003999 -0.20554 0.92148
0.026605001 -0.20587 0.92295998
0.028216001 -0.20624 0.92462999
0.029821999 -0.20654 0.92594999
0.031422 -0.20677 0.92698002
0.033013001 -0.20692 0.92765999
0.034588002 -0.20695999 0.92782998
0.036155 -0.20694999 0.9278
0.037723001 -0.20694999 0.92778999
0.039280999 -0.2069 0.92754
0.040844999 -0.20687 0.92743999
0.042411 -0.20686001 0.92738998
0.043972999 -0.20683999 0.92728001
0.04555 -0.20688 0.92747998
0.047143999 -0.20699 0.92799002
0.048741002 -0.20711 0.92852002
0.050338 -0.20722 0.92901999
0.05195 -0.20739 0.92976999
0.053552002 -0.20750999 0.93028998
0.055156 -0.20762999 0.93081999
0.056754999 -0.20772 0.93124002
0.058371 -0.20787001 0.93190002
0.060028002 -0.20815 0.93316001
0.061714999 -0.20852 0.93482
0.063432001 -0.20897 0.93685001
0.065180004 -0.2095 0.93919998
0.066944003 -0.21005 0.94169998
0.068714 -0.2106 0.94414002
0.070483997 -0.21111999 0.94647002
0.072240002 -0.21156999 0.94850999
0.074514002 -0.21512 0.95713001
0.074364997 -0.21307001 0.95520997
-0.028486 -0.20781 0.93877
-0.026875 -0.20761999 0.93794
-0.025258999 -0.20737 0.9368
-0.023642 -0.20708001 0.93550003
-0.022012001 -0.20663001 0.93346
-0.020393999 -0.20623 0.93162
-0.018794 -0.20595001 0.93037999
-0.017207 -0.20577 0.92957997
-0.015626 -0.20565 0.92903
-0.014051 -0.20558999 0.92874002
-0.012476 -0.20552 0.92842001
-0.010904 -0.20546 0.92815
-0.0093331998 -0.20543 0.92800999
-0.0077630999 -0.20539001 0.92786002
-0.0014738 -0.20332 0.91850001
7.9010999e-05 -0.20329 0.91834998
0.0016298 -0.20306 0.91733998
0.0031799001 -0.20303001 0.91716999
0.0047308998 -0.20305 0.91725999
0.0062815002 -0.20304 0.91724002
0.0078301998 -0.20299 0.91702002
0.0093769999 -0.20292 0.91667002
0.010929 -0.20297 0.91689003
0.012478 -0.20294 0.91676003
0.014026 -0.20292 0.91668999
0.015581 -0.20299 0.91698998
0.017145 -0.20315 0.91773999
0.018704999 -0.20325001 0.91816002
0.020273 -0.2034 0.91883999
0.021848001 -0.2036 0.91978002
0.023429999 -0.20384 0.92084998
0.025017001 -0.20409 0.92196
0.026616 -0.2044 0.92334998
0.028227 -0.20476 0.92501003
0.029834 -0.20505001 0.92632002
0.031435002 -0.20529 0.92737001
0.033027999 -0.20544 0.92808002
0.034607001 -0.20550001 0.92834997
0.036176 -0.20550001 0.92831999
0.037744001 -0.20548999 0.92830998
0.039303001 -0.20544 0.92804998
0.040867001 -0.20541 0.92794001
0.042433001 -0.2054 0.92789
0.043997001 -0.20537999 0.92777997
0.045575 -0.20542 0.92798001
0.047164999 -0.20551001 0.92840999
0.048762001 -0.20563 0.92891002
0.050359 -0.20574 0.92940998
0.051966999 -0.20588 0.93008
0.053564001 -0.20598 0.93050998
0.055167999 -0.20609 0.93102998
0.056761 -0.20615999 0.93133998
0.058382001 -0.20633 0.93207997
0.060052 -0.20665 0.93353999
0.061753999 -0.20706999 0.93541998
0.063479997 -0.20754001 0.93755001
0.065234996 -0.20807999 0.94001001
0.067008004 -0.20864999 0.94259
0.068781003 -0.20919999 0.94506001
0.070546001 -0.2097 0.94730997
0.072324999 -0.21021 0.94963998
0.074285001 -0.21122 0.95419002
