# .PCD v0.7 - Point Cloud Data file format
VERSION 0.7
FIELDS x y z
SIZE 4 4 4
TYPE F F F
COUNT 1 1 1
WIDTH 1508
HEIGHT 1
VIEWPOINT 0 0 0 1 0 0 0
POINTS 1508
DATA ascii
0.02423 -0.20977999 0.89296001
0.025705 -0.2095 0.89175999
0.027158 -0.20907 0.88994002
0.028596999 -0.2086 0.88792998
0.030026 -0.20810001 0.88581002
0.031445999 -0.20758 0.88361001
0.032864999 -0.20711 0.88161999
0.034286 -0.20669 0.87984002
0.035719 -0.20637999 0.87848997
0.037142999 -0.20603999 0.87706
0.038575001 -0.20577 0.87589002
0.040002 -0.20550001 0.87472999
0.041441999 -0.2053 0.87392002
0.042885002 -0.20513999 0.87321001
0.044339001 -0.20502999 0.87277001
0.045779001 -0.20487 0.87208998
0.047228001 -0.20476 0.87162
0.048675001 -0.20465 0.87115997
0.050117999 -0.20453 0.87063998
0.051561002 -0.20442 0.87014002
0.05302 -0.20437001 0.86995
0.054488 -0.20435999 0.86992002
0.05596 -0.20437001 0.86993003
0.057455 -0.20445 0.87028998
0.058972999 -0.20462 0.87099999
0.060495999 -0.20479 0.87172002
0.062003002 -0.2049 0.87219
0.063520998 -0.20503999 0.87278003
0.065021001 -0.20512 0.87312001
0.066504002 -0.20513999 0.87321001
0.067987002 -0.20516001 0.87329
0.069482997 -0.20521 0.87353998
0.070968002 -0.20524 0.87364
0.072467998 -0.2053 0.87392002
0.074018002 -0.20551001 0.87478
0.075567 -0.2057 0.87559003
0.077157997 -0.20599 0.87685001
0.078782998 -0.20637 0.87844002
0.080417 -0.20675001 0.88006997
0.082034998 -0.20708001 0.88147002
0.083686002 -0.20748 0.88317001
0.085327998 -0.20784 0.88471001
0.086942002 -0.20812 0.88591999
0.088551 -0.20838 0.88703001
0.090131998 -0.20857 0.88783002
0.091686003 -0.20869 0.88835001
0.093215004 -0.20874999 0.88861001
0.019769 -0.20897999 0.89600998
0.021259001 -0.20873 0.89497
0.022744 -0.20848 0.89387
0.024227999 -0.20824 0.89287001
0.025705 -0.20798001 0.89174002
0.027156999 -0.20756 0.88993001
0.0286 -0.20711 0.88801998
0.030035 -0.20666 0.88607001
0.031458002 -0.20616999 0.88397002
0.032882001 -0.20572001 0.88207
0.034304 -0.20531 0.88029999
0.035737 -0.20499 0.87892997
0.037161998 -0.20466 0.87751001
0.038594 -0.20439 0.87633997
0.040022999 -0.20412 0.87518001
0.04146 -0.20390999 0.87427998
0.042897999 -0.20372 0.87347001
0.044351 -0.20361 0.87300998
0.045786999 -0.20343 0.87225002
0.047233 -0.20331 0.87172002
0.04868 -0.2032 0.87124002
0.050122999 -0.20308 0.87072003
0.051555 -0.20292 0.87005001
0.053009 -0.20285 0.86976999
0.054476 -0.20284 0.86971998
0.055953 -0.20287 0.86982
0.057454001 -0.20298 0.87028998
0.058991 -0.2032 0.87125999
0.060532 -0.20343 0.87224001
0.062052999 -0.20358001 0.87289
0.063573003 -0.20373 0.87349999
0.065073997 -0.20379999 0.87383002
0.066552997 -0.20381001 0.87383997
0.068035997 -0.20382001 0.87392002
0.069527 -0.20386 0.87409002
0.071013004 -0.20389 0.87419999
0.072512999 -0.20395 0.87445998
0.074063003 -0.20415001 0.87531
0.075606003 -0.20432 0.87603998
0.077197 -0.20461001 0.87730002
0.078838997 -0.20502 0.87906998
0.080491997 -0.20545 0.88089001
0.082129002 -0.20581999 0.88248003
0.083789997 -0.20624 0.88427001
0.085432 -0.20659 0.88578999
0.087038003 -0.20685001 0.88688999
0.088629 -0.20705999 0.88780999
0.090193003 -0.20721 0.88843
0.091747999 -0.20733 0.88894999
0.093295999 -0.20743001 0.88937998
0.021252001 -0.20715 0.89468002
0.022745 -0.20697001 0.89389998
0.024233 -0.20677 0.89305001
0.02571 -0.20651001 0.8919
0.027162001 -0.20609 0.89008999
0.028604999 -0.20564 0.88818002
0.030037999 -0.20518 0.88616002
0.031461999 -0.20468999 0.88406003
0.032887999 -0.20427001 0.88224
0.034309998 -0.20386 0.88046002
0.035744 -0.20354 0.87910002
0.037172999 -0.20322999 0.87775999
0.038609002 -0.20298 0.87667
0.040038001 -0.20271 0.87551999
0.041480001 -0.20252 0.87470001
0.042915002 -0.20231999 0.87382001
0.044365 -0.20219 0.87327999
0.045797002 -0.20200001 0.87243003
0.047238 -0.20185 0.87181002
0.048680998 -0.20172 0.87124997
0.050122999 -0.2016 0.87072003
0.051555 -0.20144001 0.87005001
0.053002998 -0.20136 0.86966997
0.054469999 -0.20135 0.86962998
0.055952001 -0.20139 0.86979997
0.057464998 -0.20153999 0.87045002
0.059009999 -0.20179 0.87153
0.060568999 -0.20208 0.87277001
0.062098 -0.20225 0.87352002
0.063625 -0.20241 0.87421
0.065122001 -0.20247 0.87447
0.066600002 -0.20247 0.87447
0.068085 -0.20249 0.87454998
0.069582999 -0.20254999 0.87480003
0.071070999 -0.20257001 0.87489998
0.072571002 -0.20263 0.87515998
0.074120998 -0.20282 0.87599999
0.075658001 -0.20297 0.87664998
0.077246003 -0.20325001 0.87785
0.078883 -0.20365 0.87954998
0.080542997 -0.20409 0.88145
0.082197003 -0.20449001 0.88321
0.083861999 -0.20491 0.88502002
0.085496001 -0.20524 0.88644999
0.087100998 -0.20548999 0.88753003
0.088682003 -0.20568 0.88834
0.090231001 -0.20579 0.88880998
0.091797002 -0.20592999 0.88941997
0.093374997 -0.20609 0.89012998
0.021253999 -0.20565 0.89475
0.022748001 -0.20547999 0.89402997
0.024239 -0.20531 0.89326
0.025715001 -0.20503999 0.89209998
0.027164999 -0.20460001 0.89019001
0.028608 -0.20416 0.88826001
0.030041 -0.20369001 0.88625002
0.031466998 -0.20322999 0.88422
0.032894 -0.20281 0.88239002
0.034318998 -0.20241 0.88068002
0.035750002 -0.20209 0.87926
0.037183002 -0.2018 0.87800002
0.038619999 -0.20155001 0.87691998
0.040054001 -0.20130999 0.87585998
0.041496001 -0.20112 0.87506002
0.042932998 -0.20092 0.87418997
0.044383001 -0.20079 0.87362999
0.045814998 -0.2006 0.87278003
0.047256 -0.20045 0.87213999
0.048698999 -0.20032001 0.87159002
0.050147001 -0.20022 0.87112999
0.051584002 -0.20008001 0.87054998
0.053034 -0.2 0.87018001
0.054497 -0.19997001 0.87005001
0.055978999 -0.20001 0.87022001
0.057482999 -0.20013 0.87072003
0.059032001 -0.20039 0.87185001
0.060602002 -0.2007 0.87323999
0.062139999 -0.20091 0.87412
0.063676 -0.20108999 0.87491
0.065180004 -0.20116 0.87524998
0.066660002 -0.20117 0.87524998
0.068145998 -0.20118999 0.87533998
0.069646001 -0.20124 0.87559003
0.071128003 -0.20125 0.87562001
0.072630003 -0.20130999 0.87586999
0.074175 -0.20148 0.87663001
0.075714 -0.20163 0.87729001
0.077301003 -0.20191 0.87847
0.078945003 -0.20231 0.88024998
0.080600001 -0.20273 0.88207
0.082254998 -0.20314001 0.88384002
0.083912998 -0.20354 0.88556999
0.085541002 -0.20385 0.88691998
0.087137997 -0.20408 0.88791001
0.088728003 -0.20428 0.88880002
0.090287998 -0.20441 0.88937002
0.091884002 -0.20462 0.89025998
0.093502998 -0.20487 0.89134997
0.095835 -0.20817 0.89910001
0.095104001 -0.20507 0.89222997
0.021268001 -0.20427001 0.89537001
0.022763999 -0.20411 0.89466
0.024256 -0.20394 0.89389998
0.025734 -0.20367999 0.89275002
0.027182 -0.20321 0.89073002
0.028622 -0.20275 0.88870001
0.030053001 -0.20227 0.88659
0.031477001 -0.20179 0.88449001
0.032903999 -0.20137 0.88265997
0.034332 -0.20100001 0.88103002
0.035764001 -0.20067 0.87959999
0.037198 -0.20039 0.87835002
0.038639002 -0.20016 0.87735999
0.040077999 -0.19994 0.87638003
0.041522 -0.19976 0.87559003
0.042959999 -0.19956 0.87472999
0.044406001 -0.19942001 0.87409002
0.045841999 -0.19923 0.87329
0.047284 -0.19909 0.87265003
0.048733 -0.19898 0.87219
0.050182998 -0.19889 0.87176001
0.051631998 -0.19879 0.87133998
0.053078 -0.19869 0.87090999
0.054536998 -0.19864 0.8707
0.056014001 -0.19866 0.87076998
0.057509001 -0.19874001 0.87111998
0.059048999 -0.19897 0.87212002
0.060614999 -0.19927 0.87344003
0.062158 -0.19948 0.87436998
0.063699998 -0.19968 0.87524003
0.065203004 -0.19975001 0.87555999
0.066697001 -0.19979 0.87573999
0.068194002 -0.19983999 0.87594998
0.069702998 -0.19992 0.87629998
0.071194001 -0.19994999 0.87642002
0.072704002 -0.20003 0.87677002
0.074244 -0.20017999 0.87743998
0.075782999 -0.20033 0.87809002
0.077356003 -0.20056 0.87910002
0.078984998 -0.20092 0.88069999
0.080631003 -0.20132001 0.88240999
0.082286999 -0.20172 0.88417
0.083939001 -0.20209999 0.88584
0.085568003 -0.20241 0.8872
0.087173 -0.20265 0.88827002
0.088763997 -0.20286 0.88916999
0.090334997 -0.20300999 0.88984001
0.091944002 -0.20324001 0.89085001
0.093594 -0.20355 0.89222002
0.095227003 -0.20382001 0.89339
0.022784 -0.20276999 0.89545
0.024274999 -0.20258 0.89459997
0.025753999 -0.20231999 0.89342999
0.027201001 -0.20185 0.89138001
0.02864 -0.20137 0.88924998
0.030068001 -0.20087001 0.88704997
0.031491 -0.20038 0.88488001
0.032917999 -0.19995999 0.88304001
0.034348 -0.1996 0.88142002
0.035780001 -0.19927 0.87998998
0.037214998 -0.19899 0.87875003
0.038660001 -0.19878 0.87783003
0.040103 -0.19858 0.87694001
0.041552 -0.19842 0.87623
0.042994998 -0.19824 0.87544
0.044442002 -0.1981 0.87480003
0.045887001 -0.19795001 0.87414998
0.047334999 -0.19783001 0.87361002
0.048788 -0.19773 0.87317997
0.050244998 -0.19765 0.87285
0.051701002 -0.19757999 0.87251002
0.053144 -0.19746 0.87199003
0.054595001 -0.19738001 0.87162
0.056065999 -0.19736999 0.87158
0.057548001 -0.19739 0.87169999
0.059068002 -0.19755 0.87238997
0.062178001 -0.19806001 0.87463999
0.063723996 -0.19826999 0.87557
0.065233998 -0.19836 0.87597001
0.066733003 -0.19842 0.87620997
0.068236999 -0.19848 0.87650001
0.069753997 -0.19858 0.87695003
0.071253002 -0.19863001 0.87715
0.072772004 -0.19873001 0.87759
0.074313 -0.19888 0.87826002
0.075846002 -0.19901 0.87882
0.077404 -0.19919001 0.87963998
0.079025 -0.19953001 0.88113999
0.080655001 -0.19988 0.88268
0.082310997 -0.20028 0.88442999
0.083954997 -0.20062999 0.88600999
0.085584 -0.20094 0.88736999
0.087188996 -0.20118 0.88843
0.088789999 -0.20141 0.88941997
0.090370998 -0.20158 0.89019001
0.092000999 -0.20186 0.89139998
0.093671001 -0.20220999 0.89295
0.095324002 -0.20251 0.89429998
0.097739004 -0.20592999 0.90263999
0.096969999 -0.20279001 0.89554
0.022799 -0.20138 0.89602
0.024281999 -0.20113 0.89488
0.025760001 -0.20085 0.89366001
0.027210999 -0.20040999 0.89169002
0.028651999 -0.19994 0.88962001
0.030084999 -0.19948 0.88753998
0.031511001 -0.19901 0.88543999
0.032938998 -0.19859 0.8836
0.034366 -0.19821 0.88189
0.035799 -0.19789 0.88046002
0.037234999 -0.19761001 0.87922001
0.038681 -0.1974 0.87831002
0.040125001 -0.1972 0.87740999
0.041577999 -0.19706 0.87677002
0.043026 -0.1969 0.87607998
0.044479001 -0.19678 0.87553
0.045935001 -0.19667 0.87506002
0.047394 -0.19659001 0.87469
0.048854999 -0.19652 0.87437999
0.050315 -0.19645 0.87405002
0.051775999 -0.19638 0.87378001
0.053215001 -0.19623999 0.87314999
0.054657001 -0.19611999 0.87260002
0.056113001 -0.19605 0.87230003
0.057583999 -0.19604 0.87225002
0.059080001 -0.19611 0.87256998
0.062194999 -0.19663 0.87489003
0.065264001 -0.19697 0.87638003
0.066766001 -0.19702999 0.87664998
0.068272002 -0.1971 0.87695003
0.069797002 -0.19722 0.87747997
0.071304999 -0.19729 0.87778997
0.072825998 -0.19739 0.87823999
0.074368 -0.19754 0.87891001
0.075900003 -0.19766 0.87945002
0.077444002 -0.1978 0.88010001
0.079049997 -0.1981 0.88142002
0.080678999 -0.19844 0.88293999
0.082327001 -0.19881999 0.88459998
0.083963998 -0.19915 0.88609999
0.085601002 -0.19948 0.88753998
0.087205999 -0.19972 0.88859999
0.088806003 -0.19994 0.88959002
0.090406001 -0.20015 0.89052999
0.092053004 -0.20046 0.89191002
0.093726002 -0.20081 0.89348
0.095394999 -0.20115 0.89497
0.097051002 -0.20144001 0.89629
0.022810999 -0.19998001 0.89652002
0.024290999 -0.19968 0.89519
0.025769001 -0.19941001 0.89397001
0.027223 -0.19899 0.89209998
0.02867 -0.19856 0.89017999
0.030113 -0.19814999 0.88836002
0.031539001 -0.19768 0.88624001
0.032965999 -0.19724999 0.88431001
0.034393001 -0.19687 0.88259
0.035827 -0.19655 0.88116002
0.037264001 -0.19627 0.87989998
0.038711 -0.19607 0.87898999
0.040158998 -0.19588 0.87817001
0.041615002 -0.19574 0.87755001
0.043069001 -0.19561 0.87695003
0.044525001 -0.19549 0.87642998
0.045986999 -0.19541 0.87606001
0.047453001 -0.19535001 0.87579
0.048921 -0.1953 0.87555999
0.050386999 -0.19524001 0.87531
0.051853999 -0.1952 0.87510002
0.053295001 -0.19506 0.87445998
0.054731999 -0.19491 0.87380999
0.056178 -0.1948 0.87331998
0.057633001 -0.19473 0.87299001
0.059103999 -0.19471 0.87292999
0.060630001 -0.19487 0.87365001
0.063767001 -0.19543 0.87616003
0.065283 -0.19554 0.87663001
0.066785999 -0.1956 0.87690997
0.068299003 -0.19569001 0.87730002
0.069825001 -0.19581001 0.87783998
0.071341 -0.19589999 0.87823999
0.072870001 -0.19602001 0.87876999
0.074413002 -0.19617 0.87945002
0.075946003 -0.19629 0.87998998
0.077483997 -0.19641 0.88055003
0.079081997 -0.19668999 0.88177001
0.080704004 -0.19701 0.88321
0.082344003 -0.19735999 0.88479
0.083973996 -0.19767 0.88621002
0.085611001 -0.198 0.88764
0.087214999 -0.19823 0.88870001
0.088816002 -0.19845 0.88968003
0.090433002 -0.1987 0.8908
0.092091002 -0.19903 0.89227998
0.093764998 -0.19938 0.89385003
0.095444001 -0.19972999 0.89543003
0.097099997 -0.20002 0.89674002
0.027237 -0.19757999 0.89256001
0.028689001 -0.19719 0.89077997
0.030143 -0.19685 0.88925999
0.031567998 -0.19636001 0.88704997
0.032995 -0.19593 0.88511002
0.034421001 -0.19553 0.88328999
0.035859 -0.19523001 0.88192999
0.037289999 -0.19491 0.88051999
0.038738001 -0.19471 0.87959999
0.040188 -0.19453 0.87878001
0.041648 -0.19441 0.87825
0.043108001 -0.1943 0.87774998
0.044569999 -0.19420999 0.87733001
0.046043001 -0.19416 0.87712002
0.047516 -0.19412 0.87694001
0.048985001 -0.19407 0.87669998
0.050448 -0.19400001 0.87638003
0.051917002 -0.19395 0.87616003
0.053358998 -0.19381 0.87551999
0.054793999 -0.19365001 0.87480003
0.056237001 -0.19351999 0.87423003
0.057686001 -0.19343001 0.87380999
0.065263003 -0.19399001 0.87636
0.066785999 -0.19411001 0.87690002
0.068306997 -0.19422001 0.87739998
0.069839999 -0.19436 0.87803
0.071362004 -0.19446 0.87848997
0.072898999 -0.1946 0.87910998
0.074450001 -0.19476999 0.87988001
0.075976998 -0.19487999 0.88034999
0.077508003 -0.19498 0.88082999
0.079090998 -0.19520999 0.88186997
0.080704004 -0.19551 0.88322002
0.082336999 -0.19584 0.88472003
0.083967999 -0.19616 0.88613999
0.085605003 -0.19648001 0.88757998
0.087215997 -0.19673 0.88871002
0.088817999 -0.19695 0.88971001
0.090443999 -0.19721 0.89091003
0.092106 -0.19755 0.89241999
0.093790002 -0.19791999 0.89409
0.095480002 -0.19829001 0.89576
0.097145997 -0.19859999 0.89715999
0.09962 -0.20206 0.90587002
0.098768003 -0.19881 0.89811999
0.027241001 -0.19609 0.89269
0.028704001 -0.19577999 0.89125001
0.030169001 -0.19551 0.89001
0.031598002 -0.19504 0.88788998
0.03303 -0.19463 0.88603002
0.034457002 -0.19423001 0.88420999
0.035891999 -0.19391 0.88275999
0.037324 -0.1936 0.88133001
0.038770001 -0.19338 0.88033003
0.040217001 -0.19317999 0.87943
0.041678999 -0.19306999 0.87889999
0.043143999 -0.19296999 0.87848002
0.044608001 -0.19288 0.87805998
0.046085 -0.19284999 0.87791997
0.047563002 -0.19283 0.87781
0.049033999 -0.19277 0.87756997
0.050503001 -0.19272 0.87733001
0.051975001 -0.19268 0.87712997
0.053424999 -0.19256 0.87659001
0.054869998 -0.19243 0.87601
0.05632 -0.19232 0.87551999
0.057766002 -0.19221 0.87502003
0.066770002 -0.19258 0.87669998
0.068306997 -0.19273999 0.87739998
0.069840997 -0.19288 0.87804002
0.071362004 -0.19296999 0.87848997
0.072906002 -0.19313 0.87919998
0.074464999 -0.19332001 0.88006002
0.075994998 -0.19343001 0.88055003
0.077524997 -0.19352999 0.88101
0.079106003 -0.19374999 0.88204002
0.080710001 -0.19403 0.88327998
0.082327999 -0.19431999 0.88461
0.083950996 -0.19462 0.88595998
0.085587002 -0.19493 0.88739002
0.087191001 -0.19516 0.88845003
0.088792004 -0.19538 0.88944
0.090428002 -0.19566999 0.89074999
0.092107996 -0.19604 0.89243001
0.093811996 -0.19645 0.89429998
0.095531002 -0.19687 0.89624
0.097217999 -0.19722 0.89783001
0.098851003 -0.19745 0.89886999
0.10035 -0.19893 0.89867002
0.10043 -0.19757 0.89942998
0.027237 -0.19454999 0.89253998
0.028711 -0.19431999 0.89148003
0.030188 -0.19412 0.89058
0.031631 -0.19374 0.88881999
0.033071 -0.19337 0.88714999
0.034506999 -0.19301 0.88550001
0.035944 -0.1927 0.88404
0.037374001 -0.19236 0.88252002
0.038818002 -0.19212 0.88141
0.040259 -0.19189 0.88033998
0.041712999 -0.19172999 0.87963003
0.043175001 -0.19162001 0.87910998
0.044638999 -0.19153 0.87866998
0.046114001 -0.19148 0.87847
0.047593001 -0.19146 0.87835997
0.049068999 -0.19142 0.87821001
0.05054 -0.19137 0.87796998
0.052017 -0.19135 0.87785
0.053479001 -0.19126999 0.87748998
0.054940999 -0.19119 0.87713999
0.05641 -0.19114 0.87691998
0.068333998 -0.19133 0.87774998
0.069854997 -0.19143 0.87822002
0.071374997 -0.19152001 0.87865001
0.072920002 -0.19168 0.87936997
0.074473001 -0.19185001 0.88015997
0.076003 -0.19196001 0.88064998
0.077532999 -0.19205999 0.88111001
0.079106003 -0.19226 0.88204002
0.080701001 -0.19250999 0.88318002
0.082309 -0.19278 0.88441002
0.083921999 -0.19305 0.88565999
0.085548997 -0.19334 0.88700998
0.087151997 -0.19357 0.88805997
0.088753 -0.19379 0.88906002
0.090397999 -0.19408999 0.89045
0.092095003 -0.1945 0.89231002
0.093837 -0.19498 0.89453
0.095596001 -0.19549 0.89684999
0.097308002 -0.19588 0.89866
0.098961003 -0.19615 0.89987999
0.10147 -0.19808 0.90873998
0.027245 -0.19309001 0.89280999
0.028724 -0.19289 0.89186001
0.030207001 -0.19272999 0.89113998
0.031661 -0.19241001 0.88964999
0.03311 -0.19209 0.88818997
0.034557998 -0.1918 0.88681
0.035998002 -0.19148 0.88534999
0.037425999 -0.19113 0.88372999
0.038865998 -0.19087 0.88251001
0.040304001 -0.19061001 0.88132
0.041754998 -0.19043 0.88050002
0.043217 -0.19032 0.87997001
0.044677999 -0.1902 0.87945002
0.046149999 -0.19013999 0.87917
0.047626 -0.1901 0.87897998
0.049098998 -0.19005001 0.87875003
0.050567001 -0.18998 0.87843001
0.052049998 -0.18998 0.87840003
0.053523 -0.18994001 0.87821001
0.054999001 -0.18990999 0.87807
0.056476999 -0.18989 0.87796998
0.057966001 -0.1899 0.87803
0.062290002 -0.19099 0.87623
0.060874999 -0.18971001 0.87717998
0.062344 -0.18967 0.87698001
0.063827999 -0.18967 0.87699997
0.065286003 -0.19109 0.87667
0.065324001 -0.18971001 0.87717998
0.066840999 -0.18980999 0.87763
0.068365 -0.18991999 0.87814999
0.069876999 -0.19 0.87849998
0.071396001 -0.19009 0.87891001
0.072939999 -0.19024 0.87962002
0.074487999 -0.1904 0.88033003
0.076025002 -0.19052 0.88090003
0.077561997 -0.19064 0.88143998
0.079127997 -0.19081999 0.88229001
0.080709003 -0.19103 0.88326001
0.082307003 -0.19126999 0.88439
0.083902001 -0.19149999 0.88545001
0.085502997 -0.19172999 0.88652003
0.087087996 -0.19192 0.88739997
0.088679001 -0.19212 0.88831002
0.090311997 -0.19239999 0.88960999
0.092017002 -0.19282 0.89156002
0.093805 -0.1934 0.89423001
0.095608003 -0.19399001 0.89696002
0.097364001 -0.19447 0.89916998
0.099049002 -0.1948 0.90068001
0.028728001 -0.19141001 0.89200997
0.030218 -0.19129001 0.89146
0.031686001 -0.19106001 0.89038002
0.033147998 -0.19080999 0.88919997
0.034605 -0.19055 0.88801003
0.036047 -0.19024 0.88656002
0.037473001 -0.18987 0.88484001
0.038906999 -0.18956999 0.88343
0.040337 -0.18927 0.88204998
0.041781001 -0.18906 0.88106
0.043244001 -0.18894 0.88051999
0.044705998 -0.18883 0.88
0.046179 -0.18877 0.87971997
0.047656 -0.18873 0.87952
0.049128 -0.18867999 0.87927002
0.050586998 -0.18856999 0.87878001
0.052069999 -0.18855999 0.87875003
0.053548999 -0.18854 0.87862998
0.055034 -0.18854 0.87862003
0.056513 -0.18852 0.87853003
0.058008 -0.18855 0.87867999
0.059418999 -0.18979999 0.87757999
0.059466999 -0.18846001 0.87827998
0.060924001 -0.18838 0.87787998
0.06239 -0.18832 0.87764001
0.063873999 -0.18832999 0.87764001
0.065366998 -0.18835001 0.87774998
0.066877998 -0.18843 0.87812001
0.068395004 -0.18852 0.87853003
0.069908001 -0.18859001 0.87888998
0.071424998 -0.18867999 0.87927002
0.072968997 -0.18882 0.87997001
0.074518003 -0.18898 0.88068002
0.076070003 -0.18914001 0.88142002
0.077615999 -0.18927 0.88204998
0.079184003 -0.18945999 0.88291001
0.080751002 -0.18963 0.88372999
0.082340002 -0.18985 0.88475001
0.083908997 -0.19001999 0.88551998
0.085483998 -0.19019 0.88633001
0.087049998 -0.19034 0.88700998
0.088629 -0.19051 0.88780999
0.090244003 -0.19075 0.88893002
0.091939002 -0.19114999 0.8908
0.093772002 -0.19182 0.89392
0.095619999 -0.1925 0.89706999
0.097430997 -0.19307999 0.8998
0.099160001 -0.19349 0.90169001
0.028733 -0.18991999 0.89213002
0.030223999 -0.18982001 0.89165002
0.031706002 -0.18967 0.89093
0.033181001 -0.18949001 0.89008999
0.034646999 -0.18928 0.88909
0.036091 -0.18897 0.88766003
0.037519 -0.1886 0.88591999
0.038945999 -0.18826 0.88432002
0.040369 -0.18793 0.88275999
0.041807 -0.18768001 0.88160002
0.043267 -0.18754999 0.88099003
0.044730999 -0.18743999 0.88049001
0.0462 -0.18736 0.88011003
0.047671001 -0.1873 0.87980998
0.049143001 -0.18724 0.87953001
0.050595999 -0.18712001 0.87895
0.052080002 -0.18711001 0.87891001
0.053564001 -0.18709999 0.87888002
0.055050999 -0.18711001 0.87889999
0.056529 -0.18708 0.87878001
0.058026001 -0.18712001 0.87896001
0.059505999 -0.18709999 0.87886
0.060968 -0.18703 0.87853003
0.062447 -0.18701001 0.87844002
0.063931003 -0.18700001 0.87842
0.065424003 -0.18702 0.87852001
0.066915996 -0.18704 0.87861001
0.068433002 -0.18713 0.87901998
0.069939002 -0.18719 0.87927997
0.071461998 -0.18728 0.87971997
0.073007002 -0.18742999 0.88042003
0.074557997 -0.18759 0.88115001
0.076118 -0.18776 0.88196999
0.077673003 -0.18792 0.88270998
0.079245001 -0.18810999 0.8836
0.080813996 -0.18828 0.88441002
0.082393996 -0.18847001 0.88533002
0.083936997 -0.18858001 0.88581997
0.085484996 -0.18869001 0.88634002
0.087024003 -0.18877999 0.88674998
0.088568002 -0.18887 0.8872
0.090161003 -0.18907 0.88812
0.091834001 -0.18942 0.88979
0.093703002 -0.19016001 0.89326
0.095601 -0.19093999 0.8969
0.097476996 -0.19165 0.90022999
0.028732 -0.18841 0.89212
0.030227 -0.18832 0.89172
0.031718001 -0.18822999 0.89126998
0.033202 -0.1881 0.89064997
0.034674998 -0.18792 0.88981998
0.036125001 -0.18764 0.88846999
0.037553001 -0.18727 0.88674003
0.038977001 -0.18691 0.88502997
0.040397 -0.18656 0.88336998
0.041832 -0.18629999 0.88212001
0.043288998 -0.18615 0.88143998
0.044753999 -0.18605 0.88094002
0.046218999 -0.18595 0.88047999
0.047685999 -0.18585999 0.88007998
0.049153 -0.18579 0.87970001
0.050601002 -0.18564001 0.87902999
0.05209 -0.18565001 0.87906998
0.053574 -0.18565001 0.87905002
0.055062 -0.18565001 0.87908
0.056550998 -0.18566 0.87910998
0.058063999 -0.18574999 0.87952
0.059551999 -0.18574999 0.87954003
0.061032999 -0.18573 0.87945998
0.062524997 -0.18574999 0.87953001
0.064006001 -0.18573 0.87945002
0.065485999 -0.18571 0.87936002
0.066965997 -0.1857 0.87927997
0.068471998 -0.18574999 0.87952
0.069973998 -0.18579 0.87971997
0.071497999 -0.18588001 0.88016999
0.073045999 -0.18604 0.88090003
0.074597999 -0.18618999 0.88163
0.076167002 -0.18639 0.88255
0.077731997 -0.18656 0.88338
0.079306997 -0.18674999 0.88428003
0.080876 -0.18692 0.88508999
0.082455002 -0.18711001 0.88598001
0.083981998 -0.18718 0.88629001
0.085506 -0.18723001 0.88656002
0.087026 -0.18728 0.88677001
0.088541001 -0.18731 0.88692999
0.090098001 -0.18742999 0.88749999
0.092658997 -0.18960001 0.89776999
0.030234 -0.18686 0.89194
0.031725999 -0.18677001 0.8915
0.033213999 -0.18664999 0.89096999
0.03469 -0.18649 0.89019001
0.036144 -0.18623 0.88894999
0.037574001 -0.18587001 0.88722003
0.038998 -0.18550999 0.88551003
0.040417999 -0.18516 0.88382
0.041852001 -0.18489 0.88256001
0.043310001 -0.18475001 0.88186997
0.044775002 -0.18464001 0.88134998
0.046241 -0.18454 0.88090003
0.047704 -0.18444 0.88042003
0.049171001 -0.18436 0.88003999
0.050620001 -0.18422 0.87936002
0.052104998 -0.18422 0.87933999
0.053585999 -0.1842 0.87923998
0.055078998 -0.18422 0.87933999
0.056561999 -0.18421 0.87928998
0.058070999 -0.18427999 0.87962002
0.059558 -0.18427999 0.87963003
0.061041001 -0.18426999 0.87955999
0.062522002 -0.18425 0.87949002
0.064006999 -0.18424 0.87945998
0.065486997 -0.18422 0.87936997
0.066973001 -0.18422 0.87936002
0.068485998 -0.18429001 0.87970001
0.070003003 -0.18437 0.88006997
0.071529001 -0.18447 0.88055003
0.073083997 -0.18464001 0.88134998
0.074643001 -0.18481 0.88216001
0.076220997 -0.18502 0.88317001
0.077802002 -0.18523 0.88417
0.079387002 -0.18544 0.88516998
0.080957003 -0.18561 0.88598001
0.082529999 -0.18578 0.88678998
0.08405 -0.18582 0.88700002
0.085556999 -0.18584 0.88709003
0.087061003 -0.18584999 0.88713002
0.088558003 -0.18584 0.88709998
0.090989001 -0.18776999 0.89627999
0.031736001 -0.18531001 0.89177001
0.033227 -0.18522 0.89131999
0.034708001 -0.18508001 0.89064997
0.036166001 -0.18483999 0.88949001
0.037597001 -0.18448 0.88775998
0.039021999 -0.18412 0.88606
0.040442999 -0.18377 0.88437003
0.041873999 -0.18348999 0.88301003
0.043331999 -0.18334 0.88230002
0.044797 -0.18324 0.88178998
0.046264 -0.18313999 0.88133001
0.047727998 -0.18303999 0.88085997
0.049196001 -0.18297 0.88047999
0.050646 -0.18283001 0.87980998
0.052127998 -0.18279999 0.87971002
0.053603999 -0.18277 0.87954003
0.055091999 -0.18277 0.87954998
0.056568999 -0.18274 0.87939
0.058072001 -0.18279 0.87963998
0.059558999 -0.18279 0.87963998
0.061046999 -0.18279 0.87966001
0.062532999 -0.18279 0.87963998
0.064025 -0.18280999 0.87971002
0.065512002 -0.18279999 0.87970001
0.067005001 -0.18282001 0.87979001
0.068520002 -0.18289 0.88014001
0.070037998 -0.18297 0.88050997
0.071565002 -0.18307 0.88099003
0.073127002 -0.18325 0.88186002
0.074694 -0.18344 0.88275999
0.076279998 -0.18367 0.88384998
0.077871002 -0.18389 0.88494998
0.079457998 -0.1841 0.88595998
0.081029996 -0.18426999 0.88678002
0.082603998 -0.18444 0.88757998
0.084124997 -0.18449 0.88779998
0.085626997 -0.18449 0.88780999
0.087131001 -0.18449 0.88783997
0.089512996 -0.18633001 0.89666998
0.033234 -0.18375 0.89152002
0.034719002 -0.18363 0.89095002
0.036184002 -0.18342 0.88993001
0.037618998 -0.18308 0.88828999
0.039053999 -0.18277 0.88677001
0.040476002 -0.18242 0.88510001
0.041908 -0.18213999 0.88374001
0.043363001 -0.18198 0.88293999
0.044824999 -0.18185 0.88234001
0.046289001 -0.18175 0.8818
0.047754001 -0.18165 0.88134003
0.049222998 -0.18156999 0.88097
0.050678 -0.18144999 0.88037002
0.052159999 -0.18143 0.88027
0.053631999 -0.18137001 0.87998998
0.055117998 -0.18137001 0.87997001
0.056595001 -0.18133 0.87980998
0.058093999 -0.18137001 0.87998003
0.059581999 -0.18137001 0.87998003
0.061074998 -0.18138 0.88006002
0.062561996 -0.18138 0.88005
0.064056002 -0.1814 0.88012999
0.065544002 -0.1814 0.88014001
0.067039996 -0.18142 0.88024998
0.068556003 -0.1815 0.88059998
0.070073999 -0.18156999 0.88097
0.071607001 -0.18167999 0.88151002
0.073170997 -0.18187 0.88239002
0.074739002 -0.18205 0.88330001
0.076328002 -0.18228 0.88440001
0.077927999 -0.18253 0.88559997
0.079516001 -0.18274 0.88660997
0.081097998 -0.18291999 0.88753003
0.082673997 -0.18309 0.88832998
0.084210999 -0.18317001 0.88871002
0.085715003 -0.18317001 0.88871998
0.087214999 -0.18317001 0.88868999
0.033289 -0.18254 0.89298999
0.034758002 -0.18232 0.89195001
0.036212999 -0.18206 0.89064002
0.037645001 -0.18170001 0.88892001
0.039078001 -0.18138 0.88733
0.040509999 -0.18107 0.88582999
0.041948002 -0.18082 0.88457
0.043404002 -0.18065 0.88378
0.044867001 -0.18053 0.88317001
0.046326999 -0.1804 0.88253999
0.047789 -0.18029 0.88198
0.049254 -0.18019 0.88151997
0.050714999 -0.18009 0.88099998
0.052193001 -0.18005 0.88081002
0.053663999 -0.17998999 0.88053
0.055151001 -0.17997999 0.88050002
0.056628998 -0.17995 0.88032001
0.058122002 -0.17996 0.88041002
0.059606001 -0.17995 0.88033998
0.061099999 -0.17997 0.88042003
0.062587999 -0.17997 0.88042003
0.064083003 -0.17998999 0.88050997
0.065573998 -0.17998999 0.88055003
0.067077003 -0.18003 0.88072997
0.068593003 -0.18009999 0.88107002
0.070116997 -0.18019 0.88151002
0.071658999 -0.18031999 0.88213998
0.073230997 -0.18052 0.88312
0.074809998 -0.18073 0.88413
0.076407 -0.18097 0.88532001
0.078009002 -0.18121 0.88652003
0.079599001 -0.18142 0.88753998
0.081183001 -0.18161 0.88845003
0.082768001 -0.18178999 0.88933998
0.084325001 -0.18190999 0.88990998
0.085849002 -0.18195 0.89011002
0.087408997 -0.18206 0.89068002
0.033316001 -0.18117 0.8937
0.034781002 -0.18093 0.89252001
0.036231998 -0.18064 0.89112002
0.037666 -0.18029 0.88938999
0.039103001 -0.17998999 0.88789999
0.040544 -0.17972 0.88657999
0.041988 -0.17949 0.88541001
0.043444999 -0.17931999 0.88461
0.044909 -0.17919999 0.88398999
0.04637 -0.17907 0.88335001
0.047828 -0.17894 0.88269001
0.049288999 -0.17882 0.88213998
0.050749999 -0.17872 0.88160998
0.052219 -0.17865001 0.88125998
0.053688001 -0.17857 0.88090998
0.055179998 -0.17858 0.88095999
0.056664001 -0.17857 0.88086998
0.05816 -0.17859 0.88098001
0.059656002 -0.17861 0.88107002
0.061156001 -0.17863999 0.88123
0.062647 -0.17863999 0.88124001
0.064143002 -0.17866001 0.88134003
0.065641001 -0.17868 0.88143998
0.067143999 -0.17872 0.88160998
0.068654999 -0.17877001 0.88186997
0.070179999 -0.17885999 0.88230997
0.071731001 -0.17900001 0.88303
0.073307998 -0.17921001 0.88405001
0.074896999 -0.17944001 0.88516003
0.076502003 -0.17969 0.88643003
0.078111999 -0.17995 0.88769001
0.079704002 -0.18016 0.88871002
0.081298999 -0.18036 0.88972002
0.082896002 -0.18055999 0.89072001
0.084480003 -0.18073 0.89153999
0.086034 -0.18083 0.89203
0.087655 -0.18106 0.89318001
0.031869002 -0.18002 0.89551002
0.033333 -0.17975 0.89416999
0.034798998 -0.17951 0.89301002
0.036247998 -0.17921001 0.8915
0.037684999 -0.17888001 0.88985002
0.039127 -0.1786 0.88844001
0.040578 -0.17837 0.88731998
0.042027 -0.17815 0.88624001
0.04349 -0.17801 0.88551998
0.044950001 -0.17786001 0.88480997
0.046406999 -0.17772 0.88406998
0.047866002 -0.17758 0.88340998
0.049323 -0.17745 0.88274997
0.050785001 -0.17735 0.88222998
0.052260999 -0.17728999 0.88195997
0.053736001 -0.17724 0.88169998
0.055225998 -0.17724 0.88169003
0.056717001 -0.17724 0.88169998
0.058214001 -0.17726 0.8818
0.059712 -0.17727999 0.88191003
0.061214998 -0.17732 0.88208002
0.062711999 -0.17733 0.88216001
0.064208999 -0.17735 0.88224
0.065707996 -0.17737 0.88233
0.067206003 -0.17738 0.88242
0.068717003 -0.17743 0.88266999
0.070244998 -0.17752001 0.88312
0.071805 -0.17769 0.88395
0.073391996 -0.17792 0.88507003
0.074989997 -0.17816 0.88626999
0.076605998 -0.17843001 0.88762999
0.078225002 -0.1787 0.88897002
0.07982 -0.17891 0.88999999
0.081417002 -0.17911001 0.89102
0.083033003 -0.17935 0.89218998
0.084638 -0.17955001 0.89322001
0.086216003 -0.1797 0.89392
0.087889001 -0.18003 0.89556003
0.030385001 -0.1802 0.89640999
0.028887 -0.17878 0.89693999
0.030387999 -0.17869 0.89648998
0.031877998 -0.17855 0.89576
0.033342998 -0.17828999 0.89445001
0.034809999 -0.17805 0.89327002
0.036258001 -0.17775001 0.89174998
0.037698999 -0.17744 0.89019001
0.039147001 -0.17718001 0.88889003
0.040603001 -0.17698 0.88788003
0.042057 -0.17678 0.88687998
0.043520998 -0.17663001 0.88616002
0.044978 -0.17647 0.88534999
0.046432 -0.17631 0.88454002
0.047892001 -0.17618001 0.88388002
0.049350001 -0.17605001 0.88322997
0.050817002 -0.17596 0.88277
0.052297998 -0.17591999 0.88259
0.053780001 -0.17589 0.88242
0.055282 -0.17591999 0.88257998
0.056779999 -0.17594001 0.88269001
0.058286 -0.17598 0.88288999
0.059790999 -0.17602 0.88308001
0.061301999 -0.17607 0.88332999
0.062794998 -0.17607 0.88332999
0.064295001 -0.17609 0.88340998
0.065788001 -0.17609 0.88340998
0.067275003 -0.17607 0.88332999
0.068782002 -0.1761 0.88349998
0.070317 -0.17621 0.88401997
0.071878999 -0.17636999 0.88485998
0.073468998 -0.17659999 0.88599002
0.075083002 -0.17687 0.88736999
0.076707996 -0.17715999 0.88880998
0.078331001 -0.17744 0.89017999
0.079937004 -0.17766 0.89130002
0.081545003 -0.17788 0.89241999
0.083172001 -0.17813 0.89367998
0.084789999 -0.17836 0.89481002
0.086397 -0.17856 0.89579999
0.088119999 -0.17897999 0.89792001
0.02888 -0.17722 0.89671999
0.030383 -0.17714 0.89634001
0.031877 -0.17702 0.89573002
0.033346999 -0.17679 0.89454001
0.034814 -0.17656 0.89339
0.036260001 -0.17625 0.89181
0.037705999 -0.17596 0.89033997
0.039154999 -0.17570999 0.88907999
0.040615998 -0.17553 0.88815999
0.042075001 -0.17535 0.88726002
0.043538999 -0.1752 0.88652998
0.044996001 -0.17504001 0.88571
0.046450999 -0.17488 0.88489997
0.047911 -0.17475 0.88423997
0.049371 -0.17463 0.88361001
0.050843999 -0.17456 0.88325
0.052327 -0.17452 0.88308001
0.053815 -0.17451 0.88299
0.055323001 -0.17456 0.88323998
0.056829002 -0.17459001 0.88344002
0.058334999 -0.17463 0.88363999
0.059847001 -0.17468999 0.88389999
0.061358999 -0.17474 0.88415998
0.062849 -0.17472 0.88409001
0.064350002 -0.17474 0.88418001
0.065851003 -0.17476 0.88424999
0.067339003 -0.17474 0.88417
0.068847001 -0.17477 0.88433999
0.070389003 -0.17489 0.88493001
0.071946003 -0.17504001 0.88568002
0.073536001 -0.17526001 0.88679999
0.075158998 -0.17555 0.88827002
0.076794997 -0.17586 0.88981998
0.078423001 -0.17613 0.89121997
0.080045998 -0.17639001 0.89253002
0.081665002 -0.17663001 0.89372998
0.083301999 -0.17689 0.89507997
0.084922001 -0.17712 0.89621001
0.086557001 -0.17736 0.89745998
0.088316001 -0.17784999 0.89990997
0.090726003 -0.18115 0.90881997
0.090072997 -0.17832001 0.90227997
0.02736 -0.17567 0.89658999
0.028867001 -0.17562 0.89631999
0.030363999 -0.17551 0.89577001
0.031847998 -0.17535 0.89491999
0.033317 -0.17511 0.89374
0.034790002 -0.17491999 0.89275998
0.036242999 -0.17465 0.89138001
0.037698999 -0.17442 0.89017999
0.039159 -0.17422 0.88916999
0.040621001 -0.17404 0.88826001
0.042075999 -0.17385 0.88727999
0.043538999 -0.1737 0.88652998
0.044992 -0.17353 0.88563001
0.046450999 -0.17338 0.88489002
0.047915999 -0.17327 0.88432997
0.049385998 -0.17318 0.88388002
0.050864998 -0.17313001 0.88362002
0.052354001 -0.17312001 0.88353002
0.053842999 -0.17309999 0.88344997
0.055357002 -0.17317 0.88379002
0.056869999 -0.17321999 0.88406998
0.058384001 -0.17328 0.88437003
0.059902001 -0.17335001 0.88471001
0.061427001 -0.17343 0.88514
0.062918998 -0.17342 0.88507003
0.064428002 -0.17344999 0.88524997
0.065931 -0.17347001 0.88533002
0.067420997 -0.17344999 0.88524002
0.068924002 -0.17347001 0.88533002
0.070460998 -0.17357001 0.88582999
0.072012 -0.17369001 0.88648999
0.073596001 -0.17389999 0.88753003
0.075220004 -0.17418 0.88897997
0.076858997 -0.17449 0.89055997
0.078496002 -0.17478999 0.89205998
0.080131002 -0.17506 0.89346999
0.081758 -0.17531 0.89475
0.083397001 -0.17557999 0.89611
0.085028 -0.17581999 0.89732999
0.086672999 -0.17608 0.89864999
0.088408001 -0.17651001 0.90085
0.090158001 -0.17694999 0.90312999
0.025859 -0.17425001 0.89709002
0.027361 -0.17416 0.89662999
0.028867001 -0.1741 0.89630997
0.03036 -0.17397 0.89564002
0.031838 -0.17377 0.89464003
0.033309001 -0.17355999 0.89352
0.034782 -0.17337 0.89256001
0.036235001 -0.17309999 0.89118999
0.037695002 -0.17288999 0.89008999
0.039159 -0.17271 0.88915998
0.040619999 -0.17253 0.88824999
0.042071 -0.17233001 0.88717997
0.043533999 -0.17218 0.88642001
0.044985998 -0.17200001 0.88551003
0.046443999 -0.17185999 0.88476998
0.047915 -0.17177001 0.88431001
0.049394999 -0.17172 0.88404
0.05088 -0.17168 0.88388002
0.052379001 -0.1717 0.88396001
0.053879 -0.17172 0.88404
0.055395 -0.17178001 0.88439
0.056908999 -0.17184 0.88468999
0.058424 -0.1719 0.88498002
0.059944998 -0.17196999 0.88533998
0.061471 -0.17205 0.88577002
0.062964998 -0.17204 0.88572001
0.064480998 -0.17208999 0.88598001
0.065990999 -0.17212 0.88613999
0.067483 -0.17211001 0.88606
0.068988003 -0.17213 0.88615
0.070533 -0.17224 0.88674003
0.072077997 -0.17235 0.88731003
0.073656 -0.17253 0.88824999
0.075273 -0.1728 0.88960999
0.076912001 -0.17309999 0.89117998
0.078543998 -0.17338 0.8926
0.080187999 -0.17366999 0.89410001
0.081817001 -0.17392001 0.89539999
0.083457999 -0.17419 0.89675999
0.085088998 -0.17442 0.89797002
0.086736001 -0.17467999 0.89930999
0.088454999 -0.17507 0.90132999
0.090204999 -0.17552 0.90359998
0.092745997 -0.17900001 0.91358
0.091943003 -0.17591999 0.90566999
0.024352999 -0.1728 0.89748001
0.025859 -0.17273 0.89709002
0.027362 -0.17264999 0.89665997
0.028864 -0.17256001 0.89622003
0.030353 -0.17241 0.89543998
0.031824999 -0.17219 0.89427
0.033298001 -0.17199001 0.89323002
0.034766998 -0.17178001 0.89218003
0.036224 -0.17154001 0.89091003
0.037684001 -0.17133 0.88982999
0.039147001 -0.17115 0.88889998
0.040603999 -0.17095999 0.88789999
0.042052999 -0.17075001 0.88679999
0.043511 -0.17059 0.88595998
0.044966001 -0.17043 0.88511997
0.046429999 -0.17030001 0.88449001
0.047905002 -0.17023 0.88413
0.049389999 -0.17020001 0.88396001
0.05088 -0.17019001 0.88388002
0.052379001 -0.17020001 0.88396001
0.053884 -0.17024 0.88414001
0.055406999 -0.17032 0.88458002
0.056926999 -0.17039999 0.88497001
0.058449 -0.17047 0.88534999
0.059981 -0.17057 0.88586998
0.061515 -0.17067 0.88639998
0.063010998 -0.17066 0.88635999
0.064534999 -0.17072999 0.88670999
0.066051997 -0.17078 0.88695002
0.067546003 -0.17077 0.88688999
0.069045998 -0.17077 0.88688999
0.070598997 -0.1709 0.88757002
0.072139002 -0.17099001 0.88805997
0.073702998 -0.17114 0.88881999
0.075313002 -0.17138 0.89007998
0.076949999 -0.17168 0.89161998
0.078567997 -0.17192 0.89287001
0.080211997 -0.17220999 0.89437002
0.081849001 -0.17247 0.89574999
0.083492003 -0.17274 0.89712
0.085124001 -0.17297 0.89835
0.086779997 -0.17324001 0.89976001
0.088491999 -0.17362 0.90170997
0.090233997 -0.17404 0.90389001
0.091969997 -0.17443 0.90594
0.022841001 -0.17132001 0.89766997
0.024355 -0.17129999 0.89754999
0.025855999 -0.17118999 0.89699
0.027357001 -0.17109001 0.89647001
0.028853999 -0.17099001 0.89591998
0.030335 -0.17079 0.89491999
0.031803001 -0.17055 0.89365
0.033275001 -0.17035 0.8926
0.034738999 -0.17014 0.89147002
0.036194999 -0.1699 0.89020997
0.037657999 -0.1697 0.88920999
0.03912 -0.16953 0.88827997
0.040576 -0.16934 0.88726997
0.042027 -0.16914 0.88625002
0.043483999 -0.16898 0.88541001
0.044943999 -0.16884001 0.88467002
0.046415001 -0.16875 0.88422
0.047896001 -0.16869999 0.88396001
0.049385998 -0.16869 0.88388002
0.05088 -0.16869 0.88388002
0.052379999 -0.16869999 0.88396001
0.053885002 -0.16874 0.88415003
0.055408999 -0.16883001 0.88461
0.056935001 -0.16892 0.88507998
0.058456 -0.16899 0.88546002
0.059994001 -0.16911 0.88607001
0.061535001 -0.16922 0.88669002
0.063037999 -0.16924 0.88674998
0.064562999 -0.1693 0.88709998
0.066087 -0.16936 0.88743001
0.067588001 -0.16937 0.88744003
0.069090001 -0.16937 0.88747001
0.070644997 -0.16949999 0.88814998
0.072185002 -0.16959 0.88862002
0.073743001 -0.16971999 0.88929999
0.075331002 -0.16991 0.89029002
0.076952003 -0.17016999 0.89164001
0.078560002 -0.17038999 0.89278001
0.080202997 -0.17067 0.89427
0.081841998 -0.17094 0.89567
0.083492003 -0.17122 0.89713001
0.085141003 -0.17148 0.89851999
0.086796999 -0.17174999 0.89994001
0.088503003 -0.17211001 0.90182
0.090242997 -0.17252 0.90398002
0.091969997 -0.17290001 0.90592998
0.022845 -0.16982999 0.89784002
0.024356 -0.16978 0.89758003
0.025854999 -0.16966 0.89695001
0.027352 -0.16954 0.89633
0.028843001 -0.16940001 0.89555001
0.030319 -0.16919 0.89445001
0.031782001 -0.16892999 0.89308
0.033247001 -0.16869999 0.89187002
0.034706999 -0.16847 0.89064002
0.036161002 -0.16823 0.88937998
0.037618998 -0.16802 0.88827997
0.039080001 -0.16785 0.88736999
0.040534001 -0.16766 0.88635999
0.041988999 -0.16748001 0.88543999
0.043453 -0.16735999 0.88476998
0.044921 -0.16726001 0.88423002
0.046402 -0.16721 0.88396001
0.047892001 -0.16719 0.88388002
0.049385998 -0.16719 0.88388002
0.05088 -0.16719 0.88388002
0.052379001 -0.16721 0.88396001
0.053885002 -0.16723999 0.88415003
0.055403002 -0.16731 0.88451999
0.056922998 -0.16738001 0.88490999
0.058444001 -0.16745999 0.88529003
0.059983 -0.16756999 0.88590002
0.061524 -0.16768999 0.88652998
0.063040003 -0.16774 0.88677001
0.064576998 -0.16783001 0.88729
0.066108003 -0.16790999 0.88770998
0.067616001 -0.16793001 0.88780999
0.069126002 -0.16795 0.88792002
0.070680998 -0.16808 0.88859999
0.072222002 -0.16817001 0.88906997
0.073772997 -0.16828001 0.88966
0.075346 -0.16844 0.89047003
0.076950997 -0.16865 0.89162999
0.078548998 -0.16885 0.89266002
0.080185004 -0.16912 0.89407003
0.081825003 -0.16937999 0.89547998
0.083476998 -0.16966 0.89696002
0.085141003 -0.16996001 0.89851999
0.086796999 -0.17023 0.89994001
0.088503003 -0.17058 0.90182
0.090242997 -0.17099001 0.90398002
0.091985002 -0.17139 0.90609002
0.021338001 -0.16839001 0.89828002
0.022848001 -0.16833 0.89797002
0.024356 -0.16825999 0.89758998
0.02585 -0.16811 0.89679003
0.027341001 -0.16795 0.89594001
0.028821999 -0.16776 0.89490998
0.030293001 -0.16753 0.89368999
0.031755 -0.16727 0.89231998
0.033215001 -0.16703001 0.89100999
0.034671001 -0.16677999 0.88971001
0.036123 -0.16654 0.88841999
0.037574001 -0.16632 0.88723999
0.039030001 -0.16613001 0.88624001
0.040483002 -0.16595 0.88524997
0.041944999 -0.16581 0.88450998
0.043412998 -0.16571 0.88396001
0.044890001 -0.16564 0.88361001
0.046374999 -0.16561 0.88344997
0.047869001 -0.16561 0.88344997
0.049366999 -0.16563 0.88353002
0.050864998 -0.16564 0.88362002
0.052368999 -0.16566999 0.88379002
0.053879 -0.16572 0.88405001
0.055396002 -0.16579001 0.88440001
0.056908999 -0.16584 0.88468999
0.058424 -0.16590001 0.88498002
0.059955999 -0.16599999 0.88551003
0.061492 -0.1661 0.88606
0.063013002 -0.16616 0.88638997
0.064556003 -0.16628 0.88700998
0.066101 -0.16639 0.88761997
0.067622997 -0.16644 0.88789999
0.069138996 -0.16648 0.88810003
0.070702001 -0.16662 0.88885999
0.072241999 -0.16671 0.88933003
0.073786996 -0.16681001 0.88982999
0.075352997 -0.16694 0.89055002
0.076955996 -0.16715001 0.89168
0.078552999 -0.16734999 0.89270002
0.080188997 -0.16761 0.89411998
0.081831001 -0.16788 0.89555001
0.083476 -0.16813999 0.89695001
0.085130997 -0.16842 0.89841998
0.086778 -0.16867 0.89974999
0.088483997 -0.16902 0.90162998
0.090233997 -0.16944 0.90389001
0.092004001 -0.16989 0.90627003
0.094557002 -0.1733 0.91615999
0.093745999 -0.17027 0.90831
0.021336 -0.16686 0.89823002
0.022845 -0.16678999 0.89784002
0.024346 -0.16666999 0.89723003
0.025834 -0.16649 0.89624
0.027318001 -0.1663 0.89520001
0.028795 -0.16609 0.89407003
0.030262001 -0.16584 0.89275998
0.031725001 -0.1656 0.89146
0.033181001 -0.16535001 0.89008999
0.034630999 -0.16508999 0.88870001
0.036077 -0.16483 0.88731003
0.037523001 -0.16459 0.88603002
0.038973 -0.16439 0.88494003
0.040428001 -0.16422001 0.88405001
0.041896999 -0.16412 0.88349998
0.043372001 -0.16405 0.88313001
0.044856999 -0.16402 0.88296998
0.046346001 -0.16401 0.8829
0.047844 -0.16403 0.88299
0.049341001 -0.16404 0.88308001
0.050840002 -0.16406 0.88317001
0.052338999 -0.16407999 0.88327003
0.053842999 -0.16411 0.88344997
0.055351999 -0.16416 0.88371003
0.056857999 -0.16419999 0.88388997
0.058364999 -0.16423 0.88407999
0.059893999 -0.16433001 0.88459003
0.061427001 -0.16443001 0.88514
0.062958002 -0.16452 0.88563001
0.064515002 -0.16467001 0.88643998
0.066073 -0.16482 0.88723999
0.067610003 -0.16491 0.88771999
0.069138996 -0.16497999 0.88809001
0.070702001 -0.16512001 0.88885999
0.072241999 -0.16520999 0.88933003
0.073786996 -0.1653 0.88982999
0.075346 -0.16542 0.89047003
0.076948002 -0.16563 0.89160001
0.078552999 -0.16583 0.89270002
0.080190003 -0.1661 0.89412999
0.081832998 -0.16636001 0.89556998
0.083476 -0.16662 0.89695001
0.085120998 -0.16687 0.89831001
0.086756997 -0.1671 0.89952999
0.088463999 -0.16745 0.90142
0.090225004 -0.16789 0.90380001
0.092026003 -0.16839001 0.90649003
0.093819 -0.16886 0.90900999
0.021331999 -0.1653 0.89804
0.022837 -0.1652 0.89752001
0.024332 -0.16505 0.89669001
0.025813 -0.16483 0.89547998
0.027287001 -0.16459 0.89418
0.028759001 -0.16437 0.89295
0.030224999 -0.16413 0.89165998
0.031688999 -0.16391 0.89046001
0.033140998 -0.16364001 0.88901001
0.034593001 -0.16339999 0.88770998
0.036033001 -0.16313 0.88622999
0.037477002 -0.16289 0.88493001
0.038925 -0.16269 0.88384002
0.040385 -0.16255 0.88310999
0.041857 -0.16247 0.88265997
0.043340001 -0.16244 0.88248003
0.044828001 -0.16242 0.88239998
0.046321001 -0.16242 0.88240999
0.047816999 -0.16244 0.88249999
0.049314 -0.16246 0.88259
0.050811999 -0.16248 0.88269001
0.052310999 -0.16249999 0.88279998
0.053808998 -0.16250999 0.8829
0.055312 -0.16255 0.88306999
0.056811001 -0.16256 0.88316
0.058309998 -0.16258 0.88325
0.059831001 -0.16266 0.88366997
0.061361998 -0.16275001 0.88419998
0.062903002 -0.16287 0.88485003
0.064466 -0.16304 0.88577002
0.066037998 -0.16323 0.88677001
0.067589 -0.16335 0.88744998
0.069132 -0.16345 0.88800001
0.070694998 -0.1636 0.88878
0.072241999 -0.1637 0.88933003
0.073786996 -0.16379 0.88982999
0.075338997 -0.16389 0.89038998
0.076941997 -0.16410001 0.89152002
0.078555003 -0.16432001 0.89273
0.080195002 -0.16459 0.89418
0.081837997 -0.16486 0.89561999
0.083477996 -0.16511001 0.89697999
0.085111998 -0.16532999 0.89820999
0.086736999 -0.16553999 0.89932001
0.088450998 -0.16590001 0.90129
0.090232998 -0.16638 0.90388
0.092065997 -0.16693 0.90688002
0.093901001 -0.16746999 0.90981001
0.019819999 -0.16383 0.89832002
0.021322001 -0.1637 0.89762002
0.022821 -0.16357 0.8969
0.024311 -0.16339 0.89592999
0.025787 -0.16315 0.89460999
0.027255001 -0.16288 0.89313
0.028725 -0.16266 0.89191002
0.030192999 -0.16244 0.89072001
0.031656999 -0.16223 0.88954997
0.033107001 -0.16197 0.88810998
0.034561001 -0.16175 0.88688999
0.035999998 -0.16147999 0.88541001
0.037441999 -0.16124 0.88411999
0.038892001 -0.16106001 0.88310999
0.040355999 -0.16094001 0.88247001
0.041827001 -0.16086 0.88203001
0.043313999 -0.16084 0.88195002
0.044805001 -0.16084 0.88195002
0.046296999 -0.16085 0.88195002
0.047791999 -0.16086 0.88203001
0.049288001 -0.16088 0.88212001
0.050785001 -0.16089 0.88221997
0.052282002 -0.16091 0.88231999
0.053778999 -0.16092999 0.88240999
0.055275999 -0.16094001 0.88249999
0.056768 -0.16094001 0.88249999
0.058260001 -0.16094001 0.88249999
0.059774999 -0.16101 0.88283002
0.061299 -0.16109 0.88328999
0.062844999 -0.16122 0.88402998
0.064413004 -0.16141 0.88503999
0.065998003 -0.16163 0.88622999
0.067561999 -0.16178 0.88709003
0.069118001 -0.16192 0.88782001
0.070688002 -0.16207001 0.88868999
0.072241999 -0.16219001 0.88933003
0.073786996 -0.16227999 0.88982999
0.075338997 -0.16237999 0.89038998
0.076941997 -0.16259 0.89152002
0.078562997 -0.16283 0.89282
0.080204003 -0.16309001 0.89428002
0.081848003 -0.16336 0.89573002
0.08348 -0.16359 0.89700001
0.085102998 -0.16379 0.89811999
0.086727001 -0.16399001 0.89920998
0.088440999 -0.16435 0.90118998
0.090241998 -0.16486 0.90398002
0.092113003 -0.16548 0.90735
0.093979999 -0.16606 0.91057003
0.019807 -0.1622 0.89774001
0.021307001 -0.16207001 0.89699
0.022801001 -0.16191 0.89613003
0.024285 -0.1617 0.89499003
0.025754999 -0.16143 0.89349002
0.02722 -0.16117001 0.89200002
0.028689999 -0.16095001 0.89081001
0.030156 -0.16074 0.88962001
0.031617999 -0.16052 0.88845003
0.033070002 -0.16028 0.88709998
0.034522001 -0.16006 0.88589001
0.035964001 -0.15981001 0.88451999
0.037409 -0.1596 0.88332999
0.038858 -0.15942 0.88234001
0.040329002 -0.15933 0.88186997
0.041799001 -0.15926 0.88143998
0.043281998 -0.15922999 0.88128
0.044771001 -0.15922999 0.88128
0.046264999 -0.15924001 0.88134998
0.047754999 -0.15924001 0.88135999
0.049254999 -0.15927 0.88152999
0.050755002 -0.1593 0.88169998
0.052255001 -0.15933 0.88186997
0.053750999 -0.15934999 0.88195002
0.055247001 -0.15936001 0.88203001
0.056738999 -0.15936001 0.88203001
0.058230001 -0.15936001 0.88203001
0.059744 -0.15943 0.88238001
0.061262 -0.15949 0.88274997
0.062807001 -0.15963 0.88349998
0.064374 -0.15981001 0.88450003
0.065958001 -0.16003001 0.88569999
0.067527004 -0.1602 0.88664001
0.069096997 -0.16035999 0.88755
0.070674002 -0.16054 0.88852
0.072236001 -0.16067 0.88924998
0.073786996 -0.16077 0.88982999
0.075337999 -0.16087 0.89038002
0.076940998 -0.16108 0.89151001
0.078567997 -0.16132 0.89288002
0.08021 -0.16159 0.89434999
0.081854999 -0.16185001 0.89581001
0.083488002 -0.16208 0.89708
0.085102998 -0.16226999 0.89811999
0.086727001 -0.16247 0.89921999
0.088441998 -0.16283 0.9012
0.090253003 -0.16335 0.90407997
0.092134997 -0.16398001 0.90757
0.094019003 -0.16459 0.91095001
0.021290001 -0.16042 0.89629
0.022783 -0.16026001 0.89538997
0.024259999 -0.16001999 0.89405
0.025728 -0.15975 0.89253998
0.027192 -0.15949 0.89108002
0.028659999 -0.15928 0.88989002
0.030125 -0.15906 0.88871002
0.031582002 -0.15884 0.88744003
0.033031002 -0.15859 0.88608003
0.034485001 -0.15839 0.88494998
0.03593 -0.15817 0.88369
0.037379 -0.15797 0.88261998
0.038835 -0.15783 0.8818
0.040307999 -0.15775999 0.88142002
0.041777998 -0.15768 0.88099003
0.043258999 -0.15764999 0.88082999
0.044748001 -0.15764999 0.88082999
