# .PCD v0.7 - Point Cloud Data file format
VERSION 0.7
FIELDS x y z
SIZE 4 4 4
TYPE F F F
COUNT 1 1 1
WIDTH 1450
HEIGHT 1
VIEWPOINT 0 0 0 1 0 0 0
POINTS 1450
DATA ascii
0.13405 -0.052847002 0.85211998
0.13384999 -0.051327001 0.85088003
7.7249999e-05 -0.052627999 0.89766002
0.0015927 -0.052556999 0.89646
0.0031037999 -0.052483 0.89520001
0.0046056998 -0.052352998 0.89297003
0.0060987999 -0.052212 0.89056998
0.0075846999 -0.052076999 0.88827002
0.0090629999 -0.051943 0.88598001
0.010539 -0.051835001 0.88414001
0.012016 -0.051759001 0.88283998
0.01349 -0.051686998 0.88161999
0.014965 -0.051635999 0.88072997
0.016445 -0.051607002 0.88024002
0.017922999 -0.051580001 0.87977999
0.019401999 -0.051555 0.87936002
0.020888001 -0.051555 0.87936002
0.022371 -0.051546 0.87919998
0.023845 -0.051520001 0.87876999
0.025308 -0.051474001 0.87796998
0.026756 -0.051405001 0.87678999
0.028192 -0.051320001 0.87535
0.029617 -0.051226001 0.87374997
0.031024 -0.051109999 0.87177998
0.032387 -0.050935 0.86878997
0.033713002 -0.050719999 0.86511999
0.035011001 -0.050484002 0.86109
0.036307 -0.050262 0.85731
0.037595998 -0.050048999 0.85367
0.038927998 -0.049906999 0.85123998
0.040297002 -0.049819998 0.84977001
0.041676998 -0.049752001 0.84860998
0.043063 -0.049695998 0.84764999
0.044482999 -0.049681 0.84740001
0.045906 -0.049671002 0.84723002
0.047329001 -0.049662001 0.84706998
0.048769999 -0.049671002 0.84723002
0.050230999 -0.049699001 0.84771001
0.051692002 -0.049725998 0.84816003
0.053169001 -0.049766 0.84885001
0.054657999 -0.049816001 0.84969002
0.056150999 -0.049865998 0.85053998
0.057608999 -0.049883999 0.85084999
0.05906 -0.049894001 0.85102999
0.060501002 -0.049896002 0.85105997
0.061919998 -0.049880002 0.85079002
0.063317001 -0.049846999 0.85022998
0.064722002 -0.049821999 0.84981
0.066117004 -0.049791001 0.84926999
0.067497998 -0.049750999 0.84858
0.068884 -0.049715001 0.84798002
0.070294999 -0.049699999 0.84771001
0.071700998 -0.049681 0.84740001
0.073120996 -0.049672 0.84723997
0.074559003 -0.049676001 0.84731001
0.075998001 -0.049681 0.84739
0.077432998 -0.049681999 0.84741002
0.078888997 -0.049697001 0.84766001
0.080366999 -0.049724001 0.84812999
0.081827 -0.049741 0.84841001
0.083310999 -0.049770001 0.84891999
0.084797002 -0.049800001 0.84943002
0.086285003 -0.049830001 0.84994
0.087783001 -0.049865 0.85053003
0.089290999 -0.049904 0.85119998
0.090787001 -0.049934998 0.85172999
0.092289999 -0.049970001 0.85232002
0.093785003 -0.049998 0.85281003
0.095253997 -0.050012998 0.85304999
0.096759997 -0.050046001 0.85361999
0.098261997 -0.050076 0.85413003
0.099806003 -0.050126001 0.85497999
0.10138 -0.050191 0.85609001
0.10297 -0.050257001 0.85721999
0.10451 -0.050305001 0.85803998
0.10608 -0.050359 0.85895002
0.10759 -0.050388001 0.85946
0.10905 -0.050388999 0.85948002
0.11046 -0.05037 0.85914999
0.11178 -0.050310001 0.85812998
0.11304 -0.050228 0.85672998
0.11425 -0.050122 0.85492003
0.11548 -0.050030001 0.85336
0.1167 -0.049933001 0.85170001
0.11799 -0.049869001 0.8506
0.11925 -0.049796 0.84935999
0.12056 -0.049745999 0.84850001
0.12188 -0.049695998 0.84764999
0.12325 -0.049671002 0.84723002
0.12464 -0.049653001 0.84691
0.12612 -0.049676001 0.84729999
0.12766001 -0.049715001 0.84797001
0.12921 -0.049761001 0.84876001
0.13078 -0.049812 0.84963
0.13234 -0.049860001 0.85044998
0.13383 -0.049880002 0.85078001
7.7252997e-05 -0.051096 0.89747
0.0015923 -0.051026002 0.89626002
0.0031031 -0.050953999 0.89499003
0.0046060998 -0.050843 0.89304
0.0060994001 -0.050708 0.89065999
0.0075854999 -0.050577 0.88836002
0.0090639004 -0.050446998 0.88607001
0.01054 -0.050340999 0.88422
0.012015 -0.050257999 0.88275999
0.013487 -0.050182998 0.88145
0.014964 -0.050138 0.88064998
0.016442999 -0.050110001 0.88015997
0.017921999 -0.050083999 0.87970001
0.019401999 -0.050065 0.87936002
0.020888001 -0.050065 0.87936002
0.022369999 -0.050055001 0.87919003
0.023847001 -0.050034001 0.87883002
0.025314 -0.049998 0.87819999
0.026768999 -0.049942002 0.87721997
0.028212 -0.049871001 0.87597001
0.029643999 -0.049789999 0.87453997
0.031066 -0.049699001 0.87294
0.032442998 -0.049548 0.87028998
0.033776 -0.049346 0.86673999
0.035076 -0.049114998 0.86268002
0.036368001 -0.048891 0.85874999
0.037641 -0.048659999 0.85469002
0.038954999 -0.048496999 0.85184002
0.040316999 -0.048404001 0.85018998
0.041692998 -0.048333 0.84895003
0.043076001 -0.048273999 0.84790999
0.044487 -0.048248999 0.84748
0.045906 -0.048234999 0.84722
0.047320999 -0.048216999 0.84691
0.048751999 -0.048216999 0.84692001
0.050202999 -0.048234999 0.84722
0.051656 -0.048253998 0.84757
0.053121001 -0.048284002 0.84808999
0.054602999 -0.048326999 0.84884
0.056099001 -0.048379 0.84974998
0.057562001 -0.048401002 0.85014999
0.059016999 -0.048416 0.85040998
0.06047 -0.048427999 0.85061997
0.061900999 -0.048423 0.85053003
0.063304998 -0.048397001 0.85007
0.064722002 -0.048381999 0.84981
0.066129997 -0.048361 0.84943998
0.067519002 -0.048326999 0.84884
0.068911999 -0.048298001 0.84833002
0.070331 -0.048287001 0.84814
0.071737997 -0.048269 0.84783
0.073156998 -0.04826 0.84767002
0.074594997 -0.048262998 0.84772998
0.076035999 -0.048268002 0.84780997
0.077472001 -0.048269998 0.84784001
0.078929998 -0.048285 0.84811002
0.080402002 -0.048308 0.84851003
0.081868999 -0.048326999 0.84884
0.083352998 -0.048356 0.84934998
0.08484 -0.048385002 0.84986001
0.086336002 -0.048418 0.85044003
0.087842003 -0.048455998 0.85110003
0.089344002 -0.048489999 0.85170001
0.090839997 -0.048519999 0.85223001
0.092343003 -0.048553001 0.85281003
0.093829997 -0.048576001 0.85321999
0.095298998 -0.048590001 0.85346001
0.096796997 -0.048617002 0.85394001
0.098291002 -0.048641998 0.85438001
0.099825002 -0.048686001 0.85514998
0.1014 -0.048749 0.85624999
0.10299 -0.048813 0.85738999
0.10454 -0.048865002 0.85829002
0.10611 -0.048916999 0.85921001
0.10762 -0.048946001 0.85970998
0.10908 -0.048946999 0.85974002
0.11048 -0.048923999 0.85933
0.1118 -0.048866 0.85830998
0.11307 -0.048785999 0.85689998
0.11427 -0.048682 0.85508001
0.1155 -0.048588999 0.85343999
0.11671 -0.048494 0.85178
0.118 -0.048431002 0.85067999
0.11926 -0.048361 0.84943998
0.12058 -0.048312001 0.84858
0.12189 -0.048264001 0.84772998
0.12326 -0.048239 0.84729999
0.12464 -0.048216999 0.84691
0.12612 -0.048239 0.84729999
0.12764999 -0.048271999 0.84789002
0.12919 -0.048312999 0.84859002
0.13075 -0.048361 0.84943998
0.13232 -0.048408002 0.85026002
0.13382 -0.048432 0.85070002
0.0015916 -0.049486998 0.89589
0.0031019 -0.049419001 0.89467001
0.0046056001 -0.049323998 0.89295
0.0060987999 -0.049192999 0.89056998
0.0075854999 -0.049070999 0.88836002
0.0090639004 -0.048944 0.88606
0.01054 -0.048841 0.88419998
0.012013 -0.048756 0.88265997
0.013486 -0.048684001 0.88134998
0.014962 -0.048638999 0.88055003
0.016441001 -0.048613001 0.88006002
0.01792 -0.048588 0.87962002
0.019401999 -0.048574001 0.87936002
0.020888001 -0.048574001 0.87936002
0.022369999 -0.048563998 0.87919003
0.023848999 -0.048549 0.87892002
0.025322 -0.048524 0.87845999
0.026783001 -0.04848 0.87765998
0.02823 -0.048416998 0.87651998
0.029665999 -0.048342999 0.87518001
0.031086 -0.048250001 0.87348998
0.032473002 -0.048117001 0.87108999
0.033817001 -0.047936 0.86781001
0.035124 -0.047718 0.86387002
0.036421999 -0.047506001 0.86001998
0.037701 -0.047286998 0.85606998
0.039002001 -0.047109999 0.85285997
0.040348001 -0.046998002 0.85083997
0.041715998 -0.046918999 0.84939998
0.043088999 -0.046851002 0.84818
0.044488002 -0.046813998 0.84750003
0.045898002 -0.04679 0.84707999
0.047308002 -0.046769001 0.84667999
0.048730001 -0.04676 0.84652001
0.050165001 -0.046764001 0.84658998
0.051605999 -0.046773002 0.84675997
0.053059001 -0.046790998 0.84709001
0.054528002 -0.046822999 0.84767002
0.056016002 -0.046868999 0.84850001
0.057480998 -0.046893999 0.84895998
0.058940999 -0.046914 0.84930998
0.060403001 -0.046934001 0.84966999
0.06185 -0.046943001 0.84982997
0.063271999 -0.046930999 0.84963
0.064701997 -0.046927001 0.84955001
0.066128999 -0.046920002 0.84943002
0.067532003 -0.046897002 0.84900999
0.068934001 -0.046875 0.84859997
0.070361003 -0.046870001 0.84851003
0.071774997 -0.046856999 0.84827
0.073195003 -0.046847001 0.84811002
0.074639998 -0.046854001 0.84823
0.076081 -0.046859 0.84832001
0.077526003 -0.046865001 0.84842998
0.078991003 -0.046884 0.84876001
0.080463998 -0.046905998 0.84916002
0.081932001 -0.046923999 0.8495
0.083425 -0.046955999 0.85008001
0.084913 -0.046985 0.85058999
0.086402997 -0.047013 0.85110003
0.087908998 -0.047049001 0.85175002
0.089401998 -0.047077 0.85225999
0.090883002 -0.047097001 0.85263002
0.092377998 -0.047125001 0.85312998
0.093865 -0.047148 0.85354
0.095337003 -0.047162 0.8538
0.096828997 -0.047185 0.85421997
0.098330997 -0.047212999 0.85473001
0.099854998 -0.047249999 0.85540003
0.10143 -0.047311001 0.85650003
0.103 -0.047369 0.85755002
0.10456 -0.047419 0.85845
0.10612 -0.047465 0.85929
0.10763 -0.047492001 0.85978001
0.10909 -0.047493 0.85979003
0.11049 -0.047471002 0.85939997
0.11182 -0.047419999 0.85847002
0.11309 -0.047341999 0.85707003
0.1143 -0.047242001 0.85525
0.11551 -0.047146998 0.85352999
0.11672 -0.047054 0.85184997
0.118 -0.046989001 0.85067999
0.11926 -0.046921 0.84943998
0.12058 -0.046873 0.84858
0.12189 -0.046827 0.84772998
0.12326 -0.046803001 0.84729999
0.12465 -0.046785999 0.84698999
0.12614 -0.046806999 0.84737998
0.12766001 -0.046838999 0.84796
0.1292 -0.046877999 0.84865999
0.13076 -0.046923999 0.8495
0.13233 -0.046969999 0.85033
0.13386001 -0.047003001 0.85092002
0.13529 -0.048443001 0.85087001
0.13534001 -0.047017999 0.85119998
0.13665999 -0.048420001 0.85048002
0.13675 -0.047010001 0.85105002
0.13795 -0.048367999 0.84956998
0.0015912 -0.047954001 0.89561999
0.0031010001 -0.047888 0.8944
0.0046055 -0.047809999 0.89292997
0.0060982001 -0.047678001 0.89047998
0.0075854999 -0.047564998 0.88835001
0.0090645999 -0.047446001 0.88613999
0.01054 -0.047346 0.88428003
0.012013 -0.047260001 0.88265997
0.013485 -0.047189001 0.88133001
0.014961 -0.047145002 0.88050997
0.01644 -0.047115002 0.87996
0.017918 -0.047091998 0.87953001
0.019401999 -0.047083002 0.87936002
0.020888001 -0.047083002 0.87936002
0.022371 -0.047074001 0.87919998
0.023852 -0.047065001 0.87901998
0.02533 -0.047049999 0.87874001
0.026799999 -0.047022 0.87822002
0.028253 -0.046969999 0.87725002
0.029696999 -0.046907999 0.87607998
0.03112 -0.046820998 0.87445998
0.03252 -0.046707999 0.87234998
0.033877 -0.046546999 0.86934
0.035208002 -0.046363 0.86592001
0.036509998 -0.046160001 0.86211002
0.037795 -0.045949999 0.85820001
0.039083 -0.045759 0.85462999
0.040410999 -0.045627002 0.85215998
0.041749999 -0.045515999 0.85009003
0.043115001 -0.04544 0.84867001
0.044496 -0.045386001 0.84766001
0.045892999 -0.04535 0.84697998
0.047293 -0.045318998 0.84641999
0.04871 -0.045306001 0.84617001
0.050135002 -0.045301002 0.84608001
0.051569 -0.045304999 0.84614998
0.053011 -0.045313999 0.84631997
0.054462999 -0.045332 0.84666002
0.055937 -0.045366999 0.84731001
0.057399999 -0.045391001 0.84775001
0.058858 -0.04541 0.84811002
0.06033 -0.045439001 0.84864998
0.061793 -0.045460001 0.84903997
0.063231997 -0.045462001 0.84908998
0.064675003 -0.045467999 0.84919
0.066120997 -0.045474999 0.84933001
0.067538001 -0.045462001 0.84908998
0.068953998 -0.045449998 0.84885001
0.070389003 -0.045449 0.84884
0.071810998 -0.045441002 0.84868997
0.073238 -0.045435999 0.84859997
0.074692003 -0.045448001 0.84881997
0.076141998 -0.045457002 0.84899002
0.077593997 -0.045467 0.84917003
0.079060003 -0.045483999 0.8495
0.080526002 -0.045501001 0.84982002
0.081995003 -0.045519002 0.85014999
0.083481997 -0.045547001 0.85066003
0.084964998 -0.045570999 0.85110998
0.086456001 -0.045598 0.85162002
0.087954 -0.045628 0.85219002
0.089431003 -0.045646999 0.85254002
0.090908997 -0.045665 0.85288
0.092404999 -0.045692001 0.85338002
0.093893997 -0.045715 0.8538
0.095377997 -0.045733999 0.85416001
0.096869998 -0.045756999 0.85459
0.098371997 -0.045782998 0.85508001
0.099885002 -0.045814 0.85566998
0.10145 -0.045867998 0.85667002
0.10302 -0.045919999 0.85764003
0.10457 -0.045968 0.85852998
0.10612 -0.046007998 0.85929
0.10764 -0.046038002 0.85983998
0.1091 -0.046039 0.85986
0.11051 -0.046022002 0.85953999
0.11184 -0.045972999 0.85861999
0.11311 -0.045898002 0.85723001
0.11432 -0.045800999 0.85541999
0.11553 -0.045708999 0.85369003
0.11673 -0.045614999 0.85193998
0.118 -0.045547999 0.85067999
0.11926 -0.045481 0.84943002
0.12056 -0.045430999 0.84850001
0.12188 -0.045384999 0.84764999
0.12325 -0.045363002 0.84723002
0.12466 -0.045354001 0.84706998
0.12615 -0.045375999 0.84746999
0.12767 -0.045407001 0.84806001
0.12921 -0.045444999 0.84876001
0.13077 -0.045488998 0.84959
0.13234 -0.045533001 0.85042
0.13388 -0.045570001 0.85110003
0.13538 -0.045589 0.85145998
0.13682 -0.045591 0.85149002
0.0015929 -0.046487 0.89661002
0.0031020001 -0.046386998 0.89468998
0.0046057999 -0.046300001 0.89300001
0.0060975999 -0.046163999 0.89038998
0.0075854999 -0.046059001 0.88836002
0.0090655005 -0.045949001 0.88622999
0.010542 -0.045853 0.88439
0.012014 -0.045763999 0.88268
0.013485 -0.045694999 0.88134003
0.014961 -0.045651 0.88050002
0.016438 -0.045619 0.87987
0.017917 -0.045596998 0.87944001
0.019401999 -0.045593001 0.87936002
0.020888001 -0.045593001 0.87936002
0.022373 -0.045589 0.87927997
0.023856999 -0.045584001 0.87919998
0.025338 -0.045575 0.87902999
0.026814001 -0.045557 0.87867999
0.028274 -0.045517001 0.8779
0.029720999 -0.045460001 0.87681001
0.031149 -0.045380998 0.87528002
0.032556001 -0.045279 0.87331998
0.033927001 -0.045139998 0.87063003
0.035275001 -0.044982001 0.86758
0.036582999 -0.044787999 0.86383998
0.037873998 -0.044588 0.85997999
0.039158002 -0.044395 0.85627002
0.040463999 -0.044240002 0.85328001
0.041779 -0.044105999 0.85069001
0.043134999 -0.044022001 0.84908003
0.044500001 -0.043953001 0.84772998
0.045883 -0.043905001 0.84680998
0.047277 -0.043869998 0.84614003
0.048687998 -0.043853 0.84579998
0.050104 -0.043839999 0.84556001
0.051532999 -0.043839999 0.84556001
0.052967001 -0.043844 0.84562999
0.054407999 -0.043853 0.84579998
0.05587 -0.043878 0.84628999
0.057330001 -0.043901 0.84672999
0.058786001 -0.043919001 0.84707999
0.060258999 -0.043947998 0.84764999
0.061726999 -0.043974001 0.84814
0.063176997 -0.043984 0.84834999
0.064625002 -0.043993998 0.84854001
0.066078 -0.044006001 0.84877002
0.067511998 -0.044006001 0.84876001
0.068948001 -0.044006001 0.84877002
0.070389003 -0.044011001 0.84885001
0.071824998 -0.044011001 0.84886003
0.073266 -0.044015002 0.84893
0.074721999 -0.044027001 0.84917003
0.076173998 -0.044036999 0.84934998
0.077634998 -0.044050999 0.84963
0.079101004 -0.044066999 0.84995002
0.080574997 -0.044087999 0.85034001
0.082052998 -0.044109002 0.85075003
0.083541997 -0.044135999 0.85127002
0.085027002 -0.044160001 0.85172999
0.086516999 -0.044186 0.85223001
0.088008001 -0.044211 0.85271001
0.089468002 -0.044220001 0.85289001
0.090944998 -0.044236999 0.85321999
0.092441 -0.044263002 0.85371
0.093930997 -0.044284999 0.85413998
0.095417 -0.044303998 0.85451001
0.096918002 -0.044330001 0.85500997
0.098420002 -0.044355001 0.85549998
0.099933997 -0.044385999 0.85608
0.10149 -0.044434 0.85702002
0.10305 -0.04448 0.85790002
0.1046 -0.044525001 0.85877001
0.10614 -0.04456 0.85944003
0.10765 -0.044585001 0.85992998
0.10912 -0.04459 0.86001998
0.11055 -0.044581998 0.85986
0.1119 -0.044539001 0.85904002
0.11318 -0.044470999 0.85773998
0.11439 -0.044381 0.85598999
0.1156 -0.044287 0.85417998
0.11678 -0.044188 0.85227001
0.11802 -0.044114001 0.85083997
0.11928 -0.044048 0.84957999
0.12057 -0.043995999 0.84855998
0.12189 -0.043951999 0.84772998
0.12325 -0.043926999 0.84723002
0.12466 -0.043917999 0.84706998
0.12614 -0.043935999 0.84740001
0.12766001 -0.043967001 0.84801
0.1292 -0.044002999 0.84871
0.13078 -0.044050999 0.84963
0.13236 -0.044098001 0.85053003
0.13391 -0.044137001 0.85128999
0.13541999 -0.044160001 0.85174
0.0015953 -0.045035001 0.89797002
0.0031043 -0.044902999 0.89534003
0.0046067 -0.044794999 0.89318001
0.0060982001 -0.044659 0.89047003
0.0075869998 -0.044562001 0.88853002
0.0090683 -0.044459999 0.8865
0.010545 -0.044367999 0.88467002
0.012017 -0.044279002 0.88288999
0.013487 -0.044206001 0.88143998
0.014961 -0.044158999 0.88050002
0.016435999 -0.044123001 0.87977999
0.017914999 -0.044101998 0.87936002
0.019401999 -0.044101998 0.87936002
0.020888001 -0.044101998 0.87936002
0.022375001 -0.044101998 0.87936002
0.023861 -0.044101998 0.87936002
0.025346 -0.044098001 0.87927997
0.026827 -0.044089001 0.87910998
0.028295999 -0.044062998 0.87858999
0.029749 -0.044015002 0.87761998
0.031177999 -0.043938 0.8761
0.032589 -0.043844 0.87421
0.033971 -0.043719999 0.87176001
0.035332002 -0.043581001 0.86897999
0.036649 -0.043400999 0.86537999
0.037946999 -0.043212999 0.86163998
0.03923 -0.043021999 0.85784
0.040516 -0.042849001 0.85438001
0.041808002 -0.042693 0.85127002
0.043152001 -0.042599 0.84939998
0.044504002 -0.042518999 0.84780997
0.045874 -0.042461 0.84663999
0.047263 -0.042422999 0.84587997
0.048668999 -0.042401999 0.84546
0.050078999 -0.042385999 0.84513998
0.051507998 -0.042385999 0.84513998
0.052937001 -0.042385999 0.84513998
0.054370999 -0.04239 0.84522998
0.055821002 -0.042406 0.84553999
0.057273 -0.042422999 0.84588999
0.058722999 -0.042438 0.84618002
0.060189001 -0.042463001 0.84667999
0.061657 -0.042486999 0.84717
0.063115999 -0.042505 0.84753001
0.064562999 -0.042514998 0.84772998
0.066021003 -0.042530999 0.84802997
0.067465998 -0.042537998 0.84819001
0.068912998 -0.042546999 0.84834999
0.070362002 -0.042555001 0.84852999
0.071818002 -0.042567998 0.84877002
0.073279999 -0.042583998 0.84908998
0.074750997 -0.042603999 0.84948999
0.076213002 -0.042617999 0.84978002
0.077680998 -0.042636 0.85013002
0.079149 -0.042652 0.85045999
0.08061 -0.042665001 0.85070997
0.082088001 -0.042684998 0.85112
0.083570004 -0.042707 0.85156
0.085054003 -0.04273 0.85201001
0.086544998 -0.042755 0.85250002
0.088035002 -0.042778999 0.85298002
0.089488 -0.042784002 0.85307997
0.090971999 -0.042803999 0.85347003
0.092468001 -0.042828001 0.85395998
0.093969002 -0.042854 0.85448003
0.095463 -0.042876001 0.85492998
0.096974 -0.042904999 0.85549998
0.098485 -0.042934 0.85606998
0.1 -0.042962998 0.85666001
0.10155 -0.043007001 0.85753
0.10311 -0.043051001 0.85839999
0.10466 -0.043094002 0.85926998
0.10619 -0.043124001 0.85986
0.10771 -0.043148998 0.86036003
0.10917 -0.043154001 0.86045998
0.11062 -0.043150999 0.86040002
0.11198 -0.043113001 0.85965002
0.11327 -0.043053001 0.85843998
0.1145 -0.042969 0.85676998
0.1157 -0.042877 0.85495001
0.11687 -0.042777002 0.85294002
0.11808 -0.042691998 0.85126001
0.11932 -0.042619999 0.84982002
0.12058 -0.042560998 0.84863001
0.12188 -0.042512 0.84764999
0.12322 -0.042479001 0.847
0.12462 -0.042470999 0.84683001
0.12608001 -0.042479001 0.847
0.1276 -0.042507 0.84755999
0.12913001 -0.042539999 0.84820998
0.13070001 -0.042583998 0.84908998
0.13229001 -0.042633999 0.85009998
0.13388 -0.042682 0.85105002
7.7680997e-05 -0.043742001 0.90270001
0.0015976001 -0.043575 0.89924002
0.0031067999 -0.043421 0.89605999
0.0046081999 -0.043294001 0.89345002
0.0060994001 -0.043157998 0.89064997
0.0075900001 -0.043072999 0.88888001
0.0090738004 -0.042982999 0.88704002
0.010552 -0.042895 0.88521999
0.012024 -0.042808 0.88343
0.013493 -0.042732999 0.88186997
0.014965 -0.042679001 0.88075
0.016438 -0.042636 0.87987
0.017917 -0.042615 0.87944001
0.019401999 -0.042610999 0.87936002
0.020888001 -0.042610999 0.87936002
0.022375001 -0.042610999 0.87936002
0.023863999 -0.042615 0.87944001
0.025350999 -0.042615 0.87945002
0.026837001 -0.042615999 0.87945002
0.028313 -0.042599 0.87911999
0.029773001 -0.042560998 0.87832999
0.031207001 -0.042491999 0.87690997
0.032621998 -0.042405002 0.87510002
0.034008998 -0.042289 0.87272
0.035381 -0.042165998 0.87018001
0.036706999 -0.042001002 0.86676002
0.038011 -0.041823 0.86309999
0.039296001 -0.041639 0.85929
0.040575001 -0.041460998 0.85562998
0.041852001 -0.041294001 0.85216999
0.04318 -0.041187 0.84996003
0.044516999 -0.041094001 0.84805
0.045874 -0.041026 0.84663999
0.047254 -0.040980998 0.84571999
0.048655 -0.040957 0.84522003
0.050057001 -0.040934999 0.84476
0.051479999 -0.040931001 0.84468001
0.052903 -0.040927 0.84460002
0.054329999 -0.040927 0.84460002
0.055764001 -0.040931001 0.84468001
0.057209 -0.040943 0.84492999
0.058655001 -0.040956002 0.8452
0.060118999 -0.04098 0.84569001
0.061585002 -0.041003998 0.84618998
0.063046999 -0.041023999 0.84661001
0.064498 -0.041037001 0.84687001
0.065954 -0.041051999 0.84718001
0.067399003 -0.041058999 0.84732997
0.068844996 -0.041067999 0.84750998
0.070300996 -0.041081 0.84779
0.071763001 -0.041097999 0.84812999
0.073233001 -0.041118 0.84854001
0.074717 -0.041145001 0.84911001
0.076191999 -0.041166998 0.84955001
0.077667996 -0.041188002 0.84999001
0.079150997 -0.041211002 0.85048002
0.080626003 -0.041230999 0.85087001
0.082105003 -0.041251 0.85128999
0.083586998 -0.041271999 0.85172999
0.085077003 -0.041297 0.85223001
0.086560003 -0.041317001 0.85264999
0.088042997 -0.041336 0.85304999
0.089504004 -0.041345 0.85323
0.090999 -0.041368999 0.85372001
0.092487 -0.041389 0.85413998
0.093998 -0.041418001 0.85474002
0.095500998 -0.041443001 0.85526001
0.097021997 -0.041476 0.85592997
0.098545 -0.041508 0.85658997
0.10007 -0.041540999 0.85728002
0.10162 -0.041583002 0.85813999
0.10317 -0.041621 0.85894001
0.10472 -0.041659001 0.85970998
0.10624 -0.041684002 0.86023003
0.10775 -0.041708998 0.86074001
0.10922 -0.041714001 0.86084998
0.11069 -0.041717999 0.86093998
0.11206 -0.041687001 0.86028999
0.11338 -0.041637 0.85925001
0.11464 -0.041567001 0.85781997
0.11587 -0.04149 0.85623002
0.11703 -0.041389 0.85413998
0.11822 -0.041297998 0.85227001
0.11942 -0.041214999 0.85056001
0.12064 -0.041142002 0.84903002
0.12189 -0.041079 0.84773999
0.1232 -0.041039001 0.84692001
0.1246 -0.041026 0.84665
0.12602 -0.041025002 0.84662998
0.12751999 -0.041046999 0.84706998
0.12904 -0.041074999 0.84767002
0.13061 -0.041115999 0.84850001
0.13222 -0.041170999 0.84964001
0.13382 -0.041223001 0.85070997
-0.0029949001 -0.044043999 0.90891999
-0.0045395 -0.042578001 0.91052997
-0.0029961001 -0.042518999 0.90928
-0.0014547 -0.043933 0.90662998
-0.0014565 -0.042447001 0.90772998
7.7805998e-05 -0.042281002 0.90419
0.0015999 -0.042110998 0.90055001
0.0031097 -0.041940998 0.89691001
0.0046104002 -0.0418 0.89389002
0.0061006998 -0.041657001 0.89083999
0.0075925002 -0.041579001 0.88918
0.0090787001 -0.041501999 0.88752002
0.010558 -0.041421 0.88578999
0.012031 -0.041336 0.88397998
0.013502 -0.041262999 0.88240999
0.014973 -0.041205999 0.88119
0.016442999 -0.041157 0.88012999
0.01792 -0.041131999 0.87961
0.019402999 -0.041124001 0.87944001
0.020889999 -0.041124001 0.87944001
0.022379 -0.041127998 0.87953001
0.023871001 -0.041136999 0.87970001
0.025361 -0.041141 0.87980002
0.026853001 -0.041149002 0.87997001
0.028333001 -0.041138001 0.87972999
0.0298 -0.041108999 0.87911999
0.031242 -0.041051 0.87787998
0.032664999 -0.040975001 0.87624002
0.034054998 -0.040865999 0.87392002
0.035438001 -0.040757 0.87159002
0.036770001 -0.040601 0.86824
0.038074002 -0.040426999 0.86452001
0.039358001 -0.040245999 0.86065
0.040631998 -0.040066998 0.85681999
0.041891001 -0.039886001 0.85295999
0.043203 -0.039765999 0.85039997
0.044530001 -0.039669 0.84830999
0.045878999 -0.039595 0.84672999
0.047254 -0.039547998 0.84573001
0.048655 -0.039524 0.84522003
0.050051998 -0.039499 0.84468001
0.05147 -0.039491002 0.84451997
0.052887 -0.039483 0.84434003
0.054303002 -0.039475001 0.84417999
0.055725001 -0.039471999 0.8441
0.057163 -0.039478999 0.84425998
0.058602002 -0.039487001 0.84443003
0.060052998 -0.039501999 0.84474999
0.061516002 -0.039524999 0.84522998
0.062976003 -0.039545 0.84565997
0.064420998 -0.039554 0.84586
0.065875001 -0.039568 0.84615999
0.067322999 -0.039577998 0.84638
0.068769 -0.039586999 0.84657001
0.070223004 -0.0396 0.84684998
0.071691997 -0.039620999 0.84728998
0.073167004 -0.039643999 0.84777999
0.074651003 -0.039671 0.84836
0.076139003 -0.039698999 0.84895998
0.077621996 -0.039723001 0.84947997
0.079111002 -0.039749999 0.85004997
0.080594003 -0.039772 0.85053003
0.082079001 -0.039795998 0.85102999
0.083553001 -0.039811999 0.85137999
0.085050002 -0.039839 0.85196
0.086539999 -0.039861999 0.85245001
0.088025004 -0.039882001 0.85288
0.089502998 -0.039898001 0.85321999
0.091015004 -0.039928999 0.85386997
0.092514001 -0.039953001 0.85439003
0.094035 -0.039985001 0.85508001
0.095555998 -0.040017001 0.85575998
0.097089998 -0.040052999 0.85653001
0.098617002 -0.040084999 0.85720998
0.10016 -0.040121 0.85798001
0.10171 -0.040160999 0.85883999
0.10324 -0.040194001 0.85955
0.10478 -0.040226001 0.86023998
0.1063 -0.04025 0.86075002
0.10781 -0.040270001 0.86116999
0.10929 -0.040279001 0.86135
0.11077 -0.040290002 0.86159998
0.11217 -0.040268 0.86113
0.11352 -0.040231999 0.86035001
0.11483 -0.040181 0.85926998
0.11611 -0.040119 0.85794997
0.11734 -0.040043999 0.85632998
0.11859 -0.039978001 0.85494
0.11975 -0.039884001 0.85290998
0.12091 -0.039790999 0.85092998
0.12209 -0.039708 0.84915
0.1233 -0.039634999 0.84759003
0.12458 -0.039585002 0.84652001
0.12599 -0.039579 0.84640998
0.12745 -0.039590001 0.84662002
0.13006 -0.039951 0.85434002
-0.0045391 -0.041030001 0.91044003
-0.0029961001 -0.040978 0.90926999
-0.0014571 -0.040925998 0.90812999
7.7873003e-05 -0.040782999 0.90495002
0.0016012 -0.040617999 0.90127999
0.0031113999 -0.040442001 0.89737999
0.0046112998 -0.040293001 0.89407003
0.0061014001 -0.040151998 0.89094001
0.0075943 -0.040082 0.88938999
0.0090827001 -0.040015001 0.88791001
0.010564 -0.039941002 0.88625997
0.012038 -0.039859999 0.88445997
0.013509 -0.039788 0.88287997
0.014981 -0.039733998 0.88165998
0.016450999 -0.039685 0.88058001
0.017927 -0.039657 0.87997001
0.019410999 -0.039648999 0.87977999
0.020896001 -0.039645001 0.87970001
0.022386 -0.039648999 0.87979001
0.023878001 -0.039657999 0.87998003
0.025371 -0.039666001 0.88016999
0.026865 -0.039675001 0.88037002
0.028351 -0.039671 0.88028002
0.029821999 -0.039648 0.87976998
0.031270999 -0.0396 0.87869
0.032701999 -0.039533999 0.87724
0.034097999 -0.039434001 0.87501001
0.035475999 -0.039321002 0.87251002
0.036814 -0.039175998 0.86928999
0.038123 -0.039011002 0.86563998
0.039409999 -0.038837999 0.86179
0.040686 -0.038665999 0.85798001
0.041946001 -0.038490999 0.85408002
0.043242 -0.03836 0.85117
0.044553 -0.038249999 0.84873003
0.045887999 -0.038167 0.84688997
0.047254 -0.038114 0.84573001
0.048655 -0.038091 0.84522003
0.050046999 -0.038063001 0.84460002
0.051459 -0.038052 0.84434003
0.052869 -0.038038999 0.84407002
0.054279 -0.038028002 0.84381002
0.055691 -0.038017001 0.84356999
0.057122 -0.03802 0.84364998
0.058552999 -0.038024001 0.84372997
0.059990998 -0.038031001 0.84389001
0.061441999 -0.038045999 0.84421998
0.062895 -0.038061999 0.84456998
0.064332001 -0.038067002 0.84469002
0.065779001 -0.038077999 0.84492999
0.067225002 -0.038088001 0.84514999
0.068673 -0.038098998 0.84539002
0.070130996 -0.038114998 0.84574002
0.071603999 -0.038137 0.84625
0.073077999 -0.03816 0.84675002
0.074560001 -0.038185999 0.84732997
0.076045997 -0.038213 0.84792
0.077528 -0.038237002 0.84845001
0.079024002 -0.038267002 0.84912002
0.080527999 -0.0383 0.84983999
0.082029998 -0.03833 0.85051
0.083511002 -0.038350001 0.85095
0.085014999 -0.038378999 0.85161
0.086511999 -0.038405001 0.85218
0.087998003 -0.038424999 0.85262001
0.089493997 -0.038447998 0.85314
0.091016002 -0.038481999 0.85387999
0.092533 -0.038511999 0.85456997
0.094071001 -0.038550999 0.85540998
0.095614001 -0.038589001 0.85627002
0.097167999 -0.038632002 0.85720998
0.098715 -0.03867 0.85807002
0.10027 -0.038709 0.85892999
0.10181 -0.038743999 0.85970002
0.10334 -0.038771 0.86031002
0.10485 -0.038795002 0.86083001
0.10637 -0.038817 0.86132002
0.10787 -0.038832001 0.86167002
0.10936 -0.038844001 0.86193001
0.11086 -0.038858999 0.86225998
0.11229 -0.038849 0.86203003
0.11368 -0.038826 0.86153001
0.11504 -0.038794 0.86080998
0.11638 -0.038755 0.85993999
0.11769 -0.038710002 0.85894001
0.11903 -0.038671002 0.85808998
0.12026 -0.038601 0.85653001
0.12141 -0.038506001 0.85442001
0.12251 -0.038400002 0.85207999
0.12377 -0.038344 0.85082
0.12493 -0.038259 0.84894001
0.12620001 -0.038208 0.84780997
0.12766001 -0.038217001 0.84801
0.13060001 -0.038660999 0.85786003
-0.0029965001 -0.039441999 0.90938997
-0.0014572 -0.039390001 0.90820003
7.7867997e-05 -0.039251 0.90499002
0.0016016 -0.039099 0.90148002
0.0031119001 -0.038927998 0.89754999
0.0046127001 -0.038787998 0.89432001
0.0061037 -0.038656 0.89126998
0.0075981002 -0.038593002 0.88981998
0.0090881996 -0.038532998 0.88844001
0.010571 -0.038462002 0.88679999
0.012046 -0.038387001 0.88507998
0.013519 -0.038320001 0.88352001
0.01499 -0.038263001 0.88222998
0.016462 -0.038217001 0.88115001
0.017937999 -0.038189001 0.88050997
0.019421 -0.038176998 0.88024002
0.020907 -0.038173001 0.88015002
0.022397 -0.038176998 0.88024002
0.023891 -0.038185999 0.88045001
0.025385 -0.038194999 0.88064998
0.026879 -0.038203001 0.88082999
0.028369 -0.038203001 0.88084
0.029846 -0.038187999 0.88047999
0.031303 -0.038148999 0.87958997
0.032745998 -0.038098 0.87840998
0.034154002 -0.038013 0.87645
0.035535 -0.037905 0.87396997
0.036878001 -0.037767999 0.87080002
0.038192 -0.037611999 0.86720002
0.039478 -0.037441 0.86325997
0.040752001 -0.037271999 0.85935998
0.042009 -0.037099 0.85536999
0.043288998 -0.036956999 0.85210001
0.044581998 -0.036835 0.84930003
0.045905001 -0.036745001 0.84719998
0.047258001 -0.036683999 0.84579998
0.048655 -0.036658999 0.84522003
0.050042 -0.036628 0.84451997
0.051449001 -0.036612999 0.84417999
0.052852999 -0.036596999 0.84381002
0.054257002 -0.036582001 0.84346002
0.055663001 -0.036568999 0.84315002
0.057087999 -0.036568999 0.84315002
0.058513001 -0.036568999 0.84315002
0.059939001 -0.036568999 0.84315997
0.061381999 -0.036579002 0.84338999
0.062826999 -0.036591001 0.84364998
0.064257003 -0.036593001 0.84369999
0.065696001 -0.036600001 0.84385997
0.067133002 -0.036605 0.84399003
0.068567 -0.036609001 0.84407997
0.070015997 -0.036621001 0.84434998
0.071484998 -0.036642 0.84483999
0.072962001 -0.036667001 0.84540999
0.074449003 -0.036695 0.84605998
0.075946003 -0.036727 0.84680003
0.077431999 -0.036752999 0.84741002
0.078934997 -0.036786001 0.84816003
0.080440998 -0.036819 0.84891999
0.081955999 -0.036855001 0.84974998
0.083446003 -0.036878001 0.85029
0.084958002 -0.036911 0.85102999
0.086470999 -0.036942001 0.85176998
0.087963998 -0.036965001 0.85228997
0.089469001 -0.036991 0.85290003
0.090999 -0.037027001 0.85373002
0.092534997 -0.037064001 0.85457999
0.094091997 -0.037108999 0.8556
0.095663004 -0.037156999 0.85671997
0.097236998 -0.037204999 0.85782999
0.098806001 -0.037250001 0.85886002
0.10036 -0.037287001 0.85970998
0.10189 -0.037315998 0.86039001
0.10342 -0.037342001 0.86098999
0.10492 -0.037361 0.86141002
0.10643 -0.037379 0.86183
0.10793 -0.037393998 0.86216998
0.10942 -0.037404999 0.86243999
0.11093 -0.037420001 0.86277997
0.11238 -0.037418 0.86273998
0.11381 -0.037411001 0.86256999
0.11524 -0.037399001 0.86229002
0.11666 -0.037386999 0.86202002
0.11807 -0.037374001 0.86172998
0.11951 -0.037365999 0.86154002
0.12082 -0.037323002 0.86053002
0.12212 -0.037273999 0.85940999
0.12321 -0.037165999 0.85692
0.1244 -0.037089001 0.85513997
0.12547 -0.036979001 0.85259998
0.12657 -0.036880001 0.85031998
-0.0029955001 -0.037888002 0.90908998
-0.0014565 -0.037833001 0.90779001
7.7857003e-05 -0.037703 0.90464997
0.0016012 -0.037560999 0.90123999
0.0031125001 -0.037413999 0.89771998
0.0046139001 -0.037283 0.89456999
0.0061061 -0.037160002 0.89162999
0.0076011 -0.037099998 0.89017999
0.0090934997 -0.037048999 0.88896
0.010578 -0.036984 0.88740999
0.012056 -0.036915999 0.88577998
0.013531 -0.036855001 0.88432002
0.015004 -0.036800999 0.88303
0.016474999 -0.036752999 0.88186997
0.017951 -0.036722999 0.88116002
0.019432999 -0.036708999 0.88080001
0.020918 -0.036701001 0.88062
0.022411 -0.036708001 0.88079
0.023907 -0.036719002 0.88106
0.025405001 -0.036731001 0.88134998
0.026900999 -0.036738999 0.88154
0.028391 -0.036738999 0.88154
0.029868999 -0.036724001 0.88117999
0.031330999 -0.036692001 0.8804
0.032783002 -0.036649998 0.87940001
0.034203999 -0.036580998 0.87774003
0.035597999 -0.036488 0.87550998
0.036956999 -0.036369 0.87265998
0.038286 -0.036231 0.86935002
0.039579999 -0.03607 0.86549002
0.040865 -0.035914 0.86172998
0.042123999 -0.035746001 0.85769999
0.043382 -0.035588998 0.85394001
0.044651002 -0.03545 0.8506
0.045951001 -0.035344001 0.84807003
0.047279999 -0.035266001 0.84618002
0.048659001 -0.035229001 0.84530002
0.050046999 -0.0352 0.84460002
0.051445 -0.035179 0.8441
0.052848 -0.035163999 0.84372997
0.054251999 -0.035149001 0.84337997
0.055652998 -0.035133 0.84299999
0.057073001 -0.035130002 0.84292001
0.058497 -0.035130002 0.84292001
0.059916001 -0.035126001 0.84283
0.061340999 -0.035126001 0.84284002
0.062771998 -0.035130002 0.84292001
0.064193003 -0.035126999 0.84285998
0.065617003 -0.035126999 0.84285003
0.067041002 -0.035126999 0.84284002
0.068466 -0.035126999 0.84284002
0.069911003 -0.035137001 0.84309
0.071373001 -0.035154998 0.84351999
0.072842002 -0.035176001 0.84402001
0.074326001 -0.035202999 0.84467
0.075827003 -0.035236001 0.84548002
0.077317998 -0.035264999 0.84615999
0.078827001 -0.035300002 0.847
0.080352001 -0.035340998 0.84798002
0.081876002 -0.035379998 0.84891999
0.083380997 -0.035409 0.84963
0.084899999 -0.035443999 0.85045999
0.086420998 -0.035478 0.85127997
0.087921001 -0.035503 0.85187
0.089442 -0.035535 0.85263997
0.090980999 -0.035572998 0.85355997
0.092533998 -0.035615999 0.85457999
0.094109997 -0.035665002 0.85575998
0.095693 -0.035716001 0.85698003
0.097287998 -0.035769999 0.85826999
0.098866999 -0.035815999 0.85939002
0.10042 -0.035852 0.86025
0.10195 -0.035877001 0.86084998
0.10347 -0.035900999 0.86142999
0.10497 -0.035914999 0.86176997
0.10648 -0.035932999 0.86220002
0.10799 -0.035951 0.86262
0.1095 -0.035969 0.86306
0.11102 -0.035987001 0.86348999
0.11249 -0.035992 0.86361003
0.11396 -0.035994999 0.86369002
0.11543 -0.035998002 0.86375999
0.11691 -0.036005002 0.86391997
0.11842 -0.036017999 0.86423999
0.11996 -0.036042999 0.86483997
0.12141 -0.036038 0.86471999
0.12288 -0.036040001 0.86475998
0.1241 -0.035971001 0.86309999
0.1277 -0.035751998 0.85785002
-0.0014551 -0.036258999 0.90689999
7.7801e-05 -0.036150001 0.90417999
0.001601 -0.036029 0.90113997
0.003113 -0.035897002 0.89784998
0.0046164002 -0.035785001 0.89506
0.0061098998 -0.035670999 0.89218998
0.0076043 -0.035606001 0.89055997
0.0090974001 -0.035557002 0.88933998
0.010584 -0.035498999 0.88788998
0.012065 -0.035440002 0.88643003
0.013542 -0.035385001 0.88505
0.015018 -0.035337001 0.88384998
0.016492 -0.035294 0.88275999
0.017969999 -0.035264999 0.88204998
0.019453 -0.035250999 0.88169003
0.020936999 -0.035241 0.88142997
0.022429001 -0.035243999 0.88151002
0.023925001 -0.035250999 0.88169003
0.025423 -0.035262 0.88196999
0.026916999 -0.035266001 0.88207
0.028410999 -0.035270002 0.88216001
0.029893 -0.035259001 0.88189
0.031362001 -0.035234001 0.88126999
0.032818999 -0.035199001 0.88037997
0.034253001 -0.035142999 0.87897998
0.035656001 -0.035062 0.87695003
0.037025999 -0.034954999 0.87428999
0.038373001 -0.034836002 0.87131
0.039687999 -0.034697998 0.86786002
0.040984999 -0.034554999 0.86427999
0.042259999 -0.034403 0.86048001
0.043529 -0.034256998 0.85683
0.044775002 -0.034102999 0.85298002
0.046046 -0.033976998 0.84982002
0.047347002 -0.033879999 0.84739
0.048695002 -0.033821002 0.84592003
0.050060999 -0.033776999 0.84482998
0.051459 -0.033758 0.84434003
0.052868001 -0.033746 0.84404999
0.054279 -0.033736002 0.84378999
0.055684999 -0.033723999 0.84349
0.057105999 -0.033720002 0.84341002
0.058529999 -0.033720002 0.84338999
0.059932999 -0.033707 0.84306997
0.061345998 -0.0337 0.84289998
0.062762998 -0.033696 0.84280002
0.064165004 -0.033684 0.84249997
0.065569997 -0.033674002 0.84224999
0.066985004 -0.033670001 0.84214002
0.068402 -0.033666 0.84205002
0.069839001 -0.033673 0.84222001
0.071299002 -0.033690002 0.84263998
0.072768003 -0.033711001 0.84315997
0.074252002 -0.033737 0.84381998
0.075751998 -0.033769999 0.84464002
0.077242002 -0.033797 0.84531999
0.078749001 -0.033831 0.84615999
0.080273002 -0.03387 0.84715003
0.081802003 -0.033909999 0.84815001
0.083314002 -0.033941999 0.84895003
0.084834002 -0.033976 0.84978998
0.086360998 -0.034012001 0.85069001
0.087876998 -0.034042001 0.85144001
0.089396998 -0.034072999 0.85222
0.090944998 -0.034113001 0.85321999
0.092522003 -0.034162 0.85446
0.094117001 -0.034217 0.85583001
0.095720001 -0.034272999 0.85723001
0.097336002 -0.034332 0.85869998
0.098925002 -0.03438 0.8599
0.10048 -0.034414001 0.86075997
0.102 -0.034435 0.86127001
0.10352 -0.034458 0.86185002
0.10502 -0.034472 0.86220002
0.10653 -0.03449 0.86264998
0.10806 -0.034510002 0.86317003
0.1096 -0.034536999 0.86382997
0.11113 -0.034557998 0.86435997
0.11264 -0.034573 0.86471999
0.11414 -0.034586001 0.86505997
0.11564 -0.034596 0.8653
0.11715 -0.03461 0.86565
0.11873 -0.034644 0.86651999
0.12037 -0.034694001 0.86776
0.12195 -0.034728002 0.86860001
0.12361 -0.034782 0.86995
0.12513 -0.034796 0.87029999
0.12676001 -0.034839001 0.8714
7.7703e-05 -0.034577999 0.90314001
0.0015999 -0.034476999 0.90051001
0.0031126 -0.034371 0.89772999
0.0046178 -0.034278002 0.89532
0.0061150999 -0.034187 0.89293998
0.0076104999 -0.034124002 0.89128
0.0091040004 -0.034074001 0.88998997
0.010591 -0.034017999 0.88853002
0.012075 -0.033966001 0.88717997
0.013555 -0.033916999 0.88587999
0.015032 -0.033870999 0.88467997
0.016509 -0.033831999 0.88366997
0.017988 -0.033805002 0.88295001
0.019472999 -0.033790998 0.88257998
0.020957001 -0.033778001 0.88224
0.022445999 -0.033774 0.88214999
0.023937 -0.033774 0.88216001
0.025434 -0.033782002 0.88235003
0.026927 -0.033783 0.88238001
0.028424 -0.033789001 0.88255
0.029912001 -0.033785 0.88243997
0.031388 -0.033767998 0.88199002
0.032852001 -0.033739999 0.88125998
0.034297001 -0.033696 0.88010001
0.035705999 -0.033622 0.87818998
0.037085999 -0.033528 0.87571001
0.038454998 -0.033431001 0.87318999
0.039790999 -0.033312999 0.87010998
0.041110002 -0.033190001 0.86690998
0.042410001 -0.033061001 0.86352998
0.043696001 -0.032930002 0.86012
0.044948999 -0.032784 0.85628998
0.046195999 -0.032641999 0.85258001
0.047465999 -0.032524001 0.84951001
0.048779 -0.032442998 0.84737998
0.050120998 -0.032384001 0.84583998
0.051488999 -0.032345001 0.84482998
0.052905001 -0.032338001 0.84464002
0.054322001 -0.032331001 0.84447002
0.055734999 -0.032322999 0.84425002
0.057156999 -0.03232 0.84416997
0.058582 -0.032319002 0.84413999
0.059985001 -0.032306001 0.84381002
0.061393 -0.032295998 0.84355003
0.062804997 -0.032288998 0.84336001
0.064199999 -0.032272998 0.84294999
0.065598004 -0.032260001 0.84261
0.066995002 -0.032246999 0.84227002
0.068397999 -0.032237001 0.84201002
0.069821998 -0.032237001 0.84201002
0.071275003 -0.032249998 0.84235001
0.072737001 -0.032267999 0.84280002
0.074221 -0.032292999 0.84346998
0.075713001 -0.032322001 0.84421003
0.077196002 -0.032345001 0.84482002
0.078694001 -0.032373 0.84557003
0.08021 -0.032409001 0.84648001
0.081736997 -0.032446999 0.84748
0.083261997 -0.032483 0.84842002
0.084788002 -0.032517999 0.84934002
0.086315997 -0.032552 0.85023999
0.087847002 -0.032586999 0.85115999
0.089374997 -0.032620002 0.85201001
0.090925999 -0.032659002 0.85303998
0.092511997 -0.032710001 0.85437
0.094125003 -0.032768998 0.85589999
0.095737003 -0.032825999 0.85737997
0.097364001 -0.032885998 0.85895002
0.098963998 -0.032935001 0.86023003
0.10052 -0.032968 0.86109
0.10203 -0.032986999 0.86159003
0.10356 -0.033009 0.86216998
0.10506 -0.033023 0.86252999
0.10659 -0.033043999 0.86307001
0.10813 -0.033070002 0.86375999
0.10969 -0.033098999 0.86453003
0.11123 -0.033123001 0.86514997
0.11276 -0.033144001 0.86568999
0.11428 -0.033160001 0.86611998
0.1158 -0.033176001 0.86653
0.11735 -0.033199001 0.86712003
0.11895 -0.033236001 0.86808997
0.1206 -0.033287 0.86941999
0.12233 -0.033357002 0.87127
0.12417 -0.033457 0.87386
0.12596001 -0.033539999 0.87603003
0.12785999 -0.03365 0.87892002
0.0016087 -0.033133 0.90549999
0.0031154 -0.032878999 0.89854997
0.0046242001 -0.032806002 0.89656001
0.0061261998 -0.032733001 0.89455998
0.0076219002 -0.032662001 0.89261001
0.009114 -0.032600999 0.89096999
0.010602 -0.032545 0.88944
0.012088 -0.032499 0.88815999
0.01357 -0.032451998 0.88687998
0.015049 -0.032407999 0.88568997
0.016527999 -0.032370999 0.88467997
0.01801 -0.032347001 0.88402998
0.019494999 -0.032331001 0.88358998
0.020981999 -0.032322001 0.88331997
0.022473 -0.032318 0.88322002
0.023964999 -0.032317001 0.88319999
0.025460999 -0.03232 0.88328999
0.026954999 -0.032320999 0.88331997
0.028452 -0.032325 0.88343
0.029943001 -0.032322001 0.88334
0.031417001 -0.032303002 0.88281
0.032882001 -0.032276001 0.88207
0.034331001 -0.032235999 0.88099003
0.035746001 -0.032168999 0.87914997
0.037133999 -0.032085001 0.87685001
0.038520999 -0.032005001 0.87467003
0.039875001 -0.031906001 0.87195998
0.041216001 -0.031803001 0.86914003
0.042546 -0.031699002 0.86629999
0.043855 -0.031587001 0.86324
0.045127999 -0.031456999 0.85969001
0.046386998 -0.031326 0.85610002
0.047660001 -0.031212 0.85298997
0.048966002 -0.031125 0.85061997
0.050280999 -0.031049 0.84855002
0.051622 -0.030993 0.84701002
0.05302 -0.030973 0.84648001
0.054425001 -0.030959001 0.84608001
0.055824 -0.030941 0.84559
0.057257999 -0.030944001 0.84566998
0.058696002 -0.030948 0.84578001
0.060097001 -0.030933 0.84538001
0.061496001 -0.030918 0.84496999
0.062909998 -0.030911 0.84477001
0.064296 -0.030889999 0.84421003
0.065690003 -0.030874999 0.84378999
0.067082003 -0.030858999 0.84334999
0.068466999 -0.030841 0.84285998
0.069871001 -0.030832 0.84261
0.071309999 -0.030838 0.84276998
0.072751999 -0.030844999 0.84297001
0.074221998 -0.030864 0.84349
0.075707003 -0.030888001 0.84413999
0.077180997 -0.030906999 0.84464997
0.078670003 -0.030931 0.84530997
0.080176003 -0.030960999 0.84613001
0.081703 -0.030997001 0.84713
0.083235003 -0.031034 0.84814
0.084770001 -0.031071 0.84916002
0.086297996 -0.031105001 0.85005999
0.087835997 -0.031141 0.85105002
0.089365996 -0.031172 0.85191
0.090916999 -0.03121 0.85294998
0.092505001 -0.031259999 0.85430002
0.094126001 -0.031318001 0.85591
0.095748 -0.031376 0.85746998
0.097374998 -0.031433001 0.85904002
0.098976001 -0.031481002 0.86034
0.10054 -0.031514 0.86126
0.10206 -0.031536002 0.86184001
0.10359 -0.031557001 0.86242002
0.1051 -0.031573001 0.86286998
0.10664 -0.031596001 0.86348999
0.10818 -0.031621002 0.86418003
0.10975 -0.031652998 0.86504
0.11131 -0.031679001 0.86576998
0.11286 -0.031702999 0.86641997
0.1144 -0.031725001 0.86701
0.11594 -0.031746 0.86759001
0.11751 -0.031773999 0.86835003
0.11913 -0.031812001 0.86940002
0.12082 -0.03187 0.87098998
0.12258 -0.031946 0.87304997
0.12444 -0.032046001 0.87577999
0.12625 -0.032129999 0.87808001
0.12812001 -0.032226 0.88069999
0.12989999 -0.032299001 0.88270003
0.13152 -0.033829 0.88357002
0.13164 -0.032359999 0.88437998
0.0031185001 -0.031387001 0.89945
0.0046303999 -0.031328 0.89775997
0.0061360002 -0.031266998 0.89600003
0.0076315999 -0.031188 0.89376003
0.0091227004 -0.031121001 0.89181
0.010612 -0.031067001 0.89026999
0.012099 -0.031021999 0.88898998
0.013584 -0.030981001 0.88779998
0.015066 -0.030942 0.88669997
0.016547 -0.030906999 0.88569999
0.018030999 -0.030884 0.88503999
0.019517001 -0.030869 0.88459003
0.021002 -0.030854 0.88418001
0.022493999 -0.030850001 0.88406998
0.023987999 -0.030849 0.88402998
0.025485 -0.030851001 0.88410002
0.02698 -0.030851999 0.88413
0.028480999 -0.030858999 0.88432002
0.029971 -0.030854 0.88417
0.031447001 -0.030835001 0.88363999
0.032910001 -0.030807 0.88282001
0.034356002 -0.030765999 0.88164002
0.035774998 -0.030703999 0.87987
0.037174001 -0.030631 0.87779999
0.038573001 -0.030564001 0.87585002
0.039951999 -0.030486001 0.87364
0.041319001 -0.030405 0.87132001
0.042677999 -0.030324001 0.86899
0.044015002 -0.030234 0.86638999
0.045311999 -0.030122001 0.86320001
0.046588998 -0.030005001 0.85983998
0.047881 -0.029904 0.85693997
0.049185999 -0.029817 0.85444999
0.050508998 -0.029744999 0.85238999
0.051842999 -0.029684 0.85062999
0.053238001 -0.02966 0.84995002
0.054630999 -0.029635999 0.84926999
0.056026999 -0.029615 0.84868002
0.057443 -0.029606 0.8484
0.058874998 -0.029603999 0.84837002
0.060258999 -0.029579001 0.84764999
0.061655 -0.029562 0.84714001
0.063056998 -0.029548001 0.84674001
0.064439997 -0.029526001 0.84610999
0.065838002 -0.029510999 0.84569001
0.067238003 -0.029498 0.84531999
0.068619996 -0.029478 0.84473997
0.070012003 -0.029463001 0.84429997
0.071437001 -0.029461 0.84426999
0.072851002 -0.029456001 0.84412003
0.074294999 -0.029463001 0.84430999
0.075751998 -0.029475 0.84464997
0.077210002 -0.029486001 0.84498
0.078684002 -0.029503001 0.84546
0.080182001 -0.029529 0.84618998
0.081703 -0.029561 0.84711999
0.083236001 -0.029596999 0.84815001
0.084772997 -0.029633 0.84917998
0.086294003 -0.029662 0.85003
0.087830998 -0.029696001 0.85100001
0.089367002 -0.029728999 0.85193002
0.090926997 -0.029767999 0.85303998
0.092524998 -0.029818 0.85448998
0.094163001 -0.029879 0.85623997
0.095794 -0.029936999 0.85789001
0.097420998 -0.029991001 0.85944998
0.099023998 -0.030037001 0.86075002
0.10059 -0.030068999 0.86167997
0.10211 -0.03009 0.86227
0.10364 -0.03011 0.86285001
0.10516 -0.030126 0.86330998
0.10669 -0.030146999 0.86391997
0.10825 -0.030174 0.86467999
0.10984 -0.03021 0.86571002
0.11141 -0.030238001 0.86653
0.11298 -0.030267 0.86734998
0.11454 -0.030291 0.86804003
0.11609 -0.030314 0.86870003
0.11768 -0.030344 0.86956
0.11931 -0.030385001 0.87072998
0.12102 -0.030444 0.87243003
0.12283 -0.030526999 0.87480998
0.12468 -0.030621 0.87748998
0.1265 -0.030702 0.87981999
0.12834001 -0.030787 0.88225001
0.13008 -0.030844999 0.88392001
0.13249999 -0.031061999 0.89014
0.0046573998 -0.02998 0.90298998
0.0061448999 -0.029790999 0.8973
0.0076436 -0.029720001 0.89516997
0.0091330996 -0.029642999 0.89284003
0.010621 -0.029581999 0.89100999
0.01211 -0.02954 0.88972998
0.013597 -0.029503001 0.88862997
0.015082 -0.029469 0.88761997
0.016565001 -0.029439 0.88669997
0.018053001 -0.02942 0.88612998
0.019540999 -0.029405 0.88568997
0.021028001 -0.029391 0.88525999
0.022518 -0.029382 0.88499999
0.024013 -0.029381 0.88496
0.025509 -0.029381 0.88496
0.027008999 -0.029385 0.88507003
0.028514 -0.029394001 0.88533998
0.030005001 -0.029389 0.88518
0.031479001 -0.029368 0.88455999
0.03294 -0.029337 0.88362998
0.034380998 -0.029292 0.88226998
0.035794001 -0.029227 0.88033003
0.037193999 -0.029159 0.87826002
0.038596999 -0.029097 0.87638998
0.039988 -0.029030999 0.87440997
0.041368 -0.028963 0.87234998
0.042748999 -0.028898999 0.87044001
0.044121001 -0.028834 0.86848003
0.045449998 -0.028746 0.86583
0.046757001 -0.028650001 0.86293
0.048080001 -0.028569 0.86050999
0.049407002 -0.028496001 0.85829002
0.050735001 -0.028426001 0.85619998
0.052076001 -0.028369 0.85447001
0.053468 -0.028341001 0.85361999
0.054854002 -0.028312 0.85273999
0.056253999 -0.028291 0.85211003
0.057668999 -0.028278001 0.85172999
0.059089001 -0.028268 0.85144001
0.06047 -0.028240999 0.85061997
0.061875001 -0.028225999 0.85017002
0.063275002 -0.028209999 0.84966999
0.064663 -0.028189 0.84903997
0.066072002 -0.028177001 0.84868997
0.067472003 -0.028162999 0.84824997
0.068847001 -0.028138001 0.84753001
0.070223004 -0.028116001 0.84684998
0.071622998 -0.028103 0.84647
0.073009998 -0.028086999 0.84596002
0.074424997 -0.028081 0.84579003
0.075856 -0.028081 0.84579998
0.077287003 -0.028081 0.84581
0.078745 -0.028092001 0.84612
0.080228999 -0.028109999 0.84667999
0.081743002 -0.028139001 0.84754002
0.083278999 -0.028174 0.84859002
0.084825002 -0.028210999 0.84970999
0.086346 -0.028239001 0.85053998
0.087875001 -0.028268 0.85141999
0.08941 -0.028298 0.85233003
0.090962 -0.028333001 0.85338002
0.092561997 -0.028380999 0.85483003
0.094201997 -0.02844 0.85659999
0.095841996 -0.028496999 0.85832
0.09747 -0.028549001 0.85987997
