# .PCD v0.7 - Point Cloud Data file format
VERSION 0.7
FIELDS x y z
SIZE 4 4 4
TYPE F F F
COUNT 1 1 1
WIDTH 1491
HEIGHT 1
VIEWPOINT 0 0 0 1 0 0 0
POINTS 1491
DATA ascii
0.066009998 -0.12445 0.84789002
0.067474 -0.12451 0.84829003
0.068957001 -0.1246 0.84889001
0.07045 -0.1247 0.84959
0.071946003 -0.1248 0.85027999
0.073459998 -0.12493 0.85118002
0.074965 -0.12503999 0.85193002
0.076447003 -0.12511 0.85238999
0.077927001 -0.12517001 0.85281998
0.079406001 -0.12523 0.85321999
0.080862999 -0.12525 0.85337001
0.082345001 -0.12531 0.85377997
0.083847001 -0.12540001 0.85438001
0.085391998 -0.12555 0.85539001
0.087056004 -0.12586001 0.85753
0.088788003 -0.12627 0.86027002
0.090535 -0.12668 0.86306
0.092303999 -0.12710001 0.86597002
0.09403 -0.12746 0.86839002
0.095651001 -0.12766001 0.86978
0.046769999 -0.12523 0.86317998
0.048078001 -0.12484 0.86047
0.049401 -0.12451 0.85817999
0.050696 -0.12412 0.85554999
0.051996 -0.12378 0.85315001
0.053321 -0.1235 0.85127997
0.054673001 -0.12331 0.84991997
0.056033 -0.12314 0.84876001
0.057410002 -0.12301 0.84790999
0.058797002 -0.12292 0.84723002
0.060192998 -0.12284 0.84672999
0.061613001 -0.12282 0.84657001
0.063050002 -0.12283 0.84665
0.064494997 -0.12286 0.84683001
0.065952003 -0.12291 0.84715003
0.067422003 -0.12298 0.84763002
0.068916 -0.12308 0.84838003
0.070416003 -0.1232 0.84917003
0.071919002 -0.12331 0.84996998
0.073446997 -0.12347 0.85102999
0.074959002 -0.12359 0.85185999
0.076447003 -0.12367 0.85238999
0.077927001 -0.12373 0.85281998
0.079406001 -0.12378 0.85321999
0.080854997 -0.1238 0.85329002
0.082336001 -0.12385 0.85369003
0.083829999 -0.12393 0.85420001
0.085352004 -0.12404 0.85497999
0.086998001 -0.12433 0.85696
0.088738002 -0.12474 0.85978001
0.090476997 -0.12513 0.86250001
0.092256002 -0.12557 0.86550999
0.094005004 -0.12594999 0.86815
0.095633999 -0.12616999 0.86962998
0.046661001 -0.12348 0.86115998
0.047975 -0.12311 0.85863
0.049309 -0.12282 0.85658002
0.050595999 -0.12243 0.85386997
0.051895998 -0.12209 0.85149997
0.053224001 -0.12184 0.84973001
0.054579999 -0.12166 0.84846997
0.055948999 -0.12152 0.84748
0.057331 -0.12141 0.84674001
0.058733001 -0.12135 0.84631002
0.060134001 -0.12129 0.8459
0.061558001 -0.12128 0.84581
0.062994003 -0.12129 0.8459
0.064444996 -0.12133 0.84617001
0.065902002 -0.12138 0.84650999
0.067377999 -0.12146 0.84707999
0.068876997 -0.12158 0.84789997
0.070387997 -0.12171 0.84884
0.071897 -0.12184 0.84970999
0.073432997 -0.122 0.85086
0.074951999 -0.12213 0.85178
0.076447003 -0.12222 0.85238999
0.077927001 -0.12228 0.85281998
0.079406001 -0.12234 0.85321999
0.080848001 -0.12234 0.85321999
0.082327999 -0.1224 0.85360998
0.083814003 -0.12246 0.85404003
0.085344002 -0.12258 0.8549
0.086998999 -0.12288 0.85698003
0.088748999 -0.1233 0.85988998
0.090489 -0.12369 0.86262
0.092275001 -0.12413 0.86570001
0.094006002 -0.12448 0.86817002
0.095616996 -0.12467 0.86945999
0.047867 -0.12138 0.85668999
0.049198002 -0.1211 0.85465997
0.050478999 -0.1207 0.85189003
0.051782001 -0.12039 0.84964001
0.053123999 -0.12017 0.84812999
0.054494001 -0.12003 0.84713
0.055877 -0.11993 0.84640002
0.057269 -0.11984 0.84582001
0.058681 -0.11981 0.84556001
0.060091998 -0.11977 0.84530997
0.061521001 -0.11977 0.84530002
0.062957004 -0.11978 0.84539998
0.064411998 -0.11983 0.84573001
0.065869004 -0.11988 0.84609002
0.067345001 -0.11996 0.84666997
0.068837002 -0.12007 0.84741002
0.070353001 -0.12021 0.84842002
0.071868002 -0.12035 0.84935999
0.073411003 -0.12052 0.85061002
0.074937999 -0.12067 0.85162002
0.076447003 -0.12078 0.85238999
0.077927001 -0.12084 0.85281998
0.079412997 -0.1209 0.85329002
0.080862999 -0.12091 0.85337001
0.082351997 -0.12098 0.85385001
0.083846003 -0.12106 0.85437
0.085399002 -0.12121 0.85545999
0.087058 -0.12151 0.85755002
0.088809997 -0.12192 0.86048001
0.090550996 -0.12231 0.86321002
0.092327997 -0.12273 0.86619002
0.094033003 -0.12305 0.86840999
0.046489999 -0.12012 0.85800999
0.04778 -0.11972 0.85513997
0.049093001 -0.11939 0.85284001
0.050379001 -0.11902 0.8502
0.051685002 -0.11872 0.84805
0.053036001 -0.11854 0.84672999
0.054414 -0.11842 0.8459
0.055806 -0.11834 0.84531999
0.057202999 -0.11827 0.84485
0.058619 -0.11825 0.84468001
0.060040999 -0.11824 0.84457999
0.061473999 -0.11825 0.84465998
0.062914997 -0.11827 0.84483999
0.064374 -0.11833 0.84524
0.065835997 -0.11839 0.84565997
0.067312002 -0.11847 0.84623998
0.068796001 -0.11856 0.84691
0.070311002 -0.1187 0.84789997
0.071831003 -0.11885 0.84893
0.073381998 -0.11903 0.85026997
0.074917004 -0.11919 0.85137999
0.076439999 -0.11932 0.85232002
0.077933997 -0.1194 0.85290003
0.079428002 -0.11948 0.85345
0.080894001 -0.11951 0.85369998
0.082400002 -0.1196 0.85434997
0.083911002 -0.1197 0.85504001
0.085476004 -0.11987 0.85622001
0.087136 -0.12016 0.85832
0.088873997 -0.12055 0.86110002
0.090605997 -0.12092 0.86373001
0.092364997 -0.12131 0.86654001
0.094059996 -0.12161 0.86866999
0.045136999 -0.11892 0.85987002
0.046427999 -0.1185 0.85685998
0.047703002 -0.11807 0.85374999
0.048999 -0.11772 0.85121
0.050294999 -0.11739 0.84878999
0.051614001 -0.11712 0.84688997
0.052972998 -0.11696 0.84571999
0.054354999 -0.11686 0.84498
0.055751 -0.11679 0.84448999
0.057151999 -0.11674 0.8441
0.058573 -0.11673 0.84401
0.059999 -0.11672 0.84399998
0.061439 -0.11675 0.84416997
0.062885001 -0.11678 0.84443003
0.064342998 -0.11684 0.84483999
0.065802999 -0.1169 0.84524
0.067271002 -0.11696 0.84573001
0.068749003 -0.11705 0.84631997
0.070261002 -0.11718 0.84731001
0.071780004 -0.11732 0.84833002
0.073331997 -0.11751 0.84969997
0.074881002 -0.11769 0.85096997
0.076417997 -0.11784 0.85206997
0.077927001 -0.11795 0.85281998
0.079437003 -0.11805 0.85355002
0.080926999 -0.11812 0.85404998
0.082452998 -0.11823 0.8549
0.08399 -0.11836 0.85584003
0.085565999 -0.11854 0.85712999
0.087219998 -0.11882 0.85914999
0.088932 -0.11917 0.86166
0.090650998 -0.11951 0.86416
0.092384003 -0.11987 0.86672002
0.094080999 -0.12016 0.86886001
0.043827001 -0.11931 0.86269999
0.042452 -0.11808 0.86440003
0.043791998 -0.11775 0.86201
0.0451 -0.11737 0.85916001
0.046395 -0.11697 0.85626
0.047669999 -0.11655 0.85316002
0.048957001 -0.11618 0.85047001
0.050250001 -0.11585 0.84802997
0.051578 -0.11561 0.84628999
0.052931 -0.11544 0.84504998
0.054311 -0.11533 0.84429997
0.055711001 -0.11528 0.84388
0.057110999 -0.11523 0.84350002
0.058536999 -0.11522 0.84349
0.059967998 -0.11523 0.84355998
0.061411999 -0.11527 0.84381002
0.062859997 -0.11531 0.84408998
0.064318001 -0.11536 0.84451002
0.065778002 -0.11542 0.84491003
0.067238003 -0.11547 0.84531999
0.068706997 -0.11554 0.84581
0.070217997 -0.11568 0.84679002
0.071736999 -0.11582 0.84781998
0.073288001 -0.116 0.84917998
0.07485 -0.1162 0.85061997
0.076394998 -0.11636 0.85180998
0.077913001 -0.11648 0.85266
0.079438001 -0.1166 0.85355997
0.080954 -0.11671 0.85433
0.082497001 -0.11685 0.85535002
0.084054999 -0.117 0.85649002
0.085647002 -0.1172 0.85794997
0.087293997 -0.11746 0.85987997
0.088970996 -0.11776 0.86203998
0.090668999 -0.11807 0.86434001
0.092381999 -0.1184 0.86669999
0.094065003 -0.11867 0.86870998
0.039659001 -0.11847 0.86721998
0.038226999 -0.1171 0.86799002
0.039666999 -0.11702 0.86738998
0.041067 -0.1183 0.86601001
0.041064002 -0.11682 0.86593997
0.042436998 -0.11657 0.86409003
0.043756001 -0.1162 0.86129999
0.045056 -0.1158 0.85832
0.046335001 -0.11537 0.85514998
0.047603998 -0.11494 0.85197997
0.048886001 -0.11457 0.84922999
0.050207 -0.11431 0.84729999
0.051543999 -0.1141 0.84573001
0.052905001 -0.11395 0.84464002
0.054283999 -0.11385 0.84388
0.055682998 -0.11379 0.84346002
0.057078 -0.11373 0.84299999
0.058497 -0.11372 0.84292001
0.059927002 -0.11373 0.84298998
0.061370999 -0.11376 0.84324002
0.062817 -0.1138 0.84351999
0.064277001 -0.11386 0.84395999
0.065734997 -0.11391 0.84435999
0.067193002 -0.11397 0.84474999
0.068654999 -0.11402 0.84516001
0.070157997 -0.11414 0.84605998
0.071675003 -0.11428 0.84707999
0.073223002 -0.11446 0.84842998
0.074784003 -0.11465 0.84987003
0.076341003 -0.11484 0.85121
0.077875003 -0.11498 0.85224998
0.079423003 -0.11513 0.85339999
0.080968998 -0.11528 0.85448998
0.082529001 -0.11544 0.85569
0.084104002 -0.11562 0.85699999
0.085707001 -0.11583 0.85854
0.087330997 -0.11606 0.86025
0.088970996 -0.1163 0.86203998
0.090646997 -0.11658 0.86412001
0.092324004 -0.11685 0.86615002
0.094025001 -0.11715 0.86834002
0.036866002 -0.11596 0.87050998
0.038226001 -0.11563 0.86798
0.039668001 -0.11555 0.86741
0.041065 -0.11536 0.86596
0.04242 -0.11506 0.86373001
0.043714002 -0.11463 0.86047
0.044989001 -0.11417 0.85705
0.046246 -0.1137 0.85350001
0.04752 -0.1133 0.85048002
0.048824999 -0.11299 0.84816998
0.050170001 -0.11279 0.84666997
0.051520001 -0.11261 0.84534001
0.052880999 -0.11247 0.84425998
0.054258998 -0.11237 0.84350002
0.055658001 -0.11231 0.84307998
0.057057001 -0.11226 0.84268999
0.05847 -0.11224 0.84253001
0.059898 -0.11224 0.84258002
0.06134 -0.11228 0.84281999
0.062785 -0.11231 0.84309
0.064239003 -0.11236 0.84346002
0.065696001 -0.11241 0.84385997
0.067147002 -0.11246 0.84417999
0.068607002 -0.11251 0.84457999
0.070102997 -0.11262 0.84539998
0.071612 -0.11275 0.84635001
0.073151998 -0.11291 0.84761
0.074716002 -0.11311 0.84908998
0.076278999 -0.1133 0.85052001
0.077827998 -0.11346 0.85172999
0.079391003 -0.11364 0.85306001
0.080959 -0.11382 0.85439003
0.082526997 -0.11399 0.85566998
0.084101997 -0.11416 0.85698003
0.085697003 -0.11436 0.85845
0.087311998 -0.11457 0.86005002
0.088924997 -0.11478 0.86159998
0.090572 -0.11502 0.86342001
0.092219003 -0.11525 0.86517
0.093901001 -0.11552 0.86719
0.030480999 -0.11979 0.89920998
0.028973 -0.11984 0.89960998
0.028953999 -0.11824 0.89901
0.030467 -0.11821 0.89881998
0.031998999 -0.11978 0.89915001
0.031985 -0.1182 0.89876997
0.033415999 -0.11941 0.89639997
0.033367001 -0.11772 0.89508998
0.036906 -0.11461 0.87145001
0.038224 -0.11415 0.86793
0.039662998 -0.11407 0.86732
0.041058 -0.11387 0.86580002
0.042399999 -0.11354 0.86333001
0.043683 -0.11309 0.85987002
0.044943999 -0.1126 0.85618001
0.046197999 -0.11213 0.85260999
0.047471002 -0.11174 0.84960997
0.048785001 -0.11146 0.84749001
0.050140999 -0.11129 0.84618002
0.051504001 -0.11114 0.84508002
0.052870002 -0.11101 0.84408998
0.054253999 -0.11092 0.84341002
0.055652998 -0.11087 0.84299999
0.057055999 -0.11083 0.84267998
0.058469001 -0.11081 0.84250998
0.059891 -0.1108 0.84248
0.061326001 -0.11082 0.84263003
0.062765002 -0.11085 0.84281999
0.064211003 -0.11088 0.84310001
0.065661997 -0.11093 0.84342003
0.067106001 -0.11096 0.84364998
0.068558 -0.111 0.84398001
0.070046999 -0.1111 0.84472001
0.071542002 -0.1112 0.84551001
0.073066004 -0.11135 0.84661001
0.074625999 -0.11154 0.84807998
0.076201998 -0.11175 0.84965998
0.077757999 -0.11192 0.85096997
0.079345003 -0.11213 0.85255998
0.080927998 -0.11232 0.85405999
0.082502 -0.1125 0.85540998
0.084067002 -0.11266 0.85662001
0.085660003 -0.11285 0.85807002
0.087250002 -0.11303 0.85944003
0.088845 -0.11321 0.86082
0.090470001 -0.11343 0.86243999
0.092096001 -0.11363 0.86400998
0.093805 -0.11394 0.86631
0.027417 -0.11664 0.89845997
0.028938999 -0.11665 0.89854997
0.030458 -0.11665 0.89854002
0.031975001 -0.11665 0.89850003
0.033335 -0.11609 0.89420998
0.034564 -0.11515 0.88696003
0.035744999 -0.11413 0.87913001
0.036922 -0.11319 0.87182999
0.038201001 -0.11261 0.86739999
0.039638001 -0.11253 0.86676002
0.041026998 -0.11232 0.86514997
0.042364001 -0.11199 0.86260003
0.043643001 -0.11153 0.85905999
0.0449 -0.11105 0.85535002
0.046156999 -0.11059 0.85185999
0.047433 -0.11021 0.84893
0.048756 -0.10996 0.84697998
0.050119001 -0.10981 0.84582001
0.051488001 -0.10968 0.84482002
0.052859001 -0.10956 0.84390002
0.054248001 -0.10948 0.84332001
0.055647001 -0.10943 0.84292001
0.057057001 -0.1094 0.84268999
0.05847 -0.10938 0.84252
0.059891999 -0.10938 0.84249002
0.061321001 -0.10938 0.84255999
0.062752999 -0.1094 0.84266001
0.064190999 -0.10942 0.84284002
0.065628998 -0.10944 0.84299999
0.067060001 -0.10945 0.84307998
0.068503998 -0.10948 0.84331
0.069983996 -0.10957 0.84395999
0.07147 -0.10966 0.84467
0.072991997 -0.1098 0.84575999
0.074551001 -0.10999 0.84722
0.076131001 -0.1102 0.84886998
0.077696003 -0.11039 0.85029
0.079297997 -0.11062 0.85206002
0.080889001 -0.11082 0.85364997
0.08247 -0.11101 0.85508001
0.084025003 -0.11115 0.85619003
0.085615002 -0.11134 0.85762
0.087186001 -0.1115 0.85882002
0.088763997 -0.11165 0.86003
0.090361997 -0.11183 0.86141002
0.091964997 -0.11201 0.86277997
0.093638003 -0.11227 0.86477
0.02588 -0.11504 0.89783001
0.027404999 -0.11507 0.89806002
0.028925 -0.11507 0.89810997
0.030446 -0.11508 0.89818001
0.031927999 -0.11495 0.89715999
0.033248 -0.11428 0.89188999
0.034490999 -0.11341 0.88508999
0.035693001 -0.11248 0.87785
0.036887001 -0.1116 0.87102002
0.038169 -0.11105 0.86668998
0.039604001 -0.11096 0.86602998
0.040993001 -0.11076 0.86444002
0.042328998 -0.11043 0.86189997
0.043616001 -0.11 0.85852998
0.044872999 -0.10953 0.85483998
0.046130002 -0.10909 0.85136998
0.047410998 -0.10872 0.84851998
0.048741002 -0.10849 0.84671998
0.050104 -0.10834 0.84556001
0.051481999 -0.10823 0.84472001
0.052863002 -0.10814 0.84395999
0.054262001 -0.10808 0.84354001
0.055663001 -0.10803 0.84315002
0.057073001 -0.108 0.84292001
0.058481 -0.10797 0.84268999
0.059898999 -0.10796 0.84258997
0.061317999 -0.10795 0.84250998
0.062743001 -0.10795 0.84253001
0.064168997 -0.10795 0.84254003
0.065586999 -0.10794 0.84245998
0.067002997 -0.10793 0.84236002
0.068432003 -0.10794 0.84243
0.069897003 -0.108 0.84290999
0.071379997 -0.10809 0.84359998
0.072898999 -0.10823 0.84468001
0.074450001 -0.10841 0.84606999
0.076043002 -0.10864 0.84788001
0.077625997 -0.10885 0.84952003
0.079237998 -0.10909 0.85140997
0.080843002 -0.10932 0.85316998
0.082431003 -0.10951 0.85466999
0.083984002 -0.10965 0.85576999
0.085556999 -0.10981 0.85703999
0.087109998 -0.10994 0.85807002
0.088675998 -0.11009 0.85918999
0.090254001 -0.11024 0.86037999
0.091829002 -0.11038 0.86150998
0.093480997 -0.11062 0.86330998
0.095674001 -0.11295 0.86998999
0.095556997 -0.11133 0.86892003
0.097797997 -0.1137 0.87584001
0.097723 -0.11213 0.87516999
0.099969998 -0.1145 0.88192999
0.099890001 -0.11291 0.88123
0.1021 -0.11522 0.88748997
0.10202 -0.11363 0.88683999
0.025844 -0.11336 0.89657003
0.027377 -0.11343 0.89713001
0.028899999 -0.11345 0.89732999
0.030393001 -0.11336 0.89662999
0.031838 -0.11311 0.89464003
0.033135001 -0.11238 0.88887
0.034391001 -0.11158 0.88252002
0.035613999 -0.11075 0.87590998
0.036858998 -0.11004 0.87033999
0.038146 -0.10951 0.86615002
0.039563 -0.10938 0.86513001
0.040954001 -0.10919 0.86361003
0.042293001 -0.10888 0.86115003
0.043591 -0.10849 0.85803998
0.044851001 -0.10803 0.85440999
0.046121001 -0.10762 0.85121
0.047401998 -0.10726 0.84838003
0.048737001 -0.10704 0.84663999
0.050094999 -0.10689 0.84540999
0.051483002 -0.1068 0.84473002
0.052869 -0.10672 0.84407002
0.054279 -0.10669 0.84381002
0.055684999 -0.10665 0.84350002
0.057105001 -0.10664 0.84341002
0.058515001 -0.10661 0.84316999
0.059928 -0.10658 0.84299999
0.061340999 -0.10656 0.84284002
0.062755004 -0.10654 0.84268999
0.064162999 -0.10652 0.84245998
0.065560997 -0.10647 0.84214002
0.066956997 -0.10643 0.84179002
0.06837 -0.10641 0.84166998
0.069825999 -0.10646 0.84206003
0.071301997 -0.10654 0.84267998
0.072820999 -0.10668 0.84377998
0.074377 -0.10687 0.84524
0.075975001 -0.10711 0.84711999
0.077564001 -0.10732 0.84885001
0.079181999 -0.10757 0.85080999
0.080789 -0.1078 0.85259002
0.082382001 -0.108 0.85417002
0.083927996 -0.10813 0.85519999
0.085491002 -0.10828 0.85637999
0.087035 -0.10839 0.85732001
0.088590004 -0.10852 0.85834998
0.090147004 -0.10865 0.85935998
0.091709003 -0.10878 0.86037999
0.093313999 -0.10896 0.86177999
0.095279999 -0.10954 0.86641002
0.097425997 -0.11031 0.87251002
0.099591002 -0.11108 0.8786
0.10174 -0.11181 0.88432997
0.104 -0.11416 0.89095002
0.10376 -0.11239 0.88889998
0.025805 -0.11167 0.89521998
0.027334999 -0.11174 0.89577001
0.028857 -0.11177 0.89599001
0.030321 -0.11158 0.89449
0.03173 -0.11122 0.89161998
0.033027001 -0.11051 0.88595003
0.034281 -0.10973 0.87968999
0.035512999 -0.10895 0.87342
0.036791001 -0.10837 0.86874002
0.038111001 -0.10794 0.86536998
0.039519999 -0.1078 0.86418998
0.040909 -0.10761 0.86265999
0.042254001 -0.10732 0.86036003
0.043563001 -0.10696 0.85750002
0.044837002 -0.10654 0.85413998
0.046122 -0.10618 0.85122001
0.047412001 -0.10585 0.84855002
0.048746001 -0.10563 0.84680998
0.050104 -0.10548 0.84557003
0.051493 -0.10539 0.84490001
0.052887 -0.10532 0.84434003
0.054303002 -0.1053 0.84417999
0.055714998 -0.10527 0.84394002
0.057135999 -0.10526 0.84385002
0.058549002 -0.10524 0.84367001
0.059958 -0.10521 0.84342003
0.061365001 -0.10518 0.84315997
0.062766999 -0.10514 0.84284002
0.064161003 -0.10508 0.84244001
0.065535001 -0.105 0.84179002
0.066915996 -0.10494 0.84126002
0.068308003 -0.10489 0.8409
0.069750004 -0.10492 0.84113997
0.071217 -0.10499 0.84167999
0.072742 -0.10514 0.84285998
0.074298002 -0.10532 0.84434003
0.075900003 -0.10557 0.84630001
0.077501997 -0.1058 0.84816998
0.079126 -0.10605 0.85021001
0.080732003 -0.10628 0.852
0.082324997 -0.10647 0.85356998
0.083875999 -0.10661 0.85466999
0.085430004 -0.10675 0.85576999
0.086965002 -0.10686 0.85663998
0.088509001 -0.10697 0.85756999
0.090054996 -0.10709 0.85848999
0.091605999 -0.1072 0.85942
0.093203999 -0.10737 0.86075997
0.095054001 -0.10782 0.86435002
0.097067997 -0.10844 0.86930001
0.099214002 -0.10918 0.87527001
0.10135 -0.10989 0.88094997
0.10339 -0.11048 0.88568997
0.10542 -0.11255 0.89016998
0.10516 -0.11076 0.88796997
0.024243999 -0.10993 0.89345002
0.025761001 -0.10996 0.89367998
0.027285 -0.11002 0.89414001
0.028797001 -0.11002 0.89414001
0.030246001 -0.10979 0.89229
0.031622 -0.10933 0.88857001
0.032919999 -0.10866 0.88309002
0.034184001 -0.10794 0.87722999
0.035433002 -0.10723 0.87146997
0.036733001 -0.10672 0.86737001
0.038091999 -0.10642 0.86492997
0.039496001 -0.10627 0.86366999
0.040883999 -0.10608 0.86215001
0.042231999 -0.10581 0.85992002
0.04355 -0.10548 0.85723001
0.044831999 -0.10509 0.85405999
0.046123002 -0.10474 0.85123998
0.047417998 -0.10442 0.84864998
0.048756 -0.10421 0.84697002
0.050113998 -0.10406 0.84573001
0.051507998 -0.10399 0.84513998
0.052908 -0.10393 0.84468001
0.054331001 -0.10392 0.84460002
0.055748001 -0.1039 0.84445
0.05717 -0.10389 0.84435999
0.05858 -0.10386 0.84411001
0.059989002 -0.10383 0.84385002
0.061390001 -0.10379 0.84350997
0.062785 -0.10374 0.84309
0.064166002 -0.10366 0.84250998
0.065520003 -0.10355 0.84161001
0.066881999 -0.10346 0.84083998
0.068265997 -0.1034 0.84038001
0.069692999 -0.10341 0.84046
0.071160004 -0.10348 0.84100002
0.072690003 -0.10363 0.84224999
0.074251004 -0.10383 0.84381002
0.075847998 -0.10406 0.84570998
0.077448003 -0.10429 0.84758002
0.079062998 -0.10453 0.84954
0.080666997 -0.10475 0.85131001
0.082250997 -0.10493 0.85281003
0.083807997 -0.10508 0.85398
0.085359998 -0.10521 0.85506999
0.086893 -0.10532 0.85592997
0.088421002 -0.10541 0.85671002
0.089956999 -0.10552 0.85755002
0.091487996 -0.10561 0.85830998
0.093015 -0.1057 0.85901999
0.094742 -0.106 0.86150998
0.096620001 -0.10647 0.86527997
0.098728999 -0.10717 0.87098998
0.10087 -0.10788 0.87678999
0.10299 -0.10856 0.88226002
0.10489 -0.10898 0.88568002
0.022715 -0.10985 0.89275002
0.022700001 -0.10826 0.89213002
0.024215 -0.10829 0.89240998
0.025722999 -0.10829 0.89236999
0.027234999 -0.1083 0.89249003
0.028728999 -0.10825 0.89203
0.030159 -0.10797 0.88972002
0.031507999 -0.10744 0.88537002
0.032816 -0.10682 0.88031
0.034097001 -0.10618 0.87497002
0.035365999 -0.10555 0.86982
0.036692001 -0.10514 0.8664
0.038088001 -0.10495 0.86483997
0.039487999 -0.10478 0.86348999
0.040879998 -0.10461 0.86206001
0.042236 -0.10436 0.86000001
0.043561999 -0.10405 0.85747999
0.044854 -0.10369 0.85448003
0.046146002 -0.10335 0.85166001
0.047440998 -0.10303 0.84907001
0.048779 -0.10283 0.84737003
0.050136998 -0.10268 0.84612
0.051537 -0.10261 0.84561002
0.052947 -0.10258 0.84530997
0.054375999 -0.10258 0.84530997
0.055799998 -0.10257 0.84524
0.057223 -0.10256 0.84514999
0.058635999 -0.10253 0.84491003
0.060040999 -0.10249 0.84459001
0.061439 -0.10244 0.84416997
0.062821999 -0.10237 0.84358001
0.064190999 -0.10228 0.84283
0.065531999 -0.10215 0.84175998
0.066886999 -0.10204 0.84091002
0.068259001 -0.10197 0.84030002
0.069673002 -0.10196 0.84021002
0.07113 -0.10201 0.84065002
0.072651997 -0.10215 0.84182
0.074207999 -0.10234 0.84332001
0.075804003 -0.10257 0.84522998
0.077409998 -0.1028 0.84715998
0.079023004 -0.10304 0.84909999
0.080624998 -0.10325 0.85086
0.082200997 -0.10342 0.85228997
0.083756 -0.10356 0.85345
0.085299 -0.10369 0.85446
0.086824 -0.10378 0.85525
0.088340998 -0.10387 0.85593998
0.089867003 -0.10396 0.85668999
0.091388002 -0.10404 0.85737002
0.092903003 -0.10411 0.85798001
0.094516002 -0.10429 0.85946
0.096330002 -0.10469 0.86268997
0.098397002 -0.10534 0.86805999
0.1005 -0.10601 0.87358999
0.10263 -0.10669 0.87918001
0.10464 -0.10722 0.88361001
0.10663 -0.10923 0.88770998
0.10642 -0.10751 0.88599998
0.10817 -0.10927 0.88805997
0.10799 -0.10759 0.88660997
0.022681 -0.10666 0.89139003
0.024187 -0.10665 0.89134997
0.025686 -0.10662 0.89109999
0.027181 -0.10658 0.89072001
0.028654 -0.10646 0.88971001
0.030067001 -0.10613 0.88700998
0.031426001 -0.10566 0.88305998
0.032752 -0.10512 0.87857002
0.034051001 -0.10455 0.87379003
0.035344999 -0.10401 0.86930001
0.036699001 -0.10369 0.86657
0.038091 -0.10349 0.86492002
0.039489001 -0.10332 0.8635
0.040885001 -0.10316 0.86215001
0.04225 -0.10293 0.86027002
0.043584999 -0.10265 0.85791999
0.044890001 -0.10232 0.85516
0.046186998 -0.10199 0.85241997
0.047486998 -0.10169 0.84988999
0.048824999 -0.10149 0.84818
0.050184999 -0.10134 0.84692001
0.051582001 -0.10127 0.84635001
0.052997999 -0.10124 0.84613001
0.054425001 -0.10123 0.84606999
0.055849001 -0.10122 0.84597999
0.057273 -0.10121 0.84587997
0.058687001 -0.10118 0.84565002
0.060093999 -0.10115 0.84534001
0.061494 -0.1011 0.84492999
0.062872 -0.10102 0.84425998
0.064236 -0.10092 0.84342003
0.065577999 -0.10079 0.84235001
0.066927999 -0.10068 0.84140998
0.068300001 -0.1006 0.84079999
0.069706999 -0.10058 0.84061998
0.071157999 -0.10063 0.84096998
0.072664998 -0.10074 0.84197003
0.074213997 -0.10091 0.84338999
0.075796999 -0.10112 0.84513998
0.077388003 -0.10134 0.84692001
0.078997999 -0.10157 0.84884
0.080591999 -0.10177 0.85052001
0.082160003 -0.10193 0.85187
0.083709002 -0.10206 0.85297
0.085257001 -0.10219 0.85404003
0.086773001 -0.10227 0.85474002
0.08828 -0.10234 0.85535002
0.089795001 -0.10242 0.85601002
0.091311999 -0.1025 0.85666001
0.092817999 -0.10257 0.85720003
0.094316997 -0.10262 0.85764998
0.096070997 -0.10295 0.86036998
0.098104998 -0.10356 0.86549002
0.10018 -0.1042 0.87080997
0.1023 -0.10486 0.87637001
0.10441 -0.1055 0.88168001
0.10624 -0.10583 0.88450998
0.10783 -0.10592 0.88523
0.021156 -0.10506 0.89061999
0.022659 -0.10504 0.89051998
0.024157001 -0.10501 0.89025998
0.025646999 -0.10495 0.88975
0.027125999 -0.10486 0.88892001
0.028581999 -0.10468 0.88745999
0.030004 -0.10441 0.88515002
0.031378999 -0.10401 0.88173997
0.032722 -0.10354 0.87777001
0.034042001 -0.10304 0.87357002
0.035363 -0.10259 0.86973
0.036710002 -0.10225 0.86682999
0.038096 -0.10204 0.86501998
0.039496999 -0.10188 0.86368001
0.040899999 -0.10174 0.86247998
0.042270999 -0.10153 0.86071002
0.043616001 -0.10127 0.85855001
0.044939999 -0.10098 0.85610002
0.046247002 -0.10068 0.85352999
0.047557 -0.1004 0.85114002
0.048902001 -0.10021 0.84951001
0.050268002 -0.10007 0.84833997
0.051663999 -0.099992998 0.8477
0.053082999 -0.099965997 0.84746999
0.054501001 -0.099940002 0.84724998
0.055922002 -0.099918999 0.84707999
0.057340998 -0.099898003 0.84688997
0.058756001 -0.099868 0.84663999
0.06016 -0.099822998 0.84626001
0.061561 -0.099775001 0.84584999
0.062941 -0.099696003 0.84517998
0.064305998 -0.099597 0.84434003
0.065642998 -0.099460997 0.84319001
0.066995002 -0.099352002 0.84226
0.068364002 -0.099270999 0.84157997
0.069765002 -0.099241003 0.84131998
0.071208999 -0.099270999 0.84157997
0.072702996 -0.099367999 0.84240001
0.074236996 -0.099515997 0.84364998
0.075805001 -0.099702001 0.84522998
0.077388003 -0.099900998 0.84692001
0.078984 -0.10011 0.84868002
0.080577999 -0.10031 0.85035998
0.082139 -0.10046 0.85163999
0.083685003 -0.10059 0.85272998
0.085217997 -0.10069 0.85364002
0.086730003 -0.10077 0.85431999
0.088228002 -0.10084 0.85483998
0.089734003 -0.1009 0.85541999
0.091241002 -0.10097 0.85598999
0.092752002 -0.10104 0.85658002
0.094250001 -0.10109 0.85703999
0.095949002 -0.10136 0.85927999
0.097952001 -0.10193 0.86413002
0.1 -0.10253 0.86922997
0.10207 -0.10314 0.87440002
0.10416 -0.10375 0.87950999
0.10602 -0.10412 0.88269001
0.10763 -0.10423 0.88361001
0.10939 -0.10599 0.8858
0.10922 -0.10433 0.88442999
0.11092 -0.10601 0.88600999
0.11076 -0.10436 0.88474
0.021136999 -0.10346 0.88984001
0.022631999 -0.10341 0.88947999
0.024122 -0.10336 0.88897997
0.025603 -0.10327 0.88823003
0.027071999 -0.10314 0.88713002
0.028519001 -0.10295 0.88550001
0.029952999 -0.10273 0.88363999
0.031342 -0.10239 0.88069999
0.032706 -0.102 0.87735999
0.034051999 -0.10159 0.87383002
0.035397001 -0.10122 0.87057
0.036738999 -0.10086 0.86751997
0.038125001 -0.10065 0.86568999
0.039519001 -0.10047 0.86417001
0.040924001 -0.10033 0.86298001
0.042300001 -0.10014 0.86128998
0.043662999 -0.099923998 0.85947001
0.045003001 -0.099673003 0.85731
0.046326999 -0.099404 0.85499001
0.047653001 -0.099156998 0.85286999
0.049006 -0.098976001 0.85131001
0.050376002 -0.098839998 0.85013998
0.051773001 -0.098764002 0.84948999
0.053188998 -0.098727003 0.84917003
0.054598998 -0.098682001 0.84877998
0.056017 -0.098650999 0.84851003
0.057432 -0.098617002 0.84823
0.058843002 -0.098578997 0.84789997
0.060247999 -0.098532997 0.84750003
0.061650999 -0.098485 0.84709001
0.063033 -0.098407 0.84641999
0.064398997 -0.098307997 0.84557003
0.065745004 -0.098183997 0.84450001
0.067106001 -0.098085001 0.84364998
0.068484001 -0.098016001 0.84306002
0.069888003 -0.097987004 0.84280998
0.071327001 -0.098007001 0.84298003
0.072802998 -0.098075002 0.84355998
0.074308999 -0.098181002 0.84447002
0.075848997 -0.098325998 0.84571999
0.077408999 -0.098493002 0.84715003
0.078984 -0.098670997 0.84868002
0.080563001 -0.098848 0.85021001
0.082124002 -0.098995999 0.85149002
0.083660997 -0.099113002 0.85249001
0.085184999 -0.099209003 0.85330999
0.086695001 -0.099285997 0.85398
0.088192001 -0.099347003 0.8545
0.08969 -0.099404998 0.85500002
0.091187999 -0.099463001 0.85549998
0.092698 -0.099531002 0.85608
0.094195001 -0.099583 0.85654002
0.095957004 -0.099910997 0.85935003
0.097920999 -0.10043 0.86386001
0.099944003 -0.101 0.86874998
0.10198 -0.10157 0.87358999
0.10402 -0.10212 0.87836999
0.1058 -0.10241 0.88081998
0.10743 -0.10254 0.88199002
0.10904 -0.10265 0.88292003
0.11058 -0.1027 0.88331002
0.019617001 -0.10187 0.88913
0.021113001 -0.10183 0.88881999
0.022601999 -0.10177 0.88827997
0.024084 -0.10169 0.88756001
0.025558 -0.10158 0.88665003
0.027021 -0.10145 0.88546997
0.028468 -0.10127 0.88391
0.029903 -0.10107 0.88216001
0.031307999 -0.10079 0.87975001
0.032689001 -0.10046 0.87690002
0.034056 -0.10013 0.87393999
0.035417002 -0.099795997 0.87106001
0.036773998 -0.099482998 0.86833
0.038153 -0.099252999 0.86633003
0.039542999 -0.099064998 0.86469001
0.040943999 -0.098917998 0.86339998
0.042328 -0.098742999 0.86186999
0.043706998 -0.098564997 0.86031997
0.045065999 -0.098357998 0.85851002
0.046411 -0.098132998 0.85654998
0.047759 -0.097929001 0.85477
0.049121 -0.097762004 0.85330999
0.050494 -0.097627997 0.85214001
0.051888 -0.097540997 0.85137999
0.053300999 -0.097492002 0.85096002
0.054703001 -0.097427003 0.85039002
0.056111999 -0.097378001 0.84996003
0.057523999 -0.097335003 0.84959
0.058936 -0.097296 0.84925002
0.060339 -0.097241998 0.84877002
0.061742999 -0.097194999 0.84836
0.063127004 -0.097116001 0.84767997
0.064501002 -0.097028002 0.84689999
0.065861002 -0.096922003 0.84597999
0.067230999 -0.096836001 0.84522998
0.068612002 -0.096768998 0.84464002
0.070026003 -0.096749 0.84447002
0.071461 -0.096758999 0.84456003
0.072919004 -0.096799001 0.84491003
0.074405 -0.096874997 0.84557003
0.075921997 -0.096986003 0.84653997
0.077459998 -0.097120002 0.84771001
0.079020001 -0.097276002 0.84907001
0.080585003 -0.097433001 0.85044003
0.082137004 -0.097567998 0.85162002
0.083667003 -0.097673997 0.85254002
0.085174002 -0.097749002 0.85320002
0.086675003 -0.097815998 0.85377997
0.088172004 -0.097875997 0.85430002
0.089663997 -0.097926997 0.85474998
0.091162004 -0.097984001 0.85525
0.092678003 -0.098058999 0.85589999
0.094215997 -0.098154001 0.85672998
0.096033998 -0.098532997 0.86004001
0.097966 -0.099016003 0.86425
0.099955 -0.099541999 0.86883998
0.10194 -0.10005 0.87326002
0.10389 -0.10051 0.87726003
0.10558 -0.10071 0.87902999
0.10723 -0.10086 0.88037002
0.10886 -0.10099 0.88146001
0.11041 -0.10104 0.88195002
0.1121 -0.10272 0.88353997
0.11194 -0.10108 0.88227999
0.018112 -0.10035 0.88902998
0.0196 -0.10027 0.88837999
0.021089001 -0.10021 0.88783002
0.022569001 -0.10012 0.88700002
0.024042999 -0.10001 0.88603997
0.025512001 -0.099896997 0.88503999
0.026972 -0.099763997 0.88387001
0.028419999 -0.099601001 0.88242
0.029859001 -0.099427 0.88088
0.031279001 -0.099206999 0.87892997
0.032682002 -0.098957002 0.87672001
0.034070998 -0.098686002 0.87431002
0.035450999 -0.098412998 0.87190002
0.036819998 -0.098134004 0.86941999
0.038197 -0.097896002 0.86730999
0.039579 -0.097687997 0.86546999
0.040972002 -0.097521998 0.86400002
0.042357001 -0.097349003 0.86246997
0.043745998 -0.097194001 0.86110002
0.045125 -0.097029001 0.85962999
0.046491001 -0.096846998 0.85802001
0.04786 -0.096681997 0.85655999
0.049229 -0.096529 0.85519999
0.050609998 -0.096404001 0.85409999
0.052002002 -0.096308 0.85324001
0.053406999 -0.096239999 0.85263997
0.054800998 -0.096156999 0.85191
0.056205999 -0.096097998 0.85137999
0.057615001 -0.096046999 0.85093999
0.059025001 -0.096000999 0.85052001
0.060428999 -0.095946997 0.85004997
0.061836001 -0.095900998 0.84964001
0.063226998 -0.095831998 0.84902
0.064609997 -0.095753998 0.84833002
0.065978996 -0.095660001 0.84750003
0.067359 -0.095585003 0.84684002
0.068750001 -0.095527999 0.84632999
0.070165999 -0.095508002 0.84615999
0.071597002 -0.095509 0.84617001
0.073044002 -0.095530003 0.84635001
0.074510001 -0.095576003 0.84675997
0.075998999 -0.095647998 0.84740001
0.077506997 -0.095740996 0.84823
0.079043999 -0.095866002 0.84933001
0.080592997 -0.096000999 0.85053003
0.082137004 -0.096124999 0.85162002
0.083659001 -0.096219003 0.85246003
0.085157 -0.096284002 0.85303003
0.086657003 -0.096349001 0.85360998
0.088154003 -0.096408002 0.85413003
0.089645997 -0.096459001 0.85459
0.091153003 -0.096524999 0.85517001
0.092685997 -0.096616 0.85597003
0.094260998 -0.096747003 0.85712999
0.096058004 -0.097098999 0.86025
0.097960003 -0.097544998 0.86421001
0.099904999 -0.098020002 0.86840999
0.10184 -0.098470002 0.87239999
0.10371 -0.098846003 0.87572998
0.1054 -0.099042997 0.87747002
0.10704 -0.099193998 0.87880999
0.10868 -0.099327996 0.88
0.11024 -0.099394999 0.88059002
0.11178 -0.099443004 0.88102001
0.018106 -0.098810002 0.88875997
0.019591 -0.098718002 0.88792998
0.02107 -0.098614998 0.88700002
0.022541 -0.098493002 0.88590997
0.024002001 -0.098343998 0.88455999
0.025464 -0.098214 0.88339001
0.026922001 -0.098085001 0.88222998
0.028372999 -0.097944997 0.88098001
0.029820001 -0.097805001 0.87971997
0.031254001 -0.097638004 0.87822002
0.032676 -0.097452 0.87654001
0.034085002 -0.097244002 0.87467998
0.035484001 -0.097025 0.87269998
0.036862001 -0.096771002 0.87041998
0.038240001 -0.096534997 0.86830002
0.039618999 -0.096318997 0.86635
0.041007999 -0.096142001 0.86475998
0.042390998 -0.095963001 0.86315
0.043784998 -0.095820002 0.86185998
0.045175001 -0.095677003 0.86058003
0.046558999 -0.095532998 0.85929
0.047940001 -0.095389999 0.85799998
0.049316999 -0.095248997 0.85672998
0.050700001 -0.095124997 0.85561001
0.052092999 -0.095028996 0.85474998
0.053486001 -0.094935 0.85391003
0.054876 -0.094843999 0.85307997
0.056283001 -0.094784997 0.85255003
0.057693999 -0.094734997 0.85211003
0.059106998 -0.094688997 0.85170001
0.060518999 -0.094645999 0.85131001
0.061928 -0.094599999 0.85088998
0.063322 -0.094534002 0.85029
0.064712003 -0.094465002 0.84968001
0.066091999 -0.094384 0.84895003
0.067481004 -0.094319999 0.84837002
0.068880998 -0.094273001 0.84794998
0.070304997 -0.09426 0.84783
0.071732 -0.094251998 0.84776002
0.073174 -0.094263002 0.84785998
0.074629001 -0.094291002 0.84811002
0.076098002 -0.094333999 0.84850001
0.077591002 -0.094405003 0.84913999
0.079104997 -0.094498999 0.84999001
0.080633 -0.094605997 0.85093999
0.082162 -0.094710998 0.85189003
0.083676003 -0.094793998 0.85263002
0.085151002 -0.094830997 0.85297
0.086649001 -0.094893001 0.85352999
0.088146001 -0.094950996 0.85404003
0.089638002 -0.095002003 0.85451001
0.091145001 -0.095068 0.85509998
0.092703998 -0.095183 0.85614002
0.094318002 -0.095352001 0.85766
0.096104003 -0.095687002 0.86066997
0.097975001 -0.096095003 0.86432999
0.099877 -0.096520998 0.86817002
0.10174 -0.096901 0.87158
0.10354 -0.097203001 0.8743
0.1052 -0.097377002 0.87586999
0.10686 -0.097534001 0.87729001
0.1085 -0.097676001 0.87856001
0.11008 -0.097760998 0.87932003
0.11164 -0.097828999 0.87993997
0.11329 -0.099457003 0.88113999
0.11317 -0.097863004 0.88024002
0.016608 -0.097327001 0.88897997
0.018096 -0.097246997 0.88824999
0.019575 -0.097133003 0.8872
0.021047 -0.097009003 0.88607001
0.02251 -0.096855998 0.88467997
0.023965999 -0.096698001 0.88322997
0.025423 -0.096561 0.88198
0.026882 -0.096442997 0.88090003
0.028333001 -0.096316002 0.87974
0.029787 -0.096207 0.87875003
0.031228 -0.096072003 0.87751001
0.032662999 -0.095927 0.87619001
0.034088001 -0.095771 0.87475997
0.035502002 -0.095596001 0.87316
0.03689 -0.095367 0.87107003
0.038268998 -0.095135003 0.86896002
0.039648 -0.094919004 0.86698002
0.041026 -0.094715998 0.86513001
0.042408999 -0.094539002 0.86351001
0.043811001 -0.094415002 0.86238003
0.045210999 -0.094293997 0.86127001
0.046606001 -0.094169997 0.86014003
0.047997002 -0.094048001 0.85901999
0.049380001 -0.093915999 0.85781997
0.050760001 -0.093786001 0.85663003
0.052154999 -0.09369 0.85575002
0.053544 -0.093589 0.85483003
0.054935001 -0.093497999 0.85399997
0.056338999 -0.093432002 0.85338998
0.057751998 -0.093382999 0.85294998
0.059165001 -0.093339004 0.85255003
0.060584001 -0.093304001 0.85223001
0.062001001 -0.093268 0.85189998
0.063408002 -0.093220003 0.85145998
0.064814001 -0.093171 0.85101998
0.066214003 -0.093116999 0.85052001
0.067619003 -0.093071997 0.85010999
0.069034003 -0.093042001 0.84983999
0.070462003 -0.093030997 0.84973001
0.071892001 -0.093021996 0.84965003
0.073329002 -0.093023002 0.84965998
0.074772999 -0.093033001 0.84974998
0.076223999 -0.093048997 0.84990001
0.077697001 -0.093093 0.85030001
0.079190001 -0.093157999 0.85089999
0.080688998 -0.093227997 0.85153002
0.082195997 -0.093304999 0.85223001
0.083692998 -0.093368001 0.85281003
0.085166998 -0.093402997 0.85314
0.086658001 -0.093456 0.85361999
0.088161997 -0.093520001 0.85420001
0.089662999 -0.093579002 0.85474002
0.091187999 -0.093662001 0.85549998
0.092758 -0.093787 0.85663998
0.094403997 -0.093984 0.85843998
0.096166998 -0.094290003 0.86123002
0.097998001 -0.094651997 0.86453998
0.099845998 -0.095020004 0.86790001
0.10166 -0.095343001 0.87085003
0.10338 -0.095576003 0.87298
0.10504 -0.095738001 0.87445998
0.10667 -0.095881999 0.87577999
0.1083 -0.096013002 0.87696999
0.10989 -0.096106 0.87782001
0.11148 -0.096199997 0.87867999
0.11304 -0.096256003 0.87919003
0.11469 -0.097889997 0.88049001
0.11461 -0.096330002 0.87985998
0.11619 -0.097902998 0.88059998
0.11617 -0.096390001 0.88042003
0.016601 -0.095781997 0.88862002
0.018084999 -0.095686004 0.88773
0.019559 -0.095554002 0.8865
0.021024 -0.095402002 0.88510001
0.022483001 -0.095242999 0.88362002
0.023934999 -0.095076002 0.88208002
0.025388001 -0.094931997 0.88073999
0.026843 -0.094815999 0.87965
0.028295999 -0.094700001 0.87857997
0.029753 -0.094609998 0.87774998
0.031199999 -0.094497003 0.87669998
0.032641999 -0.094383001 0.87564999
0.034081001 -0.094267003 0.87457001
0.035505001 -0.094123997 0.87323999
0.036905002 -0.093928002 0.87142003
0.038291998 -0.093718 0.86948001
0.039675001 -0.093514003 0.86758
0.041046001 -0.093296997 0.86557001
0.042429 -0.093120001 0.86391997
0.043827999 -0.092990004 0.86272001
0.045228999 -0.092869997 0.86161
0.046626002 -0.092752002 0.86050999
0.048021998 -0.092638999 0.85947001
0.049410999 -0.092519 0.85834998
0.050790999 -0.092390001 0.85715002
0.052186001 -0.092295997 0.85628003
0.053580999 -0.092203997 0.85543001
0.054972999 -0.092114002 0.85459
0.056373 -0.092041001 0.85391003
0.057787001 -0.091992997 0.85347003
0.059200998 -0.091948003 0.85304999
0.060621001 -0.091914997 0.85273999
0.062043998 -0.091888003 0.85250002
0.063465998 -0.091858998 0.85223001
0.064884998 -0.091829002 0.85194999
0.066298999 -0.091793001 0.85162002
0.067713998 -0.091759004 0.8513
0.069138996 -0.091739997 0.85112
0.07057 -0.091729999 0.85102999
0.072002001 -0.091720998 0.85095
0.073440999 -0.091721997 0.85096002
0.074887 -0.091730997 0.85102999
0.076332003 -0.091738999 0.85110998
0.077791996 -0.091764003 0.85135001
0.079269998 -0.091808997 0.85176003
0.080752999 -0.091858 0.85220999
0.082235999 -0.091904998 0.85264999
0.083724998 -0.091957003 0.85314
0.085198998 -0.091991 0.85345
0.086682998 -0.092036001 0.85386002
0.088188 -0.092100002 0.85446
0.089706004 -0.092174999 0.85514998
0.091250002 -0.092275001 0.85608
0.092834003 -0.092409998 0.85733998
0.094507001 -0.092629001 0.85936999
0.096235 -0.092895001 0.86184001
0.098022997 -0.093209997 0.86475998
0.099808998 -0.093512997 0.86756998
0.10157 -0.093783997 0.87007999
0.10324 -0.093962997 0.87175
0.10489 -0.094121002 0.87321001
0.1065 -0.094246 0.87436998
0.10813 -0.094370998 0.87554002
0.10972 -0.094471 0.87646002
0.11133 -0.094575003 0.87743002
0.1129 -0.09465 0.87812001
0.11452 -0.094763003 0.87917
0.11613 -0.094862998 0.88010001
0.015105 -0.094313003 0.88897997
0.016596001 -0.094246998 0.88835001
0.018076001 -0.094131999 0.88726997
0.019546 -0.093987003 0.88590002
0.021004001 -0.093813002 0.88426
0.022460001 -0.093647003 0.88269001
0.023908 -0.093474999 0.88107997
0.025356 -0.093323 0.87963998
0.026807001 -0.093199 0.87847
0.028255001 -0.093075998 0.87731999
0.029711001 -0.092990004 0.87650001
0.031160999 -0.092896998 0.87562001
0.032612 -0.092813 0.87483001
0.034060001 -0.092727996 0.87402999
0.035496999 -0.092623003 0.87304997
0.036904 -0.09245 0.87142003
0.038295999 -0.092253998 0.86956
0.039675999 -0.092045002 0.86759001
0.041046001 -0.091829002 0.86556
0.042424999 -0.091646001 0.86383998
0.043823998 -0.091518998 0.86263001
0.045228999 -0.091410004 0.86161
0.046629999 -0.091302998 0.86059999
0.048030999 -0.091200002 0.85962999
0.049421001 -0.091082998 0.85851997
0.050806001 -0.090963997 0.8574
0.052202001 -0.090871997 0.85654002
0.053596999 -0.090781003 0.85569
0.054990001 -0.090692997 0.85484999
0.056395002 -0.090628996 0.85425001
0.057808999 -0.090581 0.85378999
0.059223 -0.090536997 0.85338002
0.060649 -0.090511002 0.85314
0.06208 -0.090493999 0.85298002
0.063509002 -0.090475999 0.85281003
0.064937003 -0.090457998 0.85263002
0.066359997 -0.090432003 0.8524
0.067787997 -0.090415001 0.85224003
0.069222003 -0.090406999 0.85215002
0.070656002 -0.090397999 0.85206997
0.072090998 -0.090389997 0.852
0.073531002 -0.090389997 0.852
0.074970998 -0.090389997 0.852
0.076412 -0.090389997 0.852
0.077866003 -0.090406999 0.85215002
0.079328999 -0.090433002 0.8524
0.080794998 -0.090460002 0.85264999
0.082259998 -0.090485997 0.85290998
0.083741002 -0.090527996 0.85329998
0.085216001 -0.090562999 0.85361999
0.086709999 -0.090616003 0.85413003
0.088233002 -0.090697996 0.8549
0.089768998 -0.090788998 0.85575002
0.091334 -0.090906002 0.85685998
0.092928998 -0.091049999 0.85821998
0.094577 -0.091241002 0.86001003
0.096254997 -0.091453999 0.86202002
0.097998001 -0.09172 0.86453998
0.099722996 -0.091963999 0.86682999
0.10144 -0.092196003 0.86901999
0.1031 -0.092363998 0.87059999
0.10474 -0.09251 0.87198001
0.10634 -0.092621997 0.87303001
0.10795 -0.092735 0.87410003
0.10953 -0.092822 0.87492001
0.11115 -0.092941999 0.87605
0.11277 -0.093055002 0.87712002
0.11443 -0.093198001 0.87847
0.11609 -0.093345001 0.87984997
0.013611 -0.092866004 0.88954002
0.0151 -0.092775002 0.88867998
0.016588001 -0.092697002 0.88792998
0.018065 -0.092572004 0.88673002
0.019529 -0.092407003 0.88515002
0.020982999 -0.092217997 0.88334
0.022431999 -0.092037 0.88160002
0.023874 -0.091849998 0.87980998
0.025317 -0.091689996 0.87827998
0.026763 -0.091559 0.87703001
0.028210999 -0.091447003 0.87594998
0.029665001 -0.091364004 0.87515998
0.03112 -0.091291003 0.87445998
0.032572001 -0.091219001 0.87377
0.034024999 -0.091153003 0.87313998
0.035468999 -0.091071002 0.87234998
0.036885999 -0.090928003 0.87098002
0.038284998 -0.090752997 0.86931002
0.039668001 -0.090556003 0.86742002
0.041042 -0.090351999 0.86545998
0.042419001 -0.090170003 0.86373001
0.043818001 -0.090044998 0.86251998
0.045223001 -0.089938998 0.86150998
0.046629 -0.089841001 0.86057001
0.04803 -0.089740999 0.85961002
0.049419001 -0.089624003 0.85848999
0.050804999 -0.089509003 0.85738999
0.052202001 -0.089419 0.85653001
0.053596999 -0.089331001 0.85569
0.054990001 -0.089244001 0.85484999
0.056395002 -0.089180999 0.85425001
0.057808999 -0.089133002 0.85378999
0.059223 -0.089089997 0.85338002
0.060653999 -0.089073002 0.85321999
0.062091 -0.089065 0.85314
0.063528001 -0.089056998 0.85306001
0.064962998 -0.089047998 0.85298002
0.066399001 -0.089040004 0.85290003
0.067835003 -0.089032002 0.85281998
0.069277003 -0.089032002 0.85281998
0.070719004 -0.089032002 0.85281998
0.072159998 -0.089032002 0.85281998
0.073601998 -0.089032002 0.85281998
0.075043999 -0.089032002 0.85281998
0.076485999 -0.089032002 0.85281998
0.077933997 -0.089040004 0.85290003
0.079383001 -0.089047998 0.85298002
0.080839999 -0.089065 0.85314
0.082298003 -0.089080997 0.85329998
0.083772004 -0.089115001 0.85361999
0.085249998 -0.089151002 0.85395998
0.086754002 -0.089212999 0.85456002
0.088287003 -0.089302003 0.85540998
0.089832999 -0.089401998 0.85636997
0.091410004 -0.089528002 0.85758001
0.093007997 -0.089671001 0.85895002
0.094637997 -0.089840002 0.86056
0.096267 -0.090002999 0.86211997
0.097957 -0.090217002 0.86418003
0.099638999 -0.090418003 0.86610001
0.10132 -0.090612002 0.86795998
0.10297 -0.090769 0.86945999
0.1046 -0.090911999 0.87083
0.1062 -0.091020003 0.87186003
0.10779 -0.091121003 0.87282997
0.10937 -0.091205999 0.87364
0.11099 -0.091325 0.87478
0.11264 -0.091462001 0.8761
0.11433 -0.091632001 0.87773001
0.11605 -0.091815002 0.87948
0.1178 -0.093517996 0.88147998
0.11779 -0.092013001 0.88138002
0.013601 -0.091293 0.88891
0.015089 -0.091201 0.88801003
0.016573999 -0.091113001 0.88716
0.018046999 -0.090976 0.88582999
0.019504 -0.090788998 0.884
0.020950999 -0.090584002 0.88200998
0.022394 -0.090388 0.88011003
0.02383 -0.090195 0.87822002
0.025269 -0.090029001 0.87660998
0.026712 -0.089899004 0.87533998
0.02816 -0.089799002 0.87436002
0.029614 -0.089726001 0.87365001
0.03107 -0.089663997 0.87304997
0.032526001 -0.089610003 0.87252003
0.033980999 -0.089555003 0.87199998
0.035427 -0.089484997 0.87131
0.036846001 -0.089354001 0.87004
0.038251001 -0.089201003 0.86853999
0.039636999 -0.089015 0.86673999
0.041012999 -0.088822998 0.86487001
0.042397998 -0.088661 0.86329001
0.043800998 -0.088546999 0.86217999
0.04521 -0.088451996 0.86124998
0.046615001 -0.088354997 0.86031002
0.048020002 -0.088264003 0.85943002
0.049408 -0.088150002 0.85830998
0.050799001 -0.088045001 0.85728002
0.052195001 -0.087955996 0.85641998
0.053599998 -0.087885998 0.85574001
0.054999001 -0.087808996 0.85499001
0.056403998 -0.087747 0.85439003
0.057819001 -0.087701999 0.85394001
0.059234001 -0.087659001 0.85352999
0.060660001 -0.087633997 0.85329002
0.062097002 -0.087627001 0.85321999
0.063538998 -0.087627001 0.85321999
0.064981997 -0.087627001 0.85321999
0.066423997 -0.087627001 0.85321999
0.067865998 -0.087627001 0.85321999
0.069309004 -0.087627001 0.85321999
0.070750996 -0.087627001 0.85321999
0.072194003 -0.087627001 0.85321999
0.073636003 -0.087627001 0.85321999
0.075078003 -0.087627001 0.85321999
0.076521002 -0.087627001 0.85321999
0.077963002 -0.087627001 0.85321999
0.079412997 -0.087633997 0.85329002
0.080870003 -0.087650999 0.85345
0.082330003 -0.087669 0.85361999
0.083806001 -0.087704003 0.85395998
0.085291997 -0.087747 0.85439003
0.086797997 -0.087808996 0.85499001
0.088339001 -0.087903999 0.85592002
0.089896001 -0.088012002 0.85697001
0.091482997 -0.088145003 0.85826999
0.093074001 -0.088278003 0.85956001
0.094677001 -0.088417999 0.86092001
0.096267 -0.088541999 0.86212999
0.097907998 -0.088707998 0.86374003
0.099531002 -0.088853002 0.86515999
0.10118 -0.089016996 0.86675
0.10281 -0.089161001 0.86815
0.10443 -0.089294001 0.86944997
0.10603 -0.089400999 0.87049001
0.10762 -0.089498997 0.87145001
0.10919 -0.089582004 0.87225002
0.11081 -0.089697003 0.87336999
0.11248 -0.089850001 0.87485999
0.11419 -0.090035997 0.87667
0.11594 -0.090242997 0.87869
0.11772 -0.090465002 0.88085002
0.015076 -0.089617997 0.88725001
0.016559999 -0.089532003 0.88639998
0.018028 -0.089382 0.88492
0.019484 -0.089198001 0.88309002
0.020925 -0.088978998 0.88093001
0.022363 -0.088776998 0.87892002
0.023793001 -0.088568002 0.87685001
0.025226001 -0.088395 0.87514001
0.026663 -0.088252001 0.87373
0.028111 -0.088163003 0.87283999
0.029563 -0.088092998 0.87215
0.031017 -0.088032998 0.87155998
0.032469999 -0.087978996 0.87102997
0.033925001 -0.087934002 0.87057
0.035372 -0.087872997 0.86997002
0.036796998 -0.087762997 0.86887997
0.038215 -0.087646 0.86772001
0.039608002 -0.087482996 0.86611003
0.040996 -0.08732 0.86449999
0.042388 -0.087177999 0.86309999
0.043795999 -0.087075002 0.86207002
0.045205001 -0.086983003 0.86115998
0.046610001 -0.086888 0.86022002
0.048014998 -0.086797997 0.85934001
0.049403001 -0.086685002 0.85821003
0.050793 -0.086581998 0.85719001
0.052189998 -0.086496003 0.85633999
0.053599998 -0.086433999 0.85573
0.055004001 -0.086367004 0.85505998
0.05641 -0.086308002 0.85448003
0.057824999 -0.086263999 0.85404003
0.059239998 -0.086221002 0.85361999
0.060665 -0.086195998 0.85337001
0.062097002 -0.086180001 0.85321999
0.063538998 -0.086180001 0.85321999
0.064981997 -0.086180001 0.85321999
0.066423997 -0.086180001 0.85321999
0.067865998 -0.086180001 0.85321999
0.069309004 -0.086180001 0.85321999
0.070750996 -0.086180001 0.85321999
0.072194003 -0.086180001 0.85321999
0.073636003 -0.086180001 0.85321999
0.075078003 -0.086180001 0.85321999
0.076521002 -0.086180001 0.85321999
0.077963002 -0.086180001 0.85321999
0.07942 -0.086195998 0.85337001
0.080886997 -0.086222 0.85361999
0.082355998 -0.086249001 0.85390002
0.083842002 -0.086292997 0.85433
0.085327998 -0.086335003 0.85474998
0.086832002 -0.086393997 0.85532999
0.088373996 -0.086487003 0.85626
0.089930996 -0.086594 0.85731
0.091512002 -0.086717002 0.85852998
0.093102001 -0.086847 0.85980999
0.094686002 -0.086966999 0.861
0.096247002 -0.087063 0.86194998
0.097848997 -0.087191001 0.86322999
0.099439003 -0.087306 0.86435997
0.10104 -0.087430999 0.86559999
0.10265 -0.087555997 0.86682999
0.10426 -0.087669998 0.86795998
0.10585 -0.087777004 0.86901999
0.10745 -0.087881997 0.87006998
0.10903 -0.087972 0.87096
0.11065 -0.088085003 0.87207001
0.11233 -0.088249996 0.87370998
0.11404 -0.088431999 0.87550998
0.1158 -0.088646002 0.87763
0.11759 -0.088875003 0.87989002
0.11947 -0.090664998 0.88279998
0.11937 -0.089091003 0.88203001
0.015056 -0.087998003 0.88608003
0.016536999 -0.087909997 0.88520002
0.018004 -0.087765001 0.88372999
0.019458 -0.087583996 0.88191003
0.020895001 -0.087360002 0.87966001
0.022329001 -0.087153003 0.87756997
0.023754001 -0.086938001 0.87541002
0.025185 -0.086768001 0.87370002
0.026616 -0.086620003 0.87221003
0.02806 -0.086525001 0.87124997
0.029503999 -0.086442001 0.87041003
0.030954 -0.086382002 0.86980999
