# .PCD v0.7 - Point Cloud Data file format
VERSION 0.7
FIELDS x y z
SIZE 4 4 4
TYPE F F F
COUNT 1 1 1
WIDTH 1499
HEIGHT 1
VIEWPOINT 0 0 0 1 0 0 0
POINTS 1499
DATA ascii
0.11002 -0.12202 0.91593999
0.1119 -0.12238 0.91867
0.11378 -0.12273 0.92129999
0.11565 -0.12307 0.92383999
0.11747 -0.12333 0.92584002
-0.0057176002 -0.11264 0.85642999
-0.0042677 -0.11258 0.85598999
-0.0028184 -0.1125 0.85535997
-0.0013713 -0.1124 0.85465002
7.3458003e-05 -0.11226 0.85355002
0.0015137 -0.11206 0.85205001
0.0029484001 -0.11184 0.85036999
0.0043779002 -0.11163 0.84881002
0.0058030002 -0.11145 0.84737003
0.0072252001 -0.11129 0.84615999
0.0086506 -0.11122 0.84565997
0.010077 -0.11119 0.84542
0.011501 -0.11114 0.84503001
0.012928 -0.11112 0.84492999
0.014351 -0.11108 0.84460998
0.015773 -0.11104 0.84426999
0.01719 -0.11097 0.84378999
0.018610001 -0.11094 0.84350997
0.020022999 -0.11086 0.84293997
0.021437 -0.11081 0.84252
0.022852 -0.11076 0.84218001
0.024274999 -0.11076 0.84214997
0.025704 -0.11078 0.84232002
0.027145 -0.11085 0.84284002
0.028587 -0.11092 0.84336001
0.030037001 -0.11101 0.84403002
0.031484999 -0.11108 0.84459001
0.032958001 -0.11123 0.84575999
0.034444999 -0.11142 0.84715998
0.035955999 -0.11166 0.84902
0.037501 -0.11343 0.85152
0.037475999 -0.11192 0.85096002
0.051275 -0.11715 0.89073002
0.052753001 -0.11709 0.89026999
0.054232001 -0.11703 0.88982999
0.055723999 -0.11701 0.88963997
0.057209998 -0.11697 0.88936001
0.058688998 -0.11692 0.88898998
0.060171999 -0.11688 0.88870001
0.061655998 -0.11685 0.88843
0.063139997 -0.11681 0.88818002
0.064609997 -0.11676 0.88775003
0.066101998 -0.11674 0.88762999
0.06758 -0.1167 0.88734001
0.0691 -0.11673 0.88758999
0.070624001 -0.11677 0.88788998
0.072177999 -0.11686 0.88853002
0.073725 -0.11693 0.88907999
0.075287998 -0.11702 0.88977998
0.076833002 -0.11709 0.89025003
0.078403004 -0.11718 0.89099002
0.079983003 -0.11729 0.89182001
0.081560999 -0.11739 0.89257997
0.083145998 -0.1175 0.89341003
0.084725998 -0.1176 0.89415002
0.086309999 -0.1177 0.89490002
0.087889001 -0.11778 0.89556998
0.089487001 -0.11789 0.89640999
0.091086999 -0.118 0.89723998
0.092689998 -0.11811 0.89806998
0.094278999 -0.1182 0.89875001
0.095885001 -0.11831 0.89956999
0.097475998 -0.11839 0.90021002
0.099087998 -0.1185 0.90103
0.10073 -0.11865 0.90214002
0.10242 -0.11883 0.90355003
0.10414 -0.11906 0.90526003
0.10593 -0.11935 0.90745002
0.10775 -0.11967 0.90987003
0.10958 -0.11998 0.91226
0.11145 -0.12034 0.91500002
0.11334 -0.12071 0.91777998
0.11528 -0.12111 0.92084002
0.11715 -0.12144 0.92337
-0.0071637002 -0.11116 0.85622001
-0.0057120002 -0.11108 0.85557997
-0.0042625 -0.11099 0.85496002
-0.0028142999 -0.11088 0.85411
-0.0013688999 -0.11076 0.85314
7.3297e-05 -0.11061 0.85202998
0.0015109 -0.11041 0.85045999
0.0029428001 -0.11019 0.84877998
0.0043698 -0.10999 0.84723997
0.0057929 -0.10982 0.84588999
0.0072133001 -0.10967 0.84476
0.0086371005 -0.10962 0.84434998
0.010062 -0.10959 0.84411001
0.011483 -0.10954 0.84372002
0.012907 -0.10951 0.84355003
0.014327 -0.10947 0.84320998
0.015745001 -0.10942 0.84280998
0.017159 -0.10934 0.84223998
0.018575 -0.1093 0.84188002
0.019983999 -0.10922 0.84129
0.021392999 -0.10916 0.84078997
0.022803999 -0.1091 0.84039003
0.024224 -0.1091 0.84037
0.025652001 -0.10913 0.84061003
0.027089 -0.1092 0.84112
0.028532 -0.10928 0.84171999
0.029983001 -0.10938 0.84253001
0.031440999 -0.1095 0.84341002
0.032914001 -0.10965 0.84464002
0.034400001 -0.10984 0.84605998
0.035912 -0.11009 0.84798998
0.037434999 -0.11035 0.85001999
0.051178999 -0.11542 0.88906997
0.052655 -0.11536 0.88862002
0.054131001 -0.11531 0.88817
0.055615 -0.11527 0.88791001
0.057092998 -0.11523 0.88755
0.058563001 -0.11517 0.88709003
0.060036 -0.11511 0.88669002
0.061514001 -0.11507 0.88638997
0.062995002 -0.11504 0.88613999
0.064462997 -0.11499 0.88573003
0.065958001 -0.11498 0.88569999
0.067440003 -0.11496 0.88549
0.068963997 -0.115 0.88584
0.070491999 -0.11505 0.88622999
0.072052002 -0.11515 0.88699001
0.073605001 -0.11524 0.88762999
0.075172 -0.11534 0.88841999
0.076714002 -0.1154 0.88888001
0.078272998 -0.11548 0.88951999
0.079843 -0.11558 0.89025998
0.081407003 -0.11566 0.89090002
0.082988001 -0.11577 0.89170998
0.084556997 -0.11585 0.89235997
0.086138003 -0.11595 0.89310998
0.087714002 -0.11603 0.89377999
0.089317001 -0.11615 0.89471
0.090907998 -0.11625 0.89547002
0.092519 -0.11638 0.89642
0.094113998 -0.11648 0.89718002
0.095726997 -0.11659 0.89807999
0.097308002 -0.11667 0.89866
0.098916002 -0.11677 0.89946997
0.10053 -0.11688 0.90030003
0.10217 -0.11701 0.90132999
0.10384 -0.11718 0.90263999
0.10558 -0.11742 0.90448999
0.10736 -0.1177 0.90657997
0.10916 -0.11799 0.90881002
0.11103 -0.11833 0.91149998
0.1129 -0.11869 0.91424
0.11483 -0.11908 0.91724002
0.11669 -0.11941 0.91974002
-0.0086172 -0.10978 0.85681999
-0.0071613998 -0.10967 0.85593998
-0.0057085999 -0.10956 0.85508001
-0.0042586001 -0.10945 0.85417998
-0.0028111001 -0.10931 0.85312003
-0.0013667 -0.10914 0.85180002
7.3201998e-05 -0.109 0.85069001
0.0015085 -0.1088 0.84911001
0.0029384999 -0.10859 0.84751999
0.0043632998 -0.10839 0.84597999
0.0057847998 -0.10823 0.84470999
0.0072030998 -0.10809 0.84356999
0.0086249001 -0.10803 0.84315002
0.010047 -0.10799 0.84284002
0.011466 -0.10794 0.84245998
0.012888 -0.10792 0.84227002
0.014304 -0.10787 0.84184998
0.01572 -0.10781 0.84144998
0.017130001 -0.10773 0.84081
0.018541001 -0.10768 0.84038001
0.019948 -0.1076 0.83977997
0.021357 -0.10755 0.83936
0.022764999 -0.1075 0.83897001
0.024185 -0.1075 0.83903003
0.025614001 -0.10755 0.83934999
0.027047001 -0.1076 0.83977997
0.028486 -0.10768 0.84038001
0.029936001 -0.10778 0.84118003
0.031394001 -0.1079 0.84214997
0.032866001 -0.10806 0.8434
0.034354001 -0.10826 0.84491998
0.035867002 -0.10851 0.84692001
0.037388001 -0.10877 0.84894001
0.038950998 -0.11058 0.85175002
0.038901001 -0.10899 0.85065001
0.052561998 -0.11366 0.88704002
0.054035001 -0.1136 0.88660002
0.055516999 -0.11356 0.88633001
0.056986999 -0.11351 0.88589001
0.058448002 -0.11344 0.88534999
0.059912 -0.11338 0.88485998
0.061386999 -0.11334 0.88455999
0.062863998 -0.1133 0.88428998
0.064335003 -0.11326 0.88396001
0.065833002 -0.11327 0.88401997
0.067319997 -0.11325 0.88391
0.068847999 -0.11331 0.88435
0.070382997 -0.11338 0.88485003
0.071941003 -0.11347 0.88562
0.073499002 -0.11357 0.88634998
0.075064003 -0.11367 0.88713998
0.076605 -0.11373 0.88761002
0.078153998 -0.1138 0.88815999
0.079719 -0.11389 0.88888001
0.081265002 -0.11395 0.88935
0.082836002 -0.11404 0.89007998
0.084393002 -0.11412 0.89063001
0.085969001 -0.11421 0.89135998
0.087540001 -0.11429 0.89200997
0.089139998 -0.11441 0.89292997
0.090727001 -0.11451 0.89368999
0.092343003 -0.11464 0.89472002
0.093953997 -0.11476 0.89565003
0.095568001 -0.11488 0.89658999
0.097156003 -0.11496 0.89726001
0.098782003 -0.11509 0.89824998
0.10039 -0.1152 0.89907998
0.10201 -0.11531 0.89995003
0.10365 -0.11544 0.90098
0.10535 -0.11563 0.90244001
0.10706 -0.11583 0.90403003
0.10881 -0.11607 0.90584999
0.11063 -0.11637 0.90821999
0.11247 -0.11669 0.91070998
0.11436 -0.11705 0.91351998
0.11622 -0.11737 0.91601002
-0.010072 -0.1084 0.85733998
-0.0086145997 -0.1083 0.85654998
-0.0071584 -0.10817 0.85557997
-0.0057052998 -0.10805 0.85457999
-0.004255 -0.10791 0.85347003
-0.0028078 -0.10774 0.85211998
-0.0013651 -0.10757 0.85077
7.3112999e-05 -0.10742 0.84959
0.0015063999 -0.10721 0.84794003
0.0029344 -0.10701 0.84635001
0.0043572998 -0.10681 0.84481001
0.0057768002 -0.10665 0.84354001
0.0071936999 -0.10652 0.84246999
0.0086137 -0.10646 0.84206003
0.010033 -0.10642 0.84174001
0.011451 -0.10638 0.84135002
0.012869 -0.10634 0.84108001
0.014282 -0.10627 0.84051001
0.015695 -0.10622 0.84008998
0.017101999 -0.10614 0.83946002
0.018511999 -0.10608 0.83903998
0.019917 -0.10601 0.83846998
0.021327 -0.10598 0.83819002
0.022736 -0.10594 0.83787
0.024154 -0.10595 0.83794999
0.025583001 -0.106 0.83835
0.027014 -0.10605 0.83879
0.028449999 -0.10612 0.83929998
0.029894 -0.10621 0.84002
0.031353001 -0.10634 0.84105998
0.032823998 -0.1065 0.84232002
0.034311 -0.10669 0.84385997
0.035822 -0.10695 0.84586
0.037335999 -0.10719 0.84776998
0.038842998 -0.10739 0.84938002
0.053929001 -0.11188 0.88486999
0.055413 -0.11185 0.88467997
0.056885999 -0.11181 0.88432002
0.058346 -0.11174 0.88379002
0.059808001 -0.11168 0.88331997
0.061274 -0.11163 0.88293999
0.062742002 -0.11159 0.88257998
0.064209998 -0.11155 0.88226002
0.065706998 -0.11156 0.88231999
0.067192003 -0.11154 0.88222998
0.068723001 -0.11161 0.88274002
0.070261002 -0.11168 0.88331997
0.071818002 -0.11178 0.88410002
0.073380999 -0.11188 0.88493001
0.074950002 -0.11199 0.8858
0.076494999 -0.11206 0.88634002
0.078042001 -0.11213 0.88688999
0.079605997 -0.11222 0.88761002
0.081148997 -0.11228 0.88808
0.082709 -0.11236 0.88871002
0.084255002 -0.11242 0.88916999
0.085819997 -0.1125 0.88981003
0.087378003 -0.11257 0.89036
0.088964 -0.11267 0.89117002
0.090545997 -0.11277 0.89191002
0.092159003 -0.1129 0.89292997
0.093776003 -0.11303 0.89394999
0.095398001 -0.11316 0.89499003
0.097002998 -0.11326 0.89583999
0.098646998 -0.11341 0.89701998
0.10028 -0.11354 0.89804
0.1019 -0.11366 0.89899999
0.10354 -0.1138 0.90003997
0.10521 -0.11396 0.90131003
0.1069 -0.11413 0.90271002
0.10859 -0.1143 0.90407002
0.11035 -0.11455 0.90596998
0.11213 -0.1148 0.90794998
0.11395 -0.11508 0.91021001
0.11574 -0.11534 0.91224998
-0.011534 -0.10852 0.85832
-0.011535 -0.10707 0.85835999
-0.010071 -0.10693 0.85727
-0.0086129 -0.10682 0.85637999
-0.0071558999 -0.10669 0.85527998
-0.0057020001 -0.10654 0.85408998
-0.0042512999 -0.10637 0.85271001
-0.0028047001 -0.10618 0.85119998
-0.0013633 -0.10599 0.84969002
7.2998002e-05 -0.10583 0.84842002
0.0015043 -0.10562 0.84670001
0.0029304 -0.10543 0.84518999
0.0043513998 -0.10524 0.84366
0.0057689999 -0.10508 0.84240001
0.0071840999 -0.10495 0.84135002
0.0086022001 -0.1049 0.84092999
0.010019 -0.10485 0.84053999
0.011436 -0.10481 0.84021997
0.012851 -0.10477 0.83987999
0.014261 -0.10469 0.83929002
0.015672 -0.10464 0.83885998
0.017077999 -0.10457 0.83829999
0.018485 -0.10451 0.83783001
0.019889999 -0.10445 0.83734
0.021299001 -0.10442 0.83708
0.022707 -0.10439 0.83683997
0.024125 -0.1044 0.83692002
0.025552001 -0.10445 0.83732998
0.026981 -0.1045 0.83775997
0.028417001 -0.10457 0.83832997
0.029857 -0.10465 0.83897001
0.031314 -0.10478 0.83999997
0.032786001 -0.10495 0.84132999
0.03427 -0.10514 0.84287
0.035773002 -0.10537 0.84470999
0.037278 -0.10559 0.84644997
0.038771 -0.10575 0.84780002
0.040341999 -0.10756 0.85071999
0.040259 -0.1059 0.84895998
0.053840999 -0.1102 0.88343
0.055326998 -0.11018 0.88331002
0.056798 -0.11014 0.88295001
0.058261 -0.11008 0.88251001
0.059721999 -0.11003 0.88204998
0.061186999 -0.10998 0.88168001
0.062652998 -0.10994 0.88133001
0.064124003 -0.1099 0.88107002
0.065613002 -0.1099 0.88107002
0.067102998 -0.1099 0.88107002
0.068626001 -0.10996 0.88150001
0.070153996 -0.11002 0.88198
0.071691997 -0.11009 0.88256001
0.073252 -0.11019 0.88336998
0.074812002 -0.11029 0.88417
0.076362997 -0.11037 0.88480997
0.077915996 -0.11045 0.88546002
0.079490997 -0.11056 0.88634002
0.081032999 -0.11062 0.88681
0.082590997 -0.1107 0.88744003
0.084133998 -0.11076 0.88789999
0.085686997 -0.11082 0.88843
0.087233998 -0.11088 0.88889003
0.088808 -0.11097 0.88960999
0.090378001 -0.11105 0.89025998
0.091986001 -0.11117 0.89125001
0.093599997 -0.1113 0.89227998
0.095210999 -0.11142 0.89323997
0.096822999 -0.11154 0.89419001
0.098472998 -0.1117 0.89543998
0.10011 -0.11184 0.89657003
0.10177 -0.11199 0.89780998
0.10343 -0.11214 0.89903998
0.1051 -0.1123 0.90030998
0.10678 -0.11248 0.90169001
0.10847 -0.11264 0.90302998
0.11017 -0.11283 0.90450001
0.11187 -0.113 0.90586001
0.11362 -0.11321 0.90758002
0.11535 -0.11341 0.90916997
-0.013006 -0.10578 0.85966998
-0.011535 -0.10562 0.85839999
-0.010069 -0.10546 0.85711998
-0.0086086001 -0.10532 0.85596001
-0.0071502998 -0.10515 0.85461003
-0.0056957998 -0.10498 0.85316002
-0.0042459001 -0.10479 0.85162997
-0.0028009 -0.10459 0.85004002
-0.0013615 -0.10441 0.84852999
7.2925002e-05 -0.10425 0.84724998
0.0015022 -0.10404 0.84553999
0.0029265999 -0.10386 0.8441
0.0043461998 -0.10368 0.84267002
0.0057628001 -0.10354 0.84149998
0.0071771001 -0.10342 0.84052998
0.0085939001 -0.10337 0.84012002
0.010009 -0.10331 0.83965999
0.011424 -0.10327 0.83933002
0.012836 -0.10322 0.83890998
0.014243 -0.10314 0.83827001
0.015651001 -0.10308 0.83775997
0.017057 -0.10302 0.83726001
0.018462 -0.10296 0.83679003
0.019866999 -0.10291 0.83639002
0.021276999 -0.10289 0.83621001
0.022686001 -0.10287 0.83604997
0.024102001 -0.10288 0.83613002
0.025528001 -0.10293 0.83653998
0.026955999 -0.10298 0.83696002
0.02839 -0.10305 0.83753997
0.029828001 -0.10313 0.83816999
0.031280998 -0.10325 0.83911997
0.032747 -0.1034 0.84034997
0.034226999 -0.10358 0.84179002
0.035723999 -0.10379 0.84354001
0.037218999 -0.10398 0.84509999
0.038704 -0.10414 0.84635001
0.040185999 -0.10427 0.84742999
0.055243999 -0.10852 0.88198
0.056717999 -0.10849 0.88170999
0.058185 -0.10844 0.88134998
0.059649002 -0.1084 0.88098001
0.061113 -0.10835 0.88059998
0.062576003 -0.10831 0.88024998
0.064046003 -0.10828 0.87998998
0.065527 -0.10827 0.87990999
0.067008004 -0.10826 0.87983
0.068521999 -0.1083 0.88015997
0.070038997 -0.10834 0.88053
0.071566001 -0.1084 0.88099998
0.073114 -0.10849 0.88172001
0.074665003 -0.10858 0.88243002
0.076220997 -0.10867 0.88316
0.077779002 -0.10876 0.88389999
0.079355001 -0.10887 0.88480997
0.080902003 -0.10894 0.88537002
0.082463004 -0.10903 0.88607001
0.084012002 -0.10909 0.88660002
0.085561998 -0.10916 0.88713998
0.087108999 -0.10922 0.88761002
0.088671997 -0.10929 0.88824999
0.090237997 -0.10937 0.88888001
0.091825001 -0.10947 0.8897
0.093437001 -0.1096 0.89072001
0.095044002 -0.10971 0.89166999
0.096661001 -0.10984 0.89269
0.098309003 -0.10999 0.89394999
0.099974997 -0.11017 0.89533001
0.10164 -0.11033 0.89669001
0.10332 -0.11051 0.89811999
0.10501 -0.11069 0.89958
0.1067 -0.11087 0.90103
0.10839 -0.11103 0.90236998
0.11009 -0.11121 0.90381002
0.11177 -0.11136 0.90505999
0.11345 -0.11151 0.90627003
0.11514 -0.11166 0.90748
-0.014478 -0.10592 0.86080998
-0.015966 -0.10467 0.86258
-0.014484 -0.1045 0.86111999
-0.013009 -0.10434 0.85983998
-0.011535 -0.10416 0.85838997
-0.010065 -0.10397 0.85679001
-0.0086011002 -0.10378 0.85521001
-0.0071411999 -0.10357 0.85352999
-0.0056878999 -0.10338 0.85197002
-0.0042388001 -0.10317 0.85022002
-0.0027962001 -0.10298 0.84863001
-0.0013595 -0.10282 0.84727001
7.2789e-05 -0.10267 0.84606999
0.0015001 -0.10246 0.84437001
0.0029231 -0.10231 0.84310001
0.0043418999 -0.10216 0.84183002
0.0057577002 -0.10202 0.84074998
0.0071715 -0.10192 0.83986998
0.0085870996 -0.10187 0.83946002
0.010001 -0.10181 0.83898002
0.011415 -0.10177 0.83866
0.012825 -0.10171 0.83818001
0.014231 -0.10163 0.83753997
0.015636999 -0.10157 0.83701998
0.017042 -0.10151 0.83653003
0.018446 -0.10145 0.83604997
0.019851999 -0.10141 0.83573002
0.021261999 -0.1014 0.83561999
0.022671999 -0.10139 0.83554
0.024087001 -0.1014 0.83561999
0.025512001 -0.10145 0.83603001
0.026938999 -0.1015 0.83644998
0.02837 -0.10156 0.83693999
0.029806999 -0.10164 0.83758003
0.031256001 -0.10175 0.83846003
0.032715 -0.10188 0.83952999
0.034185998 -0.10203 0.84078997
0.035673998 -0.10222 0.84236002
0.037156001 -0.10238 0.84368998
0.038639002 -0.10253 0.84491998
0.040121 -0.10267 0.84605002
0.04174 -0.10458 0.84990001
0.041620001 -0.10284 0.84744
0.055181999 -0.10691 0.88099003
0.05666 -0.10689 0.88081002
0.058130998 -0.10685 0.88054001
0.059599999 -0.10682 0.88024998
0.061062999 -0.10677 0.87989002
0.062524997 -0.10673 0.87952
0.063992001 -0.1067 0.87924999
0.065465003 -0.10667 0.87906998
0.066937998 -0.10665 0.87891001
0.068437003 -0.10667 0.87906998
0.069936998 -0.1067 0.87924999
0.071446002 -0.10673 0.87953001
0.072984003 -0.1068 0.88014001
0.074524999 -0.10688 0.88077003
0.076085001 -0.10698 0.88160002
0.077648997 -0.10708 0.88242
0.079228997 -0.1072 0.88341999
0.080775 -0.10727 0.88398999
0.082336001 -0.10736 0.8847
0.083881997 -0.10742 0.88523
0.085431002 -0.10749 0.88577998
0.086975001 -0.10755 0.88625002
0.088536002 -0.10762 0.88687998
0.090101004 -0.1077 0.88752002
0.091684997 -0.1078 0.88834
0.093291998 -0.10792 0.88933998
0.094887003 -0.10802 0.89020002
0.096500002 -0.10815 0.89120001
0.098144002 -0.1083 0.89244998
0.099817 -0.10848 0.89392
0.1015 -0.10866 0.89547002
0.1032 -0.10886 0.89709002
0.10492 -0.10906 0.89876002
0.10662 -0.10925 0.90030003
0.1083 -0.10941 0.90161997
0.10999 -0.10957 0.90297002
0.11167 -0.10972 0.90420997
0.11334 -0.10987 0.90539998
0.11505 -0.11004 0.90678
-0.017442999 -0.10332 0.86351001
-0.015967 -0.10321 0.86260998
-0.014485 -0.10305 0.86123002
-0.013009 -0.10289 0.85987997
-0.01153 -0.10266 0.85799998
-0.010056 -0.10242 0.85598999
-0.0085878 -0.10217 0.85389
-0.0071271001 -0.10193 0.85184002
-0.0056749 -0.10171 0.85003
-0.0042296001 -0.10151 0.84834999
-0.0027902999 -0.10132 0.84680998
-0.0013568 -0.10118 0.84561998
7.2691e-05 -0.10106 0.84459001
0.0014978 -0.10087 0.84305
0.0029192001 -0.10074 0.84195
0.0043369001 -0.10061 0.84086001
0.0057516 -0.10049 0.83986998
0.0071645998 -0.1004 0.83906001
0.0085787997 -0.10035 0.83864999
0.0099908998 -0.10029 0.83816999
0.011403 -0.10025 0.83784002
0.012812 -0.10019 0.83735001
0.014218 -0.10012 0.83678001
0.015622 -0.10005 0.83621001
0.017027 -0.1 0.83577001
0.018431 -0.099955 0.83537
0.019838 -0.099927001 0.83513999
0.021247 -0.099917002 0.83504999
0.022661 -0.099923998 0.83512002
0.024072999 -0.099924996 0.83512002
0.025497001 -0.099972002 0.83552003
0.026922001 -0.10002 0.83592999
0.028353 -0.10008 0.83644003
0.029789999 -0.10016 0.83709002
0.031237001 -0.10026 0.83796
0.03269 -0.10037 0.83886999
0.034152001 -0.1005 0.83995003
0.035631001 -0.10067 0.84134001
0.037105002 -0.10081 0.84252
0.038582001 -0.10095 0.84368002
0.040066 -0.10109 0.84489
0.041565999 -0.10127 0.84635001
0.043157 -0.10309 0.84951001
0.043046001 -0.10139 0.84732997
0.055135 -0.10532 0.88024002
0.056618001 -0.10531 0.88015997
0.058088999 -0.10528 0.87989998
0.059558 -0.10525 0.87963003
0.061014999 -0.1052 0.87919003
0.062469002 -0.10514 0.87874001
0.063927002 -0.1051 0.87836999
0.065398 -0.10508 0.87817001
0.066868998 -0.10506 0.87800002
0.068360001 -0.10507 0.87808001
0.069851004 -0.10508 0.87817001
0.071350001 -0.1051 0.87834001
0.072871 -0.10515 0.87878001
0.074403003 -0.10521 0.87932998
0.075960003 -0.10531 0.88014001
0.077519998 -0.10541 0.88097
0.079099 -0.10553 0.88195997
0.080649003 -0.10561 0.88261002
0.082208 -0.10569 0.88332999
0.083752997 -0.10576 0.88388002
0.085299999 -0.10582 0.88441998
0.086833999 -0.10587 0.88481998
0.088384002 -0.10594 0.88536
0.089943998 -0.10601 0.88598001
0.091517001 -0.1061 0.88670999
0.093121998 -0.10622 0.88771999
0.094722003 -0.10633 0.88865
0.096340999 -0.10646 0.88972998
0.097981997 -0.10661 0.89098001
0.099661 -0.10679 0.89252001
0.10135 -0.10699 0.89415002
0.10307 -0.10721 0.89595997
0.10481 -0.10743 0.89780998
0.10652 -0.10763 0.89947999
0.10821 -0.10779 0.90088999
0.10991 -0.10796 0.90231001
0.11158 -0.10811 0.90354002
0.11326 -0.10826 0.90474999
0.11497 -0.10842 0.90614003
0.11683 -0.11027 0.90868002
0.11674 -0.10865 0.90802997
-0.018917 -0.10193 0.86414999
-0.017442999 -0.10185 0.86347997
-0.015965 -0.10174 0.86252999
-0.014483 -0.10157 0.86110997
-0.012999 -0.10135 0.85924
-0.011514 -0.10106 0.85679001
-0.010036 -0.10077 0.85433
-0.0085682003 -0.10049 0.85194999
-0.0071080001 -0.10021 0.84956002
-0.0056602 -0.10001 0.84783
-0.0042190002 -0.099821001 0.84623998
-0.0027840999 -0.099666998 0.84494001
-0.0013540999 -0.099547997 0.84393001
7.2561001e-05 -0.099458002 0.84315997
0.0014957 -0.099307001 0.84188002
0.0029157 -0.099197999 0.84096003
0.0043322002 -0.099078998 0.83995998
0.005746 -0.098972999 0.83904999
0.0071577001 -0.098879002 0.83824998
0.0085706003 -0.09883 0.83784002
0.0099812001 -0.098773003 0.83736002
0.011392 -0.098733 0.83701998
0.0128 -0.098676004 0.83653998
0.014206 -0.098618001 0.83604002
0.015608 -0.098549999 0.83546001
0.017012 -0.098499998 0.83503997
0.018417001 -0.098462 0.83472002
0.019824 -0.098444 0.83456999
0.021233 -0.098436996 0.83451003
0.022647999 -0.098453999 0.83464998
0.024061 -0.098462999 0.83473003
0.025483999 -0.098508999 0.83512002
0.02691 -0.098558001 0.83552998
0.028339 -0.098618001 0.83604002
0.029775999 -0.098695002 0.83669001
0.031217 -0.098779999 0.83740997
0.032662001 -0.098866999 0.83815998
0.034116 -0.098973997 0.83906001
0.035585999 -0.099119 0.84029001
0.037053999 -0.099247001 0.84136999
0.038532998 -0.099393003 0.84261
0.04002 -0.099546999 0.84391999
0.041519001 -0.099721 0.84539002
0.042996999 -0.099835001 0.84636003
0.056561999 -0.10372 0.87928998
0.058037002 -0.1037 0.87911999
0.059510998 -0.10368 0.87892997
0.060966 -0.10363 0.87849998
0.062419001 -0.10357 0.87804002
0.063876003 -0.10353 0.87765998
0.065343998 -0.1035 0.87746
0.066814996 -0.10348 0.87729001
0.068305001 -0.10349 0.87738001
0.069794998 -0.1035 0.87746
0.071291998 -0.10352 0.87763
0.072797 -0.10355 0.87788999
0.074313 -0.1036 0.87826002
0.075860001 -0.10368 0.87897998
0.077409998 -0.10377 0.87971997
0.078979 -0.10388 0.88062
0.080527 -0.10395 0.88126999
0.082089998 -0.10405 0.88205999
0.083632998 -0.10411 0.88260001
0.085178003 -0.10418 0.88316
0.086708002 -0.10422 0.88353002
0.088252999 -0.10428 0.88405001
0.089794002 -0.10433 0.88450003
0.091355003 -0.10441 0.88514
0.092956997 -0.10453 0.88613999
0.094555996 -0.10464 0.88709998
0.096174002 -0.10477 0.88818997
0.097822003 -0.10493 0.88951999
0.099508002 -0.10512 0.89115
0.10121 -0.10532 0.89284998
0.10293 -0.10554 0.89473999
0.10467 -0.10577 0.89670002
0.1064 -0.10598 0.89845002
0.10811 -0.10617 0.90003997
0.1098 -0.10634 0.90148002
0.11149 -0.10649 0.90280002
0.11319 -0.10666 0.90419
0.11491 -0.10683 0.90569001
0.11668 -0.10705 0.90750003
0.11853 -0.10888 0.90992999
0.11846 -0.10728 0.90944999
-0.018913001 -0.10045 0.86396003
-0.017439 -0.10037 0.86331999
-0.015955999 -0.10022 0.86198997
-0.014466 -0.099996999 0.86009997
-0.012973 -0.099698998 0.85753
-0.011484 -0.099352002 0.85453999
-0.010004 -0.099005997 0.85157001
-0.0085399998 -0.098723002 0.84913999
-0.0070854002 -0.098458 0.84684998
-0.0056439 -0.098287001 0.84538001
-0.0042081 -0.098132998 0.84406
-0.0027783001 -0.098026998 0.84315002
-0.0013518 -0.097948998 0.84248
7.2477997e-05 -0.097891003 0.84197998
0.0014939 -0.097764 0.84088999
0.0029126001 -0.097668 0.84006
0.0043278998 -0.097558998 0.83911997
0.0057403999 -0.097453997 0.83822
0.0071506002 -0.097361997 0.83743
0.0085621998 -0.097314999 0.83701998
0.0099724 -0.097267002 0.83661997
0.01138 -0.097212002 0.83613998
0.012786 -0.097154997 0.83565003
0.014191 -0.097098 0.83516002
0.015592 -0.097032003 0.83459002
0.016993999 -0.096983999 0.83418
0.018401001 -0.096963003 0.83399999
0.019811001 -0.096965 0.83401
0.021222999 -0.096975997 0.83411002
0.022639999 -0.097005002 0.83436
0.024055 -0.097023003 0.83451003
0.025477 -0.097066998 0.83489001
0.026901999 -0.097113997 0.83530003
0.028329 -0.097166002 0.83573997
0.029765001 -0.097240999 0.83639002
0.031203 -0.097314999 0.83702999
0.032643002 -0.097390004 0.83767003
0.034088999 -0.097475998 0.83841002
0.035553999 -0.097607002 0.83952999
0.037021 -0.097732998 0.84061998
0.038506001 -0.097894996 0.84201002
0.039999999 -0.098067001 0.84349
0.041499 -0.098241001 0.84499002
0.042977002 -0.098352998 0.84596002
0.044532999 -0.10007 0.84834999
0.044458002 -0.098467 0.84693998
0.056504998 -0.10213 0.87840003
0.057978999 -0.10211 0.87823999
0.059457 -0.10209 0.87813997
0.060915999 -0.10205 0.87777001
0.062368002 -0.102 0.87731999
0.063818 -0.10195 0.87686002
0.065286003 -0.10192 0.87667
0.066749997 -0.1019 0.87642998
0.068239003 -0.10191 0.87652999
0.069734998 -0.10193 0.87669998
0.071231 -0.10195 0.87686998
0.072727002 -0.10197 0.87704998
0.074239001 -0.10201 0.87739003
0.075776003 -0.10208 0.87800997
0.077310003 -0.10215 0.87857997
0.078868002 -0.10224 0.87937999
0.080418997 -0.10232 0.88010001
0.081974 -0.10241 0.88081002
0.083513997 -0.10247 0.88134998
0.085063003 -0.10254 0.88195997
0.086589999 -0.10258 0.88233
0.088124998 -0.10263 0.88275999
0.089661002 -0.10268 0.88318998
0.09121 -0.10275 0.88372999
0.092799999 -0.10285 0.88464999
0.094405003 -0.10297 0.88568002
0.096033998 -0.10311 0.88688999
0.097682998 -0.10327 0.88826001
0.099375002 -0.10347 0.88995999
0.10107 -0.10366 0.89164001
0.10278 -0.10387 0.89344001
0.10452 -0.1041 0.89538997
0.10625 -0.10432 0.89723998
0.10797 -0.10451 0.89893001
0.10969 -0.1047 0.90052998
0.1114 -0.10487 0.90204
0.11311 -0.10505 0.90355003
0.11484 -0.10523 0.90513998
0.1166 -0.10544 0.90693998
0.11838 -0.10566 0.90878999
0.12029 -0.10754 0.91167998
0.1202 -0.10591 0.91097999
0.12211 -0.10778 0.91369998
0.122 -0.10614 0.91290998
0.12392 -0.10802 0.91570997
0.12382 -0.10637 0.91492999
-0.018890999 -0.098865002 0.86294001
-0.017410001 -0.098742999 0.86186999
-0.015922001 -0.098552004 0.86021
-0.014426 -0.098264001 0.85768998
-0.01293 -0.097916998 0.85466999
-0.011444 -0.097567998 0.85162002
-0.0099691004 -0.097221002 0.84859002
-0.0085121002 -0.096966997 0.84636998
-0.0070647001 -0.096739002 0.84438002
-0.0056293998 -0.096605003 0.84320998
-0.0041986001 -0.096483998 0.84215999
-0.0027727999 -0.096408002 0.84149998
-0.0013494 -0.096353002 0.84100997
7.2321003e-05 -0.096316002 0.84069002
0.0014921 -0.096220002 0.83985001
0.0029092999 -0.096134 0.8391
0.0043233 -0.096032999 0.83822
0.0057341 -0.095928997 0.83731002
0.0071423999 -0.095830999 0.83645999
0.0085516004 -0.095776998 0.83598
0.0099608004 -0.095738001 0.83565003
0.011367 -0.095682003 0.83516002
0.012771 -0.095628001 0.83468002
0.014177 -0.095588997 0.83434999
0.01558 -0.095542997 0.83394003
0.016983001 -0.095504999 0.83361
0.018391 -0.095501997 0.83358002
0.019804001 -0.095519997 0.83374
0.021219 -0.095541999 0.83394003
0.022638001 -0.095579997 0.83427
0.024055 -0.095606998 0.83451003
0.025474999 -0.095642 0.83481002
0.026899001 -0.095688999 0.83521003
0.028325999 -0.095738001 0.83565003
0.029758999 -0.095803998 0.83622003
0.031194 -0.095867999 0.83678001
0.032632001 -0.095939003 0.83740002
0.034070998 -0.096005 0.83797002
0.035528999 -0.096115999 0.83894998
0.036995001 -0.096239999 0.84002
0.038479 -0.096400999 0.84143001
0.039972998 -0.096573003 0.84293997
0.041471999 -0.096745998 0.84445
0.042955998 -0.096873 0.84556001
0.044441 -0.096993998 0.84661001
0.045981999 -0.098664999 0.84864002
0.045912001 -0.097078003 0.84733999
0.056446001 -0.10053 0.87748998
0.057918999 -0.10051 0.87731999
0.059395 -0.1005 0.87722999
0.060858998 -0.10047 0.87695998
0.062316 -0.10043 0.87659001
0.063771002 -0.10039 0.87620997
0.065243997 -0.10037 0.87611002
0.066712998 -0.10036 0.87594998
0.068203002 -0.10037 0.87607002
0.069698997 -0.10039 0.87625003
0.071188003 -0.1004 0.87634999
0.072676003 -0.10041 0.87642998
0.074179001 -0.10044 0.87668002
0.075705998 -0.1005 0.87720001
0.077229999 -0.10055 0.87765998
0.078778997 -0.10064 0.87839001
0.080328003 -0.10072 0.87910002
0.081880003 -0.1008 0.87980002
0.083411001 -0.10085 0.88025999
0.084950998 -0.10091 0.88081002
0.086484 -0.10096 0.88125002
0.088017002 -0.10101 0.88168001
0.089543998 -0.10105 0.88204002
0.091089003 -0.10111 0.88256001
0.092673004 -0.10121 0.88344997
0.094267003 -0.10132 0.88439
0.095894001 -0.10146 0.88559997
0.097551003 -0.10163 0.88705999
0.099234 -0.10182 0.88870001
0.10093 -0.10201 0.89037001
0.10263 -0.1022 0.89205998
0.10434 -0.1024 0.89381999
0.10606 -0.1026 0.89556998
0.10778 -0.10281 0.89734
0.10951 -0.103 0.89905
0.11124 -0.1032 0.90074998
0.11298 -0.1034 0.90252
0.11473 -0.1036 0.90429997
0.11651 -0.10382 0.90618998
0.11828 -0.10403 0.90802002
0.1201 -0.10428 0.9102
0.1219 -0.1045 0.91213
0.12371 -0.10473 0.91416001
0.12563001 -0.1066 0.91688001
0.12554 -0.10497 0.91621
-0.018850001 -0.097194999 0.86110002
-0.01736 -0.097002 0.85939002
-0.015868001 -0.096763 0.85728002
-0.01437 -0.096437 0.85439003
-0.012878 -0.096083 0.85124999
-0.0114 -0.095749997 0.84830999
-0.0099346004 -0.095452003 0.84565997
-0.0084865 -0.095243998 0.84381998
-0.0070472001 -0.095072001 0.84228998
-0.0056174002 -0.094972998 0.84140998
-0.0041916999 -0.094898999 0.84075999
-0.0027687999 -0.094843999 0.84026998
-0.0013477 -0.094806999 0.83995003
7.2278002e-05 -0.094791003 0.8398
0.0014906001 -0.094705999 0.83904999
0.0029062 -0.094610997 0.83820999
0.0043183002 -0.094503 0.83726001
0.0057269 -0.094389997 0.83626002
0.0071327002 -0.094286002 0.83533001
0.0085407002 -0.094240002 0.83491999
0.0099491002 -0.094210997 0.83467001
0.011354 -0.094157003 0.83419001
0.012759 -0.094118997 0.83385003
0.014164 -0.09409 0.83358997
0.015566 -0.094045997 0.83320999
0.016969999 -0.094019003 0.83297002
0.018381 -0.094034001 0.83310002
0.019793 -0.094053 0.83327001
0.021209 -0.094084002 0.83354002
0.022631001 -0.094139002 0.83402997
0.024050999 -0.094176002 0.83434999
0.02547 -0.094209999 0.83465999
0.026896 -0.094263002 0.83512002
0.028323 -0.094310001 0.83555001
0.029753 -0.094368003 0.83604997
0.031184001 -0.094421998 0.83653003
0.032620002 -0.094483003 0.83708
0.034054998 -0.094538003 0.83756
0.035505001 -0.094631001 0.83838999
0.036970001 -0.094751999 0.83946002
0.038454 -0.094911002 0.84087002
0.039949998 -0.095089003 0.84245002
0.041444998 -0.095251001 0.84388
0.042934999 -0.095393002 0.84513998
0.044419002 -0.095512003 0.84619999
0.045898002 -0.095613003 0.84709001
0.056386001 -0.098939002 0.87655997
0.057858001 -0.098921999 0.87639999
0.059333999 -0.098912001 0.87632
0.060802002 -0.098890997 0.87612998
0.062265001 -0.098862 0.87586999
0.063725002 -0.09883 0.87559003
0.065204002 -0.098828003 0.87557
0.066678002 -0.098819003 0.87549001
0.068166003 -0.09883 0.87559003
0.069660001 -0.098851003 0.87576997
0.071148999 -0.098861001 0.87586999
0.072631001 -0.098862998 0.87588
0.074124001 -0.09888 0.87603003
0.075635001 -0.098918997 0.87638003
0.077142999 -0.098953001 0.87668002
0.078681 -0.099023998 0.87730998
0.080228999 -0.099104002 0.87801999
0.081772998 -0.099175997 0.87866002
0.083310001 -0.099238001 0.87919998
0.084856004 -0.099307001 0.87980998
0.086387999 -0.099358 0.88027
0.087913997 -0.099400997 0.88064998
0.089446999 -0.09945 0.88108999
0.090981998 -0.0995 0.88152999
0.092554003 -0.099587999 0.88230997
0.094141997 -0.099691004 0.88321
0.095774002 -0.099835001 0.88449001
0.097421996 -0.099992 0.88587999
0.099102996 -0.10018 0.88752002
0.10079 -0.10036 0.88916999
0.10247 -0.10054 0.89074999
0.10417 -0.10073 0.89240003
0.10589 -0.10092 0.89412999
0.10762 -0.10113 0.89598
0.10935 -0.10133 0.89770001
0.11108 -0.10153 0.89950001
0.11285 -0.10175 0.90144998
0.11462 -0.10197 0.9034
0.11641 -0.1022 0.90540999
0.11819 -0.10241 0.90733999
0.12001 -0.10266 0.90951997
0.12181 -0.10288 0.91145003
0.12361 -0.1031 0.91338003
0.12542 -0.10332 0.91532999
-0.015806001 -0.094935998 0.85391003
-0.01431 -0.094586998 0.85078001
-0.012827 -0.094259001 0.84783
-0.011359 -0.093971997 0.84525001
-0.0099044004 -0.093731999 0.84307998
-0.0084651997 -0.093579002 0.84170997
-0.0070332 -0.093457997 0.84061998
-0.0056087999 -0.093402997 0.84012002
-0.0041860002 -0.093347996 0.83963001
-0.0027657 -0.093318999 0.83937001
-0.0013465 -0.093301997 0.83920997
7.2226998e-05 -0.093294002 0.83914
0.0014894 -0.093202002 0.83831
0.0029033001 -0.093098998 0.83739001
0.0043135998 -0.092983 0.83635002
0.0057200999 -0.092863001 0.83526999
0.0071243001 -0.092759997 0.83433998
0.0085314 -0.092724003 0.83401
0.0099382997 -0.092694998 0.83376002
0.011341 -0.092642002 0.83328003
0.012745 -0.092605002 0.83295
0.014149 -0.092578001 0.83271003
0.015551 -0.092545003 0.83240998
0.016957 -0.092536002 0.83231997
0.018369 -0.092560001 0.83253998
0.019784 -0.092596002 0.83287001
0.021203 -0.092643999 0.83329999
0.022627 -0.092707001 0.83386999
0.024048001 -0.092752002 0.83427
0.02547 -0.092794001 0.83464998
0.026896 -0.092845999 0.83512002
0.028322 -0.092892997 0.83554
0.029750001 -0.092941001 0.83596998
0.031179 -0.092987001 0.83638
0.032611001 -0.093038 0.83683997
0.034038998 -0.093075 0.83718002
0.035482001 -0.093148999 0.83784002
0.036945 -0.093267001 0.83890003
0.038426999 -0.093422003 0.84030002
0.039923001 -0.093597002 0.84187001
0.041418999 -0.093763001 0.84337002
0.042916 -0.093919002 0.84477001
0.044408001 -0.094053999 0.84597999
0.045897 -0.094173998 0.84706002
0.057792999 -0.097328 0.87542999
0.059278999 -0.097337 0.87550998
0.060759 -0.097336002 0.87550998
0.062227 -0.097317003 0.87532997
0.063693002 -0.097296998 0.87515002
0.065172002 -0.097296 0.87514001
0.066644996 -0.097286999 0.87506002
0.068131 -0.097296998 0.87515002
0.069623999 -0.097315997 0.87532002
0.071105003 -0.097317003 0.87532997
0.072585002 -0.097317003 0.87532997
0.074070998 -0.097324997 0.87540001
0.075572997 -0.097352996 0.87566
0.077071004 -0.097375996 0.87585998
0.078599997 -0.097436003 0.87639999
0.080139004 -0.097506002 0.87703001
0.08168 -0.097576 0.87765998
0.083224997 -0.097646996 0.87830001
0.084778003 -0.097726002 0.87900001
0.086324997 -0.097795002 0.87963003
0.087857999 -0.097846001 0.88009
0.089391999 -0.097897001 0.88055003
0.090917997 -0.097937003 0.88090998
0.092471004 -0.098004997 0.88151997
0.094039001 -0.098085001 0.88224
0.095657997 -0.098215997 0.88341999
0.097300999 -0.098367997 0.88479
0.098980002 -0.098549999 0.88642001
0.10067 -0.098733 0.88806999
0.10234 -0.098904997 0.88962001
0.10402 -0.099068001 0.89108002
0.10572 -0.099250004 0.89270997
0.10744 -0.099445 0.89446998
0.10916 -0.099636003 0.89618999
0.11091 -0.099845998 0.89806998
0.11269 -0.10008 0.90020001
0.11448 -0.10031 0.90226001
0.11627 -0.10055 0.90438998
0.11808 -0.10078 0.90651
0.11991 -0.10104 0.90877998
0.1217 -0.10125 0.91069001
0.1235 -0.10146 0.91259998
0.12531 -0.10168 0.91452998
0.12726 -0.10356 0.91746998
0.12714 -0.1019 0.91655999
0.12905 -0.10375 0.91916001
0.12891001 -0.10208 0.91816002
-0.015726 -0.093015 0.84959
-0.014243 -0.092713997 0.84684002
-0.012782 -0.092496 0.84483999
-0.011328 -0.092286997 0.84293997
-0.0098845996 -0.092119001 0.84140003
-0.0084525002 -0.092013001 0.84043998
-0.0070250998 -0.091926999 0.83964998
-0.0056018 -0.091863997 0.83907998
-0.0041808002 -0.091810003 0.83858001
-0.0027623 -0.091780998 0.83832002
-0.0013448 -0.091766 0.83818001
7.2141003e-05 -0.091766998 0.83819002
0.0014878 -0.091683999 0.83743
0.0029005001 -0.091590002 0.83657002
0.0043092999 -0.091472998 0.8355
0.0057144002 -0.091355003 0.83442998
0.0071171001 -0.091254003 0.83350003
0.0085238004 -0.091228001 0.83327001
0.0099304002 -0.091209002 0.83310002
0.011333 -0.091165997 0.83270001
0.012737 -0.091137998 0.83244997
0.01414 -0.091110997 0.83219999
0.015542 -0.091078997 0.8319
0.016946999 -0.091071002 0.83183002
0.018358 -0.091095001 0.83205003
0.019773999 -0.091140002 0.83247
0.021196 -0.091204002 0.83305001
0.022622 -0.091275997 0.8337
0.024046 -0.091329001 0.83419001
0.025467999 -0.091371998 0.83458
0.026892001 -0.091415003 0.83497
0.028317001 -0.091459997 0.83538997
0.029744999 -0.091508001 0.83582997
0.031173 -0.091553003 0.83623999
0.032605 -0.091603003 0.83669001
0.034031998 -0.091637999 0.83701003
0.035471 -0.091698997 0.83757001
0.036927 -0.091798 0.83846998
0.038400002 -0.091932997 0.83969998
0.039891001 -0.092096999 0.84119999
0.041386999 -0.092261001 0.8427
0.042886999 -0.092423998 0.84419
0.044387002 -0.092574999 0.84557003
0.045887999 -0.092720002 0.84688997
0.047423001 -0.094361998 0.84875
0.047371998 -0.092822 0.84783
0.057753 -0.095775999 0.87480998
0.059243999 -0.095794998 0.87497997
0.060734 -0.095812999 0.87515002
0.062201999 -0.095794998 0.87497997
0.063669004 -0.095776998 0.87481999
0.065146998 -0.095775999 0.87480003
0.06662 -0.095766999 0.87472999
0.068099 -0.095767997 0.87472999
0.069591001 -0.095785998 0.87489998
0.071064003 -0.095776998 0.87481999
0.072535001 -0.095766999 0.87472999
0.074019 -0.095774002 0.87479001
0.075512998 -0.095793001 0.87496001
0.077001996 -0.095806003 0.87507999
0.078528002 -0.095863 0.87559998
0.080063999 -0.095928997 0.87620002
0.081596002 -0.095988996 0.87676001
0.083139002 -0.09606 0.87739998
0.084698997 -0.096147001 0.87818998
0.086254999 -0.096225999 0.87892002
0.087794997 -0.096285 0.87945998
0.089336 -0.096344002 0.87998998
0.090860002 -0.096382 0.88034999
0.092404 -0.096440002 0.88088
0.093961 -0.096510001 0.88151002
0.095567003 -0.096626997 0.88257998
0.097191997 -0.096758999 0.88379002
0.098857999 -0.096928 0.88533002
0.10053 -0.097098 0.88687998
0.1022 -0.097259 0.88835001
0.10386 -0.097410001 0.88972998
0.10556 -0.097588003 0.89134997
0.10727 -0.097778998 0.89310002
0.109 -0.097974002 0.89489001
0.11075 -0.098180003 0.89677
0.11254 -0.098421998 0.89898002
0.11435 -0.098669 0.90122998
0.11617 -0.098921001 0.90354002
0.11798 -0.099165 0.90575999
0.11984 -0.099431999 0.90820003
0.12163 -0.099641003 0.91011
0.12341 -0.09984 0.91193002
0.1252 -0.10004 0.91374999
0.12701 -0.10025 0.91567999
0.12879001 -0.10042 0.91727
-0.014187 -0.090920001 0.84351999
-0.012751 -0.090846002 0.84283
-0.011312 -0.090728998 0.84174001
-0.0098762 -0.090614997 0.84068
-0.0084451996 -0.090511002 0.83972001
-0.0070182998 -0.090415999 0.83884001
-0.0055952999 -0.090336002 0.83810002
-0.0041753999 -0.090272002 0.83750999
-0.0027588001 -0.090245999 0.83726001
-0.0013431 -0.090231001 0.83712
7.2034003e-05 -0.090241998 0.83722001
0.0014862 -0.090167999 0.83653998
0.0028977001 -0.090083003 0.83574998
0.0043051001 -0.08997 0.83469999
0.0057099001 -0.089869998 0.83377999
0.0071123 -0.089780003 0.83293998
0.0085188998 -0.089763999 0.83279002
0.0099248998 -0.089746997 0.83262998
0.011329 -0.089721002 0.83239001
0.012734 -0.089700997 0.83221
0.014138 -0.089683004 0.83204001
0.015538 -0.089649998 0.83173001
0.016944 -0.089648001 0.83170998
0.018355001 -0.089671999 0.83194
0.01977 -0.089709997 0.83228999
0.021190001 -0.089766003 0.83280998
0.022617999 -0.089846 0.83354998
0.024041001 -0.089897998 0.83403999
0.025464 -0.089942001 0.83443999
0.026887 -0.089984 0.83482999
0.028315 -0.090035997 0.83532
0.029742001 -0.090081997 0.83573997
0.031169999 -0.090126 0.83614999
0.032598998 -0.090167999 0.83653998
0.034024999 -0.090200998 0.83683997
0.035457 -0.090242997 0.83723998
0.036904 -0.090322003 0.83796
0.038373001 -0.090446003 0.83911002
0.039863002 -0.090607002 0.84061003
0.041358002 -0.090769999 0.84211999
0.042865999 -0.090948001 0.84377003
0.044369999 -0.091108002 0.84526002
0.045871999 -0.091251999 0.8466
0.047357 -0.091356002 0.84755999
0.057712 -0.094227001 0.87419999
0.059204001 -0.094249003 0.87440002
0.060694002 -0.094268002 0.87457001
0.062166002 -0.094258003 0.87448001
0.063637003 -0.094246998 0.87437999
0.065109 -0.094237 0.87428999
0.066587001 -0.094237 0.87428999
0.068066001 -0.094238997 0.87431002
0.069550999 -0.094249003 0.87440002
0.071023002 -0.094240002 0.87431002
0.072492003 -0.094227999 0.87421
0.073967002 -0.094224997 0.87418002
0.075460002 -0.094244003 0.87435001
0.076954998 -0.094264999 0.87454998
0.078473002 -0.094311997 0.87498999
0.079999 -0.094368003 0.87550002
0.081536002 -0.094433002 0.8761
0.083077997 -0.094502002 0.87674999
0.084638998 -0.094590001 0.87756002
0.086202003 -0.094678 0.87838
0.087750003 -0.094746001 0.87901002
0.08929 -0.094802998 0.87954003
0.090811998 -0.094839998 0.87988001
0.092354 -0.094894998 0.8804
0.093900003 -0.094954997 0.88094002
0.095489003 -0.095053002 0.88186002
0.097099997 -0.095170997 0.88295001
0.098755002 -0.095326997 0.88440001
0.10042 -0.095486 0.88587999
0.10208 -0.095646001 0.88735998
0.10375 -0.095803 0.88880998
0.10545 -0.095977999 0.89043999
0.10716 -0.096164003 0.89217001
0.10888 -0.096348003 0.89387
0.11062 -0.096550003 0.89574999
0.11241 -0.096787997 0.89796001
0.11422 -0.097030997 0.90021002
0.11603 -0.097278997 0.90250999
0.11786 -0.097526997 0.90481001
0.11971 -0.097792 0.90727001
0.12151 -0.098007999 0.90926999
0.1233 -0.098204002 0.91109002
0.12509 -0.098398998 0.91289997
0.12691 -0.098615997 0.91491002
0.1287 -0.098807 0.91668999
-0.014167 -0.089359999 0.84228998
-0.012737 -0.089317001 0.84188002
-0.011303 -0.089235 0.84110999
-0.0098706 -0.089139 0.84021002
-0.0084410002 -0.089042999 0.83929998
-0.0070145 -0.088946 0.83838999
-0.0055912002 -0.088849999 0.83748001
-0.0041723 -0.088785 0.83687001
-0.0027568999 -0.088766001 0.83669001
-0.0013423 -0.088753 0.83657002
7.1966002e-05 -0.088757999 0.83661002
0.0014851 -0.088685997 0.83592999
0.0028955999 -0.088604003 0.83516002
0.0043019 -0.088486999 0.83406001
0.0057061999 -0.088399999 0.83323997
0.0071091 -0.088327996 0.83256
0.0085164998 -0.088327996 0.83256
0.0099230995 -0.088320002 0.83249003
0.011328 -0.088303 0.83232999
0.012734 -0.088293001 0.83222997
0.014138 -0.088275999 0.83206999
0.015539 -0.088243 0.83175999
0.016944 -0.088238999 0.83171999
0.018354001 -0.088253997 0.83186001
0.019765999 -0.088281997 0.83213001
0.021183999 -0.088329002 0.83257002
0.022612 -0.088407002 0.83329999
0.024034999 -0.088459 0.83380002
0.025459001 -0.088509999 0.83428001
0.026882 -0.088551998 0.83467001
0.028310999 -0.088610001 0.83521003
0.029738 -0.088653997 0.83563
0.031167001 -0.088698998 0.83605999
0.032593001 -0.088734001 0.83638
0.034019001 -0.088766001 0.83669001
0.035443 -0.088790998 0.83692002
0.036883 -0.088849999 0.83748001
0.038346998 -0.088962004 0.83854002
0.039834999 -0.089120001 0.84002
0.041333999 -0.08929 0.84162998
0.042849001 -0.089482002 0.84344
0.044362001 -0.089658 0.84509999
0.045862999 -0.089800999 0.84644997
0.047348 -0.089901999 0.84740001
0.057682998 -0.092698 0.87374997
0.059174001 -0.092719004 0.87395
0.060663 -0.092738003 0.87413001
0.062134001 -0.092727996 0.87404001
0.063603997 -0.092716999 0.87392998
0.065073997 -0.092704996 0.87382001
0.066551 -0.092704996 0.87382001
0.06803 -0.092707999 0.87383997
0.069514997 -0.092717998 0.87393999
0.070986003 -0.092708997 0.87386
0.072453998 -0.092698 0.87374997
0.073928997 -0.092694998 0.87371999
0.07542 -0.092712998 0.87388998
0.076916002 -0.092735 0.87410003
0.078433998 -0.092782997 0.87454998
0.079952002 -0.092828996 0.87497997
0.081478998 -0.092882998 0.87550002
0.083017997 -0.092949003 0.87611997
0.084578998 -0.093036003 0.87694001
0.086142004 -0.093124002 0.87777001
0.087699004 -0.093202002 0.87849998
0.089245997 -0.093266003 0.87910998
0.090768002 -0.093303002 0.87945002
0.092308 -0.093355998 0.87996
0.093852997 -0.093414001 0.88050002
0.095430002 -0.093501002 0.88132
0.097029999 -0.093607001 0.88231999
0.098682001 -0.093759 0.88375002
0.10034 -0.093914002 0.88520998
0.10201 -0.094071001 0.88669997
0.10369 -0.094236001 0.88824999
0.10539 -0.094416998 0.88994998
0.1071 -0.094593003 0.89161003
0.1088 -0.094764002 0.89322001
0.11054 -0.094961002 0.89508998
0.11232 -0.095186003 0.89719999
0.1141 -0.095404997 0.89927
0.11591 -0.095647 0.90154999
0.11774 -0.095899999 0.90393001
0.1196 -0.096161 0.90639001
0.12141 -0.096385002 0.90850002
0.12321 -0.096588999 0.91042
0.12501 -0.096790001 0.91232002
0.12684 -0.097011998 0.91441
0.12865999 -0.097222 0.91639
0.13042 -0.098930001 0.91782999
0.1304 -0.097365998 0.91775
-0.01416 -0.087892003 0.84191
-0.012732 -0.087857999 0.84157002
-0.011302 -0.087802 0.84104002
-0.0098705003 -0.087715 0.84020001
-0.0084400997 -0.087610997 0.83920997
-0.0070123998 -0.087498002 0.83813
-0.0055887001 -0.087393001 0.83712
-0.0041699 -0.087315999 0.83638
-0.0027554999 -0.087304004 0.83626997
-0.0013415 -0.087284997 0.83609003
7.1962e-05 -0.087279998 0.83604002
0.0014842 -0.087215997 0.83543003
0.0028943999 -0.087150998 0.8348
0.0043001999 -0.08704 0.83374
0.0057052001 -0.086971998 0.83309001
0.0071091 -0.086916998 0.83256
0.0085164998 -0.086916998 0.83256
0.0099232001 -0.086909004 0.83249003
0.01133 -0.086901002 0.83240998
0.012736 -0.086893 0.83232999
0.01414 -0.086877003 0.83218002
0.015542 -0.086852998 0.83195001
0.016946999 -0.086842 0.83184999
0.018353 -0.086839996 0.83183002
0.019765001 -0.086865 0.83206999
0.02118 -0.086901002 0.83240998
0.022603 -0.086960003 0.83297002
0.024026999 -0.087017998 0.83354002
0.025452999 -0.087076999 0.83410001
0.026874 -0.087112002 0.83442998
0.028302999 -0.087168999 0.83497
0.029732 -0.087219 0.83546001
0.031160001 -0.087264001 0.83589
0.032586999 -0.087300003 0.83622998
0.034012999 -0.087332003 0.83653998
0.035436999 -0.087355003 0.83675998
0.036872 -0.087403998 0.83723003
0.038327999 -0.087497003 0.83811998
0.039811999 -0.087644003 0.83952999
0.041313998 -0.087820001 0.84122002
0.042833 -0.088018999 0.84311998
0.044349 -0.088201001 0.84486002
0.045853999 -0.088348001 0.84627002
0.047336001 -0.088444002 0.84719002
0.057647001 -0.091160998 0.87322003
0.059142001 -0.091188997 0.87348002
0.060631 -0.091206998 0.87366003
0.062100999 -0.091196999 0.87356001
0.06357 -0.091186002 0.87345999
0.065039001 -0.091176003 0.87335998
0.066514999 -0.091176003 0.87335998
0.067993 -0.091177002 0.87336999
0.069476999 -0.091187 0.87345999
0.070946999 -0.091178998 0.87338001
0.072415002 -0.091168001 0.87327999
0.073890001 -0.091165997 0.87326998
0.075382002 -0.091185004 0.87344003
0.076876998 -0.091206998 0.87365001
0.078387998 -0.091247 0.87404001
0.079905003 -0.091292001 0.87447
0.081431001 -0.091344997 0.87497997
0.082961001 -0.091401003 0.87550998
0.084518999 -0.091486 0.87633002
0.086089 -0.091580003 0.87722999
0.087646998 -0.091658004 0.87796998
0.089194 -0.091723002 0.87858999
0.090723999 -0.091767997 0.87902999
0.092263997 -0.091821 0.87954003
0.093800001 -0.091868997 0.88
0.095366001 -0.091945 0.88072997
0.096954003 -0.092038997 0.88161999
0.098591998 -0.092177004 0.88295001
0.10024 -0.092321001 0.88432997
0.10192 -0.092483997 0.88589001
0.10361 -0.092657 0.88753998
0.10531 -0.092836 0.88925999
0.10701 -0.093007997 0.89091003
0.10872 -0.093183003 0.89258999
0.11046 -0.093377002 0.89444
0.11221 -0.093579002 0.89638001
0.11398 -0.093783997 0.89833999
0.11579 -0.094017997 0.90057999
0.11762 -0.094264999 0.90294999
0.11947 -0.094522998 0.90542001
0.12131 -0.094764002 0.90772998
0.12313 -0.094982997 0.90982997
0.12494 -0.095192 0.91183001
0.12677 -0.095411003 0.91391999
0.12861 -0.095628001 0.91600001
0.13038 -0.095789999 0.91755998
0.13215999 -0.097517997 0.91917998
0.13214999 -0.095951997 0.91911
-0.014169 -0.086517997 0.84241998
-0.012742 -0.086501002 0.84224999
-0.011312 -0.086448997 0.84175003
-0.0098799001 -0.086372003 0.84100002
-0.0084466003 -0.086254001 0.83985001
-0.0070170001 -0.086134002 0.83868003
-0.0055904998 -0.086001001 0.83737999
-0.0041704001 -0.085909002 0.83648998
-0.0027556999 -0.085890003 0.83630002
-0.0013413 -0.085855998 0.83596998
7.1912997e-05 -0.085833997 0.83576
0.0014838 -0.085775003 0.83519
0.0028935999 -0.085709997 0.83455998
0.0042992998 -0.085608996 0.83357
0.0057052001 -0.085559003 0.83309001
0.0071097999 -0.085514002 0.83263999
0.0085172998 -0.085513003 0.83263999
0.0099248998 -0.085513003 0.83262998
0.011333 -0.085513003 0.83262998
0.01274 -0.085513003 0.83263999
0.014147 -0.085506 0.83257002
0.015551 -0.085490003 0.83240998
0.016953999 -0.085465997 0.83217001
0.018355001 -0.085441001 0.83192998
0.019763 -0.085446998 0.83199
0.021174001 -0.085464001 0.83216
0.022592001 -0.085506 0.83257002
0.024015 -0.085564002 0.83313
0.025441 -0.085621998 0.83368999
0.026861001 -0.085657001 0.83403999
0.02829 -0.085712999 0.83459002
0.029720999 -0.085771002 0.83513999
0.031151 -0.085822999 0.83565003
0.032581002 -0.085865997 0.83607
0.034010001 -0.085905999 0.83645999
0.035433002 -0.085928999 0.83669001
0.036865 -0.085969001 0.83706999
0.038313001 -0.086043999 0.83780003
0.039788999 -0.086172 0.83904999
0.041285999 -0.086335003 0.84064001
0.042803999 -0.086531997 0.84254998
0.044323999 -0.086718999 0.84438002
0.045832001 -0.086871997 0.84587002
0.047316998 -0.086972997 0.84684998
0.04902 -0.088900998 0.85157001
0.048943002 -0.08732 0.85022998
0.057624001 -0.089643002 0.87285
0.059115998 -0.089670002 0.87311
0.060598001 -0.089677997 0.87318999
0.062068 -0.089670002 0.87311
0.063538 -0.089659996 0.87300998
0.065007001 -0.089651003 0.87291998
0.066482 -0.089651003 0.87291998
0.067959003 -0.089651003 0.87292999
0.069440998 -0.089659996 0.87300998
0.070917003 -0.089659996 0.87300998
0.072385997 -0.089651003 0.87292999
0.073861003 -0.089651003 0.87291998
0.075351 -0.089667998 0.87309003
