# .PCD v0.7 - Point Cloud Data file format
VERSION 0.7
FIELDS x y z
SIZE 4 4 4
TYPE F F F
COUNT 1 1 1
WIDTH 1438
HEIGHT 1
VIEWPOINT 0 0 0 1 0 0 0
POINTS 1438
DATA ascii
0.082565002 -0.029873 0.85606998
0.084137 -0.029917 0.85733002
0.085735001 -0.029968999 0.85882002
0.087355003 -0.030027 0.86048001
0.089011997 -0.030096 0.86243999
-0.045251999 -0.028715 0.86488003
-0.043763001 -0.028697001 0.86435997
-0.042275999 -0.02868 0.86383998
-0.040798999 -0.028667999 0.86347997
-0.039322998 -0.028657001 0.86312997
-0.037849002 -0.028644999 0.86278999
-0.036378998 -0.028635999 0.86252999
-0.034903999 -0.028622 0.86210001
-0.033429001 -0.028607 0.86164999
-0.031948999 -0.028587 0.86102998
-0.030471999 -0.028566999 0.86043
-0.029004 -0.028553 0.86001003
-0.027534001 -0.028537 0.85952002
-0.026063999 -0.028517 0.85894001
-0.024591999 -0.028495001 0.85826999
-0.023117 -0.028465001 0.85737002
-0.021542 -0.0283 0.85238999
-0.015266 -0.027381999 0.82473999
-0.013815 -0.02727 0.82137001
-0.012393 -0.027195999 0.81914002
-0.010992 -0.027155999 0.81795001
-0.0095964996 -0.027121 0.81687999
-0.0082085002 -0.027098 0.81617999
-0.0068247002 -0.027082 0.81569999
-0.0054426999 -0.027067 0.81524003
-0.0040636002 -0.027061 0.81507999
-0.002686 -0.027063999 0.81515002
-0.0013084 -0.027074 0.81546998
7.0258e-05 -0.027098 0.81617999
0.001451 -0.027117001 0.81676
0.0028359999 -0.027156999 0.81796998
0.0042252 -0.027198 0.81919998
0.0056189001 -0.027241001 0.82049
0.0070163002 -0.027280999 0.82169998
0.0084178997 -0.027321 0.82292002
0.0098139998 -0.027334999 0.82332999
0.011209 -0.027341999 0.82354999
0.012602 -0.027344 0.82359999
0.013994 -0.027344 0.82358998
0.015389 -0.027349001 0.82375002
0.016787 -0.027357999 0.82401001
0.018185999 -0.027365999 0.82427001
0.019585 -0.027373999 0.82450002
0.020985 -0.027380999 0.82472998
0.022379 -0.027381999 0.82473999
0.023770999 -0.027380001 0.82467002
0.025165001 -0.027379001 0.82464999
0.026563 -0.027383 0.82476002
0.027973 -0.027398 0.82521999
0.029394001 -0.027423 0.82596999
0.030842001 -0.027469 0.82735002
0.032292001 -0.027512001 0.82866001
0.033755001 -0.027563 0.83017999
0.035220001 -0.027611 0.83164001
0.036697 -0.027665 0.83326
0.038155999 -0.027701 0.83436
0.03963 -0.027745999 0.83569998
0.041092999 -0.02778 0.83673
0.042557001 -0.027812 0.83769
0.044036999 -0.027853001 0.83892
0.045527998 -0.027897 0.84025002
0.047019001 -0.027938999 0.84152001
0.048530001 -0.02799 0.84303999
0.050037 -0.028036 0.84443003
0.051522002 -0.028067 0.84538001
0.053018 -0.028101999 0.84644002
0.054501999 -0.028129 0.84726
0.055978 -0.028152 0.84792
0.057445999 -0.028169001 0.84843999
0.058921002 -0.028188 0.84902
0.060369 -0.028193999 0.84921002
0.061804999 -0.028193999 0.84921002
0.063221 -0.028185001 0.84894001
0.064635001 -0.028176 0.84867001
0.066050999 -0.028168 0.84842998
0.067473002 -0.028162999 0.84828001
0.068934001 -0.028174 0.84859997
0.070416003 -0.028193001 0.84917003
0.071923003 -0.028221 0.85001999
0.073441997 -0.028253 0.85096997
0.074983999 -0.028292 0.85214001
0.076507002 -0.028322 0.85306001
0.078024998 -0.028349999 0.85390002
0.079539999 -0.028375 0.85465997
0.081055999 -0.0284 0.85540998
0.082615003 -0.028439 0.85658002
0.084197998 -0.028485 0.85795999
0.085805997 -0.028537 0.85952997
0.087426998 -0.028592 0.86118001
0.089074999 -0.028654 0.86304998
-0.045260001 -0.027254 0.86504
-0.043776002 -0.027240001 0.86461997
-0.042298 -0.02723 0.86429
-0.040824 -0.027221 0.86400998
-0.039347999 -0.027210001 0.86366999
-0.037873 -0.0272 0.86333001
-0.036403 -0.027192 0.86308002
-0.034922998 -0.027176 0.86256999
-0.033443999 -0.027159 0.86203998
-0.031961001 -0.027137 0.86132997
-0.030479001 -0.027114 0.86062002
-0.029007001 -0.027098 0.86009997
-0.027532 -0.027077001 0.85944003
-0.026061 -0.027059 0.85885
-0.024586 -0.027034 0.85807002
-0.02311 -0.027004 0.85711002
-0.021571999 -0.026892999 0.85360003
-0.019952999 -0.028092001 0.84614003
-0.020024 -0.026752001 0.84913999
-0.015324 -0.026082 0.82784998
-0.013846 -0.025937 0.82323998
-0.012402 -0.025827 0.81976998
-0.011 -0.02579 0.81857997
-0.0096028997 -0.025753001 0.81743002
-0.0082133003 -0.025729001 0.81665999
-0.0068275002 -0.02571 0.81603003
-0.0054442999 -0.025691999 0.81549001
-0.0040640999 -0.025682 0.81516999
-0.0026857001 -0.025679 0.81507999
-0.0013080999 -0.025684999 0.81524003
7.0221002e-05 -0.025704 0.81585997
0.0014512 -0.025735 0.81686002
0.002838 -0.025789 0.81854999
0.0042308001 -0.025843 0.82029003
0.0056290999 -0.025897 0.82198
0.0070322002 -0.025947001 0.82356
0.0084349997 -0.025978999 0.82458001
0.0098310998 -0.025985001 0.82476997
0.011226 -0.025986001 0.82481003
0.012621 -0.025986999 0.82485002
0.014014 -0.025985001 0.82477999
0.015415 -0.025994999 0.8251
0.01682 -0.026010999 0.82560003
0.018224999 -0.026024001 0.82602
0.019629 -0.026033999 0.82634002
0.021036999 -0.026048001 0.82678998
0.022435 -0.026048999 0.82681
0.023832001 -0.026047001 0.82675999
0.025231 -0.026048999 0.82679999
0.026635 -0.026055001 0.82700002
0.028052 -0.026072999 0.82756001
0.029484 -0.026102001 0.82849002
0.030942 -0.026149999 0.83002001
0.032396 -0.026192 0.83134001
0.033863001 -0.026240001 0.83285999
0.035319 -0.026275 0.83398998
0.036782 -0.026312999 0.83517998
0.038224 -0.026334001 0.83585
0.039680999 -0.026363 0.83678001
0.041131001 -0.026386 0.83749002
0.042587999 -0.026411001 0.83831
0.044073999 -0.026453 0.83961999
0.045566998 -0.026495 0.84096998
0.047060002 -0.026535001 0.84224999
0.048567999 -0.026581001 0.84371001
0.050074998 -0.026625 0.84508002
0.051552001 -0.026649 0.84586
0.053048 -0.026683001 0.84693003
0.054538 -0.026711 0.84781998
0.056016002 -0.026732 0.84850001
0.057491001 -0.026751 0.84909999
0.058972999 -0.026772 0.84977001
0.060423002 -0.026777999 0.84996003
0.061859999 -0.026777999 0.84996003
0.063282996 -0.026772 0.84977001
0.064698003 -0.026764 0.84948999
0.066114001 -0.026756 0.84924001
0.067532003 -0.026749 0.84900999
0.068985999 -0.026756 0.84924001
0.070455 -0.026768001 0.84964001
0.071955003 -0.026791999 0.85039997
0.073462002 -0.026818 0.85119998
0.075005002 -0.026854999 0.85237998
0.076531 -0.026884001 0.85333002
0.078051001 -0.026911 0.85417002
0.079565004 -0.026935 0.85492998
0.081096999 -0.026963999 0.85584003
0.082666002 -0.027004 0.85711002
0.084266998 -0.027053 0.85865998
0.085894004 -0.027108001 0.86040998
0.087522998 -0.027162001 0.86214
0.089171998 -0.027221 0.86399001
-0.043793999 -0.025784999 0.86497998
-0.042325001 -0.025781 0.86483002
-0.040854 -0.025775 0.86465001
-0.039379001 -0.025767 0.86435997
-0.037903 -0.025757 0.86401999
-0.036431 -0.025749 0.86375999
-0.034951001 -0.025734 0.86325997
-0.033472002 -0.025719 0.86274999
-0.031987 -0.025698001 0.86203998
-0.030501001 -0.025674 0.86124003
-0.029021 -0.025653001 0.86053002
-0.027536999 -0.025625 0.85961002
-0.026061 -0.025602 0.85885
-0.024582 -0.025574001 0.85790998
-0.023105999 -0.025545999 0.85694999
-0.021599 -0.025478 0.85466999
-0.020085 -0.025389001 0.85170001
-0.018433001 -0.026528999 0.84205002
-0.018519999 -0.025219999 0.84601998
-0.015423 -0.024839001 0.83322001
-0.013917 -0.024666 0.82743001
-0.012448 -0.024528001 0.82279003
-0.011025 -0.024458 0.82045001
-0.0096121002 -0.024390999 0.81819999
-0.0082202004 -0.024365 0.81734002
-0.0068314001 -0.02434 0.81650001
-0.0054454999 -0.024315 0.81567001
-0.0040642 -0.024301 0.81518
-0.002688 -0.024318 0.81576997
-0.0013104 -0.024346 0.81669003
7.0410999e-05 -0.024385 0.81801999
0.0014563 -0.024436001 0.81972998
0.0028496999 -0.024502 0.82191998
0.0042464999 -0.024544001 0.82332999
0.0056473999 -0.024583001 0.82463998
0.0070519 -0.024619 0.82586002
0.0084552001 -0.024639999 0.82656997
0.0098518003 -0.024638001 0.8265
0.011247 -0.024633 0.82633001
0.012643 -0.024631999 0.82628
0.014039 -0.024630001 0.82621002
0.015442 -0.024639999 0.82656002
0.016851 -0.024657 0.82713002
0.018262001 -0.024674 0.82770997
0.019671001 -0.024685999 0.82810998
0.021083999 -0.024702 0.82863998
0.02249 -0.024707001 0.82880998
0.023892 -0.024707999 0.82884002
0.025296999 -0.024712 0.82898003
0.02671 -0.024723001 0.82933998
0.028139001 -0.024746999 0.83012998
0.029579001 -0.024777001 0.83115
0.031042 -0.024823001 0.83271003
0.032497 -0.02486 0.83393002
0.033957999 -0.024897 0.83520001
0.035397999 -0.024917001 0.83585
0.036842 -0.024938 0.83655
0.038270999 -0.024947001 0.83687001
0.039714999 -0.024966 0.83748001
0.041154001 -0.024979999 0.83797002
0.042608999 -0.025002001 0.83872002
0.044098999 -0.025043 0.84008998
0.045591999 -0.025084 0.84144002
0.047086 -0.025122 0.84271997
0.048595 -0.025165999 0.84419
0.050104 -0.025206 0.84555
0.051577002 -0.025227999 0.84627002
0.053084001 -0.025264001 0.84749001
0.054579999 -0.025293 0.84847999
0.056065001 -0.025316 0.84924001
0.057546999 -0.025335999 0.84991997
0.059034001 -0.025358001 0.85066003
0.060481001 -0.025362 0.85078001
0.061919998 -0.025362 0.85079002
0.063344002 -0.025356 0.85058999
0.06476 -0.025348 0.85031003
0.066171996 -0.025338 0.84998
0.067589998 -0.025331 0.84974998
0.069031999 -0.025333 0.84981
0.070488997 -0.02534 0.85004997
0.071981996 -0.025359999 0.85070997
0.073481999 -0.025381001 0.85143
0.07502 -0.025415 0.85255003
0.076553002 -0.025444999 0.85356998
0.078079998 -0.025473 0.8545
0.079595998 -0.025496 0.85526001
0.081151001 -0.025529999 0.85641003
0.082731001 -0.025571 0.85777998
0.084351003 -0.025622999 0.85952002
0.085996002 -0.02568 0.86144
0.087645002 -0.025736 0.86334002
0.08929 -0.02579 0.86513001
-0.043802999 -0.024324 0.86514997
-0.042337999 -0.024323 0.86510998
-0.040872 -0.024320001 0.86501998
-0.039400999 -0.024315 0.86483997
-0.037926 -0.024307 0.86453998
-0.036456 -0.024301 0.86435002
-0.034977999 -0.024289001 0.86391997
-0.033498 -0.024274999 0.86342001
-0.03201 -0.024254 0.86265999
-0.030523 -0.024231 0.86185998
-0.029038999 -0.024209 0.86105001
-0.027550001 -0.024180001 0.86003
-0.026068 -0.024154 0.85908997
-0.024589 -0.024126999 0.85813999
-0.02311 -0.024098 0.85711002
-0.021632999 -0.024067 0.85600001
-0.020145999 -0.024018999 0.85430002
-0.018606 -0.023895999 0.84995002
-0.016976001 -0.025052 0.84037
-0.017082 -0.023774 0.84561002
-0.012536 -0.023297001 0.82862997
-0.0111 -0.023223 0.82599002
-0.0096741999 -0.023153 0.82349002
-0.0082729999 -0.023127001 0.82258999
-0.0068739001 -0.023099 0.82157999
-0.0054787998 -0.023073001 0.82066
-0.0040890002 -0.023058999 0.82015002
-0.0027039 -0.023071 0.82058001
-0.0013177 -0.023091 0.82128
7.0766e-05 -0.023122 0.82242
0.0014637 -0.023164 0.82389998
0.0028625999 -0.023212999 0.82562
0.0042637 -0.023242 0.82665998
0.0056670001 -0.023265 0.82749999
0.0070719998 -0.023285 0.82822001
0.008475 -0.023294 0.82849997
0.0098727001 -0.023287 0.82826
0.011268 -0.023277 0.82792002
0.012666 -0.023274001 0.82780999
0.014067 -0.023275999 0.82788998
0.015473 -0.023286 0.82823002
0.016884999 -0.023302 0.82880998
0.018299 -0.023318 0.82937998
0.019710001 -0.023329001 0.82977998
0.021127 -0.023344999 0.83032
0.022538001 -0.023352001 0.83058
0.023948999 -0.023359001 0.83083999
0.025365001 -0.02337 0.83121002
0.026787 -0.023383999 0.83174002
0.028221 -0.023406999 0.83256
0.029665001 -0.023436001 0.83357
0.031122999 -0.023473 0.83490002
0.032573 -0.023500999 0.83587998
0.034024999 -0.023528 0.83683002
0.035452999 -0.023536 0.83714002
0.036885001 -0.023546999 0.83753002
0.038307998 -0.023551 0.83767003
0.039746001 -0.023564 0.83814001
0.041187 -0.023577999 0.83863002
0.042645998 -0.023600999 0.83943999
0.044128999 -0.023635 0.84065998
0.045618001 -0.023670999 0.84192002
0.047104999 -0.023701999 0.84305
0.048604999 -0.023739001 0.84434998
0.050108999 -0.023776 0.84565002
0.051596999 -0.023801999 0.8466
0.053111002 -0.023840001 0.84793001
0.054620001 -0.023872999 0.84909999
0.056116998 -0.023899 0.85003
0.057604998 -0.02392 0.85078001
0.059092999 -0.023940001 0.85150999
0.060541 -0.023943 0.85162002
0.061981998 -0.023944 0.85162997
0.063400999 -0.023936 0.85136002
0.064813003 -0.023925999 0.85101002
0.06622 -0.023915 0.85058999
0.067633003 -0.023906 0.85027999
0.069063 -0.023902999 0.85018998
0.070518002 -0.023909001 0.85040998
0.072005004 -0.023925999 0.85099
0.073496997 -0.023943 0.85161
0.075034 -0.023974 0.85271001
0.076567002 -0.024003001 0.85373002
0.078094997 -0.024029 0.85465997
0.079626001 -0.024055 0.85557997
0.081197999 -0.024092 0.85690999
0.082787998 -0.024133001 0.85838002
0.084435001 -0.024188999 0.86036998
0.086090997 -0.024246 0.86238998
0.087754004 -0.024303 0.86440998
0.089777999 -0.024456 0.86987001
-0.042358998 -0.022867 0.86553001
-0.040890001 -0.022864001 0.86541998
-0.039418999 -0.022859 0.86523002
-0.037944 -0.022852 0.86495
-0.036478002 -0.022849999 0.86486
-0.035002001 -0.022840001 0.86451
-0.033523999 -0.022829 0.86409003
-0.032037999 -0.022812 0.86343002
-0.030551 -0.022791 0.86264002
-0.029060001 -0.022764999 0.86167002
-0.027566999 -0.022736 0.86053997
-0.026079001 -0.022706 0.85943002
-0.024596 -0.022678999 0.85839999
-0.023115 -0.02265 0.85729998
-0.021640001 -0.022623001 0.85627002
-0.020176001 -0.022604 0.85557002
-0.018662 -0.022523001 0.85250998
-0.017158 -0.022441 0.84939998
-0.015539 -0.023603 0.83951002
-0.015636001 -0.022318 0.84472001
-0.012628 -0.022053 0.83472002
-0.011179 -0.021977 0.83183998
-0.0097412001 -0.021907 0.82919002
-0.0083291 -0.021880001 0.82817
-0.0069211 -0.021855 0.82721001
-0.0055160001 -0.021829 0.82621998
-0.0041165999 -0.021815 0.82569999
-0.0027218999 -0.021824 0.82606
-0.0013262 -0.021838 0.82656002
7.1217e-05 -0.021861 0.82744998
0.0014721 -0.021892 0.82862997
0.0028774 -0.021926001 0.82990003
0.0042829998 -0.021939 0.83039999
0.0056888 -0.021947 0.83069003
0.0070941001 -0.021950001 0.8308
0.0084969997 -0.021946 0.83064997
0.0098935999 -0.021929 0.83001
0.011288 -0.021911999 0.82937002
0.012687 -0.021907 0.82918
0.01409 -0.021909 0.82925999
0.015498 -0.021917 0.82954001
0.016911 -0.021931 0.83011001
0.018327 -0.021946 0.83065999
0.019741001 -0.021957001 0.83105999
0.021159999 -0.021971 0.83161002
0.022577001 -0.021981999 0.83203
0.023995999 -0.021993 0.83244002
0.025420001 -0.022008 0.833
0.026848 -0.022024 0.83362001
0.028286999 -0.022048 0.83451003
0.029731 -0.022072 0.83543998
0.031184001 -0.022101 0.83652002
0.032627001 -0.022120001 0.83726001
0.034067001 -0.022136999 0.83788002
0.035487 -0.022139 0.83796
0.036910001 -0.022143001 0.83810002
0.038330998 -0.022144999 0.83818001
0.039765999 -0.022155 0.83858001
0.041216001 -0.022172 0.83921999
0.042679999 -0.022196 0.84012997
0.044158 -0.022225 0.84121001
0.045646001 -0.022257 0.84243
0.047130998 -0.022286 0.84351999
0.048622999 -0.022315999 0.84465998
0.050128002 -0.022351 0.84596997
0.051631 -0.022382 0.84715998
0.053153001 -0.02242 0.84859997
0.054669 -0.022453999 0.84987003
0.056169 -0.022479 0.85083002
0.057652999 -0.022496 0.85149002
0.059137002 -0.022514001 0.85214001
0.06058 -0.022514001 0.85216999
0.062020998 -0.022514001 0.85216999
0.063447997 -0.022508999 0.85198998
0.064865999 -0.022502 0.85170001
0.066279002 -0.022492999 0.85136002
0.067699 -0.022485999 0.85110998
0.069130003 -0.022484001 0.85101998
0.070580997 -0.022488 0.85117
0.072054997 -0.022499001 0.85158002
0.073540002 -0.022513 0.85210001
0.075061999 -0.022537 0.85303003
0.076587997 -0.022562001 0.85396999
0.078125 -0.022589 0.85497999
0.079672001 -0.022617999 0.85608
0.081262998 -0.022658 0.85759002
0.082863003 -0.022699 0.85914999
0.084527999 -0.022755999 0.86132002
0.086186998 -0.022810001 0.86334997
0.08822 -0.022958999 0.86900002
-0.040909 -0.021407001 0.86580998
-0.039439999 -0.021404 0.86570001
-0.037967999 -0.021399001 0.86549002
-0.036501002 -0.021397 0.86540002
-0.035025999 -0.02139 0.86510998
-0.033544 -0.021377999 0.86461997
-0.032060999 -0.021362999 0.86404002
-0.030575 -0.021345999 0.86334002
-0.029083 -0.021322001 0.86237001
-0.027587 -0.021291999 0.86116999
-0.026094001 -0.021261999 0.85996002
-0.024607999 -0.021235 0.85883999
-0.023124 -0.021205001 0.85764003
-0.021648999 -0.02118 0.85662001
-0.020182 -0.021159999 0.85584003
-0.018695001 -0.021114999 0.85399997
-0.017213 -0.021067999 0.85207999
-0.015707999 -0.020981999 0.84863001
-0.014125 -0.022188 0.83982998
-0.014211 -0.020889999 0.84490001
-0.012722 -0.020792 0.84091997
-0.01126 -0.020717001 0.83789998
-0.0098104998 -0.020648001 0.8351
-0.0083878003 -0.020621 0.83399999
-0.0069698002 -0.020597 0.83304
-0.0055549 -0.020571999 0.83205003
-0.0041453 -0.020558 0.83147001
-0.0027405 -0.020563999 0.83170998
-0.0013349 -0.020571001 0.83197999
7.1633003e-05 -0.020582 0.83244997
0.0014804 -0.020602999 0.83328003
0.0028911999 -0.020617999 0.83388001
0.0043004998 -0.020615 0.83379
0.0057084998 -0.020609999 0.83357
0.0071136998 -0.020599 0.83310997
0.0085159997 -0.020584 0.83250999
0.0099152997 -0.020567 0.83183002
0.011313 -0.020551 0.83117002
0.012714 -0.020544 0.83091003
0.01412 -0.020546 0.83099997
0.015528 -0.020551 0.83118999
0.016942 -0.020561 0.83160001
0.018356999 -0.020571001 0.83200002
0.019771 -0.020578999 0.83231997
0.021190001 -0.020591 0.83279002
0.022611 -0.020602999 0.83328998
0.024034999 -0.020616001 0.83380997
0.025462 -0.02063 0.83437997
0.026896 -0.020648001 0.8351
0.028334999 -0.020668 0.83591002
0.029774999 -0.020686001 0.83666003
0.03122 -0.020707 0.83749002
0.032658 -0.020721 0.83805001
0.034090001 -0.02073 0.83842999
0.035507001 -0.02073 0.83842999
0.036928002 -0.020732 0.83850002
0.038352001 -0.020736 0.83864999
0.039788999 -0.020746 0.83906001
0.041248001 -0.020765999 0.83987999
0.042716 -0.020788999 0.84082001
0.044190001 -0.020814 0.84182
0.045674998 -0.020842001 0.84296
0.047162 -0.020869 0.84407002
0.04865 -0.020896001 0.84513998
0.050166 -0.020932 0.84662002
0.051686 -0.020967999 0.84806001
0.05322 -0.021008 0.84965998
0.054738998 -0.02104 0.85095
0.05624 -0.021063 0.85189998
0.057714999 -0.021075999 0.85241002
0.059188999 -0.021087 0.85288
0.060626 -0.021086 0.85281998
0.062068 -0.021086 0.85281998
0.063496999 -0.021082001 0.85264999
0.064924002 -0.021077 0.85246003
0.066344 -0.02107 0.85219002
0.067764997 -0.021064 0.85193998
0.069197997 -0.021062 0.85184997
0.070651002 -0.021066001 0.85201001
0.072118998 -0.021074001 0.85233998
0.073599003 -0.021085 0.85277998
0.075112998 -0.021105001 0.85360998
0.076638997 -0.021128001 0.85453999
0.078178003 -0.021153999 0.85557002
0.079736002 -0.021183001 0.85676003
0.081336997 -0.021222999 0.85838002
0.082947999 -0.021264 0.86003
0.084622003 -0.02132 0.86227
0.086290002 -0.021372 0.86438
-0.039453998 -0.019943999 0.866
-0.037983 -0.01994 0.86584997
-0.036516 -0.019938 0.86576998
-0.035045002 -0.019934 0.86558002
-0.033565 -0.019924 0.86515999
-0.032086998 -0.019915 0.86473
-0.030603001 -0.0199 0.86410999
-0.02911 -0.019878 0.86316001
-0.027612001 -0.019850001 0.86194003
-0.026113 -0.019819001 0.86056
-0.024621001 -0.019788999 0.85926998
-0.023133 -0.019758999 0.85798001
-0.021656999 -0.019734999 0.85694999
-0.020188 -0.019715 0.85609001
-0.018726001 -0.0197 0.85540003
-0.017263001 -0.019680001 0.85456002
-0.015776001 -0.019628 0.85231
-0.014292 -0.01957 0.84974998
-0.012813 -0.019504 0.84689999
-0.011339 -0.019432999 0.84381002
-0.0098788003 -0.019366 0.8409
-0.0084445998 -0.019337 0.83964998
-0.0070163999 -0.019313 0.83860999
-0.0055916999 -0.019289 0.83754998
-0.0041725002 -0.019274 0.83692002
-0.0027582 -0.019277001 0.83706999
-0.0013433 -0.019281 0.83722001
7.2039998e-05 -0.019284001 0.83732998
0.0014878 -0.019285999 0.83743
0.002903 -0.019283 0.83728999
0.0043146 -0.019265 0.83653998
0.0057227998 -0.019245001 0.83565998
0.0071275001 -0.019223001 0.83472002
0.0085317995 -0.019207999 0.83406001
0.0099336002 -0.019192001 0.83336997
0.011333 -0.019175 0.83262998
0.012735 -0.019167 0.83228999
0.014142 -0.019168001 0.83230001
0.015551 -0.019169999 0.83240998
0.016964 -0.019176001 0.83266997
0.018379999 -0.019184999 0.83304
0.019795001 -0.019192001 0.83335
0.021214001 -0.019200999 0.83376002
0.022639999 -0.019215001 0.83433002
0.024067 -0.019228 0.83491999
0.025496 -0.019241 0.8355
0.026931999 -0.019258 0.83622003
0.02837 -0.019275 0.83693999
0.029805999 -0.019288 0.83753997
0.031243 -0.019300999 0.83811003
0.032678001 -0.019312 0.83858001
0.034102 -0.019316001 0.83872998
0.035519999 -0.019316001 0.83872998
0.036940999 -0.019316999 0.83880001
0.038369998 -0.019323001 0.83903003
0.039808001 -0.019331999 0.83945
0.041271001 -0.019353 0.84034997
0.042741001 -0.019375 0.84131002
0.044213001 -0.019397 0.84226
0.045697 -0.019423001 0.84337002
0.047185 -0.019447999 0.84447998
0.048684001 -0.019477 0.84571999
0.050207999 -0.019514 0.84732002
0.051743999 -0.019553 0.84902
0.053284999 -0.019591 0.85070002
0.054804001 -0.019621 0.85196
0.056301001 -0.019640001 0.85281003
0.057776 -0.019650999 0.85329998
0.059239 -0.019657999 0.85360998
0.060672 -0.019655 0.85346001
0.062109001 -0.019653 0.85338002
0.063533001 -0.019647 0.85314
0.064956002 -0.019641999 0.85288
0.066379003 -0.019636 0.85263002
0.067813002 -0.019633999 0.85255003
0.069254003 -0.019633999 0.85255003
0.070716001 -0.019640001 0.85279
0.072186001 -0.019647 0.85312003
0.073670998 -0.019659 0.85363001
0.075173996 -0.019673999 0.85430002
0.076701999 -0.019695999 0.85522997
0.078249 -0.019721 0.85633999
0.079824001 -0.019753 0.85772002
0.081436999 -0.019792 0.85943002
0.083351001 -0.019903 0.86421001
0.085336998 -0.020026 0.86956
-0.041189 -0.018598 0.87175
-0.039459001 -0.018478001 0.86611998
-0.037996002 -0.018479001 0.86612999
-0.036534 -0.018479999 0.86619002
-0.035069 -0.018479999 0.86618
-0.033594999 -0.018474 0.86593002
-0.032120999 -0.018469 0.86567003
-0.030639 -0.018456999 0.86513001
-0.029145001 -0.018437 0.86418998
-0.027643001 -0.018409999 0.86290002
-0.026139 -0.018378001 0.86141998
-0.024639999 -0.018346 0.85992002
-0.023147 -0.018315 0.85847002
-0.021664999 -0.01829 0.85728002
-0.020194 -0.018270001 0.85633999
-0.018731 -0.018254999 0.85566002
-0.017268 -0.018237 0.85483003
-0.015799001 -0.018209999 0.85352999
-0.01433 -0.018177001 0.85198998
-0.012861 -0.018136 0.85009003
-0.011396 -0.018092999 0.84805
-0.0099393995 -0.01805 0.84605998
-0.0084956 -0.018022001 0.84472001
-0.0070592002 -0.018000999 0.84372997
-0.0056265001 -0.01798 0.84277999
-0.0041981 -0.017965 0.84204
-0.0027721 -0.017949 0.84129
-0.0013487 -0.017932 0.84052998
7.2228002e-05 -0.017913001 0.83964002
0.0014901001 -0.017895 0.83876002
0.002905 -0.017875001 0.83785999
0.0043179002 -0.017860999 0.83718002
0.0057283002 -0.017845999 0.83647001
0.0071358001 -0.017828999 0.83569998
0.0085434997 -0.017819 0.83520001
0.0099475002 -0.017804001 0.83453
0.011349 -0.017790001 0.83388001
0.012753 -0.017782001 0.83346999
0.014162 -0.017781001 0.83345997
0.015571 -0.017782001 0.83348
0.016984001 -0.017786 0.83364999
0.0184 -0.017792 0.83394998
0.019817 -0.017797999 0.83424997
0.021237001 -0.017806999 0.83465999
0.022663999 -0.017819 0.83524001
0.024095001 -0.017833 0.83589
0.025525 -0.017844999 0.83645999
0.02696 -0.017859001 0.83709002
0.028394001 -0.017871 0.83766001
0.029828001 -0.017882001 0.83815998
0.031261001 -0.017890999 0.83858001
0.032694001 -0.017898999 0.83897001
0.034118 -0.017902 0.83911997
0.035537001 -0.017902 0.83912998
0.036959 -0.017904 0.83920002
0.038391002 -0.01791 0.83950001
0.039834 -0.017921001 0.83999002
0.041303001 -0.017942 0.84099001
0.042776 -0.017964 0.84201002
0.044248998 -0.017983999 0.84294999
0.045738 -0.018009 0.84412998
0.047233 -0.018035 0.84535003
0.048741002 -0.018064 0.84671998
0.050275002 -0.018100999 0.84843999
0.051821999 -0.018141 0.85030001
0.05336 -0.018175 0.85191
0.054876 -0.018200001 0.85307997
0.056363001 -0.018215001 0.85376
0.057827 -0.018221 0.85407001
0.059280001 -0.018224001 0.85420001
0.060708001 -0.018219 0.85395998
0.062144998 -0.018216999 0.85386997
0.063575998 -0.018213 0.85371
0.065006003 -0.018209999 0.85354
0.066436 -0.018206 0.85337001
0.067878999 -0.018206 0.85337001
0.069323003 -0.018207001 0.85338998
0.070793003 -0.018214 0.85371
0.072264999 -0.018221 0.85405999
0.073760003 -0.018234 0.85465002
0.075263999 -0.018247999 0.85532999
0.076800004 -0.018269001 0.85632998
0.078350998 -0.018293001 0.85746002
0.079937004 -0.018324999 0.85891998
0.081840999 -0.018426999 0.86369002
0.084094003 -0.018602001 0.87191999
-0.039636999 -0.017086999 0.87001997
-0.038003001 -0.017014001 0.86629999
-0.036548 -0.017018 0.86651999
-0.035092998 -0.017023001 0.86677003
-0.033626001 -0.017022001 0.86672002
-0.032163002 -0.017023001 0.86679
-0.030681999 -0.017015001 0.86636001
-0.029184001 -0.016995 0.86533999
-0.027675999 -0.016968001 0.86395001
-0.02617 -0.016938001 0.86243999
-0.024661999 -0.016903 0.86069
-0.023165001 -0.016873 0.85913998
-0.021679999 -0.016848 0.85786003
-0.020206001 -0.016828001 0.85685003
-0.018741 -0.016813001 0.85608
-0.017277 -0.016797001 0.85526001
-0.01581 -0.016774001 0.85412002
-0.014342 -0.016745999 0.85268003
-0.012873 -0.016711 0.85087001
-0.011409 -0.016674001 0.84898001
-0.0099510001 -0.016635999 0.84706002
-0.0085046999 -0.016608 0.84562999
-0.0070666 -0.016588001 0.84460998
-0.0056317002 -0.016566999 0.84355998
-0.0042011002 -0.016549001 0.84266001
-0.0027737999 -0.016533 0.84182
-0.0013495 -0.016518001 0.84108001
7.2296003e-05 -0.016501 0.84021002
0.0014912999 -0.016486 0.83941001
0.0029072 -0.016468 0.83850002
0.0043215002 -0.016455 0.83787
0.0057330001 -0.016441001 0.83714998
0.0071423999 -0.016427999 0.83647001
0.0085525 -0.016419999 0.83607
0.0099600004 -0.016410001 0.83557999
0.011365 -0.016399 0.83500999
0.012771 -0.016392 0.83467001
0.014181 -0.016391 0.83458
0.015589 -0.016388001 0.83445001
0.017002 -0.01639 0.83453
0.018417001 -0.016394001 0.83475
0.019835999 -0.0164 0.83506
0.021258 -0.016409 0.83548999
0.022689 -0.016421 0.83613998
0.024119001 -0.016433001 0.83670998
0.025548 -0.016442001 0.83718997
0.02698 -0.016453 0.83772999
0.028410999 -0.016461 0.83815002
0.029843001 -0.016469 0.83858001
0.031275999 -0.016477 0.83898997
0.032710001 -0.016485 0.83938003
0.034132 -0.016487001 0.83947003
0.035555001 -0.016488001 0.83955997
0.036981001 -0.016491 0.83969998
0.038415 -0.016496999 0.84002
0.039859001 -0.016507 0.84052002
0.041328002 -0.016527001 0.84149998
0.042801999 -0.016546 0.84250998
0.044278 -0.016566001 0.84350002
0.045777999 -0.016593 0.84486997
0.047288999 -0.016621999 0.84635001
0.048813999 -0.016654 0.84798002
0.050359 -0.016690999 0.84987003
0.051910002 -0.016728001 0.85174
0.053449001 -0.016759001 0.85333002
0.054967999 -0.016782001 0.85451001
0.056457002 -0.016795 0.85518003
0.057929002 -0.016803 0.85557002
0.059385002 -0.016806001 0.85571003
0.060814001 -0.016801 0.85545999
0.062236 -0.016794 0.85513002
0.063656002 -0.016787 0.85478002
0.065075003 -0.016781 0.85443997
0.066500001 -0.016775999 0.85420001
0.067945004 -0.016775999 0.85420001
0.069403 -0.01678 0.85438001
0.070882998 -0.016788 0.85481
0.072365001 -0.016796 0.85523999
0.073868997 -0.01681 0.85591
0.075375997 -0.016822999 0.85659999
0.076916002 -0.016843 0.85762
0.078468002 -0.016865 0.85873997
0.080055997 -0.016894 0.86019999
0.082276002 -0.017053001 0.86829001
-0.039788999 -0.015672 0.87335002
-0.038006 -0.015546 0.86637002
-0.036561999 -0.015555 0.86685002
-0.035117999 -0.015565 0.86738998
-0.033659998 -0.015569 0.86760998
-0.032203 -0.015573 0.86786997
-0.030727001 -0.015569 0.86760998
-0.029228 -0.015552 0.86667001
-0.027716 -0.015525 0.86519003
-0.026203999 -0.015496 0.86357999
-0.024689 -0.015462 0.86164999
-0.023188001 -0.015432 0.86001003
-0.021698 -0.015406 0.85856003
-0.020222001 -0.015388 0.85753
-0.018755 -0.015374 0.85675001
-0.017292 -0.01536 0.85601002
-0.015825 -0.015341 0.85494
-0.014357 -0.015317 0.85360003
-0.012887 -0.015285 0.85180002
-0.011422 -0.015253 0.84999001
-0.0099630002 -0.015218 0.84807998
-0.0085143 -0.015191 0.84658003
-0.0070739002 -0.015172 0.84548002
-0.0056373002 -0.015152 0.84439999
-0.0042049 -0.015134 0.8434
-0.0027762 -0.015119 0.84255999
-0.0013507 -0.015106 0.84180999
7.2338997e-05 -0.01509 0.84094
0.0014924 -0.015074 0.84006
0.0029092 -0.015056 0.83907002
0.0043239999 -0.015044 0.83836001
0.0057362998 -0.015031 0.83762002
0.0071470998 -0.01502 0.83701998
0.0085589001 -0.015014 0.83670002
0.0099694002 -0.015008 0.83636999
0.011378 -0.015001 0.83595997
0.012786 -0.014995 0.83561999
0.014197 -0.014993 0.83554
0.015607 -0.01499 0.83538997
0.017019 -0.014991 0.83538997
0.018436 -0.014994 0.83560997
0.019857001 -0.015 0.83592999
0.021281 -0.015008 0.83636999
0.022713 -0.01502 0.83702999
0.024142001 -0.015029 0.83753997
0.02557 -0.015036 0.83793002
0.027001999 -0.015044 0.83840001
0.02843 -0.01505 0.83872998
0.029860999 -0.015057 0.83907998
0.031295002 -0.015064 0.83949
0.032729 -0.015071 0.83989
0.034155998 -0.015074 0.84006
0.035583001 -0.015077 0.84022999
0.037014 -0.015081 0.84046
0.038456 -0.01509 0.84091997
0.039905 -0.0151 0.84149998
0.041373 -0.015117 0.84241998
0.042851999 -0.015136 0.84350002
0.044342 -0.015158 0.84473002
0.045850001 -0.015184 0.84619999
0.047366001 -0.015212 0.84772003
0.048902001 -0.015244 0.84952003
0.050448999 -0.015277 0.85137999
0.052005 -0.015312 0.85329998
0.053553998 -0.015342 0.85500002
0.055087 -0.015367 0.85636002
0.056591 -0.015382 0.85721999
0.058077998 -0.015392 0.85777998
0.059528001 -0.015392 0.85777003
0.060954999 -0.015386 0.85743999
0.062367 -0.015377 0.85693997
0.063771002 -0.015366 0.85632998
0.065173 -0.015355 0.85573
0.066586003 -0.015348 0.85530001
0.068019003 -0.015345 0.85513997
0.069480002 -0.015348 0.85531998
0.070968002 -0.015357 0.85583001
0.072466001 -0.015368 0.85644001
0.073981002 -0.015382 0.85720998
0.075503998 -0.015397 0.85806
0.077046998 -0.015416 0.85908002
0.078601003 -0.015436 0.86019999
0.080177002 -0.015459 0.86150998
0.082415998 -0.015607 0.86975998
-0.039923999 -0.01424 0.87633002
-0.038013998 -0.014081 0.86654001
-0.036587 -0.014095 0.86745
-0.035156999 -0.01411 0.86835003
-0.033714999 -0.014121 0.86901999
-0.032267999 -0.01413 0.86962003
-0.030786 -0.014125 0.86927003
-0.029278999 -0.014107 0.86816001
-0.027760001 -0.014081 0.86657
-0.026244 -0.014054 0.86488003
-0.024722001 -0.01402 0.86281002
-0.023217 -0.013992 0.86106998
-0.021722 -0.013967 0.85952002
-0.02024 -0.013947 0.85830998
-0.018769 -0.013931 0.85737002
-0.017304 -0.013919 0.85661
-0.015838001 -0.013903 0.85562998
-0.014371 -0.013884 0.85444999
-0.012902 -0.013858 0.85281998
-0.011437 -0.01383 0.85110003
-0.0099767996 -0.0138 0.84925002
-0.0085260998 -0.013775 0.84776002
-0.0070831999 -0.013756 0.84658998
-0.0056443 -0.013738 0.84544998
-0.0042099999 -0.013721 0.84443003
-0.0027796 -0.013707 0.84356999
-0.0013522001 -0.013694 0.84274
7.2424999e-05 -0.013679 0.84184998
0.0014941 -0.013665 0.84096003
0.0029120001 -0.013647 0.83989
0.0043274001 -0.013633 0.83903003
0.0057402998 -0.01362 0.83819997
0.007152 -0.01361 0.83758998
0.0085647004 -0.013605 0.83727002
0.0099761998 -0.0136 0.83693999
0.011386 -0.013594 0.83660001
0.012797 -0.01359 0.83635002
0.01421 -0.013589 0.83627999
0.015621 -0.013586 0.83613002
0.017036 -0.013588 0.8362
0.018454 -0.013591 0.83640999
0.019876 -0.013596 0.83674002
0.021299999 -0.013602 0.83710003
0.022732999 -0.013613 0.83776999
0.024163 -0.013621 0.83827001
0.025593 -0.013628 0.83867002
0.027026 -0.013635 0.83914
0.028455 -0.013641 0.83947003
0.029887 -0.013646 0.83981001
0.031321 -0.013653 0.84020001
0.032760002 -0.01366 0.84068
0.034189001 -0.013663 0.84087998
0.035625 -0.013669 0.84119999
0.03706 -0.013674 0.84151
0.038508002 -0.013683 0.84206003
0.039960001 -0.013693 0.84267002
0.041434001 -0.013709 0.84366
0.042923 -0.013729 0.84491003
0.044426002 -0.013752 0.84631997
0.045942999 -0.013778 0.84790999
0.047462001 -0.013803 0.84944999
0.048999999 -0.013831 0.85121
0.050542999 -0.01386 0.85297
0.052103002 -0.013891 0.8549
0.053656001 -0.013919 0.85662001
0.055204999 -0.013945 0.85819
0.056724999 -0.013962 0.85924
0.058223002 -0.013973 0.85992002
0.059672002 -0.013972 0.85984999
0.061101999 -0.013966 0.85951
0.062504001 -0.013955 0.85881001
0.063896 -0.013942 0.85800999
0.065284997 -0.013929 0.85720003
0.066693 -0.01392 0.85667002
0.068121001 -0.013916 0.85641003
0.069582999 -0.013919 0.85658997
0.071074001 -0.013927 0.85711002
0.072581999 -0.013939 0.85781002
0.074106999 -0.013953 0.85867
0.075635001 -0.013967 0.85953999
0.077179 -0.013983 0.86056
0.078736 -0.014001 0.86167002
0.080305003 -0.014021 0.86287999
0.082529999 -0.014152 0.87097001
-0.038419999 -0.012747 0.87581003
-0.036855999 -0.012718 0.87383002
-0.035315 -0.012695 0.87225997
-0.033776999 -0.012671 0.87063003
-0.032331001 -0.012681 0.87131
-0.030844999 -0.012676 0.87094003
-0.029333999 -0.012659 0.86980999
-0.027813001 -0.012636 0.86821997
-0.026294 -0.012611 0.86651999
-0.024769001 -0.012581 0.86444002
-0.023258001 -0.012554 0.86260998
-0.021755001 -0.012528 0.86080998
-0.020265 -0.012507 0.85934001
-0.018786 -0.012489 0.85812998
-0.017317999 -0.012477 0.85728002
-0.015849 -0.012462 0.85623997
-0.014383 -0.012446 0.85513997
-0.012915 -0.012425 0.85369003
-0.011451 -0.012402 0.85211003
-0.0099895997 -0.012376 0.85034001
-0.0085378001 -0.012355 0.84891999
-0.0070930002 -0.012338 0.84776002
-0.0056522 -0.012322 0.84662002
-0.0042154999 -0.012306 0.84553999
-0.002783 -0.012292 0.84460998
-0.0013536999 -0.012279 0.84368998
7.2515002e-05 -0.012267 0.84285998
0.0014957 -0.012253 0.84188998
0.0029152001 -0.012237 0.84079999
0.0043321 -0.012224 0.83993
0.0057458999 -0.012211 0.83903003
0.0071577001 -0.0122 0.83824998
0.0085714003 -0.012195 0.83792001
0.0099839 -0.01219 0.83758003
0.011395 -0.012185 0.83726001
0.012808 -0.012183 0.83709002
0.014223 -0.012183 0.83709002
0.015636001 -0.012181 0.83696002
0.017052 -0.012182 0.83702999
0.018471001 -0.012184 0.83717
0.019892 -0.012188 0.83741999
0.021315999 -0.012193 0.83776999
0.022752 -0.012203 0.83849001
0.024186 -0.012212 0.83906001
0.02562 -0.012219 0.83955997
0.027057 -0.012227 0.84011
0.028488001 -0.012232 0.84043998
0.029918 -0.012235 0.84069997
0.031351998 -0.01224 0.84101999
0.032791998 -0.012247 0.84149998
0.034226 -0.012251 0.84176999
0.035666998 -0.012257 0.84219003
0.037105002 -0.012262 0.84252
0.038557999 -0.012271 0.84315002
0.040022001 -0.012283 0.84397
0.041506998 -0.0123 0.84514999
0.043009002 -0.012321 0.84658998
0.044523999 -0.012344 0.84818
0.046048999 -0.012369 0.84987003
0.047561999 -0.012389 0.85123998
0.049091998 -0.012412 0.85281998
0.050636999 -0.012437 0.85456002
0.052200999 -0.012466 0.85652
0.05376 -0.012492 0.85829002
0.055319998 -0.012516 0.85997999
0.056848001 -0.012533 0.86110997
0.058345001 -0.012541 0.86171001
0.05979 -0.012539 0.86154997
0.061221998 -0.012534 0.86119998
0.062624998 -0.012523 0.86048001
0.064014003 -0.01251 0.85958999
0.065404996 -0.012499 0.85877001
0.066818997 -0.012492 0.85829997
0.068236999 -0.012486 0.85788
0.069695003 -0.012487 0.85797
0.071193002 -0.012495 0.85855001
0.072705001 -0.012506 0.85926002
0.074234001 -0.012518 0.86014003
0.075778998 -0.012534 0.86118001
0.077326 -0.012548 0.86220002
0.078878 -0.012563 0.86322999
0.080434002 -0.012579 0.86426997
-0.035597999 -0.011306 0.87924999
-0.033938002 -0.011249 0.87476999
-0.032396998 -0.011227 0.87309003
-0.030901 -0.01122 0.87254
-0.029385 -0.011204 0.87131
-0.027864 -0.011185 0.86979997
-0.026343999 -0.011164 0.86817998
-0.024819 -0.011138 0.86618
-0.023306999 -0.011115 0.86442
-0.0218 -0.011092 0.86259001
-0.020300999 -0.01107 0.86085999
-0.018815 -0.011052 0.85947001
-0.017339 -0.011037 0.85835999
-0.015867 -0.011023 0.85720998
-0.014398 -0.011008 0.85606003
-0.012931 -0.01099 0.85469002
-0.011466 -0.010971 0.85320997
-0.010003 -0.010949 0.85150999
-0.0085493997 -0.010931 0.85008001
-0.0071020001 -0.010915 0.84884
-0.0056592999 -0.0109 0.84768999
-0.0042205001 -0.010885 0.84653002
-0.0027862999 -0.010873 0.84559
-0.0013551 -0.010861 0.84460002
7.2593e-05 -0.010851 0.84385997
0.0014974 -0.010839 0.84289002
0.0029187 -0.010825 0.84182
0.0043373001 -0.010813 0.84092999
0.0057525998 -0.010802 0.84000999
0.0071652001 -0.01079 0.83914
0.0085789002 -0.010784 0.83866
0.0099927001 -0.01078 0.83832002
0.011406 -0.010777 0.83806998
0.012822 -0.010775 0.83797997
0.014239 -0.010776 0.838
0.015656 -0.010776 0.83801001
0.017076001 -0.010778 0.83815998
0.018494001 -0.010779 0.83824003
0.019915 -0.010781 0.83840001
0.021338999 -0.010784 0.83864999
0.022774 -0.010792 0.83928001
0.024207 -0.010799 0.83978999
0.025643 -0.010805 0.84030998
0.027082 -0.010813 0.84087998
0.028515 -0.010817 0.84121001
0.029945999 -0.01082 0.84145999
0.031380001 -0.010824 0.84176999
0.032825001 -0.010831 0.84232998
0.034263 -0.010836 0.84268999
0.035712998 -0.010844 0.84328002
0.037159 -0.01085 0.84376001
0.038621999 -0.01086 0.84456003
0.040096998 -0.010873 0.84553999
0.041590001 -0.010889 0.84683001
0.043099001 -0.010909 0.84836
0.044617999 -0.01093 0.84998
0.046137001 -0.010949 0.85149997
0.047642998 -0.010965 0.85268003
0.049175002 -0.010985 0.85425001
0.050723001 -0.011007 0.85601002
0.052296001 -0.011034 0.85808003
0.053869002 -0.011059 0.86003
0.055435002 -0.011081 0.86177999
0.056965001 -0.011096 0.86287999
0.058462001 -0.011103 0.86344999
0.059905 -0.0111 0.86320001
0.061333001 -0.011094 0.86276001
0.062734 -0.011084 0.86197001
0.064120002 -0.011072 0.86101002
0.065508999 -0.01106 0.86014003
0.066922002 -0.011054 0.85961002
0.068342 -0.011048 0.8592
0.069801003 -0.011049 0.85927999
0.071300998 -0.011057 0.85984999
0.072814003 -0.011066 0.86054999
0.074345998 -0.011077 0.86144
0.075894997 -0.011091 0.86250001
0.077445 -0.011104 0.86352003
0.078991003 -0.011116 0.86445999
0.080549002 -0.011129 0.86549997
-0.037273001 -0.011364 0.88371998
-0.035976 -0.0099197999 0.88858002
-0.034185998 -0.0098369997 0.88116002
-0.032528002 -0.0097864 0.87663001
-0.030951999 -0.0097567001 0.87396002
-0.029434999 -0.0097436002 0.87279999
-0.027912 -0.0097270999 0.87132001
-0.026393 -0.0097102001 0.86980999
-0.024871999 -0.0096906004 0.86804003
-0.023362 -0.0096725998 0.86644
-0.021849001 -0.0096514001 0.86453003
-0.020344 -0.0096310005 0.86271
-0.018850001 -0.0096131004 0.86110002
-0.017367 -0.0095974999 0.85970998
-0.015887 -0.0095817 0.85829002
-0.014415 -0.0095678 0.85705
-0.012946 -0.0095527004 0.85569
-0.011479 -0.0095364004 0.85422999
-0.010016 -0.0095175998 0.85255003
-0.0085597001 -0.0095014004 0.85110003
-0.0071096001 -0.0094863996 0.84974998
-0.0056647002 -0.0094724996 0.84851003
-0.0042244 -0.0094593996 0.84732997
-0.0027892001 -0.0094497995 0.84648001
-0.0013567 -0.0094395 0.84556001
7.2695999e-05 -0.0094315 0.84483999
0.0014992 -0.0094208 0.84388
0.0029223999 -0.0094096996 0.84289002
0.0043424 -0.0093989996 0.84192002
0.0057593998 -0.0093887001 0.84100002
0.0071743 -0.0093796998 0.84020001
0.0085904002 -0.0093751 0.83977997
0.010005 -0.0093705002 0.83937001
0.011422 -0.0093684997 0.83919001
0.012839 -0.0093676001 0.83911002
0.014258 -0.0093678003 0.83912998
0.015679 -0.0093689002 0.83923
0.017101999 -0.0093715005 0.83946002
0.018523 -0.0093722995 0.83952999
0.019943999 -0.0093730995 0.83960998
0.021367 -0.0093748998 0.83977002
0.0228 -0.0093802996 0.84025002
0.024233 -0.0093852002 0.84069002
0.025668001 -0.0093903001 0.84114999
0.027109001 -0.0093967002 0.84171999
0.028545 -0.0094012003 0.84211999
0.029978 -0.0094039002 0.84236997
0.031417001 -0.0094082998 0.84276003
0.032866001 -0.0094154999 0.8434
0.034309998 -0.0094203996 0.84385002
0.035765 -0.0094279004 0.84451997
0.037221 -0.0094352001 0.84517002
0.038694002 -0.0094458004 0.84612
0.040180001 -0.0094589004 0.84728998
0.041684002 -0.0094752004 0.84875
0.043198001 -0.0094927 0.85031998
0.044714998 -0.0095095001 0.85181999
0.046222001 -0.0095234001 0.85307002
0.047715999 -0.0095336996 0.85399002
0.049240999 -0.0095495004 0.85540003
0.050793 -0.0095694996 0.85719001
0.052375998 -0.0095937997 0.85938001
0.053952001 -0.0096158003 0.86135
0.055518001 -0.0096348999 0.86306
0.057037 -0.0096450001 0.86396998
0.058517002 -0.0096482998 0.86426002
0.059950002 -0.0096437 0.86383998
0.061372999 -0.0096378997 0.86333001
0.062781997 -0.0096300999 0.86263001
0.064181998 -0.0096214004 0.86185002
0.065586001 -0.0096137002 0.86115998
0.067009002 -0.0096089002 0.86072999
0.068438999 -0.0096054003 0.86041999
0.069899999 -0.0096062999 0.86049002
0.071395002 -0.0096116997 0.86097997
0.072903 -0.0096185999 0.86159998
0.074436001 -0.0096284999 0.86249
0.075985998 -0.0096402001 0.86352998
0.077538997 -0.0096517997 0.86457002
0.079086997 -0.0096623003 0.86552
0.080646001 -0.0096738003 0.86655003
0.082400002 -0.011182 0.8696
0.082195997 -0.0096837999 0.86743999
-0.032729 -0.0083515998 0.88204002
-0.031060999 -0.0083042998 0.87704003
-0.029471001 -0.0082742004 0.87386
-0.027957 -0.0082633998 0.87272
-0.026443999 -0.0082518002 0.87149
-0.024931001 -0.0082382997 0.87006998
-0.023419 -0.0082240999 0.86857003
-0.021903001 -0.0082061002 0.86667001
-0.020389 -0.0081864996 0.8646
-0.018886 -0.0081689004 0.86273998
-0.017394001 -0.0081527997 0.86105001
-0.015907999 -0.0081375996 0.85943002
-0.014432 -0.0081246998 0.85808003
-0.012964 -0.0081133004 0.85687
-0.011496 -0.0081003001 0.85549998
-0.01003 -0.0080843996 0.85382003
-0.0085723996 -0.0080706002 0.85236001
-0.0071187001 -0.0080561005 0.85083002
-0.0056707999 -0.0080426997 0.84941
-0.0042281998 -0.0080300001 0.84807003
-0.0027913 -0.0080211004 0.84713
-0.0013578 -0.0080124997 0.84622002
7.2793999e-05 -0.0080070999 0.84565002
0.0015008 -0.0079988996 0.84478003
0.0029261 -0.0079910001 0.84394997
0.0043478999 -0.0079819998 0.84299999
0.0057672001 -0.0079739001 0.84214002
0.0071847001 -0.0079669999 0.84141999
0.0086038997 -0.0079640001 0.84109998
0.010021 -0.0079602003 0.84069997
0.011442 -0.0079597998 0.84065998
0.012862 -0.0079589998 0.84056997
0.014282 -0.0079586003 0.84052998
0.015703 -0.0079587996 0.84056002
0.017129 -0.0079610003 0.84078002
0.018549001 -0.0079603 0.84070998
0.01997 -0.0079603 0.84070998
0.021392999 -0.0079610003 0.84078997
0.022825001 -0.0079647005 0.84118003
0.024259999 -0.0079688001 0.8416
0.025696 -0.0079728998 0.84205002
0.027138 -0.0079782996 0.84261
0.028576 -0.0079821004 0.84301001
0.030012 -0.0079851002 0.84333003
0.031452999 -0.0079891002 0.84375
0.032908 -0.0079960003 0.84447998
0.034361001 -0.0080017997 0.84508997
0.035828002 -0.0080102999 0.84599
0.037294 -0.0080182003 0.84682
0.038775001 -0.0080281999 0.84789002
0.040268 -0.0080402996 0.84916002
0.041776001 -0.0080541 0.85061997
0.043280002 -0.0080664996 0.85193002
0.044782002 -0.0080776 0.8531
0.046280999 -0.0080875997 0.85415
0.047770999 -0.0080954004 0.85497999
0.049293999 -0.0081080999 0.85632002
0.050854001 -0.0081259999 0.85821998
0.052439 -0.0081468998 0.86040998
0.054010998 -0.0081645995 0.86229002
0.055567998 -0.0081793005 0.86382997
0.057071 -0.0081853997 0.86448997
0.058536001 -0.0081858002 0.86453003
0.059967 -0.0081818001 0.86409998
0.061391 -0.0081769004 0.86357999
0.062802002 -0.0081703998 0.86290002
0.064213999 -0.0081644999 0.86228001
0.065632001 -0.0081594996 0.86175001
0.067061998 -0.0081564002 0.86141998
0.068499997 -0.0081542004 0.86119002
0.069968998 -0.0081556998 0.86135
0.071465999 -0.0081604002 0.86184001
0.072975002 -0.0081660999 0.86245
0.074509002 -0.0081745004 0.86334002
0.076059997 -0.0081844004 0.86436999
0.077615 -0.0081941998 0.86540997
0.079158001 -0.0082024997 0.86628997
0.080719002 -0.0082123997 0.86733001
0.082268998 -0.0082206996 0.86821997
-0.031239999 -0.0068568001 0.88208997
-0.029568 -0.0068152002 0.87673998
-0.02799 -0.0067921001 0.87375998
-0.026485 -0.0067849001 0.87282997
-0.024979001 -0.0067766001 0.87177002
-0.023468999 -0.0067663002 0.87044001
-0.021952 -0.0067522 0.86862999
-0.020435 -0.0067360001 0.86654001
-0.018927 -0.0067206998 0.86457998
-0.017426001 -0.0067055998 0.86264002
-0.015934 -0.0066915001 0.86082
-0.014453 -0.0066795 0.85927999
-0.01298 -0.0066694999 0.85799003
-0.011513 -0.0066594998 0.85671002
-0.010046 -0.0066471002 0.85510999
-0.0085853003 -0.0066356999 0.85364002
-0.0071279998 -0.0066224998 0.85194999
-0.0056774998 -0.0066105998 0.85042
-0.0042320001 -0.0065982998 0.84884
-0.0027933 -0.0065897 0.84772998
-0.0013587 -0.0065827002 0.84682
7.2843002e-05 -0.0065787998 0.84632999
0.001502 -0.0065720999 0.84547001
0.002929 -0.0065668002 0.84478003
0.0043531 -0.0065607 0.84399003
0.0057747001 -0.0065548001 0.84323001
0.0071947998 -0.0065498999 0.84259999
0.0086169001 -0.0065481002 0.84236997
0.010037 -0.0065456 0.84206003
0.01146 -0.0065453998 0.84202999
0.012882 -0.0065446999 0.84192997
0.014305 -0.0065441998 0.84188002
0.015728001 -0.0065442999 0.84188998
0.017153 -0.0065449001 0.84197003
0.018572999 -0.0065437001 0.84180999
0.019994 -0.0065430999 0.84173
0.021416999 -0.0065430002 0.84171999
0.022846 -0.0065449001 0.84196001
0.024279 -0.0065474999 0.84228998
0.025714001 -0.0065501002 0.84263003
0.027154 -0.0065537998 0.84311002
0.028593 -0.0065569999 0.84350997
0.030033 -0.0065601999 0.84393001
0.031479001 -0.0065640998 0.84443998
0.032940999 -0.0065711001 0.84533
0.034405001 -0.0065776999 0.84618002
0.035882 -0.0065861 0.84727001
0.037358001 -0.0065939999 0.84828001
0.038849 -0.0066037001 0.84952003
0.040350001 -0.0066141998 0.85087001
0.041852001 -0.0066241999 0.85216999
0.043349002 -0.0066328999 0.85329002
0.044844002 -0.0066406 0.85427999
0.046339002 -0.0066479999 0.85522002
0.047827002 -0.0066538998 0.85597998
0.049355999 -0.0066650002 0.85741001
0.050914001 -0.0066791 0.85922998
0.052494999 -0.0066955001 0.86133999
0.054053001 -0.0067082001 0.86295998
0.055594999 -0.0067182002 0.86426002
0.057082999 -0.0067214002 0.86466998
0.058543 -0.0067212 0.86464
0.059969001 -0.0067171999 0.86412001
0.061393 -0.0067130998 0.86361003
0.062808998 -0.0067083999 0.86299998
0.064227998 -0.0067042001 0.86246002
0.065651998 -0.0067007998 0.86202002
0.067088999 -0.0066987998 0.86176002
0.068533003 -0.0066975998 0.86159998
0.070009999 -0.0066995001 0.86185002
0.071509004 -0.0067034001 0.86234999
0.073013 -0.0067075999 0.86290002
0.074547 -0.0067143999 0.86377001
0.076104 -0.0067230002 0.86487001
0.077652998 -0.0067305001 0.86584002
0.079198003 -0.0067373998 0.86672997
0.080766998 -0.0067460998 0.86785001
0.082318 -0.0067528998 0.86873001
-0.029658001 -0.0053452998 0.87941998
-0.028013 -0.0053152 0.87447
-0.026515 -0.0053111999 0.87380999
-0.025015 -0.0053063999 0.87301999
-0.023507999 -0.0052993 0.87185001
-0.021994 -0.0052896999 0.87027001
-0.020477001 -0.0052780001 0.86834002
-0.018967999 -0.0052665002 0.86646003
-0.017462 -0.0052542002 0.86443001
-0.015968001 -0.0052435999 0.86268002
-0.014481 -0.0052331998 0.86097997
-0.013004 -0.0052244002 0.85952002
-0.011532 -0.0052160998 0.85815001
-0.010064 -0.0052068001 0.85663003
-0.0085998997 -0.0051974999 0.85509002
-0.0071387999 -0.0051862001 0.85324001
-0.0056854999 -0.0051763002 0.85159999
-0.0042372998 -0.0051660002 0.84991002
-0.0027963 -0.0051581999 0.84864002
-0.00136 -0.0051521999 0.84764999
7.2884002e-05 -0.0051492001 0.84715003
0.0015036 -0.0051444001 0.84636003
0.0029324 -0.0051408 0.84577
0.0043585999 -0.0051366002 0.84507
0.0057827001 -0.0051325001 0.84439999
0.0072061 -0.0051294998 0.84391999
0.0086313998 -0.0051286998 0.84377998
0.010055 -0.0051273 0.84355998
0.011481 -0.0051273 0.84354001
0.012907 -0.0051270998 0.84350997
0.01433 -0.0051262002 0.84337002
0.015753999 -0.0051257 0.84328997
0.01718 -0.0051255999 0.84327
0.018601 -0.0051245 0.84310001
0.020022999 -0.0051234998 0.84293002
0.021446001 -0.0051230001 0.84284002
0.022872999 -0.0051234998 0.84292001
0.024302 -0.0051245 0.84309
0.025733 -0.0051255999 0.84328002
0.027170001 -0.0051275999 0.84359998
0.028609 -0.0051301001 0.84401
0.030056 -0.0051334999 0.84457999
0.031509001 -0.0051376 0.84525001
0.032983001 -0.0051445998 0.84640002
0.034458999 -0.0051513002 0.84750003
0.035948001 -0.0051595001 0.84884
0.037436001 -0.0051668002 0.85004002
0.038934 -0.0051748999 0.85137999
0.040426001 -0.0051815999 0.85249001
0.041921001 -0.0051882998 0.85358
0.043412 -0.005194 0.85452002
0.0449 -0.0051989998 0.85535002
0.046395 -0.0052045002 0.85624999
0.047894001 -0.0052101002 0.85718
0.049426001 -0.0052188998 0.85861999
0.050971001 -0.0052284999 0.86019999
0.052537002 -0.0052397 0.86203003
0.054079 -0.0052478001 0.86338001
0.055605002 -0.0052541001 0.86440998
0.057082999 -0.0052557001 0.86466998
0.058538001 -0.0052550002 0.86456001
0.059962999 -0.0052518002 0.86403
0.061386999 -0.0052486002 0.86351001
