# .PCD v0.7 - Point Cloud Data file format
VERSION 0.7
FIELDS x y z
SIZE 4 4 4
TYPE F F F
COUNT 1 1 1
WIDTH 1408
HEIGHT 1
VIEWPOINT 0 0 0 1 0 0 0
POINTS 1408
DATA ascii
0.012874 0.059388001 0.0057067
-0.075019002 0.060072999 0.0057524
0.041971002 0.061074 0.0067270002
0.042404 0.059220999 0.0056864
0.042174999 0.061094001 0.0058823
-0.019773001 0.059411 0.0056624999
-0.019073 0.059838999 0.0060124998
0.017428 0.060458999 0.0053054998
0.072296001 0.060775001 0.0058375001
0.0077809999 0.06106 0.0059524998
0.0076456 0.060213 0.0058371001
0.042211 0.060357001 0.0058379001
-0.076823004 0.061717 0.0059730001
-0.017323 0.061682999 0.0056624999
0.024557 0.06171 0.0053360001
-0.077523001 0.062157001 0.0057599
-0.016758 0.062052 0.0059471
0.043049 0.062272001 0.0055898
-0.016432 0.062642001 0.0057406002
0.018278999 0.062483002 0.0054186
0.022090999 0.063221999 0.0059602
0.021313 0.063050002 0.0058998
0.024048001 0.062789001 0.0059137
-0.015923001 0.063337997 0.0056624999
0.074027002 0.063294999 0.0058375001
-0.014813 0.064254999 0.0059906999
0.0088545 0.064626001 0.0056194998
-0.079625003 0.064621001 0.0053169001
0.0091909003 0.065118 0.0059507
0.016383 0.066689 0.0054148999
-0.012918 0.067074999 0.0058375001
-0.081961997 0.068470001 0.0059087002
-0.082423002 0.069206998 0.0056439
0.016277 0.069174998 0.0051723998
0.016709 0.068475001 0.0060124998
0.077675998 0.070201002 0.0058375001
-0.082598001 0.0704 0.0058243
-0.083122998 0.072674997 0.0054063001
-0.010729 0.072952002 0.0057993
0.016574999 0.074950002 0.0056624999
-0.010557 0.075708002 0.0058960002
0.079484999 0.075824998 0.0053125001
0.016597001 0.076442003 0.0053325999
0.042087998 0.077619001 0.0058375001
0.043032002 0.077574998 0.0056624999
0.047683999 0.077574998 0.0052864999
0.048126999 0.077606998 0.0053125001
0.039517 0.077564001 0.0065290998
0.040252 0.077799 0.0058375001
0.039590999 0.077924997 0.0057379999
0.040426999 0.077924997 0.0054829
0.052917 0.078974999 0.0053125001
0.017997 0.079319 0.0059139002
0.017546 0.07824 0.0058217002
-0.01006 0.080257997 0.0052911998
0.018139999 0.080375001 0.0053125001
0.056145001 0.080724999 0.0056624999
0.055039998 0.079970002 0.0059058
0.055477001 0.080261998 0.0060124998
-0.0099729998 0.080985002 0.0053424002
0.082667999 0.083001003 0.0058182999
0.082373999 0.082125001 0.0056624999
0.082459003 0.082906 0.0053079999
-0.010479 0.082824998 0.0059568998
0.032735001 0.083754003 0.0053309998
0.021230999 0.083934002 0.0058817002
0.060027 0.08416 0.0060124998
0.060337 0.084477998 0.0058375001
-0.0095194997 0.085538 0.0053164
0.022908 0.084925003 0.0057080998
0.022061 0.084461004 0.0058375001
0.031238001 0.085533999 0.0058959001
0.024 0.085427999 0.0058919
0.024854001 0.085835002 0.0060037002
-0.084964 0.085842997 0.0058958
-0.0095525002 0.087100998 0.0052940999
-0.009602 0.086499996 0.0053125001
0.027477 0.086043 0.0053125001
0.027127 0.086066999 0.0053125001
-0.084310003 0.088249996 0.0056624999
-0.010449 0.089241996 0.0053119999
-0.0099729998 0.088249996 0.0053452998
-0.084530003 0.090037003 0.0058130999
-0.011087 0.089971997 0.0053166002
-0.011323 0.090977997 0.0052796002
-0.011606 0.089942001 0.0055832998
-0.032286 0.091008 0.0058136
-0.011393 0.091925003 0.0052980999
-0.084959999 0.091224998 0.0053125001
-0.084477998 0.092041999 0.0057939002
-0.034006 0.091151997 0.0059710001
-0.033059999 0.091015004 0.0059190001
-0.036832001 0.092275001 0.0049625002
-0.028529 0.091784 0.0057760002
-0.027648 0.091925003 0.0057035
-0.024061 0.091935001 0.0056885001
-0.022222999 0.092064999 0.0056198002
-0.022923 0.091925003 0.0056810002
-0.019648001 0.092808999 0.0053277002
-0.018610001 0.092100002 0.0053182002
-0.017728001 0.092177004 0.0053401999
-0.017323 0.092735998 0.0052426001
-0.041237999 0.092772998 0.0058511999
-0.021173 0.092625 0.0054684002
-0.020473 0.092625 0.0054799002
-0.02056 0.093006998 0.0053508999
-0.021257 0.092974998 0.0053125001
-0.016798001 0.092799999 0.0053186002
-0.015690999 0.092789002 0.0057653999
-0.043573 0.094132997 0.0049625002
-0.042523 0.093359001 0.0058375001
-0.044798002 0.094621003 0.0056345998
-0.014967 0.093897998 0.0052959002
0.084160998 0.094724998 0.0057791998
-0.043848999 0.094016999 0.0059487
-0.013823 0.094407998 0.0057756999
-0.013473 0.094990999 0.0051770001
-0.013229 0.094898999 0.0059381002
-0.045951001 0.095338002 0.0057353
-0.01289 0.095238999 0.0057791998
-0.046438001 0.095720999 0.0058816001
0.083981998 0.095775001 0.0067125
0.084151998 0.095425002 0.0056624999
0.084018998 0.096474998 0.0060124998
-0.082643002 0.095486999 0.0059559001
-0.082496002 0.096474998 0.0059273001
-0.047481 0.097170003 0.0057436
-0.047169 0.096825004 0.0056624999
0.065554 0.096474998 0.0056624999
-0.048250999 0.098224998 0.0057905
-0.048122998 0.097801998 0.0060124998
-0.048762001 0.099211 0.0059461999
-0.081866004 0.099974997 0.0056103999
-0.048703998 0.099974997 0.0053125001
-0.081005998 0.10102 0.0058547002
-0.049029998 0.1012 0.0053125001
-0.080632001 0.10172 0.0056624999
0.082450002 0.10188 0.0058145998
-0.079621002 0.10303 0.0057329
0.081909999 0.10365 0.0053125001
0.068143003 0.1044 0.0058436999
0.080957003 0.10459 0.0059484998
-0.079588003 0.10383 0.0053125001
-0.050170001 0.10448 0.0059459
-0.049972001 0.10371 0.0057791998
0.080677003 0.1052 0.0056222999
0.069302 0.10627 0.0056881001
0.079617999 0.10662 0.0053039002
-0.049247999 0.10908 0.0053125001
-0.049575001 0.10837 0.0056624999
0.070877001 0.10802 0.0054531
0.071801998 0.10818 0.0058603999
0.072976999 0.10872 0.0056099999
0.073677003 0.1087 0.0056624999
-0.075415999 0.11002 0.0057043
-0.075773001 0.11022 0.0052371998
-0.050106 0.11106 0.0059043998
-0.049523 0.11083 0.0054707001
-0.049543001 0.11012 0.0055971998
-0.050106 0.11362 0.0057108002
-0.050198 0.11441 0.0056885001
-0.050398 0.1152 0.0056606
-0.049906 0.11551 0.0052923998
-0.068598002 0.11674 0.0053520999
-0.052026998 0.11807 0.0056507001
-0.051272999 0.11748 0.0054544001
-0.051220998 0.11835 0.0053188
-0.051771 0.11748 0.0056624999
-0.065860003 0.11726 0.0059798001
-0.064666003 0.11878 0.0053125001
-0.063873 0.11906 0.0053125001
0.036839999 0.11914 0.0056468002
0.037524998 0.12004 0.0053459001
0.037553001 0.11899 0.005539
-0.063523002 0.11887 0.0055518998
-0.052060001 0.12006 0.0053037
-0.051623002 0.11905 0.0053845998
0.036663 0.11985 0.0055481
0.037884001 0.11966 0.0054943999
0.038392 0.12002 0.0057955999
-0.053373002 0.12062 0.0054394999
-0.053373002 0.11958 0.0057207998
-0.052673001 0.12027 0.0054003
0.036963001 0.12023 0.0053286999
0.038419999 0.12088 0.0057377
-0.061156001 0.1199 0.0057554999
-0.053098999 0.12111 0.0052156998
0.035654001 0.12085 0.0057028001
0.036022998 0.12124 0.0053311
-0.060314 0.12098 0.0053611002
-0.054226 0.12133 0.0053125001
-0.059469 0.12133 0.0052884999
-0.057223 0.12062 0.0057476
-0.056522999 0.12062 0.0057441001
-0.057748001 0.12133 0.0054192999
0.035523999 0.1217 0.0055725002
0.038357999 0.12173 0.005783
-0.058272999 0.12133 0.0053971
-0.054772999 0.12133 0.0053786999
0.035285 0.12286 0.0060168998
0.035399001 0.12298 0.0056709
0.037974998 0.12218 0.0054557999
0.035652999 0.12378 0.0057871002
0.036355998 0.12409 0.0054291999
-0.083967999 0.14087 0.0059475
-0.078573003 0.14092 0.0058375001
-0.076823004 0.14119001 0.0056624999
-0.085510999 0.14127 0.0057525998
-0.085923001 0.14137 0.0056624999
-0.086273 0.14150999 0.0060124998
-0.073918 0.14201 0.00575
-0.090193003 0.14263999 0.0057938001
-0.093797997 0.1434 0.0058105998
-0.093156002 0.14317 0.0058958
-0.070289999 0.14338 0.0059803999
-0.094555996 0.14373 0.0059325998
-0.049424998 0.14394 0.0052801999
-0.050216999 0.14335001 0.0057565002
-0.050235 0.14385 0.0052481
-0.096772999 0.14408 0.0051736999
-0.051176 0.14342999 0.0056790002
-0.046723001 0.14411999 0.0052755
-0.097375996 0.14433999 0.0058958
-0.098176003 0.14463 0.0057048001
-0.064572997 0.14489999 0.0053125001
-0.054845002 0.14435001 0.0058511002
-0.1041 0.14588 0.0052807
-0.061248001 0.14568999 0.0053125001
-0.060373001 0.14567 0.0053125001
-0.059498001 0.14578 0.0053125001
-0.058467001 0.14568999 0.0052489
-0.04679 0.1453 0.0058865999
-0.048239 0.14819001 0.0053353002
-0.048385002 0.14723 0.0058296002
-0.048459001 0.14902 0.0053047002
-0.10167 0.14963999 0.0061301002
-0.10204 0.14934 0.0058077001
-0.07288 0.14917 0.0059809
-0.073673002 0.14984 0.0053029
-0.068539999 0.15023001 0.0057791998
-0.074372999 0.15018 0.0053125001
-0.075072996 0.15037 0.0054394999
-0.049872998 0.15117 0.0053125001
-0.079225004 0.15151 0.0059316
-0.065578997 0.15152 0.0049333
-0.084697001 0.15207 0.0052284999
-0.083645999 0.15202001 0.0056902999
-0.084573001 0.15214001 0.0057096998
-0.080127001 0.15161 0.0059827999
-0.085212 0.15217 0.0053345999
-0.085556 0.15233999 0.0058594001
-0.084691003 0.15219 0.0061561
-0.051121999 0.15200999 0.0053471001
-0.086249001 0.15245999 0.0055241999
-0.063031003 0.15286 0.0051584002
-0.064460002 0.15239 0.0059678
-0.051623002 0.15212999 0.0054078
-0.099816002 0.15361001 0.0053284001
-0.063721001 0.15268999 0.0057791001
-0.063155003 0.15295 0.0059189
-0.052762002 0.15335 0.0053169001
-0.052244 0.15276 0.0053106002
-0.062734 0.15316001 0.0059354999
-0.062107999 0.15342 0.0058625001
-0.061136998 0.15381999 0.0060349
-0.099936999 0.15436 0.0053037
-0.060206998 0.15417001 0.005928
-0.054019 0.15358999 0.0056503001
-0.053373002 0.15335 0.0054632002
-0.099918999 0.15527999 0.0053097
-0.093272999 0.15494999 0.0052407999
-0.052754 0.15455 0.0053384001
-0.094746999 0.15561999 0.0057537002
-0.099152997 0.15603 0.0052725002
-0.054836001 0.15563001 0.0052617998
-0.053808998 0.15559 0.0052406001
-0.055822998 0.16023 0.0056624999
-0.054772999 0.16032 0.0053125001
-0.062997997 0.16055 0.0059022
-0.064572997 0.16112 0.0053125001
-0.052322999 0.16119 0.0056624999
-0.066497996 0.16161001 0.0058375001
-0.070873 0.16297001 0.0055171
-0.069886997 0.16258 0.0058375001
-0.070990004 0.16282 0.0068291998
-0.071222998 0.16303 0.0060124998
-0.051040001 0.16412 0.0058220001
-0.074004002 0.16411 0.0058448999
-0.049523 0.16473 0.0054564001
-0.048648 0.16531 0.0055836998
-0.077142999 0.16543999 0.0059504998
-0.047366999 0.16598 0.0053332001
-0.078378998 0.16629 0.0058725001
-0.078752004 0.16669001 0.0055880002
-0.080139004 0.16760001 0.004983
-0.080999002 0.16791999 0.0059064999
-0.080122001 0.1674 0.0058227
-0.051272999 0.16823 0.0054187998
-0.082036003 0.16865 0.0058551999
-0.083737999 0.16992 0.0052413
-0.062105998 0.1689 0.0058272998
-0.061122999 0.16866 0.0057566999
-0.06081 0.16914 0.0053087999
-0.060198002 0.16908 0.0052737002
-0.059273999 0.16923 0.0052550002
-0.057525001 0.16958 0.0056905998
-0.054072998 0.16962001 0.0055070999
-0.053823002 0.16875 0.0059501999
-0.052673001 0.16927999 0.0053805001
-0.052905999 0.16869 0.0057183998
-0.052322999 0.16858 0.0056023998
-0.051973 0.16915999 0.0052562999
-0.069140002 0.16999 0.0057394998
-0.054919001 0.16960999 0.0056423
-0.064969003 0.17002 0.0053312001
-0.061850999 0.1699 0.0053400998
-0.056593001 0.17003 0.0053500002
-0.05559 0.17 0.0053711999
-0.055647999 0.16962001 0.0057122
-0.056697998 0.16974001 0.0056624999
-0.056522999 0.16927999 0.0060842
-0.08941 0.17098001 0.0058109998
-0.090109996 0.17094 0.0058721001
-0.089910999 0.17102 0.0052811
-0.069822997 0.17026 0.0060124998
-0.070298001 0.17032 0.0056624999
-0.063942999 0.17075001 0.0053067999
-0.062831998 0.17083 0.0053082001
-0.075423002 0.17191 0.0053125001
-0.05627 0.17432 0.0053184
-0.061170999 0.17411 0.0053077
-0.092297003 0.17417 0.0053125001
-0.062401 0.17535999 0.0053329999
-0.078411996 0.17341 0.0066733998
-0.078234002 0.17371 0.0060029002
-0.079026997 0.17441 0.0060214
-0.056873001 0.17434999 0.0054607
-0.057697002 0.17496 0.0055781002
-0.058308002 0.17557999 0.0052898
-0.058524001 0.17518 0.0056759999
-0.080067001 0.17605001 0.0057329
-0.085561 0.17891 0.0058134999
-0.085936002 0.17910001 0.0053212
-0.089060001 0.17907999 0.0058375001
-0.085596003 0.17987999 0.0052829999
-0.085309997 0.17958 0.0056583998
-0.082099997 0.17873 0.0055998
-0.089961 0.17956001 0.0057783001
-0.090998001 0.17989001 0.0056624999
-0.083472997 0.18009 0.0053125001
0.033194002 0.052884001 0.0057791998
0.034012001 0.052976001 0.0058375001
0.060959999 0.05305 0.0058958
-0.054843001 0.053699002 0.0068846
-0.055473 0.053477999 0.0060124998
-0.054423001 0.053435002 0.0060124998
-0.042172998 0.053424999 0.0054881
-0.041122999 0.053353 0.0059250002
-0.038323 0.053284001 0.0060124998
-0.035523001 0.053318001 0.0060124998
-0.032802001 0.053413998 0.0056658001
-0.033844002 0.05339 0.0059250002
-0.032373 0.053424999 0.0054954998
-0.056522999 0.053741999 0.0066203
-0.046548001 0.053583 0.0068875002
-0.045673002 0.053564001 0.0067125
-0.047598001 0.053552002 0.0065374998
-0.047423001 0.053539999 0.0060124998
0.030113 0.053723998 0.0058181002
0.030626999 0.053424999 0.0059586
0.036587998 0.053865001 0.0058871
0.058219999 0.054148 0.0058375001
-0.060722999 0.054218002 0.0056624999
-0.029302999 0.054093 0.0056655002
-0.028873 0.05418 0.0055942
-0.028376 0.054566 0.0058295
-0.027611 0.054892998 0.0058054002
0.029227 0.054396 0.0056624999
0.028876999 0.054712001 0.0056624999
0.029517001 0.054125 0.0056624999
0.057927001 0.054226 0.0056624999
0.057576999 0.054421999 0.0060124998
-0.063974999 0.054814 0.0059551001
0.065802 0.054650001 0.0058685001
0.066287003 0.055174001 0.0059233001
-0.067489997 0.055411 0.0057791998
-0.065972999 0.054928001 0.0056624999
-0.02689 0.055103 0.0056897998
-0.026673 0.055539001 0.0059890999
0.038561001 0.054942999 0.0059018
0.038463 0.055675998 0.0058649001
-0.025862001 0.055861 0.0058732
0.037508 0.055814002 0.0055501
0.066508003 0.055475 0.0057791998
0.041301999 0.055875 0.0053905998
0.041081 0.055711001 0.0057401001
0.043051999 0.055511001 0.0058765998
0.043997001 0.055537999 0.0057609999
0.044627 0.055544 0.0057609002
-0.024900001 0.056356002 0.0057834
0.041170999 0.056565002 0.0057871998
0.042015001 0.056784 0.0055094999
-0.071222998 0.057227001 0.0061448999
-0.023869 0.056795001 0.0058652
-0.023282999 0.056929 0.0056556002
0.068072997 0.056929 0.0056783999
0.067727 0.056597002 0.0056624999
-0.022225 0.057521001 0.0058625001
-0.022923 0.057195999 0.0060124998
0.026542 0.057505 0.0057057999
0.03858 0.056547999 0.0057684998
0.039331999 0.056618001 0.0060931998
0.039441001 0.057142001 0.0057542999
0.041857 0.057271 0.0055127
-0.021356 0.058106001 0.0058073001
0.069459997 0.058157999 0.0058375001
-0.073610999 0.058676999 0.0057468
0.04293 0.059266001 0.0059135999
-0.073987998 0.059059002 0.0058110999
0.0078306999 0.059367001 0.0056812
0.0086124996 0.059347998 0.0059056999
0.01126 0.059393998 0.0058072
0.012427 0.059358999 0.0056624999
-0.018546 0.060307 0.0059157
0.013477 0.059594002 0.0067125
0.014177 0.059645001 0.0067125
0.014877 0.059696 0.0067505999
0.014898 0.059723001 0.0058375001
0.025901999 0.058658998 0.0055312002
0.026051 0.059503 0.0061923
0.043924998 0.060134999 0.0060013998
-0.075355001 0.060431 0.0057398002
0.016014 0.059928998 0.0058375001
0.016744001 0.060077 0.0058046998
0.017708 0.060256001 0.0058523999
0.044068001 0.061154 0.0059094001
-0.075939998 0.060775001 0.0053125001
-0.075753003 0.060851 0.0057911999
0.018069999 0.061159998 0.0055037001
0.018538 0.061140999 0.0058535999
0.018524 0.060460001 0.0060211001
-0.076407999 0.061400998 0.0058765002
0.043717001 0.061974 0.0058792001
0.018044 0.061981998 0.0054807002
0.018553 0.061939999 0.0058301999
0.024545001 0.062551998 0.0061406
0.024327001 0.062174998 0.0054547
0.025137 0.06134 0.0058313999
0.042326 0.062063001 0.0059439
0.072830997 0.061475001 0.0058375001
0.073311999 0.062174998 0.0058375001
-0.078358002 0.063037001 0.0058180001
0.0080554001 0.061886001 0.0060561001
0.024801999 0.062744997 0.0068203998
0.025076 0.062348001 0.0065632001
0.042954002 0.062703997 0.0060640001
0.018807 0.062605999 0.0055567999
0.019493001 0.062747002 0.0056941002
0.020416001 0.062799998 0.0060031
0.02282 0.063228004 0.0058550001
-0.079094 0.064208999 0.0059008002
-0.078648001 0.063575 0.0060124998
0.0083144996 0.063011996 0.0059851999
0.0084710997 0.063773997 0.0058014998
-0.079354003 0.064685002 0.0058578001
-0.014588 0.064631 0.0059298999
-0.079668 0.065674998 0.0060124998
-0.079264 0.065718003 0.0067892
-0.013975 0.065458998 0.0057919002
-0.014205 0.065008998 0.0060124998
-0.079921998 0.065674998 0.0055574998
0.010187 0.065963998 0.0059091998
0.075065002 0.065018997 0.0058375001
0.075427003 0.065667003 0.0057856999
-0.080394 0.066578001 0.0057791998
-0.080444001 0.066375002 0.0053125001
0.010677 0.066214003 0.0060124998
0.011394 0.066478997 0.0058958
0.01596 0.066261001 0.0057669999
0.01493 0.066316999 0.0058384999
-0.081289999 0.067561999 0.0059757
0.01231 0.066661999 0.0058958
0.013127 0.066666 0.0058375001
0.014002 0.066528 0.0058375001
0.01663 0.066542 0.0058478001
0.076402001 0.067424998 0.0058958
-0.013 0.066550002 0.0061526
0.075777002 0.066137999 0.0067125
0.076109998 0.066725001 0.0067125
-0.081680998 0.067828 0.0056624999
-0.082309999 0.069292001 0.0058958
0.077177003 0.068985 0.0060124998
-0.011462 0.069334999 0.0066249999
-0.011908 0.069174998 0.0060124998
-0.011644 0.070188001 0.0058958
0.016329 0.070225 0.0056624999
-0.082693003 0.071048997 0.0058215
0.078069001 0.071099997 0.0060124998
0.077987999 0.071275003 0.0053125001
-0.082680002 0.071975 0.0060124998
-0.011068 0.072013997 0.0059067998
-0.011356 0.071226999 0.0058789002
0.078226998 0.071760997 0.0056624999
0.078548998 0.071943 0.0066638002
0.016275 0.071691997 0.0056624999
-0.083003998 0.072945997 0.0057791998
0.016427999 0.072149999 0.0060124998
0.078576997 0.073135003 0.0053125001
-0.083465002 0.074013002 0.0058566998
-0.083084002 0.073550001 0.0061351
-0.010492 0.073820002 0.0059868
-0.083901003 0.074600004 0.0057366998
-0.010478 0.074753001 0.0058948998
0.016547 0.073816001 0.0057791998
0.016627001 0.075475 0.0057151001
-0.08427 0.075125001 0.0056624999
0.079212002 0.074600004 0.0058375001
0.079605997 0.075625002 0.0058121998
0.079612002 0.074743003 0.0067151999
-0.084388003 0.075677 0.0058958
-0.084518999 0.076525003 0.0058958
0.016799999 0.076315001 0.0058876998
-0.010644 0.077399999 0.0058177998
-0.010635 0.076660998 0.0059675998
0.017104 0.077342004 0.0057601999
0.080597997 0.077225 0.0060124998
0.080398999 0.076548003 0.0065402999
0.045676999 0.077425003 0.0056624999
0.048477001 0.077556998 0.0057557002
0.047777001 0.077505998 0.0056624999
0.080677003 0.077629998 0.0056624999
-0.010655 0.078275003 0.0057649999
0.035702001 0.077955998 0.0057754
0.036552001 0.077917002 0.0056453999
0.040777002 0.077812999 0.0056624999
0.034837998 0.078387998 0.0058181002
0.037276998 0.077964 0.0056624999
0.037276998 0.077574998 0.006294
0.037671 0.077294998 0.0068732998
0.038327001 0.077992 0.0056624999
0.081362002 0.079121001 0.0058084
0.081133999 0.078363001 0.0059686
0.034263998 0.079442002 0.0057684002
0.053100001 0.078991003 0.0057251002
-0.010662 0.079324998 0.0057903002
0.054427002 0.079634003 0.0056624999
0.081568003 0.079674996 0.0058375001
-0.010503 0.080375001 0.0056631002
0.018259 0.080309004 0.0056624999
0.018027 0.079704002 0.0056624999
0.034143999 0.080200002 0.0056368001
0.034297001 0.081014 0.0059250002
-0.01053 0.081179999 0.0058126999
-0.084173001 0.080375001 0.0060647
-0.084173001 0.081074998 0.0061753001
0.034446001 0.080200002 0.0060518002
0.018696999 0.081021003 0.0058996002
-0.010498 0.081725001 0.0058694002
0.033898 0.082755998 0.0058919
0.057927001 0.082191996 0.0058375001
0.058414999 0.082592003 0.0058958
-0.085262999 0.083058 0.0057635
0.019427 0.082034998 0.0057136002
0.033448 0.082999997 0.0055805999
0.020393001 0.083111003 0.0058728
0.033280998 0.083802998 0.0058052
0.059326999 0.083410002 0.0060124998
0.082813002 0.083598003 0.0057359999
-0.085331 0.084574997 0.0058686999
0.020826999 0.083577 0.0059703002
0.059505999 0.083587997 0.0066424999
0.059916001 0.083989002 0.0068000001
0.021627 0.084224999 0.0056624999
0.032265 0.084833004 0.0057152999
0.033004001 0.084536001 0.0059825
-0.084945001 0.083700001 0.0067125
0.031677 0.085011996 0.0055829999
0.060750999 0.084882997 0.0058958
-0.010453 0.084482998 0.0058633001
0.083214 0.084224999 0.0074125002
0.083146997 0.084224999 0.0067125
0.083397999 0.085507996 0.0067125
-0.010354 0.085629001 0.0056246002
0.030412 0.085763 0.0057402002
-0.085222997 0.085625 0.0055463999
0.028876999 0.085974999 0.0055251
0.029327 0.085979 0.0056821001
-0.0099729998 0.086675003 0.0053905998
0.026794 0.086282998 0.0059512998
0.027617 0.086319998 0.0058935001
0.028558999 0.086282998 0.0058833002
-0.084739 0.086675003 0.0057808999
-0.011498 0.087365001 0.0058708
-0.011306 0.086511999 0.0059150001
-0.010728 0.086499996 0.0056149
-0.0099729998 0.087375 0.0053784
-0.010498 0.087200001 0.0054815002
0.083476 0.086391002 0.0058665001
-0.084523 0.087724999 0.0055177999
-0.084273003 0.087025002 0.0063625001
-0.011298 0.088249996 0.0056349998
-0.011468 0.089066997 0.0056344001
0.083782002 0.088074997 0.0063625001
0.063161001 0.088997997 0.0058962
0.083826996 0.088610001 0.0060124998
-0.084380999 0.089474998 0.0056624999
-0.011723 0.090875 0.0055761999
-0.012029 0.090196997 0.0059659998
-0.012066 0.090892002 0.0060124998
-0.01193 0.091750003 0.0058658002
-0.031532999 0.090979002 0.0058579999
-0.011737 0.092041999 0.0056114001
-0.019073 0.091925003 0.0054015
-0.019423001 0.091925003 0.0054778
-0.019336 0.091049999 0.0056949998
-0.018548001 0.091049999 0.0056185001
-0.018373 0.091574997 0.0054405001
-0.017673001 0.090971999 0.0058526001
-0.017493 0.091628999 0.0055816001
-0.035523001 0.091925003 0.0053538
-0.036835 0.091842003 0.0058375001
-0.035925999 0.091596998 0.0060212999
-0.034917001 0.091580003 0.0057056998
-0.034619998 0.091240004 0.0060310001
-0.029398 0.091727003 0.0056624999
-0.030012 0.091576003 0.0056369998
-0.025722999 0.091807999 0.0056107002
-0.027035 0.091925003 0.0056624999
-0.026695 0.091108002 0.0061049
-0.020428 0.090947002 0.0059743999
-0.020403 0.092064999 0.0056484998
-0.039023001 0.092345998 0.0053125001
-0.038626 0.092275001 0.0053222999
-0.038727 0.092009 0.0058375001
-0.024816999 0.091856003 0.0056881001
-0.023273 0.091224998 0.0061781998
-0.016797001 0.091673002 0.0058495002
0.06436 0.092275001 0.0056624999
-0.039489999 0.092147999 0.0058288001
-0.021348 0.091838002 0.0057668998
-0.011729 0.092835002 0.0056554
-0.084173001 0.092974998 0.0056174002
-0.040073 0.092275001 0.0058706999
-0.040210001 0.091833003 0.0067256
-0.016139001 0.092053004 0.0060160998
-0.041823 0.093048997 0.0058130999
-0.015224 0.093050003 0.0059269001
-0.014865 0.093451999 0.0058502001
-0.011674 0.093442 0.0056854999
-0.043076001 0.093601003 0.0059536998
-0.084014997 0.091808997 0.0066534998
-0.083823003 0.093675002 0.0055992999
-0.011651 0.094724998 0.0058348998
-0.014237 0.093948998 0.0059250002
-0.012255 0.095399998 0.0057815001
-0.011723 0.095361002 0.0055995998
0.083819002 0.095581003 0.0075392998
0.084092997 0.094549999 0.0067125
-0.046856001 0.096265003 0.0058375001
-0.082589999 0.097407997 0.0058958
-0.082497999 0.098154999 0.0059247999
0.065977 0.097957999 0.0058975001
-0.082423002 0.098907001 0.0056500998
0.083527997 0.098575003 0.0061708
0.083481997 0.098356999 0.0065024998
-0.082199 0.099266998 0.0057306001
-0.049173001 0.10033 0.0061674002
-0.049222998 0.099927001 0.0064901998
0.066552997 0.10009 0.0059691002
0.083149999 0.10033 0.0056624999
0.082668997 0.10114 0.0059996
-0.049226001 0.10137 0.0056624999
0.067221999 0.10196 0.0061051999
0.066793002 0.10116 0.0058375001
0.067380004 0.1026 0.0058575999
-0.080323003 0.10212 0.0056624999
-0.079906002 0.1026 0.0057306001
-0.049523 0.10243 0.0056161
0.081901997 0.10278 0.0061041
-0.079025999 0.10474 0.0059099002
-0.079006001 0.10546 0.0056607998
-0.049906999 0.1055 0.0056624999
0.068742 0.10548 0.0057791998
-0.078455999 0.10577 0.0061647999
0.079579003 0.10593 0.0060124998
0.079452001 0.10645 0.0056191999
0.069913998 0.10652 0.0061351
-0.077384003 0.10741 0.0059988
0.071052 0.1076 0.0060072001
0.077177003 0.10802 0.0055037001
0.076924004 0.10768 0.0060124998
0.077684 0.10733 0.0059988
-0.076614 0.1082 0.0059901001
-0.049552001 0.10908 0.0056624999
0.075602002 0.10828 0.0058909999
-0.075692996 0.10926 0.0058956998
-0.076122999 0.10908 0.0056083999
-0.074800998 0.11098 0.0058220001
-0.050048001 0.1103 0.0060275001
-0.074445002 0.11174 0.0056989999
-0.050273001 0.11176 0.0059079998
-0.073891997 0.11202 0.0059107998
-0.050441001 0.11281 0.0059616002
-0.073673002 0.11258 0.0056941002
-0.073146001 0.11291 0.0057807998
-0.072017998 0.11371 0.0058352002
-0.072627001 0.11258 0.0063649998
-0.072273001 0.11398 0.0053963
-0.070956998 0.1144 0.0059019001
-0.070312999 0.11464 0.0060425
-0.070173003 0.1152 0.0056539001
-0.051155999 0.11537 0.0059866998
-0.069472998 0.11534 0.0058737001
-0.069123 0.11608 0.0055164001
-0.068354003 0.11561 0.0060391999
-0.068213999 0.11636 0.0056619002
-0.051975999 0.11649 0.0060044001
-0.050923001 0.11677 0.0054752999
-0.067217998 0.11645 0.0059316
-0.066441 0.11736 0.0056941002
-0.065467998 0.118 0.0056197001
-0.06476 0.11814 0.0057407999
-0.063755997 0.118 0.0061256001
-0.063173003 0.11852 0.0059125
-0.062997997 0.11905 0.0055685001
0.038233999 0.11908 0.0058415001
0.038256001 0.11839 0.0060108998
0.037601002 0.11812 0.0056762998
-0.062123001 0.11887 0.0059862998
-0.052673001 0.11887 0.005715
0.036865 0.11833 0.0057910001
-0.061813999 0.11975 0.0055745998
-0.053897999 0.12062 0.0055253999
-0.053996 0.11895 0.0059873001
-0.053311002 0.11818 0.0059992
0.035758 0.1191 0.0061782999
-0.055027001 0.12062 0.0056737
-0.053982001 0.12023 0.005663
-0.059440002 0.12007 0.0059897001
-0.060022999 0.12062 0.0056126001
-0.060164999 0.11986 0.0060330001
-0.059457999 0.12064 0.0056761
-0.058623001 0.12062 0.0057504
-0.058272999 0.11992 0.0060907002
-0.054772999 0.11992 0.0058605
0.035165999 0.12111 0.0061403001
0.03517 0.12167 0.0060660001
0.037896 0.12285 0.0057072998
0.038311001 0.12257 0.0061090002
0.037567001 0.12348 0.0058587999
0.036986001 0.12396 0.0057607
0.036141001 0.1241 0.0059729
0.036525998 0.12411 0.0059881001
-0.080323003 0.14092 0.0056624999
-0.078397997 0.14117 0.0067125
-0.077523001 0.14103 0.0058375001
-0.088466004 0.14194 0.0059178001
-0.087338999 0.14163999 0.0057382002
-0.074722998 0.14188001 0.0058375001
-0.072972998 0.14232001 0.0061308001
-0.072962999 0.14251 0.0067734998
-0.090823002 0.14274999 0.0056624999
-0.071979001 0.14281 0.0067282999
-0.092721999 0.14301001 0.0058122999
-0.071723998 0.14271 0.0058958
-0.068493001 0.14371 0.0059366999
-0.052037999 0.14337 0.0058074002
-0.049547002 0.14362 0.0059651001
-0.067722999 0.14395 0.0056624999
-0.067419 0.14417 0.0059190998
-0.049114 0.14427 0.0059602
-0.066636004 0.14455 0.0058375001
-0.054232001 0.14437 0.0056497999
-0.052873999 0.14331 0.0060680001
-0.048452999 0.14455999 0.0058323001
-0.047559001 0.1446 0.0058309999
-0.046707001 0.14455999 0.0057138
-0.065623 0.14476 0.0058856001
-0.055543002 0.1444 0.0059725
-0.046023 0.14478 0.0054783002
-0.098522998 0.14495 0.0060124998
-0.099223003 0.14533 0.0059719002
-0.064747997 0.14485 0.0058375001
-0.06374 0.14503001 0.0057791998
-0.10342 0.14567 0.0056624999
-0.099923 0.14557 0.0057962998
-0.062997997 0.14515001 0.0058960002
-0.062091 0.14527 0.0058555999
-0.058389999 0.1453 0.0056869001
-0.059386998 0.14533 0.0058165002
-0.057748001 0.14514001 0.0056624999
-0.10382 0.14614999 0.0058180001
-0.1029 0.14573 0.0056624999
-0.10097 0.14575 0.0056624999
-0.061127 0.14529 0.0058590998
-0.060183998 0.14529 0.0058172001
-0.046868999 0.14582001 0.0057027
-0.047474999 0.14596 0.0060112998
-0.10386 0.14723 0.0057672998
-0.10342 0.14802 0.0058841999
-0.047814 0.14687 0.0056624999
-0.049173001 0.14827999 0.0057734
-0.048758999 0.14793 0.0057005002
-0.10266 0.14887001 0.0058725001
-0.048822999 0.14862999 0.0054885
-0.049454998 0.14893 0.0056678001
-0.10106 0.14993 0.0057581002
-0.073794998 0.14915 0.0061233998
-0.074073002 0.1496 0.0056065
-0.071938001 0.14928 0.0058220001
-0.071111999 0.14935 0.0059889001
-0.070873 0.14945 0.0056624999
-0.070133001 0.14963 0.0057325
-0.069181003 0.14996 0.00575
-0.050271999 0.14904 0.0059950999
-0.050232999 0.14991 0.0056901998
-0.049173001 0.15002 0.0054112002
-0.049523 0.15037 0.0054494999
-0.10012 0.15082 0.0058582001
-0.075741 0.1504 0.0056624999
-0.074634999 0.14966001 0.0057009002
-0.068126 0.15037 0.0056624999
-0.050223 0.15064 0.0055525
-0.076122999 0.15108 0.0054301
-0.076663002 0.15074 0.0057851998
-0.0757 0.14972 0.0059795999
-0.067198001 0.15095 0.0059254002
-0.066831999 0.15108 0.0056624999
-0.066514 0.15147001 0.0062234001
-0.077575997 0.15142 0.0056824
-0.051150002 0.15091 0.0056745
-0.051272999 0.15143 0.0055612
-0.051964998 0.15149 0.0056492002
-0.099688999 0.1516 0.0060124998
-0.078438997 0.15143999 0.0058936998
-0.082686 0.15188 0.0059258998
-0.081946 0.15177999 0.0059855999
-0.081073001 0.15177 0.0058960998
-0.099684998 0.15271001 0.0057791998
-0.053066999 0.15171 0.0058001
-0.052673001 0.15282001 0.005376
-0.053284999 0.15257999 0.0055479002
-0.088140003 0.15294001 0.0057791998
-0.087402999 0.15283 0.0058844001
-0.10008 0.15347999 0.0058569
-0.088652 0.15312999 0.0059409998
-0.089197002 0.15322 0.0057875002
-0.053844001 0.15259001 0.0056682001
-0.090095997 0.15353 0.0058480999
-0.090998001 0.15381999 0.0057271002
-0.10038 0.15423 0.0056624999
-0.10075 0.15443 0.0059221
-0.091957003 0.15440001 0.0057959999
-0.10092 0.15526 0.0058185002
-0.059351999 0.15448999 0.0058510001
-0.054072998 0.15423 0.0057009999
-0.054990999 0.15440001 0.0059393998
-0.053897999 0.1551 0.0055167
-0.10027 0.1551 0.0054549999
-0.093098 0.15501 0.0058375001
-0.058506001 0.15469 0.0059130001
-0.054781999 0.15512 0.0056496998
-0.093767002 0.15524 0.0058816001
-0.058139 0.15497001 0.0056126001
-0.057399001 0.15509 0.0056945998
-0.1001 0.15625 0.0056424998
-0.056627002 0.15513 0.0057164999
-0.055714998 0.15511 0.0057448
-0.10108 0.15615 0.0059229
-0.099223003 0.15643001 0.0055737002
-0.098173 0.15651999 0.0056624999
-0.097209997 0.1564 0.0056770002
-0.061143 0.16018 0.0058025001
-0.060022999 0.16011 0.0058375001
-0.062240001 0.16037001 0.0058958
-0.061772998 0.16026001 0.0058375001
-0.056522999 0.16018 0.0057628001
-0.054807 0.16047999 0.0059656999
-0.055693999 0.16067 0.0067667002
-0.054003 0.16071001 0.0059465002
-0.063873 0.16082001 0.0056624999
-0.053073999 0.16094001 0.0057617999
-0.064805999 0.16098 0.0058958
-0.065338001 0.16123 0.0057546999
-0.051883999 0.16147 0.0056873998
-0.051201001 0.16185001 0.0056058001
-0.068072997 0.16202 0.0060124998
-0.051272999 0.16245 0.0057295999
-0.069297999 0.16235 0.0060124998
-0.051973 0.16356 0.0060454998
-0.072098002 0.16336 0.0058033001
-0.072972998 0.16369 0.0058126999
-0.050088 0.16462 0.0056726998
-0.051096 0.16522001 0.0066899001
-0.075505003 0.16463 0.0060528
-0.075805999 0.16493 0.0054866001
-0.049348 0.16508 0.0057188999
-0.076559 0.16515 0.0059083998
-0.050386 0.16524 0.0063682999
-0.049348 0.16611999 0.0061355
-0.077523001 0.16580001 0.0057521998
-0.048179999 0.16624001 0.0057044998
-0.048461001 0.16683 0.0056730998
-0.078500003 0.16597 0.0064900001
-0.078860998 0.16649 0.0061392998
-0.079236001 0.16689 0.0058229999
-0.050414 0.16726001 0.0059256
-0.051876001 0.16813999 0.0056723999
-0.060139999 0.16867 0.0057414998
-0.059455998 0.16878 0.0058271
-0.082791999 0.16913 0.0060310001
-0.058425002 0.16912 0.0059106001
-0.054566 0.16899 0.0059949998
-0.083223999 0.16949999 0.0057529001
-0.067373 0.16949999 0.0058958
-0.066497996 0.16937 0.0058375001
-0.065536 0.16948999 0.005622
-0.065553002 0.1693 0.0060919002
-0.062921003 0.16911 0.0058590001
-0.062472999 0.1698 0.0055062999
-0.063033 0.16971 0.0056028999
-0.064713001 0.16967 0.0056031002
-0.084487997 0.17035 0.0058030998
-0.083678 0.16975001 0.0060691
-0.063873999 0.16971999 0.0056248
-0.071047999 0.17051999 0.0058375001
-0.073848002 0.17094 0.0058375001
-0.072972998 0.17077 0.0058375001
-0.071923003 0.17065001 0.0058958
-0.091017 0.17151999 0.0059145
-0.088930003 0.17127 0.0060437
-0.088413998 0.17145 0.0059626
-0.085724004 0.17101 0.005957
-0.074821003 0.17128 0.0059123002
-0.087479003 0.1715 0.0058094002
-0.086565003 0.17130999 0.0058019999
-0.075473003 0.17169 0.0058045001
-0.091801003 0.17238 0.0058593
-0.091498002 0.17195 0.0058209002
-0.075912997 0.17208 0.0056624999
-0.076431997 0.17237 0.0058809998
-0.092111997 0.17347001 0.0058375001
-0.059424002 0.17426001 0.0057044998
-0.059323002 0.17382 0.0054699001
-0.058448002 0.17382 0.0055173002
-0.057573002 0.17382 0.0054683001
-0.057599001 0.17438 0.0056106001
-0.078504004 0.17417 0.0056624999
-0.060899001 0.17451 0.0056015998
-0.060256001 0.1744 0.0056801001
-0.058447 0.17422 0.0056854002
-0.092239 0.17434999 0.0058375001
-0.079487003 0.17513999 0.0057791998
-0.061131001 0.17529 0.0056779999
-0.079623997 0.17487 0.0063610999
-0.061772998 0.17557999 0.0055235
-0.092600003 0.1753 0.0057868999
-0.093047999 0.17605001 0.0058517
-0.060986001 0.17587 0.0055256002
-0.059303001 0.17536999 0.0057508
-0.060198002 0.17581999 0.0055705002
-0.093548 0.17697001 0.0059658
-0.093997002 0.17782 0.0058708
-0.081344001 0.1777 0.0058375001
-0.088459998 0.17871 0.00575
-0.087283 0.17817 0.0058452999
-0.086396001 0.17816 0.0058136
-0.086622998 0.17838 0.0054222001
-0.087148003 0.17838 0.0053709
-0.081726 0.17808001 0.0059189
-0.094148003 0.17873 0.0060124998
-0.094283998 0.17896 0.0056118001
-0.093823001 0.17958 0.0058625001
-0.082925998 0.17949 0.0057758
-0.082530998 0.17907 0.0058559999
-0.092923 0.17991 0.0057791998
-0.091872998 0.17997999 0.0057791998
-0.084680997 0.17993 0.005812
-0.083823003 0.17995 0.0058375001
0.032026999 0.052937999 0.0060124998
0.033952001 0.052887 0.0067125
-0.055706002 0.053723998 0.0067125
-0.05314 0.053527001 0.0065958002
-0.053897999 0.053541001 0.0066249999
-0.039023001 0.053293001 0.0060124998
-0.039372999 0.053360999 0.0065374998
-0.036573 0.053289998 0.0060124998
0.034821998 0.053114001 0.0059169
0.035863999 0.053121999 0.0067635998
0.060201999 0.053309999 0.0066249999
0.063001998 0.053128999 0.0065374998
-0.058623001 0.053775001 0.0058887
-0.057573002 0.053633001 0.0060124998
-0.056522999 0.053445 0.0056624999
-0.051155999 0.053562 0.0067125
-0.032898001 0.053523 0.0060124998
-0.032023001 0.053667001 0.0060124998
0.064724997 0.053723998 0.0058958
-0.060722999 0.054345999 0.0060124998
-0.029398 0.054444 0.0061042998
0.037369002 0.054164998 0.0060089999
0.065503001 0.054097999 0.0068398998
0.065932997 0.054474 0.0068442998
-0.062036 0.05494 0.0066422001
-0.027681001 0.055799 0.0066542001
-0.028453 0.055663999 0.0068653999
0.055794999 0.054839998 0.0058375001
0.066466004 0.055004001 0.0068994998
-0.066673003 0.055238001 0.0060124998
-0.065273002 0.055046 0.0063625001
-0.028697999 0.055174999 0.0064936001
0.039444 0.055741001 0.0060780002
0.039287001 0.054977 0.0061267
0.053629 0.055163998 0.0060124998
-0.067231998 0.055768002 0.0066555999
0.042089 0.055086002 0.0066824998
0.042176999 0.055249002 0.0063625001
0.048126999 0.055365 0.0081125004
0.049527001 0.055381 0.0081125004
0.052677002 0.055255 0.0084624998
0.054019 0.055179998 0.0079317996
-0.02554 0.056253999 0.0060597998
0.027477 0.056508999 0.0060618999
0.040300999 0.055691 0.0058403998
0.040224999 0.056582 0.0060768002
-0.069297999 0.056855001 0.0066249999
0.037994001 0.056361001 0.0055322
0.027070999 0.056811001 0.0058459998
0.067206003 0.055760998 0.0069072
0.069087997 0.057705998 0.0068875002
0.069422998 0.058065999 0.0067125
-0.074555002 0.060125999 0.0065092002
-0.073785998 0.059505999 0.0067479
0.070070997 0.058582 0.0067125
0.012427 0.059556 0.0067125
0.02588 0.060183 0.0063144001
0.071576998 0.059847999 0.0060124998
0.071722001 0.060072001 0.0067125
-0.017619999 0.061179999 0.0059415
0.072283998 0.060772002 0.0068000001
0.025644001 0.060695 0.0062106
0.041974001 0.062116999 0.0067842002
0.024991 0.061962001 0.0061129001
0.0082307998 0.062346 0.0061587002
-0.075653002 0.061319999 0.0068823001
0.042222999 0.062996998 0.0068136002
0.019329 0.062082998 0.0061686002
0.073996998 0.063248999 0.0067125
-0.015472 0.063575 0.0060124998
0.02234 0.063141003 0.0068036998
0.074432999 0.063924998 0.0067125
-0.013473 0.065999001 0.0059872
-0.080038004 0.066678002 0.0065835998
-0.080673002 0.066988997 0.0060124998
0.014877 0.066295996 0.0064792
0.013967 0.066430002 0.0067825001
0.017007999 0.066459 0.0063582002
0.017047999 0.067468002 0.0063625001
0.016945999 0.068544999 0.0065441998
-0.011852 0.068300001 0.0065374998
0.016992001 0.069277003 0.0069225002
0.076770999 0.068125002 0.0060124998
0.016627001 0.069525003 0.0062458999
0.016720001 0.070119001 0.0066577001
0.016277 0.071275003 0.0056781
0.01651 0.071099997 0.0063625001
0.016802 0.072798997 0.0067620999
-0.083572 0.074744999 0.0067631998
-0.084173001 0.075475 0.0062143002
0.079786003 0.075824998 0.0060124998
-0.084481001 0.077225 0.0060124998
-0.084523 0.078450002 0.0057839998
0.017332001 0.077564999 0.0060024001
0.017751001 0.078001998 0.0065103001
0.035877001 0.077812999 0.0060124998
0.036577001 0.077730998 0.0060124998
0.038502 0.077835999 0.0060124998
0.039202001 0.077845998 0.0060124998
0.035323001 0.077924997 0.0063625001
-0.084514 0.079067998 0.0056636999
0.050926998 0.078115001 0.0060124998
0.052246999 0.078625001 0.0058782999
0.034464002 0.079205997 0.0060784002
-0.011022 0.080141999 0.0064792
0.018162001 0.079674996 0.0060124998
0.081814997 0.080200002 0.0060124998
0.081845999 0.079915002 0.0065958002
0.018716 0.080190003 0.0069164
0.056515001 0.081005998 0.0060124998
0.082043998 0.081074998 0.0057076998
-0.084539004 0.082007997 0.0061117001
0.019143 0.081102997 0.0067518
0.018758999 0.080734 0.0064607002
0.034791 0.081873998 0.0066856998
0.034299001 0.082999997 0.0063625001
0.034791 0.082824998 0.0068502999
0.082771003 0.082681 0.0066625001
-0.084728003 0.082911998 0.0067790002
0.033893999 0.083490998 0.0061388002
-0.011023 0.083875 0.0063121002
0.083085001 0.084477998 0.0058375001
0.083476998 0.086127996 0.0063625001
-0.011023 0.084749997 0.0061619999
-0.011235 0.085717 0.0060604
0.032079998 0.085263997 0.0060816999
-0.011534 0.0845 0.0067375
0.061186001 0.085482001 0.0066569
0.029927 0.086204 0.0061531998
-0.084495001 0.086418003 0.0063656
0.026077 0.086213998 0.0060124998
0.029344 0.086289003 0.0061418
0.083820999 0.087343 0.0077586998
-0.084101997 0.088950001 0.0060124998
-0.083861001 0.089125 0.0065958002
-0.011998 0.088249996 0.0061296001
0.084063999 0.089125 0.0081125004
-0.012033 0.089241996 0.0060437
-0.01242 0.090098999 0.0067105
-0.019476 0.090470999 0.0059910999
-0.018548001 0.090350002 0.0059810998
-0.017935 0.090421997 0.0060800998
-0.031245001 0.090282999 0.0066751
-0.030973 0.090582997 0.0063625001
-0.030273 0.090992004 0.0061094002
-0.025955999 0.091032997 0.0060572
-0.025209 0.091224998 0.0060124998
-0.035829999 0.091188997 0.0065449998
-0.029839 0.091224998 0.0060124998
-0.029488999 0.090893999 0.0063630999
-0.027648 0.091224998 0.0061897002
-0.024673 0.090765998 0.0063625001
-0.024148 0.091224998 0.0061567002
-0.022222999 0.091265 0.0060880999
-0.021431001 0.091049999 0.0061033
-0.016891999 0.091231003 0.0060951002
-0.024099 0.090875 0.0063625001
-0.083538003 0.092826001 0.0066928999
0.064244002 0.091750003 0.0065374998
-0.011826 0.093675002 0.0060124998
-0.012195 0.093618996 0.0065413001
-0.012305 0.092765003 0.0066424999
-0.013755 0.094310001 0.0063625001
-0.013117 0.094564997 0.0066145998
-0.045588002 0.094958 0.0060359002
-0.012141 0.095074996 0.0061418
-0.047075 0.096123002 0.00636
-0.048179001 0.097438 0.0065726
0.083501004 0.098999999 0.0058911
-0.048659001 0.098159999 0.0065819002
0.066166997 0.098575003 0.0060124998
0.066293001 0.098503001 0.0067125
0.066421002 0.098925002 0.0067125
0.066798002 0.099974997 0.0068291998
-0.081198998 0.099937998 0.0066479999
-0.081377998 0.10033 0.0060200999
-0.048822999 0.099624999 0.0058070999
0.082819998 0.099858001 0.0068747001
0.066895999 0.10079 0.0064792
-0.049596999 0.10084 0.0067305998
0.082002997 0.10193 0.0066422001
0.082268998 0.10208 0.0060124998
-0.079180002 0.10256 0.0067459
-0.049872998 0.10312 0.0058698999
0.068291001 0.10367 0.0065951999
0.081628002 0.10347 0.0060124998
0.081734002 0.10262 0.0065140999
0.081377 0.10383 0.0061025
0.068738997 0.10447 0.0066947001
-0.050223 0.10662 0.0062146001
-0.077399999 0.10627 0.0069220001
-0.077753998 0.10574 0.0069037001
-0.077114999 0.10546 0.0075746998
0.070176996 0.10638 0.0064943
0.078576997 0.1067 0.0060787001
0.079374 0.10547 0.0066847
0.078295 0.1065 0.0064190999
-0.049945001 0.1075 0.0060124998
-0.049906999 0.1082 0.0060124998
0.071576998 0.10768 0.0062449998
-0.076297998 0.108 0.0064960001
0.072907001 0.10832 0.0059997998
0.073677003 0.10834 0.0060124998
-0.049897 0.10908 0.0060124998
-0.075072996 0.10943 0.0063271001
-0.074681997 0.10905 0.006883
-0.074956 0.11024 0.0060124001
-0.073096 0.11188 0.0064898999
0.037289999 0.11284 0.0062787998
0.036938999 0.11296 0.0062862998
0.036906999 0.11367 0.0062269
0.037551001 0.11377 0.0062410999
-0.071222998 0.11398 0.0061117001
-0.050923001 0.1138 0.0061646001
0.036947001 0.11458 0.0061987001
-0.051798001 0.1145 0.0064188
-0.052023999 0.11347 0.0066069998
0.037634999 0.11554 0.0061671999
0.036851998 0.11536 0.0061997999
0.037741002 0.11498 0.0062177
0.036929999 0.11634 0.0060757999
-0.051623002 0.11573 0.0060942001
0.037599999 0.1165 0.0060140002
-0.067445002 0.1153 0.0065076002
-0.067373 0.11573 0.0062762001
-0.066497996 0.11673 0.0060596
0.037716001 0.11728 0.0058566001
0.038167998 0.11734 0.0061297002
-0.052673001 0.11712 0.0060648001
-0.064747997 0.11748 0.0062098
-0.053723 0.11748 0.0062314998
0.038787998 0.11792 0.0067270999
-0.062472999 0.11852 0.0060863998
-0.063082002 0.11785 0.0063618999
-0.053711001 0.11854 0.0060151001
0.035978999 0.11842 0.0062001999
0.036708001 0.11725 0.0060310001
-0.055473 0.11887 0.0062358999
-0.055473 0.11958 0.0060433
0.035358999 0.1197 0.0063550002
0.035562001 0.11997 0.0060652001
-0.061073001 0.11911 0.0062338999
-0.054423001 0.11905 0.0060430998
0.038957 0.12003 0.0063041002
-0.059556 0.11911 0.0064902999
-0.058506001 0.11911 0.0064832
-0.057720002 0.11923 0.0063625001
-0.056703001 0.11992 0.0060124998
0.03528 0.1204 0.0062515
0.036587 0.12392 0.0068354001
0.037664998 0.12359 0.0067830002
-0.084599003 0.14095999 0.0057395999
-0.081897996 0.14095999 0.0067125
-0.079972997 0.14126 0.0070624999
-0.080323003 0.14128 0.0072504999
-0.080673002 0.14139 0.0081125004
-0.081113003 0.14127 0.0078800004
-0.079622999 0.14155 0.0081125004
-0.079273 0.14127 0.0070624999
-0.089248002 0.14236 0.0061651999
-0.088284999 0.14205 0.0066249999
-0.074547999 0.14221001 0.0068875002
-0.092047997 0.14292 0.0059885001
-0.089974999 0.14275999 0.0065154
-0.071185999 0.14303 0.0059223999
-0.051879998 0.14284 0.0061121001
-0.052639 0.14306 0.0061846999
-0.051236998 0.14291 0.0060683
-0.050184 0.14300001 0.0061480999
-0.071013004 0.14326 0.0066121002
-0.093744002 0.14372 0.0069384999
-0.094498001 0.14385 0.0065374998
-0.053842999 0.14354999 0.0061375001
-0.052921001 0.14413001 0.0054469998
-0.068471 0.14386 0.0065812999
-0.054598 0.14383 0.006143
-0.097998001 0.14486 0.0065374998
-0.056793999 0.14405 0.0063608
-0.056559 0.14339 0.0069094002
-0.064222999 0.14489999 0.0060124998
-0.058272999 0.14478 0.0061249998
-0.098419003 0.14523999 0.0067548002
-0.060198002 0.14478 0.0062996
-0.057923 0.14408 0.0065998002
-0.10288 0.14585 0.0059882002
-0.10016 0.14597 0.0067125
-0.10202 0.14595 0.0060124998
-0.048122998 0.14617001 0.0062446999
-0.049173001 0.14758 0.0061325999
-0.10315 0.14837 0.0060124998
-0.10309 0.14833 0.0068418998
-0.10268 0.14889 0.0067125
-0.049872998 0.14827999 0.0061821002
-0.050232001 0.14804 0.0065428
-0.074738003 0.14928 0.0060847001
-0.071990997 0.14904 0.0067916
-0.10183 0.14971 0.0067902999
-0.051084999 0.14982 0.0060085999
-0.10124 0.15007 0.0066499999
-0.10058 0.15037 0.0061718998
-0.076444 0.14986999 0.0061164
-0.068304002 0.15063 0.0068641999
-0.068773001 0.15024 0.0063625001
-0.051623002 0.15002 0.0061685001
-0.051984001 0.15062 0.0060053002
-0.077480003 0.15086 0.0060116998
-0.065806001 0.15192001 0.0066757002
-0.052777998 0.15098999 0.0060906
-0.065550998 0.15198 0.0063276999
-0.055073 0.15273 0.0060109999
-0.054772999 0.15195 0.0062262001
-0.05387 0.15186 0.0059528002
-0.087219998 0.15288 0.0066618002
-0.055199001 0.15329 0.0059998999
-0.091173001 0.15397 0.0060124998
-0.060695 0.15398 0.0060047
-0.055592 0.15454 0.0060335998
-0.055647999 0.15387 0.0061414
-0.092573002 0.1548 0.0060124998
-0.057503998 0.15468 0.0061618001
-0.056557 0.15465 0.0061312001
-0.093750998 0.15538 0.0065024998
-0.094434999 0.15569 0.0066249999
-0.10083 0.15683 0.0061098998
-0.10006 0.15688001 0.0060470002
-0.099223003 0.15685 0.0060164002
-0.098242998 0.15672 0.0059330999
-0.097736999 0.15667 0.0060124998
-0.098177999 0.15712 0.0067548002
-0.060253002 0.16016001 0.0065374998
-0.061014999 0.16018 0.0067238999
-0.059463002 0.16019 0.0067055002
-0.056563001 0.1605 0.0068513001
-0.063786 0.16063 0.0066249999
-0.05486 0.16086 0.0067071998
-0.065273002 0.16113999 0.0060124998
-0.052857999 0.16150001 0.0061601
-0.067336001 0.16161001 0.0068271002
-0.068264 0.16192999 0.0067604999
-0.051975001 0.16244 0.0060179001
-0.070261002 0.16253 0.0068000001
-0.072972998 0.16359 0.0065374998
-0.073673002 0.16384 0.0067125
-0.051623002 0.16412 0.0061217998
-0.050020002 0.16504 0.0060421
-0.075778 0.16444001 0.0066887001
-0.050257999 0.16603 0.0065230001
-0.053256001 0.16814999 0.0060883001
-0.051886 0.16753 0.0060994001
-0.051261 0.16749001 0.0059437999
-0.060977999 0.16801 0.0067747999
-0.061983 0.16824999 0.0066868998
-0.060956001 0.16829 0.0062197
-0.060222998 0.16801 0.0067254002
-0.081625 0.16833 0.0060461001
-0.055123001 0.16858 0.0063494002
-0.055729002 0.16926 0.0060132998
-0.066322997 0.16941001 0.0067125
-0.064722002 0.16927999 0.0060231001
-0.063873 0.16917001 0.0060153999
-0.057689998 0.16921 0.0060700998
-0.055822998 0.16858 0.0064876
-0.068423003 0.16986001 0.0060124998
-0.070173003 0.17043 0.0067125
-0.071047999 0.17058 0.0067125
-0.073737003 0.17066 0.0065436
-0.079419002 0.17423999 0.0067888
-0.060256001 0.17523 0.0057982998
-0.092805997 0.17612 0.0067125
-0.079896003 0.17557999 0.0060124998
-0.080130003 0.17521 0.0069102002
-0.080390997 0.17605001 0.0064862999
-0.080923997 0.1762 0.0069109998
-0.088 0.17839 0.0060124998
-0.085872002 0.17833 0.0059453002
-0.085313998 0.1786 0.0066117998
-0.081972003 0.17789 0.0065219998
-0.089634001 0.17942999 0.0060124998
-0.091086 0.17998999 0.0066249999
-0.090204999 0.17974 0.0067125
-0.093590997 0.17963 0.0067125
0.031424999 0.053316999 0.0065183002
0.032166999 0.053153001 0.0067825001
0.032979999 0.052997001 0.0069102999
0.034836002 0.052965 0.0066542001
0.061253998 0.053100001 0.0067547001
-0.042872999 0.05342 0.0060124998
-0.040422998 0.053378001 0.0065374998
-0.041177999 0.053410999 0.0066424999
-0.038497999 0.053351998 0.0065374998
-0.037553001 0.053367998 0.0065724999
-0.036812 0.053383 0.0065374998
-0.035873 0.053394999 0.0064131999
-0.035172999 0.053412002 0.0063625001
-0.034809999 0.053621002 0.0067707999
0.036527 0.053282999 0.0068468
0.060027 0.053449001 0.0070624999
0.059269 0.053849999 0.0068142
-0.052147999 0.053608999 0.0070624999
-0.048705999 0.053571001 0.0067125
-0.049173001 0.053536002 0.0063625001
-0.044798002 0.053514 0.0063625001
-0.043106001 0.053484999 0.0067125
-0.033913001 0.053766999 0.0067825001
-0.033002999 0.053803001 0.0065724999
-0.031206001 0.054170001 0.0064792
-0.032198001 0.053833999 0.0063625001
0.031252999 0.053702001 0.0069261999
0.036927 0.053683002 0.0063625001
0.037599999 0.053777002 0.0066646999
0.064869002 0.053715002 0.0066514998
-0.030623 0.054269999 0.0063625001
0.038461 0.053884 0.0070161
0.038679 0.054474 0.0063616
-0.029310999 0.055139001 0.0067125
0.039418999 0.054554999 0.0066399998
0.057601001 0.054483 0.0064834999
-0.064026996 0.055078 0.0068240999
-0.064572997 0.055075001 0.0067125
0.040348001 0.054710999 0.0068079
0.040252 0.055174999 0.0061963
0.040952001 0.055174999 0.0062974002
0.041083001 0.054942999 0.0066761998
0.054427002 0.055149999 0.0079375003
0.056789 0.054832999 0.0078752004
0.028759999 0.055679001 0.0067062001
0.043051999 0.055312 0.0063625001
0.043926999 0.055372 0.0063625001
-0.026862999 0.055966999 0.0064551001
