# .PCD v0.7 - Point Cloud Data file format
VERSION 0.7
FIELDS x y z
SIZE 4 4 4
TYPE F F F
COUNT 1 1 1
WIDTH 1596
HEIGHT 1
VIEWPOINT 0 0 0 1 0 0 0
POINTS 1596
DATA ascii
0.033743002 0.10007 0.1151
0.046808001 0.098282002 0.12548
0.019157 0.099587999 0.10639
0.022933999 0.099960998 0.1101
0.024831999 0.099201001 0.11071
0.040468998 0.098940998 0.11897
0.040904 0.099292003 0.12043
0.043078002 0.099685997 0.12192
0.043937001 0.097542003 0.12073
0.056306001 0.098970003 0.12987
0.05525 0.098346002 0.12926
-0.00021106 0.10177 0.096713997
0.0027208 0.10314 0.095227003
0.047460999 0.10032 0.12273
0.048413999 0.10009 0.12376
0.0028395001 0.10562 0.096597999
0.017743999 0.10495 0.10415
0.016580001 0.10443 0.10502
0.054221001 0.10124 0.12698001
0.050353002 0.10154 0.12416
0.018129 0.10514 0.10448
0.050960001 0.10288 0.12606999
0.0052042999 0.10682 0.097060002
0.0084860995 0.10795 0.097172998
0.0095344996 0.10858 0.097739004
0.011256 0.10998 0.099684998
0.0088029997 0.10901 0.097604997
0.012664 0.11014 0.10043
0.014876 0.10998 0.10192
0.034389999 0.11242 0.11052
0.036306001 0.11675 0.1095
0.037328999 0.1174 0.11034
0.038633998 0.12038 0.10927
0.026303999 0.12145 0.10257
0.042018998 0.12126 0.11039
0.027102999 0.12383 0.10072
0.044907 0.12268 0.11249
0.040454999 0.12335 0.10933
0.023771999 0.12615 0.098921999
0.043776002 0.12489 0.11261
0.024689 0.12817 0.098655999
0.024026999 0.1268 0.098041996
0.025636001 0.12712 0.099394999
0.025804 0.12556 0.099986002
0.026465001 0.12764999 0.098330997
0.044330001 0.12594999 0.11159
0.023936 0.12808 0.097515002
0.045587 0.12637 0.11246
0.024718 0.12774 0.098004997
0.024424 0.12777001 0.1001
0.018826 0.13012999 0.094470002
0.025126001 0.13053 0.097328
0.038545001 0.12893 0.1067
0.045329001 0.1287 0.11139
0.017484 0.13221 0.092570998
0.018874001 0.13243 0.095206998
0.019407 0.1313 0.092935003
0.037071001 0.13127001 0.1049
0.04487 0.13044 0.10969
0.039707001 0.13163 0.10694
0.041053999 0.13218001 0.10656
0.041196 0.13352001 0.10429
0.017875001 0.13389 0.093544997
0.02509 0.13493 0.096430004
0.041866001 0.13302 0.10754
0.038796 0.13513 0.10406
0.038460001 0.13451999 0.10466
0.042598002 0.13541 0.10641
0.041381001 0.1357 0.10601
0.045667998 0.13446 0.10878
0.039632 0.1363 0.1041
0.022856999 0.13852 0.093691997
0.045039002 0.13386001 0.11
0.027098 0.13659 0.096653
0.025757 0.13710999 0.095432997
0.023080001 0.1391 0.093312003
0.040794998 0.13835 0.10437
0.042675 0.13649 0.10682
0.04163 0.13842 0.10355
0.043887999 0.1375 0.1049
0.026819 0.13789 0.094072998
0.021415001 0.14105 0.089865997
0.020640001 0.13849001 0.093258999
0.028298 0.14029001 0.096229002
0.022516999 0.14084999 0.093617998
0.029092999 0.14069 0.095923997
0.029107001 0.14263 0.095071003
0.029327 0.14295 0.096017003
0.025161 0.14320999 0.092299998
0.019908 0.14589 0.090028003
0.053629 0.14366999 0.11039
0.021397 0.14478999 0.090664998
0.02423 0.14617001 0.092768997
0.019951001 0.14695001 0.089442998
0.026029 0.14804 0.091045998
0.027051 0.1473 0.094734997
0.056770001 0.14509 0.11029
0.058343001 0.1464 0.11016
0.022492999 0.14748 0.088175997
0.058646001 0.1476 0.1105
0.059117999 0.14674 0.10977
0.022396 0.15167999 0.087785996
0.024023 0.15142 0.089988001
0.023256 0.15131 0.089071997
0.059857 0.14836 0.10992
0.059473 0.14816999 0.11129
0.022701999 0.15165 0.086966999
0.060998999 0.14918 0.1119
0.022404 0.15233 0.088073999
0.019880001 0.15347999 0.085942
0.019890999 0.15255 0.086479999
0.061299 0.1512 0.1112
0.025643 0.15228 0.090085998
0.063942 0.14917 0.11003
0.022253999 0.15387 0.086228997
0.063385002 0.15182 0.11278
0.022267999 0.15412 0.086172
0.064378999 0.15346999 0.11169
0.020798 0.15611 0.086002
0.025047 0.15798999 0.086126998
0.021029999 0.16034 0.085139997
0.024677999 0.16005 0.084073998
0.068641998 0.16076 0.1106
0.066581003 0.15938 0.11054
0.069247 0.16288 0.10985
0.067920998 0.16316999 0.11172
0.026386 0.1674 0.082934
0.026525 0.17002 0.084627002
0.029181 0.16929001 0.084380999
0.070758 0.16805001 0.11005
0.025521001 0.17367999 0.079783
0.071950004 0.1697 0.10921
0.029516 0.17709 0.081863001
0.031628001 0.17655 0.082534
0.072733998 0.17504001 0.1079
0.034251999 0.18066999 0.082232997
0.040353999 0.18925001 0.082194
0.039808001 0.18985 0.082386002
0.068077996 0.1883 0.10086
0.041540001 0.19315 0.080955997
0.044263002 0.19616 0.082581997
0.045386001 0.19707 0.084411003
0.063732997 0.19617 0.094039999
0.048535001 0.19735999 0.085913002
0.047168002 0.19751 0.083572999
0.052579999 0.19775 0.085602999
0.058850002 0.19665 0.090857998
0.062714003 0.19587 0.092320003
0.059633002 0.19611 0.091348998
0.064606003 0.19532999 0.092724003
0.065118998 0.19832 0.093613997
0.056060001 0.19592001 0.088036001
0.059119999 0.19707 0.090175003
0.050608002 0.19735999 0.084743999
0.046771001 0.19811 0.082834996
0.059317999 0.20055 0.087237999
0.060079999 0.20062999 0.088896997
0.058871001 0.20141999 0.090659
0.059034999 0.20164999 0.090507001
0.053158 0.20322999 0.085000999
0.066249996 0.20202 0.091289997
0.064231001 0.20408 0.089942999
0.065145001 0.20585001 0.091053002
0.04865 0.20924 0.077482998
0.069853 0.21055 0.090621002
0.070807002 0.21122 0.089697003
0.069170997 0.21155 0.090483002
0.069421001 0.21364 0.089111
0.048096001 0.21809 0.075969003
0.074428998 0.21669 0.090031996
0.074263997 0.21924999 0.090726003
0.051523 0.22209001 0.075815
0.052544001 0.22107001 0.076118
0.075934999 0.22062001 0.090140998
0.053663 0.22438 0.076628998
0.056533001 0.22393 0.077659003
0.076746002 0.22474 0.08918
0.077251002 0.22307 0.088705003
0.077087 0.22495 0.089606002
0.057895001 0.22802 0.076964997
0.076508999 0.22798 0.087503999
0.077751003 0.22623 0.088610999
0.059454001 0.22897001 0.078635998
0.076057002 0.23137 0.087087996
0.074550003 0.23165999 0.085891999
0.074375004 0.23218 0.084960997
0.072783001 0.23343 0.083653003
0.072048999 0.23372 0.082662001
0.051987 0.071296997 0.13759001
0.052421998 0.071875997 0.1397
0.046758 0.072525002 0.13604
0.044794999 0.074551001 0.13501
0.046014 0.073608004 0.13281
-0.007406 0.078794003 0.10244
0.045019001 0.076599002 0.13331001
-0.0070122001 0.080147997 0.10036
0.054579999 0.079265997 0.13696
-0.0076609999 0.083472997 0.097790003
0.024584999 0.083273001 0.12025
0.042722002 0.081987999 0.13121
0.035509001 0.082806997 0.12668
-0.0093874 0.087543003 0.096290998
-0.0092112003 0.090048999 0.094904996
0.057928 0.086217999 0.13653
0.057760999 0.086947002 0.13413
0.055479001 0.091296002 0.13309
-0.0072939 0.094169997 0.096592002
-0.0041621001 0.097466998 0.097080998
0.055973999 0.094489001 0.13257
-0.0038747001 0.099532999 0.095464997
-0.0031741001 0.099201001 0.094706997
0.025573 0.099913999 0.11251
0.046220999 0.098862 0.12466
0.047231 0.097535998 0.12606999
-0.0031516999 0.10426 0.092900001
0.016812 0.10018 0.10629
0.020027 0.1011 0.10695
0.036595002 0.099908002 0.11784
0.036933001 0.098398998 0.11902
0.039868999 0.098153003 0.11953
0.042629998 0.10018 0.12202
0.043395001 0.098102003 0.1225
0.045648001 0.098839998 0.12311
0.055057999 0.098337002 0.12975
-0.0021819 0.10265 0.095829003
0.055969998 0.097923003 0.13141
0.054251999 0.097722001 0.12901001
0.052917 0.10377 0.12636
0.0064582 0.10803 0.099319004
0.015789 0.11049 0.101
0.030382 0.11172 0.10889
0.030599 0.11174 0.11025
0.034910001 0.11292 0.10985
0.028805999 0.11692 0.10489
0.035881002 0.11835 0.10803
0.026911 0.11899 0.10465
0.025659001 0.12129 0.10385
0.026679 0.1236 0.10213
0.045759998 0.12484 0.11292
0.027522 0.12684999 0.10158
0.046824001 0.12612 0.11371
0.025744 0.12795 0.10184
0.026234999 0.1293 0.099344999
0.037689999 0.12774999 0.1084
0.039158002 0.12744001 0.10785
0.044992998 0.1275 0.11232
0.017535999 0.13141 0.093356997
0.026376 0.12981001 0.099788003
0.038026001 0.13041 0.10508
0.036215 0.1305 0.10658
0.024338 0.13244 0.098495997
0.027140001 0.13122 0.099382997
0.041034002 0.13015001 0.10678
0.040553 0.13239001 0.10756
0.026489001 0.13301 0.099304996
0.027187999 0.13319001 0.098502003
0.024991 0.13435 0.096036002
0.026922001 0.13435 0.09883
0.040006999 0.1319 0.10499
0.038731001 0.13569 0.10552
0.027528999 0.13585 0.095931999
0.038059 0.13685 0.10328
0.041967999 0.13614 0.10594
0.020129001 0.13734999 0.091920003
0.047715999 0.13684 0.1096
0.049346 0.13666999 0.10945
0.028546 0.14094999 0.095431998
0.028450999 0.13889 0.095861003
0.019148 0.13856 0.092845999
0.018976999 0.13943 0.092120998
0.047952 0.13858999 0.10908
0.043021999 0.13899 0.1045
0.042314999 0.13892999 0.10399
0.043267999 0.13888 0.10637
0.050554 0.13811 0.10903
0.020184999 0.14206 0.091131002
0.043834001 0.14033 0.10667
0.020416001 0.14302 0.091753997
0.051086001 0.1406 0.108
0.052372999 0.14043 0.10911
0.025065999 0.14554 0.091798998
0.055314001 0.14428 0.10982
0.030370999 0.14551 0.093842998
0.056106001 0.14566 0.1093
0.020075001 0.14579999 0.087655
0.018702 0.14936 0.086728998
0.020663001 0.14706001 0.087633997
0.020532999 0.14865001 0.088564001
0.019204 0.15045001 0.087205999
0.020369001 0.14986999 0.088092998
0.024936 0.14910001 0.090989001
0.058042001 0.14815 0.11047
0.021721 0.15151 0.086593002
0.019683 0.15409 0.086000003
0.020160999 0.15466 0.084271997
0.026223 0.15265 0.089615002
0.020174 0.15508001 0.085527003
0.021478999 0.15497001 0.085892998
0.026873 0.15464 0.090562001
0.019213 0.15508001 0.083889998
0.027171999 0.15356 0.090286002
0.028336 0.15486 0.088896997
0.027395001 0.15702 0.090184003
0.020335 0.15719999 0.084954001
0.066592999 0.15312999 0.11202
0.021778001 0.1577 0.084862001
0.022802999 0.15657 0.086116999
0.023296 0.15710001 0.086383
0.027935 0.1568 0.087858997
0.026449 0.15797 0.088275
0.022182001 0.15765999 0.085938998
0.065484002 0.15412 0.11262
0.021524999 0.15808 0.085808001
0.067899004 0.154 0.1134
0.068750001 0.15573999 0.11244
0.020462001 0.16012 0.084481999
0.023591001 0.15977 0.084918
0.023824999 0.15866999 0.086112
0.067663997 0.15627 0.113
0.068790004 0.16094001 0.10977
0.028403001 0.16322 0.085839003
0.02816 0.1631 0.087103002
0.068662003 0.16236 0.11013
0.025999 0.16748001 0.083352998
0.022991 0.16833 0.081426002
0.026743 0.16874 0.081476003
0.070545003 0.16631 0.10943
0.023666 0.17218 0.080076002
0.071291998 0.17058 0.11016
0.026795 0.17713 0.080238998
0.033177 0.17981 0.082168996
0.033863001 0.182 0.082719997
0.071900003 0.17906 0.10504
0.03472 0.18545 0.083683997
0.069141001 0.18239 0.10155
0.039186999 0.19212 0.081500001
0.042493999 0.19013999 0.081306003
0.067491002 0.19273999 0.096674003
0.040879 0.19469 0.081537999
0.041905001 0.19505 0.080856003
0.065766998 0.19271 0.094653003
0.046151999 0.19618 0.082552001
0.048469 0.19742 0.085533999
0.050016999 0.19696 0.085731998
0.057746001 0.19588 0.089331001
0.064429 0.19933 0.092990004
0.065686002 0.19899 0.094679996
0.063814998 0.19893 0.092321001
0.056233998 0.20141 0.087669
0.056051999 0.20147 0.086860001
0.057789002 0.20056 0.088822998
0.066761002 0.20014 0.092968002
0.054724 0.20121001 0.085404001
0.053807002 0.20195 0.085373998
0.060966998 0.20061 0.088868
0.062159002 0.20200001 0.0911
0.051116001 0.20545 0.083821997
0.050567001 0.20453 0.082635
0.047727998 0.20833001 0.080646001
0.066638 0.20715 0.091830999
0.067823 0.21075 0.091209002
0.045731001 0.21027 0.077409998
0.047033999 0.21495999 0.075871997
0.046817999 0.21547 0.075796999
0.050595999 0.22051001 0.075397
0.051543001 0.22088 0.076701
0.056421999 0.22562 0.078943998
0.059351999 0.22815 0.076765001
0.076190002 0.22849999 0.088340998
0.075179003 0.22897001 0.086722001
0.075119004 0.23186 0.085125998
0.063679002 0.23159 0.079434
0.073739 0.2317 0.084114999
0.067722999 0.23532 0.080802001
0.069316998 0.23424999 0.081541002
0.070817001 0.23445 0.081854001
0.070753999 0.23276 0.081903003
0.046025999 0.073207997 0.1364
-0.005752 0.078771003 0.10299
0.045230001 0.079101004 0.13237
-0.0078552002 0.084527999 0.098091997
-0.00076477998 0.081381001 0.10382
0.0097981999 0.084533997 0.11059
0.01199 0.084789999 0.11091
0.012618 0.082847998 0.1094
0.012715 0.084164001 0.11221
0.013175 0.083728999 0.11465
0.013311 0.085066997 0.1134
0.032772999 0.083264001 0.12748
-0.0080383001 0.087742999 0.097842
-0.011268 0.091059998 0.095527999
0.018905999 0.10218 0.10798
0.059234999 0.097976997 0.1318
0.0041171 0.10689 0.096463002
0.04984 0.10305 0.12504999
0.053043 0.10267 0.12552001
0.01335 0.10912 0.099830002
0.032807 0.11427 0.11118
0.029132999 0.11515 0.10789
0.03455 0.11666 0.10974
0.037053999 0.12093 0.10924
0.037891999 0.12193 0.11071
0.040514 0.12374 0.11072
0.043497998 0.12485 0.11096
0.037682001 0.12548 0.10714
0.035806999 0.12786999 0.10619
0.037721001 0.12748 0.10861
0.037586998 0.12543 0.10813
0.027031999 0.12918 0.10026
0.038031999 0.1322 0.10579
0.027110999 0.13451 0.097793996
0.026419001 0.13723999 0.096446998
0.038355999 0.13654999 0.10291
0.022577001 0.14314 0.093959004
0.044681001 0.14210001 0.10433
0.046277002 0.14203 0.10452
0.05235 0.14342999 0.10963
0.029820001 0.14545999 0.094701998
0.029857 0.14683001 0.095210999
0.028566999 0.14781 0.093428999
0.021904999 0.14775001 0.089837998
0.056926001 0.14835 0.11115
0.058389999 0.1495 0.11054
0.061632 0.15436999 0.11156
0.068746001 0.1655 0.111
0.022405 0.16936 0.082114004
0.027834 0.16951001 0.084060997
0.025864 0.17491999 0.082644999
0.02777 0.17523 0.081289001
0.072095998 0.17897999 0.10567
0.069384001 0.18402 0.10188
0.069349997 0.18781 0.10112
0.039158002 0.18758 0.084674999
0.066841997 0.18923999 0.098855004
0.044489998 0.19593 0.083371997
0.065018997 0.19316 0.096995004
0.063409001 0.20266999 0.090476997
0.064827003 0.20221999 0.092670001
0.066762 0.20694 0.092425004
0.047368001 0.21479 0.077404
0.071516998 0.2181 0.091635004
0.074568003 0.21901 0.090737
0.076626003 0.22645999 0.087144002
0.066937 0.23483001 0.080050997
0.052372999 0.070826001 0.14015
0.046004001 0.075014003 0.13569
0.054044001 0.071855001 0.13809
-0.0024178 0.080652997 0.10315
-0.0068668998 0.08168 0.10016
-0.00099067995 0.082525998 0.10517
0.043178 0.077638 0.13258
0.029673001 0.084532 0.12906
0.029759999 0.084246002 0.12806
0.030719999 0.085267998 0.12975
0.055385999 0.082497999 0.1356
-0.0092863999 0.090379 0.095638998
0.057278 0.089152001 0.13458
0.049265999 0.097590998 0.12581
0.017298 0.10063 0.1065
0.020300999 0.099927999 0.10755
0.024797 0.099928997 0.1109
0.028572001 0.10011 0.1123
0.038878001 0.099226996 0.11924
0.041498002 0.099977002 0.12103
0.018654 0.10808 0.10296
0.033048999 0.11585 0.11098
0.026714999 0.12209 0.10227
0.026908001 0.12565 0.10317
0.042110998 0.12416 0.11062
0.036888 0.12369 0.10801
0.036139 0.12579 0.10649
0.045019001 0.12622 0.11247
0.036267001 0.13008 0.10628
0.026379 0.133 0.098297
0.027081 0.13496 0.099067003
0.027647 0.13668001 0.099659003
0.044383001 0.13308001 0.10914
0.040626001 0.13823 0.1053
0.031351 0.14139 0.098387003
0.027896 0.14149 0.096643999
0.052358001 0.14259 0.1093
0.025048001 0.14936 0.090493001
0.024057999 0.14923 0.090902999
0.027221 0.1521 0.090409003
0.059921999 0.15096 0.11133
0.061067 0.15094 0.11115
0.067147002 0.15829 0.11227
0.030293999 0.1666 0.085427001
0.028589001 0.16914999 0.086018004
0.071479 0.16621999 0.11078
0.025541 0.17159 0.081753001
0.026115 0.17295 0.080608003
0.027398 0.17564 0.082494996
0.028976001 0.17591 0.082240999
0.029901 0.177 0.081762999
0.071676001 0.17669 0.10644
0.068076 0.18217 0.10363
0.067034997 0.18221 0.10288
0.068576001 0.18999 0.099808998
0.050707001 0.19573 0.085146002
0.057583999 0.19615 0.091086999
0.073849998 0.22302 0.08946
0.058580998 0.22797 0.079728998
0.061032999 0.23138 0.078314997
0.066209003 0.23232999 0.079750001
0.067181997 0.23411 0.082645997
0.052900001 0.071021996 0.14058
0.044707999 0.076058 0.13483
-0.0037279001 0.078377999 0.10486
-0.0081634 0.078423999 0.10245
1.9665e-05 0.083120003 0.10337
0.017034 0.083016999 0.11487
0.00048381 0.086069003 0.10986
6.8542999e-05 0.086629003 0.1079
0.0026599001 0.087448999 0.10946
0.0044248998 0.085717 0.10839
0.0070949001 0.084294997 0.10832
0.0054719001 0.084976003 0.10965
0.0058284998 0.084807999 0.1097
0.013024 0.084703997 0.1155
0.011726 0.083747 0.11588
0.011128 0.085669003 0.11505
0.013951 0.084007002 0.11725
0.034210999 0.081667997 0.12729999
0.035636999 0.083676003 0.12755001
0.033523001 0.083090998 0.12495
0.037492 0.083576001 0.12625
0.054931 0.083516002 0.13842
-0.0083791995 0.094644003 0.096389003
-0.0059666 0.095126003 0.097741
-0.0021269999 0.099607997 0.096862003
0.053410999 0.094084002 0.13248999
0.055465002 0.094324 0.13194001
-0.0016311 0.099246003 0.095951997
0.028633 0.10003 0.11351
0.047614001 0.098615997 0.12746
0.031362001 0.099379003 0.11544
0.034092002 0.10067 0.11794
0.037422001 0.099413998 0.12086
0.041726999 0.099298999 0.12133
0.055647999 0.099225998 0.13142
0.0024138 0.10293 0.096386001
0.011691 0.11019 0.10238
0.031318001 0.11279 0.11211
0.032910001 0.1131 0.11119
0.029831 0.11276 0.11037
0.033971999 0.11747 0.11013
0.034332 0.12031 0.11027
0.036362998 0.11831 0.11159
0.027057 0.11843 0.10559
0.035913002 0.12103 0.10993
0.034740999 0.11896 0.10972
0.037457999 0.12073 0.11118
0.037675999 0.12157 0.11053
0.036093 0.12365 0.10814
0.035925999 0.12386 0.10797
0.027607 0.12597001 0.1016
0.043742001 0.12283 0.11392
0.026554 0.12564 0.099941
0.037181001 0.12574001 0.10835
0.026621001 0.12961 0.10111
0.035514999 0.12779 0.10554
0.043175001 0.12909 0.11215
0.044836 0.12861 0.11219
0.036536001 0.12921 0.1043
0.041166998 0.13235 0.1082
0.026538 0.13112999 0.10085
0.035420999 0.13218001 0.10443
0.041103002 0.1329 0.10764
0.028351 0.13639 0.097211003
0.038566001 0.13668001 0.1047
0.043843001 0.13625 0.10868
0.039356001 0.13765 0.1068
0.027240001 0.13765 0.099331997
0.042286001 0.13912 0.10456
0.046921 0.14117 0.10871
0.042059001 0.14136 0.10553
0.047729 0.13963 0.10963
0.050799999 0.14024 0.10821
0.028936001 0.14142001 0.098355003
0.030143 0.14286999 0.096588999
0.030480999 0.14429 0.097177997
0.043869998 0.1419 0.10552
0.045557 0.14268 0.10486
0.049573001 0.14224 0.11002
0.051431999 0.1433 0.10776
0.029506 0.14537001 0.096217997
0.019653 0.14606 0.088812999
0.053842001 0.14354999 0.1096
0.022709001 0.14697 0.090245001
0.054531999 0.14606 0.11051
0.022668 0.14717001 0.090709001
0.028163999 0.15407 0.092648998
0.027321 0.15441 0.090797
0.0261 0.15402 0.091674998
0.062614001 0.15434 0.11163
0.025617 0.15945999 0.086438
0.027094999 0.16348 0.087603003
0.027904 0.16266 0.089282997
0.068604 0.16237999 0.11209
0.023739001 0.16996001 0.082231998
0.071057998 0.16869999 0.11114
0.029449999 0.1767 0.083649002
0.070796996 0.17364 0.10749
0.071378998 0.17747 0.10731
0.038249001 0.18505999 0.083453998
0.038580999 0.18573 0.084004998
0.067270003 0.18404999 0.10272
0.066184998 0.18691 0.10204
0.067979001 0.19233 0.099087998
0.049008999 0.19574 0.085173003
0.047235999 0.19607 0.085423999
0.055015001 0.19483 0.088958003
0.052468002 0.19615 0.087159999
0.056012999 0.19625001 0.089815997
0.057372998 0.19649 0.090143003
0.058532 0.19557001 0.092564002
0.064061001 0.19573 0.093796
0.063294001 0.19959 0.093759
0.062743001 0.20327 0.091155
0.064594001 0.20299999 0.090549998
0.048602 0.21062 0.080744997
0.066950001 0.20886 0.091260999
0.071958996 0.2166 0.090418003
0.074763998 0.22103 0.090218
0.074293002 0.22797 0.088405997
0.073757999 0.23177999 0.086452
0.072938003 0.23253 0.084808998
0.071084 0.23415001 0.081802003
0.070777997 0.23339 0.083210997
0.052412 0.075282998 0.13887
-0.0083250003 0.079765998 0.10295
-0.0087088998 0.082125001 0.10044
-0.0085365996 0.085924 0.09905
0.042653002 0.082172997 0.13188
-0.0083258003 0.085596003 0.099627003
0.01386 0.085133001 0.11684
0.014882 0.084774002 0.11505
0.014882 0.084233001 0.11736
0.054586999 0.082313001 0.13807
-0.0085631004 0.087499999 0.096210003
0.05525 0.086432002 0.13711999
0.057521999 0.087615997 0.13682
0.054241002 0.091292001 0.13285001
0.055489998 0.090945996 0.13323
0.057185002 0.095173001 0.13286
0.054848 0.095592998 0.13151
0.044828001 0.099862002 0.12498
0.044298001 0.10007 0.1237
0.01548 0.10363 0.10603
0.015815999 0.10252 0.10444
0.053105 0.10004 0.12671
0.050586998 0.10186 0.12842
0.050946001 0.10203 0.12774
0.050078001 0.10134 0.12673999
0.0033799999 0.10775 0.096537001
0.015931999 0.10619 0.10474
0.016143 0.10326 0.10456
0.010712 0.10845 0.10051
0.0088435998 0.11007 0.099757999
0.011109 0.11027 0.099523999
0.015701 0.11087 0.10222
0.012701 0.11096 0.10157
0.014218 0.11175 0.10223
0.028733 0.11397 0.10909
0.027438 0.11284 0.10843
0.033998001 0.1147 0.1115
0.033259001 0.11559 0.10968
0.033983 0.11828 0.11098
0.023623999 0.11864 0.10484
0.025633 0.11936 0.10636
0.036773998 0.1225 0.10955
0.043535002 0.12358 0.11337
0.034481999 0.12255 0.10734
0.034731001 0.12248 0.10694
0.031885002 0.12367 0.10764
0.045196 0.12517001 0.11562
0.032972001 0.12448 0.10731
0.034118 0.12706999 0.10694
0.034097999 0.12698001 0.10722
0.042250998 0.12531 0.11236
0.046647001 0.12694 0.1134
0.032095999 0.12702 0.10538
0.035374001 0.12932 0.10514
0.034361001 0.12842999 0.10553
0.024889 0.12985 0.10153
0.027465999 0.13213 0.10139
0.044133998 0.13048001 0.11052
0.027480001 0.13270999 0.099293999
0.044946 0.13347 0.1098
0.04496 0.13774 0.10814
0.043182999 0.13725001 0.10794
0.020834999 0.14125 0.093602002
0.028179999 0.14126 0.097935997
0.045428999 0.13925 0.1082
0.029928001 0.14268 0.097769998
0.046829998 0.14227 0.10633
0.028959 0.14493001 0.094861999
0.020753 0.14831001 0.091422997
0.022449 0.14574 0.090811998
0.023744 0.14711 0.09251
0.019739 0.14959 0.089294001
0.054505002 0.14647 0.10949
0.055884 0.14768 0.1099
0.056995001 0.14943001 0.10903
0.021973001 0.15218 0.089380004
0.058134999 0.15062 0.11282
0.028083 0.15360001 0.091744997
0.020027 0.15521 0.085550003
0.061365001 0.15301999 0.11137
0.065581001 0.15713 0.11359
0.068140998 0.15832999 0.11139
0.029246001 0.16726001 0.088037997
0.031502001 0.16582 0.088372
0.02417 0.16793001 0.083782002
0.069514997 0.16531 0.11053
0.027306 0.17059 0.084981002
0.030107999 0.17107999 0.084886998
0.069637001 0.16742 0.11134
0.025057999 0.17054 0.082156003
0.029472001 0.17076001 0.085666001
0.029017 0.17204 0.084312998
0.026054 0.17402001 0.082695
0.028137 0.17481001 0.083782002
0.031287 0.17499 0.082635
0.029262999 0.17608 0.083221003
0.029957 0.17739999 0.08444
0.069041997 0.18002 0.10536
0.070541002 0.17976999 0.10646
0.036201999 0.18221 0.082509004
0.040631 0.19445001 0.082598001
0.064887002 0.19140001 0.10047
0.067538999 0.19464 0.095461003
0.041756999 0.19614001 0.082015
0.045802001 0.19451 0.085376002
0.062996 0.19484 0.097825997
0.047267001 0.19704001 0.085079998
0.061919 0.1945 0.095615
0.062181 0.19707 0.093014002
0.046131 0.19724999 0.084045999
0.059154999 0.20198999 0.090242997
0.064103 0.2044 0.090948999
0.065356001 0.20621 0.091081001
0.047724999 0.2084 0.079896003
0.068467997 0.2101 0.090549
0.046877999 0.21263 0.078560002
0.047143001 0.21299 0.079498
0.071021996 0.21294001 0.090320997
0.070816003 0.21644001 0.090230003
0.058837 0.2299 0.079484001
0.075235002 0.23078001 0.088684998
0.048176002 0.072063997 0.13839
0.044812001 0.070675999 0.13637
0.05294 0.072981 0.13966
-0.0042571002 0.079334997 0.10674
-0.0034431999 0.078056999 0.10467
0.046151999 0.074757002 0.13479
-0.0068937 0.079282999 0.10288
0.043432999 0.076563999 0.13402
0.051849 0.075686 0.13863
-0.0086601004 0.083346002 0.10137
0.051389001 0.078188002 0.13811
0.044238999 0.077940002 0.13362999
-0.00085890002 0.084421001 0.10443
-0.00072166999 0.085192002 0.10532
-0.0082037998 0.085832998 0.099252999
0.052506 0.080103002 0.13896
0.043446001 0.081150003 0.13118
0.030017 0.084683001 0.12691
0.0309 0.082822002 0.12552001
0.031045999 0.083526 0.12626
0.032805 0.083088003 0.12417
0.041565001 0.081727996 0.13089
-0.00021694 0.086046003 0.10768
0.0015908 0.085226998 0.10608
0.0088456003 0.085404001 0.11107
0.0099304002 0.086073004 0.11154
0.017174 0.083596997 0.11557
0.027589999 0.084884003 0.1228
0.029448999 0.084246002 0.12412
0.029437 0.082975 0.12286
0.031477999 0.083324999 0.12478
0.031528 0.083149001 0.12418
-0.0098336004 0.088763997 0.098737001
0.057526 0.085437 0.13745999
0.056630999 0.086856 0.13765
-0.010094 0.092482001 0.09584
0.055966999 0.091728002 0.13347
-0.0067608999 0.095177002 0.095794998
-0.0042836 0.095930003 0.097102001
0.053654 0.094498999 0.13235
0.056421001 0.095875002 0.13202
0.05748 0.097460002 0.13322
0.028339 0.10124 0.11552
0.04645 0.10008 0.12493
0.049166001 0.099855997 0.12784
0.04888 0.10085 0.12647
0.023486 0.10199 0.11171
0.033020001 0.10005 0.11854
0.053296998 0.099012002 0.12913001
0.054016002 0.09798 0.13067999
0.014502 0.1031 0.10606
0.015596 0.10047 0.10651
0.017509 0.10203 0.10754
0.056662001 0.098342001 0.13214999
0.051504999 0.099013001 0.12932
0.015339 0.10454 0.10527
0.051956002 0.099435002 0.12747
0.049596999 0.10102 0.12541001
0.0020504 0.10628 0.097505003
0.051049002 0.1027 0.12636
0.050528999 0.1036 0.12692
0.013703 0.10605 0.10439
0.015945001 0.10894 0.10325
0.032281999 0.11535 0.10948
0.029479999 0.11494 0.10923
0.029152 0.11657 0.10753
0.029095 0.11632 0.10781
0.027432 0.11804 0.10754
0.034000002 0.11762 0.11082
0.037889 0.12223 0.11112
0.034790002 0.12296 0.10831
0.033165 0.12202 0.10827
0.039055001 0.1239 0.11181
0.043156002 0.12392 0.11401
0.046004001 0.12189 0.11272
0.036649998 0.12548 0.11054
0.032538999 0.1235 0.10829
0.032618001 0.12408 0.10602
0.033705 0.12312 0.10896
0.034409001 0.12533 0.10624
0.043997999 0.12462 0.11369
0.039618 0.12361 0.11168
0.025782 0.12730999 0.10419
0.03915 0.12853999 0.10916
0.04403 0.12788001 0.11394
0.033902999 0.12834001 0.1054
0.03551 0.13056 0.10432
0.035631999 0.13203 0.10423
0.040876001 0.13196 0.10948
0.036415 0.131 0.10411
0.036591999 0.13423 0.10422
0.037151001 0.13388 0.1051
0.037501 0.13542999 0.10506
0.040899999 0.13438 0.10932
0.034814 0.13564 0.10457
0.019795001 0.13792001 0.093781002
0.020431001 0.13942 0.093861997
0.028604999 0.13639 0.098486997
0.028070999 0.13835 0.097940996
0.037606001 0.13755 0.10456
0.039788999 0.13855 0.10561
0.046946 0.13813999 0.10729
0.046174001 0.13741 0.10853
0.040906001 0.14076 0.10333
0.049598001 0.14207 0.1087
0.021005001 0.14327 0.092752002
0.021722 0.14438 0.091715001
0.043003 0.14183 0.10618
0.045524999 0.14343999 0.10875
0.044819999 0.14308999 0.10828
0.050912 0.14298999 0.10861
0.020102 0.14546999 0.091427997
0.02957 0.1442 0.097428001
0.049959 0.14402001 0.10822
0.021503 0.1463 0.090227999
0.020081 0.14635 0.091775
0.021468 0.14707001 0.091283999
0.023732999 0.14493001 0.091842003
0.021707 0.1463 0.093405999
0.024084 0.14703999 0.092918001
0.051143002 0.14489999 0.11008
0.019332999 0.14861 0.089414001
0.052866001 0.14552 0.10919
0.024568999 0.14846 0.091089003
0.028209999 0.14662001 0.095776998
0.025754999 0.15027 0.093560003
0.027559999 0.14789 0.094821997
0.030266 0.14748 0.094797
0.053610999 0.14749999 0.10973
0.026167 0.1481 0.092399999
0.057126999 0.14687 0.11017
0.054602999 0.14771 0.1105
0.018591 0.14999001 0.086462997
0.024716999 0.14999001 0.091932997
0.055918001 0.14879 0.11041
0.024939001 0.15008999 0.091076002
0.026402 0.14963999 0.092409
0.019684 0.15291999 0.087461002
0.058412001 0.14853001 0.10978
0.018834 0.15125 0.087656997
0.059115 0.15037 0.10986
0.020076999 0.15457 0.086813003
0.019354001 0.15479 0.084151998
0.060607001 0.15255 0.11184
0.060841002 0.15406001 0.11129
0.026919 0.15603 0.091507003
0.021067001 0.15826 0.086386003
0.021028001 0.16051 0.084930003
0.065338999 0.15501 0.11387
0.067340001 0.15632001 0.11328
0.025903 0.16191 0.087518997
0.065909997 0.1587 0.11286
0.065113001 0.15967 0.11186
0.029206 0.16425 0.088297002
0.029727001 0.16504 0.089767002
0.066531003 0.16171999 0.11051
0.030756 0.16449 0.089792997
0.067594998 0.16258 0.11123
0.068944998 0.16467001 0.11185
0.028434001 0.16986001 0.086580001
0.025455 0.16929001 0.084628999
0.022828 0.16969 0.083958
0.025322 0.17020001 0.084945999
0.027789 0.17041001 0.083627999
0.027605001 0.17197999 0.084078997
0.025998 0.17069 0.083337002
0.026482999 0.17137 0.082101002
0.025753999 0.17138 0.083362997
0.028806999 0.17162 0.084330998
0.027596001 0.17291 0.083144002
0.027112 0.17353 0.084374003
0.069016002 0.16960999 0.11035
0.028845999 0.17335001 0.085125998
0.027742 0.17388999 0.083732001
0.071975 0.17193 0.10973
0.071975999 0.17214 0.10924
0.070903003 0.17156 0.10865
0.029042 0.17629001 0.082176998
0.027771 0.17828 0.082157001
0.033730999 0.18035001 0.083581999
0.068718001 0.17968 0.10498
0.038132999 0.18561 0.085626997
0.039299 0.18866999 0.084362
0.039872002 0.19072001 0.082952
0.037898 0.19078 0.082566001
0.067621 0.18708 0.099198997
0.066385999 0.19189 0.098828003
0.041831002 0.19591001 0.083919004
0.064476997 0.19411001 0.097484
0.04459 0.19459 0.085547
0.046677001 0.19583 0.086925
0.048652001 0.19406 0.086162999
0.050661001 0.19641 0.087206997
0.054988001 0.19623999 0.090317003
0.045504998 0.19671001 0.085193999
0.045253001 0.19712999 0.084282003
0.049832001 0.19603001 0.085463002
0.063515998 0.19476999 0.094377004
0.065360002 0.19927 0.093610004
0.059774999 0.20062 0.092150003
0.048868999 0.20602 0.083269998
0.065854996 0.20563 0.093097001
0.048551001 0.20749 0.081974
0.047478002 0.21133 0.079783998
0.066238999 0.20743001 0.092120998
0.066760004 0.21261001 0.091943003
0.047001999 0.21475001 0.077297002
0.069476999 0.21468 0.090449996
0.071276002 0.21872 0.090758003
0.048025001 0.2189 0.076608002
0.051392999 0.22240999 0.076729998
0.072714999 0.21994001 0.090960003
0.074653998 0.22208001 0.091485001
0.054361001 0.22666 0.078854002
0.058334999 0.22493 0.078018002
0.075916998 0.22491001 0.089648999
0.061434001 0.23043001 0.079689004
0.062481001 0.23152 0.078166001
0.065030001 0.23416001 0.080564998
0.047159001 0.072001003 0.13788
0.051645 0.073302999 0.13965
0.044181 0.072775997 0.13600001
-0.0062378999 0.076934002 0.10315
-0.0027534 0.079483002 0.10572
-0.0087802 0.080830999 0.10225
-0.0019493999 0.080003001 0.10484
0.050917 0.075563997 0.13775
0.044681001 0.077702001 0.13307001
-0.0019773 0.081248 0.10534
-0.0075604999 0.083986998 0.1008
-0.0091292998 0.082814999 0.098985001
0.043666001 0.077702999 0.13235
0.052076999 0.080411002 0.13664
0.054674 0.082110003 0.13841
0.053617999 0.081246004 0.13778999
-0.00024316 0.084734 0.10637
0.043791998 0.080444001 0.13146
0.027486 0.082653001 0.12117
0.025629001 0.085377999 0.12352
0.025767 0.083189003 0.11971
0.026727 0.08427 0.12372
0.039030999 0.081151001 0.12804
0.015189 0.085786998 0.11852
0.017070999 0.085277997 0.11828
0.017201999 0.084071003 0.12068
0.017036 0.084291004 0.11482
0.020415001 0.082528003 0.11742
0.021343 0.084790997 0.11832
0.020728 0.083910003 0.12058
0.020904999 0.083513997 0.12166
0.022453999 0.083896004 0.12105
0.022433 0.085937999 0.1215
0.023236999 0.084628999 0.12108
0.025571 0.082427002 0.12162
0.028147999 0.083531 0.12209
-0.010142 0.091261998 0.098025002
0.056139998 0.089068003 0.13512
-0.0055343001 0.095729001 0.096639
-0.005235 0.096277997 0.097342998
-0.0036263999 0.10079 0.095060997
-0.0036285999 0.10105 0.094861999
0.045850001 0.10039 0.12465
0.017912 0.10229 0.10796
0.031893998 0.099211998 0.11835
0.034235999 0.099909998 0.11779
0.037379999 0.099436998 0.12079
0.043552998 0.099421002 0.12312
0.056175999 0.098811001 0.13033
5.5347e-06 0.10239 0.097369
-0.0013094 0.103 0.098807
0.018757001 0.10242 0.10897
0.021073001 0.10133 0.1098
0.039037 0.099728003 0.12116
0.0002214 0.10462 0.097713001
0.00127 0.10509 0.097621001
0.051065002 0.10239 0.12696999
0.0033098999 0.10878 0.098545
0.017556001 0.10713 0.10491
0.0060565001 0.10813 0.1001
0.015148 0.1107 0.10283
0.030726001 0.11374 0.11049
0.032393001 0.11796 0.11041
0.025915001 0.11803 0.10707
0.03497 0.11772 0.11195
0.026281999 0.12193 0.10486
0.035987001 0.12236 0.11009
0.025845001 0.12328 0.10388
0.034292001 0.12147 0.10802
0.033337999 0.12187 0.10827
0.029461 0.12305 0.1074
0.025812 0.12493 0.10557
0.036768999 0.12351 0.10843
0.037604 0.12526 0.11077
0.043152001 0.1238 0.11289
0.032329999 0.127 0.10634
0.03743 0.12632 0.10984
0.037602 0.12735 0.1085
0.042996 0.12623 0.11389
0.033245001 0.12754001 0.10628
0.043402001 0.126 0.11258
0.025947001 0.1283 0.10146
0.026052 0.12727 0.10298
0.033913001 0.12970001 0.10549
0.038408998 0.1296 0.10978
0.040401999 0.13016 0.10926
0.034386002 0.13049001 0.10549
0.044961002 0.13255 0.11134
0.034602001 0.13451 0.10487
0.028907999 0.13521001 0.10072
0.042676002 0.13481 0.11071
0.027918 0.13610999 0.097819999
0.035457 0.13680001 0.10374
0.041448999 0.13593 0.10733
0.044229999 0.13452999 0.10976
0.037909999 0.13604 0.1034
0.037427999 0.13737001 0.10605
0.020234 0.14007001 0.092762999
0.019669 0.14014 0.091743998
0.043272 0.14068 0.10673
0.045372002 0.13894001 0.10987
0.044707 0.14234 0.10789
0.021005999 0.14227 0.092205003
0.020012001 0.14286 0.092099003
0.022056 0.14203 0.093799002
0.02028 0.14334001 0.091808997
0.041843999 0.14088 0.10536
0.045350999 0.14149 0.10771
0.044396002 0.14206 0.10427
0.048083998 0.14252 0.10924
0.019297 0.14454 0.091302998
0.021275001 0.14448 0.092578001
0.050101001 0.14441 0.10974
0.022534 0.14783999 0.090074003
0.020763 0.14884 0.091573
0.027264999 0.14749999 0.093877003
0.020647001 0.15081 0.089029998
0.02194 0.15103 0.090589002
0.053893998 0.14724 0.11048
0.054233 0.14877 0.10848
0.021024 0.15242 0.087765999
0.020702999 0.15383001 0.089171
0.059562001 0.14992 0.11104
0.020567 0.15418001 0.087950997
0.021291999 0.15541001 0.088550001
0.027650001 0.15435 0.092362002
0.059546001 0.15386 0.11218
0.026831999 0.15592 0.090409003
0.021708 0.15908 0.087385997
0.021247 0.15782 0.086365998
0.024058999 0.15735 0.087067001
0.062684 0.15274 0.11225
0.063965999 0.15503 0.11376
0.022601999 0.15808 0.087797999
0.024249 0.15881 0.089129001
0.02589 0.15845001 0.090240002
0.065917999 0.15578 0.11289
0.025427001 0.16088 0.087392002
0.023419 0.16117001 0.087237999
0.027198 0.16091999 0.089514002
0.065458998 0.16141 0.11142
0.030584 0.16812 0.085657001
0.024517 0.16977 0.083029002
0.030844999 0.17573 0.085137002
0.070284002 0.17038 0.11055
0.032088999 0.17806 0.084242001
0.070381001 0.17581999 0.10868
0.031844001 0.17971 0.084118001
0.072136 0.17596 0.1076
0.070509002 0.17767 0.10707
0.033543002 0.18095 0.084253997
0.034919001 0.18195 0.085340001
0.070487998 0.17829999 0.10687
0.035418998 0.18426999 0.084716
0.067923002 0.18113001 0.10453
0.036005002 0.18543001 0.083916999
0.067514002 0.18381 0.10294
0.038164001 0.18483 0.084817998
0.066800997 0.18551999 0.10262
0.069131002 0.18970001 0.099873997
0.068186 0.19052 0.099849001
0.041030001 0.19423001 0.082335003
0.066436999 0.19141001 0.10043
0.041684002 0.1953 0.083109997
0.044473998 0.1938 0.084151
0.049713001 0.19492 0.089544997
0.062858 0.19578999 0.093685001
0.056558002 0.19677 0.091316
0.054699998 0.19722 0.091528997
0.056899998 0.19687 0.092436999
0.052616999 0.19578999 0.089432001
0.058240999 0.19627 0.092821002
0.052292999 0.19802999 0.088564999
0.059581 0.19639 0.093488999
0.061214 0.19604 0.094530001
0.055464 0.20215 0.087465003
0.057521001 0.2024 0.087374002
0.057181001 0.20115 0.090576999
0.054226998 0.20186 0.087892003
0.053034 0.20268001 0.087301999
0.060823999 0.20288999 0.090296
0.053091001 0.20382001 0.086767003
0.061742 0.20246001 0.09183
0.051249001 0.20213 0.086444996
0.051695 0.20519 0.084948003
0.061237 0.20435999 0.091312997
0.062501997 0.2027 0.090228997
0.050471999 0.20596001 0.082929999
0.066223003 0.20903 0.090995997
0.066244997 0.21032999 0.090072997
0.047283001 0.21495 0.078690998
0.046787001 0.21419001 0.077701002
0.070592999 0.21679001 0.092244998
0.069306001 0.21469 0.090802997
0.073706001 0.21927001 0.091596
0.072313003 0.22029001 0.091655001
0.051061999 0.22160999 0.078079
0.057218999 0.22674 0.079607002
0.074091002 0.22799 0.090818003
0.074236996 0.23035 0.087125003
0.074369997 0.23159 0.086308002
0.074170999 0.23241 0.084720001
0.065522 0.23461001 0.080904998
0.073349997 0.23356 0.084990002
0.068862997 0.23417 0.082456999
0.070582002 0.23334999 0.083991997
0.051270999 0.070800997 0.13901
0.04879 0.070890002 0.14072999
0.051093001 0.079295002 0.13811
0.023902001 0.082834996 0.12155
0.016217999 0.085055001 0.11723
0.018154001 0.086773999 0.11612
0.018709 0.084830001 0.11932
0.019038999 0.085703 0.11888
0.023336001 0.085045002 0.12272
0.033365998 0.082284003 0.12654001
0.036811002 0.083194003 0.12898999
0.037505999 0.082254998 0.12754001
0.038973 0.084209003 0.12916
0.055771001 0.082958996 0.13773
-0.0093016997 0.093213998 0.097338997
0.053438 0.091973998 0.13244
-0.0024176 0.097819 0.098311998
-0.0033622 0.099564999 0.098098002
-0.0040373998 0.10269 0.095251001
0.028580001 0.10046 0.11483
0.048799001 0.099804997 0.12769
-0.0032470999 0.10327 0.096672997
0.022673 0.10009 0.11064
0.053757999 0.099457003 0.13203999
-0.0014885 0.10223 0.096322
0.040445998 0.10033 0.12261
0.0072832 0.10764 0.099142998
0.030479001 0.11519 0.11133
0.026598999 0.11574 0.10769
0.027238 0.1143 0.10785
0.025195001 0.1174 0.10636
0.031199999 0.12036 0.10867
0.031792998 0.12027 0.10968
0.030923 0.12184 0.10727
0.02939 0.12188 0.10711
0.03039 0.12547 0.10506
0.030893 0.12740999 0.10507
0.042371001 0.12576 0.1125
0.041772999 0.12605 0.11073
0.042321999 0.12486 0.11302
0.04541 0.12998 0.11163
0.039014 0.13117 0.10887
0.033266999 0.13485999 0.10436
0.035941001 0.13871001 0.10432
0.045474 0.13726 0.10934
0.038833 0.13923 0.10458
0.020729 0.14436001 0.092100002
0.046303999 0.14105 0.1087
0.043823 0.14478999 0.10538
0.020463999 0.14962 0.089727998
0.057139002 0.15036 0.11085
0.026198 0.15887 0.090695001
0.021287 0.15966 0.087187
0.066701002 0.16218001 0.11186
0.037188001 0.18551999 0.084896997
0.041455001 0.19502001 0.083847001
0.063212998 0.1935 0.095908001
0.066486999 0.21004 0.091213003
0.0491 0.21902999 0.076852001
0.049299002 0.2201 0.077454999
0.05099 0.22124 0.078331999
0.054051999 0.22329 0.077004999
0.060732 0.23082 0.079664998
0.061623 0.23058 0.079677999
-0.0088253999 0.081009001 0.1045
-0.0092786001 0.080293 0.10166
0.042810999 0.076591 0.13349
0.0015079 0.085546002 0.1057
0.0029370999 0.087301999 0.10735
0.0076059001 0.085721001 0.11106
0.0096508004 0.085051 0.11529
0.033649001 0.082377002 0.12630001
0.055358998 0.083683997 0.13779999
0.055819999 0.084041998 0.13834
0.055346001 0.090526998 0.13529
0.055206001 0.090595998 0.13600001
-0.0031295 0.10229 0.095803998
0.025243999 0.10031 0.11432
0.026524 0.10106 0.11378
0.029831 0.10046 0.1178
0.036641002 0.099777997 0.11942
0.036369 0.10055 0.12009
0.0062894998 0.10802 0.098701
0.0084995003 0.10964 0.10094
0.013283 0.10954 0.10163
0.028093001 0.11508 0.11019
0.032737002 0.1182 0.11068
0.025672 0.12084 0.10528
0.024799 0.12082 0.10628
0.030920001 0.11942 0.10647
0.030949 0.1198 0.11019
0.028705999 0.121 0.10752
0.02912 0.12031 0.1055
0.028529 0.12129 0.10697
0.028131999 0.12224 0.10666
0.033048 0.12094 0.10943
0.03438 0.12308 0.10947
0.038102001 0.12393 0.11346
0.039326001 0.12292 0.11241
0.030363001 0.12867001 0.10556
0.046259001 0.12791 0.11382
0.033217002 0.12895 0.10487
0.032239001 0.12983 0.10438
0.032377001 0.13244 0.10405
0.032896999 0.13265 0.10542
0.044472001 0.13447 0.11011
0.044992998 0.13514 0.11013
0.035840999 0.13584 0.10516
0.041598 0.13616 0.11006
0.037285998 0.14114 0.10447
0.046029001 0.14138 0.10749
0.039767999 0.14202 0.10603
0.042436 0.14289001 0.10678
0.04541 0.14435001 0.10781
0.050216999 0.14481001 0.10938
0.024713 0.15017 0.093200997
0.056853 0.15233999 0.11159
0.027603 0.16156 0.090447001
0.066766001 0.16103999 0.10994
0.064083003 0.15938 0.11225
0.028601 0.16993999 0.087105997
0.030786 0.17783999 0.084224999
0.069089003 0.17637999 0.10879
0.069087997 0.17927 0.10672
0.067102998 0.18416999 0.10243
0.066770002 0.18614 0.10318
0.038573001 0.18967 0.085321002
0.064384997 0.19237 0.098365001
0.050618999 0.1974 0.089474
0.050368998 0.19566999 0.087168999
0.060426999 0.19653 0.092942998
0.048700999 0.20598 0.083839998
0.048413999 0.20723 0.082952999
0.048841 0.21058001 0.080895998
0.046725001 0.21276 0.081285998
0.072989002 0.21955 0.090970002
0.058024999 0.22837 0.078716002
0.073232003 0.22920001 0.088266
0.062077999 0.23243999 0.079305001
0.064345002 0.23371001 0.081684999
0.048300002 0.070629999 0.14032
0.049895 0.073091 0.14031
-0.0052609001 0.079231001 0.10508
0.049660999 0.075893998 0.14049999
0.0493 0.077918001 0.13829
-0.0016466 0.084126003 0.10818
0.011532 0.084881 0.11251
0.01756 0.084913 0.11813
-0.010327 0.087383002 0.099486999
0.056426998 0.086682998 0.13855
-0.0078036999 0.095642 0.097677
0.050129 0.099334002 0.1284
0.050080001 0.099881001 0.12954
0.014261 0.10586 0.10643
0.049594 0.10093 0.12885
0.030412 0.12077 0.10837
0.029381 0.11992 0.10788
0.027427001 0.12337 0.10521
0.027961001 0.12446 0.10487
0.028485 0.12675001 0.10502
0.031044999 0.12859 0.10639
0.043768 0.13601001 0.11175
0.035110001 0.14047 0.10376
0.028495001 0.1434 0.097646996
0.042399999 0.14393 0.10588
0.051709998 0.14843 0.11004
0.051661 0.14613999 0.10991
0.051114999 0.14872999 0.11043
0.024085 0.16022 0.086837001
0.029239001 0.16535001 0.088056996
0.068076998 0.16398001 0.11274
0.068397999 0.16278 0.11186
0.034327 0.18222 0.085481003
0.067566 0.18917 0.10151
0.043605 0.19471 0.084517002
0.060104001 0.19503 0.095660999
0.059000999 0.19385 0.094366997
0.068617001 0.21589001 0.090839997
0.069859996 0.21773 0.091592997
0.074937999 0.2228 0.089808002
0.056146 0.22617 0.079208001
0.055022001 0.22645 0.079668999
0.057771001 0.22931001 0.079131
0.057041001 0.22768 0.080072001
0.065270998 0.23314001 0.083007
0.072975002 0.23261 0.084531002
0.072479002 0.23233999 0.086797997
0.069522999 0.23364 0.084923998
0.046082001 0.072521999 0.141
0.047183 0.073050998 0.13812999
0.050744001 0.073000997 0.14132001
-0.0044598002 0.077230997 0.10724
0.043095 0.074833997 0.13635001
0.044427 0.074331999 0.13569
-0.0090921996 0.079659998 0.10309
0.050671 0.077152997 0.13855
0.049954001 0.078672998 0.13850001
-0.011041 0.087540999 0.10067
-0.010318 0.08715 0.10233
0.039496999 0.081524 0.13054
0.050177 0.081260003 0.13708
0.051893 0.081931002 0.13982999
-0.00069722999 0.085706003 0.10602
0.01746 0.085547 0.11754
-0.0087885996 0.087457001 0.098040998
-0.0097348997 0.091481 0.097305
0.055649001 0.089055002 0.13711999
-0.0064772 0.097759999 0.097502999
0.054209001 0.091750003 0.13458
-0.0046103001 0.099129997 0.099250004
-0.0039423001 0.10143 0.097562
0.055300001 0.096129999 0.134
0.024389001 0.10065 0.1133
0.035822 0.10072 0.11978
0.050087001 0.098405004 0.1287
0.049929999 0.099169001 0.12824
0.056010999 0.097750001 0.1319
0.0138 0.10257 0.10758
0.01809 0.10281 0.10925
0.018662 0.10266 0.11021
0.045228001 0.10056 0.12581
0.055024002 0.098889999 0.13203
0.050352 0.099869996 0.13070001
0.050822999 0.099189997 0.13008
0.049495999 0.1023 0.13009
0.0014292001 0.10466 0.098972999
0.0024015 0.10737 0.097925
0.0037110001 0.10784 0.099081002
0.0055427002 0.10746 0.099172004
0.013862 0.10673 0.1053
0.028476 0.12074 0.10714
0.027686 0.11654 0.10678
0.026168 0.12144 0.10576
0.026141001 0.11995 0.10615
0.036481999 0.12039 0.11105
0.029013 0.12357 0.10464
0.037680998 0.12119 0.11304
0.026977001 0.12322 0.10524
0.034527 0.12371 0.11173
0.035176001 0.1247 0.10952
0.028070999 0.12451 0.10482
0.038942002 0.12258 0.11367
0.038805 0.12245 0.11265
0.040619001 0.12488 0.11182
0.042309001 0.12466 0.11362
0.030749001 0.12754001 0.10491
0.031605002 0.12872 0.10444
0.036837999 0.1266 0.11102
0.029781001 0.13038 0.10498
0.041200001 0.13146999 0.11077
0.031934999 0.13155 0.10478
0.030505 0.13433 0.10425
0.033172 0.13271999 0.10491
0.044041999 0.13411 0.11059
0.044319 0.13176 0.11229
0.033927999 0.13733 0.10454
0.027621999 0.13567001 0.099210002
0.035039999 0.14027999 0.10405
0.034513 0.13953 0.1038
0.028027 0.14108001 0.10063
0.042994998 0.14058 0.10969
0.041602999 0.14413001 0.1056
0.046036001 0.14308999 0.10997
0.028237 0.14542 0.097087003
0.042826001 0.14658 0.10729
0.049507 0.14587 0.10963
0.026497999 0.15018 0.094795004
0.057849001 0.15138 0.11131
0.057066001 0.15519001 0.11201
0.059312001 0.15268999 0.10971
0.062637001 0.1561 0.11367
0.065306 0.15932 0.11281
0.029221 0.16252001 0.091369003
0.067042001 0.16546001 0.11169
0.02947 0.17084999 0.087590002
0.067906 0.17038 0.11071
0.031537998 0.17735 0.085777998
0.069328003 0.17786001 0.10748
0.068493001 0.17817999 0.10868
0.032738 0.18178999 0.086011
0.068903998 0.17931999 0.10687
0.067354999 0.18046001 0.10495
0.036708999 0.18454 0.084944002
0.064976998 0.18396001 0.10334
0.038499001 0.18679 0.086249001
0.067203 0.18572 0.10306
0.067557998 0.18900999 0.10196
0.038355999 0.19154 0.085392997
0.038941 0.19111 0.084787004
0.042394999 0.19362999 0.086468004
0.061365999 0.19411001 0.098158002
0.049314 0.19464 0.089006998
0.051888999 0.19483 0.091155998
0.0517 0.19483 0.090737
0.051433999 0.19393 0.089837
0.045540001 0.19481 0.086714
0.059176002 0.19529 0.093340002
0.047733001 0.21128 0.081197999
0.068806 0.21213999 0.092125997
0.066292003 0.213 0.091642998
0.048213001 0.2167 0.079631001
0.04772 0.21917 0.078039996
0.047952998 0.21960001 0.078750998
0.052592002 0.2244 0.078322999
0.073081002 0.22428 0.090655997
0.073146001 0.22744 0.089786001
0.058435999 0.22927 0.079767004
0.075012997 0.22781 0.088753998
0.05906 0.23018999 0.081618004
0.061379001 0.23176 0.081106
0.073082 0.2322 0.086498
0.067771003 0.23316 0.083815001
0.071575999 0.23318 0.085313998
0.049720999 0.072232001 0.1418
0.043907002 0.072984003 0.13572
0.045869 0.073852003 0.1371
0.043497 0.073637001 0.1363
-0.0067862999 0.078088 0.10584
-0.0062287999 0.078965001 0.1048
-0.0069354 0.078326002 0.10427
-0.0032927 0.077845998 0.10505
-0.012499 0.080363996 0.10224
0.043731 0.075476997 0.13457
-0.0023685 0.081448004 0.10706
0.042165 0.077448003 0.13616
-0.0093532 0.082310997 0.10183
-0.0092014996 0.081381001 0.10143
0.043364 0.077811003 0.13422
0.048671 0.078703001 0.13826001
-0.0078694001 0.082575001 0.10106
0.050184 0.079278 0.13711999
0.051840998 0.079281002 0.13772
0.043988001 0.080257997 0.13384999
0.043878999 0.081001997 0.13287
0.043021001 0.080314003 0.13274001
-0.0010728 0.083885998 0.10718
0.042332001 0.082226999 0.13279
0.041643001 0.081463002 0.1331
0.0048006 0.086076997 0.11203
0.025077 0.086769998 0.12356
0.029176001 0.083942004 0.12484
0.054026 0.082383998 0.13872001
-0.010286 0.088096999 0.10019
0.056031998 0.082962997 0.14008
0.05641 0.087552004 0.13686
0.055557001 0.086801998 0.13833
-0.0091564003 0.091765001 0.097544
-0.0099291997 0.094942003 0.097622998
-0.0073362002 0.095783003 0.096942
0.055358 0.090092003 0.13636
0.05407 0.092166997 0.13553999
0.053142 0.091219999 0.13403
-0.0060526999 0.096873999 0.096437
-0.0062966002 0.096796997 0.096644998
-0.0031083 0.099436 0.098388001
0.052717999 0.093817003 0.13168
0.052687999 0.095214002 0.13274001
0.053612001 0.096235 0.13425
-0.0039955 0.10056 0.097552001
-0.0033312 0.10392 0.098205999
0.046778999 0.097979002 0.12704
0.048096001 0.098958001 0.12845001
-0.0033076 0.10275 0.096768998
0.022988999 0.10139 0.11078
0.025367999 0.1006 0.11555
0.028833 0.10012 0.11631
0.029006001 0.10119 0.11652
0.034683999 0.099344 0.11823
0.034026001 0.1007 0.12049
0.053089 0.099308997 0.13203
0.053105 0.10085 0.13266
0.0002127 0.10494 0.097823001
-0.0011774 0.10465 0.097987004
0.015339 0.10135 0.10834
0.019433999 0.10287 0.11085
0.02208 0.10133 0.11138
0.037967999 0.10035 0.1223
0.00055240002 0.1044 0.099495001
0.051242001 0.10137 0.13071001
0.015869001 0.1034 0.10582
0.050253998 0.10362 0.1292
0.051353998 0.10224 0.12836
0.015205 0.10646 0.10607
0.0056685 0.10798 0.099569
0.014045 0.10832 0.10469
0.015372 0.1063 0.10422
0.0089462996 0.10919 0.10205
0.013103 0.10989 0.10426
0.0093529001 0.10949 0.10149
0.012149 0.10982 0.10156
0.012189 0.10969 0.10171
0.012439 0.10995 0.10322
0.028062999 0.11443 0.11056
0.027302001 0.11605 0.10895
0.02966 0.11388 0.11113
0.026384 0.11586 0.11004
0.029289 0.11535 0.11074
0.02758 0.11688 0.10896
0.026936 0.11578 0.10686
0.02616 0.11558 0.10783
0.031205 0.11814 0.11075
0.030278999 0.11669 0.10983
0.026164999 0.11808 0.10624
0.031307001 0.11806 0.11007
0.025382999 0.11987 0.10598
0.030933 0.11864 0.10977
0.028548 0.1178 0.10739
0.028084001 0.11914 0.10842
0.028767999 0.11894 0.10849
0.029828999 0.11808 0.10959
0.032659002 0.11984 0.11183
0.031530999 0.11948 0.109
0.025723999 0.11948 0.1079
0.025952 0.12077 0.10572
0.034570001 0.12053 0.11025
0.025324 0.12158 0.10642
0.031659 0.12183 0.10947
0.036846999 0.12191 0.11271
0.023782 0.12271 0.10649
0.026389999 0.12278 0.10698
