# .PCD v0.7 - Point Cloud Data file format
VERSION 0.7
FIELDS x y z
SIZE 4 4 4
TYPE F F F
COUNT 1 1 1
WIDTH 1603
HEIGHT 1
VIEWPOINT 0 0 0 1 0 0 0
POINTS 1603
DATA ascii
0.17895 0.037505999 0.14609
0.18339001 0.045412 0.083093002
0.18283001 0.045093998 0.083067
0.1866 0.043869998 0.091787003
0.1876 0.044877 0.092046
0.19144 0.046185002 0.092555001
0.19245 0.046641 0.092496
0.19272999 0.046870001 0.089648999
0.19533999 0.047398999 0.086562999
0.19784001 0.047931999 0.086079001
0.19919001 0.041933998 0.14738999
0.20063999 0.048841 0.086310998
0.20023 0.049511999 0.085082002
0.20068 0.042782001 0.148
0.20525999 0.043095998 0.14881
0.20704 0.049082 0.093521997
0.20713 0.048765998 0.093471996
0.20739999 0.050407 0.093927003
0.20885 0.049826998 0.089231998
0.20863 0.051263001 0.090213001
0.21518999 0.052251 0.088036999
0.21540999 0.044459 0.1524
0.21798 0.052320998 0.089670002
0.21604 0.052409001 0.089367002
0.21878 0.046135999 0.15385
0.22044 0.046440002 0.15266
0.22048999 0.05181 0.093335003
0.21922 0.053254999 0.094302997
0.22037999 0.052650001 0.090304002
0.22081999 0.053179 0.091025002
0.22152001 0.047169998 0.15166999
0.22251 0.053397 0.096144997
0.2238 0.047609001 0.15071
0.22492 0.054136001 0.096592002
0.22717001 0.054566 0.097213998
0.22958 0.048772 0.14914
0.23045 0.054999001 0.098737001
0.23306 0.050032001 0.14847
0.23286 0.055638 0.10051
0.23897 0.05565 0.10365
0.24082001 0.051840998 0.14724
0.24152 0.052827999 0.14708
0.24557 0.052308001 0.14842001
0.24862 0.059836999 0.10262
0.25147 0.059613001 0.1025
0.25745001 0.060717002 0.10016
0.26236001 0.062435001 0.099698998
0.26451999 0.057241 0.15492
0.26504001 0.057153001 0.15615
0.26640999 0.057064001 0.15694
0.26657999 0.063478999 0.099645004
0.26769999 0.063738003 0.098839
0.26791 0.057284001 0.15824001
0.26839 0.057521999 0.15545
0.27050999 0.058205001 0.15462001
0.27052 0.064129002 0.097787999
0.27151 0.058926001 0.15448
0.27178001 0.058316998 0.15336999
0.27592999 0.059799999 0.15216
0.27768999 0.066904001 0.099739
0.27946001 0.067486003 0.10066
0.27998999 0.064222999 0.11608
0.28026 0.065618999 0.1164
0.27875 0.061005 0.15486
0.28241 0.066274002 0.10955
0.2807 0.065834001 0.1097
0.28237 0.065819003 0.11931
0.28119001 0.065866999 0.11661
0.28364 0.065895997 0.11933
0.28373 0.062355999 0.14015999
0.28573999 0.066954002 0.099482
0.2852 0.063148998 0.13747001
0.28529999 0.066610001 0.10839
0.28505999 0.066352002 0.1208
0.28619 0.066509999 0.10587
0.28648999 0.061209999 0.15522
0.28505 0.060451999 0.15564001
0.28768 0.067759 0.10072
0.28726 0.068129003 0.10543
0.28819001 0.067709997 0.10535
0.28753999 0.065550998 0.13515
0.28691 0.062893003 0.15218
0.28573999 0.061756998 0.15259001
0.28636 0.061510999 0.15297
0.28771999 0.067256004 0.10436
0.28742999 0.065562002 0.12392
0.28784001 0.065624997 0.12545
0.28841999 0.064827003 0.13456
0.28759 0.063215002 0.14689
0.28812999 0.062597997 0.15338001
0.28884 0.061847001 0.15648
0.28891999 0.062011 0.15757
0.28953999 0.063261002 0.14685
0.29089999 0.063435003 0.15154
0.29229999 0.064089 0.15524
0.29280001 0.064599 0.1547
0.29521 0.064476997 0.15493
0.29556999 0.063625999 0.15449999
0.29784 0.068116002 0.12706999
0.30004001 0.065661997 0.15242
0.29892001 0.067070998 0.13332
0.30023 0.068175003 0.13158
0.30397999 0.069829002 0.12234
0.30397999 0.069831997 0.12245
0.30522999 0.067603998 0.15026
0.30719 0.067457996 0.15015
0.3073 0.069606997 0.13598999
0.30814001 0.069536999 0.13665999
0.30950001 0.073298998 0.10519
0.30899999 0.072812997 0.10627
0.30827999 0.068258002 0.1428
0.30849001 0.067873999 0.14884999
0.30768001 0.067886002 0.14865001
0.30895001 0.07051 0.1229
0.3105 0.069168001 0.14232001
0.31202 0.068990998 0.14146
0.31105 0.068985 0.14066
0.31064999 0.068953 0.14003
0.31130999 0.069023997 0.14242999
0.31268001 0.070307001 0.1397
0.31224 0.072474003 0.11849
0.31303999 0.072016999 0.12339
0.31268001 0.069324002 0.14153001
0.31395999 0.073229 0.11572
0.31356001 0.074399002 0.1153
0.31422001 0.073198996 0.11349
0.31437001 0.073122002 0.11491
0.31402001 0.072772004 0.1288
0.12640999 0.025353 0.14086001
0.12613 0.025286 0.14218999
0.12653001 0.024777001 0.14639001
0.12695 0.024302 0.14855
0.12673 0.024715999 0.14793999
0.12788001 0.024768 0.14064001
0.12851 0.024932999 0.14153001
0.12862 0.025133001 0.14879
0.1288 0.032891002 0.083370999
0.13001999 0.025629001 0.14155
0.12936001 0.031369001 0.085648
0.1311 0.031916998 0.085215002
0.13036001 0.032995999 0.079954997
0.13141 0.034081999 0.075516
0.13055 0.025970001 0.14036
0.13195001 0.025265999 0.1508
0.13402 0.025549 0.15233999
0.13318001 0.033052001 0.086635001
0.13288 0.033156 0.085516997
0.13291 0.031440001 0.12318
0.13124999 0.030977 0.12295
0.13286 0.032154001 0.1248
0.13325 0.028811 0.12959
0.13269 0.028139001 0.13889
0.13330001 0.031794 0.097401001
0.13271999 0.033535 0.099427
0.13259999 0.032393001 0.10621
0.13474999 0.034733001 0.074189
0.13729 0.035122 0.073721997
0.14055 0.036747001 0.073243
0.141 0.027689001 0.15249
0.1436 0.037306 0.076201998
0.14422999 0.028168 0.14930999
0.14497 0.029038999 0.14885999
0.14721 0.029905001 0.14964999
0.14938 0.038359001 0.077251002
0.15049 0.030370999 0.15024
0.15085 0.037259001 0.077358998
0.15078001 0.031225 0.13872001
0.15109 0.031675 0.14018001
0.15064 0.029913999 0.14282
0.15147001 0.034260001 0.11039
0.15095 0.034697998 0.10881
0.15092 0.032613002 0.11805
0.15216 0.038435001 0.078380004
0.15189999 0.038017001 0.078634001
0.15185 0.037751999 0.080165997
0.15084 0.035817999 0.099559002
0.15053999 0.033216 0.11673
0.15142 0.032419998 0.12553
0.15064999 0.031456001 0.14342
0.15096 0.029836999 0.14956
0.15136001 0.037517 0.083498001
0.15144999 0.036920998 0.097479001
0.15087 0.033126 0.12195
0.15352 0.032264002 0.13929
0.15264 0.036139999 0.098653004
0.15422 0.036731001 0.098954
0.15539999 0.032175001 0.13737001
0.15606999 0.033849001 0.12718
0.1558 0.032692 0.13764
0.15646 0.036040001 0.10662
0.15628999 0.033723999 0.12659
0.15601 0.032625999 0.1358
0.15638 0.037746001 0.090917997
0.15753999 0.038846001 0.086703002
0.15762 0.036908001 0.099146001
0.15676001 0.038171001 0.092100002
0.15730999 0.038609002 0.080266997
0.15857001 0.040205002 0.078684002
0.15838 0.032922 0.13504
0.15921 0.039969999 0.078491002
0.15881 0.039278999 0.081471004
0.15762 0.034145001 0.127
0.15859 0.037397999 0.097893
0.15854999 0.036979001 0.10774
0.16023999 0.036212999 0.11417
0.15869001 0.035873 0.11348
0.16062 0.03562 0.11316
0.16092999 0.039211001 0.078987002
0.16099 0.040141001 0.080154002
0.16083001 0.03751 0.10874
0.16219001 0.035572998 0.11396
0.16263001 0.041168001 0.080188997
0.16202 0.040474001 0.080706999
0.16222 0.036596 0.11334
0.16221 0.036878999 0.11807
0.16364001 0.040711001 0.082806997
0.16215 0.036299001 0.12493
0.16384999 0.036488 0.12739
0.16472 0.040989999 0.083457001
0.16429 0.040600002 0.084553003
0.16839001 0.040839002 0.087104
0.1672 0.036835 0.1328
0.16892 0.036114998 0.13343
0.16978 0.036885001 0.13386001
0.17071 0.040853001 0.088117003
0.17033 0.03483 0.14781
0.16933 0.035013001 0.14797001
0.17117999 0.034933999 0.14804
0.17005 0.035112001 0.14951999
0.17088 0.035519 0.15103
0.1719 0.042475 0.089123003
0.17188001 0.038015999 0.13493
0.17089 0.036127001 0.13350999
0.17297 0.035386998 0.14639001
0.17257001 0.035732001 0.15027
0.17257001 0.037013002 0.13647
0.17203 0.036474001 0.14772999
0.17295 0.036224 0.13768999
0.17414001 0.036230002 0.14331999
0.17335001 0.035787001 0.14303
0.1736 0.035448998 0.14185999
0.17408 0.03571 0.15002
0.17397 0.036444999 0.14334001
0.17534 0.037571002 0.13833
0.17429 0.036180001 0.14102
0.17553 0.036003001 0.15093
0.17659999 0.042849001 0.088288002
0.17611 0.036881998 0.14183
0.17721 0.043403 0.086067997
0.17653 0.037039001 0.14005999
0.17664 0.043178 0.086639002
0.17639001 0.036584999 0.1515
0.17704 0.043657001 0.085841
0.17922001 0.043632001 0.084545001
0.17824 0.037036002 0.15101001
0.17771 0.037071999 0.1479
0.17918 0.037393998 0.15088999
0.1785 0.044496998 0.083635002
0.17914 0.037395999 0.14713
0.18062 0.044171002 0.082709
0.17969 0.037174001 0.14499
0.18016 0.038364001 0.14417
0.18068001 0.044365998 0.082768999
0.18211 0.037992999 0.14437
0.18408 0.039528001 0.14385
0.18591 0.045807 0.082707003
0.18565001 0.046021 0.082837999
0.18688001 0.045350999 0.086129002
0.18671 0.044675 0.088110998
0.18671 0.046192002 0.089456998
0.18625 0.045587 0.085276
0.1864 0.039407 0.14521
0.18751 0.039657 0.14444999
0.19017 0.046337001 0.092338003
0.19291 0.046248998 0.087981001
0.19508 0.048372 0.086286999
0.19693001 0.047637999 0.086648002
0.19674 0.040600002 0.14704999
0.19514 0.041308999 0.14692999
0.19671001 0.047511999 0.085306004
0.20254999 0.049208 0.085919999
0.20284 0.049757998 0.086824998
0.20418 0.050324 0.086497001
0.20486 0.049265999 0.089350998
0.20468 0.049327999 0.090475
0.20392001 0.048912 0.093142003
0.20581999 0.049100999 0.093869999
0.20439 0.049807001 0.088349998
0.20547 0.043308999 0.14864001
0.20895 0.051516999 0.087412
0.20877001 0.050670002 0.093094997
0.20694 0.044381 0.14972
0.20863 0.050358001 0.092161
0.20947 0.051226001 0.088202998
0.20971 0.044179 0.15108
0.20784 0.044045001 0.14943001
0.21027 0.051645 0.087452002
0.21114001 0.050962001 0.088183999
0.21174 0.050921999 0.089195997
0.21373001 0.051865999 0.088173002
0.21317001 0.044349 0.15207
0.21252 0.044 0.15121999
0.2154 0.045076001 0.15361001
0.21667001 0.046371002 0.1534
0.21866 0.052875999 0.089364998
0.21968 0.053833 0.089097001
0.21966 0.046197001 0.15260001
0.22056 0.053539999 0.094618
0.22024 0.046046998 0.15437999
0.22091 0.053431001 0.094910003
0.22081999 0.053397998 0.092248
0.22226 0.046448 0.15194
0.22322001 0.047320001 0.15188
0.22367001 0.053252 0.096519001
0.22435001 0.047764 0.1525
0.2254 0.048512999 0.15072
0.22596 0.047642998 0.15030999
0.22819 0.055105001 0.097815998
0.23163 0.055317 0.098470002
0.23176999 0.049938001 0.1494
0.23315001 0.050751001 0.14703
0.23511 0.056022 0.10085
0.23649999 0.056979001 0.10155
0.23604999 0.050878 0.14676
0.23682 0.056095 0.10245
0.23724 0.055893 0.10221
0.23864 0.055879999 0.10424
0.24033999 0.056031 0.10483
0.24266 0.057489 0.10397
0.24098 0.056104001 0.10413
0.24252 0.052203 0.14746
0.24415 0.052940998 0.14781
0.24513 0.052483998 0.1486
0.24586999 0.058297999 0.1037
0.24725001 0.053619001 0.15022001
0.24777 0.053242002 0.15042
0.24939001 0.052855998 0.15065999
0.24912 0.054058 0.15165
0.25158 0.053901002 0.15296
0.25341001 0.060392 0.10251
0.25308001 0.053679999 0.15275
0.25226 0.054324001 0.15361001
0.25450999 0.060318001 0.10172
0.25455001 0.054469999 0.15412
0.25507 0.060139999 0.10081
0.25499001 0.060554001 0.1007
0.25639999 0.055635002 0.15379
0.25872999 0.061007999 0.10008
0.25973001 0.061236002 0.10009
0.26098999 0.062748 0.099762999
0.26131999 0.061728001 0.10067
0.26269999 0.056829002 0.15392999
0.26098001 0.056786001 0.15391
0.26506001 0.063344002 0.099391997
0.26376 0.056449 0.15419
0.26368999 0.057094999 0.15523
0.26558 0.063391 0.099509999
0.26567999 0.056426998 0.15704
0.26881 0.064043 0.099182002
0.26912001 0.063519999 0.098627999
0.26967999 0.057996999 0.1569
0.27215999 0.063942999 0.098366998
0.27274999 0.058538001 0.15342
0.27404001 0.059013002 0.15306
0.27318001 0.064915001 0.098291002
0.27498001 0.065783001 0.098301999
0.27524 0.064975001 0.098775998
0.27667999 0.065984003 0.099647
0.27770999 0.060309999 0.15473001
0.27642 0.059409 0.15355
0.27781999 0.065880999 0.099264003
0.27682999 0.063938998 0.11454
0.27891999 0.064374998 0.11588
0.27764001 0.065109 0.11288
0.28011 0.065508001 0.11093
0.27873999 0.066225 0.10941
0.28101999 0.060869001 0.15589
0.28117999 0.067244001 0.10052
0.2816 0.066825002 0.109
0.28209999 0.067431003 0.099284999
0.28231001 0.060734998 0.15491
0.28167999 0.066313997 0.10984
0.28479001 0.067753002 0.099363998
0.28411001 0.066385001 0.10745
0.28371999 0.063451 0.14203
0.28343999 0.065485999 0.11929
0.28389999 0.063763998 0.13888
0.28450999 0.062899001 0.14248
0.28444001 0.064459004 0.1428
0.28490999 0.066591002 0.10721
0.28555 0.067140996 0.10687
0.28580001 0.063206002 0.13826001
0.28661999 0.063708 0.13749
0.28674999 0.063415997 0.14375
0.28457001 0.067372002 0.10007
0.28698999 0.064226002 0.13677
0.28698 0.061792001 0.15736
0.28731999 0.065750003 0.12301
0.28672001 0.064557001 0.12469
0.28712001 0.068905003 0.10152
0.28799 0.067484997 0.10191
0.28801 0.067833997 0.10326
0.28698 0.065196998 0.13526
0.28694999 0.063833997 0.14538001
0.28736001 0.062639996 0.14522
0.28849 0.062454998 0.15138
0.28873 0.063392997 0.1539
0.28887999 0.066772997 0.12631001
0.2897 0.065966003 0.13257
0.28896999 0.065274999 0.13332
0.28933999 0.063542001 0.14797001
0.28808001 0.063614003 0.14736
0.29005 0.066460997 0.12715
0.29012999 0.066477999 0.12808999
0.29052001 0.063322 0.14855
0.2904 0.062904 0.15665001
0.29019001 0.065628 0.13145
0.28972 0.063000001 0.15440001
0.2904 0.063562997 0.15396
0.29238001 0.065508999 0.13164
0.29188001 0.066917002 0.12763999
0.29347 0.067008004 0.12735
0.29366001 0.066917002 0.13156
0.29339999 0.064479001 0.15588
0.29166001 0.063757002 0.15586001
0.29387999 0.067059003 0.12681
0.29378 0.063602999 0.15716
0.29434001 0.064511001 0.15702
0.29606 0.064796001 0.15821999
0.29598001 0.067158997 0.1259
0.29780999 0.066868 0.13209
0.29629001 0.066955 0.1319
0.29756001 0.065847002 0.15361001
0.29771 0.064785004 0.15774
0.29868999 0.065343998 0.15324
0.29879001 0.065044001 0.15852
0.29914999 0.067924999 0.12677
0.3003 0.069294997 0.12636
0.29958999 0.064898998 0.15838
0.30096 0.068205997 0.12538999
0.30068001 0.066508003 0.15703
0.30206001 0.069011003 0.12503
0.30133 0.069293 0.13263001
0.30221999 0.065775998 0.15272
0.30188 0.065145001 0.15602
0.30289 0.070477001 0.12386
0.30294999 0.068489999 0.13164
0.30160001 0.065495998 0.15356
0.3026 0.066885002 0.15534
0.30249 0.066238001 0.1551
0.30309999 0.068182997 0.13167
0.30419999 0.067939997 0.13265
0.30517 0.068443999 0.13375001
0.30551001 0.070753001 0.12078
0.30533999 0.069427997 0.13477001
0.30734 0.070946001 0.11912
0.30656999 0.069661997 0.13535
0.30671 0.067019999 0.14809
0.30688 0.066827998 0.14962
0.30755001 0.068008997 0.14546999
0.30691999 0.068421997 0.14719
0.30836999 0.067330003 0.14511999
0.31009001 0.069881998 0.13676
0.30899999 0.072057001 0.10814
0.31018999 0.072866 0.11014
0.30879 0.072024003 0.11871
0.30884001 0.068223998 0.14421999
0.30901 0.067714997 0.14688
0.30970001 0.072558001 0.11057
0.30994001 0.071474999 0.12135
0.30847999 0.068143003 0.14573
0.31092 0.072283998 0.10654
0.30978 0.072944 0.11191
0.31117001 0.072306 0.11675
0.31134 0.071262002 0.11942
0.3109 0.070744999 0.12323
0.30943 0.069738001 0.13358
0.30937001 0.069115996 0.13508999
0.31011999 0.070118003 0.13847999
0.31143001 0.072982997 0.11326
0.30949 0.070261002 0.13609
0.31007001 0.068594001 0.14343999
0.31118 0.070772998 0.13214
0.31029999 0.07423 0.10835
0.31007999 0.069447003 0.1374
0.31187999 0.072021 0.11436
0.31174001 0.07203 0.11581
0.31228 0.070570998 0.13214999
0.31202 0.069467001 0.13874
0.31169 0.072759002 0.11426
0.31207001 0.073198996 0.11548
0.31215 0.071911998 0.12412
0.31107 0.070648 0.13782001
0.31198001 0.069169 0.13942
0.31331 0.072995 0.11137
0.3134 0.070694998 0.13333
0.31343001 0.071635 0.13139001
0.31272 0.074161001 0.11259
0.31330001 0.072596997 0.12506001
0.31239 0.072203003 0.11768
0.31356001 0.072146997 0.12981001
0.31393999 0.072091997 0.12457
0.31400001 0.072255999 0.12623
0.12965 0.031888001 0.084321
0.13191999 0.032542001 0.085194997
0.13237 0.029556001 0.12507001
0.13195001 0.029029001 0.13557
0.13244 0.028825 0.1381
0.13342001 0.034469001 0.090640999
0.13449 0.025928 0.15256999
0.13878 0.035626002 0.072925001
0.14765 0.03686 0.078178003
0.14864001 0.031221 0.15027
0.15034001 0.030491 0.14962
0.15141 0.036529001 0.095834002
0.15112001 0.035941001 0.097149998
0.15084 0.034182001 0.11359
0.15023001 0.034361999 0.11511
0.15087 0.033178002 0.12381
0.15101001 0.030231999 0.14768
0.15180001 0.037432 0.083846003
0.15253 0.034832001 0.098329
0.15285 0.035083 0.10648
0.15352 0.034715999 0.12631001
0.15779001 0.037298001 0.10702
0.15746 0.039313 0.095964998
0.15798999 0.037629001 0.10003
0.1601 0.034347001 0.13335
0.15937001 0.035328999 0.12761
0.16143 0.035124 0.12788001
0.16103999 0.036936998 0.10886
0.16329999 0.036049001 0.12814
0.16437 0.035014998 0.13264
0.17348 0.036297001 0.14532
0.17549001 0.037323002 0.13959
0.18697 0.046769001 0.083919004
0.18905 0.040592998 0.14511999
0.19306999 0.047403999 0.087035
0.19811 0.041855998 0.14703999
0.20386 0.050060999 0.091261998
0.20396 0.049625002 0.094186999
0.21561 0.052062999 0.089032002
0.2192 0.053231999 0.092459001
0.22274999 0.053038001 0.096387997
0.22622 0.054464001 0.097154997
0.22826999 0.049020998 0.14971
0.23030999 0.049291998 0.14837
0.23416001 0.055691 0.10056
0.23728999 0.050607 0.14695001
0.23710001 0.052763999 0.14693999
0.24038 0.051135998 0.15721001
0.24123999 0.051286999 0.15579
0.24265 0.051697999 0.15729
0.243 0.051226001 0.15594999
0.24409001 0.051893 0.15665001
0.24375001 0.051897001 0.15710001
0.24485999 0.058394998 0.10487
0.24529999 0.051397 0.1559
0.24477001 0.051979002 0.15498
0.24525 0.052478999 0.15537
0.24673 0.052841 0.15769
0.24699999 0.053202 0.15466
0.24668001 0.052519999 0.15639
0.24583 0.052482001 0.15705
0.24821 0.053296998 0.15549999
0.24913999 0.052310999 0.15635
0.24769001 0.053438 0.1574
0.24823 0.053569999 0.15197
0.24889 0.052935999 0.15512
0.25075001 0.052827999 0.15685
0.24961001 0.058981001 0.10307
0.25116 0.053874001 0.15466
0.26851001 0.058554001 0.15678
0.27017999 0.064646997 0.098598003
0.27153 0.065380998 0.099744998
0.28169999 0.065893002 0.11793
0.28369001 0.068094999 0.10025
0.28375 0.063940004 0.13935
0.28538999 0.067689002 0.10162
0.28514999 0.067542002 0.10339
0.28571001 0.067369998 0.10528
0.28733 0.067144997 0.10254
0.28538001 0.061406001 0.15707
0.28920001 0.064213 0.14888
0.29503 0.068062 0.13181999
0.30001 0.066890001 0.15282001
0.30590001 0.069867 0.12124
0.12636 0.025658 0.14745
0.12648 0.025687 0.14873999
0.12943999 0.03404 0.083453
0.13164 0.033555001 0.075741
0.13278 0.030464999 0.11576
0.13247 0.031502001 0.11653
0.13236 0.029623 0.12167
0.13196 0.032063 0.1207
0.13305999 0.029332001 0.1239
0.13155 0.031081 0.12803
0.13277 0.033528 0.10251
0.13673 0.027631 0.15339001
0.15008999 0.031298999 0.14097001
0.15108 0.037183002 0.089948997
0.15072 0.035673998 0.093546003
0.15083 0.032960001 0.12678
0.15161 0.038392998 0.078220002
0.15090001 0.035301 0.10761
0.15227 0.036114998 0.10692
0.15069 0.034377001 0.12069
0.1504 0.033434 0.12141
0.15321 0.033826001 0.127
0.15436999 0.032426 0.13821
0.15511 0.036403999 0.099077001
0.1584 0.033978999 0.12768
0.16255 0.041283999 0.080323003
0.16456001 0.036846001 0.13301
0.16707 0.040686999 0.086824
0.17508 0.037152998 0.1418
0.17509 0.037441999 0.14339
0.17820001 0.038745001 0.13981
0.17820001 0.037627 0.14119001
0.19114999 0.040702999 0.14567
0.19848 0.043101002 0.14726999
0.20202 0.042477001 0.14793
0.21173 0.045069002 0.15189999
0.22202 0.047127999 0.15435
0.23875999 0.052919 0.14723
0.23937 0.053521 0.14624999
0.23991001 0.057252001 0.1035
0.23962 0.050944 0.1567
0.24058001 0.051979002 0.1569
0.24155 0.052274 0.15447
0.24231 0.052294999 0.15421
0.24799 0.052992001 0.15325999
0.24835999 0.053334001 0.15323
0.25069001 0.053640999 0.15309
0.24984001 0.052944001 0.15807
0.25066999 0.053187001 0.15356
0.25167 0.053109001 0.15638
0.25233001 0.054450002 0.15521
0.25246999 0.053746998 0.15647
0.26526999 0.056747999 0.156
0.28248 0.067286998 0.10037
0.28551999 0.062038999 0.15323
0.28685999 0.062821001 0.15054999
0.28556001 0.062933996 0.15094
0.29209 0.067041002 0.13244
0.29100999 0.066079997 0.13139001
0.30287999 0.066200003 0.15654001
0.30781001 0.070995003 0.12263
0.31057999 0.073236004 0.10944
0.31051999 0.071861997 0.11849
0.30976 0.071735002 0.12017
0.31099001 0.072516002 0.11608
0.31371999 0.072539002 0.12472
0.13196 0.035503998 0.074932002
0.13234 0.032138001 0.1114
0.13180999 0.031351 0.13768999
0.13241 0.029480999 0.13614
0.13258 0.030691 0.13789
0.13266 0.032524001 0.095255002
0.14153001 0.036642998 0.07463
0.14511999 0.038966 0.078497
0.14857 0.039999001 0.077936001
0.14899001 0.038065001 0.076835997
0.14846 0.039014999 0.076932997
0.15064 0.031667002 0.14041001
0.15217 0.037395 0.087007001
0.15118 0.035321001 0.1121
0.1529 0.037184 0.10699
0.15708999 0.040899001 0.083489001
0.15975 0.034288 0.13327
0.16087 0.035565 0.13260999
0.16171999 0.040571 0.079304002
0.16192999 0.038334001 0.10879
0.16089 0.035604998 0.12856001
0.16286001 0.036534 0.12073
0.16125 0.036981001 0.12066
0.16165 0.036548998 0.12301
0.16594 0.041035999 0.084049001
0.16745 0.037813999 0.13311
0.16778 0.036214001 0.13352001
0.17217 0.035874002 0.14804
0.17303 0.037997998 0.1372
0.17304 0.036850002 0.14586
0.17727999 0.043613002 0.084905997
0.17975999 0.044983 0.082188003
0.18099999 0.045054998 0.082970999
0.18358999 0.046705998 0.082075
0.18647 0.045853 0.088753
0.18866999 0.045657001 0.092756003
0.19057 0.039926998 0.1462
0.19577999 0.048144002 0.085597001
0.21262001 0.046509001 0.15177999
0.21507999 0.045945998 0.15356
0.21962 0.054625999 0.091374002
0.21951 0.046652 0.15454
0.22105999 0.046661999 0.15548
0.22293 0.047641002 0.15316001
0.22306 0.047522001 0.15352
0.22240999 0.047226999 0.15507001
0.22507 0.047416002 0.15425
0.22477999 0.047830001 0.15538
0.22572 0.048222002 0.15042999
0.23863 0.050632 0.15757
0.23751 0.050505999 0.15572999
0.23886 0.049639001 0.15623
0.24011 0.051886 0.15541001
0.24239001 0.057346001 0.10372
0.24485999 0.053369001 0.15685999
0.24488001 0.052290998 0.15325999
0.24587999 0.051527001 0.15446
0.24883001 0.059627999 0.10299
0.25130999 0.053289 0.15757
0.25347 0.055525001 0.15546
0.26914001 0.05985 0.15725
0.27351999 0.066040002 0.099403001
0.27375999 0.059721999 0.15412
0.27498001 0.059921 0.15441
0.27588999 0.060784001 0.15485001
0.27715999 0.066304997 0.099506997
0.27781999 0.065646999 0.11203
0.28009999 0.066288002 0.10781
0.28112 0.061131999 0.15575001
0.28218001 0.061453 0.15651
0.28376999 0.066991001 0.10764
0.28239 0.066942997 0.10699
0.28349 0.062176 0.15606
0.28426999 0.063804001 0.14295
0.28534001 0.068038002 0.1062
0.28354999 0.067365997 0.11949
0.28511 0.062604003 0.15227
0.28575999 0.063151002 0.15786
0.28757 0.06236 0.15699001
0.28668001 0.064455003 0.14645
0.28832 0.063051 0.14957
0.29317001 0.066756003 0.13156
0.29552001 0.067837 0.1278
0.29789999 0.068024002 0.12714
0.29890999 0.067699999 0.12710001
0.29729 0.068934001 0.131
0.29890001 0.067957997 0.13213
0.30045 0.066124998 0.15622
0.30247 0.070739999 0.12321
0.30627999 0.071330003 0.11999
0.30792999 0.071246997 0.12167
0.31118 0.073236004 0.11364
0.31224 0.072310001 0.11796
0.31488001 0.071581997 0.12904
0.12673999 0.026293 0.14511999
0.12689 0.026156999 0.14413001
0.12808999 0.027171999 0.14117999
0.12881 0.027559999 0.14252999
0.12727 0.025645001 0.14918999
0.12897 0.033592001 0.085940003
0.12871 0.034538999 0.081064001
0.13036001 0.034469001 0.076405004
0.13059001 0.025475999 0.15049
0.13192999 0.026853001 0.15075
0.13195001 0.026695 0.15121999
0.13294999 0.032150999 0.11133
0.13211 0.028733 0.13462
0.13215999 0.028356001 0.13898
0.13298 0.034256998 0.089818999
0.13292 0.030228 0.13402
0.13565999 0.035445001 0.074092001
0.13505 0.027069001 0.15308
0.14302 0.037769999 0.074533001
0.14203 0.028294999 0.15154
0.14331999 0.029767999 0.15101001
0.14456999 0.037691001 0.078116
0.14362 0.030359 0.14912
0.14516 0.030824 0.14868
0.14681 0.0298 0.15018
0.15008 0.039735001 0.076787002
0.15133999 0.037813999 0.089215003
0.1516 0.037776999 0.090378001
0.15068001 0.036844 0.092142001
0.15090001 0.035932001 0.10899
0.15103 0.033238001 0.11991
0.15059 0.034542002 0.11918
0.15109999 0.034554999 0.1111
0.14999001 0.031635001 0.14693999
0.15192001 0.038129002 0.084923998
0.15108 0.035404 0.10893
0.15206 0.036936 0.097194001
0.15265 0.037115999 0.097461998
0.15552001 0.034233 0.13834
0.15607999 0.033202 0.13634001
0.15532 0.037409998 0.10691
0.15786999 0.038568001 0.094407
0.15785 0.034825001 0.1345
0.15708999 0.040397 0.079175003
0.15911999 0.041193001 0.078519002
0.15914001 0.035728 0.12825
0.16028 0.041944999 0.078070998
0.16109 0.041478001 0.078704998
0.16335 0.042925999 0.079639003
0.16238999 0.040033001 0.095950998
0.16198 0.039264001 0.093935996
0.16154 0.038697001 0.094512999
0.16192999 0.038098 0.11334
0.16214 0.037199002 0.11869
0.16218001 0.037624002 0.11895
0.16305 0.037829001 0.12239
0.16312 0.035959002 0.12775999
0.1646 0.037152 0.12475
0.16426 0.036516 0.12538999
0.1645 0.037560999 0.12541001
0.16931 0.043984 0.088041
0.17185999 0.043714002 0.088241003
0.17015 0.037891999 0.13431001
0.17196999 0.036370002 0.15118
0.17602 0.037360001 0.14199001
0.17603 0.044663001 0.085662
0.17783999 0.037950002 0.1384
0.17975999 0.038777001 0.13940001
0.17926 0.039145999 0.14054
0.18634 0.046939 0.084372997
0.18796 0.041452002 0.1452
0.18968999 0.042158999 0.14489999
0.19258 0.041838001 0.14533
0.19615 0.041762002 0.14622
0.19734 0.042107999 0.14697
0.20166001 0.044447999 0.14834
0.20449001 0.050544001 0.093915999
0.20423 0.050664999 0.094423003
0.20615 0.044254001 0.15002
0.20931 0.045954 0.15103
0.21066 0.045536999 0.15054999
0.21434 0.054189999 0.088615999
0.21878999 0.047042999 0.1541
0.22453 0.048393998 0.15254
0.22608 0.048299 0.15434
0.22589999 0.048381999 0.15642001
0.22718 0.048452999 0.1552
0.22923 0.056483999 0.097246997
0.22753 0.055690002 0.097641997
0.23154999 0.054620001 0.099142998
0.23214 0.056407001 0.099258997
0.23646 0.057043001 0.10138
0.23533 0.049718 0.15685
0.23408 0.05043 0.15612
0.23662999 0.049966 0.15686999
0.23603 0.050269 0.15549999
0.23844001 0.051003002 0.15594999
0.23831999 0.057884 0.10333
0.23944999 0.051872998 0.15454
0.24009 0.051545002 0.15423
0.24334 0.057735 0.10464
0.24426 0.052808002 0.15327001
0.24642 0.052375 0.15325999
0.24665 0.059280999 0.10385
0.24764 0.052583002 0.15295
0.25238001 0.053571001 0.15733001
0.25353 0.055491 0.15672
0.25459 0.054634999 0.15539999
0.25459 0.054552 0.1566
0.25619999 0.055677 0.15589
0.25957999 0.061347999 0.099884003
0.26115 0.063127004 0.10008
0.26366001 0.057432 0.15640999
0.27052 0.059342999 0.15628
0.27265999 0.065922 0.099817999
0.27289999 0.065168999 0.099930003
0.27814999 0.064799003 0.11306
0.27756 0.066206999 0.11461
0.27875 0.066329002 0.11031
0.28191999 0.068181001 0.1018
0.28145999 0.065852001 0.11737
0.2827 0.067225002 0.11721
0.28105 0.067102998 0.10903
0.28433001 0.067529999 0.11938
0.28312001 0.064586997 0.14115
0.28558001 0.065632999 0.13997
0.28431001 0.067859001 0.10228
0.28398001 0.068236001 0.10629
0.28619 0.066848002 0.12132
0.28672001 0.062744997 0.15707
0.28766 0.06701 0.12429
0.2872 0.063056998 0.14743
0.28667 0.063115999 0.14865001
0.28997999 0.066811003 0.12635
0.29429999 0.066142 0.15746
0.29503 0.063924998 0.15433
0.29435 0.066651002 0.15539999
0.29563999 0.068928003 0.1283
0.29708999 0.068113998 0.12737
0.29807001 0.069306001 0.12785999
0.29796001 0.066684999 0.15380999
0.30043 0.066549003 0.15391999
0.3001 0.066882998 0.15509
0.31246001 0.073990002 0.11763
0.31242001 0.072517 0.11895
0.31174999 0.072067 0.13260999
0.12518001 0.02651 0.14169
0.12651999 0.026672 0.14143001
0.12658 0.025524 0.14964999
0.12758 0.025393 0.15031999
0.12869 0.033153001 0.085483
0.12822001 0.025605001 0.14827
0.13127001 0.034603 0.084399998
0.13083 0.025877001 0.14893
0.13099 0.034658998 0.076930001
0.13215999 0.027779 0.1408
0.12981001 0.02713 0.15119
0.13232 0.033183999 0.085450999
0.1318 0.03458 0.075167
0.13273001 0.034343999 0.093475997
0.13324 0.031842999 0.10708
0.13347 0.034504 0.075213999
0.13394 0.027549 0.15187
0.13962001 0.037884999 0.072912
0.13833 0.037308998 0.073294997
0.13884 0.028115001 0.15352
0.1401 0.028452 0.15387
0.14112 0.036444999 0.074294999
0.14173999 0.028772 0.15221
0.14157 0.037160002 0.073445998
0.14234 0.037739001 0.074445002
0.14417 0.037762001 0.076311
0.14401001 0.029374 0.14971
0.15047 0.035941999 0.10894
0.1497 0.035087999 0.11801
0.15000001 0.033578999 0.12568
0.14951999 0.034453001 0.1261
0.15138 0.039551999 0.077941
0.1508 0.033739001 0.11737
0.15084 0.034295999 0.1214
0.1498 0.031707 0.14394
0.15022001 0.031716 0.14635
0.15137 0.039145 0.079357997
0.15197 0.033504002 0.14015
0.15098999 0.03249 0.14071999
0.15121999 0.034317002 0.12762
0.15312999 0.034274001 0.127
0.15537 0.037484001 0.097755998
0.15421 0.033465002 0.13957
0.1556 0.034988001 0.12784
0.15565 0.039122 0.098384999
0.15686999 0.039515998 0.088930003
0.15728 0.034494001 0.13703001
0.15563001 0.033962 0.13728
0.15727 0.039833002 0.086681001
0.15635 0.038547002 0.10736
0.15667 0.035422999 0.13665
0.1574 0.041005 0.079129003
0.15623 0.034552 0.1268
0.15767001 0.035321001 0.12947001
0.15864 0.040920001 0.078786999
0.15805 0.041450001 0.081632003
0.15874 0.038109999 0.10726
0.15790001 0.035528999 0.12967999
0.15907 0.035381999 0.13376001
0.15988 0.035916999 0.12975
0.1611 0.040747002 0.094521999
0.1619 0.039999999 0.094885997
0.16277 0.04022 0.095758997
0.16151001 0.036224999 0.12878001
0.16231 0.036100999 0.13330001
0.16242 0.036258999 0.12922999
0.16192999 0.042362999 0.079308003
0.16176 0.041099999 0.093771003
0.1626 0.040211 0.095510997
0.16288 0.037682999 0.12181
0.16226999 0.038474001 0.11758
0.16379 0.041641001 0.082208
0.16286001 0.038925 0.11187
0.16395999 0.042022001 0.082433
0.16354001 0.037078999 0.13156
0.16349 0.036945 0.12932999
0.16455001 0.041652001 0.084247001
0.16507 0.037554 0.1269
0.16590001 0.037246 0.12662999
0.164 0.038132999 0.12431
0.16598 0.037478 0.12554
0.16699 0.041304 0.085065
0.16737001 0.042877 0.086057
0.16843 0.042721 0.086667001
0.17162 0.035923999 0.15014
0.17104 0.035560999 0.15008
0.17298 0.04315 0.089001
0.17179 0.036837 0.14938
0.17291 0.037581999 0.14783999
0.17369001 0.043786 0.089110002
0.17302001 0.038518999 0.13451
0.17310999 0.037625 0.13544001
0.17364 0.038261 0.13706
0.17374 0.037819002 0.13718
0.17301001 0.037326999 0.14786001
0.17348 0.037138 0.14586
0.17485 0.037695002 0.14609
0.17477 0.038927998 0.13761
0.17442 0.043984 0.088518001
0.17470001 0.037971001 0.14477
0.17313001 0.038180001 0.15082
0.17452 0.043612 0.086779997
0.17542 0.044213999 0.086103
0.17482001 0.037106998 0.15028
0.17618001 0.037797999 0.14349
0.17776 0.037849002 0.14263
0.17563 0.038593002 0.13846
0.17741001 0.037863001 0.1512
0.17634 0.039393999 0.13885
0.17686 0.038355999 0.14162
0.17659 0.044445999 0.084086999
0.17782 0.038686 0.14120001
0.17764001 0.038194999 0.15141
0.17855 0.045959 0.082810998
0.17992 0.046045002 0.082663998
0.18002 0.038729001 0.1419
0.17913 0.038132001 0.14729001
0.17788 0.038210001 0.14772999
0.17859 0.038679 0.14896999
0.17921001 0.038008999 0.14956
0.17981 0.039476998 0.13936
0.17892 0.038750999 0.14476
0.18116 0.039958 0.13913999
0.18052 0.039981 0.1418
0.18048 0.039485998 0.14021
0.17906 0.039111 0.14528
0.18105 0.046192002 0.083039001
0.18342 0.046287999 0.083278999
0.18257999 0.040947001 0.14274
0.18063 0.039531 0.14303
0.18505 0.047664002 0.082840003
0.18305001 0.040543001 0.14364
0.18536 0.047933001 0.084262997
0.18695 0.047710001 0.090081997
0.18645 0.047782999 0.088202
0.18685 0.046820998 0.087431997
0.18624 0.046487 0.087886997
0.18700001 0.046982002 0.090989001
0.18661 0.047392 0.091756999
0.18731999 0.040548 0.14444
0.18623 0.040739998 0.14366999
0.19014999 0.041513 0.14508
0.19204 0.047905002 0.090016998
0.19135 0.04786 0.089082003
0.19211 0.048411999 0.090765998
0.19215 0.047352001 0.090885997
0.19336 0.048198 0.088598996
0.19209 0.048337001 0.087784998
0.19413 0.049300998 0.087205999
0.19330999 0.049314 0.086448997
0.19374999 0.04281 0.14623
0.19461 0.042893998 0.14631
0.19517 0.049547002 0.085952997
0.19632 0.042665001 0.14684001
0.19645999 0.049952 0.085612997
0.19760001 0.050526999 0.085762002
0.19959 0.050246999 0.085203998
0.20073 0.050834 0.085767001
0.20258 0.051316999 0.085831001
0.20365 0.050709002 0.087793998
0.20392001 0.049534999 0.091298997
0.2041 0.050949 0.093727998
0.20437001 0.051952001 0.089697003
0.20431 0.045187 0.14915
0.20703 0.051103 0.094806001
0.2085 0.053321999 0.088128999
0.20853999 0.052448001 0.087240003
0.20744 0.051642001 0.090474002
0.20773 0.052080002 0.094811998
0.20840999 0.050161 0.092473999
0.20830999 0.050432 0.093661003
0.20926 0.051504001 0.087560996
0.20794 0.045393001 0.14993
0.21145999 0.053346999 0.087163001
0.20936 0.046301 0.15172
0.21133 0.052765999 0.090161003
0.21161 0.052476998 0.089093998
0.21243 0.045212999 0.15245
0.21326999 0.054386001 0.089557998
0.21412 0.053339001 0.088166997
0.2128 0.045646001 0.15325999
0.21352001 0.046604 0.15436
0.21312 0.045547999 0.15274
0.21409 0.046498001 0.15355
0.21512 0.053521 0.089197002
0.21610001 0.053328998 0.089387
0.21565001 0.047049999 0.15474001
0.21746001 0.053608 0.089244001
0.21724001 0.046574 0.15521
0.21822999 0.055172 0.089570001
0.21742 0.053592 0.093281999
0.21829 0.054515999 0.094557002
0.21873 0.053970002 0.093052
0.21904001 0.05401 0.091504
0.21857999 0.05336 0.091531999
0.21989 0.054095998 0.096133001
0.2203 0.047111001 0.15491
0.22125 0.048213001 0.15572
0.22197001 0.047830001 0.15543
0.22466999 0.047926001 0.15503
0.22671001 0.049438 0.15329
0.22594 0.048207 0.15322
0.22483 0.049442001 0.15657
0.22677 0.048969001 0.15154
0.22589 0.055311002 0.097148001
0.22637001 0.047669001 0.15632001
0.2264 0.049525999 0.14989001
0.22679 0.048811 0.15388
0.22635999 0.049355999 0.1566
0.22801 0.048792001 0.15202001
0.22875001 0.049701001 0.15051
0.22813 0.049240001 0.15323
0.22911 0.049297001 0.15346
0.22806001 0.048041999 0.15627
0.22814 0.050133999 0.15571
0.2288 0.048723001 0.15466
0.22993 0.050632 0.14896999
0.22882 0.049601998 0.15373001
0.22806001 0.049685001 0.15633
0.22969 0.049414001 0.15645
0.23056 0.049920999 0.14952999
0.23051 0.049642999 0.15547
0.23017 0.056281 0.097896002
0.23115 0.049566001 0.15566
0.23083 0.050043002 0.15469
0.22995999 0.049702 0.15764
0.23148 0.056010999 0.098642997
0.23196 0.049812 0.15567
0.23277 0.050106 0.15365
0.23096 0.049996998 0.15673
0.23198 0.050547 0.15707
0.2332 0.057216998 0.099560998
0.23382001 0.049383 0.15683
0.23253 0.052487999 0.14859
0.23373 0.051266 0.14849
0.23415001 0.050657 0.15676001
0.23418 0.056905001 0.10001
0.23491 0.050925002 0.15784
0.23525999 0.051336002 0.14708
0.23434 0.050404001 0.15484001
0.23548 0.050898001 0.15507001
0.23577 0.052618999 0.14733
0.23754001 0.057468001 0.10164
0.2374 0.058437999 0.1025
0.23702 0.050845999 0.15452
0.23725 0.051181 0.15731999
0.23717 0.050937001 0.15568
0.23856001 0.052205998 0.15259001
0.23788001 0.051380999 0.1569
0.23920999 0.051704001 0.15694
0.23936 0.058123998 0.1034
0.23962 0.052235998 0.15402
0.23919 0.051963001 0.15681
0.24108 0.054667 0.14748
0.24135 0.051860001 0.15638
0.24191 0.053275 0.14666
0.24292 0.052285999 0.15673999
0.24494 0.054494999 0.14867
0.242 0.054561999 0.14696001
0.24383 0.052632 0.15809999
0.24419001 0.053403001 0.15729
0.245 0.058773998 0.10436
0.24692 0.058681 0.10359
0.24476001 0.053762 0.15014
0.24492 0.054703001 0.15064999
0.24690001 0.053916998 0.15187
0.24542999 0.053326 0.15098999
0.24741 0.053971 0.1574
0.24860001 0.053964999 0.15696
0.24995001 0.054830998 0.15752999
0.25141999 0.055041 0.15699001
0.25035 0.059734002 0.10334
0.25202999 0.054552 0.15790001
0.25318 0.055923998 0.15816
0.25387001 0.055764001 0.15769
0.25429001 0.061786 0.10249
0.25658 0.062415 0.10159
0.25591999 0.055413999 0.15694
0.25593001 0.055842001 0.15772
0.25865999 0.056184001 0.15539999
0.25737 0.057087999 0.15618999
0.25733 0.0557 0.15353
0.25889999 0.056193002 0.15507001
0.26072001 0.057567 0.15491
0.26238 0.057521999 0.15434
0.26345 0.065022998 0.10015
0.26300001 0.058008 0.15493
0.26361999 0.057707999 0.15725
0.26523 0.058313001 0.15767001
0.26587999 0.05776 0.15866999
0.26629001 0.058740001 0.15842
0.26701999 0.059354998 0.15898
0.26899001 0.064774998 0.10075
0.26984 0.066067003 0.10076
0.27063 0.060557 0.15594999
0.27061 0.065908 0.10014
0.27061 0.059068002 0.15599
0.27236 0.059524 0.15508001
0.27386001 0.068233997 0.10052
0.27179 0.059594002 0.15489
0.27535 0.060444001 0.15530001
0.27711001 0.066868998 0.10049
0.27535 0.067107998 0.099788003
0.27645999 0.061514001 0.15426999
0.27768001 0.067250997 0.1002
0.27709001 0.066187002 0.11323
0.27699 0.066358 0.11389
0.27827001 0.065660998 0.11229
0.27756 0.065668002 0.11135
0.27816001 0.066018999 0.11491
0.27875999 0.066188999 0.11555
0.27768001 0.060755 0.15597001
0.27798 0.061590001 0.15561
0.27803999 0.067561999 0.10095
0.27950001 0.062523 0.15712
0.27915001 0.067212 0.10154
0.27946001 0.066482998 0.10918
0.28072 0.067252003 0.10718
0.27981001 0.067212999 0.10771
0.27989 0.061505001 0.15673
0.28084999 0.067876004 0.10203
0.28198001 0.067267001 0.10256
0.28294 0.068095997 0.10215
0.28080001 0.062729999 0.15666001
0.28273001 0.068057999 0.10053
0.28242001 0.067387 0.10696
0.28312999 0.068066001 0.10209
0.28231999 0.068014003 0.10551
0.28255999 0.066270001 0.11751
0.28371 0.068186 0.10097
0.28362 0.061833002 0.15678
0.28286999 0.063997999 0.1415
0.28380999 0.063840002 0.14371
0.28283 0.067899004 0.1015
0.28354999 0.062492002 0.15633
0.28374001 0.068701997 0.10334
0.28424001 0.067897998 0.10421
0.28442001 0.067080997 0.10367
0.28421 0.069072999 0.10476
0.28538001 0.064226002 0.14497
0.28483999 0.063712999 0.15075
0.28496 0.063438997 0.15272
0.28547001 0.063925996 0.15355
0.28558999 0.062692001 0.15673999
0.28571999 0.067087002 0.12104
0.2868 0.065154001 0.1373
0.28707001 0.064162001 0.14405
0.28527999 0.063795 0.1497
0.28652 0.064056002 0.15408
0.28683999 0.067557998 0.12355
0.28589001 0.065260001 0.14602
0.28641 0.064485997 0.13705
0.28650999 0.064263001 0.14775001
0.28760001 0.065191999 0.14679
0.28805 0.067473002 0.12383
0.28733 0.064474002 0.15386
0.28746 0.062971003 0.15807
0.28803 0.068135001 0.12451
0.28803 0.065684997 0.13677
0.28740001 0.063066997 0.15759
0.28817001 0.063239001 0.15745001
0.28924999 0.066744998 0.13383
0.28891 0.06391 0.15379
0.29053 0.068111002 0.12755001
0.28948 0.064345002 0.15459
0.29025 0.067229003 0.12718999
0.29049 0.065049 0.15462001
0.29192001 0.067341998 0.132
0.29047 0.066451997 0.13265
0.29214001 0.068333998 0.12852
0.29203001 0.064698003 0.15457
0.29166999 0.064827003 0.15640999
0.29017001 0.064211003 0.15651999
0.29337999 0.068448 0.12752999
0.29341 0.067684002 0.13251001
0.29282001 0.064893 0.1558
0.29273 0.06577 0.15614
0.29508001 0.068052001 0.13233
0.29526001 0.067635998 0.1284
0.29455 0.064782001 0.15784
0.29605001 0.066211998 0.15502
0.29664001 0.065549999 0.15728
0.29644999 0.069312997 0.13133
0.29683 0.067846 0.13213
0.29756001 0.065729 0.15451001
0.29876 0.065650001 0.15813001
0.29730999 0.065936998 0.15845001
0.2985 0.070344999 0.12734
0.29888999 0.069104999 0.13068999
0.30067 0.069596998 0.13079
0.30091 0.069142997 0.12862
0.30012 0.066501997 0.15806
0.30034 0.066702999 0.15757
0.30202001 0.069936 0.1268
0.30282 0.070052996 0.12588
0.30127999 0.070086002 0.12902001
0.30238 0.069614999 0.13046999
0.3035 0.070611998 0.12342
0.30298999 0.069611996 0.13266
0.30418 0.070997 0.12288
0.30397999 0.071424998 0.12202
0.30463001 0.070430003 0.1331
0.30656999 0.072044998 0.12142
0.3062 0.068866 0.1336
0.30798 0.070690997 0.13462999
0.30825999 0.071367003 0.12016
0.30893001 0.070491999 0.13613001
0.30750999 0.071760997 0.12084
0.30666 0.071961001 0.12277
0.30798 0.072251998 0.12476
0.30834001 0.071604997 0.12028
0.30923 0.073095001 0.11937
0.3087 0.072864003 0.1207
0.30904001 0.072420999 0.12466
0.30921999 0.071111001 0.13626
0.30917001 0.071323 0.13237
0.30871999 0.070868999 0.13429999
0.30903 0.070095003 0.13733
0.30934 0.072384998 0.11914
0.30950999 0.073273003 0.11809
0.31046 0.072925001 0.11958
0.30939999 0.071382001 0.13699
0.31104001 0.072254002 0.12433
0.30934 0.070641004 0.13664
0.31189999 0.072687 0.12496
0.31163001 0.071912996 0.12339
0.31003001 0.071217 0.13336
0.31136 0.073415004 0.11151
0.31186 0.074156001 0.11294
0.31163001 0.073169999 0.11763
0.31261 0.073825002 0.11617
0.31200001 0.073600002 0.11422
0.31305999 0.074244 0.11438
0.31266001 0.073624998 0.11284
0.31290999 0.072305001 0.12628999
0.31277999 0.072090998 0.13124999
0.3125 0.072389998 0.13034999
0.31318 0.073438004 0.11621
0.31279001 0.073196001 0.12862
0.31235 0.073326997 0.12712
0.12530001 0.025869999 0.1436
0.12737 0.026326001 0.14156
0.13003001 0.034111999 0.081776999
0.12973 0.03348 0.078718998
0.13224 0.034108002 0.10372
0.13235 0.034887001 0.10502
0.13461 0.035985 0.074506
0.13657001 0.036734998 0.072917998
0.14713 0.038596999 0.077871002
0.15048 0.032536998 0.14183
0.15019 0.031287 0.14337
0.15062 0.037863001 0.091264002
0.15113001 0.037778001 0.092740998
0.15175 0.037370998 0.095734
0.15072 0.035275001 0.11284
0.15106 0.03238 0.14071999
0.15104 0.038842998 0.080698997
0.15113001 0.036525 0.11158
0.15020999 0.035316002 0.11564
0.15096 0.034185 0.12364
0.15093 0.036718 0.10631
0.15474001 0.033936001 0.12744001
0.15488 0.037335001 0.10694
0.15635 0.038931999 0.091204002
0.15594999 0.039372001 0.092759997
0.15666001 0.038959 0.090058997
0.1574 0.038601998 0.098743998
0.15786 0.041119002 0.084192999
0.15688001 0.040539 0.085215002
0.15772 0.040312 0.082340002
0.15722001 0.039051 0.097239003
0.16023999 0.038139001 0.10758
0.15978 0.039866999 0.090260997
0.16159 0.040649001 0.092261001
0.16073 0.040773001 0.091094002
0.1611 0.038752999 0.10804
0.16256 0.038291998 0.10985
0.16151001 0.037663002 0.11544
0.16303 0.037028 0.12481
0.16275001 0.039173 0.11064
0.16422001 0.036837 0.12494
0.16498999 0.036084 0.13223
0.16799 0.042413 0.086249001
0.17061999 0.037303001 0.13358
0.17544 0.036524002 0.14421999
0.17641 0.038329002 0.14373
0.1779 0.039921001 0.13888
0.17837 0.044645999 0.083897002
0.17728999 0.039282002 0.14295
0.18246 0.040739 0.142
0.18494 0.041057002 0.14349
0.18658 0.047269002 0.085680999
0.18832 0.046016 0.092283003
0.18988 0.046633001 0.092937998
0.19141001 0.048115 0.093197003
0.19245 0.047860999 0.093231
0.20028 0.04377 0.14771999
0.20112 0.043795001 0.14837
0.20282 0.045010999 0.14856
0.20612 0.045086 0.14979
0.2113 0.052629001 0.090809003
0.21160001 0.052177999 0.092155002
0.21175 0.050845999 0.091632001
0.21246 0.05229 0.09183
0.21273001 0.052671 0.090346001
0.21739 0.054099001 0.092427
0.22265001 0.055544 0.095790997
0.22442 0.054807 0.096228004
0.22545999 0.055153001 0.096839003
0.22737999 0.048572 0.15164
0.22975001 0.050549001 0.15354
0.22871 0.050115 0.15136001
0.22957 0.050331999 0.15112001
0.23146001 0.050461002 0.1485
0.23024 0.050668001 0.15273
0.23287 0.051004 0.15344
0.23372 0.051465001 0.15251
0.23464 0.057348002 0.10106
0.23537 0.051679 0.15307
0.23543 0.051623002 0.15431
0.23611 0.051670998 0.15316001
0.23701 0.052622002 0.14648999
0.24094 0.058901001 0.10503
0.24146 0.053746 0.15242
0.24301 0.058630001 0.10399
0.24085 0.052689001 0.1565
0.24223 0.053792998 0.15761
0.2419 0.052494001 0.15264
0.24382 0.053707998 0.15291999
0.24563 0.053831998 0.15105
0.24717 0.059700001 0.10468
0.25194001 0.06123 0.10273
0.25457001 0.055590998 0.1577
0.25729999 0.062725 0.10159
0.25865999 0.063228004 0.10105
0.25793001 0.056722 0.15681
0.25887001 0.057321001 0.15592
0.26366001 0.065047003 0.10018
0.26247999 0.058582 0.15569
0.26526001 0.064719997 0.099041998
0.26785001 0.058031 0.15809
0.26955 0.059420999 0.15688001
0.27895999 0.066813998 0.11077
0.28207999 0.067782 0.10253
0.28033 0.067693003 0.10565
0.28553 0.066287003 0.13877
0.28788999 0.066859998 0.13557
0.2897 0.066518001 0.13214999
0.29750001 0.066046998 0.15695
0.30239001 0.070826001 0.12957001
0.30357 0.071000002 0.12599
0.30331001 0.07079 0.1258
0.30274999 0.069927 0.13124
0.30529001 0.070775002 0.12544
0.30509001 0.072416998 0.12302
0.30555001 0.070767999 0.12435
0.30691001 0.071854003 0.13259999
0.31094 0.070998996 0.13155
0.31127 0.072802998 0.12659
0.12966 0.035896 0.078611001
0.13156 0.032722998 0.11955
0.13282999 0.033355001 0.1203
0.13160001 0.034697998 0.12117
0.13292 0.031527001 0.12492
0.13242 0.031058 0.12928
0.13307001 0.034519002 0.096536003
0.13285001 0.034820002 0.099849001
0.13311 0.034504 0.10026
0.13565999 0.027933 0.15335
0.14589 0.038897999 0.076575004
0.14775001 0.030812999 0.15174
0.14946 0.031436998 0.15006
0.1513 0.038169 0.094639003
0.15091 0.038462002 0.089806996
0.15014 0.034086 0.12206
0.15073 0.030896001 0.14943001
0.15051 0.038878001 0.085426003
0.15256999 0.03771 0.096560001
0.15398 0.038187999 0.096657
0.15567 0.035806 0.12829
0.16150001 0.035772 0.13243
0.16215 0.037919998 0.11641
0.16234 0.039211001 0.11615
0.16164 0.038857002 0.11461
0.16250999 0.037942 0.12357
0.16237999 0.036690999 0.13041
0.16471 0.037641 0.12946001
0.17634 0.045502 0.083508
0.21051 0.046179999 0.15309
0.214 0.052646 0.093098998
0.21777 0.054003999 0.093355998
0.21825001 0.055054002 0.091058999
0.21856999 0.047782 0.15584999
0.22263999 0.055458002 0.095922001
0.23789001 0.054538999 0.14737999
0.23706999 0.054072998 0.14663
0.23841 0.052255999 0.15736
0.24302 0.053805999 0.14841001
0.24331 0.053902 0.15178999
0.24389 0.053753 0.15047
0.24555001 0.058798 0.10397
0.24965 0.061080001 0.10244
0.25339001 0.062484998 0.10296
0.25376001 0.062651999 0.10235
0.25286001 0.061255001 0.10213
0.25924 0.057760999 0.15688001
0.25988999 0.056678001 0.15528999
0.26089999 0.063960001 0.10015
0.27208999 0.059898999 0.15639
0.27324 0.060557 0.15538999
0.27379999 0.060123999 0.15626
0.27812001 0.069029003 0.10131
0.27764001 0.067451 0.10141
0.27610999 0.066849999 0.11209
0.27967 0.066973999 0.10868
0.27993 0.067492001 0.10621
0.27996001 0.067599997 0.10286
0.28279001 0.068236999 0.10375
0.28084001 0.068717003 0.10457
0.28319001 0.064450003 0.14127
0.28444999 0.064143002 0.14041001
0.28571001 0.063683003 0.15790001
0.29808 0.066278003 0.1573
0.30107999 0.069355004 0.12894
0.30403 0.070866004 0.12806
0.30294001 0.070265003 0.13083
0.30462 0.070601001 0.12648
0.30524001 0.070638999 0.13269
0.31101 0.073374003 0.13095
0.12601 0.025485 0.15011001
0.13244 0.028526001 0.1409
0.13242 0.0276 0.15110999
0.13167 0.032630999 0.1155
0.13160001 0.032156002 0.11755
0.13252001 0.033920001 0.097084001
0.13185 0.035006002 0.10171
0.13248 0.031505 0.13077
0.13265 0.029557001 0.13270999
0.13348 0.029132999 0.1534
0.13456 0.02949 0.15377
0.14372 0.039818998 0.076333001
0.14836 0.032476 0.15109999
0.15094 0.038486 0.088446997
0.15108 0.038205002 0.096093997
0.15063 0.036851 0.10975
0.15024 0.035117 0.11239
0.15144999 0.038764 0.082822002
0.15025 0.038821001 0.083640002
0.15105 0.033234 0.14185999
0.15380999 0.034958001 0.13906001
0.15715 0.040380001 0.090209998
0.15677001 0.039448 0.093393996
0.15735 0.039503999 0.094513997
0.15782 0.036173999 0.1357
0.15938 0.036477 0.12929
0.16015001 0.041071001 0.091594003
0.16057999 0.042144001 0.092243001
0.1611 0.03723 0.13134
0.16304 0.042610999 0.079158001
0.16301 0.041664001 0.091218002
0.1626 0.041312002 0.090906002
0.16407 0.042707998 0.081772998
0.16214 0.038116999 0.13268
0.16385999 0.037074 0.13008
0.16599999 0.042380001 0.084078997
0.16542 0.037159 0.13282999
0.16716 0.042576998 0.084977999
0.17159 0.043143999 0.088698998
0.17219 0.038688999 0.13352001
0.17457999 0.038874999 0.14647
0.17639001 0.038182002 0.14997999
0.17738 0.038153999 0.14591999
0.17747 0.039611001 0.14556
0.17736 0.039085001 0.14341
0.1797 0.04008 0.13865
0.17806999 0.038975999 0.14657
0.17813 0.038382001 0.15056001
0.18217 0.039670002 0.14024
0.18257999 0.040222999 0.14135
0.18321 0.040346 0.13937999
0.18550999 0.041214999 0.14084999
0.185 0.040803999 0.14067
0.18596999 0.045988001 0.088748001
0.19164 0.042948 0.14505
0.19954 0.050278999 0.085178003
0.19936 0.050583001 0.085461996
0.21121 0.052212 0.092926003
0.21159001 0.051663 0.093263
0.21075 0.045628998 0.15264
0.21284001 0.053782001 0.094237
0.21528 0.047956001 0.15579
0.21692 0.047277 0.15543
0.2308 0.051585 0.14979
0.23183 0.050855 0.1523
0.23316 0.051105998 0.15181001
0.24455 0.053707998 0.15715
0.2464 0.053555001 0.15804
0.24924 0.053746998 0.15662999
0.24906 0.055968001 0.15733001
0.25003001 0.054340001 0.15704
0.25373 0.055782001 0.15768
0.25476 0.062272001 0.10255
0.26034001 0.058166999 0.15685
0.26108 0.064387999 0.10019
0.26673001 0.064241998 0.10048
0.26497 0.059152 0.15771
0.27825001 0.067484997 0.10233
0.27809 0.067993 0.10732
0.27963999 0.067546003 0.10549
0.28007999 0.067365997 0.1166
