# .PCD v0.7 - Point Cloud Data file format
VERSION 0.7
FIELDS x y z
SIZE 4 4 4
TYPE F F F
COUNT 1 1 1
WIDTH 1609
HEIGHT 1
VIEWPOINT 0 0 0 1 0 0 0
POINTS 1609
DATA ascii
0.15374 0.023066999 0.081246004
0.1524 0.015846999 0.14316
0.15455 0.022923 0.083949998
0.15449999 0.023057001 0.087026
0.15406001 0.017233999 0.12980001
0.15428001 0.017253 0.13382
0.15422 0.020776 0.10692
0.15458 0.018516 0.12015
0.15514 0.021095 0.095115997
0.16029 0.022453001 0.10125
0.16074 0.022979001 0.10287
0.16113999 0.020705 0.11864
0.1612 0.020902 0.1176
0.161 0.022621 0.10374
0.16159 0.023988999 0.092513002
0.16244 0.024991 0.085396998
0.16166 0.024914 0.086285003
0.16207001 0.024350001 0.087559998
0.1617 0.02115 0.1171
0.1618 0.024214 0.089821003
0.16191 0.024416 0.087995
0.16171999 0.023765 0.094261996
0.16192999 0.023948001 0.093248002
0.162 0.022786001 0.10762
0.16156 0.021423001 0.11555
0.16306999 0.020763 0.12193
0.16374999 0.025508 0.086230002
0.16372 0.022597 0.10895
0.16435 0.020191999 0.1261
0.16486999 0.020718999 0.12589
0.16524 0.025132 0.088852003
0.16599999 0.021655999 0.12343
0.16786 0.025782 0.091562003
0.16768999 0.020032 0.14187001
0.16793001 0.020171 0.14052001
0.16760001 0.02179 0.12710001
0.16813 0.019932 0.13939001
0.16795 0.019819999 0.13813999
0.16889 0.02086 0.13756
0.1691 0.020796999 0.13617
0.16942 0.020806 0.13495
0.16969 0.021093 0.13271999
0.16948999 0.020067001 0.14211001
0.16940001 0.025729001 0.091949001
0.17103 0.020603999 0.14069
0.17218 0.020517001 0.13957
0.17338 0.026544999 0.092579998
0.17327 0.021823 0.13925999
0.1736 0.026761999 0.091632999
0.17400999 0.026992001 0.089758001
0.1745 0.022399001 0.13922
0.17454 0.021509999 0.13824999
0.17544 0.027860001 0.088344
0.17631 0.028081 0.087362997
0.17631 0.021976 0.138
0.17736 0.022693999 0.13361999
0.17768 0.028026 0.086690001
0.1779 0.028520999 0.086632997
0.17803 0.022535 0.13346
0.17722 0.022435 0.13816001
0.17969 0.028032999 0.086852998
0.17901 0.023055 0.13378
0.18068001 0.029292 0.086796001
0.18134999 0.028960001 0.086937003
0.18164 0.023320001 0.13751
0.1811 0.023903999 0.13796
0.18215001 0.029035 0.087585002
0.18276 0.024316 0.13824999
0.18341 0.029882999 0.087908
0.18435 0.029378001 0.088289
0.18513 0.029764 0.089258
0.18427999 0.0297 0.090768002
0.18501 0.029271999 0.094984002
0.18528999 0.029003 0.096378997
0.18547 0.028907999 0.097970001
0.18561999 0.028239001 0.098601997
0.18452001 0.024312001 0.13823999
0.18649 0.028907999 0.098881997
0.18782 0.030735999 0.086135998
0.18776999 0.030245 0.087195002
0.18686 0.029966 0.087177999
0.18769 0.030817 0.088032
0.18649 0.029937999 0.087955996
0.18765999 0.029165 0.099016003
0.18594 0.024862999 0.13855
0.18803 0.030243 0.086816996
0.19119 0.026531 0.13951001
0.19366001 0.030175 0.10012
0.19456001 0.030255999 0.099970996
0.19603001 0.031767 0.099733002
0.19414 0.026730999 0.13970999
0.19670001 0.031121001 0.1006
0.19746999 0.031502999 0.10102
0.19879 0.031814002 0.10105
0.19857 0.02705 0.14059
0.19983 0.031762 0.10139
0.20018999 0.031929001 0.099538997
0.20067 0.031824999 0.1017
0.20406 0.028485 0.14226
0.20247 0.028372001 0.14155
0.20468 0.033596002 0.099711001
0.20849 0.029526999 0.14241
0.20911001 0.029518999 0.14192
0.21005 0.034345001 0.1014
0.21171001 0.034635998 0.10166
0.21256 0.030453 0.14263999
0.21551 0.030780001 0.14182
0.21575999 0.036968 0.096101001
0.21599001 0.036812 0.094625004
0.21646 0.036531001 0.096474998
0.21656001 0.036396001 0.094264001
0.21736 0.037253998 0.092931002
0.21653999 0.036389999 0.097262003
0.21616 0.030802 0.14166
0.21682 0.031376 0.14236
0.21799 0.032205001 0.14089
0.21882001 0.037781999 0.093248002
0.21981999 0.038192 0.093659997
0.22115999 0.038187001 0.094862998
0.22059999 0.037556 0.094498999
0.22046 0.032237999 0.14015999
0.2216 0.037802 0.096638002
0.22225 0.032969002 0.14074001
0.22351 0.037732001 0.10013
0.22339 0.032777 0.13957
0.22443999 0.038059 0.10021
0.22562 0.038469002 0.10085
0.22404 0.032791998 0.14940999
0.22397999 0.032088 0.14989001
0.2252 0.032476 0.15035
0.2238 0.032230999 0.15013
0.22488999 0.033619002 0.14827999
0.22649001 0.033532001 0.14769
0.22593001 0.037792999 0.10209
0.22705001 0.038672 0.10214
0.22674 0.032929 0.15041
0.2277 0.033372998 0.15005
0.22843 0.038761999 0.10256
0.22767 0.034233999 0.14045
0.22802 0.034237001 0.14282
0.22942001 0.034120001 0.14214
0.22973 0.034457002 0.14281
0.22987001 0.039317999 0.10346
0.23135 0.039051 0.10466
0.23072 0.034393001 0.15014
0.23255 0.039377 0.10497
0.23116 0.034212999 0.14802
0.23204 0.034623999 0.14996
0.23265 0.035466999 0.14150999
0.23303001 0.035287999 0.14041001
0.2334 0.036026999 0.14101
0.23544 0.039398 0.10748
0.23519 0.035544001 0.13921
0.2348 0.040619999 0.092090003
0.23558 0.042009 0.091939002
0.23548 0.041188002 0.092092998
0.23427001 0.041474 0.091752999
0.23573001 0.039554 0.10749
0.23559999 0.041404001 0.093933001
0.23555 0.041802999 0.092381999
0.23545 0.036396001 0.14
0.23624 0.036099002 0.15051
0.23702 0.041264001 0.092139997
0.23654 0.041388001 0.091958001
0.23667 0.042134002 0.092124999
0.23799001 0.041327 0.094019003
0.23692 0.041639 0.094227001
0.23792 0.042560998 0.092276998
0.23992001 0.040364001 0.10953
0.23961 0.042537 0.092422999
0.24141 0.041023001 0.10963
0.24106 0.043065 0.092583999
0.24086 0.042546 0.095633999
0.24207 0.042440001 0.094793998
0.24248999 0.041288 0.10994
0.24222 0.042349 0.095016003
0.24051 0.036853999 0.14836
0.24191 0.03712 0.14841001
0.24319001 0.040679 0.1107
0.2436 0.038070001 0.13687
0.24255 0.043115001 0.092978001
0.24401 0.043659002 0.093171
0.24544001 0.043419998 0.096198998
0.24394 0.042780001 0.094873004
0.24445 0.037695002 0.14867
0.24575999 0.044162001 0.093396999
0.24668001 0.043125 0.096106
0.24686 0.043754999 0.093456
0.24685 0.043972 0.097452
0.24822 0.044317 0.097407997
0.24879999 0.043506999 0.096331999
0.24789999 0.038447 0.14856
0.24947 0.044229001 0.097709998
0.25053999 0.042916 0.11075
0.24992999 0.038674001 0.14839999
0.24953 0.044571001 0.094095998
0.25015 0.039106999 0.14811
0.25026 0.039337002 0.15106
0.25075999 0.040346 0.13928001
0.25165999 0.039852999 0.13821
0.25227001 0.040369999 0.13928001
0.25216001 0.043497998 0.11043
0.25356001 0.044036999 0.11012
0.25512999 0.043848999 0.11047
0.25332999 0.040410999 0.13947
0.25511 0.045175999 0.098324001
0.25624999 0.045366 0.099408001
0.25472 0.040757999 0.13947999
0.25658 0.040323 0.15075
0.25455001 0.040933002 0.14064001
0.25667 0.044504002 0.11011
0.25678 0.046579 0.095609002
0.25813001 0.046505 0.0955
0.25597 0.040982001 0.14232001
0.25666001 0.04081 0.14103
0.25837001 0.045674 0.099838004
0.25648999 0.046397999 0.1003
0.25733 0.040534999 0.14724
0.25924 0.047003001 0.095787004
0.25786999 0.046287 0.10085
0.25808001 0.045026999 0.10917
0.25861999 0.044766001 0.10901
0.25863001 0.04095 0.1515
0.25911999 0.041274998 0.14336
0.25948 0.045079999 0.10786
0.26062 0.046679001 0.095643997
0.26071 0.045568999 0.10647
0.25918999 0.045322999 0.1076
0.25870001 0.041441001 0.1435
0.25891 0.041034002 0.14643
0.25973001 0.040860001 0.15102001
0.26023 0.041336998 0.14399999
0.26052001 0.046147 0.10606
0.26014 0.040762998 0.15233999
0.26032001 0.0416 0.14495
0.26058 0.041568 0.14534999
0.2599 0.041041002 0.14614999
0.26091999 0.047339 0.094325997
0.26242 0.047816999 0.094431996
0.26199001 0.046852998 0.10224
0.26174 0.046133 0.10149
0.26163 0.041696999 0.15286
0.26334 0.048207998 0.094844997
0.26332 0.041609999 0.15255
0.26361999 0.046661001 0.1031
0.26320001 0.046505999 0.10288
0.26435 0.042321999 0.15263
0.26587 0.042187002 0.15243
0.26662999 0.048810001 0.095680997
0.26721001 0.043325 0.15226001
0.26861 0.043577999 0.1524
0.27281001 0.044498999 0.15261
0.27138999 0.044291001 0.15287
0.27394 0.049998999 0.096152
0.27557001 0.044904001 0.15221
0.27456999 0.05085 0.096240997
0.27590001 0.050996002 0.096482001
0.27585 0.048131 0.12554
0.27608001 0.047997002 0.12729
0.27779999 0.051304001 0.096325003
0.27684999 0.050393 0.096133001
0.27671999 0.048687998 0.12266
0.27625 0.048064001 0.12417
0.27688 0.046808999 0.13052
0.27706 0.047561999 0.13115001
0.27763 0.050701998 0.096277997
0.2773 0.048464999 0.12195
0.27774999 0.047653999 0.13225999
0.27912 0.049265001 0.1187
0.27860001 0.047656 0.133
0.27917001 0.047486 0.13426
0.27923 0.052115001 0.096559003
0.28055999 0.049619 0.11706
0.28055 0.047869999 0.1357
0.28127 0.048172001 0.13631999
0.28180999 0.052382 0.096064001
0.28152001 0.050060999 0.11563
0.28218001 0.050391 0.11474
0.28084999 0.046053 0.15346
0.28347 0.052951001 0.095628001
0.28431001 0.051713001 0.11285
0.28268999 0.046317998 0.15333
0.28419 0.047065001 0.15311
0.28617001 0.051807001 0.11186
0.28584 0.048730999 0.13844
0.28452 0.048609 0.1382
0.28547001 0.046771999 0.15221
0.28624001 0.053459 0.095817
0.28738999 0.053814001 0.096317001
0.28731999 0.052071001 0.11168
0.28674001 0.047001999 0.15237001
0.28735 0.048875 0.13981999
0.28878 0.052377 0.11157
0.28828999 0.049307998 0.14047
0.28891999 0.048881002 0.14116
0.28854999 0.047568001 0.15221
0.28878999 0.054604001 0.096331999
0.2904 0.054489002 0.096437998
0.29008999 0.052841 0.11027
0.29051 0.048262998 0.14566
0.2904 0.049033999 0.14480001
0.29062 0.049164001 0.14357001
0.29137999 0.055526 0.096031003
0.29093999 0.053720001 0.10972
0.29031 0.049734 0.14328
0.29132 0.048988 0.14576
0.29087999 0.048551999 0.14681
0.2911 0.047924001 0.15242
0.29028001 0.048053 0.15207
0.29087001 0.049915999 0.14236
0.29198 0.054246999 0.096689001
0.29284999 0.048537001 0.15152
0.29273 0.048486002 0.15253
0.29297 0.048668999 0.14868
0.29352 0.053964999 0.1076
0.29278001 0.054451998 0.096654996
0.29304001 0.055002999 0.096101001
0.29448 0.054453999 0.1047
0.29308999 0.053543001 0.10911
0.29401001 0.048767999 0.14988001
0.29427999 0.048739001 0.15063
0.29385 0.048613001 0.15173
0.29502001 0.055539999 0.096006997
0.29530999 0.055048998 0.096455
0.29585001 0.055369001 0.10441
0.29611999 0.056067999 0.095682003
0.29633 0.054814 0.1039
0.29732001 0.055206001 0.10355
0.29877999 0.055916 0.10306
0.29903001 0.056159001 0.095909998
0.30035999 0.056540001 0.095849998
0.29923001 0.055808999 0.10218
0.30019 0.056304 0.10233
0.30146 0.056499999 0.10185
0.30309001 0.058052 0.094991997
0.30230001 0.050353002 0.15386
0.30269 0.050441001 0.15238
0.30261999 0.050671 0.15478
0.30219001 0.050361998 0.15453
0.30429 0.056754 0.10116
0.30335 0.056618001 0.10117
0.30246001 0.050916001 0.15543
0.30227 0.050923999 0.15087999
0.30385 0.050958 0.15565
0.30471 0.051183 0.14986999
0.30373001 0.052145001 0.14969
0.30507001 0.050960001 0.15555
0.30599001 0.058281001 0.094457
0.30608001 0.057518002 0.10212
0.30528 0.052019998 0.14914
0.30529001 0.052060999 0.15625
0.30656001 0.051546 0.15613
0.30746001 0.057872999 0.10259
0.30864 0.058177002 0.10374
0.30756 0.052933998 0.14789
0.30862001 0.059246 0.094130002
0.31 0.0592 0.094407
0.30805001 0.051846001 0.15623
0.30921999 0.057858001 0.10451
0.31110999 0.059831001 0.095133997
0.31026 0.059145 0.094943002
0.30982 0.058010999 0.10569
0.31119999 0.059725001 0.096911997
0.30985999 0.054028999 0.14546999
0.31049001 0.053672999 0.14555
0.31084001 0.052933998 0.15424
0.31132001 0.053123001 0.15274
0.31086999 0.054722998 0.14425001
0.31178999 0.053477999 0.14449
0.31167999 0.059916001 0.098278999
0.31187001 0.059638999 0.098866999
0.31299001 0.058364999 0.107
0.31191 0.053715002 0.15177999
0.31240001 0.059719 0.099583998
0.31288001 0.059436999 0.10099
0.31248 0.053989001 0.15013
0.31336999 0.059379999 0.10256
0.31362 0.059478998 0.10542
0.31253001 0.054274 0.14846
0.31360999 0.054967001 0.1442
0.31202 0.054393001 0.14403
0.31325001 0.053835001 0.14455999
0.31338 0.054083999 0.14548001
0.3136 0.054609001 0.14568
0.31299999 0.053693 0.1468
0.31290001 0.054377999 0.14674
0.13268 0.012281 0.13772
0.13334 0.012061 0.14052001
0.13412 0.018170999 0.081240997
0.13462 0.012483 0.13127001
0.13500001 0.011673 0.14393
0.13590001 0.017602 0.12526
0.13587999 0.016830999 0.12695
0.13555001 0.018192001 0.12644
0.13765 0.011831 0.14518
0.13802999 0.012498 0.14598
0.13852 0.020106001 0.076849997
0.14078 0.01269 0.14616001
0.14292 0.021640001 0.076645002
0.14379001 0.013572 0.14561
0.1496 0.022429001 0.082450002
0.14996 0.015522 0.14174999
0.15408 0.020293999 0.10763
0.15422 0.020091999 0.11233
0.15394001 0.019742001 0.11399
0.15389 0.017975001 0.13282
0.15433 0.019602999 0.11837
0.15436999 0.019021001 0.12152
0.15414999 0.018309999 0.1241
0.15475 0.022239 0.092607997
0.15508001 0.021765999 0.097476996
0.15504999 0.021824 0.098559998
0.15546 0.020943001 0.10239
0.16121 0.022276999 0.1056
0.16137999 0.022561001 0.10665
0.16215999 0.022095 0.11108
0.16261999 0.021187 0.12092
0.1621 0.021314001 0.12011
0.16463 0.025169 0.086928003
0.16396999 0.022513 0.11115
0.16423 0.020105001 0.12661
0.16474999 0.023375001 0.11134
0.16520999 0.020484 0.12479
0.16446 0.020207001 0.12707999
0.16519 0.022668 0.11021
0.16503 0.021702001 0.12292
0.16757999 0.021914 0.1259
0.16639 0.025006 0.089841999
0.16933 0.022039 0.12874
0.16876 0.021578001 0.12793
0.16959 0.021105999 0.13136999
0.17901 0.028828001 0.086530998
0.18049 0.023414999 0.13417999
0.17989001 0.023259001 0.13801
0.18151 0.02385 0.13443001
0.18516 0.030625001 0.08766
0.18671 0.030756 0.086894996
0.18897 0.031245001 0.086516
0.18901999 0.031208999 0.087907001
0.1883 0.029074 0.098925002
0.19013 0.029437 0.099731997
0.18914001 0.025432 0.13856
0.19021 0.025365001 0.13891
0.19182999 0.029893 0.099799998
0.19265001 0.026276 0.13974001
0.19367 0.030715 0.099398002
0.19487999 0.031098999 0.099361002
0.19549 0.026636001 0.14030001
0.19701999 0.026876001 0.14071
0.20202 0.032584999 0.099444002
0.19969 0.027944 0.14174999
0.20103 0.028458999 0.14161
0.20299999 0.033153001 0.099869996
0.20625 0.033994999 0.10001
0.20697001 0.033861998 0.10037
0.20773999 0.033550002 0.10058
0.20843001 0.034412 0.10059
0.20914 0.034085002 0.10114
0.21277 0.035211001 0.10034
0.21404 0.035721 0.10023
0.21506 0.035241999 0.1012
0.21503 0.035145 0.10178
0.21382 0.030512 0.14267001
0.21539 0.030998001 0.14236
0.21555001 0.036961999 0.093092002
0.21843 0.031950001 0.14211001
0.21987 0.032331999 0.14103
0.22081999 0.032878 0.14098001
0.22078 0.032230999 0.14029001
0.22233 0.032267999 0.14930999
0.2265 0.034134999 0.13970999
0.22635999 0.032591999 0.14856
0.22737999 0.034283001 0.14139
0.22906999 0.038711 0.10348
0.22958 0.034125 0.14992
0.23092 0.035112999 0.14306
0.23252 0.041303001 0.091103002
0.23254 0.040624 0.092395
0.23191001 0.034924001 0.1476
0.23379999 0.040911999 0.092740998
0.23489 0.035450999 0.15044001
0.23461001 0.036637999 0.14121
0.2368 0.040008999 0.1083
0.2351 0.035254002 0.14806999
0.23652001 0.035709001 0.1481
0.23824 0.040773001 0.10813
0.23785999 0.036132999 0.15053
0.23647 0.036816999 0.13986
0.23792 0.037317 0.13891999
0.23978999 0.041425999 0.10893
0.23918 0.037579998 0.13856
0.2396 0.03627 0.15052
0.23941 0.042082999 0.095034003
0.23972 0.036320001 0.14809
0.24077 0.036853999 0.15039
0.24231 0.04298 0.095934004
0.242 0.038166001 0.13748001
0.24364001 0.043336 0.096036002
0.2436 0.038472999 0.1376
0.24391 0.041889999 0.10999
0.24524 0.042075001 0.10999
0.24661 0.042702999 0.11028
0.24798 0.044824 0.093978003
0.24785 0.039221 0.13782001
0.24648 0.038883001 0.13752
0.24897 0.039012 0.14843
0.24828 0.042566001 0.11053
0.24917001 0.043288998 0.11013
0.2476 0.039760001 0.13891999
0.24888 0.040011 0.13922
0.2492 0.038578998 0.1508
0.25071999 0.045157 0.094191998
0.25226 0.045343 0.098742999
0.25110999 0.044856001 0.097891003
0.25222999 0.044937 0.097906001
0.25339001 0.044702999 0.097828999
0.2538 0.045345999 0.098633997
0.25329 0.043132 0.11072
0.25433999 0.039274 0.15085
0.25391999 0.041026998 0.15087
0.25560999 0.041627999 0.15118
0.25533 0.040826 0.14050999
0.25735 0.041046001 0.14247
0.25711 0.041340999 0.14343999
0.25740001 0.041149002 0.14675
0.25762999 0.045338001 0.10753
0.25940001 0.046089999 0.10114
0.25872001 0.041903999 0.14512999
0.26344001 0.046799999 0.10384
0.26535001 0.048271999 0.09499
0.27151 0.049724001 0.095852003
0.27061999 0.049715001 0.096009001
0.27810001 0.049176 0.1198
0.27868 0.045487002 0.15245
0.27970001 0.047933001 0.1347
0.28148001 0.047871999 0.13705
0.29005 0.04902 0.14149
0.29099 0.048865002 0.15352
0.2897 0.048268002 0.15305001
0.29186001 0.053222999 0.1094
0.29244 0.048785999 0.15346999
0.29227999 0.048707001 0.1477
0.29236999 0.049740002 0.14652
0.29326999 0.049332999 0.14757
0.29429001 0.048661001 0.15231
0.29424 0.049242999 0.14920001
0.29460999 0.049084 0.15103
0.29405999 0.049029998 0.15346
0.29554999 0.049587999 0.14929999
0.2956 0.049451001 0.15059
0.29539999 0.049107999 0.15221
0.29558 0.049391001 0.1533
0.29649001 0.049708001 0.152
0.29690999 0.049867 0.15049
0.30177999 0.056660999 0.095314004
0.30159 0.057422001 0.094980001
0.30078 0.050696999 0.15212999
0.30116999 0.050028998 0.15426999
0.30274999 0.056692999 0.10137
0.30217001 0.050583001 0.15180001
0.30333 0.051348999 0.15042999
0.30704999 0.058848001 0.094233997
0.30739 0.058324002 0.094384998
0.31150001 0.053822 0.15262
0.31395 0.059149001 0.10699
0.31244999 0.054985002 0.14283
0.31363001 0.055461999 0.14308
0.13610999 0.015085 0.12455
0.13601001 0.015663 0.12684999
0.13631 0.020416001 0.096588999
0.13591 0.020736 0.093423001
0.13617 0.020773999 0.095253997
0.1356 0.018610001 0.11082
0.13636 0.017066 0.11042
0.13598 0.015830999 0.12213
0.13719 0.012505 0.14597
0.14354999 0.014175 0.14633
0.15403 0.020285999 0.11135
0.15412 0.019694 0.11709
0.15421 0.019803001 0.11575
0.1541 0.020311 0.10959
0.15431 0.017905001 0.12966999
0.15409 0.016894 0.13662
0.15479 0.020965001 0.10536
0.15435 0.022438001 0.10555
0.155 0.022322999 0.088210002
0.15482999 0.02286 0.088430002
0.15484001 0.022523001 0.089446001
0.15543 0.021137999 0.10046
0.16039 0.024619 0.10025
0.16051 0.023055 0.099725999
0.16026001 0.024196999 0.10157
0.1613 0.023932001 0.091110997
0.16226 0.022260999 0.10837
0.16396999 0.024707001 0.10788
0.16498999 0.023078 0.10839
0.16685 0.02177 0.12419
0.16711 0.025665 0.090907
0.18601 0.029355001 0.09753
0.18706 0.025614999 0.13905001
0.19087 0.030097 0.098924004
0.19205999 0.030182 0.098989002
0.19879 0.032343999 0.099592
0.20029999 0.032800999 0.098701999
0.20129 0.033053 0.099154003
0.21132 0.030650999 0.14311001
0.21562999 0.036366001 0.1006
0.21957 0.032605 0.14213
0.22228 0.032949001 0.14855
0.23101 0.039976999 0.10387
0.23137 0.041065998 0.091183998
0.23433 0.041882001 0.094287999
0.23526999 0.040605001 0.10681
0.23637 0.040879 0.10718
0.2386 0.042399999 0.095513001
0.2397 0.042677 0.095889002
0.24326999 0.037544999 0.14841001
0.24502 0.038987 0.13783
0.24614 0.037872002 0.15088999
0.2511 0.043478999 0.10996
0.25136 0.039903 0.15098
0.25490001 0.046197999 0.095121004
0.25472999 0.045646001 0.099358998
0.25354999 0.044969998 0.10915
0.255 0.044955999 0.10916
0.25299001 0.040872 0.14081
0.25622001 0.045157999 0.10927
0.25485 0.044546001 0.11
0.25437 0.041159999 0.14207999
0.25511 0.045901999 0.10011
0.25591999 0.040647998 0.14741001
0.25578001 0.041028999 0.14687
0.25924999 0.047828 0.094848
0.26039001 0.046974 0.10191
0.25895 0.046002999 0.10627
0.26192999 0.047088001 0.10326
0.26763999 0.049394 0.095859997
0.27965 0.049996 0.11802
0.29087999 0.049485002 0.14519
0.29429001 0.049869999 0.14764
0.29655001 0.049830999 0.15347999
0.29824999 0.050097998 0.15242
0.29804999 0.050152998 0.15384001
0.29980001 0.050271001 0.15339001
0.29977 0.050677001 0.15204
0.30026999 0.057243001 0.095431
0.30118001 0.050967999 0.15114
0.30055001 0.050895002 0.15528999
0.30195001 0.051973999 0.14925
0.30429 0.057703 0.10164
0.31266999 0.058743 0.10815
0.31174001 0.05872 0.10803
0.31332001 0.05957 0.10414
0.31404001 0.058929 0.10811
0.1364 0.017246 0.11588
0.13610999 0.016673001 0.11733
0.13582 0.016398 0.12493
0.1354 0.016803 0.12815
0.13629 0.018571001 0.10226
0.13649 0.018257 0.10342
0.13981999 0.021204 0.076563001
0.14551 0.014765 0.14509
0.15211 0.016481001 0.14375
0.15421 0.01836 0.12571999
0.15406001 0.018835001 0.12738
0.15411 0.017564001 0.13515
0.15423 0.017448001 0.13852
0.15398 0.016907001 0.13956
0.15431 0.018230001 0.12811001
0.15460999 0.022769 0.090894997
0.15477 0.022333 0.094218999
0.15526 0.021497 0.099683002
0.16117001 0.023262 0.096019
0.16175 0.025149999 0.085960001
0.16148999 0.024848999 0.088887997
0.16107 0.025183 0.091744997
0.1626 0.022047 0.1104
0.16350999 0.021407001 0.12256
0.16879 0.020555999 0.14281
0.16818 0.020316999 0.14256001
0.16855 0.020981001 0.13886
0.16971999 0.026521999 0.092684001
0.1701 0.021943999 0.13323
0.18176 0.029665001 0.087237
0.18632001 0.030756 0.088760003
0.18759 0.029803 0.097983003
0.18877999 0.030463001 0.097749002
0.19035999 0.030727001 0.097693004
0.19031 0.026162 0.1398
0.19183999 0.031122999 0.098283
0.19311 0.031449001 0.098650999
0.19747999 0.032209001 0.099930003
0.19715001 0.027677 0.14104
0.19851001 0.027915001 0.14122
0.20864999 0.029973 0.14298999
0.2069 0.030013001 0.14302
0.20993 0.034697 0.1004
0.21174 0.035542998 0.099836998
0.21545 0.031621002 0.14336
0.21387 0.031146999 0.14339
0.21599001 0.037225001 0.096826002
0.21664999 0.032195002 0.14343999
0.21787 0.032517001 0.14326
0.22096001 0.033318002 0.14256001
0.22079 0.032099999 0.15031999
0.221 0.032565001 0.14951
0.22197001 0.032308001 0.15064999
0.22394 0.038660999 0.099642999
0.22382 0.032956999 0.14832
0.22374 0.033796001 0.1411
0.22663 0.039593998 0.101
0.22660001 0.034734 0.14269
0.2265 0.034488998 0.14137
0.22618 0.033482999 0.15037
0.22788 0.034743998 0.14406
0.22917999 0.034841001 0.1435
0.23136 0.041271999 0.092276998
0.23017 0.040987 0.091246001
0.23063 0.034389 0.14771
0.23406 0.040431999 0.10578
0.23424 0.035346001 0.14777
0.23540001 0.041869 0.095014997
0.23746 0.037542 0.13978
0.23728999 0.040968001 0.10769
0.24084 0.038282 0.13874
0.24088 0.041960999 0.10901
0.24324 0.038993001 0.13868999
0.2423 0.038454998 0.13816001
0.24372 0.043786 0.097066998
0.24506 0.039234001 0.1381
0.24600001 0.039673001 0.13889
0.24658 0.044537 0.093744002
0.25207001 0.041021999 0.14037
0.25332999 0.041048001 0.14206
0.2563 0.042006001 0.14391001
0.25650999 0.045623999 0.10731
0.25848001 0.046562999 0.10637
0.25960001 0.047566 0.093979999
0.26025999 0.047715001 0.094315
0.25940001 0.046696998 0.10171
0.25849 0.041264001 0.15227
0.2604 0.046842001 0.10492
0.27706999 0.045763001 0.15195
0.28088999 0.050379999 0.11669
0.28543001 0.052110001 0.11226
0.28529 0.047843002 0.15291999
0.28852999 0.047756001 0.1532
0.28975999 0.049844 0.141
0.29424 0.054566 0.10597
0.29385 0.050170001 0.14645
0.29565001 0.050585002 0.14799
0.29664999 0.050531998 0.14967
0.29829001 0.050572999 0.15075999
0.29888999 0.057303999 0.095362
0.29977 0.050838001 0.15078001
0.29967001 0.050652999 0.15525
0.30094001 0.051532999 0.14983
0.30579999 0.058662999 0.094250001
0.30901 0.058536999 0.10421
0.31014001 0.058476999 0.10653
0.31274 0.054595001 0.14726999
0.13160001 0.018867999 0.086474001
0.13101 0.018896 0.087915003
0.13279 0.012567 0.13937999
0.13479 0.019578001 0.079654001
0.13631 0.020213 0.078171
0.13621999 0.018812001 0.093153998
0.13638 0.01809 0.10725
0.13587999 0.017687 0.10936
0.13617 0.016384 0.12039
0.13609 0.019215001 0.10328
0.13594 0.019099001 0.10535
0.13626 0.013218 0.14633
0.13808 0.021109 0.076825
0.13886 0.020593001 0.076670997
0.14376999 0.023021 0.076362997
0.14397 0.022064 0.077041999
0.14495 0.015395 0.14595
0.14427 0.015629999 0.14651
0.14803 0.021759 0.081419997
0.15424 0.019649999 0.11936
0.1549 0.022050001 0.095827997
0.15535 0.021405 0.10368
0.16185001 0.023592001 0.11182
0.16231 0.022476999 0.12173
0.16565999 0.025744 0.089575
0.1674 0.023376999 0.12594999
0.16887 0.022136999 0.13943
0.1701 0.022474 0.13086
0.16992 0.021884 0.13574
0.17583001 0.022675 0.13876
0.18889 0.025694 0.13913999
0.19314 0.027623 0.14058
0.20606001 0.029205 0.14196999
0.20974 0.030656001 0.14352
0.21720999 0.037778001 0.092297003
0.21571 0.037406001 0.091963001
0.22192 0.033636 0.14246
0.22497 0.034515999 0.14112
0.22668999 0.034518 0.14384
0.22966 0.040681999 0.10246
0.22939 0.039468002 0.10335
0.22849999 0.039593998 0.10193
0.22781999 0.034359999 0.14746
0.22978 0.040978 0.092215002
0.23082 0.035597999 0.14383
0.23186 0.036029998 0.14285
0.23214 0.035551 0.15035
0.23253 0.041609999 0.09403
0.2325 0.035386 0.14737999
0.23323999 0.035611998 0.14772999
0.23548999 0.036210999 0.14765
0.23631001 0.036460001 0.14779
0.23639999 0.042259 0.095416002
0.23898 0.037053999 0.14794999
0.2422 0.042112999 0.109
0.24108 0.044794999 0.092559002
0.24529 0.044238001 0.097121999
0.24538 0.043079 0.10951
0.24343 0.042257998 0.10922
0.2471 0.039742999 0.15063
0.24874 0.040812999 0.1408
0.24866 0.040656 0.14014
0.24976 0.044712 0.098389998
0.25143999 0.045045 0.098623
0.25062001 0.040847 0.14056
0.25057 0.044431001 0.10939
0.25218999 0.044647001 0.10914
0.25303999 0.041120999 0.14764
0.25367999 0.045885999 0.099818997
0.25507 0.045318 0.10838
0.25503001 0.041182 0.14325
0.25716001 0.041506998 0.14512999
0.25817999 0.047782999 0.094469003
0.25834 0.047534999 0.093787
0.26944 0.049934998 0.095850997
0.27164999 0.050884001 0.095996
0.28674001 0.047786999 0.15266
0.28957999 0.05328 0.11129
0.29229999 0.050391 0.14551
0.29537001 0.050170999 0.1547
0.29627001 0.051135998 0.14820001
0.29635999 0.050012 0.15459
0.29784 0.051137 0.14959
0.29767999 0.050136998 0.15542001
0.30127999 0.057748999 0.10262
0.30254 0.058198001 0.10187
0.30487999 0.058572002 0.094130002
0.30543 0.059638999 0.094141997
0.30562001 0.059009001 0.10249
0.30632001 0.052521002 0.15666001
0.30805001 0.052916002 0.15646
0.31110001 0.056678001 0.12705
0.31129 0.056644998 0.1256
0.31244999 0.056851 0.12582
0.31246001 0.056699999 0.12729999
0.31395999 0.058240999 0.11689
0.31239 0.057824001 0.11827
0.31277001 0.058499001 0.11725
0.31334001 0.058380999 0.11845
0.31369001 0.057264 0.12692
0.31384 0.057383999 0.12521
0.31454 0.057783999 0.12706999
0.1314 0.017976999 0.091504
0.13235 0.018169001 0.084403999
0.13214 0.019044001 0.084393002
0.13185 0.019009 0.08506
0.13204999 0.014047 0.13349
0.13248 0.017692 0.090492003
0.13225 0.01894 0.090092003
0.13383 0.019177999 0.090213001
0.13328999 0.014257 0.13348
0.13496 0.014945 0.13368
0.13524 0.014658 0.13263001
0.13595 0.018161001 0.11597
0.13567001 0.018231001 0.11771
0.13537 0.021307001 0.11412
0.13548 0.019955 0.11365
0.13548 0.019374 0.11522
0.13719 0.020869 0.077333003
0.14787 0.023629 0.081041999
0.14758 0.016454 0.14259
0.15064 0.024044 0.081165999
0.15424 0.024917999 0.081101999
0.15439001 0.024724999 0.082696997
0.15459 0.02437 0.088000998
0.16106001 0.023753 0.096784003
0.16058999 0.024777999 0.097381003
0.16038001 0.024576001 0.098435998
0.16101 0.0261 0.086851999
0.16124 0.025369 0.092885002
0.16126999 0.022848999 0.11534
0.16146 0.023042999 0.11436
0.16329999 0.026985999 0.085954003
0.16279 0.02251 0.12312
0.16364001 0.024467999 0.10778
0.16342001 0.023921 0.10881
0.16292 0.024416 0.11057
0.16497999 0.024191 0.11054
0.16587999 0.023156 0.12485
0.16741 0.022917001 0.12727
0.16843 0.021686999 0.14353999
0.16919 0.023254 0.12903
0.17004 0.022402 0.13651
0.17022 0.022035999 0.13449
0.17059 0.022911999 0.1319
0.16993 0.022719 0.13174
0.17113 0.02249 0.14168
0.17318 0.021859 0.14026
0.17567 0.023474 0.13965
0.17666 0.024224 0.13940001
0.17926 0.030162999 0.086963996
0.17825 0.024715001 0.13928001
0.17804 0.023869 0.13885
0.18599001 0.031716999 0.089726001
0.1851 0.031683002 0.089514002
0.18538 0.029704001 0.096721999
0.18512 0.025324 0.13917001
0.18929 0.031823002 0.085709997
0.19064 0.031877 0.086156003
0.19049001 0.033188999 0.084826
0.19258 0.027612001 0.14068
0.19435 0.032047998 0.098672003
0.19519 0.028024999 0.14153001
0.19410001 0.027519999 0.14102
0.19588 0.027515 0.14082
0.19724 0.033027999 0.098176003
0.19874001 0.033576 0.097965002
0.19749001 0.032607999 0.099115998
0.19894999 0.032922 0.098449998
0.19914 0.028661 0.14216
0.20123 0.034097999 0.098617002
0.20219 0.029859001 0.14306
0.20243999 0.033879999 0.099095002
0.20249 0.034726001 0.09877
0.20333 0.029048 0.14286999
0.20389 0.029998999 0.14336
0.20467 0.029563 0.14304
0.20552 0.029803 0.14286999
0.21219 0.036226001 0.099832997
0.21277 0.03128 0.14358
0.21491 0.037381999 0.093045004
0.21465001 0.036614999 0.099808998
0.21403 0.037590999 0.093339004
0.21427 0.037927002 0.092164002
0.2158 0.036970001 0.099790998
0.2182 0.039319001 0.092393003
0.21833999 0.033254001 0.14374
0.21933 0.032816999 0.14351
0.21968 0.033305999 0.14375
0.22077 0.033110999 0.14342
0.21975 0.032345999 0.15005
0.22194 0.033484999 0.148
0.22307 0.034226 0.14263
0.22276001 0.039209999 0.098601997
0.22401001 0.039893001 0.099219002
0.22668999 0.04016 0.10087
0.22638001 0.034543 0.14668
0.22654 0.034090001 0.14765
0.22869 0.040787 0.091866001
0.22843 0.040927999 0.091403998
0.22916999 0.034963001 0.14727999
0.22913 0.034933999 0.15011001
0.22937 0.035742 0.14675
0.23186 0.041257001 0.10395
0.23083 0.040520001 0.1035
0.23188999 0.039981999 0.10452
0.23012 0.035284001 0.15041
0.23168001 0.041457999 0.093282998
0.2333 0.03655 0.14223
0.23346999 0.036743999 0.14707001
0.2351 0.043257002 0.092142001
0.23728 0.036325 0.14796001
0.23800001 0.043536 0.096749
0.23793 0.042695999 0.095816001
0.23907 0.037477002 0.15073
0.24153 0.038654 0.1486
0.24379 0.045382001 0.093567997
0.24518999 0.045216002 0.094098002
0.24613 0.044025 0.10864
0.2464 0.044640999 0.097879
0.24492 0.044801999 0.097929001
0.24675 0.043127999 0.1094
0.24643999 0.046167001 0.093889996
0.24771 0.043310001 0.1092
0.24721999 0.040833998 0.14063001
0.25049001 0.046077002 0.099200003
0.2492 0.046080999 0.099137001
0.25015 0.040785 0.14836
0.25468001 0.041754998 0.14666
0.25617999 0.046464998 0.10669
0.25472 0.046048999 0.10726
0.25633001 0.041735001 0.14503001
0.25665 0.045940001 0.10703
0.25555 0.041661002 0.14591999
0.25815001 0.046528999 0.10134
0.26064 0.047327001 0.10337
0.26332 0.049716 0.095558003
0.26449001 0.050037999 0.095432997
0.26578999 0.043492999 0.15279999
0.26399001 0.043008 0.1529
0.2674 0.050636999 0.095459998
0.26914999 0.050934002 0.095624998
0.27318999 0.051208001 0.096130997
0.27417001 0.051608 0.096101001
0.27735999 0.048733 0.13274001
0.27643999 0.049004 0.13156
0.27829 0.045662001 0.15216
0.27903 0.051066998 0.11906
0.27827999 0.050471999 0.12001
0.27789 0.047221001 0.15313999
0.27928999 0.049279001 0.13491
0.28025001 0.050974999 0.11754
0.27941999 0.051210001 0.11836
0.28072 0.051759001 0.11698
0.28123999 0.049655002 0.13615
0.28132001 0.051956002 0.11602
0.28184 0.049157999 0.13654
0.28136 0.053957 0.095994003
0.28277001 0.05424 0.096152999
0.28274 0.052088 0.11477
0.28373 0.050182998 0.13792001
0.28701001 0.053592999 0.11216
0.28623 0.053001001 0.11228
0.28679001 0.048567001 0.15318
0.28832999 0.053922001 0.11206
0.28805 0.049045999 0.15384001
0.28933001 0.051125001 0.14079
0.29143 0.050590001 0.14458001
0.29396999 0.050921001 0.14585
0.29354 0.049663998 0.15443
0.29523 0.051987 0.14665
0.29552001 0.050838999 0.14721
0.29653999 0.055399999 0.10426
0.29675001 0.051529001 0.14734
0.29697001 0.056805 0.10421
0.29657 0.056710999 0.10464
0.29728001 0.056961998 0.095158003
0.29798001 0.052407999 0.14799
0.29754999 0.051453002 0.1485
0.29956999 0.051320001 0.14961
0.30125001 0.058329001 0.094301
0.30276 0.059186999 0.094371997
0.30373001 0.059071001 0.094354004
0.30353999 0.053879999 0.14871
0.30632001 0.054205 0.14789
0.3066 0.059128001 0.10236
0.30781999 0.054832 0.14668
0.31039 0.059932999 0.10701
0.30976 0.060740001 0.093944997
0.31039 0.054311 0.15572999
0.31107 0.059521001 0.10824
0.31101 0.057100002 0.12448
0.31139001 0.05765 0.11957
0.31147999 0.057941001 0.11857
0.31209001 0.058180999 0.11944
0.31222999 0.057358 0.12424
0.31220999 0.057305999 0.12838
0.31279999 0.057133 0.12796
0.31173 0.055323999 0.15004
0.31367001 0.059640002 0.10958
0.31268999 0.058983002 0.11701
0.31191 0.056439999 0.14298999
0.31365001 0.057742 0.12409
0.31386 0.057854999 0.12874
0.31336001 0.056595001 0.14432999
0.31338999 0.059815999 0.11576
0.31413001 0.058447 0.11584
0.31483999 0.057728998 0.12568
0.31494001 0.058200002 0.12453
0.31512001 0.059018999 0.11647
0.31542999 0.058871001 0.1158
0.13105001 0.018704001 0.088867001
0.13108 0.018576 0.090101004
0.13209 0.018309999 0.091257997
0.13168 0.013855 0.13496999
0.13246 0.019582 0.083251998
0.13162 0.013461 0.13794
0.13399 0.019874999 0.080176003
0.13273001 0.013152 0.14216
0.13429999 0.01833 0.091027997
0.13576999 0.018547 0.091472
0.13462999 0.013382 0.14516
0.13587999 0.020990999 0.078013003
0.13606 0.019641999 0.091728002
0.13576999 0.015071 0.12805
0.1356 0.016015001 0.12938
0.13578001 0.018025 0.12106
0.13564999 0.017293001 0.12384
0.13649 0.018151 0.098760001
0.13663 0.018805001 0.10119
0.13579001 0.021862 0.098305002
0.13573 0.021640001 0.099508002
0.13533001 0.02283 0.099647999
0.13826001 0.021724001 0.076637
0.13725001 0.013626 0.14747
0.13911 0.013981 0.14702
0.14233001 0.014228 0.14698
0.14286 0.022721 0.076068997
0.14307 0.015024 0.14699
0.14463 0.022794999 0.077303
0.14597 0.016085999 0.14533
0.14652 0.01609 0.14411999
0.14665 0.023189001 0.079245999
0.14579999 0.023521001 0.077767998
0.14891 0.017051 0.14267001
0.14951 0.023277 0.081931002
0.14985999 0.016158 0.142
0.14989001 0.016977999 0.14307
0.1504 0.017434999 0.14414001
0.15316001 0.018279999 0.14432999
0.15308 0.016588001 0.14356001
0.15381999 0.018283 0.13146
0.15384001 0.017957 0.14172
0.15328 0.018366 0.14314
0.15436999 0.024448 0.084132999
0.15412 0.024411 0.085410997
0.15353 0.020835999 0.11862
0.15421 0.019211 0.12357
0.15418001 0.02024 0.1229
0.15457 0.023592001 0.097018003
0.15444 0.022495 0.10426
0.16063 0.023840999 0.10399
0.16122 0.025926 0.085496999
0.16091 0.023824001 0.10606
0.16136 0.025188999 0.094039001
0.16062 0.022640999 0.11861
0.1621 0.026746999 0.084353
0.16117001 0.022856999 0.11724
0.16281 0.026154 0.085258998
0.16384 0.026973 0.086682998
0.16497 0.026938999 0.087540999
0.16407999 0.022177 0.12354
0.16588999 0.02661 0.090051003
0.16511001 0.026905 0.088609003
0.16462 0.024741 0.10887
0.16675 0.026741 0.091187999
0.16748001 0.021398 0.14295
0.16778 0.021442 0.14226
0.16821 0.022109 0.14178
0.16761 0.027233001 0.091927998
0.16817001 0.021196 0.13993999
0.16843 0.022338999 0.14038999
0.16969 0.027178001 0.092740998
0.17022 0.022191999 0.14317
0.17019001 0.027499 0.092935003
0.17204 0.028103 0.092793003
0.17296 0.027913 0.092932001
0.17263 0.022915 0.14087
0.17219 0.022396 0.14050999
0.1733 0.028723 0.090519004
0.17336001 0.028469 0.091835
0.17354 0.028657001 0.089360997
0.1737 0.022333 0.14016999
0.17467999 0.029300001 0.088799998
0.17633 0.029542999 0.087815002
0.17735 0.030160001 0.087302998
0.17750999 0.030211 0.086718999
0.17964999 0.024104999 0.13845
0.18025 0.030838 0.086669996
0.18178 0.030960999 0.087576002
0.18314999 0.031006999 0.088322997
0.18476 0.031279001 0.088258997
0.18492 0.030613 0.091973998
0.18504 0.030885 0.090861998
0.18515 0.030657999 0.093711004
0.18539 0.030480999 0.095041998
0.18572 0.031061999 0.095446996
0.18588001 0.030571001 0.096372999
0.1841 0.025889 0.13963
0.18592 0.032081999 0.088150002
0.18674 0.031746998 0.086815
0.18708999 0.032311 0.086631998
0.18663 0.032140002 0.089093998
0.18743999 0.032653999 0.085458003
0.18767001 0.032765999 0.088198997
0.18725 0.030874001 0.096441001
0.18777999 0.030838 0.097199999
0.18907 0.032605 0.085396998
0.18865 0.032455001 0.088380001
0.18906 0.031307001 0.096800998
0.18991999 0.033068001 0.087477997
0.19069 0.032850999 0.086811997
0.19095001 0.027151 0.14047
0.19207001 0.031929001 0.097549997
0.19444001 0.032485001 0.098070003
0.19441 0.027832 0.14122
0.1961 0.032214999 0.098471001
0.19629 0.032721002 0.097911
0.19807 0.028255999 0.14218
0.20728999 0.035797998 0.098986998
0.208 0.030887 0.14401001
0.20994 0.031006999 0.14403
0.20952 0.035721 0.099692002
0.21251 0.037191998 0.099279001
0.21388 0.037477002 0.098733
0.21412 0.038031001 0.094981
0.21462999 0.037386 0.094388999
0.21483999 0.037354 0.095578
0.21486001 0.032225002 0.1442
0.21518999 0.037868999 0.096362002
0.2155 0.038194001 0.097443998
0.21549 0.038068999 0.091397002
0.21712001 0.039154001 0.091747999
0.21627 0.037439 0.098576002
0.21540999 0.037785999 0.099179
0.21875 0.038605999 0.092712
0.21974 0.039106999 0.092726
0.21909 0.032956 0.14929
0.22009 0.032922 0.14901
0.2191 0.033073001 0.15069
0.22104 0.039772 0.093414001
0.22023 0.033252001 0.15081
0.22070999 0.039011002 0.094137996
0.22132 0.039655998 0.095128998
0.22149 0.039221998 0.096749999
0.22163001 0.039287001 0.097203001
0.22222 0.039866 0.098301001
0.22028001 0.033528 0.14839999
0.22150999 0.033255 0.15036
0.22146 0.033627 0.14314
0.22228 0.034047998 0.14381
0.22214 0.033971 0.15006
0.22308999 0.033475 0.14797001
0.22341 0.034304999 0.15020999
0.22507 0.040169001 0.099785998
0.22497 0.034520999 0.14978001
0.22601999 0.039400999 0.10058
0.22544 0.034961998 0.14171
0.22476999 0.034373999 0.1471
0.22595 0.034952998 0.15009999
0.22583 0.035011999 0.14228
0.22569001 0.034623001 0.14365999
0.22661 0.041409001 0.090820998
0.22804999 0.041398998 0.090907
0.22623999 0.034813002 0.14532
0.22736999 0.034869999 0.14997
0.22756 0.035429999 0.14537001
0.22861999 0.035236001 0.14482
0.22964001 0.042288002 0.090937003
0.22926 0.035902999 0.14477
0.22953001 0.041487001 0.094139002
0.23102 0.042383999 0.091558002
0.23013 0.036341 0.147
0.23204 0.036187001 0.14714
0.23204 0.042652 0.091725998
0.23372 0.043060999 0.091505997
0.2341 0.041219 0.1054
0.23333 0.037714999 0.14308999
0.23364 0.042289 0.095670998
0.23484001 0.041878998 0.10527
0.23499 0.037466999 0.14187001
0.23293 0.036138002 0.15054999
0.23484001 0.036412001 0.15047
0.23427001 0.043003999 0.091980003
0.23515999 0.041085001 0.10604
0.23560999 0.041163001 0.10626
0.23571 0.037478998 0.14715999
0.23558 0.042495999 0.095645003
0.23568 0.036525998 0.15068001
0.23654 0.041673999 0.10666
0.236 0.037572 0.14088
0.23634 0.037757002 0.14063001
0.23728999 0.037057001 0.15198
0.23799001 0.042378999 0.10702
0.23734 0.037907999 0.14755
0.23801 0.036600001 0.15073
0.23864999 0.038058002 0.13959999
0.23926 0.042512 0.1075
0.23892 0.037836 0.14789
0.23924001 0.038835 0.14032
0.23982 0.043136001 0.096440002
0.24061 0.043903999 0.097401001
0.24004 0.037834998 0.14793999
0.24073 0.04318 0.096831001
0.24031 0.037680998 0.15075
0.24062 0.038538001 0.14834
0.23968001 0.044420999 0.092537999
0.24144 0.037893999 0.1505
0.24189 0.042913001 0.10851
0.24106 0.042523999 0.10871
0.24191 0.045175001 0.093079999
0.24150001 0.039149001 0.13922
0.24315 0.038874 0.15084
0.24437 0.039243001 0.15072
0.24530999 0.043531001 0.10866
0.24584 0.039753001 0.14903
0.24772 0.046052001 0.094513997
0.24883001 0.044133998 0.10927
0.24924 0.044036001 0.10906
0.24947999 0.046645999 0.094963998
0.24919 0.040063001 0.14812
0.24996001 0.039818 0.15081
0.25042 0.041343 0.14145
0.25154999 0.041129999 0.14135
0.25038001 0.044659 0.1087
0.25185999 0.045088001 0.10863
0.25328001 0.045274999 0.10781
0.25205001 0.045387 0.10748
0.25158 0.041715 0.14239
0.25227001 0.046790998 0.10018
0.25139001 0.041088 0.14817999
0.25310999 0.046792999 0.10047
0.25342 0.044987999 0.10833
0.25384 0.04149 0.14287999
0.25461999 0.046730001 0.10076
0.2559 0.047862999 0.095877998
0.25477999 0.047715001 0.095830999
0.25529 0.041928001 0.14365999
0.25619999 0.047380999 0.10209
0.25582001 0.047077999 0.10126
0.25556001 0.041650001 0.14478999
0.25745001 0.047644001 0.095858
0.25696999 0.042045001 0.15115
0.25786999 0.047943 0.094889998
0.25762001 0.048592001 0.093549997
0.25904 0.049157999 0.093671001
0.257 0.042350002 0.15205
0.25850001 0.042404 0.15338001
0.25887001 0.047042999 0.10519
0.25988001 0.047065001 0.10513
0.26018 0.048893999 0.094195999
0.25892001 0.047320001 0.1026
0.25964999 0.042234998 0.15301999
0.26072001 0.048992001 0.094329998
0.25883999 0.047536999 0.10326
0.25996 0.047042999 0.10362
0.26014999 0.042560998 0.15313999
0.26118001 0.043382999 0.15313999
0.26282001 0.043274 0.15267
0.26589999 0.050276 0.095472999
0.26734999 0.043747 0.15341
0.26841 0.043736 0.15341
0.27019 0.050657999 0.095352001
0.27087 0.044413 0.15352
0.27340999 0.051421002 0.095457003
0.27289 0.044881999 0.15373001
0.27395999 0.045612 0.15331
0.27531999 0.049339 0.12556
0.27519 0.049059998 0.12734
0.27517 0.048987001 0.12835
0.27566001 0.04961 0.12407
0.27601001 0.048902001 0.12993
0.27621001 0.051987 0.095999002
0.27721 0.052749 0.095596999
0.27656999 0.046971001 0.15270001
0.27516001 0.046039 0.15338001
0.27643999 0.049516998 0.12253
0.27711001 0.046022002 0.15217
0.27825001 0.052448999 0.096290998
0.27722999 0.050317001 0.12163
0.27904999 0.052893002 0.096221
0.27796999 0.048859 0.13353001
0.27794999 0.046709001 0.15243
0.27939999 0.047063999 0.15285
0.27983999 0.053853001 0.095836997
0.28083 0.047343999 0.15346
0.28240001 0.048016001 0.15324999
0.28255001 0.049740002 0.13717
0.28444001 0.054815002 0.095752999
0.28431001 0.052910998 0.11328
0.28385001 0.048493002 0.15338001
0.28580999 0.05494 0.095694996
0.28531 0.053362001 0.11269
0.28544 0.048278 0.15335999
0.28650001 0.050879002 0.13895001
0.28817999 0.050894 0.14005999
0.28927001 0.054256 0.11171
0.28990999 0.054423999 0.11093
0.29042 0.049132999 0.15441
0.29143 0.054954998 0.11007
0.29054999 0.050533 0.14083
0.29082999 0.051470999 0.14102
0.29043001 0.051190998 0.14365
0.29093999 0.051569998 0.14215
0.29266 0.055204 0.1094
0.29258999 0.051316001 0.14523999
0.29293999 0.056692999 0.096040003
0.29269999 0.055307001 0.10768
0.29302001 0.055902999 0.10613
0.29366001 0.055596001 0.10906
0.29367 0.051725 0.14535999
0.29231 0.050122 0.15474001
0.29433 0.055353001 0.10608
0.29477 0.056469999 0.095458999
0.29366001 0.050526001 0.15459999
0.29527 0.056547999 0.10528
0.29554999 0.057059001 0.095320001
0.29508999 0.050487 0.15509
0.29686999 0.057744 0.095110998
0.29642001 0.050512999 0.15501
0.29848999 0.057383999 0.10344
0.29872999 0.057897002 0.094939999
0.30017999 0.057537001 0.10293
0.29767999 0.051392 0.1556
0.29923001 0.051387999 0.15605
0.30045 0.051633 0.1561
0.30015001 0.058338001 0.094861001
0.30159 0.05167 0.1561
0.30234 0.051952999 0.15633
0.30252001 0.052305002 0.15635
0.30410001 0.052088998 0.1565
0.30335 0.052997999 0.14906
0.30403 0.058348998 0.10209
0.30484 0.054026 0.14857
0.30715999 0.060309 0.094201997
0.30792999 0.0605 0.094163001
0.30857 0.059524 0.10371
0.30763 0.053489 0.15673
0.30932999 0.059808999 0.10411
0.30847999 0.054636002 0.14602
0.30906001 0.055344 0.14579
0.30904999 0.054118998 0.15689
0.30968001 0.059717 0.10535
0.30954 0.053732999 0.15589
0.30983999 0.059250001 0.1064
0.30915001 0.056931 0.12512
0.31020999 0.056807 0.12487
0.30939999 0.057868998 0.12113
0.31088999 0.058173999 0.11979
0.31036001 0.055744 0.14401001
0.31101 0.060904998 0.095269002
0.31099001 0.05852 0.11831
0.31071001 0.057551 0.1241
0.31039 0.054710001 0.15443
0.31106001 0.055142 0.15279
0.31235 0.059353001 0.11872
0.31215999 0.05672 0.13275
0.31073999 0.057197001 0.13287
0.31169999 0.056483999 0.13199
0.31081 0.057115 0.13089
0.31229001 0.059741002 0.10996
0.31281999 0.059278999 0.10948
0.31136 0.055190001 0.15181001
0.31202 0.060844999 0.099630997
0.31206 0.058703002 0.11945
0.31194001 0.057475001 0.13186
0.31200999 0.057457998 0.13414
0.31193 0.057470001 0.13274001
0.31373 0.059951998 0.10993
0.31354001 0.059154999 0.11826
0.31325001 0.056921002 0.13324
0.31345999 0.057615001 0.13301
0.31384999 0.056366 0.13403
0.31356999 0.055661999 0.14184999
0.31209001 0.055906001 0.14726
0.31288001 0.060864002 0.10253
0.31286001 0.055287 0.14686
0.31307 0.055757001 0.14584
0.31380999 0.060513999 0.1071
0.31448999 0.060548 0.10839
0.31415999 0.059564002 0.11754
0.31505001 0.057303999 0.13590001
0.31353 0.057528 0.13596
0.31529999 0.059606001 0.11719
0.31481999 0.056685001 0.13440999
0.31442001 0.056317002 0.14187001
0.31312999 0.056598999 0.141
0.31380001 0.056504 0.14332999
0.31485999 0.055798002 0.14225
0.31413999 0.056949001 0.14277001
0.31580001 0.058510002 0.12437
0.31481001 0.058104999 0.12726
0.31474 0.058088001 0.13441999
0.31534001 0.059565 0.11546
0.31534001 0.056945 0.13519
0.31615999 0.059335999 0.11596
0.31597 0.059227999 0.12451
0.13239001 0.013455 0.14045
0.13318001 0.019942001 0.081765004
0.13372999 0.013107 0.14374
0.13504 0.020554001 0.078565001
0.13410001 0.020924 0.079172
0.13495 0.019941 0.090662003
0.13616 0.019336 0.10922
0.13586 0.017066 0.11939
0.13586 0.019994 0.10017
0.13564999 0.013043 0.14577
0.13894001 0.014198 0.14749999
0.14026999 0.014246 0.14731
0.14495 0.023503 0.077298999
0.14703999 0.016582999 0.14366999
0.15115 0.024747999 0.080496997
0.15228 0.024639999 0.080245003
0.15192001 0.023892 0.080441996
0.15368 0.022155 0.10785
0.15375 0.021466 0.11165
0.15357 0.020545 0.12545
0.1538 0.018757001 0.13578001
0.15383001 0.020612 0.12124
0.15381999 0.020156 0.12396
0.1539 0.018587001 0.13731
0.1539 0.01849 0.13940001
0.1548 0.023003001 0.098413996
0.1547 0.022481 0.10076
0.15487 0.022903999 0.1021
0.15477 0.023201 0.099838004
0.16032 0.024243001 0.10311
0.16107 0.025945 0.088537998
0.16117001 0.024869001 0.096008003
0.16148999 0.023419 0.11323
0.16163 0.02427 0.10763
0.16201 0.023839001 0.10999
0.16469 0.022648999 0.1241
0.17038999 0.023633 0.13079999
0.1698 0.022349 0.13755
0.17068 0.022871001 0.1346
0.17044 0.021847 0.14229999
0.17066 0.022956001 0.13325
0.17425001 0.023397001 0.14042
0.17460001 0.023122 0.13978
0.18076 0.031302001 0.087068997
0.18719 0.026446 0.14003
0.18831 0.027019 0.14036
0.19034 0.031360999 0.097554997
0.18956999 0.027015001 0.14035
0.19324 0.031916998 0.097893
0.19674 0.028669 0.14184999
0.19973999 0.029482 0.14258
0.20017 0.034093998 0.098421
0.20034 0.029221 0.14230999
0.20113 0.029668 0.14306
0.20398 0.035200998 0.098782003
0.20544 0.035498001 0.098731004
0.20722 0.030402999 0.14365999
0.20558 0.030751999 0.14380001
0.20852999 0.036550999 0.098628998
0.20897999 0.031741999 0.14448
0.20777 0.031383999 0.14452
0.20968001 0.031200999 0.14386
0.21227001 0.032033999 0.14483
0.21236999 0.031644002 0.14402001
0.21343 0.032097001 0.14417
0.22071999 0.033746999 0.14405
0.22356001 0.034862 0.14385
0.2219 0.034604002 0.14717001
0.22347 0.034566998 0.14726
0.22409 0.034525 0.14256001
0.22477999 0.034644 0.14245
0.22485 0.034809001 0.14384
0.22452 0.035406001 0.14559001
0.22770999 0.035193 0.14719
0.22803 0.041441001 0.092620999
0.22927 0.041147999 0.092212997
0.2304 0.036462002 0.14459001
0.23119999 0.042043 0.094554
0.23154999 0.036850002 0.14429
0.23221999 0.036674 0.14339
0.23307 0.040890999 0.10493
0.23355 0.041852999 0.10439
0.23208 0.041544002 0.094394997
0.23457 0.037147 0.14724
0.2361 0.042417001 0.096210003
0.23633 0.038229998 0.14154001
0.23589 0.037069999 0.15181001
0.23715 0.038488999 0.14157
0.23746 0.038084 0.14040001
0.23669 0.043453 0.092231996
0.23816 0.043671001 0.092534997
0.24044 0.039500002 0.14016999
0.24104001 0.038865998 0.13943
0.24579 0.039462 0.15084
0.24548 0.040144 0.13982999
0.24596 0.040463001 0.14019001
0.24641 0.045508001 0.098692998
0.24699999 0.039937999 0.1489
0.24843 0.040410999 0.14858
0.24855 0.040339001 0.15096
0.24955 0.041939002 0.15087999
0.25169 0.046994001 0.095200002
0.25181001 0.046050001 0.099798001
0.25099 0.046739999 0.095129997
0.25257 0.041423 0.14274
0.25319999 0.046886999 0.095324002
0.25312001 0.042337999 0.14387999
0.25437 0.041786999 0.14399
0.25477999 0.046512 0.10647
0.25683001 0.046411999 0.10603
0.25718999 0.047510002 0.10208
0.26168001 0.049754001 0.095257998
0.26699001 0.044179 0.15423
0.26837 0.044362999 0.15414
0.26969001 0.044321999 0.15411
0.27169001 0.050721001 0.095117003
0.27105001 0.045271002 0.15436999
0.27307999 0.052145001 0.094125003
0.27184001 0.051943999 0.093943
0.27225 0.045600999 0.15445
0.27451 0.051736001 0.095168002
0.27585 0.052416001 0.095392004
0.27601001 0.049945999 0.12347
0.28011999 0.049993999 0.13523
0.28488001 0.050597001 0.13860001
0.28716999 0.055404 0.096045002
0.28762001 0.051120002 0.13982999
0.29003 0.055658001 0.095702998
0.28951001 0.049631 0.15418001
0.29633 0.052288 0.14693999
0.29949999 0.052590001 0.14802
0.30085 0.052124999 0.14925
0.30199999 0.052953001 0.14918
0.30328 0.052898999 0.15673999
0.30476999 0.053263001 0.15662999
0.30605 0.053431999 0.15699001
0.30917001 0.057264 0.12401
0.30934 0.057223 0.12706
0.30943 0.058148999 0.11964
0.31042999 0.057020001 0.12745
0.31097999 0.058031999 0.1227
