# .PCD v0.7 - Point Cloud Data file format
VERSION 0.7
FIELDS x y z
SIZE 4 4 4
TYPE F F F
COUNT 1 1 1
WIDTH 1466
HEIGHT 1
VIEWPOINT 0 0 0 1 0 0 0
POINTS 1466
DATA ascii
-0.011991 -0.020065 0.11157
-0.010491 -0.019515 0.11079
-0.011091 -0.019873001 0.11081
0.052044999 0.088380001 0.080700003
0.052781001 0.089102998 0.079928003
0.053902999 0.088137999 0.080073997
0.037218001 -0.042739 0.060821999
0.03638 -0.043572001 0.061191
0.036483999 -0.041689999 0.061335001
0.055633999 -0.024131 0.063963003
0.054545 -0.026153 0.065347999
0.055344 -0.02602 0.064309999
0.026516 0.080994003 0.071633004
0.025591001 0.080678001 0.071059003
0.027269 0.080127999 0.071258001
0.054195002 0.11171 0.068015002
0.051731002 0.11145 0.068487003
0.052496001 0.11007 0.068604998
0.089100003 0.061914001 0.041471999
0.088863999 0.062164001 0.042068999
0.088344999 0.061484002 0.043076999
-0.016999001 0.033553001 0.11012
-0.017038999 0.033268999 0.11027
0.04391 0.083433002 0.083973996
0.043125 0.081410997 0.083926
0.044571001 0.082703002 0.082915999
0.030853 0.078919999 0.069043003
0.033452 0.077806003 0.069697
0.032235 0.078953996 0.068939
0.020089 0.013958 0.080908999
0.020242 0.014509 0.080394
0.019114999 0.014926 0.082961001
0.025855999 0.0070583001 0.076563999
0.026215 0.0063936999 0.078229003
0.026240001 0.0079974998 0.075856
0.022647001 0.073276997 0.078051999
0.022089001 0.072136 0.078518003
0.021731 0.072453 0.078447998
0.037949 0.0054786 0.13225999
0.041529998 0.0047184001 0.13462
0.041095998 0.0057446999 0.13502
0.092101999 0.076866999 0.026947999
0.090269998 0.077099003 0.027427999
0.091484003 0.076973997 0.027573001
-0.019990001 0.034899998 0.11933
-0.020378999 0.034106001 0.12305
-0.018936999 0.034410998 0.12102
0.054386001 -0.016921001 0.10037
0.053192001 -0.018375 0.10139
0.061756 0.048567001 0.059978001
0.061693002 0.047570001 0.058278002
0.060821 0.049141999 0.058961999
0.055108 0.045088001 0.067213997
0.054079 0.045205001 0.067069001
0.060467999 -0.010535 0.10802
0.043997001 -0.015908999 0.064483002
0.044116002 -0.014032 0.063927002
0.043752 -0.015144 0.064259999
0.059613001 0.013074 0.12038
0.059762999 0.012924 0.12061
0.058339 0.013569 0.12073
0.045903999 0.088333003 0.064485997
0.047162998 0.087052003 0.062968999
0.045559999 0.087480001 0.064038999
0.031973999 0.062488999 0.072121002
0.033684999 0.063715003 0.072141998
0.033588 0.063831002 0.071532004
-0.022175999 0.030115999 0.12678
-0.021594999 0.030766999 0.12646
0.066064 0.033549 0.088039003
0.064800002 0.032239001 0.086920999
0.065047003 0.032887001 0.087356001
0.015357 0.0092227003 0.092263997
0.015609 0.0094047999 0.091150999
0.015908999 0.0088779004 0.090763003
0.030097 0.055475 0.076637998
0.029085999 0.056754999 0.076130003
0.029246001 0.055803001 0.076559998
0.064975999 0.043708999 0.081063002
0.066460997 0.042355001 0.081059001
-0.032953002 0.0011753 0.12211
-0.031812999 0.0017833 0.12294
0.016163001 0.0048215999 0.087734997
0.016772 0.0048608002 0.088659003
0.016719 0.0055852002 0.088044003
-0.022202 0.025229 0.10869
-0.021828 0.025266999 0.10702
-0.023032 0.023716001 0.10774
0.057351999 0.098081999 0.077183001
0.057360999 0.099698 0.077001996
0.056903001 0.099156998 0.076926999
0.037661001 -0.036722001 0.046286002
0.037618 -0.034770001 0.047284
0.037351001 -0.035252001 0.047233999
0.0026262 -0.017847 0.10872
0.00032907 -0.01785 0.10941
0.0017277 -0.018794 0.10962
0.03156 0.062024999 0.072835997
0.032614 0.062458999 0.072274998
0.033868 0.061404999 0.072190002
0.0061369999 0.0022861001 0.083603002
0.0055066999 0.0016735001 0.085484996
0.0059015001 0.00027272999 0.084735997
0.014839 -0.035333999 0.095872
0.016439 -0.033955999 0.094447002
0.016822999 -0.035048001 0.095802002
0.033728998 0.091476001 0.068529002
0.033594999 0.091133997 0.070133999
0.034584001 0.091128998 0.068971999
0.076134004 0.037486002 0.045628998
0.075603999 0.038164001 0.045423999
0.013647 0.027719 0.10279
0.018051 0.011265 0.088338003
0.01715 0.011265 0.087044999
0.058738001 -0.010164 0.086493
0.060295001 -0.010718 0.085174002
0.059719 -0.0091840001 0.084903002
0.053282 0.025062 0.12109
0.052432001 0.024084 0.12077
0.053406 0.023853 0.11955
-0.036966 0.021848001 0.11905
-0.037949 0.019998999 0.11949
-0.035797998 0.020886 0.12036
-0.014904 0.035004999 0.1193
-0.014518 0.034619998 0.11869
0.070674002 0.039778002 0.037519
0.070767999 0.040043 0.03774
0.070770003 0.040484998 0.037785001
0.064448997 0.0018908 0.11464
0.063635997 0.00056476 0.11512
0.064860001 0.00059895997 0.11449
0.076447003 0.040573001 0.041464001
0.078263 0.039074998 0.043263
0.077097997 0.041071001 0.042447999
0.0050144 0.028546 0.10443
0.0031516999 0.028467 0.10408
0.0046696002 0.029939 0.10561
0.065168001 0.043942001 0.086112
0.063409001 0.044287998 0.086324997
0.0029885001 -0.013929 0.079428002
0.0031322001 -0.01313 0.079585001
0.003057 -0.012648 0.079255
-0.012933 0.034538001 0.11101
-0.013539 0.034368999 0.11047
-0.014015 0.033950001 0.11173
0.017786 0.015945001 0.083396003
0.017632 0.015108 0.083278
0.017697001 0.015887 0.08354
0.031105001 -0.0082614999 0.13150001
0.033163 0.091978997 0.070611998
0.033652999 0.091876999 0.070840999
0.08213 0.048907001 0.038968001
0.081038997 0.048845001 0.036759999
0.081744999 0.050287001 0.038656998
0.018271999 -0.027782001 0.090473004
0.017705999 -0.030307001 0.090135001
0.018399 -0.028886 0.088827997
0.013239 -0.012539 0.11744
0.015335 -0.014323 0.1175
0.015915999 -0.014182 0.11724
-0.028377 0.0050992002 0.11817
-0.029175 0.0051018 0.11893
-0.030733 0.0050271 0.1185
0.01177 0.018483 0.12365
0.012314 0.017447 0.12336
0.012399 0.019405 0.12383
0.056331001 0.024861 0.11209
0.054621998 0.026704 0.11492
0.054288 0.02533 0.11479
0.024558 -0.052432001 0.054200999
0.022980001 -0.053644001 0.054761
0.024225 -0.051825002 0.056134
0.029545 0.019599 0.076861002
0.030164 0.020955 0.075502999
0.060375001 0.022003001 0.10997
0.060757 0.022363 0.10811
0.060088001 0.024271 0.10952
0.037666 -0.02372 0.11294
0.040178001 -0.023902999 0.1141
0.038323 -0.023692001 0.11443
0.0049958001 -0.012262 0.070404999
0.0035182999 -0.011623 0.070830002
0.0026988001 -0.011804 0.069902003
0.028968001 -0.044638 0.051256999
0.030448999 -0.045674 0.052106
0.030793 -0.044895999 0.052843001
0.053569999 0.031828001 0.059999999
0.054855 0.030312 0.060663
0.053118002 0.030548999 0.061250001
0.0074608 -0.032267999 0.090916
0.0084028998 -0.03297 0.094609
0.0072976002 -0.032813001 0.093111999
0.078157 0.076476 0.033461999
0.080486 0.078619003 0.032152001
0.078022003 0.077775002 0.03145
0.087063 0.058933001 0.047403
0.087293997 0.058555 0.046417002
0.087021999 0.060118001 0.04679
0.045805998 0.047874 0.074229002
0.045053001 0.047460001 0.074441001
0.045736 0.048689999 0.075143002
-0.0056364001 0.033945002 0.11061
-0.0065223998 0.034395002 0.11293
-0.0054930998 0.035769999 0.11149
0.051318999 -0.0046962998 0.072402
0.051291 -0.00403 0.073601
0.051488001 -0.0059906999 0.070750996
0.001955 0.021855 0.10859
0.0010971 0.024226001 0.10799
0.0020391999 0.023686999 0.10751
0.089603998 0.057401001 0.042068999
0.088246003 0.057707001 0.041088998
0.087439999 0.057300001 0.042293001
0.015867 -0.0052677998 0.12107
0.017159 -0.0056147999 0.12091
0.01568 -0.0055276998 0.12037
0.023386 -0.019126 0.085818999
0.023991 -0.018701 0.085367002
0.024220999 -0.018129 0.086314999
0.077684999 0.037627999 0.058607001
0.077694997 0.038158 0.058515001
0.077642001 0.039094999 0.05937
0.060736001 0.046216 0.050829999
0.060715001 0.045692999 0.051713001
0.062887996 0.046021 0.050958
0.029073 0.11253 0.053537
0.029324001 0.11031 0.054092001
0.029317001 0.11121 0.052545
0.044943999 0.032563001 0.1168
0.046730999 0.031900998 0.11758
0.046882998 0.032451 0.11533
0.073565997 0.036409002 0.043435
0.074424997 0.036175001 0.042525999
0.073317997 0.036850002 0.041680999
0.056334 -0.024119001 0.071222998
0.056798 -0.023432 0.070138998
0.058012001 -0.022693999 0.071641997
-0.015884001 0.010814 0.11897
-0.016298 0.012375 0.11706
-0.015635001 0.012641 0.11948
0.015941 -0.022931 0.1119
0.016898001 -0.022383999 0.11055
0.022127001 0.010411 0.083961003
0.020714 0.0067516998 0.085359
0.020623 0.0087053999 0.084858
0.076306 0.03937 0.06481
0.076595999 0.040103 0.064200997
0.077280998 0.042135999 0.063097998
0.024865 0.017581999 0.081417002
0.024961 0.016636999 0.079861
0.078689002 0.059188999 0.032740999
0.078155003 0.059726 0.032611001
0.079643004 0.059057001 0.033523999
0.036031999 -0.013605 0.12853
0.038334001 -0.012205 0.12946001
0.035500001 -0.013328 0.12947001
0.057764001 0.025656 0.064127997
0.0012795 -0.017477 0.10214
0.052405 0.041388001 0.065729998
0.051936999 0.042362001 0.067651004
-0.030831 0.00084632001 0.1238
-0.031303 0.0011654 0.12339
-0.029794 0.00099921995 0.12261
-0.029562 0.0097557995 0.12729
-0.030464999 0.0096484004 0.12609001
-0.029294999 0.0098561998 0.12637
0.012952 -0.014289 0.078258999
0.014541 -0.012529 0.077793002
0.060118001 0.040243998 0.096537001
0.060741998 0.041873001 0.09544
0.060446002 0.041981 0.096055999
0.075182997 0.047658 0.056710001
0.075631 0.046379998 0.054811999
0.075168997 0.048292 0.055086002
0.022572 -0.044447001 0.039448
0.076573998 0.059540998 0.090492003
0.058385 -0.02131 0.076171003
0.058154002 -0.019453 0.075457998
0.059535999 -0.018797001 0.076543003
0.0037409 -0.017595001 0.10692
0.0048787999 -0.016763 0.10589
0.0049822 -0.016224001 0.10775
-0.0054119001 -0.015605 0.10918
-0.0043871002 -0.016532 0.10796
-0.0055827 -0.016198 0.10855
0.048156001 -0.016399 0.12011
0.048797 -0.017045001 0.12115
0.050590999 -0.016697999 0.12032
0.077927001 0.070914999 0.026966
0.077513002 0.069385998 0.028422
0.077675 0.070987001 0.029968999
0.066802002 0.058350999 0.092533
0.066021003 0.058359001 0.092368998
0.037640002 0.026554 0.072291002
0.037829001 0.026341001 0.073609002
0.011426 0.023565 0.10113
0.010667 0.022120001 0.10091
0.011364 0.02334 0.10166
0.0085575003 0.029355999 0.12415
0.0089522004 0.030117 0.12255
0.0083245002 0.030841 0.12311
0.032724001 0.10664 0.050255001
0.032999001 0.10781 0.049485002
0.01853 -0.0094288997 0.082722999
0.019285001 -0.011493 0.083250999
0.018394999 -0.011511 0.082406998
0.036795001 -0.013826 0.12698001
0.035434 -0.015058 0.12863
0.035703 -0.016026 0.12704
0.027468 -0.054439999 0.055535998
0.027833 -0.054912999 0.056511998
0.027253 -0.053941999 0.058068998
0.065471001 0.047977999 0.072571002
0.066373996 0.048315998 0.071510002
0.067679003 0.048886001 0.071699001
0.067206003 0.049736001 0.062569998
0.067262001 0.051139001 0.061243001
0.065701 0.050158001 0.062492002
0.054242998 0.046884 0.098195001
0.053814001 0.048032001 0.098072998
0.054910999 0.047493 0.098251998
0.026384 -0.041880999 0.034394
0.027846999 -0.041822001 0.033149
0.026285 -0.041894 0.032829002
0.059760001 -0.017773001 0.07959
0.060146999 -0.018112 0.078771003
0.059741002 -0.015513 0.078771003
0.031498998 0.11304 0.056591999
0.056118 0.016448 0.12469
0.057169002 0.014331 0.12232
0.056155 0.015787 0.12369
0.063088 0.10372 0.068733998
0.063262001 0.10362 0.068347998
0.062601998 -0.0074604 0.10484
0.063297004 -0.0081633003 0.10363
0.061949 -0.0078726998 0.10475
0.032984 0.053819999 0.097654998
0.033401001 0.053417001 0.097228996
0.034501001 0.054053999 0.097686999
0.091435 0.070972003 0.018432001
0.091352999 0.071455002 0.020691
0.093102001 0.070262 0.020342
-0.0015131 -0.020873001 0.10678
-0.0010155 -0.020214999 0.10437
-0.00062594999 -0.020935999 0.10571
0.070827 0.028999001 0.074473999
0.071000002 0.028167 0.073724002
0.071795002 0.029711001 0.075443998
0.053784002 -0.021521 0.083518997
0.056529999 -0.019774999 0.083861999
0.0093887998 0.010445 0.10125
0.0099560004 0.0091933999 0.099909998
0.0094569996 0.0091468999 0.10213
0.072116002 0.065837003 0.048780002
0.070409 0.063335001 0.049563002
0.071363002 0.063427001 0.049523
0.044898 0.10957 0.057388999
0.043205999 0.10945 0.056127999
0.043365002 0.10929 0.057765
0.053057998 0.041303001 0.10606
0.054949 0.039080001 0.10391
0.054627001 0.039928999 0.10444
0.035944 0.048625 0.099908002
0.036084998 0.047513001 0.10022
0.036474999 0.047184002 0.10045
0.019579001 0.030884 0.093254998
0.020036001 0.030427 0.094102003
0.020308999 0.030804999 0.093033001
0.05993 0.030319 0.050549001
0.045733001 0.029756 0.12021
0.045366999 0.029232999 0.11991
0.081701003 0.044590998 0.045313999
0.081409 0.043506999 0.043694001
0.074112996 0.029287999 0.058609001
0.074640997 0.028986 0.058442999
0.075411998 0.029777 0.057374001
0.038656 0.092615999 0.082262002
0.039094999 0.092607997 0.083039001
0.039845001 0.091302998 0.083415002
0.019141 0.029773001 0.11018
0.019671001 0.030626001 0.10933
0.019169999 0.030587999 0.10981
0.084539004 0.065171003 0.097157001
0.085665002 0.065511003 0.097442999
0.084237002 0.066339001 0.098531999
0.01296 0.0014081 0.091117002
0.0095408997 0.0020105001 0.093082003
0.012045 0.0034045 0.093005002
0.068329997 0.061211001 0.049959999
0.067015 0.060268998 0.049826998
0.068294004 0.058258999 0.050427999
0.036019001 0.069371 0.096026003
0.035195 0.070490003 0.095537998
-0.026789 0.0033768001 0.12112
-0.026203001 0.0041091 0.12252
0.031474002 -0.042702999 0.046781
0.032343 -0.042654 0.047765002
0.031968001 -0.042883001 0.048847999
0.055613998 0.032967001 0.056354001
0.054644 0.033787001 0.055346001
0.056501001 0.031918 0.055447999
0.027782001 -0.049690999 0.055516001
0.028152 -0.049295999 0.054843001
0.027288999 -0.050354999 0.054182
0.063899003 0.023721 0.065295003
0.063253999 0.024652001 0.064506002
0.064600997 0.023568001 0.063927002
0.057108 0.034733001 0.050629999
0.057675999 0.034488998 0.051887002
0.017116999 -0.0059659001 0.12114
0.016443999 -0.0072202999 0.11961
0.016618 -0.0076870001 0.12057
0.049499001 0.055087999 0.082645997
0.035004001 0.046434 0.076390997
0.034469999 0.047008 0.075685002
0.034054 0.048788 0.075718999
0.0098267002 -0.026387 0.089057997
0.010571 -0.027024999 0.087609001
0.055603001 -0.036472 0.05717
0.055739999 -0.033877999 0.056426998
0.055803999 -0.036343001 0.056864999
0.048126999 0.0032832001 0.075195998
0.047646999 0.0031576999 0.077312
0.047086999 0.0023954001 0.076287001
0.062824003 0.045007002 0.049966
0.062105 0.045405999 0.049779002
0.064690001 0.042146001 0.090516001
0.062849998 0.043333001 0.089588001
0.062733002 0.043683998 0.089294001
0.029888 0.011781 0.13324
0.02768 0.011145 0.133
0.029959001 0.011021 0.13309
0.065043002 0.035076998 0.090993002
0.065118 0.035889 0.089272998
0.064882003 0.036524002 0.090249002
0.039430998 -0.015425 0.077555001
0.040323 -0.016028 0.078405999
0.039292999 -0.016261 0.079253003
0.063156001 -0.0048769 0.10945
0.062914997 -0.0050929999 0.10744
0.021716001 -0.020914 0.11597
0.023119999 -0.020014999 0.11674
0.021639001 -0.020918 0.11633
-0.0030361 -0.0084721996 0.085244998
-0.0023678001 -0.009207 0.084463
-0.0027925 -0.0092610996 0.085385002
0.026221 0.034189001 0.094425999
0.026621999 0.035172999 0.093268
0.025688 0.03404 0.095172003
0.057812002 -0.031059001 0.061505999
0.056345999 -0.029983001 0.061469
0.057158999 -0.032182001 0.060743999
0.071493998 0.034998 0.041226
0.070734002 0.033686999 0.041120999
0.071346 0.033727001 0.040548
0.058935001 0.041087002 0.098865002
0.059551999 0.040111002 0.096688002
0.059647001 0.029990001 0.051438
0.060562 0.030142 0.050494999
0.049456999 -0.017211 0.063088
0.048135001 -0.015718 0.062628001
0.049215999 -0.016023001 0.062336002
0.043822002 0.098344997 0.065811001
0.042592999 0.096634001 0.066216998
0.044571001 0.097822003 0.066119999
0.022709001 -0.0088799996 0.083076
0.022117 -0.0088096 0.085597999
0.023016 -0.0087820999 0.083871998
0.052781999 0.093308002 0.063476004
0.050650999 0.091908 0.064631
0.051329002 0.091985002 0.063548997
0.049070001 -0.044980001 0.059723999
0.049253002 -0.044581 0.059634998
0.049837999 -0.044608001 0.058874
0.012117 0.0065679001 0.09691
0.012792 0.0053969999 0.097248003
0.01732 -0.00013619001 0.082759999
0.018879 -0.00010084 0.082744002
0.018801 -0.001387 0.081207998
0.0071761999 0.012789 0.11282
0.0076612001 0.0132 0.11259
0.0074967998 0.01443 0.11232
0.037363 -0.032246999 0.068161003
0.035978001 -0.033578999 0.067084
0.037627 -0.034462001 0.068347
0.030828999 0.10805 0.054933
0.031064 0.1094 0.054531999
0.031643 0.11009 0.055215001
0.0011709 -0.0051928 0.068989001
0.0032766 -0.0058309999 0.068593003
0.0036768001 -0.0062071001 0.068466999
0.061563998 0.02782 0.10506
0.060846999 0.027719 0.10578
0.061317999 0.026867 0.10545
0.024591999 0.079582997 0.080159999
0.026244 0.079625003 0.079291999
0.026691001 0.080978997 0.079677001
-0.024932001 0.012564 0.12534
-0.024625 0.0096866004 0.127
-0.02472 0.0091597997 0.1242
-0.033163 0.0057851998 0.12407
0.080223002 0.063830003 0.089915998
0.080665 0.065909997 0.092353001
0.079896003 0.064932004 0.092752002
-0.0033652 -0.0070553999 0.076567002
-0.003854 -0.0077999001 0.075793996
-0.0038717999 -0.0068794 0.077691004
-0.028161 0.024188001 0.11145
-0.028457001 0.024441 0.11062
-0.026508 0.022847001 0.11039
0.044077002 0.0757 0.082093
0.045634001 0.076348998 0.081198998
0.044656001 0.076485001 0.082641996
0.0024556001 -0.012374 0.081364997
0.015121 0.022502 0.12473
0.016315 0.023937 0.12304
0.016104 0.023745 0.12449
0.044307001 0.015211 0.075072996
0.043692999 0.015719 0.075924002
0.044553 0.015068 0.075681001
0.086359002 0.052354999 0.046751998
0.086171001 0.051509 0.045729
0.087191001 0.052044 0.046229001
0.02486 -0.013489 0.084155001
0.024769001 -0.013262 0.083375998
0.024843 -0.0124 0.085667998
0.037454002 -0.035362002 0.050248001
0.035888001 -0.033686999 0.05223
0.037888002 -0.033165999 0.052437998
0.02695 0.056899 0.077028997
0.027094999 0.057363998 0.076525003
0.025909999 0.057064001 0.078518003
0.054985002 -0.026633 0.071038
0.056148998 -0.026151 0.072512999
0.056483001 -0.025946001 0.073406003
0.074557997 0.060256999 0.054315999
0.074809 0.060059 0.053672999
0.075144999 0.060219001 0.053433999
0.065847002 0.0054088002 0.10198
0.065393999 0.0058324998 0.10098
0.065679997 0.0062929001 0.10136
0.044238001 0.024714001 0.072310001
0.042996999 0.024439 0.073253997
0.043338001 0.025366999 0.070465997
0.044654001 0.026121 0.12162
0.044679001 0.02734 0.12195
0.043497998 0.027088 0.12288
0.081533 0.046448998 0.049423002
0.083502002 0.047766 0.048521001
0.082051001 0.047219001 0.04795
0.051842 0.050825 0.096285
0.065793 0.061287001 0.092534997
0.068324998 0.060516 0.092664003
0.067488998 0.060697999 0.092101
0.080303997 0.068097003 0.027589999
0.080029003 0.067814998 0.026752001
0.081203997 0.067185998 0.026962999
0.056790002 -0.011633 0.11315
0.057250999 -0.012209 0.11445
0.056754999 -0.011613 0.11471
0.091494001 0.074536003 0.033018
0.091594003 0.073573001 0.031661998
0.091113999 0.074585997 0.030437
0.032658 0.1125 0.057246
0.032628 0.1123 0.056768999
0.032797001 0.034917999 0.11302
0.030515 0.034522999 0.11337
0.030139999 0.033569001 0.11456
0.037099998 0.049977001 0.10055
0.036384001 0.050044999 0.099659003
0.037873998 0.050289001 0.099652
0.077400997 0.056209002 0.033372
0.077101 0.056802999 0.032534
0.077575997 0.057084002 0.033461001
0.040052999 0.091176003 0.086035997
0.041191 0.092249997 0.084225997
0.049706001 0.031892002 0.066527002
0.040665999 0.019484 0.12992001
0.040034998 0.020895001 0.13033
0.040839002 0.018149 0.12980001
0.03853 -0.023732999 0.065880999
0.038240999 -0.023653001 0.066317998
0.038238 -0.022993 0.066592999
0.046629 0.076346003 0.080105998
0.045772001 0.076945998 0.077365004
0.046935 0.077010997 0.07903
0.087921999 0.062242001 0.037239
0.087408997 0.061243001 0.036741
0.088151 0.06244 0.036672
0.023492999 0.025729001 0.11977
0.023742 0.024462 0.12226
0.024465 0.02602 0.12256
-0.0072969999 -0.022418 0.11168
-0.0070019001 -0.021877 0.112
-0.0097153001 -0.020958999 0.11343
0.0034209001 0.0014738 0.077225998
0.0039102999 0.0024899 0.077932
0.063495003 0.024203001 0.095912002
0.064025 0.022342 0.096187003
0.064552002 0.022359001 0.094411001
0.063942 0.029809 0.098915003
0.063977003 0.028441001 0.098095
0.063739002 0.03025 0.097448997
0.040950999 -0.017312 0.075433999
0.040183 -0.017983001 0.077365004
0.040429 -0.017274 0.077361003
-0.0052505 -0.0028003 0.072071999
-0.0041771 -0.0024508999 0.073223002
0.0058928002 -0.0097233998 0.070358001
0.0062095001 -0.010576 0.071202002
0.0065027 -0.0099953003 0.071059003
0.061923999 0.0057930001 0.090255998
0.06267 0.0060236002 0.089034997
0.061712001 0.0061233002 0.089593001
0.047715001 0.043055002 0.10603
0.045278002 0.043047 0.10649
0.046558 0.041269001 0.10745
0.034715999 0.029875999 0.12243
0.033551 0.030243 0.12144
0.033558998 0.029304 0.12112
0.032829002 -0.0069534001 0.13267
0.067906 0.024053 0.06972
0.067365997 0.024871999 0.069702998
0.068054996 0.024733 0.067605004
0.0069986 -0.032673001 0.089194
0.0061920998 -0.031514999 0.088744
0.052994002 0.10736 0.071906
0.050994001 0.10603 0.071787998
0.052948002 0.10502 0.072778001
0.015507 0.030650999 0.12015
0.01473 0.032334 0.11971
0.014347 0.033309001 0.11963
0.060582999 0.0025891999 0.12124
0.060929999 0.0025784001 0.12088
0.060566001 0.0024271 0.11963
0.080375999 0.081459001 0.036881998
0.079980999 0.079742 0.036821
0.079976998 0.080813996 0.037436999
0.033613998 0.042265002 0.099082999
0.032419 0.043334 0.099455997
0.050128002 0.031987 0.065428004
0.051709998 0.029872 0.064245999
0.051665001 0.031714 0.065416001
0.039207 -0.029046999 0.057726
0.038132999 -0.027682001 0.058433
0.039110001 -0.02815 0.058008999
0.042975001 -0.015635001 0.068516001
0.042032 -0.014461 0.069597997
0.042447999 -0.014005 0.067922004
0.048268002 0.02385 0.12479
0.048452001 0.025730001 0.1229
0.0040509999 -0.019903 0.092935003
0.0048845001 -0.019330001 0.093437001
-0.016057 0.013483 0.12456
-0.01437 0.01323 0.12381
-0.014526 0.015108 0.12453
0.061402 0.04386 0.04696
0.063276999 0.043643001 0.045768
0.062426999 0.042238001 0.046707999
0.027765 0.084559999 0.072764002
0.026684999 0.085968003 0.074158996
0.028723 0.085006997 0.072853997
-0.031594001 0.016254 0.1138
-0.032090001 0.016623 0.11414
-0.033569999 0.017759999 0.11233
0.044854999 0.10781 0.053084999
0.045577001 0.10785 0.052207001
0.044481002 0.10712 0.05297
0.014447 0.021852 0.087398
0.015421 0.023986001 0.088059999
0.015794 0.022854 0.086673997
0.036493 0.067273997 0.097617
0.037992999 0.068530999 0.096473001
0.036221001 0.068457 0.096964002
0.053208999 0.043373998 0.065531
0.053231001 0.041986998 0.065072
0.054086 0.043489002 0.066056997
0.045859002 -0.014969 0.12489
-0.00063019001 0.032866001 0.12071
-0.0013668 0.033583999 0.12009
-0.00087802002 0.032662001 0.1207
-0.027674001 0.010057 0.11837
-0.026226999 0.0085677998 0.1191
0.019184999 0.0079645999 0.087017998
0.057477999 0.012596 0.082728997
0.057631001 0.012889 0.085390002
0.057153001 0.011538 0.085513003
0.077578001 0.043547001 0.052847002
0.077445 0.041804999 0.053962
0.077454001 0.042130001 0.053162999
0.086705998 0.059076 0.047905002
0.087109998 0.058993999 0.048436999
0.08698 0.057980999 0.048684999
0.0075177001 0.0017945 0.10747
0.0068961 0.0036472001 0.10726
0.0063883001 0.0018896 0.10555
0.027874 0.052467 0.091072999
0.026954999 0.051571999 0.091151997
0.031385001 0.042614002 0.095481001
0.030928999 0.044829 0.094952002
0.029724 0.043048002 0.093938001
0.060626999 -0.011831 0.098228
0.060157999 -0.011082 0.096367002
0.059530001 -0.010598 0.098113999
0.056194998 -0.022485999 0.062052
0.054818999 -0.020501001 0.063325003
0.055045001 -0.02262 0.062779002
0.037905999 -0.025938001 0.064580999
0.037358999 -0.023484999 0.064586997
0.038981002 -0.023491999 0.063961998
0.034743998 -0.0037105 0.075874999
0.036931001 -0.0042782999 0.075769998
0.036653999 -0.0040588998 0.075498
0.027210999 0.083866 0.074124001
0.026295001 0.08416 0.074623004
-0.016727 0.014874 0.1163
-0.017692 0.015351 0.11496
-0.016198 0.016527999 0.11527
0.010373 0.0012265 0.095020004
0.010845 0.0011657 0.094103001
0.055418 0.0037205999 0.12637
0.054510001 0.0043898998 0.12799001
0.055452999 0.0026509999 0.12806
0.081010997 0.066891998 0.017445
0.081549004 0.067202002 0.0165
0.081326 0.066186003 0.017828001
0.019393001 -0.0219 0.090135001
0.019850999 -0.022533 0.089312002
0.019111 -0.022855001 0.089178003
0.022377999 0.062401999 0.088013999
0.022492999 0.06191 0.088683002
0.050648 -0.028091 0.051796
0.05071 -0.027749 0.05125
0.049467999 -0.029177001 0.050159
0.00010341 -0.0090245996 0.094291002
-0.0010811 -0.0080215 0.096547
0.050848 0.11309 0.064170003
0.051580999 0.11311 0.064341001
0.051231999 0.11363 0.064597003
0.037565 -0.021723 0.098560996
0.037888002 -0.021512 0.099693
0.037923001 -0.021571999 0.10078
0.025753001 -0.014022 0.083530001
0.026342001 -0.015706999 0.084232002
0.025606001 -0.015418 0.083508998
0.040205002 0.10974 0.053190999
0.040823001 0.10899 0.053700998
0.039528001 0.10738 0.052182999
0.0030763999 -0.0010940999 0.094090998
0.0019606999 -0.00075968 0.093823999
0.00318 -0.00089845998 0.094911002
0.024635 0.0021907999 0.13177
0.024705 0.0011465 0.12953
-0.0094496002 0.026618 0.10629
-0.010715 0.028457999 0.10573
-0.0087320004 0.027581001 0.1051
0.091301002 0.080117002 0.031998999
0.092851996 0.080351003 0.032235999
0.090800002 0.080463998 0.031381998
0.054099001 0.030246001 0.11032
0.052875001 0.031158 0.11028
0.034564 0.036320999 0.071194001
0.034412999 0.036720999 0.074115999
0.07858 0.046298999 0.051821001
0.077440001 0.045120001 0.053417999
0.076408997 0.046308 0.052979998
0.010582 0.0028230001 0.086304002
0.010479 0.0012841 0.088189997
0.0092981001 0.0015533 0.088218004
0.052402001 -0.026569 0.071999997
0.051869001 -0.02774 0.073063001
0.052641001 -0.028836001 0.070307001
0.041616 0.11451 0.062709004
0.042242002 0.1141 0.060210001
0.040849999 0.11522 0.061032001
0.039388001 0.073385 0.092425004
0.038378 0.072834998 0.093441002
0.010953 -0.011676 0.076641001
0.010327 -0.011622 0.076406002
0.010383 -0.013719 0.077895001
0.024749 0.019328 0.12706999
0.023602 0.017896 0.12673
0.024915 0.018015999 0.12809999
0.089573003 0.075083002 0.040856998
0.089296997 0.074708 0.040601999
0.082199998 0.053429 0.037567001
0.081260003 0.053482 0.035232998
0.081615001 0.054602001 0.037493002
-0.0091754002 0.034262002 0.12103
-0.010027 0.033845998 0.12218
0.064106002 0.0082844999 0.11396
0.063036002 0.010423 0.11474
0.063060001 0.0085798996 0.11604
0.044562999 -0.021671001 0.11099
0.044257 -0.021640999 0.11133
0.043977998 -0.023125 0.11185
0.055615 0.028178999 0.10775
0.056779999 0.028271999 0.1097
0.056552 0.028034 0.10891
0.012248 0.0095426003 0.1162
0.011112 0.0089611001 0.11773
0.011364 0.010788 0.11523
0.073178001 0.0274 0.070409998
0.065047003 0.049259 0.069564998
0.067750998 0.048418 0.069369003
0.065027997 0.050427999 0.068072997
0.047846001 -0.033884998 0.071029
0.049164001 -0.033379 0.071099997
0.047989 -0.034731999 0.071310997
0.026126999 0.023258001 0.12391
0.025792999 0.022636 0.12397
0.026660001 0.023801001 0.12371
0.039299 0.016651999 0.13175
0.040403999 0.015586 0.13192999
0.040433001 0.015306 0.13244
-0.0072253002 0.033868998 0.11872
-0.0079337005 0.033087 0.11953
0.061352 0.01348 0.11788
0.061694998 0.013682 0.11637
0.060694002 0.013638 0.1168
0.056931999 0.093589 0.075488001
0.056812 0.091995999 0.075907998
0.056988999 0.091468997 0.074409001
0.034487002 -0.02382 0.11322
0.035261001 -0.023684001 0.11506
0.034355 -0.024478 0.11368
0.079057001 0.079563998 0.026224
0.080163002 0.077197999 0.023297001
0.079355001 0.077682003 0.024444001
-0.0022733 0.028957 0.12329
-0.0017757 0.030342 0.12147
-0.0029529 0.029479999 0.12305
0.060506999 -0.0037107 0.11839
0.061289001 -0.00119 0.11797
0.060679 -0.0026463 0.11842
-0.015177 0.019481 0.11309
-0.016501 0.019680999 0.1114
0.018727999 0.030421 0.10608
0.0207 0.030285999 0.10699
0.020488 0.030115999 0.10657
0.0087519996 -0.0060589998 0.073740996
0.0091880998 -0.0075809001 0.073962003
0.0080201002 -0.0088232001 0.072025001
0.0090106996 -0.025815001 0.090131998
0.0091040004 -0.026505001 0.092652
0.0087332996 -0.025893001 0.091025002
0.054528002 0.015747 0.079681002
0.054412998 0.016662 0.080836996
0.083411001 0.064612001 0.098187
0.083719 0.064386003 0.097328
0.084108002 0.064332999 0.098096997
0.069408998 0.024677999 0.060563002
0.067743003 0.025534 0.058828
0.070205003 0.025962001 0.059935998
0.056545001 0.048202999 0.069879003
0.057480998 0.048556 0.069013
0.056937002 0.047233999 0.066918001
0.053509001 0.11114 0.069196001
0.045442 0.055592 0.098727003
0.044353999 0.054529 0.096913002
0.043942001 0.055962 0.098268002
0.052669 0.026371 0.069052003
0.050395999 0.025565 0.070280999
0.051956002 0.026047001 0.069631003
0.03193 0.0098623 0.13428999
0.032387 0.011419 0.13427
0.031544 0.010304 0.13345
0.079158001 0.044932 0.037400998
0.078449003 0.045361999 0.037415002
0.080453001 0.045836002 0.037834998
0.025829 0.077621996 0.084532
0.025839999 0.077963002 0.084608003
0.026136 0.077420004 0.083963998
0.063476004 0.029944999 0.046884
0.063761003 0.030703999 0.045671999
0.062913999 0.030913001 0.046629999
0.046487998 0.014267 0.13008
0.047359001 0.013607 0.13096
0.048638001 0.013197 0.13046999
0.089561999 0.069326997 0.016362
0.088701002 0.069603004 0.015601
0.089559004 0.069767997 0.015706999
-0.037772 0.0086577004 0.11512
-0.035978001 0.0088654002 0.11369
0.060127001 0.046448 0.056945
0.058726002 0.045251999 0.056416001
0.059849001 0.044852 0.055727001
0.052317999 -0.037574999 0.051408
0.050801001 -0.039053001 0.051282
0.052021001 -0.036401 0.051479001
0.054947 0.052542999 0.093089998
0.054005999 0.053052999 0.092069
0.054218002 0.053173002 0.093597002
0.036408 0.019738 0.074602
0.037255 0.016788 0.075906999
0.037110001 0.019179 0.075553998
0.042397998 -0.019598 0.12167
0.043124001 -0.019293999 0.12168
0.041765001 -0.019301999 0.12084
0.010785 0.0016107 0.11661
0.010215 -0.00044121 0.11663
0.011166 0.0013224999 0.11668
0.010445 -0.0024941999 0.072692998
0.01043 -0.0027342001 0.073146999
0.060623001 0.02259 0.073146999
0.060766999 0.022601999 0.072472997
0.033927999 0.111 0.054639999
0.034669999 0.10992 0.054885998
0.049105 0.093551002 0.083691999
0.048427999 0.095536999 0.082667001
0.047775999 0.094897002 0.082740001
0.085608996 0.065113001 0.027307
0.084305003 0.065734997 0.027902
0.083907001 0.065823004 0.027508
0.069595002 0.053780999 0.090386003
0.067991003 0.053759001 0.089006998
0.070139997 0.054161001 0.089137003
0.063006997 0.019817 0.096583001
0.063463002 0.020199999 0.097204
0.063771002 0.018229 0.097158
0.029886 -0.0045643002 0.079407997
0.030115999 -0.0042980998 0.079216003
0.028964 -0.0028897 0.080234997
0.0011383001 -0.0077922 0.067896999
0.0012766001 -0.0097976997 0.067913003
0.032102 -0.023956001 0.10562
0.032827999 -0.02286 0.10564
0.032632999 -0.02385 0.10547
0.048379 -0.0020093999 0.077482998
0.047247998 -0.0025487 0.075765997
0.046909999 0.00038981001 0.077275999
0.057613 0.11101 0.06882
0.057089001 0.11121 0.069159001
0.056014001 0.11006 0.068341002
0.090503998 0.070465997 0.034591001
0.090021998 0.068847001 0.036107
0.034952 0.029377 0.12213
0.033179998 0.039972 0.10328
0.032988001 0.038796999 0.10258
-0.025426 0.024162 0.12549999
-0.026875 0.023360001 0.12560999
-0.025834 0.023606 0.12501
0.032563001 0.087835997 0.080153003
0.032822002 0.086120002 0.082892001
0.034187999 0.087150998 0.080794998
0.037781999 -0.032241002 0.048126999
0.038006999 -0.033190999 0.048464999
0.037819002 -0.031403001 0.048652001
0.052381001 0.043949001 0.1039
0.053394001 0.042656999 0.10325
0.053201001 0.044371001 0.10282
0.079736002 0.072912 0.044716999
0.081409 0.071362004 0.045662001
0.082404003 0.071367003 0.046884
0.055810001 -0.013392 0.088774003
0.055688001 -0.014873 0.087927997
0.055925 -0.016580001 0.088963002
0.077935003 0.036641002 0.061728999
0.077794999 0.036293998 0.062174
0.047635999 -0.0067953998 0.069995999
0.048303999 -0.0060021998 0.071608998
0.048797999 -0.0056516998 0.071084999
0.048796002 0.00096744997 0.131
0.050331999 0.0033523999 0.13091999
0.016403001 0.0082376003 0.12397
0.016315 0.0081582004 0.12343
0.015066 0.0063545001 0.12466
0.055978999 -0.013627 0.11385
0.056132 -0.012805 0.11398
0.056584001 -0.013383 0.11178
0.040245 0.077551998 0.070083
0.048448 0.061891999 0.091720998
0.048386998 0.062274002 0.093342997
0.049031999 0.061937001 0.092651002
-0.039848 0.0067420001 0.11262
-0.038557 0.0070441002 0.11263
-0.040160999 0.0052763 0.11372
0.093344003 0.078703001 0.035842001
0.091854997 0.079579003 0.036867999
0.091167003 0.079177998 0.035542
0.029626001 0.074858002 0.091550998
0.028911 0.074178003 0.091007002
0.029793 0.074027002 0.091009997
0.035994999 0.060182001 0.099913999
0.034711 0.060761999 0.099379003
0.067280002 0.030309999 0.04583
0.068533003 0.031145999 0.047152001
0.067635 0.031413998 0.045945
0.044225998 -0.044521999 0.052420001
0.043508001 -0.045584999 0.052801002
0.041368 -0.044487 0.052540999
0.073068 0.057845999 0.092845999
0.071827002 0.059551999 0.093129002
0.071549997 0.059739999 0.092123002
0.088321 0.065114997 0.034290999
0.087357 0.065805003 0.033248
0.088326998 0.063418001 0.035985
0.065181002 0.024851 0.074804999
0.064875998 0.024058999 0.072571002
0.065889999 0.024315 0.074437
0.066777997 0.048592001 0.038463
0.067197002 0.048659999 0.040188
0.066740997 0.048594002 0.038371999
0.0026640999 -0.0065180999 0.098196
0.010188 0.016274 0.12074
0.078856997 0.076242 0.027781
0.077734999 0.077033997 0.027930999
0.078153998 0.076909997 0.02716
0.052483 0.035611998 0.060963999
0.051736001 0.035994999 0.060695998
0.054083001 0.054753002 0.086837001
0.053557999 0.054839998 0.088321999
0.053027 0.052809998 0.08704
0.0026237001 -0.017961999 0.089061998
0.0038858999 -0.018497 0.087182
0.0036754 -0.018825 0.089759998
0.029363999 0.081579998 0.081124999
0.060913999 -0.011032 0.10427
0.059579998 -0.010556 0.1038
0.061477002 -0.0086030001 0.10439
0.034701001 -0.010894 0.1305
0.03486 -0.011984 0.12975
0.052391 -0.017897001 0.10387
0.051633999 -0.018686 0.10321
0.051479999 -0.018149 0.10129
0.038779002 0.067092001 0.095413998
0.038706999 0.069367997 0.095873997
0.038881999 0.068124004 0.097406998
0.049024999 -0.041887999 0.053435002
0.049580999 -0.041062001 0.052510001
0.050363999 -0.041393999 0.053332999
0.079425 0.079622 0.038646001
0.079896003 0.080173999 0.038442001
0.039298002 -0.021488 0.1026
0.038063001 -0.020685 0.10264
0.040557001 -0.022183999 0.10255
0.052305002 -0.015589 0.11736
0.051298 -0.018168001 0.11557
0.053075999 -0.017312 0.11754
0.082189001 0.046229001 0.042946
0.083012 0.046991002 0.042688001
0.082681 0.047127999 0.044204
0.045901999 -0.0057366998 0.073017001
0.046778001 -0.0058603999 0.071338996
0.044008002 0.036504999 0.10934
0.043877002 0.037485 0.10972
-0.016138 0.034476001 0.11634
-0.017852001 0.034754001 0.11438
-0.016936 0.033769 0.11567
0.0097794002 -0.02816 0.096621998
0.0097321002 -0.026606999 0.096005999
0.0097217998 -0.026426001 0.095467001
0.0011591 0.025563 0.10674
0.001359 0.024847001 0.1057
0.002663 0.025164001 0.1063
0.038543001 0.015506 0.13132
0.037689999 0.014926 0.13278
0.039046999 0.015969999 0.13209
0.034226 0.030340999 0.12059
0.034474 0.031257998 0.11972
-0.014915 0.034623999 0.1241
-0.01591 0.035138 0.12465
-0.016256999 0.033799998 0.12581
0.065753996 0.10944 0.067667
0.064442001 0.10998 0.065525003
0.064943999 0.10995 0.066067003
0.017487001 -0.022869 0.087909997
0.019118 -0.021748001 0.087935999
0.018293001 -0.021276001 0.088388003
0.063197002 0.10708 0.06191
0.065885998 0.10871 0.062438
0.065071002 0.10719 0.062500998
0.0080209998 -0.025234001 0.090352997
-0.029972 0.025614001 0.11711
-0.03019 0.025689 0.11767
-0.028889 0.027977999 0.11731
0.083641998 0.063580997 0.0057562999
0.082240999 0.064259 0.0062509999
0.083111003 0.064202003 0.0066172001
0.034975 -0.019621 0.091274999
0.035498001 -0.018809 0.089323997
0.035289001 -0.019036001 0.092501998
0.010503 -0.038903002 0.096019
0.010155 -0.038178001 0.095399998
0.010569 -0.037887 0.094572999
0.080007002 0.054311 0.053950001
0.081069998 0.054370001 0.053332001
0.079492003 0.053211 0.052627999
0.013588 -0.017244 0.10846
0.011713 -0.017264999 0.10802
0.012316 -0.017976001 0.10759
0.044709001 -0.041044001 0.065369003
0.044298999 -0.040295001 0.066266
0.042785 -0.04149 0.066024996
0.023401 -0.046542998 0.041333999
0.024628 -0.04611 0.042128
0.024888 -0.045892999 0.042343002
0.036649998 0.083740003 0.084477998
0.039030999 0.084458999 0.083544999
0.038531002 0.083580002 0.083644003
0.024604 -0.012849 0.12771
-0.018694 0.020443 0.12885
-0.018544 0.019247999 0.12761
-0.017255001 0.019398 0.12874
0.029438 -0.0014588 0.076843999
0.029705999 -0.0029902 0.076690003
0.056896999 0.0023914999 0.084537998
0.058003001 0.00082329998 0.085784003
0.056788001 0.00054208998 0.085074
0.018324001 -0.028355001 0.096288003
0.017337 -0.028708 0.095771998
0.017261 -0.027543999 0.09668
0.013068 0.012528 0.090967998
0.012878 0.015108 0.090686001
0.013584 0.014941 0.089010999
0.052359998 0.015347 0.12639
0.051825002 0.016161 0.12716
0.046854001 0.029165 0.11879
0.047483001 0.028510001 0.1212
0.048043001 0.028538 0.11983
0.032933999 -0.037640002 0.049715001
0.035725001 -0.037195999 0.047302
0.033261999 -0.039287001 0.048152
-0.0047566998 -0.019266 0.10724
-0.0039313999 -0.016961001 0.10741
-0.0052012 -0.018444 0.1058
0.035890002 -0.047940001 0.058332
0.034931999 -0.046388999 0.058398001
0.034763999 -0.046707999 0.059625998
0.037668999 -0.05161 0.050907001
0.038206 -0.050411001 0.051823001
0.037498001 -0.051155999 0.051681001
0.037925001 0.10954 0.053879999
0.039567001 0.10921 0.052997999
0.040013999 0.10877 0.053681001
-0.039871 0.020063 0.11504
-0.041655 0.018945999 0.11202
-0.04236 0.017684 0.11371
0.045235001 -0.042955 0.064599998
0.045951001 -0.041714001 0.063280001
0.046379 -0.041650001 0.064503998
-0.025211001 0.027287001 0.11158
-0.024734 0.028069999 0.11185
-0.024670999 0.027809 0.1104
0.038919002 -0.023775 0.067685999
0.035948999 -0.032763001 0.061096001
0.035948001 -0.031241 0.058977
0.03751 -0.033286002 0.059792999
0.059539001 0.0032476 0.086652003
0.058768 0.0033140001 0.085895002
0.025823999 -0.025875 0.10854
0.025493 -0.026264001 0.1084
0.025973 -0.024761001 0.10665
0.077137001 0.032662999 0.054189999
0.077630997 0.033216 0.053918999
0.076201998 0.034051001 0.054783002
0.052717 0.027476 0.11855
0.051320001 0.026969001 0.11878
0.052893002 0.026911 0.11808
0.010192 0.00094727002 0.10103
0.0095063001 6.5255997e-05 0.099740997
0.0098901996 -0.00071614003 0.10186
0.036694001 0.082098 0.084283002
0.035471998 0.082526997 0.084051996
0.035459999 0.081239 0.085261002
0.067483 0.037996002 0.083791003
0.041475002 0.047171999 0.073256999
0.042592999 0.046263002 0.072255999
0.041046001 0.046817999 0.071819
0.033539999 -0.053305 0.054088999
0.03246 -0.054014999 0.054556999
0.032302 -0.053966001 0.053739998
0.026912 -0.050005 0.050168999
0.028523 -0.050432 0.051711999
0.02733 -0.049817 0.051686
0.025646999 0.015294 0.13048001
0.026232 0.01527 0.12966
-0.012495 0.023511 0.12738
0.047079999 0.052221 0.076949999
0.046151999 0.05404 0.077252001
0.047268 0.053436 0.077876002
0.084457003 0.085764997 0.037555002
0.062721997 0.045912001 0.047936998
0.062352002 0.045249999 0.047758002
0.063006997 0.044732999 0.048046
-0.0063530002 -0.017145 0.10113
-0.0066947001 -0.018702 0.10165
-0.0065098 -0.018773001 0.10229
0.0042300001 -9.2429997e-05 0.090889998
0.0033133 -0.0011476 0.090755001
0.033123001 -0.041198999 0.052496001
0.033920001 -0.040335 0.053134002
0.032963999 -0.040762998 0.052305002
0.045736998 0.020391 0.12824
0.047270998 0.021201 0.12741999
0.045767002 0.020697 0.12761
0.053645 0.046542998 0.071585998
0.052993 0.046025999 0.070846997
0.052678 0.047208998 0.071962997
0.073110998 0.064503998 0.093344003
0.072167002 0.064819001 0.093594
0.058361001 -0.0065184999 0.076770999
0.058656 -0.0051575 0.078271002
0.059204999 -0.0063239001 0.078162
0.038575001 -0.037255 0.044360999
0.040010002 -0.036166001 0.044955999
0.038885001 -0.035781998 0.045848999
-0.020920999 0.033342 0.11791
-0.020509999 0.033953998 0.11721
0.060959999 0.031484 0.099882998
0.020261001 -0.017818 0.082916997
0.021852 -0.018408 0.084590003
0.019475 -0.019011 0.083035998
0.058510002 0.041777 0.099005997
0.06476 0.0038898 0.099992
0.065791003 0.0047868998 0.10075
0.064668 0.0033205999 0.10037
-0.001141 -0.0061332998 0.081995003
0.00040657 -0.0070648999 0.082865998
0.00054534001 -0.012112 0.081995003
-0.0001044 -0.012294 0.083457999
0.033535 0.052692 0.075410001
0.033758 0.052788999 0.075965002
0.033429999 0.052611001 0.07491
0.081978999 0.084326997 0.036711998
0.082474999 0.084321 0.035960998
0.080819003 0.081781998 0.0363
0.05875 -0.019445 0.078034997
0.05731 -0.019920001 0.076067001
0.073960997 0.043171 0.070598997
0.073522002 0.045061 0.070325002
0.073469996 0.044909 0.071836002
0.028520999 0.054246999 0.078717999
0.028166 0.055815998 0.078528002
0.027496999 0.054798 0.077270001
0.038090002 -0.040692002 0.037969001
0.064940996 0.048861999 0.071051002
0.065990001 0.049114 0.071956001
0.063946001 0.048292998 0.072319001
0.032391999 0.022019999 0.073953003
0.033528998 0.021229999 0.074313
0.034178 0.021606 0.074607998
0.04434 0.10295 0.073408999
0.043706998 0.10306 0.072875001
0.045069002 0.10281 0.073813997
0.0064416998 -0.012678 0.075692996
0.0077360999 -0.012381 0.075075001
0.081615999 0.062424 0.0083680004
0.082202002 0.06284 0.0095314998
0.081904002 0.063184001 0.010383
0.013434 0.030299 0.10471
0.01411 0.030548001 0.10805
0.014419 0.030368 0.10619
0.068000004 0.052737001 0.084955998
0.065439001 0.052067 0.084156998
0.0063805999 0.0018215 0.083803996
0.0081252996 0.0017358999 0.083168
0.0087288003 0.0019413 0.083471
0.066225998 0.017583 0.10279
0.065110996 0.017145 0.10582
0.065234996 0.018429 0.10372
0.042892002 -0.014128 0.12785999
0.041211002 -0.014685 0.1276
0.041878 -0.016107 0.12744001
0.022647999 -0.047483001 0.040707
0.023166001 -0.048475999 0.039453
0.024445999 -0.048919 0.039744999
0.079723001 0.076159999 0.021368001
0.080071002 0.076144002 0.021278
0.080744997 0.074127004 0.020389
0.028682999 -0.017209999 0.085306004
0.028690999 -0.017432 0.085212998
0.017623 -0.0064122002 0.12346
0.01736 -0.0065207002 0.12229
0.052078001 0.097539 0.080334
0.052515 0.098113 0.080470003
0.073721997 0.067309 0.047658999
0.075383998 0.068515003 0.046712
0.074812002 0.068763003 0.046289001
0.03661 0.079085998 0.086949997
0.037675001 0.079819001 0.086324997
0.034747999 -0.020924 0.12232
0.035861 -0.020525999 0.12137
0.035657 -0.018987 0.12223
0.023308 0.074810997 0.085175999
0.023948999 0.075393997 0.085957997
0.023569001 0.076125003 0.084458001
-0.010642 0.028693 0.12899999
-0.010571 0.028620999 0.12795
-0.012074 0.029240999 0.12833001
0.082939997 0.083024003 0.030885
0.082731999 0.081435002 0.031153999
0.082677998 0.082300998 0.030027
0.075695999 0.042052001 0.070840001
0.074692003 0.040748 0.071134999
0.075484999 0.041774001 0.071631998
0.011543 0.031688999 0.10747
0.011493 0.029994 0.10543
0.056400001 0.039434001 0.053056002
0.0561 0.039771002 0.051635001
0.077073999 0.075666003 0.020029999
0.077941 0.074436001 0.018580999
0.076582998 0.076196 0.018528
0.039983999 -0.04665 0.058488
0.039062999 -0.046944 0.057771001
0.037927002 -0.047219001 0.057716999
0.045155 -0.0074569001 0.070423998
0.044502001 -0.0065322998 0.071909003
0.056704 0.028616 0.058408
0.057978 0.10678 0.071488999
0.057953 0.10663 0.070661999
0.057119999 0.10773 0.070841998
0.0025418999 -0.017107001 0.091844
0.0029170001 -0.015828 0.092110001
0.0017315 -0.017408 0.090654001
0.028666001 0.044204 0.085271999
0.028011 0.043751001 0.085721999
0.028129 0.044025999 0.084879003
0.013905 -0.018395999 0.10663
0.045541 0.033075999 0.116
0.018634001 -0.022313001 0.11219
0.020634999 -0.023092 0.11337
0.017845999 -0.019766999 0.11451
0.053888999 -0.037319999 0.066496998
0.052280001 -0.037223998 0.065803997
0.052115999 -0.037289999 0.0656
0.019668 0.030084999 0.090256996
0.018370001 0.028995 0.088909
0.019657001 0.029789999 0.089905001
0.018959999 0.0021629999 0.083871998
0.020105001 0.0022475 0.084137999
0.080086 0.076063998 0.039499
0.077900998 0.075205997 0.040440001
0.079471998 0.075893 0.040796999
0.032377999 0.11573 0.060538001
0.031943999 0.11476 0.062102001
0.049545001 -0.020199999 0.085236996
0.049497001 -0.020837 0.085913002
0.049897 -0.020857999 0.087003
-0.028788 0.0096289003 0.11777
-0.029134 0.0097204996 0.11674
-0.028029 0.010963 0.11754
0.010286 0.0056953002 0.10296
0.0093854005 0.0081773 0.10253
0.0096113002 0.0075166998 0.10251
0.045649 0.066428997 0.092462003
0.046456002 0.065658003 0.092949003
0.046675999 0.066551 0.091463998
-0.0025738 0.020393999 0.12075
-0.00058028998 0.020839 0.11887
-0.0011822 0.021927999 0.12019
0.056276999 -0.024971999 0.063357003
0.055429999 -0.025768001 0.063684002
0.038387001 0.090025999 0.065879002
0.038504001 0.089573003 0.067482002
0.039085999 0.087388001 0.064951003
0.0094368001 -0.0032011999 0.073174998
0.01016 -0.0036166999 0.074043997
0.010607 -0.0045003002 0.073724002
0.064924002 0.025033999 0.093592003
0.064228997 0.025867 0.091966003
0.064640999 0.026272999 0.093419001
0.027239 0.069770999 0.072221003
0.027254 0.06865 0.073610999
0.026613001 0.068296999 0.072806001
0.010478 -0.019066 0.081320003
0.01044 -0.019312 0.081708997
0.0091338996 -0.018781001 0.081487998
0.070456997 0.024529999 0.068308003
0.069095999 0.024768 0.067799002
0.069495998 0.024962001 0.066471003
0.085672997 0.063488998 0.0083520999
0.055679001 0.1083 0.070877999
0.055333 0.10823 0.071275003
0.055771999 0.10641 0.070518002
0.022555999 0.075788997 0.079219997
0.023329999 0.075694002 0.079276003
0.023633 0.076415002 0.079811998
0.052595999 0.033806998 0.060532
0.052212 0.03376 0.059769001
0.051979002 0.032412 0.061703
0.058460001 -0.0048547001 0.081263997
0.059292998 -0.0046505001 0.081881002
0.058485001 -0.0040557999 0.081850998
0.078451 0.033025999 0.062103
0.077868 0.034736998 0.062362999
0.078103997 0.034102999 0.063093998
0.026314 0.018774001 0.12777001
0.026366999 0.018746 0.12793
0.025288001 0.019673999 0.1279
-0.042056002 0.01702 0.11223
-0.041644 0.015542 0.112
-0.043393001 0.015489 0.11256
0.079745002 0.069761999 0.017379001
0.078502998 0.068490997 0.016452
-0.013084 0.018498 0.11465
-0.014309 0.018158 0.11352
0.011762 0.024814 0.12396
0.011788 0.02578 0.12479
0.012223 0.025612 0.12421
0.011861 -0.020852 0.10432
0.0097228 -0.02056 0.10311
0.011022 -0.021018 0.10307
0.052154001 -0.010332 0.12537
0.052060001 -0.010226 0.12613
0.065520003 0.052799001 0.084995002
0.062767997 0.050285999 0.069149002
0.062908001 0.049513999 0.066197
0.061381001 0.050432999 0.068444997
0.016014 0.010199 0.089028999
0.017107001 0.010636 0.087677002
0.050058 -0.019486999 0.058929998
0.049171001 -0.018257 0.05903
0.049633998 -0.017661 0.058844998
0.024542 0.0087497998 0.13083
0.02186 0.0095244003 0.13062
0.044739999 0.10693 0.068850003
0.0425 0.10859 0.068443999
0.042876001 0.1058 0.068567999
0.023372 -0.00018971 0.083255999
0.023239 0.00082130998 0.084099002
0.024145 0.0014452999 0.084660001
0.01106 -0.036083002 0.090659998
0.013734 -0.035801001 0.092239
0.011178 -0.036164001 0.091449
0.058247998 -0.012841 0.10821
0.057661001 -0.012198 0.10872
0.057971001 -0.012809 0.10749
0.078979999 0.076636001 0.036495
0.077039003 0.076591 0.035342
0.050166 -0.042447001 0.062249999
0.050804 -0.042312 0.062829003
0.051302999 -0.042171001 0.062178999
0.052822001 -0.027703 0.054042
0.054217 -0.028573999 0.054223001
0.052595001 -0.027759001 0.054531999
0.0081203999 0.00020938 0.089059003
0.0071111 -0.0015638 0.089780003
0.0067543001 -0.00068272999 0.090989999
0.023984 0.0047325999 0.084499002
0.025898 0.0052713999 0.085317001
0.023934999 0.0031293 0.083786003
0.065223001 0.00040498999 0.1118
0.064526998 0.0014067 0.11191
0.065200999 0.00044418999 0.11143
0.076242998 0.055783998 0.054837
0.075515002 0.056682002 0.053725999
0.073772997 0.056115001 0.053626999
0.011746 0.0047328998 0.11858
0.010882 0.0047827 0.11635
0.010789 0.0039055999 0.11566
0.049580999 0.062081002 0.089000002
0.048886999 0.063229002 0.087553002
0.049006 0.061909001 0.088358998
0.066679999 0.049086001 0.039774999
0.067413002 0.048978999 0.038934998
0.01482 -0.037386999 0.091199003
0.013612 -0.037873998 0.091675997
0.013705 -0.036499001 0.091069996
0.014445 -0.043035001 0.089277998
0.014298 -0.041533999 0.089002997
0.016117999 -0.041405 0.088073999
0.017116001 0.034185998 0.11691
0.062084001 -0.0062537999 0.11417
0.060961999 -0.0051515 0.11419
0.060539 -0.0072253998 0.11483
