# .PCD v0.7 - Point Cloud Data file format
VERSION 0.7
FIELDS x y z
SIZE 4 4 4
TYPE F F F
COUNT 1 1 1
WIDTH 1480
HEIGHT 1
VIEWPOINT 0 0 0 1 0 0 0
POINTS 1480
DATA ascii
-0.070138 0.15945999 0.081841998
-0.070423998 0.15929 0.081917003
-0.069853 0.1592 0.082039997
-0.044325002 0.16666999 0.079754002
-0.04479 0.16588999 0.079370998
-0.045049999 0.16711999 0.079594001
-0.046071999 0.16522001 0.078478999
0.053077001 0.19330999 0.066228002
0.0087404996 0.18153 0.072337002
-0.069470003 0.16045 0.082644999
0.052542001 0.19487999 0.066372
0.0083472999 0.18265 0.071909003
-0.069000997 0.16248 0.081400998
-0.043334998 0.16974001 0.078298002
0.0091569005 0.18433 0.071483001
-0.068751998 0.16368 0.081064001
-0.068328999 0.16430999 0.081509002
-0.024429001 0.17645 0.076001003
0.022949001 0.18991999 0.070656002
0.01016 0.18700001 0.072402999
0.022095 0.19133 0.071218997
0.021594999 0.19228999 0.072177999
0.021933001 0.19059999 0.071396001
0.011088 0.18849 0.072016001
0.011778 0.18854 0.072723001
-0.068246998 0.16772 0.081584997
-0.024295 0.17991 0.07621
0.012014 0.18956 0.071764
0.021017 0.19320001 0.071097001
-0.040008001 0.17574 0.078636996
-0.023754001 0.18034001 0.075271003
-0.02483 0.18013 0.077045001
0.012819 0.19088 0.072053
-0.067575999 0.16996001 0.081734002
-0.040089 0.17674001 0.078210004
-0.038927 0.1777 0.078281
-0.023602 0.18195 0.077051997
-0.068057999 0.17066 0.082107
0.018446 0.19375999 0.070969999
0.017607 0.19381 0.071592003
0.052285001 0.20509 0.067195997
-0.066728003 0.17226 0.081711002
-0.037509002 0.17985 0.078181997
-0.036256999 0.18206 0.078272998
-0.034007002 0.18201999 0.078218997
-0.037085999 0.18077999 0.078106999
-0.066395 0.17526001 0.082465
-0.033700999 0.18438999 0.077701002
-0.033705 0.18415999 0.077823997
-0.023918999 0.18805 0.076425001
-0.023506001 0.18804 0.076880001
-0.032912001 0.18523 0.077630997
-0.024486 0.18746001 0.077207997
0.050795998 0.20974 0.067792997
0.050629999 0.21018 0.067564003
-0.024058999 0.18942 0.076833002
0.049959999 0.21123999 0.067588001
-0.024292 0.19125 0.076692
-0.024490001 0.19201 0.076943003
0.049201999 0.21304999 0.067553997
-0.064222001 0.18114001 0.082023002
-0.032407999 0.19076 0.078105003
-0.064182997 0.18246999 0.082905002
-0.032065999 0.19156 0.078119002
-0.063066997 0.18448 0.081795998
-0.031865999 0.19462 0.077877
-0.031536002 0.19510999 0.078578003
-0.062955998 0.18742999 0.082277
-0.023076 0.19860999 0.077104002
-0.023394 0.19788 0.077431999
-0.069564 0.18615 0.082356997
-0.069634996 0.18610001 0.082310997
-0.069449 0.18697 0.082615003
-0.032241002 0.19591001 0.077896997
-0.072668999 0.18637 0.083077997
-0.023329001 0.19938 0.077021003
-0.061519999 0.18951 0.082009003
-0.023390001 0.20043001 0.077083997
-0.078222997 0.18653999 0.083925001
-0.077610001 0.18639 0.084101997
-0.070584998 0.18799999 0.083345003
-0.021419 0.20321 0.077281997
0.044663999 0.22048999 0.069398999
-0.070445001 0.18865 0.083099
-0.034051999 0.19924 0.079363003
-0.034012001 0.19853 0.07959
-0.022012999 0.20215 0.077520996
-0.022886001 0.20231999 0.078304999
-0.02238 0.20282 0.077869996
-0.077173002 0.18747 0.084021002
0.043044999 0.22152001 0.069007002
0.042706002 0.22082999 0.069121003
-0.067927003 0.19047 0.083292
-0.020964 0.20385 0.077238001
0.042642999 0.22203 0.069397002
-0.077918001 0.18842 0.084746003
-0.066183999 0.19261999 0.083504997
-0.021172 0.2053 0.077733003
-0.077168003 0.1892 0.083732001
-0.077552997 0.18962 0.083995
-0.065775 0.19204 0.082791999
-0.065592997 0.1921 0.082534999
-0.034338001 0.20172 0.079345003
-0.020707 0.20722 0.077201001
0.039241999 0.22487 0.070735
-0.077312998 0.19273999 0.083789997
-0.077385001 0.19183999 0.084894001
-0.035202 0.20479999 0.079236001
-0.078468002 0.19269 0.084518999
-0.020186 0.20962 0.077705003
0.037509002 0.22634999 0.070289999
-0.019918 0.21093 0.077321
0.03723 0.22703999 0.07051
-0.079172 0.19410001 0.085129999
0.035854001 0.22752 0.070216
0.034814999 0.22781 0.070572004
0.033284001 0.22634999 0.070092998
0.032970998 0.22795001 0.070674002
-0.036492001 0.20856 0.078883998
-0.036200002 0.20837 0.080031
-0.018177001 0.21289 0.077858001
-0.018266 0.21297 0.077270001
-0.016191 0.21416999 0.077078998
-0.037303001 0.20943999 0.079948001
-0.016898001 0.21428999 0.077024996
-0.037078999 0.21036001 0.080091
-0.073131002 0.20004 0.083509997
-0.072278 0.20105 0.084040001
-0.071684003 0.20052999 0.083855003
-0.011911 0.21771 0.076603003
0.031488001 0.23029 0.070767
-0.011414 0.21872 0.076420002
-0.037509002 0.21066999 0.079944
0.030113 0.22989 0.071019001
0.030021001 0.23109999 0.071546003
0.031218 0.23029999 0.071382999
-0.078128003 0.19975001 0.085271999
0.028388999 0.23054001 0.072462998
-0.082158998 0.19909 0.085652001
0.026017001 0.2309 0.071235999
-0.083306998 0.20017999 0.086202003
-0.038389001 0.21228001 0.080062002
-0.0082158996 0.22307 0.076278001
0.026101001 0.23263 0.071658
0.021821 0.23114 0.072145
0.024122 0.23205 0.072435997
0.022229999 0.23214 0.072415002
0.020874999 0.23138 0.072797
-0.088416003 0.20118999 0.086533003
-0.088559002 0.20186 0.086583003
-0.039503999 0.21625 0.080439001
-0.086364999 0.20328 0.085593998
0.012862 0.23123001 0.073738001
0.018971 0.23263 0.072489001
0.0015822001 0.22801 0.075466998
-0.085463002 0.20546 0.086466998
0.01124 0.23168001 0.074216001
-0.040272001 0.21634001 0.080458999
-0.084539004 0.20755 0.085853003
-0.042489 0.21883 0.08083
-0.042939 0.21943 0.080900997
-0.042652 0.22065 0.080463998
-0.084521003 0.20931999 0.085965998
-0.043058999 0.22145 0.080888003
-0.045722 0.22318999 0.081698
-0.086809002 0.21190999 0.087153003
-0.047471002 0.22404 0.081855997
-0.088909 0.21369 0.087300003
-0.049601 0.22604001 0.081726
-0.087027997 0.21705 0.086778998
-0.052446 0.22661 0.082820997
-0.052804001 0.22717001 0.082690001
-0.085450001 0.21732999 0.086934
-0.084542997 0.21811999 0.086494997
-0.049906999 0.23041999 0.083017997
-0.080573 0.2218 0.086714
-0.04947 0.2309 0.082497001
-0.074437998 0.22435001 0.085822999
-0.073620997 0.22465 0.084973
-0.072120003 0.22558001 0.085277997
-0.071263 0.22542 0.085997
-0.067153998 0.22818001 0.084798001
-0.066462003 0.22849 0.084126003
-0.066414997 0.22940999 0.085133001
-0.043465 0.23693 0.081721999
-0.065732002 0.23139 0.084895998
-0.04397 0.23849 0.082190998
-0.044121001 0.23800001 0.082170002
-0.043687001 0.23857 0.082162999
-0.065892003 0.23254 0.084881999
-0.066138998 0.23385 0.085156001
-0.043579001 0.24026 0.081891
-0.056789 0.23705 0.083578996
-0.058603 0.23769 0.084078997
-0.065099999 0.23569 0.084950998
-0.065139003 0.23601 0.085577004
-0.065503001 0.23864999 0.084618002
-0.059567001 0.24051 0.085068002
-0.064658999 0.24138001 0.085130997
-0.063394003 0.24448 0.085383996
-0.062703997 0.24451999 0.085763998
-0.024085 0.10938 0.073201001
-0.023961 0.10862 0.073215999
-0.020897999 0.11026 0.073693998
-0.018572001 0.11061 0.072962001
-0.027496001 0.10855 0.074584998
-0.028075 0.10842 0.074559003
-0.026431 0.10868 0.073849998
-0.018022999 0.11038 0.072521999
-0.016847 0.11163 0.072439
-0.017178999 0.1109 0.072745003
0.038387999 0.12692 0.065145999
0.038699999 0.12712 0.065626003
-0.032857999 0.10733 0.073582001
0.038366001 0.12672 0.065707996
0.065839998 0.13528 0.062486999
0.068783998 0.13564 0.062252998
-0.035413999 0.10699 0.075185001
-0.036219001 0.10658 0.075089
-0.034823999 0.10694 0.074712001
-0.014396 0.11246 0.072797
0.043253999 0.12781 0.065312997
0.043830998 0.12867001 0.064129002
0.044109002 0.12898999 0.065196
0.044778001 0.12895 0.065079004
0.065039001 0.13420001 0.062403999
0.071087003 0.13673 0.061381999
-0.037367001 0.10626 0.074495003
0.035177998 0.1268 0.066085003
0.034306001 0.12710001 0.066091999
0.063032001 0.13441999 0.062537
0.063051999 0.13437 0.063276
-0.040971 0.1047 0.075474001
-0.041700002 0.10572 0.075338997
-0.040011 0.10549 0.074964002
0.033753 0.12662999 0.066046998
-0.042957 0.10605 0.076350003
-0.042270999 0.10563 0.076018997
-0.043556001 0.10638 0.075609997
-0.043028001 0.10561 0.076139003
-0.043026999 0.10509 0.076628998
0.031764001 0.12682 0.067239001
0.058332 0.13502 0.063459001
0.059459999 0.13476001 0.063143
-0.011258 0.11545 0.071924999
-0.011251 0.11604 0.072218999
0.048145998 0.13177 0.064566001
0.057709001 0.13564 0.062542997
0.069421001 0.13998 0.061227001
-0.046468001 0.10691 0.075755
-0.011426 0.116 0.071000002
0.02923 0.12803 0.066853002
0.028317999 0.12829 0.066831
-0.048161998 0.10626 0.076448001
-0.049012002 0.10647 0.076692
-0.046912 0.10711 0.076104
-0.010843 0.11684 0.071801998
-0.0097198999 0.11755 0.072370999
0.069444001 0.13959 0.061407998
-0.049858999 0.10665 0.076482996
-0.010321 0.11806 0.071694002
-0.06735 0.10232 0.079672001
-0.067322001 0.10189 0.079112001
-0.050055999 0.10767 0.076761998
-0.073261 0.10052 0.079157002
-0.069701999 0.10156 0.078941002
-0.050859001 0.10628 0.076918997
0.025939999 0.12993 0.066583999
0.068127997 0.14153001 0.061489999
0.069357999 0.14204 0.062385
-0.051918 0.1079 0.076789998
0.025907001 0.12961 0.067873001
0.024989 0.12961 0.067993
0.026056999 0.12961 0.067431003
-0.053975001 0.10767 0.077518001
-0.052326001 0.10722 0.077215999
-0.057815 0.10655 0.077964
-0.055240002 0.10793 0.077132002
-0.054864999 0.10763 0.077358998
0.068177 0.14248 0.062020998
-0.057300001 0.10707 0.077753998
0.024290999 0.13088 0.067755997
0.066601999 0.14275999 0.061840001
0.066118002 0.14414001 0.062729999
0.065228999 0.14464 0.062789999
-0.0062988 0.12389 0.071815997
-0.0043861 0.12706 0.071106002
-0.072729997 0.1091 0.080513
-0.072875001 0.1094 0.080588996
-0.068489 0.111 0.079130001
-0.067902997 0.11175 0.079738997
-0.0038363 0.12975 0.071824998
-0.0038177001 0.12835 0.071911
0.019569 0.13582 0.068596996
0.019384 0.13594 0.068981998
0.061032999 0.14845 0.063036002
-0.066863 0.11198 0.079494998
-0.066209003 0.11281 0.079374999
-0.0029166001 0.13029 0.072403997
-0.0033779 0.12943999 0.071768001
-0.065362997 0.1138 0.079655997
-0.064575002 0.11349 0.078731999
-0.064658999 0.11402 0.078876004
0.060254 0.14903 0.063735999
-0.064342998 0.11526 0.078653999
-0.0026976001 0.13146 0.071315996
-0.0025985001 0.13203 0.071147002
-0.064470001 0.11606 0.078927003
-0.0016558 0.13361999 0.071441002
-0.064251997 0.11629 0.078827001
0.018026 0.13857 0.068737999
-0.0022970999 0.13462 0.071259998
0.017476 0.13967 0.068813004
0.056928001 0.15167999 0.063395999
-0.065613002 0.11741 0.079475001
0.056931999 0.15236001 0.064540997
-0.00086539 0.13591 0.071980998
0.056061 0.15191001 0.064410001
-0.066558003 0.11902 0.079567999
-0.068428002 0.12012 0.079754002
0.053505 0.15398 0.066073999
0.053768001 0.15295 0.066003002
-0.068095997 0.12 0.080233
-0.068857998 0.12021 0.080466002
-0.069852002 0.12042 0.080534004
-0.069467999 0.12091 0.080628999
1.6763001e-05 0.13908 0.071658
0.00045908001 0.14037 0.071547002
0.052560002 0.15471999 0.065474004
-0.069957003 0.12171 0.080412
0.015974 0.14582001 0.069508001
0.0010255 0.14185999 0.071774997
0.00097894005 0.14357001 0.071811996
0.049134001 0.15697999 0.065892003
-0.071138002 0.12479 0.080427997
0.0019654999 0.14524999 0.071673997
0.047906999 0.1582 0.065027997
-0.07192 0.12646 0.080223002
-0.071456999 0.12559 0.080848001
0.0022543999 0.14788 0.071268998
0.015065 0.1499 0.070904002
0.015159 0.15151 0.069459997
-0.072720997 0.12679 0.080766998
-0.073365003 0.12748 0.080688998
-0.074003004 0.12991001 0.081184
-0.074372001 0.13061 0.081449002
0.0033604 0.15178999 0.071579002
0.015748 0.15485001 0.069576003
0.014892 0.15567 0.070905
-0.073367998 0.13132 0.081175998
-0.040895 0.14064001 0.077101998
-0.039949 0.14063001 0.076589003
-0.043914001 0.14065 0.077554002
-0.044640001 0.14025 0.078376003
-0.042052001 0.14074001 0.077384003
-0.073317997 0.13149001 0.081077002
-0.045972999 0.14012 0.078547999
-0.074295998 0.13314 0.081335999
-0.048298001 0.14047 0.078382
0.046123002 0.16635001 0.066673003
-0.049229998 0.14122 0.078367002
0.015606 0.15947001 0.070583999
0.01517 0.15877999 0.070331998
-0.073834002 0.13435 0.081082001
-0.051004 0.14168 0.078970999
-0.051860001 0.14225 0.078492001
0.0043850001 0.15715 0.072088003
0.0047733001 0.15696999 0.072025999
0.0044105002 0.15696 0.071726002
-0.052335002 0.14294 0.078988001
-0.073365003 0.13765 0.081148997
-0.053176001 0.14379001 0.078808002
-0.032120001 0.14867 0.076582998
-0.031998999 0.14889 0.076865003
0.015858 0.16246 0.071134999
-0.07339 0.13869999 0.081350997
-0.031532001 0.14936 0.076288998
-0.072780997 0.14064001 0.080658004
0.0051978999 0.16237 0.071462996
0.047929998 0.17248 0.066950999
0.0053765001 0.1622 0.071627997
-0.029805999 0.15397 0.076655
-0.053759001 0.14631 0.079441004
0.017146001 0.16786 0.070430003
0.048900001 0.17524999 0.066184998
0.049555 0.17623 0.066471003
0.048571002 0.17632 0.066088997
-0.073190004 0.14255001 0.081518002
-0.073147997 0.14178 0.081497997
-0.054958001 0.14758 0.078961
-0.0295 0.15464 0.076741003
0.0057013999 0.16407999 0.072412997
-0.055495001 0.14885999 0.079233997
-0.053929001 0.149 0.079484001
0.0058941999 0.16406 0.072639003
0.050565999 0.17798001 0.065714002
0.050207999 0.17794 0.066845998
-0.073771 0.14473 0.082215004
-0.072268002 0.14455 0.081361003
-0.054485001 0.14978001 0.079121001
-0.054067001 0.15056001 0.079268999
-0.052595001 0.1507 0.079577997
-0.053440001 0.15236001 0.078644998
-0.053307999 0.15126 0.079981998
0.018705999 0.17128 0.070298001
-0.072089002 0.14659999 0.081742004
0.019029999 0.17196999 0.069825999
-0.028744999 0.15964 0.076549999
-0.071168996 0.14796001 0.081147999
0.0062131998 0.16852 0.072152004
0.0055517 0.16922 0.071350001
0.05116 0.18178999 0.066609003
-0.071269996 0.14872999 0.081251003
-0.071465999 0.14933001 0.081455998
-0.027915001 0.16068 0.075499997
0.0067706001 0.16940001 0.071837001
-0.052216001 0.15493 0.078892
-0.071997002 0.15024 0.081665002
-0.050700001 0.15572999 0.079622
-0.050843 0.15541001 0.079328001
0.020298 0.17591999 0.070811003
0.020067001 0.17652 0.070826001
-0.071555004 0.15074 0.081552997
-0.072545998 0.15042 0.082168996
0.019908 0.17635 0.069935001
-0.050604001 0.15697999 0.079504997
-0.027595 0.16283 0.077192001
-0.072849996 0.1513 0.082675003
-0.071138002 0.15173 0.081860997
0.0063506002 0.17417 0.072214998
0.0072661 0.1733 0.073845997
0.052395001 0.18509001 0.066243999
-0.048856001 0.15767001 0.078806996
-0.049713999 0.15784 0.078828
-0.071676999 0.15302999 0.081854001
-0.049139 0.15863 0.078833997
-0.071652003 0.15323 0.081605002
0.0065914001 0.17483 0.072392002
0.0073994002 0.17502999 0.072443001
0.0068151001 0.17539001 0.071842998
-0.070462003 0.15561 0.082304001
-0.070099004 0.15611 0.081959002
-0.047295999 0.16297001 0.079490997
-0.02643 0.16881999 0.077379003
0.0069678002 0.17825 0.073011003
0.053422 0.19070999 0.066418
-0.046167001 0.162 0.078815997
-0.026753001 0.16715001 0.076837003
0.052227002 0.19049001 0.066611998
-0.070771001 0.15758 0.082093999
0.0077828998 0.18006 0.071920998
0.053165998 0.19231001 0.067109004
0.052859001 0.193 0.067162
0.022314999 0.18446 0.071385004
0.053707998 0.19423001 0.066312
-0.069510996 0.16016001 0.082576998
0.0089467 0.18238001 0.073137999
0.052781001 0.19471 0.066988997
0.053594001 0.19454999 0.066917002
-0.069554001 0.16132 0.082073003
-0.043816999 0.16782001 0.079306997
0.022815 0.18801001 0.070560999
-0.070056997 0.16159 0.082004003
-0.070101 0.16150001 0.082153998
-0.025567999 0.1743 0.076824002
0.053082999 0.19781999 0.066233002
-0.06961 0.16337 0.082212001
-0.041398998 0.17094 0.079182997
-0.069279 0.16477001 0.082341999
-0.025637001 0.17603999 0.077491
0.010084 0.18644001 0.072743997
0.009598 0.18566 0.072351001
0.052506998 0.1989 0.066477999
0.0097907996 0.18782 0.072793998
-0.024506001 0.17895 0.075985998
-0.040938001 0.17399 0.078831002
-0.039801002 0.17445 0.079415001
0.052542001 0.20107999 0.067635
0.053259999 0.20099001 0.067224003
-0.069014996 0.1674 0.082486004
-0.068301 0.16804001 0.082037002
-0.024513001 0.17952999 0.076800004
0.052822001 0.20183 0.067460999
0.020631 0.1928 0.071579002
0.052786 0.20159 0.067460999
-0.06859 0.16906001 0.082494996
-0.039181001 0.17618001 0.079066999
-0.025041999 0.18018 0.077123001
-0.025001001 0.18153 0.077517003
-0.068200998 0.16903 0.082381003
-0.038396001 0.17847 0.078001
0.016132001 0.19343001 0.072042003
0.018064 0.19401 0.071909003
0.017785 0.19374999 0.071823999
-0.038245998 0.17811 0.078570001
-0.03751 0.17918999 0.078276001
0.052914001 0.20395 0.067951001
-0.067713998 0.17178001 0.083145
-0.033402 0.18105 0.077619001
-0.034058001 0.18164 0.078285001
-0.066606 0.17376 0.082280003
-0.035859 0.17995 0.078948997
-0.034566 0.18054999 0.078240998
-0.035238001 0.18046001 0.078792997
-0.024219001 0.18499 0.076986998
-0.024311 0.18426 0.076913998
-0.023862001 0.18555 0.076526999
-0.066491999 0.17422 0.082129002
-0.066993997 0.17403001 0.082543999
-0.032462001 0.18350001 0.078454003
-0.023922 0.18625 0.077068001
-0.066551998 0.17569999 0.082668997
0.052156001 0.20819999 0.068150997
0.052416001 0.20731001 0.068129003
0.051529001 0.20750999 0.067766003
0.051314 0.20873 0.067179002
-0.066036001 0.17637999 0.082333997
-0.065967999 0.17777 0.082893997
0.050025001 0.21072 0.067648001
-0.065211996 0.17884 0.082837999
0.050092999 0.21166 0.067763001
-0.064466 0.18072 0.082703002
-0.024676001 0.19091 0.077751003
-0.024498999 0.19188 0.077367
-0.024770999 0.19314 0.077320002
-0.023096001 0.19329999 0.076903999
-0.064424001 0.18189 0.082685001
-0.064055003 0.18277 0.082415
-0.024321999 0.19348 0.077593997
0.048741002 0.21356 0.067957997
-0.032451998 0.19148999 0.077854998
-0.023220999 0.19320001 0.077187002
0.048604 0.21396001 0.068093002
0.048891 0.2154 0.068115003
0.049237002 0.21462999 0.068668999
-0.063418999 0.1837 0.082433999
-0.032060999 0.19279 0.0779
-0.023343001 0.1954 0.076715998
-0.031860001 0.19317999 0.078520998
0.048634999 0.21614 0.068164997
-0.063548997 0.18412 0.082401998
-0.023243001 0.19584 0.077574998
0.047961 0.21667001 0.068916
0.048702002 0.21578 0.068754002
-0.031918999 0.19490001 0.078527004
-0.031840999 0.19374 0.078626998
-0.022852 0.19702999 0.077082001
0.048324998 0.21755999 0.068264
0.048769001 0.21764 0.068847001
0.047672 0.21731 0.068125002
-0.031686001 0.19509999 0.078883998
-0.075755 0.18303999 0.084275998
-0.073035002 0.18463001 0.083704002
0.047272999 0.21887 0.069127999
0.047148999 0.21727 0.069036998
0.046236001 0.21777 0.068801001
-0.076920003 0.18396001 0.083993003
-0.073221996 0.18539 0.084261
-0.06312 0.18781 0.082792997
-0.078018002 0.18426 0.084193997
0.045267999 0.21884 0.069211997
-0.078110002 0.18549 0.084556997
-0.072633997 0.18709999 0.084507003
-0.071736999 0.18775 0.083544001
-0.072053 0.18825001 0.084844999
-0.070993997 0.18747 0.083792001
-0.062286001 0.18985 0.082958996
-0.034127001 0.19795001 0.079210997
-0.069746003 0.18953 0.083296999
-0.062286999 0.19035 0.082786001
-0.063504003 0.19101 0.082823999
-0.070483997 0.18979999 0.084046997
-0.023076 0.20367999 0.077933997
-0.022293 0.20310999 0.077501997
-0.021018 0.20352 0.077742003
-0.064028002 0.19147 0.083384998
-0.078854002 0.18756001 0.084458001
-0.079048 0.18846001 0.084555
-0.068383001 0.19154 0.083440997
-0.064492002 0.19220001 0.082960002
-0.078162998 0.18974 0.084486999
-0.067588001 0.191 0.083912998
-0.066554002 0.19202 0.083403997
-0.066752002 0.19221 0.083970003
-0.064618997 0.1927 0.083512999
-0.077976003 0.18916 0.084668003
-0.065867998 0.1918 0.083507001
-0.065206997 0.19220001 0.083824001
-0.020907 0.20581 0.077462003
0.042033002 0.22327 0.069761999
-0.077048004 0.19098 0.085205004
-0.020878 0.20671999 0.078142002
0.041577 0.22397999 0.069966003
-0.034662001 0.20285 0.080476001
-0.035062 0.20293 0.079916999
-0.020251 0.20778 0.077763997
-0.034552 0.20446 0.079039998
-0.078543998 0.19106001 0.086038999
-0.078767002 0.19178 0.085387997
0.039861001 0.22458 0.070401996
-0.035050001 0.20439 0.079520002
-0.078863002 0.19315 0.084679998
-0.079043001 0.19283 0.085069001
-0.035422999 0.20505001 0.080154002
-0.020329 0.21063 0.077321999
-0.078506 0.19388001 0.084720999
-0.079501003 0.19495 0.085164003
-0.079053998 0.19525 0.085484996
-0.078226998 0.19456001 0.085804
-0.019478999 0.21139 0.077771999
0.037346002 0.22768 0.070398003
-0.077400997 0.19686 0.085510999
0.034047 0.22798 0.070940003
-0.076200999 0.19675 0.085179001
-0.037227999 0.20875999 0.080499001
0.034187 0.22853 0.070881002
0.032726001 0.22858 0.071180001
-0.07632 0.19758999 0.085412003
-0.074015997 0.19888 0.085028
0.032983001 0.22956 0.070780002
-0.073184997 0.19953001 0.084619001
-0.072175004 0.20039999 0.084761001
0.032793 0.23038 0.071079001
-0.077496 0.20074999 0.085767999
-0.015628999 0.21726 0.077270001
0.031399 0.23153 0.071556002
0.031943999 0.23105 0.071295001
0.030304 0.23128 0.072162002
0.029248999 0.23104 0.072097003
0.032391001 0.23186 0.071861997
-0.082690999 0.19924 0.085883997
0.028527999 0.23062 0.070955999
-0.073679999 0.20234001 0.085118003
-0.073115997 0.20274 0.085210003
-0.084048003 0.20003 0.085556
0.027363 0.23152 0.072094999
-0.083539002 0.19949999 0.086153999
-0.084793001 0.19893999 0.086433001
-0.085185997 0.1998 0.086701997
-0.088298 0.20029999 0.086736999
-0.087163001 0.20061 0.086364999
-0.086723998 0.19963001 0.086208999
-0.039216001 0.21419001 0.080587
-0.040229999 0.21377 0.080601998
-0.0091390004 0.22272 0.077301003
-0.010133 0.22184999 0.077258997
-0.040442001 0.21427 0.081230998
0.023507999 0.2322 0.073182002
0.022049 0.23175 0.073582001
-0.089396998 0.20117 0.086635001
-0.088797003 0.20095 0.087122001
-0.088569999 0.20123 0.086395003
0.02055 0.23181 0.072549
-0.088053003 0.20319 0.087011002
-0.086852998 0.20379999 0.087041996
-0.088535003 0.20287 0.087090001
-0.0042865002 0.22594 0.076738998
-0.001639 0.22654 0.075828999
0.0056681 0.22868 0.075406998
0.0067738998 0.22885001 0.075378001
0.019491 0.2324 0.073321998
0.0067560002 0.22905999 0.074910998
0.017145 0.23275 0.073907003
0.018477 0.23229 0.074219003
0.019219 0.23276 0.073106997
0.0027628001 0.22860999 0.075712003
0.0082162004 0.22996999 0.075218
0.0091260001 0.23119999 0.075046003
-0.041340999 0.21851 0.081290998
-0.084788002 0.20759 0.087476
-0.084946997 0.20898999 0.086584002
-0.043545999 0.22208001 0.081703998
-0.043926999 0.22221 0.081968002
-0.084650002 0.21163 0.086626999
-0.049141999 0.2254 0.083005004
-0.089047 0.21608 0.08743
-0.090043001 0.21582 0.087291002
-0.088720001 0.21625 0.087823004
-0.087485999 0.21571 0.087298997
-0.087612003 0.21630999 0.087251998
-0.086446002 0.21734001 0.086957
-0.085564002 0.21765 0.087114997
-0.085957997 0.2183 0.087128997
-0.085511997 0.21822999 0.086863004
-0.083944 0.2191 0.087422997
-0.052313 0.22725999 0.082663
-0.083672002 0.21931 0.087605998
-0.052073002 0.22797 0.083564997
-0.082523003 0.22043 0.087061003
-0.050659001 0.22949 0.083241001
-0.050280999 0.22926 0.083700001
-0.077596001 0.22387999 0.086639002
-0.076287001 0.22374 0.085692003
-0.067809001 0.22655 0.084845997
-0.068443 0.22679 0.085690998
-0.067302004 0.22803999 0.085188001
-0.046592999 0.23371001 0.082212999
-0.04685 0.2349 0.082601003
-0.045683 0.23514999 0.082967997
-0.045577001 0.23518001 0.082500003
-0.045487002 0.23686001 0.083238997
-0.044369999 0.23733 0.082084
-0.045152001 0.23769 0.082451999
-0.066650003 0.2317 0.086308002
-0.043985002 0.23862 0.082436003
-0.045090999 0.23891 0.082626998
-0.044045001 0.23910999 0.082649998
-0.065621004 0.23464 0.085574999
-0.065894999 0.23424 0.085666001
-0.056558002 0.23726 0.084614001
-0.057335999 0.23731001 0.085183002
-0.055303998 0.2374 0.083898
-0.054951999 0.23781 0.083962001
-0.054049999 0.23766001 0.084296003
-0.046037 0.24073 0.082422003
-0.045499001 0.23998 0.082966998
-0.049013998 0.23976 0.083529003
-0.047265999 0.23999 0.082891002
-0.046390999 0.23981 0.083091997
-0.065797001 0.2378 0.084849
-0.065623999 0.23773 0.085892998
-0.064911 0.23962 0.085456997
-0.065081 0.23965 0.085515
-0.065102004 0.24056999 0.085909002
-0.058370002 0.24448 0.084475003
-0.062469002 0.24499001 0.085496999
-0.062593997 0.24541 0.085060999
-0.025003999 0.10886 0.073528998
-0.023910999 0.10857 0.074220002
-0.022115 0.10943 0.073138997
-0.020555999 0.11001 0.072728999
-0.019707 0.10935 0.073413
-0.018248999 0.11107 0.072664998
-0.01733 0.11128 0.072388999
0.039266001 0.12673999 0.066033997
0.041742001 0.12716 0.065866999
0.042461999 0.12781 0.065172002
-0.030718001 0.10775 0.074101999
-0.027511001 0.10793 0.073866002
-0.015807001 0.11181 0.072400004
-0.016007001 0.11151 0.072499998
0.042902 0.12818 0.065013997
-0.035836998 0.10644 0.074873999
-0.034132998 0.10636 0.074083999
0.070078999 0.13585 0.061926998
0.070297003 0.13601001 0.061595999
-0.037418999 0.10618 0.075300001
-0.035096001 0.10671 0.074515998
-0.014091 0.11284 0.072457001
0.035649002 0.12677 0.066265002
0.065889999 0.13449 0.062573999
0.066381 0.13478 0.062564999
-0.039198998 0.10612 0.075851999
-0.038339 0.10646 0.075584002
0.045788001 0.12955999 0.065240003
-0.01241 0.11434 0.071773998
0.046431001 0.13017 0.064727999
0.047173001 0.13107 0.064499997
0.047332998 0.13034 0.064747997
0.047134999 0.13167 0.064138003
0.070642002 0.13808 0.061677001
0.071217999 0.13744 0.061666001
0.070995003 0.13801 0.062282
-0.043799002 0.10557 0.076603003
0.032432001 0.12728 0.066662997
-0.044950001 0.10605 0.076095998
0.047782999 0.13194001 0.064465001
0.048413999 0.13248999 0.064680003
0.071078002 0.13956 0.061802
-0.045651998 0.1058 0.076733001
0.058506999 0.13524 0.06402
-0.046668999 0.10639 0.076365001
0.0298 0.12722 0.067263
0.03087 0.12739 0.066754997
0.049713001 0.13259999 0.065167002
0.057181001 0.13529 0.063584998
0.070605002 0.13941 0.062231001
0.069445997 0.14038 0.062762
-0.010551 0.11661 0.072039001
0.029457999 0.12846 0.066597998
0.049121 0.13373999 0.064332999
0.057232 0.13568 0.063826002
0.055325001 0.1365 0.063845001
-0.048859999 0.10624 0.077137001
-0.047880001 0.10761 0.075793996
0.027660999 0.12883 0.067598
0.050140001 0.13449 0.064276002
0.050756 0.13444 0.063697003
0.051856 0.13457 0.064249001
-0.074047998 0.099368997 0.080215998
-0.075554997 0.099941 0.079991996
-0.074019 0.10028 0.079974003
-0.073564 0.10139 0.079476997
-0.069908001 0.10206 0.079181999
-0.069059998 0.10183 0.079255
0.052062001 0.13529 0.063992999
0.054448001 0.13643 0.063721001
-0.076356001 0.10019 0.080766
-0.0726 0.10166 0.080012999
-0.070811003 0.10131 0.079233997
-0.068781003 0.10239 0.07993
-0.069264002 0.10204 0.080029003
-0.069370002 0.10229 0.079939
-0.061866999 0.10449 0.079154
-0.051746 0.10721 0.077044003
0.052141 0.13618 0.064480998
0.053642001 0.13636 0.064390004
-0.076318003 0.10068 0.080002002
0.069234997 0.14125 0.061926
-0.0088318 0.11896 0.071238004
-0.075906999 0.10153 0.079985999
-0.059353001 0.10593 0.078253001
-0.058435 0.10642 0.07835
0.068818003 0.14294 0.063055001
0.069242999 0.14195 0.063364998
-0.0079313004 0.12043 0.071690999
-0.057358 0.10659 0.078368999
-0.056894001 0.10772 0.077510998
-0.056122001 0.1078 0.078227997
-0.055378001 0.10864 0.077472001
-0.076080002 0.10318 0.080463
-0.056290001 0.10782 0.077717997
0.024704 0.13016 0.067984
-0.0071659 0.12227 0.072261997
0.067213997 0.14369 0.062651999
0.067657001 0.14267001 0.062531002
-0.075346 0.10294 0.080870003
-0.074965 0.10378 0.080623999
-0.075207002 0.10378 0.080044001
0.022844 0.13207 0.067860998
0.024003001 0.13102999 0.067647003
-0.0072745001 0.1229 0.071759999
-0.074557997 0.10493 0.080328003
-0.005446 0.12443 0.072532997
-0.0059384 0.12486 0.071667999
0.021544 0.13361 0.067895003
-0.0055494001 0.12555 0.071424998
-0.0053297998 0.12555 0.072235003
-0.073709004 0.10667 0.080110997
0.064773001 0.14518 0.062945001
0.064383999 0.14517 0.062633
-0.073190004 0.10821 0.080509998
0.019963 0.13366 0.068621002
0.063506 0.14639001 0.063219003
-0.073301002 0.10805 0.080380999
0.062762 0.14659999 0.062912002
-0.073154002 0.10887 0.080794998
0.062813997 0.14648999 0.063662
0.062346 0.14703999 0.062928997
-0.0038151999 0.12874 0.072012998
0.062093999 0.14724 0.063643999
-0.071597002 0.11002 0.080582999
0.061919998 0.1477 0.062964998
-0.070845999 0.11008 0.080356002
-0.068553999 0.11214 0.080118999
0.061496001 0.14861999 0.063896
-0.065725997 0.11398 0.079464003
0.060803998 0.14918999 0.063817002
-0.064676002 0.11482 0.079714
-0.064525001 0.11572 0.079437003
0.018376 0.13779999 0.069302998
0.059932999 0.14994 0.063399002
0.059498999 0.15042 0.063956998
0.059037 0.15042 0.064072996
-0.065006003 0.11601 0.079944998
-0.064553998 0.11642 0.078867003
0.058483001 0.15087 0.064191997
-0.066192001 0.11642 0.07987
-0.0018549 0.13426 0.071689002
0.057291999 0.15112001 0.063626997
-0.00048389001 0.13632999 0.071212001
0.017251 0.14092 0.069297999
-0.067597002 0.11819 0.079530001
-0.067492999 0.11885 0.080557004
-0.00010995 0.13802999 0.071214996
-0.00019584 0.13717 0.071992002
0.055744998 0.15264 0.064551003
0.055619001 0.15233 0.063943997
0.05376 0.15399 0.065169998
-0.068595998 0.11972 0.080265
-0.069724999 0.11894 0.080521002
0.0010522 0.13973001 0.071433
0.052012 0.15523 0.065315001
0.051222 0.15485001 0.065877996
0.015806001 0.14645 0.069560997
-0.070742004 0.12402 0.080426998
0.0016064 0.14427 0.071211003
0.0015679999 0.14303 0.071575999
0.047541998 0.15776999 0.066734001
0.048298001 0.15773 0.065889001
-0.071387 0.1244 0.081511997
0.0017973999 0.14597 0.071517996
0.047173999 0.15846001 0.065737002
0.046144001 0.15809999 0.066454999
-0.071809001 0.12515999 0.081321999
-0.072010003 0.1257 0.080697
0.0022543001 0.14664 0.072315998
0.045947999 0.1591 0.066272996
-0.072470002 0.12544 0.081246004
0.0020441001 0.14734 0.071411997
0.045150999 0.15877999 0.066177003
0.045423001 0.16013999 0.066506997
0.0024095001 0.14782 0.071760997
0.0027856999 0.14848 0.072129004
0.044805001 0.16043 0.066665001
0.0023012001 0.15007 0.071585
-0.073789001 0.12856001 0.081115998
0.015163 0.15316001 0.070143998
-0.073053002 0.12897 0.081523001
0.0035134 0.15082 0.071964003
0.0034425999 0.15114 0.071658
0.0037759 0.15174 0.072131
-0.074362002 0.13073 0.081837997
-0.074045002 0.13123 0.081276
-0.074699 0.13144 0.081874996
-0.039411999 0.14128999 0.076638997
-0.038589001 0.14128999 0.077431999
0.045118999 0.16526 0.066370003
-0.045302 0.14019001 0.078573003
-0.037797 0.14214 0.076877996
-0.036764 0.14252 0.077146001
-0.036169998 0.14277001 0.076880001
-0.074046001 0.13266 0.081088997
-0.074789003 0.13259999 0.081634
-0.035266999 0.14455999 0.076747999
-0.074509002 0.13276 0.081706002
-0.074368998 0.13389 0.081818998
-0.048670001 0.14120001 0.078596003
-0.034148 0.14521 0.076930001
-0.034368999 0.14413001 0.076817997
0.014735 0.15828 0.070823997
-0.049933001 0.14228 0.078772999
-0.033156998 0.14566 0.076575004
0.046048 0.168 0.066385001
-0.074557997 0.13432001 0.082004003
-0.074267 0.13519 0.080953002
0.0046532 0.15550999 0.072159
0.0043886998 0.15623 0.072130002
-0.050133001 0.14151999 0.078918003
0.015122 0.16109 0.070584998
-0.074422002 0.13625 0.08179
0.046817001 0.16877 0.067256004
-0.073412001 0.13692001 0.08151
-0.074138001 0.13531999 0.081785999
-0.033179 0.14791 0.076554
-0.074010998 0.13727 0.081570998
0.015535 0.16171999 0.070657
-0.074882001 0.13698 0.081685998
-0.033239 0.14774001 0.077192001
-0.032946002 0.1481 0.077788003
0.047557 0.16963001 0.067264996
0.047619 0.17101 0.066955999
-0.052875999 0.14381 0.079035997
-0.074813999 0.1376 0.082103997
0.047757 0.17199001 0.066669002
0.048075002 0.1716 0.067495003
-0.053828001 0.14461 0.078939997
-0.030528 0.15109999 0.075909004
-0.029966 0.15175 0.076301001
-0.030238001 0.15209 0.077568002
0.0051723002 0.16117001 0.072079003
0.0047197002 0.16137999 0.071689002
-0.073252 0.14005999 0.081574999
0.016438 0.16404 0.071792997
0.016386 0.16505 0.071336001
-0.073977001 0.14059 0.082245
0.016806001 0.16489001 0.070681997
-0.052868001 0.14571001 0.079281002
-0.029805999 0.15306 0.076571003
0.016615 0.1655 0.070644997
0.016998 0.16693 0.071153
-0.073698997 0.14094 0.081843004
-0.072875999 0.14134 0.081367999
-0.073115997 0.14140999 0.082393996
-0.074552 0.14098001 0.082392
-0.074501999 0.14155 0.082650997
-0.075113997 0.14204 0.083111003
-0.074008003 0.14223 0.082617998
-0.053849 0.14657 0.079457
-0.073813997 0.14235 0.081680998
-0.054225001 0.14837 0.079819001
-0.073177002 0.14327 0.081573002
-0.029801 0.15531 0.076635003
-0.02954 0.15636 0.076278001
-0.053454999 0.15022001 0.079038002
-0.053472001 0.14907999 0.079575002
0.0056699999 0.16501001 0.072350003
0.017847 0.16985001 0.070725001
-0.053610001 0.15009999 0.079493999
-0.0735 0.14483 0.081890002
0.017957 0.17062999 0.070671
-0.073602997 0.14574 0.082521997
0.0060704001 0.16749001 0.072384
0.051096998 0.1804 0.066388004
0.050347 0.17938 0.066745996
-0.053482998 0.15267 0.079402998
-0.052131999 0.15173 0.079402
0.0063111 0.16772 0.072245002
0.051192001 0.18069001 0.067061
-0.072623 0.14796001 0.081694998
0.018731 0.17189001 0.070822999
0.019254001 0.17282 0.070180997
-0.072860003 0.14827999 0.082043
-0.051920999 0.15259001 0.079701997
-0.027695 0.16022 0.077122003
-0.027912 0.16007 0.07728
0.0064719999 0.17065001 0.072121002
0.019264 0.17387 0.070885003
0.019507 0.17419 0.070711002
-0.05119 0.15471999 0.079617001
0.0064102001 0.17020001 0.072591998
-0.072370999 0.14966001 0.082482003
-0.050717998 0.15536 0.079348996
-0.027017999 0.16305 0.076288998
0.019997999 0.17464 0.070389003
-0.049387001 0.15606999 0.078851998
-0.050014999 0.15628 0.079494998
-0.073804997 0.15086 0.082935996
0.020905999 0.1763 0.070229001
0.020482 0.17779 0.071181998
-0.072090998 0.15200999 0.081975996
-0.072332002 0.15161 0.081851996
-0.026924999 0.16421001 0.076436996
-0.027069001 0.16531 0.076892003
-0.048834 0.15974 0.079154998
-0.048243001 0.15882 0.079598002
-0.048381001 0.16 0.079921
-0.072043002 0.15289 0.082368001
-0.047469001 0.16078 0.079042003
0.021186 0.17840999 0.071451001
0.0067350999 0.17603999 0.072586998
0.021609001 0.18193001 0.070584998
-0.072232001 0.1551 0.081997998
-0.070693001 0.15397 0.081556
-0.046489999 0.16155 0.079962999
-0.047279 0.16096 0.079550996
0.0068803998 0.17621 0.072751999
-0.071222998 0.15567 0.082438
-0.071126997 0.15626 0.082191996
0.0072778999 0.17733 0.072913997
-0.070749998 0.15655001 0.081942998
-0.046069998 0.16353001 0.079103
0.0073807999 0.17867 0.072494
0.022117 0.18193001 0.070404001
-0.044443998 0.16446 0.079553001
-0.044273 0.16406 0.080426
-0.045970999 0.16351999 0.079489
-0.071667999 0.15741999 0.082607999
-0.045416001 0.16451 0.079447001
-0.025895 0.17124 0.077000998
0.022216 0.18285 0.070730999
0.021361999 0.18245 0.070670001
-0.070969999 0.15769 0.081899002
-0.071166001 0.15851 0.082895003
-0.070143998 0.1582 0.082056999
-0.071584001 0.15791 0.082376003
-0.071492001 0.15941 0.082676001
-0.026876001 0.17043 0.078404002
-0.025897 0.17116 0.078175001
0.053525001 0.1938 0.066615
-0.070734002 0.16004001 0.082929
-0.025641 0.17217 0.076642998
0.022768 0.18501 0.070326999
-0.044183999 0.16753 0.078934997
-0.070839003 0.16092999 0.082667001
-0.043691002 0.16836999 0.078815997
-0.025575001 0.17321 0.077007003
0.053337 0.19632 0.067001
-0.043648001 0.16861001 0.078786001
0.0089717004 0.18341 0.073691003
0.0093317004 0.18301 0.073308997
0.0092585003 0.18350001 0.072512999
0.022614 0.18637 0.071144
-0.043274999 0.16895001 0.079671003
-0.026082 0.17353 0.077327996
0.053440001 0.19591001 0.067730002
-0.071369 0.16218001 0.082722999
0.053491 0.19648001 0.067050003
0.0095167002 0.18571 0.072832003
-0.024909999 0.17682999 0.076765001
0.010168 0.18587001 0.072416998
0.052944001 0.19851001 0.067286
-0.068945996 0.16366 0.082358003
-0.069720998 0.16444001 0.082904004
-0.070286997 0.16336 0.082557999
-0.041480999 0.17196999 0.079720996
-0.040778998 0.17343 0.078959003
0.023062 0.18886 0.071509004
0.023216 0.18881001 0.072006002
0.052545998 0.19866 0.067768
-0.068573996 0.16452 0.08213
-0.02513 0.17705999 0.077077001
-0.069839999 0.1646 0.082736999
-0.069620997 0.16569 0.082425997
0.0097863004 0.18729 0.072756
0.022519 0.19028001 0.071262002
0.053183999 0.1996 0.067226
-0.024839999 0.17771 0.07705
-0.025314 0.17934 0.077197
-0.039928 0.17272 0.079705998
0.053164002 0.19997001 0.067302004
-0.069499999 0.1663 0.082703002
-0.024668001 0.17934 0.076842003
-0.040194999 0.17552 0.079069003
-0.039694 0.17564 0.078955002
0.011854 0.18960001 0.072728999
-0.068897001 0.16698 0.082420997
-0.069357 0.16797 0.082740001
0.012775 0.19005001 0.072233997
0.013455 0.19073001 0.073113002
-0.037836 0.1769 0.079049997
0.013314 0.19129001 0.072912
0.014711 0.19221 0.072368003
0.020740001 0.1935 0.071507998
0.052715998 0.20266999 0.067837998
-0.069092996 0.16934 0.083466999
-0.038837999 0.17758 0.078717001
-0.038125999 0.17795999 0.079092003
0.01456 0.19255 0.072319001
0.019425999 0.19344001 0.071042001
0.052553002 0.20262 0.067204997
-0.068905003 0.16982 0.082967997
0.015641 0.19335 0.072622001
-0.068170004 0.1701 0.083103999
-0.024591001 0.18273 0.077468999
0.016607 0.19389001 0.071782999
0.017716 0.1935 0.073025003
-0.037315 0.17862999 0.078493997
-0.037330002 0.17823 0.078516997
-0.024677999 0.18361001 0.077647999
0.053025 0.20503999 0.067396
-0.037487 0.17949 0.078612998
-0.024316 0.18336999 0.077248
-0.068118997 0.17145 0.083039999
-0.068092003 0.17121001 0.083287001
-0.036720999 0.17991 0.078345999
-0.032442998 0.18125001 0.078772999
-0.033716999 0.18165 0.078400999
-0.032542001 0.18194 0.078657001
0.051931001 0.20630001 0.068060003
-0.067737997 0.17259 0.082627997
-0.067107998 0.17256001 0.082073003
-0.067456 0.17298999 0.083187997
-0.067041002 0.17338 0.082130998
0.052393999 0.20692 0.067304
-0.066739 0.17366 0.082910001
-0.032616999 0.18377 0.078065999
-0.033147998 0.18448 0.078400999
-0.032782 0.18413 0.078680001
-0.024803 0.18712001 0.077854998
-0.032272998 0.18537 0.079083003
-0.066547997 0.17588 0.084063001
-0.066834003 0.17648 0.083374999
-0.031716999 0.18624 0.078612
0.051571 0.20953 0.068305001
-0.065798998 0.17718001 0.082056999
-0.03153 0.18659 0.078525998
0.051185001 0.21054 0.068798997
-0.032175001 0.18808 0.078303002
0.051242001 0.21098 0.067916997
-0.023874 0.19018 0.076842003
-0.025272001 0.18968 0.077189997
0.050723001 0.21185 0.068069004
-0.031270999 0.18865 0.078350998
0.050237 0.21280999 0.067924
0.050567999 0.21268 0.068109997
-0.065009996 0.17976999 0.082593001
-0.064659998 0.18068001 0.08292
-0.031796001 0.18989 0.078587003
-0.025105 0.19205 0.077552997
-0.025736 0.19159999 0.078684002
-0.032381002 0.19091 0.078610003
-0.064152002 0.18139 0.082791999
-0.024772 0.19246 0.077453002
0.050023999 0.21368 0.068158999
-0.025211999 0.19324 0.078394003
-0.025195001 0.19238 0.077999003
-0.024196001 0.19385 0.077293001
-0.024654999 0.19382 0.077717997
-0.064273 0.18329 0.083021
-0.023115 0.19405 0.077009998
-0.0251 0.19434001 0.077551998
-0.031953 0.19223 0.078835003
-0.032306999 0.19111 0.078927003
0.049823999 0.215 0.069305003
0.050211001 0.21434 0.069053002
-0.063561 0.18425 0.083052002
0.049219999 0.21663 0.068617001
-0.032827001 0.19448 0.079172
-0.033045001 0.19336 0.079375997
-0.024080999 0.19594 0.077855997
-0.063221 0.18550999 0.083016999
-0.023533 0.19585 0.077578999
0.049291998 0.21694 0.068784997
-0.024224 0.19801 0.078059003
0.048698001 0.21758001 0.068763003
-0.062960997 0.18681 0.082866997
-0.03241 0.1952 0.078681
-0.076814003 0.18396001 0.084408998
-0.076502003 0.18324 0.084537998
-0.075663999 0.18379 0.084596001
-0.07474 0.18402 0.084186003
-0.074363999 0.18398 0.083855003
-0.073908001 0.1842 0.084454998
-0.032664999 0.19645999 0.079125002
0.046328999 0.21898 0.068689004
-0.078249 0.18411 0.084100999
-0.077248 0.18334 0.084885001
-0.073063001 0.18627 0.084209003
-0.062981002 0.18865 0.083254002
-0.032857999 0.1969 0.078910999
-0.023832999 0.19814999 0.077955998
-0.024195001 0.19904999 0.078217998
0.045710001 0.21895 0.069825999
-0.072470002 0.18596999 0.083517998
-0.033395998 0.19699 0.079387002
-0.078538001 0.18418001 0.084863998
-0.078746997 0.18517999 0.085252002
-0.072887003 0.18727 0.084109999
-0.062501997 0.18907 0.082396001
0.045625001 0.21976 0.069553003
-0.078605004 0.18592 0.084596999
-0.024192 0.20067 0.078238003
-0.023482 0.20175 0.077978
0.045683 0.22017001 0.068848997
-0.023909001 0.20252 0.077655002
-0.078244001 0.18700001 0.085133001
-0.023673 0.20272 0.078284003
0.044622 0.22141001 0.069670998
0.044270001 0.22118001 0.069500998
-0.079048 0.18732999 0.085648999
0.043085001 0.22215 0.069899
-0.069301002 0.18983001 0.083976001
-0.023157001 0.20325001 0.078097999
-0.021914 0.20423999 0.078069001
-0.068828002 0.19046 0.084144004
-0.022388 0.20369001 0.078518003
0.043242998 0.22227 0.069822997
-0.078983001 0.18874 0.08563
-0.02124 0.20498 0.077409998
0.042796001 0.22272 0.069576003
0.042868 0.22276001 0.070554003
0.042181 0.22311001 0.069902003
-0.078611001 0.19013999 0.085042998
-0.034428 0.20215 0.079828002
-0.034031998 0.20100001 0.079682998
-0.021204 0.20582999 0.077760004
0.042438 0.2235 0.070191003
-0.078244001 0.19146 0.084986001
-0.021089001 0.2071 0.077858001
0.042031001 0.2244 0.070142001
-0.035087001 0.20254 0.080394
0.041000001 0.22463 0.070424996
-0.020648999 0.20781 0.077496998
0.040856998 0.22476 0.069592997
-0.034921002 0.20370001 0.079764999
0.040793002 0.22519 0.070476003
0.039625 0.22486 0.070107996
-0.077740997 0.19284999 0.084587999
-0.034719002 0.20472001 0.079492003
-0.020215999 0.20926 0.078334004
0.038474999 0.22538 0.070321001
0.039744001 0.22522999 0.070830002
-0.078589 0.19187 0.085391
0.038205002 0.22570001 0.070566997
-0.020517001 0.20920999 0.078380004
-0.078919999 0.19386999 0.085409999
-0.079177998 0.19253001 0.085410997
-0.020234 0.20953999 0.078504004
-0.035009999 0.206 0.080036998
-0.019300001 0.21071 0.078244001
0.038830001 0.22567999 0.071153998
0.038215999 0.22678 0.070395999
-0.036022 0.20789 0.080810003
-0.019314 0.21180999 0.077711001
0.037039999 0.22772001 0.070465997
0.037893999 0.22791 0.071092002
-0.078405999 0.19587 0.085330002
-0.037078001 0.208 0.080402002
-0.036203999 0.20658 0.080242001
-0.019383 0.21197 0.078294002
-0.077702999 0.19644 0.084931999
-0.018429 0.21201999 0.078423999
0.035693999 0.22781999 0.071698003
0.035916001 0.22813 0.070772998
-0.018669 0.21267 0.077844001
-0.017893 0.21232 0.077619001
-0.016652999 0.21369 0.078008004
-0.016733 0.21430001 0.077288002
0.033061001 0.22832 0.071231999
0.034409001 0.22852001 0.071929
-0.016672 0.21531001 0.077807002
-0.072196998 0.20016 0.084477
-0.037413001 0.20974 0.080628
-0.016062999 0.21527 0.078229003
-0.015737001 0.21719 0.078065999
0.032878999 0.22939999 0.071162
0.033709001 0.22979 0.071659997
0.033443 0.23027 0.071500003
-0.071524002 0.20144001 0.084701002
-0.071740001 0.20058 0.084939003
-0.038084 0.20976 0.081049003
-0.037983 0.21077999 0.080697
-0.037815999 0.21118 0.080026001
-0.012162 0.21753 0.077317998
-0.012999 0.21687999 0.077558003
-0.079636998 0.19971 0.085577004
-0.078029998 0.1997 0.085768998
-0.071851999 0.20263 0.084563002
-0.015668999 0.21741 0.077572003
-0.01518 0.21795 0.077560998
-0.014741 0.21802001 0.077671997
-0.011344 0.21899 0.077546999
-0.010965 0.21805 0.078079
-0.081845999 0.19894999 0.086570002
-0.083345003 0.19904999 0.086290002
-0.080544002 0.19921 0.086001001
-0.076270998 0.20045 0.085661002
-0.075947002 0.20102 0.085506998
0.031472001 0.23097999 0.072040997
-0.075542003 0.20169 0.085942999
-0.038375001 0.21118 0.080325998
0.028405 0.23075999 0.072871998
0.029781001 0.23068 0.072028004
-0.073872998 0.20276 0.085470997
-0.039115001 0.21135999 0.080651999
0.028057 0.23101 0.072048999
-0.039623 0.21328001 0.080844
-0.010688 0.21994001 0.077251002
-0.010059 0.22107001 0.077165999
0.02757 0.23194 0.072048001
-0.084886 0.19975001 0.086750999
-0.085731 0.20003 0.086925
-0.086589999 0.19993 0.086765997
-0.0059663998 0.22361 0.077365004
-0.0073616998 0.22249 0.076899
0.026729001 0.23236001 0.072982997
0.026612001 0.23286 0.072384
-0.089336 0.19994 0.087397002
-0.0082745999 0.22306 0.077334002
-0.089644 0.20008001 0.087217003
-0.089754999 0.20091 0.087278999
-0.040955 0.21509001 0.080922
-0.039964002 0.2138 0.081655003
-0.0058951001 0.22357 0.076420002
0.025348 0.23271 0.073048003
0.025181999 0.2323 0.073472999
0.025847999 0.23243 0.072388001
-0.089004003 0.20219 0.086929001
-0.0052407999 0.2243 0.076724999
0.021482 0.23145001 0.073324002
-0.089378998 0.20175999 0.087251998
-0.0049139 0.22481 0.076508999
-0.040463001 0.2156 0.080849998
-0.0017934 0.22653 0.076540001
-0.0018113001 0.22531 0.076118998
-0.0016444999 0.22644 0.076137997
-0.00098252995 0.22574 0.076604001
0.00022608 0.22641 0.07626
0.020914 0.23225001 0.073585004
-0.041042998 0.21602 0.081272997
2.1862999e-05 0.22731 0.075873002
0.012898 0.23055001 0.074268997
0.013798 0.23123001 0.074421003
0.019959001 0.23274 0.074056
-0.0043520001 0.22606 0.076532997
-0.0030904 0.22679 0.076623
-0.0022779 0.22702 0.076036997
0.0013727 0.22713 0.075328998
0.0052308999 0.22876 0.075668
0.0046001002 0.22874001 0.07559
0.0048044999 0.22927999 0.076223001
0.0057358001 0.22852001 0.074991003
0.012525 0.23071 0.074383996
0.016329 0.23193 0.073881
0.01519 0.23113 0.074474998
0.020029999 0.23243 0.073792003
-0.0029316 0.22693001 0.076614998
0.0016385 0.22788 0.075924002
0.01198 0.23062 0.074729003
-0.086480998 0.20434999 0.086231999
0.0020361 0.22911 0.076394998
-0.085423 0.20528001 0.086204998
-0.041549001 0.21683 0.081078999
0.0031429001 0.22934 0.075896002
0.0039142999 0.22926 0.075640999
0.0092831003 0.23094 0.075153001
0.010334 0.23143999 0.075070001
0.012033 0.23153 0.074864998
0.011012 0.23154999 0.074551001
-0.041264001 0.21665999 0.081724003
-0.085276999 0.20578 0.086850002
-0.042408001 0.21766999 0.081846997
-0.042920001 0.21845999 0.081292003
-0.041859999 0.21813001 0.081427999
-0.085236996 0.20756 0.086742997
-0.043403 0.21954 0.082050003
-0.044245001 0.21999 0.081754997
-0.084436998 0.20997 0.087816998
-0.084048003 0.21084 0.086662002
-0.084284 0.21026 0.087228
-0.044805001 0.2199 0.082924001
-0.045123 0.22131 0.083269
-0.043986998 0.22138 0.082547002
-0.043669999 0.22201 0.082102999
-0.044985998 0.22248 0.082268998
-0.085179999 0.21190999 0.087089002
-0.046248998 0.22272 0.082266003
-0.046596002 0.22312 0.082742997
-0.046792001 0.22323 0.082542002
-0.04772 0.2238 0.082512997
-0.087739997 0.21253 0.087709002
-0.087724999 0.21268 0.087318003
-0.089212 0.21352001 0.087849997
-0.088592 0.21249001 0.087543003
-0.089854002 0.21366 0.087945998
-0.090125002 0.21371 0.087926999
-0.049453001 0.22516 0.08281
-0.090051003 0.21488 0.087866999
-0.050074998 0.22567999 0.082998998
-0.051199999 0.22566 0.083383001
-0.089882001 0.21531001 0.087936997
-0.088941 0.21611001 0.087921999
-0.087995999 0.21678001 0.087876
-0.05139 0.22624999 0.083457999
-0.086565003 0.21747001 0.087142996
-0.087062001 0.21776 0.088120997
-0.051943999 0.2269 0.083378002
-0.083488002 0.21931 0.086948998
-0.085167997 0.21841 0.087347999
-0.083136998 0.21935999 0.087449998
-0.051493999 0.22837 0.08309
-0.081389003 0.22150999 0.086888
-0.082422003 0.22060999 0.087511003
-0.04961 0.23079 0.083668999
-0.080410004 0.22226 0.087118998
-0.078911997 0.22289 0.086846001
-0.078112997 0.22328 0.086345002
-0.078055002 0.22317 0.086906999
-0.048819002 0.23131 0.083472997
-0.049088001 0.23218 0.083180003
-0.074221998 0.22463 0.086562
-0.047949001 0.23273 0.082621001
-0.069293 0.22663 0.085762002
-0.047657002 0.23284 0.083673999
-0.047347002 0.23342 0.082818002
-0.066871002 0.22842 0.085284002
-0.066992 0.22848 0.085146002
-0.066827998 0.23016 0.085528001
-0.045676999 0.23582 0.082841001
-0.066477999 0.23081 0.085638002
-0.044957001 0.23718999 0.083388001
-0.066257 0.23147 0.085577004
-0.044675 0.23882 0.082920998
-0.043830998 0.23858 0.082800001
-0.066688001 0.23221 0.085667998
-0.065738998 0.23345999 0.085937999
-0.066937 0.23185 0.086525999
-0.055865999 0.23693 0.084512003
-0.055691 0.23759 0.085345998
-0.053257 0.23819 0.083572999
-0.052299999 0.23812 0.084135003
-0.046556 0.23996 0.082842998
-0.051141001 0.23853 0.084068
-0.050478 0.23882 0.084013
-0.049943998 0.23929 0.084192
-0.048838001 0.23949 0.083544999
-0.046709999 0.2396 0.082998998
-0.065390997 0.23562001 0.085817002
-0.066157997 0.23548999 0.085575998
-0.058609001 0.23756 0.085505001
-0.047800999 0.23953 0.083088003
-0.059133001 0.23814 0.085107997
-0.065640002 0.23638 0.086268
-0.065398 0.23689 0.086410001
-0.065475002 0.23557 0.086161003
-0.059149999 0.23919 0.084679998
-0.065996997 0.23803 0.085993998
-0.065545 0.23785999 0.08602
-0.060070999 0.23999999 0.084706999
