# .PCD v0.7 - Point Cloud Data file format
VERSION 0.7
FIELDS x y z
SIZE 4 4 4
TYPE F F F
COUNT 1 1 1
WIDTH 1534
HEIGHT 1
VIEWPOINT 0 0 0 1 0 0 0
POINTS 1534
DATA ascii
0.011299 0.032393001 0.066212997
0.090852998 0.1144 0.10628
0.091127001 0.1169 0.10617
0.092364997 0.11491 0.10643
0.084431 0.12183 0.094085
0.068813004 0.15360001 0.042821001
0.069629997 0.15360001 0.042300001
0.050941002 0.071231999 0.072429001
0.050771002 0.071445003 0.071388997
0.047834001 0.071359001 0.074305996
0.028264999 0.067199998 0.066508003
0.022565 0.051798001 0.041769002
0.023917999 0.051091 0.042509001
0.023809001 0.050179001 0.041751999
0.079562001 0.12578 0.039528001
0.078932002 0.1248 0.040167
0.060550999 0.11993 0.037184998
0.078443997 0.16084 0.087585002
0.064021997 0.12301 0.092835002
-0.00048844999 0.074286997 0.014951
0.036019001 0.20209999 0.086135
0.034508001 0.20429 0.085251004
0.097317003 0.10839 0.1103
0.050071999 0.078273997 0.049601998
0.050418001 0.076843999 0.051481001
0.059502002 0.13239001 0.084280998
0.089815997 0.12571 0.08969
0.045237999 0.093248002 0.07141
0.091023996 0.095996998 0.12069
0.091771998 0.096418001 0.11901
0.10179 0.12846 0.060846001
0.10176 0.12903 0.059068002
0.103 0.12997 0.058724001
0.071667001 0.12422 0.093117997
0.071813002 0.12522 0.092262
0.018209999 0.12805 0.045327
0.018495999 0.12785999 0.044739
0.077238001 0.11213 0.046041999
0.079121999 0.11325 0.045382001
0.0052054999 0.099372 0.016837999
0.049548998 0.13005 0.075041004
0.046971999 0.1276 0.076350003
0.016511999 0.12616 0.046142999
0.014536 0.1256 0.046466
0.015662 0.039158002 0.03988
0.015536 0.037921999 0.04163
0.056216002 0.13947999 0.096495003
0.076736003 0.16367 0.093757004
0.076931 0.16316 0.094875
0.052085999 0.084527999 0.047821999
0.015033 0.032947998 0.064230002
0.077377997 0.15085 0.10653
0.078497998 0.15068001 0.10595
0.049136002 0.15042 0.069692001
0.049107999 0.14940999 0.068914004
0.063023999 0.094501004 0.058481999
0.062711 0.092568003 0.060311999
0.063481003 0.091861002 0.058754999
-0.00088357 0.10474 0.022186
-0.0021956 0.10459 0.023228999
-0.0018835 0.10404 0.023334
0.096212 0.15267 0.051341001
0.035300002 0.11244 0.066816002
0.041931 0.10092 0.065922998
0.041312002 0.098779 0.066119999
0.079866998 0.10899 0.049180001
0.032586001 0.11656 0.058510002
0.031122999 0.065251 0.048441999
0.032017 0.064833 0.047708999
0.048195999 0.1728 0.069773003
0.049345002 0.17387 0.067507997
0.093023002 0.15347999 0.11621
0.093088999 0.15408 0.11436
0.079669997 0.10284 0.10059
0.081067003 0.10101 0.099606998
0.092382997 0.13011999 0.090568997
0.092189997 0.12972 0.090086997
0.072527997 0.15993001 0.052304
0.071874999 0.1622 0.052588001
0.087113 0.098297 0.12456
0.084475003 0.098885 0.12437
0.085947998 0.098831996 0.12278
0.011697 0.093128003 0.021929
0.012188 0.092800997 0.023821
0.01159 0.092132002 0.024106
0.059620999 0.091913 0.065775998
0.088858999 0.11344 0.053748
0.089638002 0.11287 0.054290999
0.089574002 0.1143 0.052398998
0.012616 0.11678 0.050432999
0.011121 0.11344 0.030262001
0.014375 0.1134 0.029998999
0.090253003 0.11587 0.10821
0.029485 0.067048997 0.048863001
0.1009 0.14764 0.053137001
0.10163 0.14517 0.052510001
0.038447998 0.16947 0.054101001
0.037496001 0.16891 0.054544002
0.054501001 0.098982997 0.069224998
0.10323 0.14124 0.054023001
0.10305 0.13984001 0.054148
0.045981001 0.072811 0.076375999
0.090501003 0.15900999 0.085538998
0.089878 0.1595 0.085005
0.089959003 0.1585 0.085499004
0.058354001 0.14685 0.046489
0.058113001 0.14617001 0.047249999
0.0049421 0.10137 0.038996
0.097749002 0.14949 0.082445003
0.062465001 0.10753 0.072425999
0.062927999 0.10668 0.073109001
0.061494999 0.16328 0.060784001
0.060871001 0.16493 0.060098998
0.058024 0.14024 0.10682
0.026566001 0.11592 0.054646999
0.024298999 0.11633 0.054531999
0.096285999 0.14060999 0.045752998
0.092336997 0.11699 0.12129
0.091063999 0.11433 0.078855
0.1027 0.13719 0.052538
0.016518001 0.048989002 0.055174999
0.048822999 0.14108001 0.053172
0.024906 0.068976 0.053826999
0.070431001 0.12132 0.092110999
-0.011955 0.092148997 0.019162999
0.10372 0.14771999 0.059464
0.10291 0.14820001 0.059434
0.036219999 0.18299 0.073633
0.035193 0.18392999 0.075023003
0.048537001 0.15255 0.049568001
0.047028001 0.15295 0.04919
0.09014 0.11732 0.1248
0.091215 0.11748 0.12395
0.084746003 0.11537 0.13139001
0.085248999 0.1151 0.13084
0.084360003 0.11572 0.13051
0.084197 0.11798 0.11532
0.084518 0.11877 0.11502
-0.022015 0.087802 0.024133001
-0.021491 0.086938001 0.024766
0.055032998 0.14731 0.091665
0.044980001 0.15165 0.061019
0.099671997 0.13932 0.050046999
0.099402003 0.13862 0.050232999
0.085956 0.15375 0.097866997
0.084872998 0.15284 0.097277999
0.061393999 0.1582 0.1015
0.061337002 0.15987 0.10003
0.045379002 0.15806 0.064662002
0.093828 0.1155 0.13277
0.043412998 0.097364999 0.047772001
0.042215999 0.099114999 0.047837999
0.054001 0.14192 0.10493
0.056293 0.14139 0.10801
0.0049224002 0.10025 0.039887
0.0028136999 0.099250004 0.039666999
0.0056273001 0.098448001 0.039535999
0.049996 0.12995 0.041942
0.095512003 0.15836 0.068350002
0.096902996 0.15803 0.066913001
0.046714999 0.19325 0.061450001
0.047692999 0.19230001 0.062714003
0.031705 0.18962 0.072099
0.086815998 0.10916 0.069481999
0.05565 0.16693 0.051968999
0.028957 0.053195 0.044227999
0.059987001 0.14723 0.084891997
0.030850001 0.067886002 0.068654001
0.030188 0.068383999 0.069154002
0.031603001 0.067569003 0.069445997
0.080215998 0.11076 0.049447998
0.033016998 0.11334 0.059429001
0.091338001 0.11853 0.094499998
-0.0082347002 0.081072003 0.024522001
-0.0088243997 0.080585003 0.025798
0.071957 0.16948999 0.088696003
0.042541999 0.085965 0.048909999
0.086073004 0.10035 0.1068
0.077804998 0.15553001 0.10129
0.077064 0.15571 0.10133
0.049837001 0.19154 0.075167
0.050225001 0.19230001 0.074015997
0.065913998 0.12333 0.040036999
0.066413999 0.12531 0.039937001
0.066265002 0.12415 0.038144
0.048730999 0.096212 0.028543999
0.048252001 0.096873 0.029991999
0.048064001 0.094677001 0.029671
0.0078661004 0.10773 0.022213001
0.0078464998 0.10947 0.022399001
-0.0052338 0.10446 0.026262
-0.0055048 0.10374 0.026834
0.040015999 0.077610001 0.052044999
0.014715 0.040746 0.036796
0.016039999 0.040564001 0.037779
0.013723 0.040091 0.037617002
0.045106001 0.19709 0.068759002
0.048911002 0.11889 0.077063002
0.047899999 0.11828 0.076426998
0.017153 0.028914999 0.064429998
0.070575997 0.11485 0.087030999
0.068907 0.11463 0.087044999
0.068742 0.11451 0.08681
0.047938999 0.080642998 0.010172
0.084890999 0.11485 0.12909999
0.084140003 0.11443 0.12931
0.041273002 0.18341 0.073345996
0.042383999 0.18367 0.073224999
-0.0012064 0.10333 0.037494998
0.063359998 0.16218001 0.074818999
0.044034999 0.085308999 0.073850997
0.051348999 0.1195 0.076854996
0.051732 0.11793 0.077904001
0.081151001 0.11838 0.14696001
0.074725002 0.1464 0.10735
0.074014999 0.14768 0.10662
0.038321 0.12417 0.0385
0.039117001 0.12444 0.038915999
0.048198 0.14993 0.052650001
0.047047999 0.15096 0.054584999
0.045995001 0.15188999 0.052166998
0.012927 0.031794999 0.067406997
-0.0026501999 0.097681999 0.015776999
0.046440002 0.14762001 0.068527997
0.06893 0.10203 0.053038001
0.068741001 0.10271 0.054032002
0.034625001 0.19281 0.064875998
0.033149 0.1911 0.064365
0.061152998 0.14372 0.041976999
0.061138999 0.14399999 0.041701999
0.060942002 0.14386 0.040718
0.068433002 0.15778001 0.048672002
0.014516 0.11646 0.029165
0.014387 0.11779 0.030370999
0.057301998 0.14159 0.10827
0.089020997 0.10793 0.13937999
0.088693 0.10707 0.13974001
0.070648 0.11073 0.082083002
0.070955001 0.11512 0.089699
0.032421999 0.18944 0.069197997
0.031288002 0.18900999 0.069050997
-0.011484 0.080031 0.018507
0.057994999 0.13597 0.040757
0.045575999 0.11251 0.033980001
0.077091001 0.14864001 0.041292999
0.00080066 0.093659997 0.01389
0.00016267 0.092872001 0.013057
-0.0041053998 0.098926 0.034294002
0.074823998 0.1062 0.14184999
0.075934999 0.106 0.14014
0.074712001 0.13959 0.1019
0.076081999 0.13867 0.10023
0.0098734004 0.1119 0.028937001
0.090426996 0.12602 0.13963
0.091684997 0.12621 0.13861001
0.090256996 0.12623 0.13935
0.0024277 0.084091999 0.027186001
0.040043 0.10195 0.050087001
0.041850999 0.10247 0.049993999
-0.0053297002 0.074639998 0.0133
-0.0053801001 0.073821999 0.013406
-0.0049625002 0.074240997 0.014301
0.057392001 0.10822 0.037597001
0.00028345 0.076577999 0.014442
6.0277001e-05 0.076181002 0.014428
0.093765996 0.11647 0.052503001
0.084830001 0.11559 0.13286
0.099071003 0.12226 0.064528003
0.10075 0.12144 0.064735003
0.10136 0.12302 0.064755999
-0.010499 0.079916 0.012795
-0.0094715003 0.080518 0.011048
0.082855999 0.15862 0.095642
0.060552001 0.1121 0.080765001
0.01701 0.041531999 0.037944
0.01805 0.042114999 0.038789999
0.017262001 0.041703999 0.038252998
0.087577 0.13508999 0.091067001
0.086475998 0.13458 0.091692001
0.034635 0.20305 0.085593
0.043193001 0.091845997 0.04944
0.060029 0.10073 0.042034999
0.094532996 0.12473 0.047802001
0.092235997 0.10365 0.12681
0.048659001 0.20146 0.082574002
0.049756002 0.20087001 0.081069
0.044879001 0.064331003 0.059783
0.044587001 0.064010002 0.061584
0.045644999 0.14448 0.071131997
0.045132 0.14407 0.071226999
0.10235 0.12735 0.070345998
0.1008 0.12474 0.071056001
0.079741001 0.10841 0.13384999
0.078762002 0.1088 0.13341001
0.038600001 0.11881 0.034759
0.040277001 0.11901 0.035227001
0.033151999 0.19487 0.072099999
0.033528998 0.19614001 0.070803002
0.012568 0.11221 0.028026
0.01198 0.11078 0.027667999
0.089964002 0.10369 0.090403996
0.082465 0.16427 0.075886004
0.081876002 0.16434 0.074524999
0.015194 0.10362 0.029139001
0.026310001 0.059464 0.066036001
0.026687 0.059693001 0.066426001
0.019417999 0.039554 0.059935
0.021141 0.038199 0.060936999
0.052524999 0.17037 0.056726001
0.092417002 0.15484001 0.049346
0.093272999 0.15615 0.050755002
0.060384002 0.1547 0.10469
0.061292 0.15324999 0.10378
0.060394999 0.15399 0.10347
0.050484002 0.11651 0.036311001
0.088545002 0.14822 0.111
0.088569 0.14914 0.1097
-0.021795999 0.086888 0.036102001
-0.022946 0.086863004 0.035714
0.069127001 0.16192 0.099200003
0.069351003 0.16069999 0.098771997
0.022305001 0.1073 0.048319001
0.022222999 0.10809 0.050696999
0.021606 0.10842 0.049281001
0.036308002 0.053608 0.063045003
0.036293 0.053946 0.061081
0.036621999 0.05302 0.061349999
0.032398999 0.19784001 0.075147003
0.041792002 0.057038002 0.060791999
0.047486998 0.16948 0.066132002
0.048195999 0.17159 0.064824
0.020307999 0.10625 0.046305999
0.081482001 0.13713001 0.037464999
0.081099004 0.13858999 0.037760001
0.010928 0.046705998 0.062592998
0.035723999 0.087384 0.067120999
0.043742001 0.094622999 0.047995999
0.054552 0.14435001 0.091332003
0.085244998 0.10911 0.055760998
0.083222002 0.10874 0.056457002
0.093663998 0.10831 0.086916
0.087431997 0.10308 0.084141001
0.085207999 0.10206 0.083062999
-0.0052489 0.098396003 0.019809
-0.0030330999 0.0995 0.018776
0.01588 0.032545 0.068412997
0.015721001 0.033813 0.070302002
0.0099254996 0.11695 0.031592
0.052122999 0.12503 0.084766001
0.054273002 0.12568 0.082869999
0.093249001 0.13361999 0.089548998
0.098238997 0.15261 0.081288002
0.097231999 0.15132 0.080580004
0.062629998 0.093569003 0.056221999
0.062445 0.092931002 0.055776
-0.01541 0.087397002 0.032798
0.065274 0.097548001 0.059604
0.064306997 0.097979002 0.061441001
0.10112 0.14963999 0.05556
0.050905 0.081169002 0.074068002
0.052120999 0.080508001 0.073555
0.091310002 0.13514 0.041345999
0.033470999 0.068313003 0.052457001
0.0073568998 0.036074001 0.065720998
0.0077449 0.037776999 0.066395998
0.044594001 0.097580999 0.041264001
0.045678001 0.097377002 0.040906001
0.072996996 0.11104 0.090640999
0.090798996 0.10512 0.12811001
0.045857001 0.14184999 0.074348003
0.045508999 0.14179 0.074633002
0.045005001 0.087534003 0.027355
0.044243999 0.08822 0.026585
0.032609001 0.070890002 0.068686999
0.011064 0.090779997 0.028111
0.010758 0.089867003 0.026180999
0.012666 0.090990998 0.027075
0.096969999 0.11604 0.071739003
0.097310998 0.15612 0.071726002
0.097515002 0.15662999 0.069816999
0.096956998 0.15617 0.071547002
0.017803 0.048308998 0.039009999
0.025002999 0.10834 0.05037
0.026308 0.10844 0.047947999
0.026017999 0.10684 0.050588001
0.031367999 0.1238 0.031707
0.031668998 0.12252 0.031955998
0.064438999 0.11635 0.039122
0.064222001 0.11416 0.039840002
0.082924999 0.14726 0.10195
0.0058610998 0.098631002 0.039409
0.0064078998 0.097263001 0.039156001
0.061232001 0.083044 0.065848
0.060334001 0.082257003 0.065847002
-0.0053923 0.095738001 0.015743
0.088919997 0.11656 0.1092
0.090126999 0.11719 0.11053
0.08946 0.1166 0.1099
0.072267003 0.14380001 0.036927
-0.0043984 0.081745997 0.012139
-0.0043180999 0.081073001 0.011357
0.053204 0.099676996 0.038327999
0.053015001 0.10273 0.069792002
0.052274998 0.10312 0.070179
0.047116999 0.11063 0.071598999
0.045846 0.10982 0.07068
0.047897 0.11018 0.070671
0.063161999 0.13801 0.098943003
0.0099710999 0.091241002 0.034456
0.0083419997 0.091311 0.033801001
0.010335 0.089624003 0.034554001
0.014777 0.098728001 0.032597002
0.013617 0.098595001 0.034127001
0.053746998 0.1129 0.035115998
0.084826998 0.14941999 0.10758
0.059319999 0.099123001 0.067964002
0.058888 0.099313997 0.068285003
0.060213 0.099296004 0.068017997
0.054883 0.15069 0.10996
0.054416001 0.15244 0.1071
0.024320001 0.1247 0.051654
0.024638999 0.12517001 0.050236002
0.02272 0.12508 0.051865999
0.046186998 0.1507 0.11336
0.045873001 0.14749999 0.11376
0.0011482 0.086313002 0.02895
0.082828 0.16177 0.053737
0.092413999 0.12843999 0.090290003
0.091663003 0.12806 0.090015002
0.042158999 0.12943999 0.05931
0.042082001 0.12952 0.057808999
0.047995999 0.20130999 0.094056003
0.046999 0.20187999 0.092804998
0.047665998 0.20218 0.093341999
0.088766001 0.11708 0.14300001
0.0889 0.11726 0.14304
0.051553998 0.16673 0.048643999
0.046815 0.15124001 0.061707001
0.047628 0.1512 0.059234001
0.078886002 0.16464999 0.079674996
0.049814999 0.18422 0.058235001
0.048987001 0.18355 0.057755001
0.077683002 0.10717 0.12312
0.043942001 0.12903 0.069458
0.044206001 0.12768 0.070123002
0.044551 0.12736 0.070347004
0.070543997 0.15046 0.042066
0.069867 0.15087 0.043232001
-0.023976 0.091045998 0.036943
0.042287 0.078438997 0.075586997
0.015052 0.10525 0.042654
0.078835003 0.10658 0.057666
0.079700001 0.10683 0.058177002
0.040187001 0.093129002 0.067027003
0.080848999 0.11378 0.14698
0.054910999 0.16109 0.066574998
0.052887999 0.1617 0.066850998
0.072848998 0.14171 0.10435
0.065056004 0.097246997 0.055920999
0.053989001 0.076443002 0.052285001
0.052111 0.15494999 0.046440002
0.0080596004 0.043974001 0.054903999
0.0067110001 0.043894999 0.055410001
0.050912999 0.15064999 0.11389
0.049625002 0.15001 0.11447
0.063084997 0.1258 0.03743
0.062123999 0.12653001 0.036304999
0.062757 0.12507001 0.03785
0.074577004 0.15313999 0.10466
0.063647002 0.12034 0.036281001
0.063684002 0.12263 0.036472
0.088114999 0.13068999 0.092147
0.079306997 0.10279 0.10485
0.088035002 0.11195 0.14281
0.086398996 0.11147 0.14230999
0.042525001 0.097361997 0.029075
0.04259 0.097070001 0.029678
0.042084999 0.096455999 0.029557999
0.043110002 0.19287001 0.060770001
0.021444 0.032272 0.055893
0.022275999 0.032095999 0.058272
0.020656001 0.030610999 0.057918001
0.091949999 0.1591 0.053401001
0.092734002 0.1586 0.054612
0.031831 0.20411 0.085575998
0.033652999 0.20229 0.086001001
0.030957 0.20190001 0.084262997
0.091467999 0.12092 0.13597
0.092127003 0.1213 0.13732
0.092008002 0.12122 0.13675
0.065536998 0.12668 0.092111997
0.021503 0.105 0.043561
0.021566 0.10549 0.044013999
0.050035998 0.083384998 0.010109
0.088000998 0.14445999 0.091564998
0.088766001 0.14377999 0.091536
0.091279998 0.10768 0.086139001
0.093432002 0.1083 0.086750999
0.032538 0.17474 0.068534002
0.070404001 0.14677 0.10566
0.065249003 0.11663 0.090981998
0.065025002 0.11663 0.089657001
0.064873002 0.11747 0.089833997
0.0091233999 0.045798 0.045651
0.013342 0.050168 0.050395001
0.012056 0.049309999 0.0515
0.0063848998 0.086052001 0.016805001
0.053711999 0.11358 0.034898002
0.052444998 0.11242 0.035298999
0.052377 0.11451 0.036814
0.066352002 0.11978 0.037756
0.063253 0.11865 0.037843
0.042659 0.099964999 0.046571001
0.043189 0.099737003 0.048032999
0.042502001 0.099335 0.048824999
0.048834 0.14561 0.10036
0.065771997 0.13911 0.10079
0.012399 0.11496 0.050088
0.013017 0.11651 0.051277
0.058727998 0.15531 0.088799
0.058915 0.15346 0.089740999
0.024759 0.11329 0.054221001
0.020801 0.12419 0.030574
0.069490001 0.15273 0.042004
0.036254998 0.11811 0.063187003
0.037064999 0.11832 0.063463002
0.040607002 0.087869003 0.049439002
0.052652001 0.081382997 0.048849002
0.051853001 0.082552999 0.048377998
-0.025509 0.094453998 0.023456
-0.025694 0.093217999 0.022694999
-0.025171001 0.094029002 0.022309
0.010102 0.096166998 0.018536
0.027579 0.10818 0.048415001
0.027105 0.10568 0.049173001
0.079931997 0.12502 0.041710999
0.062712997 0.15283 0.082950003
0.062725998 0.15276 0.083274998
0.064049996 0.15422 0.083526
-0.016121 0.080976002 0.031207999
0.057434998 0.13434 0.040665001
0.056979999 0.13541 0.042312
0.016262 0.10252 0.039453998
0.017007001 0.10312 0.040001001
0.048594002 0.15338001 0.10565
0.047398001 0.15252 0.10318
0.047747001 0.1525 0.10374
0.036798999 0.1132 0.067556001
-0.011182 0.076618999 0.023163
-0.010311 0.076599002 0.021438001
0.094094999 0.15735 0.079003997
0.093814 0.15838 0.080063999
-0.02966 0.095729999 0.029445
0.080870003 0.11024 0.1476
0.081398003 0.11086 0.1462
0.080504 0.11209 0.14791
0.010541 0.032713 0.073178001
0.011306 0.032618999 0.072699003
0.092051998 0.11193 0.083659999
0.035053998 0.073895998 0.057482
0.035799999 0.074684002 0.055819999
0.03692 0.073618002 0.056377999
0.0385 0.18295 0.052182999
0.055684 0.13456 0.041581001
0.055259999 0.13406999 0.041710999
0.080767997 0.11559 0.10237
0.079333998 0.11487 0.1029
0.043579001 0.17441 0.053847
0.098811999 0.11976 0.070442997
0.098338999 0.11906 0.070073001
0.087098002 0.15229 0.044117
0.085106999 0.1521 0.044349
0.086685002 0.15428001 0.045244999
0.10532 0.14262 0.071730003
0.10426 0.14235 0.070753001
0.082869001 0.12683 0.040181
0.082777001 0.12628999 0.040408
0.082433 0.12627999 0.039365999
-0.0086045004 0.074905999 0.020874999
-0.0092275999 0.075001001 0.019675
-0.0084964 0.075566001 0.024
-0.0087166997 0.074340001 0.021912999
-0.0080904001 0.073558003 0.022317
0.038380999 0.10155 0.051518999
0.038481001 0.10247 0.051123001
0.039471999 0.10213 0.050806999
0.060901999 0.15085 0.086631998
0.071799003 0.17483 0.095124997
0.035599999 0.18729 0.055321001
0.03627 0.18723001 0.054703999
0.092831999 0.098742999 0.11894
0.090411 0.11244 0.072474003
0.091994002 0.11367 0.071318001
0.090521999 0.11159 0.072844997
0.056816999 0.099468999 0.042397998
0.0098756999 0.046353001 0.047516
0.059308 0.099054001 0.067708999
0.057975002 0.099356003 0.068010002
0.029235 0.12898999 0.043198999
0.029764 0.13022999 0.042528
0.029099001 0.12933999 0.041813001
0.089677997 0.11975 0.092125997
0.094253004 0.11546 0.13902
0.094333999 0.11534 0.1382
0.094292998 0.11717 0.13926999
0.077467002 0.16051 0.049587
0.077588998 0.15971 0.049077999
0.072026998 0.16353001 0.088260002
0.071419001 0.1646 0.088970996
0.022647999 0.069156997 0.056581002
0.022265 0.068885997 0.054140002
0.02647 0.069131002 0.062912002
0.040180001 0.092422001 0.069155999
0.10024 0.12364 0.062725998
0.10139 0.12242 0.06185
0.10144 0.12301 0.062431
0.046962999 0.16305999 0.048735999
0.046108 0.16438 0.048473999
0.032331001 0.057333998 0.068820998
0.066431999 0.12216 0.037466999
0.075556003 0.11905 0.042342
0.012638 0.10313 0.021069
0.012425 0.10371 0.021904999
0.088771001 0.12016 0.12269
0.064528003 0.12804 0.090520002
0.064981997 0.12825 0.090025
0.049787 0.084109001 0.019353
0.038385998 0.16737001 0.055
0.083632998 0.11961 0.11451
0.0053905998 0.040993001 0.057379998
0.0067814998 0.042247999 0.057287
0.0059810998 0.040500998 0.057645999
0.051796 0.14074001 0.10912
0.051895998 0.14189 0.10835
0.065924004 0.16237999 0.095103003
0.064769 0.16103999 0.094755001
0.093056999 0.15617999 0.11368
0.093631998 0.15307 0.11253
0.083108 0.16252001 0.068581
-0.0043143998 0.092901997 0.027981
-0.0075631998 0.093319997 0.026969999
0.045832999 0.15139 0.056997001
0.046271998 0.1521 0.055638999
0.080822997 0.15696 0.10824
0.080458999 0.15523 0.10917
0.082914002 0.15717 0.10849
0.089187004 0.16325 0.064033002
0.086883999 0.16407999 0.063089997
0.028216001 0.11558 0.054981999
0.092726 0.10912 0.12839
0.077225998 0.11206 0.1085
0.059163 0.10562 0.069975004
0.060798999 0.10585 0.040169999
0.031658001 0.12982 0.042824998
0.033509001 0.18345 0.075345002
0.088642001 0.099491 0.1092
0.068651997 0.16903999 0.10078
0.090735003 0.12202 0.087058
0.044374 0.13413 0.060926002
0.043683 0.13412 0.059767999
0.035287999 0.11593 0.061907001
0.034917999 0.11567 0.060564
0.056129001 0.14253999 0.045781001
0.055337999 0.14318 0.044351999
0.056451 0.14298999 0.044468999
0.076833002 0.16145 0.094169997
0.061239 0.088656001 0.064176001
0.049178999 0.15301999 0.10136
0.046349999 0.11356 0.035677001
0.063134998 0.10101 0.045968
0.087222002 0.10964 0.069741003
0.086793996 0.1102 0.070928
0.086291 0.11009 0.070012003
0.070142001 0.16339999 0.098035999
0.071884997 0.16252001 0.098048002
0.072443001 0.16289 0.097023003
0.013207 0.10598 0.024705
0.030725 0.12801 0.038802002
0.050259002 0.15995 0.046491999
0.051176999 0.15763 0.045922998
0.049927998 0.15937001 0.046425998
0.094379 0.15512 0.054072998
-0.010624 0.080669001 0.012605
-0.010512 0.08083 0.011684
-0.0015229 0.098972 0.036954001
0.098531 0.12894 0.079866998
0.086314 0.10268 0.085501
0.084472001 0.10379 0.085215002
0.099073 0.12718999 0.04964
0.079654001 0.11419 0.10393
0.080586001 0.11354 0.10492
0.040817998 0.18325999 0.073250003
0.040309999 0.18165 0.073537998
0.041591 0.18358 0.072996996
0.02115 0.050675001 0.058759
0.020181 0.056655001 0.043582
0.088215999 0.12953 0.040336002
0.058488999 0.12949 0.087353997
0.059969001 0.13042 0.087610997
0.059765998 0.12992001 0.087739997
0.077105001 0.16859999 0.094632998
0.10061 0.12549999 0.079076998
0.030337 0.063363999 0.070439003
0.031553999 0.063534997 0.070068002
0.051247999 0.14031 0.097177997
0.076559 0.13117 0.097797997
0.076350003 0.13226999 0.097055003
0.090783 0.11133 0.081271
0.059323002 0.16133 0.074111998
0.058424 0.15998 0.075558998
0.063828997 0.15700001 0.10227
0.051855002 0.080798998 0.049911
0.083555996 0.13407999 0.037829999
0.082523003 0.13557 0.036793001
0.082140997 0.13395999 0.037512001
0.072185002 0.10802 0.071828
0.088279001 0.15699001 0.11618
0.044610001 0.10392 0.068448
0.046009999 0.10341 0.070756003
0.078883998 0.11333 0.10633
0.083157003 0.10712 0.062669002
0.097516999 0.11098 0.11718
0.082268 0.13005 0.094585001
0.082339004 0.12977999 0.094489001
0.035195 0.16971999 0.06061
0.066765003 0.16391 0.059551001
0.078224003 0.12209 0.093671001
0.078690998 0.12096 0.094387002
-0.0067572002 0.072962999 0.020249
0.097938001 0.13151 0.082248002
0.044612002 0.13041 0.066102996
-0.01435 0.090504996 0.029650999
-0.01417 0.091214001 0.029972
0.040318001 0.10253 0.067547001
0.079267003 0.098903999 0.11579
0.078744002 0.099854 0.11424
0.080461003 0.099705003 0.11553
0.081937 0.11368 0.12249
0.082587004 0.1139 0.12246
0.083442003 0.11481 0.12412
0.062438 0.083795004 0.057863999
0.056387 0.077101 0.053314
0.055732999 0.076820999 0.054547999
0.048215002 0.19207001 0.063847996
0.10537 0.13888 0.063940004
0.050214998 0.095376998 0.035222001
0.056945 0.14572001 0.088377997
0.092292003 0.15685 0.11487
0.092358001 0.15616 0.11471
0.065866001 0.11842 0.038867
0.065137997 0.16389 0.055794999
0.067102 0.16289 0.056279998
0.038005002 0.1027 0.040821999
0.037530001 0.10445 0.040863
0.084089004 0.11573 0.14561
0.071438998 0.10861 0.068813004
0.082598001 0.11189 0.12809999
0.027432 0.060394999 0.046783
0.027790001 0.059498999 0.043997001
0.085207999 0.15606999 0.094171003
0.086668 0.15638 0.094365001
0.085270002 0.15798999 0.092703998
0.052198999 0.18621001 0.068244003
0.083544001 0.098614 0.098118998
0.041335002 0.064318001 0.054912999
0.028839 0.069136001 0.054056998
0.029335 0.070211001 0.053047001
0.028961999 0.18194 0.069057003
0.030407 0.18325999 0.06938
0.057523001 0.16449 0.048464999
0.026657 0.1046 0.037888002
0.028351 0.10382 0.037241999
0.031660002 0.19581001 0.076279998
0.067685001 0.16546001 0.090456001
0.068066999 0.10763 0.072784998
0.082989998 0.16335 0.072210997
0.019477 0.031567998 0.055284001
0.017617 0.031016 0.053943001
0.072370999 0.10617 0.063340999
0.071365997 0.10644 0.066027001
0.072637998 0.10622 0.064583004
0.072724998 0.17188001 0.096479997
-0.0042377999 0.094454996 0.030699
-0.0053364998 0.096580997 0.030812001
-0.0054619 0.095831998 0.030196
-0.022231 0.089010999 0.023841999
-0.021411 0.088398002 0.024010001
0.071217 0.14429 0.10606
0.076265 0.16266 0.058580998
0.083562002 0.15559 0.044799
0.082543999 0.15468 0.044093002
0.025621001 0.12583999 0.033569001
0.07519 0.15287 0.041430999
0.075048 0.15239 0.041723002
0.079136997 0.1497 0.040295999
0.01139 0.049683001 0.045954
0.045497999 0.18396001 0.072420001
-0.01467 0.083054997 0.032214001
0.036539 0.18870001 0.076284997
0.068561003 0.11167 0.040047999
0.066858999 0.11114 0.039997999
0.03909 0.092240997 0.054474
0.038552999 0.16976 0.070185997
0.060091 0.089965001 0.054777998
0.072062001 0.10584 0.049573999
0.036139 0.19384 0.059987999
0.037250999 0.1935 0.060106002
0.079063997 0.10806 0.13165
0.084168002 0.10962 0.053706001
0.085001998 0.14482 0.039700001
0.086157002 0.14691 0.039650999
0.0414 0.19571 0.067152999
0.084785998 0.10877 0.069836996
0.043469001 0.13088 0.067695998
0.032797001 0.19441 0.072920002
0.039138999 0.084568001 0.051927
0.036690999 0.084976003 0.05215
0.038722999 0.085303001 0.051833998
0.061133001 0.097602002 0.064924002
0.022298999 0.11062 0.050992001
0.023118 0.10855 0.051258001
0.02327 0.10859 0.051853001
0.010592 0.042534001 0.045249
0.031723 0.18418001 0.061508998
0.053017002 0.15246999 0.10525
0.053206999 0.15389 0.10654
0.053385001 0.15222999 0.1059
0.089939997 0.10349 0.090397999
0.089551002 0.10288 0.090241998
0.012276 0.032393001 0.073560998
0.051605999 0.14799 0.096404001
0.051934 0.14866 0.096777
0.052917 0.14887001 0.096984997
0.032466002 0.12910999 0.043347999
0.042559002 0.20114 0.075384997
0.042631999 0.2017 0.075262003
0.048064001 0.082520001 0.046776999
0.049144998 0.081868 0.04744
0.049633998 0.081453003 0.048898999
0.026702 0.1055 0.048124
0.046847999 0.096295998 0.024788
0.0039936998 0.10655 0.020427
0.052781001 0.077454001 0.049201
0.082223997 0.096753001 0.11572
0.084224001 0.097823001 0.11593
0.00099970005 0.11138 0.028448001
0.014363 0.095261 0.027505999
0.062128998 0.16361 0.052687
0.086739004 0.16088 0.055383999
0.087173998 0.16249999 0.058301002
0.095352001 0.11311 0.1357
0.095121004 0.11405 0.13392
0.035314001 0.19431999 0.080286004
0.026954999 0.046914 0.047970999
0.025792001 0.045612 0.048508
0.066422999 0.10751 0.043375999
0.094673999 0.11645 0.11628
0.091705002 0.11694 0.11514
0.027218999 0.067050003 0.065214999
0.027543001 0.066466004 0.065789998
0.027070001 0.067050003 0.066032
0.028458999 0.050675999 0.063992999
0.049538001 0.17061 0.064152002
0.090570003 0.10195 0.10509
0.082534999 0.10118 0.09189
0.0048258002 0.086548999 0.01589
0.0054258001 0.087725997 0.014944
0.079065003 0.16241001 0.061331
0.079604998 0.1631 0.060433999
0.086616002 0.11817 0.045873001
0.086038999 0.11779 0.044849001
0.087876 0.11662 0.045759998
0.085023999 0.13128 0.094847001
0.085428998 0.13067 0.094145998
0.084962003 0.13174 0.092906997
0.040096998 0.12416 0.06205
0.039843 0.12302 0.060116999
0.084679998 0.119 0.12403
0.085394002 0.11895 0.12542
0.038860001 0.10258 0.049646001
0.038201001 0.10334 0.048558999
-0.018701 0.086211003 0.019538
0.093215004 0.12399 0.045382999
0.074758001 0.14703 0.039735001
0.073322996 0.147 0.038782001
0.079377003 0.15937001 0.096442997
0.091163002 0.16131 0.066969998
0.091518 0.16109 0.066258997
0.091303997 0.16249 0.065834001
0.043880001 0.20310999 0.086684003
0.042268999 0.2022 0.085073002
0.046427 0.19818 0.083958
0.048117001 0.19836999 0.083502002
0.0077634999 0.042172 0.066094004
0.065498002 0.16362 0.064149
0.066371001 0.16403 0.063317999
0.047054 0.11458 0.073872998
0.049095999 0.11443 0.075551003
0.047814999 0.11523 0.075825997
0.045008998 0.090605997 0.071988001
0.045267999 0.090377003 0.072672002
0.081147 0.10418 0.082030997
0.069059998 0.16461 0.092377998
0.073288999 0.12368 0.093731001
0.073334999 0.12182 0.09381
0.096827 0.13105001 0.047781002
0.016163999 0.12673 0.034379002
0.014231 0.12591 0.035333
0.070956998 0.17392001 0.10027
0.070853002 0.17512999 0.10043
0.072021998 0.17473 0.099733002
0.04276 0.11812 0.034848001
0.044583 0.11892 0.035932001
0.058696002 0.14672001 0.10713
0.045318998 0.1417 0.061039001
0.020157 0.1274 0.047835998
0.020474 0.12673999 0.046234
0.050487 0.19679999 0.080728002
0.035498999 0.060678001 0.072129004
0.035734002 0.061636001 0.071610004
0.0067639002 0.042578001 0.065217003
0.058076002 0.15978 0.070349
0.047431 0.20285 0.083715998
0.048273999 0.20313001 0.083705001
0.075103 0.16333 0.065981999
0.075791001 0.16286001 0.067767002
0.075760998 0.16333 0.067221001
-0.02994 0.095025003 0.031335998
-0.030942 0.096252002 0.030987
-0.013651 0.080698997 0.030056
0.057495002 0.085183002 0.070272997
0.044188999 0.14379001 0.073227003
0.047511999 0.15087999 0.10306
0.070450999 0.17219 0.098378003
0.070990004 0.17214 0.098329
0.046418 0.1728 0.052209001
0.048055999 0.17301001 0.052864999
0.043843001 0.18144999 0.052588001
0.044018 0.18084 0.05229
0.080798998 0.11405 0.14831001
0.080147997 0.11434 0.14813
0.056343999 0.13888 0.096578002
0.0059587001 0.11953 0.034152001
0.0066939001 0.11755 0.036079999
0.0060131 0.11801 0.036520999
0.092289001 0.11512 0.13811
0.092115 0.1149 0.13965
0.058745999 0.16097 0.047239002
0.094683997 0.15090001 0.049005002
0.094066001 0.15291999 0.047651999
0.059615001 0.14704999 0.046642002
0.059121002 0.14692 0.044238001
-0.011253 0.088739999 0.029132999
0.047088001 0.1011 0.031675
0.043919999 0.12636 0.072219998
0.044131 0.12444 0.073746003
0.034701001 0.10168 0.056744002
0.035211001 0.10147 0.055537
0.035335001 0.10287 0.055475
0.096777 0.11963 0.055985
0.096000999 0.12239 0.081513003
0.061535999 0.15025 0.082540996
0.048551999 0.17734 0.071177997
0.077474996 0.15789001 0.10171
0.07807 0.15876999 0.099864997
0.077366002 0.15881 0.098626003
0.041726999 0.12862 0.059496
0.041896999 0.12684999 0.057962999
0.076894999 0.10646 0.12376
0.078810997 0.10702 0.12404
0.056775998 0.14752001 0.10945
0.061057001 0.13429999 0.036966
0.092873 0.11347 0.063363999
0.092731997 0.11303 0.062040001
0.038481999 0.062371001 0.049780998
0.037822001 0.062501997 0.049389999
0.022381 0.12862 0.034935001
0.022621 0.1288 0.036155999
0.024995999 0.12823001 0.034926999
0.051631998 0.17487 0.060612999
0.043009002 0.13982999 0.069587998
0.0062668999 0.085596003 0.025056001
0.087183997 0.11951 0.13888
-0.0026447 0.091512002 0.032217
-0.0037101 0.091711 0.031626001
-0.0034723999 0.092284001 0.030641999
0.026839999 0.1198 0.029038001
0.078215003 0.12523 0.096015997
0.021364 0.11606 0.0287
0.020346001 0.1162 0.027871
0.020202 0.11608 0.027525
0.0093018003 0.093218997 0.015957
0.095101997 0.10321 0.11105
0.095945001 0.10292 0.11075
0.051537 0.14905 0.076930001
0.094118997 0.1131 0.093217999
0.036596999 0.18782 0.054852001
0.050570998 0.19135 0.066678002
0.078794003 0.10604 0.10497
0.039508 0.17809001 0.070629999
0.038750999 0.17687 0.07051
0.040309999 0.17715 0.069646001
0.076436996 0.15457 0.04425
0.0072026001 0.040295001 0.060977001
0.0074884002 0.039538998 0.062176
0.078964002 0.1312 0.097542003
0.080582 0.13139001 0.094967
0.059351999 0.087361999 0.066519
0.058770999 0.089198001 0.066050999
0.020203 0.12381 0.051176999
0.020714 0.12286 0.051830001
0.088480003 0.11022 0.14177001
0.088417001 0.14767 0.041738998
0.013765 0.040378999 0.045832001
0.012173 0.041170999 0.045869
0.0046656998 0.11838 0.039692
0.045224 0.15905 0.062647998
0.044876002 0.16427 0.049304999
0.035292 0.11756 0.062157001
0.033840999 0.18182001 0.074083
0.034006 0.18074 0.074299999
0.035022002 0.18043999 0.075064003
0.020101 0.048794001 0.042072002
0.021067999 0.050384998 0.041850999
0.036616001 0.1146 0.067584999
0.080094002 0.15532 0.11007
0.044523999 0.18833999 0.054358002
0.074367002 0.16 0.098729998
0.073665999 0.16133 0.096786
0.097003996 0.12868001 0.050133001
0.052102 0.14538001 0.11431
0.052124999 0.14625999 0.11411
0.028897 0.17987999 0.066930003
0.029623 0.17987999 0.066037998
0.029454 0.18117 0.065196998
0.020364 0.1036 0.033204
0.086310998 0.10141 0.12876999
0.042277999 0.092373997 0.048714999
0.086920001 0.11976 0.13869999
0.072215997 0.15163 0.10567
0.032958001 0.18143 0.056715999
0.0034930001 0.11458 0.031934999
0.0050814999 0.11453 0.030074
0.0049685999 0.11337 0.030886
0.047874998 0.13436 0.080027997
0.084048003 0.11004 0.076007999
0.052425999 0.13527 0.044661999
0.032202002 0.18713 0.061480001
0.033055998 0.18725 0.062622003
0.032933 0.18909 0.062739
0.067644 0.14996 0.1073
0.068356998 0.14916 0.10852
0.068230003 0.14945 0.10778
0.025945 0.11798 0.053729001
0.02643 0.11951 0.054405
0.026296999 0.118 0.054358002
0.087971002 0.11575 0.047414999
0.089043997 0.12015 0.094288997
0.029627999 0.1286 0.037987001
0.054118 0.14376999 0.11274
0.076043002 0.16240001 0.068287998
0.076168999 0.1542 0.10397
0.052345999 0.15152 0.1053
0.052108999 0.15217 0.10682
0.0044550002 0.10788 0.043616001
0.083008997 0.10965 0.14501999
0.082110003 0.10903 0.14421999
0.013274 0.043527 0.035549
0.015285 0.043127 0.036501002
0.011734 0.042291 0.037062999
0.036892001 0.084895 0.063382
0.016132999 0.1148 0.051346999
0.015690999 0.11322 0.051472001
0.014694 0.113 0.052746002
0.060523 0.12407 0.036853001
0.05923 0.12371 0.037115999
0.082386002 0.16339999 0.063444003
0.082143001 0.16475999 0.061629999
0.1009 0.12281 0.068272002
0.042559002 0.058269002 0.056871999
0.099578999 0.14336 0.050331
0.099991001 0.14261 0.049148999
0.081788003 0.14574 0.099949002
0.046202 0.17885 0.069300003
0.045860998 0.17636 0.06927
0.060222998 0.15238 0.045658
0.064207003 0.15681 0.081076004
0.057273 0.1459 0.079451002
0.058288999 0.14703999 0.079334997
0.056251999 0.14638001 0.079218
0.054561999 0.14473 0.047115002
0.053321999 0.14426 0.048769999
0.034453001 0.20025 0.087309003
0.033741999 0.20193 0.089616001
0.068481997 0.14357001 0.038582999
0.069476999 0.14155 0.038105998
0.048140001 0.15545 0.048218001
0.047951002 0.15558 0.049208999
0.0063238 0.08794 0.018102
0.0047697001 0.086907998 0.015034
0.049532 0.092380002 0.019455999
0.049107 0.090860002 0.018673001
0.086438 0.15287 0.092549004
0.084857002 0.15239 0.09544
0.01691 0.12189 0.050627999
0.015845001 0.12309 0.049888
0.089809999 0.16218001 0.067481004
0.098950997 0.12289 0.077877998
0.049548 0.19532999 0.079444997
0.050852999 0.12654001 0.077289
0.063037999 0.16403 0.053029999
0.027079999 0.12227 0.053672999
0.028489999 0.1225 0.053759001
0.041882001 0.12255 0.068829
0.041604999 0.12193 0.070113003
-0.0080757001 0.074597001 0.018623
0.042300001 0.12649 0.063905001
0.071258001 0.13841 0.098684996
0.059275001 0.11263 0.03768
0.086498 0.10333 0.084991999
0.066152997 0.10024 0.058894001
0.067172997 0.10303 0.060399
0.074639998 0.1689 0.10003
0.049417 0.20187999 0.084174
0.048779 0.20265 0.082344003
0.048556 0.11557 0.075349003
0.048342999 0.11545 0.076296002
0.091075003 0.13975 0.090735003
0.093249001 0.1389 0.088941
0.092354998 0.13926999 0.088379003
0.0087567996 0.10756 0.021419
0.028128 0.049536999 0.061464
0.082230002 0.10265 0.091521002
0.033057999 0.17648 0.056678001
0.048801001 0.070869997 0.056496002
0.040957 0.11599 0.034035999
0.04228 0.11694 0.035135001
0.041351002 0.11544 0.033992
0.034685999 0.12752999 0.039608002
0.038993999 0.17084 0.070706002
0.025544999 0.12427 0.051911
0.093731999 0.11813 0.078295
0.087447003 0.13868 0.039399002
0.059719 0.14424001 0.1081
0.051578 0.078965001 0.075090997
0.053063001 0.077967003 0.074285001
0.0063042999 0.12185 0.041554999
0.019649001 0.026942 0.065641001
0.05122 0.12703 0.079775997
0.061060999 0.084747002 0.062518999
-0.0073732999 0.095513999 0.021195
0.04408 0.12890001 0.069705002
0.042266 0.12885 0.067938
0.042918 0.12872 0.067484997
0.077389002 0.1081 0.10562
0.028193999 0.1276 0.034173999
0.063766003 0.15474001 0.084627002
0.063451998 0.1543 0.082516
0.062899999 0.15307 0.084810004
0.046323001 0.20079 0.087889999
0.092917003 0.1071 0.10403
0.093323 0.10808 0.10288
0.040697001 0.19551 0.081445999
0.074725002 0.10771 0.050313
0.087641999 0.10873 0.078281999
0.086746998 0.10805 0.076581001
0.042966001 0.13391 0.064643003
0.046402998 0.17840999 0.053516999
0.055615999 0.16911 0.053236999
0.054976001 0.16859999 0.053303
0.013515 0.098203003 0.022396
0.080913998 0.11815 0.097514004
0.079722002 0.11696 0.098068997
0.071232997 0.10502 0.060180001
0.014193 0.051148001 0.049885001
0.01424 0.051837001 0.049695
-0.00037342001 0.084973 0.027807999
0.0055028 0.11105 0.044755001
0.09646 0.15007 0.048895001
0.042254001 0.15793 0.062300999
0.041540999 0.15614 0.062905997
0.087347001 0.11108 0.054391999
0.088068999 0.11232 0.052682001
0.051897999 0.15902001 0.067635998
0.088238001 0.11019 0.068786003
0.049761001 0.094292998 0.030444
0.0091623003 0.10859 0.045759998
0.052657999 0.15476 0.068342999
0.052042998 0.15542001 0.069487996
0.051927999 0.15485001 0.068866998
0.038442999 0.1769 0.069789
0.056226999 0.14508 0.046466999
0.051143002 0.18248001 0.071670003
0.050735001 0.18275 0.072819002
0.049895 0.18258999 0.072789997
0.048841 0.18912999 0.057482999
0.076255001 0.13922 0.099257
0.077344 0.13878 0.10105
0.095270999 0.14687 0.087304004
0.027065 0.056086998 0.065954
0.025779 0.055684999 0.066298999
-0.00544 0.093543001 0.02887
0.016952001 0.11076 0.050611001
0.015123 0.11151 0.051398002
0.015735 0.11023 0.050517999
0.012328 0.10194 0.038376
0.011471 0.10261 0.040247001
0.011184 0.10213 0.038892999
0.017906001 0.054715998 0.059156999
0.090891004 0.15507001 0.091769002
0.089876004 0.1551 0.091199003
0.031633999 0.12710001 0.045384999
0.031433001 0.12679 0.046783
0.00070958002 0.085896999 0.030152
0.023246 0.057872999 0.063189998
0.050512999 0.15151 0.071309
0.093566999 0.12037 0.13637
0.052916002 0.10265 0.070471004
0.052781001 0.10171 0.068767004
0.079470001 0.13365 0.037218001
0.078801997 0.13304 0.037622999
0.077218004 0.13451 0.037815999
0.078759998 0.10153 0.12412
0.080090001 0.10021 0.12628999
0.094720997 0.1593 0.075387001
0.094452001 0.16060001 0.074639998
0.093552001 0.15928 0.075919002
0.053929001 0.085490003 0.072287999
0.054917 0.084573999 0.072775997
0.051463999 0.11323 0.075067997
0.052703999 0.11285 0.075710997
0.086548999 0.15793 0.10865
0.082422003 0.10741 0.063594997
0.081635997 0.10659 0.060529001
0.083125003 0.10654 0.062038001
0.069457002 0.13862 0.037207998
0.014458 0.10016 0.034023002
0.015748 0.10083 0.033780001
0.012739 0.10068 0.034749001
0.079504997 0.10612 0.069770001
0.060518 0.15447 0.087762997
0.061521001 0.15411 0.086960003
0.054740001 0.15541001 0.073040001
0.048342999 0.083580002 0.015304
0.048122998 0.084321 0.015313
0.015788 0.11034 0.050014999
0.084785998 0.11561 0.13393
0.082932003 0.10825 0.071415998
0.083223 0.1092 0.072713003
0.00022659999 0.1047 0.022631001
0.081904002 0.14359 0.099427
0.081827 0.14587 0.097887002
-0.026613999 0.096326999 0.021345999
0.084055997 0.14794999 0.038688999
0.0048145 0.1006 0.017445
0.067713998 0.16043 0.070102997
0.063592002 0.16131 0.098707996
0.064965002 0.15974 0.099198997
0.065557003 0.16178 0.098443002
0.037861999 0.063467003 0.075888
0.039338998 0.062431 0.074787997
0.040459 0.063793004 0.076746002
0.051701002 0.1664 0.064067997
0.052060001 0.16818 0.064301997
0.091297999 0.11296 0.079703003
0.061900999 0.089363001 0.062771
0.013618 0.050804999 0.043605
0.065798998 0.15172 0.044211
0.030838 0.11306 0.029825
0.057783 0.091430001 0.066942997
0.096872002 0.11065 0.12003
0.084297001 0.11548 0.1278
0.085464999 0.11561 0.12876
0.049600001 0.20254 0.082147002
0.050191 0.20253 0.081575997
0.035347998 0.12544 0.055837002
0.035112001 0.12473 0.054784
0.093874998 0.11837 0.049727
0.040961001 0.093405999 0.030455001
0.039813999 0.093161002 0.028492
0.038178001 0.16436 0.060226999
0.033766001 0.19919001 0.087095998
0.034368999 0.19958 0.08568
0.021939 0.12605 0.032400001
0.022699 0.12707999 0.033741999
0.024005 0.12547 0.033500001
0.038167998 0.16839001 0.054621
0.086787999 0.10206 0.095417
0.089087002 0.10278 0.093507998
-0.016949 0.088090003 0.015881
-0.015583 0.086273998 0.014772
0.075864002 0.16562 0.095020004
0.055066999 0.096306004 0.069930002
0.034587 0.10623 0.035801001
0.042231999 0.15494999 0.056318998
0.053155001 0.11622 0.034951001
0.052457999 0.11752 0.036065999
0.053552002 0.11769 0.034564
0.063685998 0.097593002 0.049908001
0.061367001 0.096909001 0.049881998
0.0027097 0.11034 0.042351998
0.0028834001 0.10988 0.043143
0.0021847 0.11036 0.043917
0.01671 0.11621 0.051897001
0.028655 0.10725 0.032377001
0.027024999 0.10766 0.031475
0.028391 0.10742 0.031550001
0.011059 0.12348 0.036513001
0.011202 0.12398 0.036669001
0.076557003 0.17526001 0.092679001
0.075806998 0.17743 0.093681
0.0054159001 0.11502 0.044748999
0.044633999 0.089469001 0.020697
0.044752002 0.089890003 0.020539001
0.044643998 0.090485997 0.020067999
0.049144 0.089780003 0.045469001
0.033613 0.070223004 0.070932999
0.083593003 0.11595 0.11902
0.083869003 0.11489 0.12108
0.031994998 0.065829001 0.070488997
0.03224 0.065356001 0.070082001
0.033098999 0.065682001 0.070432998
0.038628001 0.060095999 0.049389999
0.038872 0.066064999 0.077212997
0.019397 0.058286 0.059962001
0.055920001 0.076846004 0.052926999
0.096111 0.15888 0.068368003
0.035911001 0.055314001 0.062272001
0.084112003 0.15955 0.086993001
0.089695998 0.11688 0.12535
0.090130001 0.11805 0.12633
0.045355 0.086865 0.020640001
0.043685999 0.088032 0.019889999
0.044532999 0.088999003 0.019042
0.04293 0.094295003 0.048092
0.043407001 0.093103997 0.048012
0.032653999 0.068357997 0.069651999
0.10061 0.1276 0.055208001
0.10179 0.12838 0.054457001
0.036377002 0.072081 0.071433999
0.087196 0.13762 0.091473997
0.087613001 0.13808 0.092807002
0.082000002 0.15234999 0.10828
0.083277002 0.15131 0.10711
0.052081998 0.17191 0.052409001
0.049901001 0.17394 0.054234002
0.081417002 0.11844 0.096986003
0.079429001 0.11977 0.095808998
0.079084001 0.11876 0.096947998
0.061448 0.16591001 0.054556999
0.061627999 0.16546001 0.053126998
0.071777001 0.16757999 0.099771
0.071116999 0.16595 0.098875001
0.064373001 0.12559 0.038789999
0.065151997 0.12472 0.038329002
0.088848002 0.1012 0.10261
0.089483 0.10178 0.10242
0.090827003 0.10302 0.10188
0.027997 0.12547 0.050365001
0.085593998 0.10011 0.10578
0.085810997 0.099771999 0.1067
0.040925 0.16265 0.052972998
0.039763998 0.16237 0.053502001
0.057004001 0.15673 0.074340999
0.059539001 0.15599 0.075792
0.0078964001 0.043917 0.050694998
0.077371001 0.10099 0.11602
0.083398998 0.1027 0.13133
0.037292 0.12201 0.035686001
0.03475 0.17483 0.056931999
0.036272001 0.17526001 0.055264998
0.035567999 0.17512999 0.055367
0.055330999 0.14093 0.10796
0.053318001 0.073994003 0.055321001
0.012137 0.092235997 0.022872999
0.012033 0.094471999 0.022936
-0.0012164999 0.11394 0.037204999
0.026766 0.056001 0.043325
0.026651001 0.055121999 0.044190001
0.05909 0.084152997 0.050236002
0.058405999 0.084233999 0.051406
0.059664998 0.083774999 0.052448999
0.081561998 0.11823 0.14407
0.082154997 0.1169 0.14337
0.051139999 0.069493003 0.073018998
0.049444001 0.069963001 0.072829001
0.051004 0.070510998 0.071451999
0.01131 0.097034998 0.020053999
0.016214 0.035962999 0.043531001
0.068820998 0.14963999 0.10851
0.067598 0.14837 0.10757
0.049973 0.10203 0.034604002
-0.025364 0.093512997 0.01895
-0.026124001 0.094499998 0.019007999
0.028581001 0.054478999 0.044188
0.022143999 0.050799999 0.059914999
0.040227 0.11073 0.069320001
0.039956 0.11033 0.068428002
0.040091999 0.18731999 0.054170001
0.036676001 0.17261 0.055567998
0.038681999 0.089175001 0.067327
0.035087999 0.17772999 0.073069997
0.053258002 0.16721 0.050616
-0.015358 0.093737997 0.017851001
0.091445997 0.10554 0.089883
0.017267 0.058157999 0.051821001
0.017136 0.058304001 0.050043002
0.017213 0.058448002 0.051741
0.056338999 0.15647 0.094117001
0.056256 0.1574 0.092849001
0.080426998 0.14677 0.1031
0.080944002 0.14819001 0.10341
0.080617003 0.14698 0.10405
0.063313998 0.15929 0.083598003
0.0097885998 0.087577999 0.022934999
0.0095349997 0.088642001 0.022969
0.068855003 0.16374999 0.087977998
0.091900997 0.15673 0.051374
0.090855002 0.15656 0.049621999
0.050809 0.093209997 0.071667001
0.065617003 0.10318 0.065027997
0.065219 0.10244 0.065311
-0.0089876 0.083871998 0.028194999
-0.011278 0.083595 0.03019
-0.011408 0.083123997 0.028786
0.036029998 0.19507 0.082595997
0.057163998 0.12282 0.087448999
0.056586001 0.12109 0.088641003
0.032304998 0.18234999 0.07265
0.059866 0.074791998 0.061391
0.075667001 0.10849 0.083903
0.090697996 0.14556 0.043051001
0.088501997 0.14638001 0.042792998
0.034632001 0.050101999 0.058155999
0.035569999 0.12799001 0.048473001
0.035654001 0.12881 0.048315
0.081834003 0.16374999 0.056761
0.079195999 0.16391 0.056651
0.079761997 0.16213 0.056474999
0.031390999 0.047494002 0.050526001
0.033433001 0.048824999 0.051644001
0.055009 0.14929 0.048126001
0.054469001 0.14915 0.047106002
0.084247999 0.099382997 0.10631
0.083120003 0.10006 0.10699
0.060151 0.16595 0.051759999
0.0031558 0.089258999 0.012956
0.03207 0.18701001 0.072874002
0.094214998 0.1068 0.12744001
0.087641001 0.097522996 0.11091
0.085721999 0.096500002 0.11022
0.082815997 0.16315 0.068287998
0.081431001 0.16316 0.069716997
0.073296003 0.10651 0.051022999
0.072708003 0.10548 0.052429002
0.089400001 0.1169 0.12566
0.045766 0.097084001 0.041914001
0.045915 0.087490998 0.017859999
0.044930998 0.089060999 0.018453
0.046342 0.088535003 0.017519001
0.012744 0.092129 0.027324
0.033070002 0.10599 0.055009
0.032556001 0.10589 0.053089999
0.050599001 0.14823 0.097062998
0.052087002 0.1478 0.098274
0.039088 0.18759 0.076996997
0.070124999 0.14731 0.038938999
0.0085736997 0.086300001 0.023251999
0.031065 0.10484 0.041457001
0.061094001 0.14104 0.039315
0.060998 0.14071999 0.041119002
0.036665998 0.060596999 0.048994999
0.034644 0.082137004 0.067947999
0.017024999 0.039278001 0.040353999
0.011196 0.12396 0.043333001
0.072870001 0.16074 0.081928998
0.070611998 0.16095001 0.082295001
0.052251998 0.13999 0.1038
0.052467 0.13981 0.10302
0.052877001 0.1399 0.10476
0.022204001 0.10878 0.050110999
0.075892001 0.16948 0.090706997
0.077082001 0.16966 0.090368003
0.075263001 0.17066 0.091807
0.043706998 0.063100003 0.064423002
0.044183001 0.063020997 0.065755002
0.041283 0.092900001 0.02723
0.040934 0.091944002 0.028858
0.046015002 0.15110999 0.054198999
0.055916999 0.10766 0.070556998
0.053677998 0.10847 0.071732998
0.049869001 0.16501001 0.066398002
0.051362999 0.16529 0.066036999
0.049869999 0.16674 0.065404996
0.041239001 0.057048 0.061283998
0.093234003 0.15376 0.11146
0.013822 0.030191001 0.071617998
0.046523001 0.109 0.036927
0.046886999 0.10961 0.036543
0.092753001 0.11719 0.11778
0.092923999 0.11589 0.11906
0.097855002 0.15211 0.081317
0.096731998 0.15234999 0.081201002
0.096991003 0.15215001 0.080854997
0.041540999 0.059558999 0.066266999
0.042415 0.062033001 0.064437002
0.041009001 0.090253003 0.050273001
0.038461 0.091130003 0.051118001
0.040716 0.090346999 0.051210999
0.056678001 0.14843 0.089533001
0.057038002 0.14862999 0.089367002
0.090140998 0.096637003 0.1128
0.047203999 0.14040001 0.057882998
0.10391 0.14121 0.074307002
0.020319 0.031112 0.064323001
0.02069 0.031360999 0.064608999
0.091224998 0.13456 0.040764
0.059262 0.15659 0.076433003
0.059085 0.15719999 0.077235997
0.058442 0.15762 0.076013997
0.025257999 0.12426 0.031250998
0.025781 0.12569 0.031447001
0.027647 0.12412 0.030947
0.013759 0.1037 0.040479001
0.014378 0.10255 0.040020999
0.026583999 0.1072 0.048865002
0.028808 0.10704 0.050159998
0.039375 0.092257001 0.054368
0.038114 0.092302002 0.056728002
0.081404001 0.15689 0.098356999
0.080393001 0.15794 0.099440001
0.042932998 0.079852998 0.049343001
0.043487001 0.080495 0.048300002
0.043653999 0.079126 0.049855001
