# .PCD v0.7 - Point Cloud Data file format
VERSION 0.7
FIELDS x y z
SIZE 4 4 4
TYPE F F F
COUNT 1 1 1
WIDTH 1520
HEIGHT 1
VIEWPOINT 0 0 0 1 0 0 0
POINTS 1520
DATA ascii
0.11162 -0.011976 0.093115002
0.031610999 0.017055999 0.094981998
0.10984 -0.019886 0.082818002
-0.010087 0.0094341002 0.10827
-0.0094216 0.010504 0.10725
-0.0096194996 0.010125 0.10742
0.1218 -0.043342002 0.037163001
0.12229 -0.041356999 0.036729001
0.1232 -0.041976999 0.036350999
0.034170002 0.025483999 0.087458998
0.033135999 0.024513001 0.088125996
0.063037001 0.0090965005 0.08602
0.063170001 0.0091623999 0.085499004
0.055768002 0.00067674997 0.087187
0.057145 0.0012535 0.086438999
0.056689002 0.00030848 0.085628003
0.10228 -0.030162999 0.051488999
0.10276 -0.029997 0.051853001
0.10254 -0.0309 0.051853001
0.10024 -0.0067061 0.050535999
-0.0043731001 0.018208999 0.12496
-0.0030050999 0.0176 0.12472
0.084838003 0.020316999 0.082771003
0.015898 0.0078347996 0.1276
0.014936 0.0080265002 0.12603
0.015751 0.0079750996 0.12735
-0.019492 9.9907003e-05 0.11481
0.14374 0.018231001 0.099745996
0.1435 0.018030999 0.10075
0.14376 0.018111 0.099726997
0.1003 -0.020004001 0.073063001
0.0995 -0.020632001 0.072802998
0.11132 0.036175001 0.020052001
0.11199 0.037588999 0.021406
-0.0088459002 0.0054652998 0.10769
0.083209999 -0.0015066999 0.10126
0.083084002 -0.00055793999 0.10273
0.081811003 -0.00025154001 0.10089
0.10195 0.039096002 0.052158002
0.10156 0.039156001 0.052960001
0.10856 0.017423 0.085561998
0.10858 0.016712001 0.086145997
0.047789 -0.011326 0.11746
0.047177002 -0.012086 0.11772
0.095004 -0.0073817 0.056945
0.094036996 -0.0080778003 0.059009001
0.094792999 -0.0068362001 0.058049999
0.074887998 0.012753 0.11076
0.073670998 0.012229 0.11148
0.075871997 0.012119 0.11163
0.12514 -0.0041657998 0.10588
0.12532 -0.0024089999 0.10611
-0.038297001 -0.0070187999 0.14033
-0.036548 -0.0052213999 0.14060999
-0.036286999 -0.0068303002 0.14139
0.093431003 -0.016106 0.060407002
0.092224002 -0.01403 0.059271999
0.092557997 -0.014595 0.060079999
0.12235 -0.020492001 0.047111001
0.12203 -0.021253999 0.047485001
0.12275 -0.020096 0.047584999
0.13625 0.030477 0.080225997
0.13573 0.030175 0.080366999
0.13596 0.031060999 0.080328003
-0.01508 0.019536 0.1148
-0.016646 0.019642999 0.11613
0.0068436 0.0091938004 0.13921
0.0079763997 0.0088277999 0.13819
0.0073817 0.010426 0.13809
0.15700001 0.018826 0.11271
0.12632 0.018957 0.10156
0.12596001 0.018619999 0.10321
0.12699001 0.019214001 0.10245
-0.037121002 -0.0027250999 0.13065
-0.035427999 -0.001196 0.12981001
-0.035681002 -0.00275 0.12973
-0.041503999 0.018987 0.12622
0.12181 0.030887 0.060651999
0.12173 0.031989999 0.061714001
0.12357 0.031652998 0.060105
-0.028062001 -0.0086401999 0.14828999
-0.028979 -0.0091385003 0.14747
0.10719 -0.001592 0.042982001
0.10789 -0.0017905 0.043129001
0.10614 -0.00082985999 0.043302
0.064681001 0.015745001 0.093094997
0.051096 0.0010594 0.12624
0.049169 0.00088726002 0.12644
0.051426001 0.00075150002 0.12561999
0.11911 -0.027468 0.07412
0.016151 0.00014391 0.10376
0.016588001 -0.00092601997 0.10286
0.015051 -0.0011864 0.10261
0.13607 0.015614 0.087739997
0.13457 0.015896 0.087608002
0.044737 -0.0089015001 0.12062
0.045107 -0.0097417003 0.11989
0.044909 -0.0085284002 0.11973
0.092959002 0.013566 0.056471001
0.091564 0.014587 0.055665001
0.091972001 0.014018 0.056579001
0.029251 -0.0058451998 0.11568
0.031334002 -0.0064388001 0.11557
0.084269002 -0.015462 0.088342004
0.084385999 -0.016814999 0.087408997
0.085665002 -0.016709 0.087642998
0.12019 -0.025966 0.076536
0.11903 -0.025603 0.076977
0.11886 -0.026131 0.075769998
0.10665 0.029635999 0.065641999
0.1071 0.029727999 0.063552998
0.1058 0.030042 0.064900003
0.067042999 0.012875 0.11624
0.066266999 0.014124 0.11689
0.066918001 0.013816 0.11686
0.013035 -0.010495 0.12267
0.01357 -0.01011 0.12182
0.0099184001 -0.011599 0.11072
0.0086677 -0.012818 0.11122
0.0095766997 -0.012044 0.11146
0.0020973999 -0.011104 0.12640999
0.0016237 -0.011733 0.12669
0.0025603999 -0.010403 0.12582
0.10163 0.031035 0.037946001
0.1021 0.030161999 0.03692
0.14111 -0.013524 0.089817002
0.13935 -0.014406 0.089390002
0.1401 -0.013961 0.090829998
-0.048386998 -0.0025943001 0.13318001
-0.047965001 -0.0026717 0.1321
-0.048767999 -0.0031997 0.13256
0.11757 0.051143002 0.031061999
0.11777 0.050193999 0.030996
0.11731 0.050246999 0.033075999
0.13586 0.01785 0.10922
0.13676 0.016695 0.109
0.13680001 0.018134 0.10845
0.01193 -0.01196 0.10996
0.010807 -0.011501 0.10853
0.011665 -0.011522 0.10783
0.091146998 0.020175001 0.088491999
0.093298003 0.019918 0.087632999
0.13214999 0.0060200002 0.11441
0.13350999 0.0047229999 0.11403
0.13212 0.0057191998 0.11319
0.066371001 -0.015425 0.092422001
0.066044003 -0.016295001 0.091071002
-0.015675999 0.010695 0.14097001
-0.014364 0.010502 0.14009
0.10546 -0.043857001 0.060219999
0.10449 -0.044220001 0.060763001
0.10347 -0.044767998 0.060128
0.013889 0.0060037002 0.13117
0.015477 0.0050316998 0.13218001
0.016502 0.0050066998 0.13211
0.090248004 0.0047550998 0.10134
0.088896997 0.0046065999 0.10038
0.13297001 0.0033436001 0.11378
0.13375001 0.0040112999 0.11294
-0.0026143 9.8028999e-05 0.10515
-0.00045441001 -0.00081509002 0.10436
-0.00064853998 -0.0015513001 0.10515
0.14102 -0.036571 0.081491001
0.14247 -0.036283001 0.081258997
0.11847 0.051739998 0.032942001
0.11756 0.05181 0.031936999
0.11876 0.051653001 0.033484001
-0.021357 0.01033 0.13812
-0.022798 0.0090546999 0.13918
0.0080712996 0.019026 0.12643
0.020349 -0.014382 0.10812
0.019873001 -0.014327 0.10856
0.11644 -0.046287 0.040998001
0.11597 -0.045944002 0.039515
0.11699 -0.047031999 0.040041
-0.0071704001 0.016936 0.12529001
-0.0067626 0.01757 0.12522
0.10107 0.023001 0.043366
0.10072 0.022028999 0.045198001
0.10015 0.023734 0.043451998
0.1011 0.016209999 0.088546999
0.078432001 -0.013679 0.07632
0.077889003 -0.012608 0.076416001
0.078354999 -0.013177 0.075297996
-0.046611 0.0092125004 0.13500001
-0.045549002 0.0093160998 0.13631
-0.046778001 0.0098903999 0.13512
0.030708 0.01406 0.11205
0.029998001 0.013038 0.11191
0.12103 -0.054200999 0.037053999
-0.043892998 -0.0067599001 0.13195001
-0.044408001 -0.0068796999 0.13195001
-0.04377 -0.0067750998 0.13203
0.14264999 -0.0034600999 0.099338003
0.14395 -0.0032281 0.099022001
0.1427 -0.0032258001 0.099618003
0.060382001 0.012659 0.12237
-0.0081940005 0.019176999 0.11365
-0.0077753002 0.019864 0.11366
-0.041508999 -0.013345 0.12941
-0.040638998 -0.013344 0.12892
-0.040769 -0.014242 0.12847
-0.026101001 0.0030040999 0.11854
-0.023791 0.0019662001 0.11895
-0.024795 0.0025148999 0.11807
-0.023320001 0.018673999 0.13415
-0.024226001 0.018981 0.13331001
0.053982001 0.0173 0.084554002
0.053440001 0.017274 0.084009998
0.05336 0.017410001 0.085020997
0.11295 0.046172999 0.035884999
0.11306 0.046482 0.035367001
-0.018363999 0.0044574998 0.11642
-0.018327 0.0039655999 0.1167
0.11406 -0.015276 0.030313
0.11352 -0.016395001 0.031353999
0.11322 -0.015891001 0.031098999
0.069286004 -0.0080233999 0.088848002
0.068014003 -0.0070882998 0.088823996
0.069058001 -0.0076934998 0.087977
0.10293 -0.037857998 0.071344003
0.10327 -0.038027 0.071517996
0.12685999 0.0042285998 0.11751
0.12737 0.0032168999 0.11694
0.12727 0.0046660998 0.11757
0.076834999 0.016368 0.073968001
0.075631 0.017574999 0.074095003
0.068925001 0.014293 0.10516
0.068521 0.01471 0.10386
0.068533003 0.014828 0.10494
0.078069001 0.010522 0.068259001
0.077201001 0.010862 0.067101002
0.078547999 0.010115 0.067186996
0.038493 0.0034727 0.11957
0.038052 0.0037078001 0.11969
0.055183001 0.0032017999 0.082250997
0.071289003 0.01227 0.090121999
0.071721002 0.011147 0.090691999
0.12192 0.010569 0.10552
0.1221 0.010256 0.10585
0.12315 0.0096720001 0.10705
-0.030398 0.012523 0.12551001
-0.030797999 0.012355 0.12537
-0.030809 0.01281 0.12609001
-0.027566999 0.012374 0.12002
-0.028465999 0.0118 0.12032
-0.028604001 0.013463 0.12011
0.11146 -0.041478001 0.066656999
0.11166 -0.039631002 0.066449001
0.065491997 -0.0017477 0.081114002
0.064264998 -0.0031665999 0.080165997
0.064868003 -0.0027782 0.080669999
0.11682 0.04346 0.024425
0.11591 0.043032002 0.022783
0.11572 0.043170001 0.023892
-0.0070604999 -0.0006576 0.11335
-0.0074260002 -0.00067738001 0.11367
-0.0074338 -2.1794e-05 0.11325
0.11548 0.028620001 0.022268999
0.11621 0.028424 0.023333
0.11553 0.027907999 0.023079
0.10889 -0.01273 0.039519001
0.10949 -0.012074 0.038725998
0.11051 -0.012306 0.038986001
0.11527 0.028859001 0.056928001
0.11662 0.02973 0.056081999
0.11507 0.029674999 0.055682
0.0013166 -0.014362 0.1086
0.0017152 -0.014079 0.10807
0.0026968 -0.013328 0.10756
0.061861999 0.016783001 0.075839996
0.063327 0.015853001 0.075709999
0.063161999 0.015938001 0.074009001
-0.0016458 0.0026238 0.10307
-0.001761 0.0016445999 0.10329
-0.00062528998 0.0021396 0.10298
0.082929 0.019126 0.080588996
-0.020160001 0.0017643 0.11966
0.12194 0.010267 0.10379
0.12274 0.011833 0.10289
0.12196 0.0099317003 0.10349
-0.034001 0.0082943002 0.12713
0.092095003 0.026283 0.062942997
0.093226999 0.026316 0.062437002
0.11932 0.016557001 0.039551999
0.12087 0.016347 0.038392
0.13674 -0.025136 0.086883999
0.13628 -0.024737 0.086811997
0.1347 -0.024986999 0.086386003
0.12442 -0.042142998 0.061788
0.12531 -0.041609 0.061519999
0.12536 -0.041087002 0.062410001
0.090925999 0.015698001 0.049309
0.12932999 -0.0061761001 0.10446
0.069536 -0.00094773999 0.10596
0.068971001 0.00093553 0.10505
0.069137 -0.00022848 0.10542
0.11205 0.020400999 0.039817002
0.11346 0.019607 0.040026002
0.11209 0.018936001 0.040374
0.059436001 -0.023545999 0.088758998
0.079530999 -0.017834 0.091458999
0.079659998 -0.017897001 0.091027997
0.0801 -0.017983999 0.091136999
0.10223 -0.0065107001 0.049601
0.10294 -0.0056107999 0.048301
0.079076 -0.0043005999 0.10217
0.079262003 -0.0036828001 0.10249
0.065797001 0.0034125999 0.1125
0.11279 0.01725 0.041223999
0.11372 0.017205 0.040734999
0.12965 0.017724 0.1021
0.12858 0.018507 0.10129
0.12878001 0.018137001 0.10164
0.071737997 0.010227 0.073339999
0.070942998 0.010364 0.072691999
0.013169 -0.012969 0.11132
0.10367 0.018534999 0.083572
0.10425 0.018207001 0.084110998
0.10376 0.017975001 0.083329998
0.12653001 0.013217 0.11311
0.12781 0.014566 0.11377
0.11386 0.01778 0.094884999
0.014026 0.0063462998 0.13275
0.11688 0.027363 0.069208004
0.11571 0.026388001 0.068127997
0.11438 0.026381999 0.068159997
0.13868999 -0.0046549998 0.090838999
0.13925 -0.0042547002 0.092309996
0.065334 -0.014513 0.091587998
0.065664999 -0.013063 0.093005002
-0.036621999 0.012665 0.13459
-0.036828998 0.012562 0.13544001
-0.036920998 0.013465 0.13573
0.099547997 -0.0081310999 0.096110001
0.10023 -0.0076412 0.095573999
0.098356001 -0.0086663002 0.096072003
0.045276999 0.021334 0.10269
0.044714998 0.021396 0.10318
0.045758002 0.021885 0.10356
0.088394001 -0.017200001 0.083250001
0.088390999 -0.017504999 0.085035004
0.088407002 -0.016550001 0.083512999
0.15174 0.021187 0.11078
0.15164 0.021904999 0.10932
0.15047 0.020701 0.10992
0.10129 -0.02881 0.077711001
0.10076 -0.028485 0.077579997
0.10196 -0.028633 0.077688999
0.060855001 -0.0042015002 0.10258
0.061209999 -0.0049327998 0.10281
0.088725001 0.0055306 0.062574998
0.088822998 0.0041295001 0.062151
0.087971002 0.0042197001 0.063088
-0.034308001 -0.014083 0.13094001
0.10462 0.0029200001 0.048480999
0.10337 0.0013952 0.049697999
0.10333 0.0027993 0.048999999
0.14636 0.018777 0.094403997
0.14617001 0.018370001 0.093855001
0.14571001 0.018301999 0.094343998
0.092662998 0.0053983 0.053174999
0.092115998 0.0041785999 0.053782001
0.13973001 0.015831999 0.088807002
0.13844 0.015651001 0.089500003
0.12937 0.018401001 0.10835
0.131 0.019562 0.10907
0.13025001 0.018444 0.10728
0.10892 -0.016779 0.047899
0.10742 -0.016495001 0.050023999
0.10815 -0.016566001 0.048912
0.075666003 0.018872 0.076034002
0.075874001 0.019146999 0.075375997
0.093796998 -0.029471001 0.059227001
0.093447 -0.028426001 0.060113002
0.069803998 0.00093020999 0.10302
0.080293998 -0.01653 0.093436003
0.079830997 -0.016711 0.092789002
0.10435 0.011836 0.044362999
0.097773999 0.015796 0.048159
0.098549999 0.014528 0.047323
0.010705 -0.010166 0.12863
0.011746 -0.010553 0.1283
0.011147 -0.0095720002 0.12783
0.094650999 0.029759999 0.059255999
0.092702001 0.029626001 0.059531
0.065351002 0.0027568999 0.077903003
0.065403 0.0040422999 0.076875001
0.065966003 0.003151 0.076080002
0.058894001 -0.0076886001 0.090815999
0.057689 -0.0073837 0.091696002
0.058773998 -0.0078427996 0.089996003
0.011586 -0.00017677 0.10465
0.011455 -0.00022007999 0.10485
-0.029947 0.0075261001 0.12461
-0.031293999 0.0085912002 0.12388
-0.030408001 0.0079485001 0.12272
0.10117 0.00075296999 0.097659998
0.10048 0.001514 0.097369
0.10036 -0.00047273 0.097525999
0.10008 -0.013853 0.085744999
0.099843003 -0.014475 0.084610999
0.030733 -0.0059147999 0.090925001
0.030433999 -0.0068994001 0.091036998
0.030917 -0.0066392999 0.091821998
0.10799 -0.045028999 0.064620003
0.10812 -0.044316001 0.064833999
0.098577 0.028436 0.067642003
0.097992003 0.029538 0.067180999
0.057861999 0.01739 0.079874001
-0.044362001 -0.005318 0.13352001
-0.043189 -0.0051532001 0.13392
-0.043327 -0.0049354001 0.134
0.031163 0.013812 0.092554003
0.031516001 0.014467 0.093607001
0.10168 0.031264 0.043251
0.10139 0.030819001 0.041537002
0.10295 0.030681999 0.043255001
0.13326 0.026211999 0.081573002
0.13325 0.025057999 0.081096999
0.13240001 0.024891 0.083783001
0.1498 0.020416001 0.097969003
0.14864001 0.02084 0.096088998
0.055137001 0.0033891001 0.12672
0.05579 0.0018997 0.12626
0.053153001 0.023252999 0.082638003
0.053059001 0.023798 0.08247
0.052069999 0.023824001 0.082540996
0.034841001 0.0097695002 0.11631
0.035896 0.0085714003 0.11703
0.035629999 0.0089183999 0.11677
0.1123 -0.016906001 0.089422002
0.11012 -0.016767999 0.089899004
0.06955 0.0087414002 0.074377
-0.0017088 -0.0028076 0.14094
0.058228999 0.013899 0.12467
0.056315999 0.012703 0.12485
0.016152 -0.014628 0.11221
0.016442001 -0.013345 0.11231
0.014945 -0.014415 0.11244
0.010964 0.0063817999 0.13257
0.011772 0.0070421002 0.13456
0.010885 0.0062946999 0.13412
0.11832 -0.03898 0.066133998
0.11812 -0.037799001 0.063625
0.13382 0.018211 0.086295001
0.13448 0.017181 0.084818996
0.13491 0.018246001 0.085644998
0.070496999 -0.0054485002 0.097616002
0.072033003 -0.0041981 0.097791001
0.086774997 -0.0098748002 0.098788001
0.086621001 -0.0089549003 0.098844998
0.087600999 -0.0085287997 0.099653997
0.080196999 0.013837 0.067147002
0.081229001 0.01326 0.068020001
0.080238998 0.012896 0.065358996
0.10032 -0.0087956004 0.051084999
0.1004 -0.0078245001 0.050739001
0.10121 -0.0079635 0.049637001
-0.0036581999 -0.0084931999 0.12927
0.061595 -0.0094218999 0.082549997
-0.0092989001 -0.013238 0.12579
-0.0089264996 -0.015055 0.12503
0.066527002 -0.002785 0.079783
0.066248 -0.0031699999 0.080344997
0.068323001 -0.0029915001 0.079921998
0.11609 -0.041547999 0.046948999
0.11511 -0.040734999 0.048278
0.12173 -0.035950001 0.063527003
0.11997 -0.036651999 0.065435
0.12005 -0.016836001 0.087111004
0.11768 -0.017402001 0.086971
0.11995 -0.017529 0.085561
0.034715999 0.011603 0.11469
0.03365 0.012176 0.11465
0.13189 0.016438 0.096389003
0.092198998 -0.023743 0.066413999
0.092840999 -0.022452001 0.065338999
0.092244998 -0.022629 0.064631999
0.13748001 0.026520999 0.085092999
0.13850001 0.026771 0.085631996
0.13352001 0.0017234 0.11412
0.13283999 0.0012742 0.1144
0.067174003 -0.01131 0.094222002
0.10411 -0.0045575998 0.04899
0.10239 -0.0034040001 0.050039001
0.10277 -0.0039583999 0.049132999
0.081536002 -0.017083 0.093929999
0.086648002 -0.0016629 0.064377002
0.087774001 -0.0021919999 0.064900003
0.11049 0.030141 0.031525001
0.11015 0.029634001 0.030610001
0.1101 0.029572001 0.030828999
0.15652999 0.0071402998 0.11665
0.15643001 0.0070571001 0.11471
0.13608 0.025816999 0.082411997
0.098209001 0.013843 0.090061001
0.099601001 0.013537 0.090498
0.099816002 0.014022 0.089396998
-0.018943001 0.0087182 0.11834
-0.019515 0.0088424999 0.11966
-0.018705999 0.0090972995 0.11881
-0.031156 0.016747 0.14372
-0.031493999 0.01449 0.14323001
-0.031716999 0.014791 0.14427
0.1219 0.024464 0.073682003
0.12228 0.02448 0.074368998
-0.017990001 0.01339 0.13307001
0.1442 -0.030025 0.082381003
0.14387999 -0.031810999 0.082465999
0.018347001 0.005692 0.10143
0.018031999 0.0053361999 0.10152
-0.0090814 -0.0018671 0.13547
-0.0077968999 -0.0019799001 0.13486999
-0.0080976002 -0.0024351 0.13484
-0.014973 0.016985999 0.12214
-0.014956 0.015325 0.12197
-0.014232 0.015905 0.12131
0.096428998 -0.035094999 0.065498002
0.089965999 0.023437001 0.056341
0.089489996 0.024411 0.057252001
0.11619 0.014817 0.037546001
-0.024405001 0.0082157999 0.14349
-0.024346 0.0085687004 0.14466
-0.023135999 0.0087002004 0.14338
0.099230997 0.0037449 0.051787999
0.10091 0.0036055001 0.051440001
0.058972999 0.014452 0.12178
0.059360001 0.013398 0.1223
0.059197001 0.012551 0.12396
0.047453001 -0.0076799002 0.088752002
0.047205001 -0.0082839997 0.089001
0.046521001 -0.0074751 0.088656001
-0.003052 -0.0019729 0.13584
-0.0036051001 -0.0016002 0.13675
0.11763 0.017182 0.086795002
0.094892003 0.011332 0.057746001
0.095562004 0.012868 0.058455002
0.094223 0.012674 0.057895001
-0.038617 0.00056795002 0.15034001
0.11374 0.032836001 0.035461001
0.11508 0.032862999 0.036035001
0.11423 0.034320999 0.035544001
0.021260999 -0.0034149 0.10245
0.021721 -0.0024584001 0.10203
0.02084 -0.0017998 0.1012
0.088220999 -0.01482 0.094122
0.088182002 -0.015328 0.093037002
0.087816 -0.01667 0.092156
0.03019 0.021563999 0.087550998
0.030732 0.022022 0.087536998
0.030537 0.021214999 0.085561998
0.10128 -0.018104 0.082718
0.10218 -0.01722 0.081254996
0.10299 -0.017113 0.082341
0.11304 -0.0072431001 0.03517
0.11204 -0.038056999 0.047008
0.11155 -0.037471998 0.047908999
0.11121 0.010232 0.092403002
0.11083 0.0094545996 0.093395002
-0.043862998 0.0015318 0.13937999
-0.044197999 0.00045955999 0.13878
0.14951999 0.0083891004 0.11171
0.14991 0.0081211003 0.11011
0.15026 0.0072852001 0.11232
0.11772 0.0066473 0.10646
0.11748 0.0051600002 0.10619
0.1163 0.0055983001 0.10636
0.11205 0.03754 0.031168999
0.11336 0.036444001 0.032469999
0.092887998 0.025288999 0.051911999
0.092564002 0.025675001 0.051027998
0.092552997 0.025698001 0.049688
0.058541 0.0055793002 0.075053997
0.057819001 0.0054847999 0.075170003
0.057404999 0.0059809 0.075232998
0.1559 0.0037153 0.11627
0.15797 0.0052335002 0.11664
0.15624 0.0061685001 0.11669
0.10913 0.0012735 0.097157001
0.10967 -0.00012095 0.097622998
0.10959 0.00073249999 0.098197997
-0.047419999 0.0085423999 0.13445
-0.046510998 0.0086076995 0.13324
0.064539 -0.016938999 0.092338003
0.062987 -0.017762 0.091831997
0.063821003 -0.017814999 0.093097001
-0.0041859001 0.0016799 0.1426
-0.0054907999 0.00090883998 0.14183
-0.0047749998 0.00060447998 0.14166
0.11995 -0.028488001 0.046624999
0.11863 -0.028229 0.046420999
0.10393 0.011151 0.094315
0.1031 0.0116 0.093263
0.10363 0.01032 0.092398003
0.077858001 -0.010769 0.093982004
0.077808999 -0.010719 0.093751997
0.076705001 -0.010732 0.093765996
0.10801 0.024533 0.039983999
0.10709 0.024002001 0.03954
0.10749 0.025223 0.038936999
0.084316 -0.016685 0.091486998
0.083835997 -0.015459 0.09059
0.083632998 -0.015525 0.091132
-0.037560999 0.0041637002 0.15311
-0.037395999 0.0043219002 0.15334
-0.038183 0.0054648998 0.15218
0.027720001 0.005295 0.092370003
0.02898 0.0047217002 0.091036998
0.10474 0.036254 0.042107999
0.1048 0.03712 0.042208999
0.10499 0.036929999 0.04228
-0.022717001 -0.0095477998 0.11862
-0.022862 -0.0068331002 0.11925
-0.021947 -0.0077966 0.11885
0.12217 -0.055904001 0.041958999
0.12314 -0.056079999 0.041276999
-0.027349999 0.012135 0.13858999
-0.026046 0.012911 0.13802999
-0.027193001 0.014443 0.13809
0.15275 -0.001693 0.11321
0.15218 -0.0029899999 0.11144
0.15365 -0.002532 0.11158
0.052942999 0.016516 0.12089
0.051787999 0.016704001 0.12075
0.0052355998 0.016913 0.10014
0.0055411998 0.015206 0.10048
0.0050173998 0.014941 0.10167
0.1062 0.018936999 0.042706002
0.10698 0.018717 0.04335
0.1063 0.017262001 0.042442001
0.13099 -0.041432999 0.059792001
0.12994 -0.040798999 0.060839999
0.13183001 -0.043400999 0.060446002
0.091994002 -0.0031462 0.060286999
0.092093997 -0.0017924 0.059509002
-0.027574999 0.0027995999 0.11942
-0.028774001 0.0040159002 0.11792
-0.028202999 0.0026246 0.11799
0.0049164998 0.020251 0.10782
0.0059496001 0.018683 0.10734
0.0043335999 0.018017 0.10821
-0.011111 -0.0082598999 0.1129
-0.011463 -0.010804 0.11347
-0.012244 -0.0097703002 0.11453
0.074104004 0.011964 0.077221997
0.073372997 0.010897 0.075759001
0.073261 0.010921 0.076998003
0.10763 -0.032823998 0.050025001
0.10766 -0.031167001 0.050032001
0.10695 -0.031661998 0.050237998
0.13034 0.023685001 0.051171999
0.12921999 0.026310001 0.050207999
0.13474999 -0.0065263002 0.087935999
0.13486999 -0.0061626001 0.087366998
0.13563 -0.0058125001 0.089167997
0.068236001 0.013731 0.091473997
0.066873997 0.013424 0.092559002
0.068623997 0.012446 0.091260001
0.13995001 0.014163 0.10496
0.14026999 0.014405 0.10585
0.14013 0.013786 0.10656
0.13842 0.026752001 0.085469
0.13912 0.027794 0.085629001
0.061756998 -0.022337001 0.091026999
0.060984001 -0.021810999 0.090637997
0.061689001 -0.022382 0.089832
0.020036999 -0.0018704 0.12296
0.020646 4.7835001e-05 0.12422
0.019123999 -0.00060216 0.12373
-0.023603 0.020041 0.1296
-0.024858 0.018956 0.12853
-0.024150999 0.019895 0.13056
0.10997 0.03695 0.028316
0.11015 0.036387999 0.028904
0.10978 0.037071999 0.029355001
0.14613999 0.016905 0.10557
0.14617001 0.018653 0.10591
0.047614999 -0.021539001 0.097790003
0.047878001 -0.021654001 0.097433001
0.048039999 -0.021007 0.098917
0.060943998 8.2332999e-06 0.11316
0.060756002 0.00081986003 0.11262
0.062040001 0.0014788 0.11349
0.097329997 -0.0059600002 0.096643001
0.096767001 -0.0044837999 0.096060999
0.096703 -0.0054331999 0.095686004
0.095408998 -0.025402 0.053645
0.094416 -0.026954999 0.054315999
0.094059996 -0.026074 0.054171
0.10248 0.013539 0.088817999
0.12703 0.0088614002 0.11633
0.12957001 0.0080976998 0.11587
-0.045825999 -0.00053229998 0.13209
-0.045497 -0.00082631002 0.13197
0.11508 -0.023286 0.079131998
0.11546 -0.023587 0.077827998
0.11597 -0.022644 0.078451
0.074128002 0.01511 0.10176
0.072203003 0.015101 0.10293
0.080309004 -0.013898 0.092348002
0.080870003 -0.0135 0.094674997
-0.010741 0.010802 0.10779
0.049950998 0.018954 0.075732
0.049141001 0.020370999 0.076558001
0.072981998 0.0074499999 0.068305999
0.080540001 -0.0042595002 0.066270001
0.13878 0.0086158998 0.1106
0.139 0.0083967 0.1093
0.10844 0.02526 0.038598999
-0.013656 -0.01377 0.11553
-0.012352 -0.015309 0.11579
0.031164 -0.0031032001 0.094515003
0.031559002 -0.0040034 0.094536997
0.068673 0.0054331999 0.11939
0.067092001 0.0057673999 0.11962
0.063376002 -0.0052962 0.10311
0.063097998 -0.0034395 0.10227
0.062277 -0.0044233999 0.10081
0.099220999 0.018237 0.086129002
-0.027988 0.0081495 0.15771
-0.026728 0.0085631004 0.15485001
-0.028555 0.0090447003 0.15599
0.14352 -0.033732001 0.081869997
0.1372 0.015656 0.092997998
0.1365 0.016129 0.091903999
0.13715 0.016159 0.092866004
0.050409999 0.0025314 0.081610002
0.050500002 0.0028309 0.082598001
0.049485002 0.0020085 0.082466997
0.11192 0.0065996 0.034251999
0.11201 0.0077236001 0.033732999
0.097197004 -0.043504 0.056690998
0.097377002 -0.042927001 0.057138
0.097264998 -0.043774001 0.058154002
0.11823 -0.020471999 0.079251997
0.11742 -0.020981001 0.078112997
0.11933 -0.021977 0.078870997
0.043182001 -0.0053691999 0.11662
0.043244999 -0.0043815998 0.11738
0.042334002 -0.0039053001 0.11775
0.046953 0.01133 0.080939002
0.045527 0.01109 0.080845997
-0.022924 0.021493999 0.12763
-0.021931 0.020579999 0.12828
-0.029712001 -0.0069991001 0.14879
0.11307 0.021625999 0.083462998
0.11309 0.020981001 0.084348001
0.11103 -0.017787 0.042102002
0.11146 -0.017751999 0.042984001
0.11209 -0.018079 0.043317001
0.10648 -0.014388 0.048356999
0.0014454999 0.012755 0.13696
0.0010462001 0.01342 0.13751
-0.0029909001 0.015383 0.12049
-0.0016253 0.015657 0.11982
-0.0016419 0.016473001 0.11988
0.10827 0.00070095999 0.093598999
0.10847 -0.0014450999 0.093891002
0.085817002 0.016419999 0.099450998
0.087196998 0.016465001 0.098880999
0.12534 0.019802 0.10124
0.12566 0.019169999 0.10144
0.12669 0.028163999 0.055720001
0.12716 0.027809 0.054981001
0.076578997 -0.0044320999 0.097181998
0.077298999 -0.0047275 0.097119004
0.077257 -0.0052339002 0.096796997
0.14076 -0.0010767 0.10278
0.14038999 -0.0012150001 0.10246
0.14248 -0.0015304 0.10305
0.015467 -0.0084976004 0.13033
0.015069 -0.0077928002 0.12953
0.015848 -0.0076470999 0.13073
0.061182 0.011095 0.073086001
0.060826998 0.012644 0.074775003
0.094339997 -0.028744999 0.062157001
0.095174 -0.029019 0.063059002
0.095008999 -0.026838999 0.063794002
0.0056738001 -0.0018863 0.10639
0.0056424998 -0.0020862999 0.10602
0.0056523001 -0.0035667 0.10627
0.12076 0.0093170004 0.10519
0.12242 0.010225 0.10468
0.12019 0.010786 0.10404
0.096745998 0.020426 0.072894998
0.095468998 0.020625999 0.071782999
0.12791 -0.0071677002 0.104
0.12865999 -0.0071013998 0.10457
0.12859 -0.0057048001 0.10414
0.044856999 -0.012262 0.11216
0.043294001 -0.012314 0.11393
0.042861 -0.012626 0.11411
0.041269001 -0.014797 0.086911
0.040521 -0.014353 0.086741
-0.011372 0.0077362 0.1119
-0.010585 0.0075666001 0.11067
-0.010449 0.0075532999 0.11133
-0.00027361 -0.016968001 0.11391
0.00047493001 -0.018045999 0.11398
-0.0010418 -0.016408 0.11407
0.018354001 0.0031411999 0.10215
0.019006999 0.002937 0.10038
0.019103 0.0032866001 0.10171
0.054163001 0.014497 0.11342
0.055776 0.014308 0.11299
0.053817999 0.014866 0.11167
0.10993 0.031658001 0.026101001
0.10985 0.03224 0.024652001
0.11015 0.032472 0.025835
0.068172999 0.0087874001 0.077600002
0.067909002 0.0085920002 0.078259997
0.069709003 0.01022 0.077930003
0.030412 -0.0047312002 0.092878997
0.029726001 -0.0047260001 0.092413001
0.017123001 0.00041986999 0.10181
0.10737 0.042174 0.044672001
0.10718 0.041432999 0.043811001
0.10824 0.040066998 0.044310998
0.074525997 -0.013928 0.082736999
0.0098885 0.011897 0.13037001
0.0096971998 0.012488 0.13144
0.010937 0.012685 0.13176
-0.040359002 -0.011977 0.13454001
0.079164997 0.013548 0.067340001
0.079838999 0.012934 0.066532999
0.078887999 0.012521 0.066321
0.13285001 0.038830001 0.06538
0.1327 0.039386999 0.064488001
0.13178 0.039106999 0.064149998
-0.033027001 -0.0015917 0.12724
-0.030823 -0.0016315 0.12603
-0.031679001 -0.0025321001 0.12675001
0.11026 0.039748002 0.049495
0.10987 0.038550001 0.050113998
-0.027605001 -0.010131 0.12656
-0.027156999 -0.009668 0.12683
-0.027818 -0.0095397001 0.12851
0.025486 0.0064976998 0.10123
-0.0040410999 -0.013717 0.12445
-0.0041280999 -0.014587 0.12453
-0.0032941999 -0.014285 0.12337
0.11735 -0.0083146002 0.026261
0.11839 -0.0092265997 0.027949
0.118 -0.0086329002 0.026159
-0.017093999 0.015168 0.12627999
0.11382 -0.038906999 0.050680999
0.11454 -0.039818 0.050914001
0.11389 -0.039271999 0.049853999
0.052246001 0.012618 0.12695999
0.051132999 0.012176 0.12727
0.051978 0.012247 0.12577
0.102 0.018731 0.045435999
0.10776 0.0090301996 0.037537999
0.10758 0.0086524002 0.038881999
0.10846 0.010144 0.037319999
0.10777 0.021447999 0.083710998
0.14572001 0.015721001 0.10629
0.14648999 0.016310001 0.10687
0.14546999 0.016237 0.107
0.011301 0.013873 0.10004
0.067139998 0.0083689997 0.11089
0.067616001 0.0094831996 0.11069
0.067054003 0.0088453004 0.11019
-0.01149 -0.0082023004 0.13032
-0.010534 -0.0073970999 0.12951
0.11415 0.041756 0.043017998
0.11571 0.042346999 0.043366998
0.11407 0.040787999 0.041563001
0.0083426004 0.017066 0.11233
0.0091276001 0.016774001 0.11147
0.0091084996 0.018161001 0.1118
-0.042334002 0.0077546998 0.13003001
-0.041285999 0.0081542004 0.13003001
0.024848999 -0.0071777999 0.11597
0.026133001 -0.0072562001 0.11602
0.026967 -0.0066331001 0.1172
0.053353999 -0.02073 0.095801003
0.053188998 -0.022003001 0.095591001
0.035714 0.0076780999 0.085372999
0.036479 0.0088644 0.084734
0.036432002 0.0088080997 0.084532
0.077505998 0.011885 0.098463997
0.077564001 0.0099179996 0.099739999
0.093791001 -0.025501 0.063367002
0.094205 -0.027022 0.063348003
0.11975 0.052184001 0.032745998
0.11894 0.052947 0.031328999
0.072544999 0.013188 0.099595003
0.1106 -0.037021 0.047162
-0.044165 0.0078043002 0.13846
-0.043625001 0.0060271001 0.13819
-0.044473998 0.0064432002 0.13912
0.089179002 -0.01558 0.089703999
0.090352997 -0.016061001 0.090797998
0.076003999 -0.013691 0.091255002
0.075121 -0.01296 0.091516003
0.075609997 -0.013478 0.091283001
0.10943 0.034503002 0.024514999
0.10968 0.033442002 0.024751
0.10951 0.033601999 0.025853001
0.098336004 0.016992999 0.046372999
0.097764999 0.015879 0.046787001
0.098618001 0.016246 0.046309002
-0.041244999 0.012575 0.13001999
-0.040796001 0.012436 0.13037001
0.072045997 0.011228 0.11651
0.072535001 0.011668 0.11561
0.071363002 0.010926 0.11621
0.12895 0.033489 0.058540002
0.13004 0.033635002 0.057874002
0.12890001 0.032577001 0.056988001
0.0060530002 0.016628001 0.11865
0.0057955999 0.017943 0.11922
0.0061764 0.017196 0.11846
-0.036664002 -0.010176 0.13473
-0.036405001 -0.010164 0.13492
-0.038378 0.014386 0.13605
-0.037760999 0.014015 0.13545001
-0.036010001 0.015288 0.1346
0.1095 0.032504 0.026101001
0.11006 0.033121001 0.025765
0.028914001 0.0058488999 0.086666003
0.029030001 0.0053511998 0.087249003
0.028675999 0.0054297 0.086359002
0.049383 0.017335 0.11183
0.049100999 0.016675999 0.11367
0.11091 0.017347001 0.094916001
0.11126 0.017024999 0.096205004
-0.017409001 0.0099159004 0.11893
-0.016559999 0.010281 0.11839
-0.016971 0.0091124997 0.11748
0.094059996 0.012703 0.051182002
0.094377004 0.012722 0.052407
0.093029 0.012259 0.052471999
0.052576002 0.014497 0.082943
0.053424999 0.013502 0.084822997
0.11431 0.037312001 0.033445001
0.1137 0.037268002 0.032722
-0.020956 -0.00284 0.14221001
-0.021237999 -0.0031689999 0.14274999
-0.021360001 -0.0043720999 0.14236
0.026868001 0.00075220998 0.098419003
0.12803 -0.032983001 0.070596002
0.12842 -0.032256 0.068604998
0.11489 -0.020107999 0.035918001
0.11535 -0.020868 0.035418
0.0073544001 -0.0039078998 0.10708
0.0069084 -0.001956 0.10691
0.0074078999 -0.0040985001 0.10623
0.096383996 -0.041664999 0.052995
0.098118998 -0.042123999 0.052793998
0.035602 0.016388001 0.10307
0.035167001 0.016858 0.10401
0.035321999 0.016767001 0.10371
0.060168002 0.010135 0.087572999
0.059106 0.010265 0.088266999
0.060787998 0.011125 0.087908
0.068710998 0.0047967001 0.11351
0.068644002 0.0052335002 0.11316
0.069876 0.0052646999 0.11281
0.064397998 -0.017457001 0.090008996
0.064801 -0.017579 0.088855997
0.063353002 -0.017372999 0.088854998
0.050994001 -0.015409 0.086911
0.052023001 -0.015551 0.085882001
0.051596999 -0.015876001 0.085882001
0.049293 0.016923999 0.11584
0.050289001 0.016581001 0.11594
0.049538001 0.017333001 0.11509
0.055314001 0.014853 0.1108
0.055447999 0.014221 0.10979
0.055684 0.014489 0.11036
0.11844 0.041166998 0.044245999
0.11758 0.040635001 0.043678001
0.11952 0.041712001 0.044179998
0.026881 0.0064868 0.10017
0.026117999 0.0050983001 0.10014
0.025301 0.0068729999 0.10195
0.047651 -0.020075999 0.085928001
0.1245 0.047410998 0.039105002
0.12392 0.046576001 0.038849
0.14584 -0.0040916 0.092257999
0.14601 -0.0046021999 0.092252001
0.14478 -0.0049537998 0.091531999
0.07367 0.014075 0.080300003
0.074803002 0.014131 0.080440998
0.074005 0.014433 0.079101004
0.027595 0.012166 0.11138
0.029789999 0.012718 0.11099
0.033061001 -0.0071198 0.089020997
0.033372998 -0.0077427002 0.088601001
0.032391001 -0.0066455002 0.088878997
-0.012432 0.0044550998 0.11564
-0.012962 0.0036887 0.11569
-0.013732 0.0049351999 0.11632
0.13224 -0.0021150999 0.099460997
0.13136999 -0.0030254 0.10185
-0.035181999 0.012983 0.14873999
-0.034426998 0.012453 0.14991
0.11504 -0.040479001 0.047187001
0.12211 0.018195 0.085722998
0.12173 0.018136 0.086992003
0.095659003 -0.025729001 0.054471001
0.095669001 -0.02685 0.054701
-0.0060924999 0.0036142999 0.11017
-0.0065147001 0.0044153999 0.10936
-0.0053814999 0.0046548001 0.1088
0.10851 -0.036150999 0.047768001
0.10953 -0.034577999 0.047731001
0.10962 -0.035471 0.047595002
-0.042406 0.01615 0.13778
-0.041634999 0.01478 0.13714001
-0.042505998 0.016602 0.13674
0.1092 -0.017888 0.087572999
0.11043 -0.016961999 0.088074997
0.10961 -0.016268 0.088924997
0.045942999 0.014292 0.077632003
0.045419 0.01452 0.076673999
0.047173001 0.013715 0.077095002
-0.016194001 -0.0047472999 0.11708
-0.016798001 -0.0047109001 0.11787
0.082638003 -0.017627001 0.083733
0.081937999 -0.017271001 0.083562002
0.1393 0.015027 0.09815
0.13838001 0.013785 0.097368002
0.13876 0.014063 0.099064998
0.10009 0.024267999 0.040725
0.099717997 0.025148001 0.040738001
0.13259999 0.032129999 0.072448999
0.13398001 0.03198 0.073227003
0.073425002 -0.0074447999 0.095207997
0.043763999 -0.012127 0.11063
0.045508001 -0.01257 0.11002
0.045272 -0.01228 0.11221
0.014236 0.012721 0.10964
0.013642 0.012713 0.11123
0.01351 0.012544 0.11175
0.030285001 0.0052415002 0.12313
0.029036 0.0054561999 0.12398
0.029817 0.0046840999 0.12335
-0.016899001 0.018038001 0.12392
-0.016372999 0.016860999 0.12292
0.11112 -0.011672 0.089212
0.11115 -0.013715 0.089832999
0.11097 -0.013286 0.090469003
-0.025854999 0.0042555998 0.15985
-0.026938999 0.0053599998 0.16039
-0.027198 0.0054660002 0.16012999
0.14078 0.034426 0.079533003
0.13973001 0.034412999 0.080236003
0.13892999 0.035186 0.078474
0.079841003 0.022748001 0.086234003
0.080173001 0.023193 0.086744003
0.080286004 0.022395 0.086893
0.11708 0.0061917002 0.02478
0.11576 0.0051463 0.024158999
0.11596 0.0064944001 0.024751
0.10149 0.026327999 0.03624
0.10187 0.024528001 0.035684999
0.10117 0.026067 0.036681
0.060648002 0.013658 0.071153
0.062351 0.012354 0.071373999
0.11131 0.021488 0.080029003
0.10987 0.021008 0.080040999
0.10984 0.021276001 0.080692999
0.12965 0.031870998 0.057015002
0.12944999 0.033310998 0.056717001
0.037191998 0.0011919 0.083961003
0.037491001 0.0021538001 0.08461
0.038265001 0.0019514 0.084781997
-0.027268 0.017681001 0.12139
-0.026153 0.017233999 0.12084
-0.026156001 0.017604999 0.11966
-0.012414 0.019935001 0.11468
-0.014085 0.020861 0.11626
-0.012255 0.020079 0.11693
0.070354998 0.0012602 0.07649
0.11448 -0.0077940002 0.030027
0.11404 -0.0073537999 0.02977
0.0036597 -0.0052665002 0.10977
0.0054473998 -0.0055199 0.10839
0.0047463002 -0.0067762001 0.10932
0.065701999 -0.0040442999 0.079547003
0.064415 -0.0050769001 0.079402998
0.064874999 -0.0038097 0.079478003
0.10257 -0.019943001 0.075741999
0.12277 -0.041262999 0.038267002
0.11061 0.036118999 0.044379
0.1102 0.037542 0.044155002
0.11866 -0.020405 0.034713
0.11838 -0.021212 0.033234
0.11966 -0.020777 0.034049999
-0.0069980999 -0.0087884003 0.11043
-0.0071463999 -0.0088227 0.11001
0.026466001 0.011368 0.11749
0.01322 0.013071 0.10033
-0.048186 0.015923001 0.13288
-0.047589999 0.016198 0.13383
-0.048032001 0.017727001 0.13367
0.11536 0.025367999 0.070551999
0.088979997 -0.0078817001 0.065139003
0.089376003 -0.0079167997 0.065116003
0.10366 0.035992999 0.052898999
0.10363 0.034667 0.054095
0.1045 0.033992998 0.052285999
0.037280001 -0.011144 0.11216
0.036589 -0.010695 0.1103
0.037062999 -0.011123 0.11112
0.13399 0.0096421996 0.10897
0.13337 0.0091075003 0.1103
0.13354 0.0093382001 0.10897
0.07615 -0.012972 0.085499004
0.075919002 -0.012341 0.085330002
0.076288998 -0.012274 0.084230997
-0.013549 -0.012998 0.13026001
-0.013516 -0.013054 0.12929
0.061567001 0.0083542001 0.073018
0.060846999 0.0071931998 0.073058002
0.062169001 0.0083063003 0.074900001
0.013226 0.013591 0.1004
0.014614 0.014043 0.10012
0.013319 0.014622 0.10028
-0.0057469001 -0.0057772999 0.13206001
-0.0061216 -0.0059537999 0.13118
0.11835 -0.0092876004 0.093243003
0.11808 -0.010508 0.094869003
-0.039422002 0.0083178002 0.12685999
-0.040603999 0.0086418996 0.12736
-0.040360998 0.0085907998 0.12597001
0.07525 -0.010115 0.093557999
0.075336002 -0.011889 0.091810003
0.076036997 -0.012016 0.093353003
0.11953 -0.0078641996 0.10218
0.12103 -0.0073086 0.10353
0.12028 -0.0074622999 0.10334
-0.0047030998 0.017607 0.126
-0.0049707 0.017184 0.12665001
-0.0054142 0.016240001 0.12702
0.036477 -0.0050022001 0.11943
0.03717 -0.0050845002 0.11819
0.03726 -0.0039422 0.11765
0.088196002 -0.0043525998 0.063111
0.086733997 -0.0041095 0.064363003
0.088102996 -0.0035558001 0.063983001
0.034742001 0.01243 0.082797997
0.034361999 0.013515 0.082043
0.14414001 0.014297 0.10495
0.14316 0.012723 0.10396
0.10503 0.020856 0.077546
0.10496 0.020850999 0.078622997
0.10662 0.021356 0.077592999
0.026673 0.0066502001 0.097779997
0.026601 0.0056715002 0.098176003
0.0090912003 0.0072420002 0.13619
0.0089459997 0.0089236004 0.13677999
0.0077966 0.0085412003 0.13766
0.014815 -0.0014736 0.10399
0.01574 -0.00052583002 0.10474
-0.032698002 0.011364 0.1233
-0.031831 0.011537 0.12323
-0.031424999 0.010253 0.12158
0.033491001 -0.00077871 0.11812
0.033592999 -0.0021649001 0.11883
0.034565002 -0.0021448999 0.11823
-0.036217 0.0035208999 0.15609001
-0.035893999 0.0027723999 0.15482
-0.036316 0.0025199 0.15536
0.13299 0.0064884 0.11338
0.13219 0.0079383003 0.11351
0.011803 -0.0087842997 0.12004
0.010807 -0.0084982999 0.11881
0.037466001 0.0032856001 0.1188
0.035718001 0.0023947 0.11788
0.036959 0.003021 0.11713
0.082291998 0.0040175999 0.097538002
0.081710003 0.0038633 0.097544
0.12305 0.014193 0.10315
0.12433 0.013389 0.10366
0.086585 0.017995 0.097930998
0.086804003 0.017550999 0.097080998
0.086645998 0.018227 0.096855
-0.046121001 -0.0077827 0.13515
-0.046905998 -0.0091704996 0.13506
-0.040277001 0.00066719 0.14742
-0.039358001 -0.00080174999 0.14734
-0.038929999 -0.00082270999 0.14850999
0.095177002 -0.029634001 0.065491997
0.15177999 0.010462 0.11234
0.15083 0.011625 0.11211
0.15114 0.011527 0.11148
-0.022414001 0.002972 0.15636
-0.022645 0.0051226001 0.15712
0.12443 -0.056065001 0.041565999
0.12349 -0.056754999 0.038956001
0.1234 -0.056258 0.038757998
0.11066 0.03506 0.030695001
0.11101 0.035284001 0.032246001
0.056992002 0.020005999 0.097545996
0.057449002 0.019042 0.096179001
0.057362001 0.018723 0.096616998
-0.0018957 0.017459 0.10374
-2.1915999e-05 0.017116999 0.10295
-0.0023872999 0.015923001 0.10374
0.095096 0.033278 0.062927
0.094231002 0.031610001 0.064355999
0.094094999 0.032949999 0.064877003
0.11228 -0.041795 0.046773002
0.11288 -0.040059999 0.048149001
-0.022148 -0.00059811003 0.14952999
0.10436 -0.043074001 0.058549002
0.10263 -0.042091001 0.056937002
0.11999 -0.057273 0.044859
0.096516997 -0.029402999 0.070050001
-0.03076 0.010433 0.14342
-0.030455999 0.010714 0.14376
0.092874996 -0.0068441001 0.054251999
0.040798999 -0.01344 0.11409
0.040904 -0.012205 0.11374
0.040516999 -0.012075 0.11169
0.049474999 0.0015668001 0.083660997
0.11242 0.0093141999 0.028486
0.11168 0.010208 0.029994
0.080714002 0.0046108998 0.097464003
0.082369998 0.0058746999 0.098444
0.081791997 0.0056507001 0.098866001
0.15728 0.021421 0.11109
0.1557 0.022774 0.11075
0.15523 0.021615 0.1107
0.086437002 0.017681999 0.07119
0.086145997 0.017903 0.070083998
0.037179001 -0.016566001 0.10626
0.038596001 -0.014476 0.10697
0.036904 -0.014836 0.10576
0.10913 0.026456 0.069507003
0.10794 0.026782 0.069283001
0.10873 0.026446 0.071436003
0.050519001 0.024256 0.080542997
0.049779002 0.024486 0.079365
0.11945 -0.0075119999 0.09804
0.11973 -0.0073646 0.099466003
0.1189 -0.0083956998 0.098672003
0.010825 -0.0055236001 0.10678
0.01062 -0.0048925001 0.10629
-0.030486001 -0.0079779001 0.14608
-0.030362001 -0.0069482001 0.14534999
-0.029106 -0.0075651002 0.14486
0.050312001 -0.013765 0.087288
0.048794001 -0.013071 0.087774001
0.050133999 -0.012979 0.087344997
-0.0081906002 0.018134 0.11068
0.055743001 0.019084999 0.094411001
0.056614 0.018410999 0.095711
0.056124002 0.018213 0.094825998
0.10033 0.035888001 0.048677001
0.099967003 0.035696998 0.047467999
0.10022 0.037262 0.048514001
0.033961002 0.010841 0.11414
0.032508001 0.01083 0.11526
0.032853 0.010835 0.11473
0.093473002 0.019584 0.069567002
0.094143003 0.019151 0.068607002
0.093869999 0.019191001 0.068686999
-0.042158999 0.0043982998 0.14319
-0.042514998 0.0030815001 0.14331
-0.042082999 0.0043786 0.14387999
0.010185 0.018356999 0.12329
0.0098123001 0.017894 0.12493
0.0096067004 0.016759999 0.12503999
0.14385 -0.0086848997 0.084987
0.14359 -0.0089950003 0.085794002
0.1435 -0.010453 0.086126998
0.12489 -0.013229 0.090483002
0.12487 -0.013878 0.088340998
0.12540001 -0.014976 0.088728003
0.0039440002 0.017116999 0.11557
0.0040715002 0.018650999 0.11511
0.059739001 0.015402 0.11913
0.059987999 0.014811 0.11811
0.059473999 0.015269 0.11785
0.021785 0.0015414 0.13212
0.14034 -0.037919998 0.078029998
0.14038 -0.03915 0.078638002
0.099202 -0.028607 0.077137001
0.099275 -0.029137 0.077656001
0.099602997 -0.027248001 0.076741003
0.14667 0.019307001 0.096552998
0.14864001 0.019229 0.097299002
0.14820001 0.018786 0.095656
0.035932999 -0.01619 0.089638002
0.035620999 -0.014245 0.08907
0.036201 -0.014465 0.089702003
0.096386001 -0.014364 0.089158997
0.095871001 -0.01463 0.088946998
0.054171 0.014655 0.082737997
0.054092001 0.014808 0.080921002
-0.027998 0.018181 0.12503999
-0.02871 0.017016999 0.12682
0.049913 -0.013404 0.10157
0.050439 -0.012737 0.10133
0.050946999 -0.01228 0.10218
-0.043230001 -0.0061937999 0.1364
0.052017 0.002757 0.087663002
0.053610001 0.0017511999 0.086712003
0.051732 0.00093710999 0.087364003
-0.039269999 0.01458 0.12814
-0.039074 0.014304 0.12757
-0.040573001 0.015329 0.12785
0.030890999 0.015023 0.099262998
0.10281 0.012193 0.046172
0.10152 0.011798 0.046654999
0.082529001 -0.015772 0.081537001
0.081244998 -0.015471 0.082170002
-0.010957 0.018593 0.11249
0.11128 0.038249001 0.023344999
0.111 0.037154999 0.022078
0.11015 0.036862001 0.024302
-0.023251001 0.013928 0.13468
-0.023806 0.015184 0.13476001
0.10876 -0.043845002 0.065024003
0.021841999 -0.011368 0.11137
-0.018391 -0.0037678999 0.14373
-0.019285001 -0.0027695999 0.14221001
-0.017717 -0.0031747001 0.14376999
0.11828 0.048193999 0.028289
0.1168 0.047359999 0.028973
0.051741 0.0025615999 0.084377997
0.051555 0.0027322001 0.083916001
0.12980001 0.010598 0.11457
0.11133 0.020847 0.081120998
0.11025 0.02045 0.081611
0.11105 0.020574 0.082432002
-0.0045485999 0.016194999 0.12108
-0.0029476001 0.016431 0.12065
-0.0046601999 0.017167 0.1206
0.08427 -0.015256 0.073627003
0.083881997 -0.015548 0.074210003
0.083182 -0.014769 0.073725998
0.016927 -0.00087322999 0.10419
0.12491 -0.021283001 0.045017
0.12615 -0.022255 0.045428999
-0.0023751999 0.010963 0.10475
-0.0028657999 0.0099491999 0.1063
-0.0036645001 0.010695 0.10562
0.11003 0.034887001 0.020199001
0.11119 0.034708001 0.020691
0.11043 0.03351 0.021019001
0.083094001 0.0027270999 0.064433001
0.10657 0.023495 0.039740998
0.11421 0.024253 0.031663001
0.11277 0.024736 0.032772999
0.1133 0.025026999 0.031107999
0.082799003 -0.014234 0.075502999
0.1132 -0.012269 0.031208999
0.019867999 0.012568 0.11337
0.019637 0.012855 0.11327
0.019371999 0.013517 0.11446
0.052409001 0.016135 0.088776998
0.11249 -0.035881002 0.067805
0.11275 -0.036474001 0.066683002
0.11066 -0.018836999 0.086842
0.11108 -0.018137001 0.086952001
0.11044 -0.018974001 0.088244997
0.065021001 -0.016012 0.090484001
0.063702002 -0.017140999 0.091884002
0.064636998 -0.016434999 0.091302
0.10043 -0.018081 0.073606998
0.099950001 -0.017836001 0.073150001
0.09939 -0.017914001 0.073229998
0.1388 -0.017372999 0.091187999
0.13864 -0.018546 0.091081001
0.13986 -0.017952999 0.091879003
-0.013345 -0.00062519999 0.14015
-0.012236 0.00027776 0.14162999
0.13231 -0.012762 0.092519999
0.13249999 -0.012297 0.092326999
0.029222 0.010228 0.094117999
0.029135 0.0097984998 0.094685003
0.029808 0.0098671997 0.094053
0.13857 0.030763 0.083093002
0.13866 0.029865 0.083557002
0.13788 0.031293001 0.082905002
-0.037601002 0.0040739002 0.12914
-0.037404999 0.0025331001 0.13049001
-0.037693001 0.003787 0.12983
-0.021994 0.0047976002 0.15402
-0.022498 0.0027936001 0.15295
-0.016346 0.0014469 0.11874
-0.015967 0.0024759001 0.11808
0.066542998 -0.0045655998 0.10097
0.067984998 -0.0047217999 0.10153
0.068111002 -0.0046803998 0.10262
0.10422 -0.00042898001 0.094985999
0.10626 -0.0016608 0.094457999
0.10577 -0.00047771001 0.094938003
0.037620999 0.025171001 0.10355
0.10903 0.034672 0.023848001
0.11515 -0.025746001 0.049592
0.11374 -0.026493 0.048854999
0.035891999 -0.0040950999 0.11813
-0.040780999 -3.1684998e-05 0.13034999
0.10202 0.029642999 0.039974
0.10073 0.028159 0.038770001
-0.0020969 -0.012811 0.10785
-0.0022344999 -0.012506 0.10937
0.0022839999 0.019215001 0.1274
0.002168 0.018835001 0.12635
0.091831997 0.027555 0.038722001
0.097317003 0.038989 0.054792002
0.097234003 0.040525001 0.053617001
0.096188001 0.040869001 0.053982999
0.037976999 -0.0027502 0.11786
0.038562 -0.0017312 0.1196
0.038135 -0.0010686 0.1187
0.10283 -0.026681 0.077881999
0.10307 -0.027225999 0.077836998
0.084988996 0.010936 0.063878
0.083640002 0.013249 0.065435998
-0.018007999 0.013302 0.13694
-0.019045999 0.01248 0.13714001
-0.018002 0.012792 0.13721
0.018554 -0.0079533998 0.10161
0.019741001 -0.0086589996 0.10232
0.019467 -0.0095924996 0.1022
0.0099574998 0.0043421001 0.10692
0.0097318003 0.0039013 0.1061
0.10697 0.023961 0.077563003
0.10699 0.023483001 0.078535996
0.10777 0.024293 0.077523001
0.10292 0.034781002 0.060617998
0.09612 0.038260002 0.050108999
-0.029704001 0.0050845002 0.11954
-0.029572001 0.0044561001 0.11806
-0.027635001 0.0050193998 0.11849
0.11729 -0.034428999 0.045097999
0.11602 -0.035767 0.046062
0.1164 -0.034255002 0.04541
0.0087435003 0.016625 0.10165
0.0080378996 0.017468 0.10077
0.0086514996 0.016384 0.099849001
0.13011999 -0.0040286998 0.10447
0.13018 -0.0056381002 0.10482
0.039834999 -0.020563001 0.089125
0.039926998 -0.020261999 0.088335
0.10895 0.031994 0.057944
0.11085 0.032543998 0.056265
0.1118 0.010276 0.093409002
0.11082 0.0099117998 0.093749002
0.067411996 0.0095068002 0.084114
0.067951001 0.0087869996 0.084069997
0.067578003 0.0084089004 0.084287003
0.1045 0.0026428001 0.046928
0.10416 0.0016655 0.045311
0.10534 0.0021277999 0.047369
0.10529 0.033124998 0.041196
0.10594 0.03218 0.040908001
0.10511 0.033263002 0.039464001
0.026118999 0.015853999 0.10231
0.026126999 0.015252 0.10187
0.093323 0.024393 0.065030001
0.091628999 0.024713 0.063731998
0.092189997 0.023821 0.064107001
0.054843999 -0.0084862001 0.10632
0.054816 -0.0088897999 0.1073
-0.015667999 -0.0049357 0.1188
-0.016009999 -0.0053944001 0.12018
-0.016431 -0.0041617998 0.11922
0.090585001 -0.015241 0.067497998
0.091734998 -0.016650001 0.0678
0.10313 -0.033195999 0.076500997
0.12072 -0.024816999 0.046778001
0.12023 -0.023968 0.047175001
-0.0016354 0.00085096998 0.14345001
-0.00085231999 0.00069664 0.14386
-0.0018366 0.0015389 0.14442
-0.0049184002 -0.016355 0.11916
-0.0043404 -0.016442001 0.11984
0.094039999 0.018733 0.078606002
-0.00033598 -0.012624 0.1227
-0.00062588003 -0.012465 0.12281
0.059992 -0.0063017998 0.10816
0.059269998 -0.0071502998 0.10757
0.040006001 -0.021067001 0.10325
0.041582 -0.020036001 0.1033
0.040645 -0.019463001 0.1043
0.12062 -0.048082002 0.062452
0.12087 -0.046594001 0.061524998
0.11977 -0.046388999 0.061066002
-0.017462 -0.013278 0.12752999
-0.018386001 -0.013001 0.12915
0.12754001 0.033153001 0.068697996
0.033039998 -0.0049006999 0.087958999
0.072424002 0.015438 0.089121997
0.071230002 0.015788 0.088964
-0.016353 -0.012422 0.13362999
-0.016284 -0.011585 0.13372
-0.017523 -0.011554 0.1344
0.097167 0.015303 0.089879997
0.095477998 0.015488 0.090761997
0.11061 0.022119001 0.079770997
0.12932999 -0.010006 0.092358001
0.13042 -0.010881 0.092425004
0.13104001 -0.010511 0.092418998
0.14703 0.0069673001 0.10722
0.14647999 0.0053754998 0.10757
0.062651001 0.0029198001 0.078657001
0.062523998 0.0024961999 0.080466002
0.061659001 0.0025589 0.078566
0.14703999 -0.024405001 0.090003997
0.14736 -0.024365 0.090800002
0.14636999 -0.023209 0.091302998
0.10146 -0.043202002 0.069709003
0.1013 -0.044716999 0.067876004
0.10158 -0.045878001 0.067887001
0.078482002 0.013952 0.071547002
0.076931 0.01409 0.071140997
0.076862 0.014494 0.071845002
0.010263 -0.017374 0.1109
0.0095525002 -0.019518999 0.11215
0.10234 -0.0015392 0.049663998
