# .PCD v0.7 - Point Cloud Data file format
VERSION 0.7
FIELDS x y z
SIZE 4 4 4
TYPE F F F
COUNT 1 1 1
WIDTH 1511
HEIGHT 1
VIEWPOINT 0 0 0 1 0 0 0
POINTS 1511
DATA ascii
0.19137 0.0038989999 0.11446
0.18995 0.0059213 0.11157
0.19017 0.0056576999 0.11362
0.19136 0.0094140004 0.10985
0.19193 0.01019 0.10887
0.16229001 0.064117998 0.093800001
0.18555 0.035912 0.10433
0.18700001 0.031984001 0.10397
0.18753 0.033229999 0.1062
0.1877 0.032324001 0.10529
0.18798999 0.030919001 0.10555
0.19093999 0.024134999 0.10509
0.19347 0.022077 0.10753
0.19322 0.020551 0.10862
0.16697 0.071071997 0.091248997
0.16766 0.071718 0.089327998
0.20653 0.0045441999 0.10906
0.16919 0.071984001 0.09014
0.20861 0.0066148001 0.10864
0.21086 0.0097412001 0.1071
0.20528001 0.033013001 0.098705001
0.20499 0.033898 0.098902002
0.20226 0.040685002 0.097494997
0.18305001 0.072892003 0.087465003
0.19666 0.050545 0.094035
0.19791 0.047849 0.093997002
0.19576 0.055709999 0.092160001
0.19603001 0.055514 0.092040002
0.21771 0.023149 0.10061
0.21731 0.023949999 0.10146
0.21610001 0.025976 0.10154
0.21153 0.049403999 0.092584997
0.21979 0.042183999 0.094019003
0.21371999 0.054841001 0.089919999
0.22484 0.041430999 0.093795002
0.22429 0.043094002 0.094466001
0.22522999 0.040640999 0.093493
0.23301999 0.044317 0.092152998
0.21816 0.068435997 0.085013002
0.23724 0.044498 0.090496004
0.22840001 0.071517996 0.082676001
0.23 0.072521001 0.082364999
0.22521999 0.077463999 0.080544002
0.24682 0.044213999 0.089698002
0.24748001 0.044259001 0.089368999
0.23193 0.072324999 0.081032
0.23219 0.073774002 0.080885001
0.23146001 0.074749999 0.080355003
0.23203 0.072747 0.080643997
0.23171 0.074014999 0.079756998
0.25235999 0.043435 0.090699002
0.25511 0.041106001 0.089116
0.24097 0.086116001 0.075785004
0.26646999 0.043274999 0.087376997
0.27223 0.042027999 0.086902
0.27421001 0.043885 0.086121999
0.28004 0.047116 0.085520998
0.26545 0.092146002 0.069656998
0.27225 0.091245003 0.069596998
0.27528 0.090644002 0.068457998
0.27592999 0.090553001 0.068680003
0.28475001 0.094981 0.066372998
0.28659001 0.091716997 0.066817999
0.29233 0.088207997 0.067516997
0.29368001 0.087577999 0.068086997
0.29324001 0.086263999 0.068342999
0.29440999 0.084738001 0.068318002
0.29109001 0.092127003 0.066794001
0.29074001 0.091447003 0.066565
0.29620001 0.084058002 0.069302
0.30206001 0.074412003 0.071254998
0.308 0.075894997 0.068985999
0.29909 0.098834001 0.062399
0.30752 0.10217 0.060908999
0.31088001 0.10026 0.060198002
0.32225999 0.077288002 0.067111999
0.3193 0.099247001 0.059735999
0.32008001 0.10017 0.059700001
0.32218 0.099490002 0.058924001
0.32909 0.096390001 0.060017001
0.33254001 0.091090001 0.061301
0.33241999 0.090421997 0.061595
0.19577999 0.0022269001 0.11238
0.19185001 0.0097818999 0.1092
0.19735999 0.0058176001 0.11222
0.19369 0.011983 0.10926
0.17933001 0.048457999 0.10044
0.18495999 0.036088001 0.10319
0.1902 0.025157999 0.10454
0.20067 0.0049129999 0.11043
0.17272 0.058603998 0.095321
0.17411 0.074381001 0.088629998
0.18164 0.074640997 0.086466998
0.20986 0.026516 0.10142
0.21042 0.026426001 0.10111
0.19537 0.052248001 0.092657
0.20096999 0.041375 0.096542999
0.21669 0.017158 0.10502
0.21725 0.027225999 0.1024
0.21127 0.051424999 0.092556998
0.21735001 0.042580999 0.093685001
0.21165 0.049281001 0.093298003
0.21267 0.050685 0.091727003
0.22079 0.042445999 0.094361
0.23372 0.044628002 0.091747001
0.23855001 0.045485001 0.090736002
0.22629 0.071689002 0.083237998
0.24243 0.045465 0.089579999
0.22792 0.074589998 0.081624001
0.24423 0.044721998 0.090862997
0.23221999 0.075815 0.080222003
0.23307 0.073469996 0.080513
0.23834001 0.082901001 0.077013001
0.24228001 0.082411997 0.076755002
0.24089 0.08292 0.075782001
0.23943 0.088986002 0.074229002
0.23932 0.088358998 0.076251999
0.24168 0.085690998 0.07542
0.24195001 0.083587997 0.075680003
0.27331999 0.044876002 0.086016998
0.25152999 0.089203998 0.073646002
0.25198999 0.088122003 0.072717004
0.25130999 0.086444996 0.072644003
0.28415999 0.047982998 0.083499998
0.26822001 0.091894001 0.069917001
0.28942999 0.055125002 0.080416001
0.28913999 0.057496 0.079453997
0.28685001 0.092358999 0.066536002
0.29863 0.071464002 0.073089004
0.29771 0.082941003 0.069096997
0.29534999 0.081822 0.069908999
0.29771 0.081954002 0.069756001
0.30076 0.078717999 0.070684999
0.29969999 0.076631002 0.071314998
0.30160999 0.077395 0.070390001
0.29954001 0.077376001 0.070243999
0.29745001 0.094361998 0.063717999
0.31597 0.077596001 0.069564998
0.30539 0.10312 0.061687998
0.32561001 0.098973997 0.059843
0.33011001 0.095535003 0.060768001
0.19825999 0.0058215 0.11132
0.20048 0.0049342001 0.11135
0.19531 0.01525 0.10923
0.1802 0.045398001 0.10113
0.18805 0.030322 0.10464
0.17547999 0.054588001 0.097978003
0.17478999 0.054235999 0.096740998
0.1758 0.054047 0.098408997
0.21178 0.013181 0.10666
0.21603 0.01366 0.10594
0.20451 0.036432002 0.098892003
0.19512001 0.05412 0.093919002
0.20660999 0.031902999 0.099606998
0.20757 0.030951999 0.10144
0.18589 0.072852001 0.087916002
0.18418001 0.070987001 0.088243999
0.19684 0.048315998 0.094649002
0.2005 0.041662 0.096138
0.20057 0.057390001 0.09206
0.19611 0.066297002 0.088062003
0.20145001 0.059999999 0.090977997
0.21527 0.043552 0.094072998
0.21193001 0.051452 0.092575997
0.21391 0.057415999 0.089823999
0.22204 0.04439 0.093575999
0.22154 0.042578999 0.094745003
0.22577 0.043074001 0.093312003
0.23577 0.045235001 0.090729997
0.23599 0.045074001 0.091553003
0.23698001 0.046216 0.090262003
0.2395 0.045187999 0.090573996
0.22487 0.076670997 0.083070002
0.22291 0.075865999 0.083440997
0.24248999 0.046162002 0.090759002
0.24854 0.042661998 0.089432001
0.24832 0.044929001 0.090415001
0.22985999 0.078932002 0.080358997
0.23119 0.079398997 0.080369003
0.24998 0.044176999 0.089426003
0.2344 0.075286001 0.080220997
0.25512999 0.043435 0.089726999
0.25613001 0.042982001 0.089601003
0.23997 0.082199998 0.076686002
0.26392001 0.043246999 0.089096002
0.24225999 0.082515001 0.076610997
0.27009001 0.043182001 0.087906003
0.27118999 0.042863 0.087025002
0.24811 0.085271001 0.074763
0.24941 0.086557001 0.074801996
0.24947 0.090876997 0.072585002
0.2507 0.086901002 0.074450001
0.25226 0.087699004 0.073816001
0.28446999 0.048912998 0.083374001
0.28885001 0.055613998 0.081238002
0.28850999 0.057039998 0.081042998
0.29392001 0.062657997 0.077164002
0.29358 0.062345002 0.078607
0.29561999 0.064420998 0.077540003
0.29497999 0.064115003 0.076837003
0.29607001 0.064939998 0.076141998
0.29998001 0.073170997 0.071952999
0.29954001 0.072630003 0.073103003
0.29574999 0.081790999 0.069867
0.29883 0.080068 0.069539003
0.2976 0.080000997 0.070799999
0.29947999 0.079540998 0.070335999
0.30015001 0.079539001 0.069600999
0.29679999 0.090713002 0.068034001
0.30921 0.077157997 0.070005998
0.31834 0.099887997 0.062013999
0.32912999 0.080384001 0.066039003
0.33054 0.083374001 0.065112002
0.33164001 0.086874001 0.064772002
0.33311999 0.086749002 0.064208999
0.33298999 0.087794997 0.063890003
0.19248 0.0013297 0.11462
0.19107001 0.0027313 0.11469
0.19347 0.0026322 0.11412
0.19001999 0.0099125998 0.11285
0.16531999 0.059131999 0.096069999
0.19582 0.0048364 0.11315
0.16304 0.063233003 0.095343001
0.19832 0.0067081 0.11138
0.16546001 0.068628997 0.092984997
0.20037 0.0054625999 0.11164
0.16952001 0.060148001 0.09578
0.19453 0.020043001 0.10849
0.19504 0.018774001 0.10844
0.17162 0.059918001 0.095279001
0.20141999 0.0054401001 0.11073
0.20931999 0.0078469003 0.10928
0.20987999 0.0092967004 0.10908
0.21092001 0.010102 0.10864
0.17606001 0.073238 0.089156002
0.17730001 0.073619999 0.089510001
0.17907 0.071873002 0.090768002
0.1811 0.074270003 0.088082001
0.19537 0.055094998 0.094189003
0.19451 0.054556999 0.093442999
0.19961999 0.043910999 0.096210003
0.21593 0.018789999 0.10587
0.20034 0.043481998 0.096383996
0.21627 0.016108001 0.10541
0.21653 0.015168 0.106
0.21043999 0.026349001 0.10157
0.19025999 0.069252998 0.088822998
0.2133 0.0264 0.10234
0.19835 0.056540001 0.093304001
0.21692 0.024391999 0.10293
0.20017999 0.058038998 0.092405997
0.19898 0.065375999 0.089827999
0.19918001 0.065594003 0.090008996
0.20114 0.059415001 0.091057003
0.20008001 0.064140998 0.089927003
0.20094 0.063473001 0.089841999
0.21221 0.046792001 0.094576001
0.21123999 0.050535001 0.092975996
0.21557 0.044672001 0.094631001
0.21256 0.051684 0.093494996
0.21841 0.044066001 0.094190001
0.21707 0.044135999 0.094720997
0.21303 0.053013001 0.092890002
0.21321 0.051352002 0.092015997
0.2192 0.04318 0.094852
0.21391 0.054657001 0.091826998
0.21985 0.04493 0.094705999
0.21421 0.055594999 0.092170998
0.22194 0.043586001 0.093725003
0.22390001 0.044372998 0.094180003
0.22494 0.043853 0.093437001
0.22645 0.040348999 0.094310001
0.22806001 0.042755999 0.09499
0.23004 0.044503 0.093392998
0.23152 0.044980999 0.091798
0.23043001 0.045561999 0.093181998
0.21454 0.076146998 0.082881004
0.21782 0.075712003 0.084244996
0.21596 0.075597003 0.084127001
0.23443 0.045689002 0.091287002
0.23481999 0.046473 0.091507003
0.23495001 0.047986999 0.090944998
0.21989 0.076292001 0.081421003
0.23859 0.048064001 0.090848997
0.24086 0.046801001 0.090292998
0.24167 0.046360999 0.0911
0.24225 0.046783999 0.090810001
0.22752 0.077725001 0.081579998
0.2467 0.045880999 0.090020001
0.24552999 0.045437999 0.090516999
0.23163 0.075819999 0.081297003
0.23364 0.076412998 0.081538998
0.23435999 0.074778996 0.081454001
0.23515999 0.074643999 0.080507003
0.25233999 0.043542001 0.089681
0.25330001 0.044923 0.090375997
0.25408 0.043582998 0.089171
0.25532001 0.043600999 0.090507999
0.23586001 0.082106002 0.078858003
0.23646 0.083617002 0.078231998
0.23929 0.085302003 0.076413997
0.23776001 0.086392 0.076674998
0.23729999 0.087236002 0.076736003
0.23886999 0.087820001 0.076704003
0.26481 0.043614 0.088850997
0.23738 0.089966998 0.075782001
0.23999999 0.085281998 0.076312996
0.26633999 0.044124998 0.088459
0.24211 0.086191997 0.075681999
0.24202 0.087376997 0.075511999
0.24314 0.086503997 0.075910002
0.24403 0.085308999 0.076674998
0.24132 0.091278002 0.074495003
0.27103001 0.042388 0.088345997
0.27195001 0.045164999 0.087300003
0.25077 0.090741999 0.073418997
0.27634999 0.047249001 0.086530998
0.25167 0.095406003 0.072751999
0.27906001 0.047773998 0.086664997
0.28419 0.048303001 0.082938999
0.28485999 0.0502 0.084310003
0.28659001 0.052436002 0.082801998
0.2906 0.060787998 0.079281002
0.29080001 0.060086999 0.079805002
0.29692 0.066482998 0.076068997
0.29486001 0.065355003 0.077560998
0.29646 0.068062998 0.076113001
0.29730001 0.067893997 0.075429
0.28516001 0.094172001 0.066742003
0.28685999 0.092882 0.067904003
0.29885 0.071466997 0.073771
0.29379001 0.085138001 0.070983
0.29302001 0.083306998 0.070505001
0.29569 0.081963003 0.070771001
0.29732001 0.078731999 0.070505999
0.29828 0.078752004 0.071624003
0.29821 0.079395004 0.071020998
0.29925001 0.077160999 0.071015999
0.29826999 0.081386 0.070087999
0.29633999 0.083725996 0.070304997
0.29673001 0.084820002 0.069614001
0.29644999 0.085879996 0.069280997
0.29572001 0.089380004 0.067896001
0.30452999 0.075861998 0.071893997
0.29793999 0.095834002 0.065904997
0.29973 0.098731004 0.064433999
0.30001 0.099918999 0.063713998
0.3127 0.078380004 0.070092
0.31516999 0.079663001 0.068994001
0.31560001 0.078373998 0.068608999
0.31917 0.07852 0.068957999
0.31687999 0.078028999 0.068646997
0.32064 0.079126999 0.069477998
0.32471001 0.078218997 0.067295998
0.33135 0.082456999 0.066638
0.33228001 0.084192 0.064319
0.32925999 0.096491002 0.061329
0.32767999 0.097658999 0.060585
0.3319 0.091160998 0.062903002
0.33052 0.094094001 0.061864
0.18979999 0.0071096998 0.11284
0.19118001 0.0097308997 0.11132
0.19524001 0.0021959001 0.11334
0.16395 0.060396999 0.096744999
0.16581 0.060022999 0.095714003
0.19321001 0.010471 0.11067
0.16216999 0.065540999 0.094711997
0.1636 0.065944999 0.094451003
0.16629 0.060072999 0.095256001
0.16471 0.066725001 0.094354004
0.1948 0.012963 0.10975
0.17072 0.060540002 0.096041001
0.19562 0.013655 0.10886
0.19032 0.026112 0.10712
0.17361 0.057893999 0.095238
0.17377 0.056621999 0.097497001
0.17373 0.057727002 0.098387003
0.17433 0.056278002 0.1004
0.17827 0.049823999 0.099186003
0.17739999 0.049851 0.097646996
0.20326 0.0050893999 0.11292
0.16605 0.070606001 0.092524
0.20345999 0.0051219999 0.11074
0.20547 0.0046389 0.11062
0.16926 0.072549 0.090981998
0.17129999 0.073983997 0.090660997
0.17241 0.073363997 0.090172
0.17292 0.073850997 0.090057999
0.17478999 0.074197002 0.090659998
0.17550001 0.074033998 0.090121999
0.21052 0.011525 0.10762
0.21081001 0.01105 0.10911
0.21105 0.012528 0.10853
0.17918 0.071804002 0.090957001
0.17978001 0.072929002 0.089722
0.18059 0.073749997 0.088715002
0.21416999 0.013112 0.10828
0.21475001 0.013275 0.10738
0.18284 0.075138003 0.08794
0.20231 0.041494001 0.097456999
0.20361 0.037388999 0.099302001
0.20507 0.035050001 0.10056
0.20853999 0.02775 0.1022
0.21055999 0.026164001 0.10303
0.19386999 0.056178998 0.092889003
0.19728 0.048801001 0.094915003
0.18364 0.074294001 0.088372998
0.18678001 0.069085002 0.090524003
0.18691 0.07062 0.089387
0.20252 0.039375 0.099155001
0.20305 0.039409 0.098443002
0.21637 0.018865 0.1041
0.21193001 0.026492 0.10196
0.18871 0.069205001 0.089174002
0.18736 0.070390999 0.089772999
0.19723 0.056038 0.093271002
0.21415 0.026174 0.10179
0.21747001 0.020249 0.1047
0.19146 0.070049003 0.089111
0.19866 0.057512 0.092547998
0.21757001 0.020893 0.10306
0.21836001 0.024041001 0.1033
0.21811 0.022554999 0.10394
0.21532001 0.025488 0.10236
0.19265001 0.068544999 0.088924997
0.19456001 0.067557998 0.090356
0.19668999 0.066899002 0.088930003
0.19469 0.066602997 0.089584999
0.19659001 0.067009002 0.090158999
0.20040999 0.060075998 0.091753997
0.20141999 0.060591001 0.090887003
0.20193 0.062407002 0.090737998
0.21283001 0.045426 0.094774999
0.21359999 0.045680001 0.095247999
0.2112 0.048700001 0.094484001
0.21466 0.045345999 0.09454
0.21239001 0.049339 0.094861999
0.21646 0.043855999 0.093996003
0.21093 0.051617999 0.092703
0.21392 0.053746998 0.09189
0.21391 0.057069 0.090218998
0.21459 0.056237999 0.090727001
0.21402 0.058267001 0.090054996
0.21466 0.059820998 0.089279003
0.22559001 0.039007999 0.095654003
0.22592001 0.040026002 0.095856003
0.22153001 0.045483001 0.093670003
0.20898999 0.072849996 0.085091002
0.21619999 0.061485998 0.088799998
0.22600999 0.041437 0.095159002
0.22495 0.044048 0.093301997
0.2097 0.072137997 0.085486002
0.22561 0.044487 0.094002001
0.22677 0.042800002 0.094085
0.21046001 0.073063001 0.084315002
0.21022999 0.073353 0.084872998
0.21619999 0.063406996 0.088211998
0.21659 0.064156003 0.087880999
0.21723001 0.066076003 0.087458
0.22892 0.043028999 0.094139002
0.21732 0.066919997 0.086736001
0.21231 0.075733997 0.084844001
0.21206 0.075243004 0.084241003
0.21727 0.066868 0.086966999
0.21344 0.073991001 0.084026001
0.2137 0.076357998 0.082408004
0.21427 0.074386999 0.084586002
0.2175 0.068446003 0.084435001
0.2149 0.074523002 0.084646001
0.21415 0.075870998 0.083664
0.21584 0.074637003 0.084528998
0.21864 0.069141001 0.086094998
0.21433 0.075924002 0.08365
0.23255999 0.045988001 0.093525998
0.23309 0.046066001 0.091935001
0.21842 0.074882001 0.084349997
0.22073001 0.070111997 0.085182004
0.21849 0.073431998 0.083996996
0.23515999 0.047031 0.092008002
0.21958999 0.073654003 0.084334001
0.22189 0.070396997 0.085919
0.22079 0.074690998 0.083219998
0.21908 0.075410999 0.082735002
0.22304 0.070087001 0.084498003
0.23675001 0.047623999 0.091426998
0.22111 0.073803999 0.083067
0.22237 0.074712999 0.083984002
0.22228 0.076015003 0.083494999
0.2243 0.070306003 0.084602997
0.23762 0.047414001 0.092065997
0.23785999 0.046829998 0.090057999
0.22281 0.075859003 0.082112998
0.22497 0.074584 0.082814999
0.22574 0.070615999 0.083297998
0.22597 0.071103998 0.083931997
0.2405 0.046844002 0.091486998
0.22583 0.075502999 0.083192997
0.22705001 0.070762001 0.085228004
0.22492 0.077257 0.081662998
0.22642 0.07536 0.082294002
0.22856 0.071441002 0.083232
0.22531 0.076811999 0.081450999
0.22811 0.07587 0.081918001
0.22975001 0.071392 0.083596997
0.24467 0.047008 0.090396002
0.24488001 0.046222001 0.091453999
0.22834 0.078207001 0.081809998
0.23168001 0.072664 0.082755998
0.24846999 0.044957999 0.090329997
0.23366 0.071993999 0.082725003
0.23456 0.073471002 0.081276
0.25014001 0.045767002 0.089619003
0.2339 0.076959997 0.080966003
0.25051001 0.045008998 0.089997999
0.24972001 0.045276001 0.090017997
0.23492 0.076274 0.079668999
0.23571 0.073918 0.082828999
0.23573001 0.076039001 0.081292003
0.25207001 0.044362999 0.088758998
0.23309 0.079752997 0.080006003
0.23385 0.080728002 0.079708003
0.23541 0.082074001 0.079190001
0.25677001 0.044992 0.090315998
0.25727001 0.043111999 0.089406997
0.25562 0.043127 0.088953003
0.23686001 0.082469001 0.078865997
0.25920999 0.043258999 0.089639001
0.26030999 0.043407999 0.089212999
0.23863 0.083650999 0.078868002
0.26179001 0.042780001 0.088712998
0.23869 0.084324002 0.077399001
0.23964 0.082580999 0.077224001
0.23931 0.082236998 0.078316003
0.2406 0.082378 0.078276001
0.23885 0.081519 0.079713002
0.26333001 0.043788001 0.089128003
0.24188 0.081564002 0.077039003
0.23820999 0.088821001 0.075809002
0.24374001 0.083099999 0.077221997
0.24113999 0.086607002 0.076224998
0.23921999 0.091941997 0.075524002
0.24334 0.084270999 0.076724
0.23935001 0.091346003 0.075069003
0.23964 0.091054998 0.074615002
0.26723999 0.043141998 0.088734001
0.26787999 0.043635 0.088275
0.26938999 0.04228 0.089045003
0.24411 0.087541997 0.076286003
0.24172001 0.090751 0.075369999
0.24341001 0.090187997 0.075379997
0.24406999 0.085130997 0.076158002
0.27037001 0.042631999 0.089005999
0.27061 0.044344999 0.08862
0.24815001 0.085832998 0.075558998
0.24973001 0.085896999 0.075006001
0.25082001 0.086268999 0.075386003
0.25224999 0.087183997 0.074548997
0.25015 0.092377 0.072405003
0.25003001 0.093301997 0.072155997
0.25075999 0.089879997 0.073836997
0.25196001 0.090258002 0.073469996
0.25358 0.087857999 0.073985003
0.25281999 0.088923998 0.073376
0.27857 0.047412999 0.085954003
0.25196999 0.094981 0.071393996
0.25420001 0.095326997 0.071231999
0.28029001 0.048184 0.085514002
0.25617 0.095296003 0.070418
0.28274 0.046971001 0.085092001
0.25624999 0.095872998 0.070761003
0.25689 0.095849 0.070894003
0.28332001 0.048280001 0.085506998
0.28420001 0.047612 0.085187003
0.25795001 0.096150003 0.071185999
0.28545001 0.047168002 0.084973
0.28435001 0.050051998 0.085537001
0.25876001 0.096718997 0.070184
0.26243001 0.093189999 0.071633004
0.26049 0.094034001 0.070339002
0.26328999 0.091326997 0.070482001
0.26306 0.092352003 0.072090998
0.26517001 0.092876002 0.071392
0.26455 0.091994002 0.070753999
0.28742 0.054067001 0.082152002
0.28812 0.053757999 0.081556
0.26771 0.092013001 0.070652999
0.26916999 0.092928 0.070671
0.27213001 0.091140002 0.070597
0.28891999 0.057792 0.080926999
0.27450001 0.091081001 0.069995001
0.27535 0.091733001 0.069484003
0.29186001 0.061712001 0.078369997
0.29258999 0.062374 0.078777
0.29370001 0.062454 0.078042999
0.28094 0.094431996 0.06741
0.28327 0.095188998 0.068076998
0.28472 0.094431996 0.067061
0.29756999 0.071013004 0.073839001
0.28549999 0.093999997 0.068391003
0.28661001 0.093336999 0.067266002
0.28784999 0.092253998 0.067019999
0.29995999 0.072714999 0.073578
0.28955999 0.092354 0.068424001
0.29018 0.092130996 0.067588001
0.29144999 0.086987004 0.069408998
0.29146999 0.089112997 0.069417998
0.29032999 0.089923002 0.068452001
0.29012999 0.090542004 0.068264998
0.29157001 0.089525998 0.068190999
0.29276001 0.085979998 0.069427997
0.29549 0.082186997 0.070758998
0.30103999 0.073298 0.072875999
0.29868999 0.077887997 0.071148001
0.29585001 0.080058001 0.070859
0.29945001 0.076748997 0.072347999
0.30012 0.076734997 0.07243
0.30083999 0.073348999 0.073140003
0.30112001 0.074317999 0.073775999
0.30155 0.074868001 0.073004
0.29883 0.080819003 0.071878001
0.30092999 0.078326002 0.071603
0.30344999 0.075158 0.072596997
0.30011001 0.080003001 0.070779003
0.29606 0.085381001 0.069807
0.3008 0.078941002 0.071872003
0.29558 0.088786997 0.068792
0.29633 0.091733001 0.067045003
0.29666999 0.093050003 0.067512996
0.30546999 0.076465003 0.07164
0.29734001 0.092864998 0.066967003
0.29721999 0.095123999 0.065706998
0.30664 0.077125996 0.071106002
0.30739 0.077990003 0.071438
0.29798001 0.097282 0.064539999
0.31003001 0.077528998 0.070426002
0.31434 0.078475997 0.069704004
0.31678 0.078473002 0.069443002
0.30314001 0.10249 0.061838001
0.30419999 0.10271 0.062465999
0.32244 0.078538999 0.068742
0.30912 0.10161 0.061446
0.30884999 0.10214 0.062536001
0.31112 0.10108 0.062472999
0.32295001 0.078888997 0.069371
0.31229001 0.10192 0.061432
0.31275001 0.10097 0.060605001
0.32688999 0.079891004 0.067615002
0.31476 0.10061 0.061280001
0.3267 0.079775997 0.067933001
0.31650001 0.10116 0.062043
0.31744 0.099327996 0.060550001
0.32864001 0.081678003 0.067662001
0.33061001 0.082351997 0.065747999
0.32229999 0.10046 0.062192999
0.32306999 0.099946 0.060848001
0.32510999 0.098310001 0.060917001
0.32622999 0.097199999 0.061353002
0.33162999 0.089699998 0.063228004
0.33250999 0.089465998 0.062127002
0.33002001 0.094650999 0.060896002
0.16368 0.061322 0.096095003
0.16192 0.064645 0.094903
0.19320001 0.012871 0.10967
0.19856 0.0056755999 0.11178
0.1846 0.036743999 0.10366
0.17196 0.059769999 0.097103
0.17306 0.058605 0.097902
0.16868 0.072497003 0.090869002
0.206 0.0054664002 0.11089
0.20536 0.0065297 0.11258
0.20804 0.0066300002 0.11041
0.2094 0.0078365998 0.10983
0.17467999 0.074359998 0.089060001
0.2129 0.013749 0.10695
0.19785 0.048595 0.096837997
0.1989 0.046776 0.09623
0.21003 0.027232001 0.10254
0.19963001 0.044549 0.096643999
0.20035 0.043407001 0.098029003
0.20159 0.041723002 0.097796999
0.20568 0.033690002 0.099809997
0.20721 0.031667002 0.10103
0.21578 0.016423 0.10561
0.18351001 0.075456999 0.088522002
0.19611999 0.051899001 0.094503999
0.21697 0.019869 0.10379
0.20157 0.063721001 0.089854002
0.21529999 0.046076 0.095017999
0.22171 0.045848001 0.093785003
0.22426 0.044780999 0.093686998
0.22758999 0.043956999 0.094529003
0.21833999 0.067983001 0.086877003
0.21916001 0.075650997 0.084241003
0.24246 0.047047999 0.091072999
0.23146001 0.076082997 0.082092002
0.22889 0.075842001 0.082339004
0.23589 0.075407997 0.080889001
0.25819999 0.044261001 0.089588001
0.23715 0.087362997 0.076889999
0.24241 0.081978001 0.078061998
0.24013001 0.086975999 0.077564001
0.24326 0.081733003 0.077711001
0.24409001 0.084854998 0.076511003
0.24371 0.088449001 0.075018004
0.24623001 0.084982 0.076072998
0.2474 0.085174002 0.076255001
0.27225 0.045318998 0.08704
0.27388999 0.046147 0.086456001
0.28053999 0.046746999 0.085271001
0.26065999 0.095449001 0.070715003
0.26161 0.094734997 0.071213998
0.2859 0.050822001 0.083292
0.26677001 0.092338003 0.070853002
0.28898999 0.056072999 0.081552997
0.27002999 0.092804 0.070982002
0.28944999 0.058811001 0.080007002
0.27292001 0.091303997 0.069546998
0.27663001 0.091499999 0.069486
0.27601001 0.091868997 0.069907002
0.27739 0.093110003 0.068201996
0.27875999 0.094213001 0.068980001
0.27974001 0.094488002 0.068117999
0.28336 0.094627 0.067936003
0.29653001 0.080471002 0.070707999
0.29642001 0.078465998 0.072908998
0.29732001 0.078275003 0.073605999
0.29607001 0.087798998 0.069459997
0.2956 0.085461996 0.068871997
0.29890001 0.097750001 0.065580003
0.30151001 0.10069 0.062547997
0.30743 0.10311 0.061822999
0.32539999 0.079310998 0.068067998
0.31929001 0.099379003 0.0616
0.32870001 0.081398003 0.066930003
0.32052001 0.10016 0.061561
0.32383001 0.099825002 0.061212
0.32909 0.096340999 0.060490001
0.33203 0.090874001 0.062778004
0.19039001 0.0087694004 0.11149
0.16777 0.059967998 0.095150001
0.16551 0.068039 0.093957998
0.19541 0.014675 0.10899
0.18424 0.038043998 0.10462
0.19008 0.027682999 0.10652
0.19374 0.021346999 0.11163
0.19378 0.022384999 0.10959
0.19532999 0.020252001 0.11243
0.17316 0.056577001 0.096763
0.16572 0.071511999 0.092437997
0.1674 0.071379997 0.092517003
0.20914 0.0094290003 0.11069
0.21565001 0.013795 0.10842
0.20494001 0.035618 0.10065
0.20637999 0.032942999 0.1007
0.18537 0.071613997 0.089468002
0.18508001 0.073504999 0.088633001
0.19744 0.050748002 0.096635997
0.20384 0.038585 0.099285997
0.19619 0.057224002 0.092848003
0.2146 0.025805 0.10184
0.19306 0.069068 0.089249
0.20124 0.062631004 0.090879999
0.21802001 0.044596002 0.093993999
0.21861 0.045069002 0.094920002
0.21466 0.056931 0.092458002
0.21499 0.060038999 0.090139002
0.21538 0.060536999 0.089746997
0.22382 0.045451 0.093778998
0.22600999 0.045889001 0.094342001
0.21702 0.065807998 0.089176998
0.22861999 0.044564001 0.094476998
0.23417 0.048147999 0.091875002
0.22202 0.074359998 0.083848
0.24059001 0.047522999 0.089831002
0.24101 0.049782 0.090236001
0.23977 0.049313001 0.090833999
0.24129 0.048514001 0.090350002
0.24345 0.047781002 0.090345003
0.24608999 0.046895001 0.089712001
0.24733 0.046693999 0.090461999
0.23273 0.072549999 0.083016999
0.23706 0.074006997 0.081349
0.25516999 0.045682002 0.090043999
0.23583999 0.082709998 0.079585999
0.25799999 0.045116998 0.090008996
0.23765001 0.086096004 0.077366002
0.26175001 0.043749999 0.089149997
0.24062 0.090696 0.074129
0.24041 0.088110998 0.076027997
0.24152 0.088753998 0.075286999
0.27336001 0.045232002 0.086423002
0.24962001 0.092981003 0.072830997
0.27537999 0.047162 0.086723998
0.28227001 0.049213 0.085436001
0.28668001 0.052696001 0.084113002
0.29734001 0.069950998 0.075699002
0.28601 0.090827003 0.068434998
0.29835001 0.072893001 0.073732004
0.29484001 0.081609003 0.071478002
0.29633999 0.078919999 0.072527997
0.29841 0.076742999 0.073165998
0.29552999 0.087521002 0.070359997
0.29574999 0.092620999 0.067737997
0.29710001 0.095559001 0.066820003
0.29960999 0.099308997 0.064443
0.31107 0.078617997 0.070579998
0.31097999 0.078879997 0.071162
0.30515 0.10361 0.063836001
0.31161001 0.10152 0.061021
0.33171999 0.093355998 0.062582999
0.19072001 0.004164 0.11339
0.19159 0.0046557002 0.11507
0.19137999 0.011279 0.11174
0.1953 0.0037554 0.11382
0.16333 0.064603999 0.095618002
0.16914999 0.060256001 0.095692001
0.16524 0.070179 0.093231998
0.17534 0.052962001 0.098810002
0.1767 0.051608998 0.099010997
0.20677 0.0067003001 0.1123
0.21148001 0.014373 0.1079
0.20995 0.025361 0.10424
0.21238001 0.026092 0.10337
0.19949999 0.046673 0.097119004
0.19070999 0.071194999 0.089667998
0.21371 0.046241999 0.095308997
0.22137 0.047304001 0.093947001
0.21654999 0.062008001 0.088930003
0.22775 0.045067001 0.093576998
0.21960001 0.068067998 0.086827002
0.23548999 0.047936998 0.091260001
0.23841999 0.049153 0.091339998
0.24297 0.049422 0.091012999
0.24429999 0.047796998 0.090901002
0.24788 0.048257001 0.090810999
0.24831 0.046774998 0.089553997
0.24961001 0.047536001 0.090007
0.24972001 0.047336001 0.090341002
0.25257 0.046048 0.090111002
0.25995001 0.045012001 0.089850999
0.23796 0.080964997 0.079052001
0.23995 0.088953003 0.075002
0.24198 0.089901999 0.075935997
0.27107 0.045384999 0.088411003
0.27077001 0.091421001 0.071309999
0.29286 0.063257001 0.079769999
0.29745001 0.072158001 0.074845999
0.28795001 0.09217 0.068838
0.28977999 0.089578003 0.069105998
0.30283999 0.076329999 0.073573999
0.30697 0.078432001 0.070859
0.31858 0.079533003 0.070303999
0.19089 0.0058712 0.11506
0.19551 0.0039209998 0.11482
0.16343001 0.062599003 0.096648
0.17008001 0.060141999 0.096612997
0.17949 0.046270002 0.10036
0.16816001 0.072853997 0.092584997
0.1708 0.074456997 0.091600999
0.17275999 0.073746003 0.091569997
0.21636 0.014801 0.10673
0.18761 0.070338003 0.090466
0.1903 0.071842998 0.090061001
0.21558 0.060626 0.090273
0.22473 0.046812002 0.093544997
0.22718 0.046689 0.093487002
0.22797 0.043308999 0.095931999
0.21723001 0.063316002 0.088377997
0.21714 0.066523001 0.087691002
0.21755999 0.067369998 0.087678
0.22107001 0.068907 0.086006001
0.23396 0.047740001 0.092107996
0.22281 0.069913998 0.085896999
0.2234 0.070078 0.085469998
0.22508 0.070615999 0.085267998
0.22466999 0.074201003 0.083917998
0.22277001 0.075139001 0.083757997
0.23562001 0.072659001 0.084151
0.23605999 0.072779998 0.083283
0.23703 0.072742 0.084251001
0.25149 0.047398001 0.090042002
0.23677 0.075222 0.081145003
0.23784 0.074257001 0.081223004
0.2376 0.076278999 0.082139
0.25560999 0.045674998 0.090227
0.2352 0.083679996 0.079411998
0.26139 0.045678001 0.088894002
0.24111 0.082024001 0.078943998
0.27057001 0.045793001 0.088981003
0.25171 0.086415999 0.075479001
0.25235999 0.086165003 0.075864002
0.25207999 0.086828001 0.076481
0.25060999 0.091673002 0.073679999
0.27735001 0.046797 0.087385997
0.28365001 0.050747 0.086713001
0.26223001 0.095397003 0.070385002
0.26306999 0.092454001 0.073184997
0.26396 0.09217 0.073472001
0.29121 0.061004002 0.080981001
0.28876001 0.090305001 0.069091
0.29646999 0.077578999 0.073806003
0.29604 0.078166999 0.073324002
0.29589 0.094342999 0.067642003
0.30546001 0.077926002 0.071139
0.29872999 0.099330001 0.065365002
0.31983 0.077815004 0.069666997
0.32453999 0.099271998 0.061939001
0.32291999 0.099324003 0.062240999
0.33159 0.085276 0.065522
0.32567 0.098535001 0.061565999
0.18942 0.0065326998 0.1136
0.19136 0.011694 0.11295
0.16596 0.060600001 0.097409002
0.16769999 0.060587 0.097364001
0.16522001 0.066221997 0.095660999
0.19902 0.0067612999 0.11341
0.19441 0.014585 0.1098
0.16549 0.067527004 0.095490001
0.19566 0.014683 0.11086
0.16523001 0.070261002 0.093468003
0.17369001 0.074565999 0.091264002
0.17551 0.074502997 0.091375001
0.20942999 0.010549 0.11033
0.18375 0.075782001 0.089872003
0.18165 0.073647 0.089667
0.2016 0.043370999 0.099335
0.21218 0.025433 0.10411
0.19428 0.056396998 0.094471
0.2031 0.041113 0.099474996
0.20257001 0.040750999 0.099693999
0.21681 0.015991 0.10776
0.21698999 0.019625001 0.10527
0.21696 0.020669 0.10563
0.19187 0.070340998 0.091090001
0.21811 0.023466 0.10368
0.19904 0.059232 0.093735002
0.20045 0.060625002 0.093680002
0.20127 0.060346998 0.092532001
0.21247 0.048060998 0.096449003
0.2147 0.046762001 0.095744997
0.21456 0.046900999 0.095789
0.21209 0.051130999 0.094603002
0.21416 0.051541001 0.094536997
0.21287 0.052730002 0.094098002
0.21802001 0.046921 0.095248997
0.21633001 0.046020001 0.095656
0.21411 0.054579999 0.093190998
0.21428999 0.054984 0.092243001
0.21984001 0.047472 0.094522998
0.21481 0.058118001 0.092119999
0.21488 0.059027001 0.090882003
0.22155 0.046298001 0.094506003
0.22242001 0.048308998 0.094425999
0.21743 0.059886001 0.090315998
0.22745 0.040741 0.096487999
0.22705001 0.043221001 0.095936
0.21819 0.062522002 0.088105001
0.21709999 0.061404999 0.089561
0.22651 0.046578001 0.093323
0.21863 0.064274997 0.087787002
0.22845 0.046549998 0.093129002
0.22829001 0.046080001 0.093826003
0.22778 0.047035001 0.094134003
0.22718 0.047456 0.093736999
0.23052999 0.045689002 0.095014997
0.22103 0.068017997 0.086953998
0.2324 0.047366001 0.092166997
0.22271 0.067888997 0.086158
0.22155 0.068663001 0.087186001
0.23055001 0.054196998 0.090167999
0.23004 0.052873001 0.090763003
0.23153999 0.052857 0.091248997
0.23006999 0.053982001 0.091202997
0.23009001 0.053025 0.091881
0.23201001 0.054377999 0.090534002
0.23284 0.054033 0.090752997
0.23559999 0.050266001 0.092123002
0.22108001 0.073606998 0.083805002
0.22148 0.074915998 0.084636003
0.22446001 0.070188999 0.086149
0.23682 0.050333001 0.091573
0.23625 0.048349001 0.091600999
0.22462 0.076209001 0.085212
0.23576 0.056417 0.087830998
0.23444 0.055980999 0.090000004
0.23528001 0.054405998 0.089465998
0.23372 0.056387 0.089598998
0.23377 0.057686999 0.088200003
0.22652 0.071124002 0.085026003
0.23593 0.056830999 0.088958003
0.23642001 0.054832999 0.089020997
0.23836 0.049812999 0.091167003
0.23904 0.049862001 0.091959
0.22723 0.075254999 0.084316
0.22585 0.076679997 0.083567999
0.2299 0.072108999 0.083907001
0.24327999 0.049839001 0.090857998
0.24513 0.048395 0.090907
0.23147 0.076660998 0.082245998
0.24837001 0.047805998 0.091049999
0.24808 0.048372999 0.090797998
0.23478 0.073086999 0.083590999
0.25490999 0.047134999 0.089849003
0.23503 0.081974998 0.080306999
0.25951999 0.045006 0.089699
0.23810001 0.080909997 0.080782004
0.23703 0.084781997 0.078658
0.23829 0.086064003 0.078878999
0.23748 0.086450003 0.077598996
0.26115999 0.045442998 0.089432999
0.26254001 0.043935001 0.089818001
0.26291999 0.044826999 0.089927003
0.23977999 0.089821003 0.076102003
0.24207 0.090823002 0.075543001
0.26749 0.042734999 0.089534
0.26897001 0.042555001 0.090139002
0.24535 0.085495003 0.077561997
0.24308001 0.090864003 0.076370999
0.24471 0.087390997 0.077363998
0.26991999 0.044255 0.089452997
0.24763 0.085711002 0.078156002
0.24871001 0.086153001 0.077775002
0.25189 0.085413001 0.077468999
0.25347 0.087371998 0.075126998
0.25105 0.093197003 0.074162997
0.25319999 0.089853004 0.075098999
0.25323999 0.089676999 0.074704997
0.25248 0.095146 0.073641002
0.28202999 0.048546001 0.084784999
0.25747001 0.095764004 0.072163999
0.25856999 0.096431002 0.072209999
0.26097 0.095812999 0.072380997
0.28465 0.050911002 0.085662998
0.26225001 0.094802 0.071978003
0.26787001 0.092059001 0.072172999
0.28839001 0.055801999 0.083540998
0.28830999 0.05297 0.083557002
0.28929999 0.058256999 0.081485003
0.27063 0.092005998 0.071374997
0.28843001 0.060497999 0.081657
0.27252999 0.091150001 0.071097001
0.27581 0.092147999 0.071241997
0.27520999 0.090756997 0.071520999
0.27483001 0.090288997 0.070295997
0.27599999 0.091813996 0.072122999
0.29504001 0.066956997 0.078034997
0.29732001 0.069361001 0.075769
0.29604 0.068296 0.077137001
0.29595 0.069822997 0.077313997
0.28305 0.095339 0.069720998
0.28893 0.090306997 0.070189998
0.29100001 0.086740002 0.070536003
0.29242 0.086322002 0.070483997
0.29157001 0.085654996 0.071971998
0.29640999 0.076948002 0.074421003
0.29159999 0.084730998 0.071648002
0.29286 0.083601996 0.072894998
0.28915 0.091398999 0.068943001
0.29445001 0.082011998 0.071927004
0.29477999 0.081129998 0.072283
0.29517999 0.079240002 0.073275998
0.29758999 0.075441003 0.073048003
0.29844999 0.075921997 0.073721997
0.29945999 0.075906001 0.074327998
0.30182001 0.077941 0.072485
0.29980001 0.080773003 0.0713
0.29688999 0.093475997 0.068830997
0.30322 0.077788003 0.073280998
0.29624999 0.095307 0.068571001
0.29754001 0.095367 0.067001998
0.30930999 0.079327002 0.071138002
0.29929 0.1002 0.065122999
0.31641001 0.080982 0.069669001
0.31672999 0.079480998 0.069692999
0.31731999 0.079559997 0.069516003
0.31821001 0.079870999 0.070068002
0.32188001 0.079388 0.06944
0.32392001 0.079265997 0.069577999
0.31193 0.10144 0.063507996
0.32161 0.10033 0.062070001
0.32725 0.096735001 0.061877001
0.32855999 0.097115003 0.063217998
0.33184999 0.089864999 0.063809998
0.19095001 0.0047607999 0.11588
0.16305999 0.060757998 0.098329999
0.16536 0.058288999 0.099202998
0.16387001 0.059602 0.098296002
0.1952 0.0036434999 0.11453
0.19695 0.0062964 0.11274
0.19656999 0.0058076 0.11341
0.19502001 0.0067381999 0.11391
0.16410001 0.066895999 0.095516004
0.19304 0.013084 0.11125
0.1983 0.0082256999 0.11295
0.20156001 0.0069295 0.11387
0.19595 0.015632 0.11042
0.18167 0.044075001 0.10197
0.18367 0.040263001 0.10412
0.18495999 0.03669 0.10449
0.17684001 0.053805999 0.10111
0.17735 0.052315999 0.10089
0.17801 0.050875999 0.10124
0.20265999 0.0057918001 0.11276
0.20398 0.0054942998 0.1129
0.17516001 0.075148001 0.091034003
0.21071 0.012132 0.10824
0.17869 0.072770998 0.091049001
0.1779 0.073158003 0.091390997
0.20983 0.013607 0.10931
0.2036 0.039269999 0.099606
0.21082 0.025516 0.10507
0.19551 0.053224001 0.095311999
0.19779 0.049513001 0.097510003
0.19879 0.048074 0.097749002
0.20724 0.032341 0.10133
0.20743001 0.031925999 0.1021
0.20893 0.029974001 0.10313
0.20913 0.028088 0.10213
0.21618 0.018437 0.10701
0.21557 0.017317999 0.1067
0.18528 0.071826003 0.091080002
0.18713 0.071436003 0.090107001
0.21251 0.025903 0.10292
0.21366 0.025002001 0.10371
0.1885 0.071755998 0.090559997
0.19778 0.058083002 0.093953997
0.19607 0.058274999 0.094742998
0.21783 0.020931 0.10504
0.21567 0.025235999 0.10355
0.199 0.058017001 0.094053
0.21682 0.024882 0.10461
0.19209 0.06978 0.090337001
0.19495 0.068783998 0.090347998
0.19582 0.068126 0.090425
0.19750001 0.067103997 0.091360003
0.19563 0.067791998 0.090306997
0.19904999 0.064862996 0.091464996
0.20049 0.062486 0.092223004
0.2154 0.046698999 0.095399998
0.21736 0.048085999 0.094472997
0.21916001 0.048043001 0.094889
0.2219 0.048376001 0.093762003
0.21529 0.059547 0.090729997
0.22619 0.047327999 0.093994997
0.21895 0.062142 0.089139998
0.22891 0.044319 0.095073
0.22646999 0.048126001 0.093332998
0.21796 0.065755002 0.087901004
0.2295 0.046287999 0.094796002
0.21969999 0.066963002 0.087628998
0.21890999 0.065838002 0.087265998
0.21999 0.065169998 0.087939002
0.21949001 0.063651003 0.088403001
0.22056 0.064893998 0.087339997
0.23074 0.045400001 0.094205998
0.2202 0.066578999 0.086824998
0.23251 0.046029001 0.094673
0.2209 0.064978004 0.087010004
0.22006001 0.065402001 0.088279001
0.21811999 0.074625 0.085437
0.22232001 0.067902997 0.086556002
0.22937 0.054110002 0.091286004
0.23341 0.047841001 0.093833998
0.21881001 0.075102001 0.084083997
0.22 0.074564002 0.085657999
0.21955 0.074216001 0.084403999
0.22977 0.055521 0.089993998
0.23421 0.049090002 0.092620999
0.23232999 0.055116002 0.091107003
0.23294 0.053757001 0.090668999
0.23406 0.054632001 0.089166999
0.22146 0.074872002 0.084518
0.22552 0.070568003 0.085523002
0.23484001 0.053796001 0.091399997
0.23349001 0.057381999 0.089064002
0.23312999 0.057691 0.089994997
0.23654 0.055190999 0.090255
0.23581 0.055119999 0.090355001
0.23786999 0.05068 0.091441996
0.23568 0.057383999 0.089042
0.22668999 0.076329999 0.084292002
0.23867001 0.050168999 0.092161998
0.22868 0.070237003 0.085404001
0.22878 0.070303999 0.084504999
0.22865 0.076186001 0.083480999
0.23731001 0.057186 0.088872999
0.23848 0.054949999 0.09042
0.23895 0.056983002 0.088307001
0.23998 0.055190001 0.088963002
0.23055001 0.070437998 0.083447002
0.22863001 0.078628004 0.081257001
0.22724999 0.076814003 0.083737999
0.23237 0.071561001 0.084569
0.22961999 0.076880999 0.083690003
0.23314001 0.070776001 0.084446996
0.23401999 0.071713999 0.083791003
0.23442 0.072229996 0.084151998
0.23298 0.076977 0.082479998
0.23128 0.081335999 0.081207998
0.24974 0.048946001 0.090939
0.23109999 0.080725998 0.081854001
0.23450001 0.077743001 0.082579002
0.23228 0.081913002 0.080641001
0.23605999 0.078239001 0.081320003
0.23713 0.077178001 0.083486997
0.25378001 0.047945 0.090565003
0.25468999 0.047688 0.090117
0.2349 0.081967004 0.079723001
0.25580999 0.048011001 0.090319
0.25599 0.046633001 0.089644998
0.23710001 0.084109001 0.079195999
0.23736 0.083131 0.080265999
0.23612 0.082929999 0.079902999
0.25755 0.047114 0.089681998
0.25738999 0.046154998 0.090323001
0.23702 0.085403003 0.078656003
0.25937 0.046314999 0.090636
0.23803 0.084462002 0.079139002
0.2362 0.087361999 0.077941
0.23684999 0.087461002 0.078451999
0.26061001 0.047276001 0.090233997
0.23986 0.080897003 0.080141
0.26118001 0.045341 0.089281999
0.23914 0.086167 0.078080997
0.26262 0.046101 0.090825997
0.2404 0.087108999 0.077932
0.26440001 0.045740999 0.090016998
0.23995 0.088744998 0.077542
0.24399 0.085418001 0.077379003
0.24315999 0.090314001 0.076829001
0.24504 0.088873997 0.075805999
0.27327001 0.047385 0.08839
0.2712 0.046890002 0.088514999
0.27566999 0.047134001 0.087475002
0.27388 0.048046999 0.088813998
0.25242999 0.091954999 0.074437998
0.25319001 0.090888999 0.075021997
0.25474 0.089414999 0.074982002
0.27958 0.04874 0.087022997
0.25608999 0.095959 0.072025999
0.28148001 0.049268998 0.086198002
0.26210999 0.093696997 0.072508
0.26321 0.092592999 0.072902001
0.28648999 0.052549001 0.085064001
0.26765001 0.092194997 0.071709998
0.27812999 0.092735998 0.070642002
0.27728999 0.092995003 0.070955999
0.29449999 0.06464 0.079671003
0.28204 0.094490997 0.069467001
0.28523001 0.093410999 0.069802999
0.28652999 0.092200004 0.070963003
0.29660001 0.073798999 0.075387001
0.28867 0.089417003 0.071287997
0.28858 0.091949001 0.070253998
0.29179999 0.087356001 0.071102001
0.29464 0.078488998 0.073587999
0.29718 0.075827003 0.074317001
0.29515001 0.077216998 0.073876999
0.29765999 0.073361002 0.074341998
0.29956999 0.074740998 0.074708998
0.29337001 0.081808999 0.072126001
0.29499 0.080043003 0.073250003
0.29087001 0.088068999 0.070321999
0.28904 0.091669001 0.069441997
0.29861999 0.081316002 0.070651002
0.29947999 0.081233002 0.072071999
0.29865 0.081906997 0.073101997
0.29846999 0.081153996 0.072731003
0.29642001 0.089872003 0.070133001
0.3039 0.076122999 0.072544999
0.30427 0.078428 0.071791999
0.30579999 0.078987002 0.072329998
0.29815999 0.097815 0.065284997
0.31292 0.079539999 0.071374997
0.31299001 0.079504997 0.070422001
0.31353 0.079773001 0.071144
0.31474 0.080351003 0.070023
0.30577999 0.10258 0.063322
0.32093 0.078960001 0.070009001
0.32168001 0.079804003 0.070223004
0.30956 0.10307 0.062624998
0.31097001 0.10201 0.062996998
0.3249 0.079548001 0.069385998
0.31305 0.10185 0.062760003
0.31527999 0.10072 0.063106
0.32762 0.081615999 0.068521
0.3272 0.080738001 0.068356
0.32848001 0.081605002 0.068616003
0.31808999 0.10081 0.062399998
0.32934001 0.083284996 0.067033999
0.33022001 0.082576998 0.068011999
0.32122001 0.099739 0.063083999
0.33107999 0.086061001 0.066743001
0.33204001 0.087801002 0.066110998
0.33217999 0.088290997 0.065366
0.33162999 0.089635998 0.064499997
0.33184999 0.091366999 0.063798003
0.19212 0.0032275999 0.11476
0.19286001 0.0028599999 0.11577
0.19013 0.0089047002 0.11408
0.18974 0.010986 0.11352
0.19103 0.010577 0.11189
0.16232 0.062353998 0.097314
0.19216 0.012773 0.11212
0.16365001 0.066120997 0.096228004
0.20059 0.0063568 0.11334
0.1661 0.067863002 0.094228998
0.18569 0.035785001 0.10575
0.19575 0.018962 0.11131
0.19158 0.024962001 0.10867
0.16677 0.071438998 0.093144998
0.17004 0.073307998 0.091770999
0.2078 0.0073246998 0.11208
0.2089 0.0079223998 0.11052
0.20996 0.011911 0.10978
0.17564 0.072485998 0.092251003
0.17896999 0.072292998 0.092078
0.21328001 0.014383 0.10899
0.18041 0.073501997 0.091013998
0.18122999 0.073772997 0.090443999
0.19905999 0.046038002 0.098686002
0.21061 0.026962001 0.10475
0.21137001 0.024085 0.10541
0.18367 0.075870998 0.089107998
0.19426 0.054536998 0.095430002
0.19633 0.052689001 0.095849
0.20527001 0.037108 0.10119
0.20533 0.033739001 0.10166
0.20728999 0.032343 0.10205
0.2088 0.031265002 0.10335
0.20923001 0.027899999 0.10358
0.21013001 0.027884999 0.10365
0.2157 0.018529 0.10709
0.1842 0.073716 0.090692997
0.21612 0.015967 0.10795
0.21566001 0.019013001 0.10674
0.21788 0.023414001 0.10466
0.19332001 0.069801003 0.091724999
0.20121001 0.063943997 0.091828004
0.21127 0.048939999 0.095040999
0.21157999 0.049832001 0.095844999
0.21486001 0.048296001 0.095310003
0.21465001 0.055744998 0.092422999
0.21954 0.048448 0.093465999
0.21422 0.057422001 0.092254996
0.21529 0.059703998 0.091287002
0.21774 0.061485998 0.090276003
0.22938 0.044225 0.095169999
0.22045 0.063813001 0.089593001
0.23119999 0.045099001 0.095592
0.22045 0.064360999 0.089688003
0.22150999 0.065151997 0.088082999
0.22802 0.053454001 0.09251
0.22898 0.052322 0.092381001
0.2325 0.046923999 0.094364002
0.21806 0.075067997 0.084779002
0.22299001 0.066082001 0.087957002
0.23046 0.055893999 0.090386003
0.22837 0.056205001 0.091536999
0.22289 0.068654001 0.087118998
0.22443999 0.066688001 0.087619998
0.23213001 0.052862 0.091182001
0.23295 0.053743999 0.091609001
0.22498 0.067653999 0.087453999
0.22576 0.069091 0.086994998
0.22528 0.069499999 0.085387997
0.22645999 0.068155997 0.087063
0.23356999 0.055225 0.089896001
0.23413 0.058499999 0.090163
0.22809 0.070088997 0.085129999
0.23499 0.058740001 0.088795997
0.23711 0.055165 0.090155996
0.22506 0.076536 0.083254002
0.24124999 0.051438998 0.091955997
0.24219 0.050321002 0.091482997
0.23163 0.071341999 0.084334999
0.23041999 0.070372999 0.084770001
0.22571 0.077969998 0.083788998
0.22656 0.078286998 0.083103999
0.24247 0.051249001 0.091329999
0.24079999 0.055854 0.088601999
0.24023999 0.057009999 0.08862
0.24014001 0.055397 0.089989997
0.24507 0.049389001 0.090944998
0.22843 0.079623997 0.082401
0.2413 0.055712 0.090026997
0.22955 0.079852 0.082617
0.24619 0.049564 0.090072997
0.24703 0.048689 0.090498999
0.23413999 0.077812999 0.082043998
0.25198999 0.048749 0.090562999
0.23724 0.073659003 0.082672
0.25229999 0.048615001 0.089938998
0.23282 0.083230004 0.079567999
0.23277999 0.085265003 0.079016998
0.23298 0.083462998 0.079758003
0.23379 0.084141999 0.079967
0.23402999 0.085821003 0.079219997
0.23474 0.084321 0.079498999
0.23731001 0.080453999 0.081115998
0.25672001 0.048122998 0.090406001
0.23673999 0.086459003 0.078636996
0.2359 0.088357002 0.078203
0.23797999 0.088987999 0.077055
0.24118 0.080509998 0.079691
0.23909999 0.089047998 0.077803001
0.2393 0.086921997 0.077610001
0.24233 0.081371002 0.080058001
0.23855001 0.089694001 0.076545
0.24291 0.080204003 0.080081001
0.24446 0.080903001 0.079131
0.24422 0.082762003 0.079754002
0.23984 0.089939997 0.077095002
0.26594999 0.044624999 0.089968003
0.2418 0.089060999 0.076978996
0.24208 0.087439999 0.077756003
0.24226999 0.087208003 0.077572003
0.24485999 0.083614998 0.078302003
0.24446 0.084559001 0.078695998
0.24209 0.086579002 0.077411003
0.26603001 0.044697002 0.090462998
0.24216001 0.090207003 0.077473998
0.26783001 0.043545999 0.090682
0.26910001 0.044282001 0.090129003
0.24307001 0.089835003 0.076471001
0.24501 0.088803999 0.076623999
0.24515 0.086983003 0.077363998
0.26958999 0.044295002 0.090273999
0.27197999 0.047061 0.087619998
0.24976 0.086204 0.076260999
0.25009999 0.085671999 0.077232003
0.27360001 0.047860999 0.087853
0.25224999 0.090810999 0.074525997
0.25119001 0.094149001 0.073407002
0.25350001 0.091397002 0.073559001
0.27862 0.048101 0.086825997
0.25375 0.096132003 0.072311997
0.28226 0.049789 0.086792
0.25957999 0.096901 0.071671002
0.26572999 0.092841998 0.072411001
0.26828 0.092545003 0.072325997
0.28922999 0.056708001 0.083049998
0.27011001 0.093286 0.072472997
0.29157999 0.060734 0.080348
0.27965999 0.094304003 0.069986999
0.28044999 0.0933 0.069853999
0.29695001 0.069452003 0.077087
0.28229001 0.094911002 0.069893003
0.28356999 0.093551002 0.069246002
0.29721001 0.070726 0.075562
0.28658 0.092308 0.069865003
0.28819999 0.089736998 0.071414001
0.28999999 0.088082999 0.071268
0.29431 0.080401003 0.072819002
0.29909 0.076334 0.074495003
0.30090001 0.074561 0.075253002
0.30070001 0.076614998 0.073771
0.29668999 0.084339999 0.071663998
0.29666999 0.085317001 0.071131997
0.29756001 0.082575999 0.072178997
0.30247 0.075172998 0.074178003
0.29629001 0.086328 0.070345998
0.29624 0.087957002 0.070331
0.30015001 0.080012999 0.072011001
0.30112001 0.079880998 0.073082998
0.29593 0.092083 0.069415003
0.29618999 0.092258997 0.068737
0.29721001 0.097025 0.067392997
0.30799001 0.078723997 0.072439998
0.31066999 0.080066003 0.071888998
0.29947999 0.099551998 0.065002002
0.30245 0.10219 0.063855998
0.30340999 0.1021 0.063573003
0.30783001 0.10358 0.062881
0.30932999 0.10291 0.063482001
0.31639001 0.10035 0.063863002
0.31999001 0.10015 0.062105
0.33044001 0.084257998 0.067798004
0.33105001 0.085028999 0.066646002
0.33162001 0.087076001 0.065507002
0.32591999 0.098187998 0.063006997
0.33276999 0.089851998 0.065104
0.32964 0.096184 0.063206002
0.33068001 0.094885997 0.063690998
0.33131999 0.092634 0.063507996
0.33149001 0.092756003 0.063738003
0.18998 0.0091479998 0.11482
0.16361 0.063115001 0.097779997
0.19469 0.014503 0.11141
0.16655999 0.068937004 0.094425
0.16908 0.059542999 0.097452998
0.17806 0.051171999 0.10144
0.1788 0.049385 0.10106
0.17838 0.048289001 0.099340998
0.17915 0.047598999 0.10173
0.18001001 0.048110001 0.10379
0.17955001 0.046964001 0.10247
0.19021 0.026311999 0.10944
0.16848999 0.071794003 0.094113
0.16847999 0.073919997 0.092487
0.19574 0.054274999 0.096593
0.21780001 0.015516 0.1082
0.19079 0.071395002 0.090240002
0.21566001 0.025477 0.10435
0.21734001 0.022736 0.10436
0.19924 0.065295003 0.091352999
0.21472999 0.048872001 0.096150003
0.21333 0.052866999 0.094173998
0.21664 0.048907999 0.094926
0.22149 0.04975 0.094114996
0.22378001 0.048666 0.094526
