# .PCD v0.7 - Point Cloud Data file format
VERSION 0.7
FIELDS x y z
SIZE 4 4 4
TYPE F F F
COUNT 1 1 1
WIDTH 1497
HEIGHT 1
VIEWPOINT 0 0 0 1 0 0 0
POINTS 1497
DATA ascii
0.0088377995 -0.0050575999 0.077606998
0.035025001 0.086018004 0.10565
0.038132001 0.14515001 0.1109
0.0088804998 0.10595 0.11097
0.032375999 0.15242 0.12195
0.031353001 0.15246999 0.12173
0.0066061998 0.15537 0.11295
0.051229998 0.032465 0.067033
0.051663 0.033255 0.067764997
0.052136 0.032295 0.067671999
0.045217 0.055162001 0.063484997
0.045441002 0.056249 0.063580997
0.045545999 0.055383999 0.064069003
0.040713001 0.053422999 0.10606
0.040417999 0.054549001 0.10652
0.040635999 -0.0017016 0.049024001
0.040890001 -0.0020206999 0.048526999
0.023693999 0.083079003 0.098471001
0.022810999 0.083720997 0.098941997
0.023286 0.084053002 0.098352998
0.011045 0.069178998 0.0964
0.011587 0.069897003 0.095647
0.033978 0.020431001 0.096362002
0.048266999 0.053344 0.075808004
0.047736999 0.052191 0.075322002
0.047355 0.053268999 0.075540997
0.018445 -0.0065583 0.097875997
0.018569 -0.0073336 0.098572001
-0.0033829999 -0.035923999 0.075493999
0.043602001 0.028798001 0.061868001
0.043604001 0.02853 0.062045999
0.05751 -0.032418001 0.10848
0.056522999 -0.031955 0.10854
0.056531001 -0.033263002 0.10872
0.062836997 0.017818 0.085584998
0.062578 0.018932 0.085839003
0.063089997 0.018587001 0.086914003
0.021834999 0.11701 0.088693
0.049635001 0.051599 0.094536997
0.048997998 0.050469 0.094681002
0.049711 0.049934 0.094360001
0.040066998 0.10405 0.094167002
0.039317001 0.10303 0.093087003
0.054751001 0.064396001 0.088997997
0.054407001 0.064093001 0.089717999
0.024768 0.027887 0.091182001
0.025566 0.027771 0.092460997
0.026261 0.028216001 0.091335997
0.023831001 0.16187 0.10912
0.023893001 0.16131 0.11082
0.024360999 0.16202 0.11
0.065798 0.0043780999 0.036667001
0.064669997 0.0053838999 0.038339
0.056844 0.031854 0.095275
0.055847999 0.032051999 0.094379
0.054993998 0.031952001 0.095360003
0.041951001 0.10036 0.094044998
0.0077391998 0.15880001 0.11496
0.0082577001 0.15895 0.11387
0.0080108 0.15916 0.1132
0.023313001 -0.018883999 0.051256999
0.023636 -0.019192999 0.050887998
0.029239999 0.096574999 0.11125
0.029931 0.096917003 0.11068
0.053684998 0.037439 0.072517999
0.053564999 0.037147 0.072434999
0.030906999 0.031672001 0.091043003
0.040908001 0.10609 0.10597
0.041669 0.10639 0.10597
0.029371001 0.068575002 0.11243
0.029624 0.069292001 0.11286
0.059277002 0.044826999 0.091789998
0.027946001 0.15413 0.10227
0.0082059996 -0.0062052002 0.093929999
0.065049 -0.0067066001 0.048195001
0.065338999 -0.0073309001 0.046734001
0.0054099001 -0.01881 0.077592999
0.0049884999 -0.018007001 0.078166999
0.0062863999 -0.018852999 0.076936997
0.021171 0.072341003 0.099367999
0.020732 0.072104 0.099702999
0.078189 0.0066562998 0.088624999
0.043198999 0.065784998 0.11105
0.0028750999 -0.0088213002 0.087049
0.0030942999 -0.0083154002 0.088202
0.063688003 0.010923 0.057433002
0.064668998 0.011217 0.056552999
0.058848001 -0.024181001 0.10042
0.058483001 -0.022538999 0.10113
0.0079365 -0.029736999 0.094887003
0.051043998 -0.0016509 0.029208999
0.050804999 -0.0027407 0.028805001
0.059248 0.019253001 0.051203001
0.058894999 0.018493 0.051134001
0.040194001 0.094764002 0.089521997
0.040617999 0.093702003 0.089644
0.029231001 0.074874997 0.072356999
0.029425001 0.074510999 0.072897002
0.029030001 0.076334998 0.072453
0.061248999 0.047203999 0.099018
0.063877001 0.020792 0.079279996
0.042599 0.091558002 0.10838
0.021715 0.085360996 0.098356001
0.021996999 0.084179997 0.098274998
0.022441 0.084824003 0.098362997
0.068797998 0.0073965001 0.072607003
0.069309004 0.0075710998 0.073698997
0.032880001 0.059487998 0.075920999
0.023856999 0.12924001 0.094360001
0.023249 0.12813 0.093555003
0.048443001 0.0080604004 0.031702999
0.048721999 0.0067540002 0.032466002
0.048282001 0.0069209002 0.031697001
0.027907999 0.11713 0.081735
0.0264 0.11633 0.082314998
0.022705 0.076130003 0.083177
0.02255 0.075236998 0.08264
0.02176 0.074879996 0.083520003
0.038116999 0.054414999 0.10082
0.038720001 0.053203002 0.10049
0.038334001 0.054191001 0.10175
0.018262999 -0.023677999 0.091614
0.037526 0.11647 0.095430002
0.037356999 0.11566 0.094095998
0.023745 0.092102997 0.088871002
0.016245 0.071479999 0.10003
0.048393 -0.011559 0.040902
0.086893998 -0.01417 0.071349002
0.086965002 -0.01421 0.072674997
0.02771 0.012569 0.086548999
0.046523999 0.014363 0.032666001
0.045915 0.01292 0.031800002
0.045813002 0.013682 0.033243001
0.035393 0.096504003 0.10867
0.034467001 0.096717 0.10897
0.062058002 0.019521 0.083377004
0.061884999 0.021087 0.082855999
0.061749998 0.020602001 0.083889998
0.034632001 0.15102001 0.11316
0.069848001 0.0055212001 0.1017
0.069059998 0.0066295001 0.1013
0.069091998 0.0061356998 0.10161
-0.00066905998 -0.036488999 0.095882997
-0.00028907001 -0.035315 0.096308
-0.00095820997 -0.035351001 0.095513001
0.032021001 0.13428 0.089648999
0.032669999 0.13395 0.090246998
0.036495999 0.13036001 0.10761
0.036377002 0.13173001 0.10788
0.035613999 0.13094001 0.10885
0.054689001 -0.0051195002 0.031129999
0.053750001 -0.0052594999 0.031037999
0.054338001 -0.0039888001 0.031252999
0.090979002 -0.0063780998 0.099330001
0.089672998 -0.0061385999 0.099896997
0.091099001 -0.0071709999 0.099267997
0.031173 -0.010921 0.052483998
0.030710001 -0.011984 0.052110001
0.064885996 0.011209 0.082865998
0.065268002 0.010173 0.081832998
0.0647 0.011343 0.081527002
0.065328002 0.0038852 0.048861001
0.065821998 0.0038737999 0.050427001
0.066092998 0.0024335999 0.050296001
0.03162 0.092412002 0.10823
0.0039392998 0.15366 0.11727
0.0041685002 0.15403 0.11667
0.021354999 0.14404 0.095885001
0.020389 0.14359 0.096529
0.048762001 0.024188001 0.061484002
0.047600001 0.025324 0.062725998
0.048108 0.025082 0.062553003
0.059312001 -0.010149 0.01232
0.059230998 -0.010596 0.011854
0.028976001 -0.035188999 0.094024003
0.029212 -0.033837002 0.094268002
0.084381998 -0.022430001 0.11003
0.083155997 -0.022880999 0.11051
0.025085 -0.0055873999 0.063325003
0.048735 0.064083003 0.071266003
0.048432 0.062622003 0.070276
0.048634 0.063072003 0.071222
0.018863 0.057215001 0.10277
0.064216003 0.022558 0.078528002
0.064058997 0.023871001 0.07886
0.063791998 0.023190999 0.080268003
0.032990001 0.13326 0.098909996
0.036159001 -0.011573 0.041779
0.036793001 -0.011921 0.041177999
0.035753999 -0.011986 0.042390998
0.028848 0.12432 0.085559003
0.036961999 0.029108999 0.066547997
0.026137 0.022146 0.080670998
0.025875 0.023316 0.080344997
0.056224 0.044240002 0.091142997
0.057036001 0.044199999 0.091851003
0.057762999 0.044780999 0.090939
0.017557999 0.0030091 0.080238
0.017114 0.0028089001 0.081614003
0.018474 0.0033261001 0.081145003
0.048078999 0.062245 0.066973999
0.048021 0.063525997 0.067185
0.048399001 0.063295998 0.068112001
0.033707999 0.076029003 0.066013001
0.032839999 0.077164002 0.066669002
0.033564001 0.077421002 0.066466004
0.039213002 0.0184 0.098931
0.039914999 0.019742001 0.098255999
0.027136 0.13905001 0.1227
0.028121 0.13897 0.12284
0.060766 0.042722002 0.093695998
0.060616001 0.043005999 0.093785003
0.060017001 0.041908 0.093703002
0.033429001 0.13684 0.10566
0.032024998 0.1371 0.10533
0.032147001 0.13821 0.10636
0.047359999 0.0010075 0.033160001
0.035700999 0.12656 0.090967
0.036444001 0.12548 0.090542004
0.015981 0.13851 0.1036
0.01565 0.13929 0.10386
0.018317999 0.11657 0.1177
0.028879 0.080725998 0.080578998
0.028526001 0.079262003 0.080624998
0.074947998 -0.027586 0.10943
0.075809002 -0.026396999 0.11026
0.075115003 -0.025971999 0.1093
0.031752001 0.13364001 0.097130001
0.030487999 0.13253 0.098174997
0.031227 0.13231 0.096541002
0.0074604 0.11721 0.10397
0.0065641999 0.11673 0.10517
0.0070429998 0.11813 0.10439
0.032272 0.053342 0.079585999
0.054896999 0.079682 0.084715001
0.055112001 0.078988999 0.085115999
0.055319998 0.079259999 0.084119
0.049656998 0.016496999 0.09668
0.063051 0.0086393999 0.036074001
0.062293001 0.0079830997 0.037122998
0.062774003 0.0091608996 0.036139999
0.032377001 -0.01393 0.045472998
0.020623 0.10969 0.11587
0.020537 0.11064 0.11633
0.027695 0.13754 0.12365
0.028651999 0.138 0.12338
0.029534001 0.13776 0.12376
0.065476999 0.0088357003 0.062743001
0.066086002 0.0094358996 0.064242996
0.066137999 0.0079394002 0.063784003
0.035108 0.14075001 0.096428998
0.061252002 0.037439998 0.075392
0.084381998 -0.0057252999 0.093924999
0.084940001 -0.0066839 0.095367
0.084008001 -0.0066772001 0.094663002
0.057333998 0.061229002 0.097108997
0.054970998 0.039232999 0.084356003
0.053901002 0.039367002 0.083498001
0.054935001 0.040341999 0.084996998
0.047722001 0.069738999 0.069195002
0.036931001 0.032134999 0.096253999
0.037656002 0.032834001 0.095835
0.036695998 0.033282999 0.096170999
0.042426001 0.1091 0.093580998
0.036497999 0.081753999 0.069991998
0.086158 0.00030049999 0.099878997
0.086602002 1.2099e-05 0.099675
0.085975997 -0.00012313999 0.098959997
0.041788999 0.012051 0.059131
0.040584002 0.011373 0.059882
0.054827001 0.060541 0.11036
0.094286002 -0.021361001 0.10506
0.093558997 -0.02166 0.10582
0.095216997 -0.021352001 0.1057
0.028297 0.039538 0.097759999
0.026529999 0.038763002 0.097641997
0.051509999 -0.026725 0.10549
0.02004 0.040408 0.094304003
0.019024 0.040437002 0.095183998
0.034212999 0.071089 0.064825997
0.033512 0.070961997 0.065976001
0.033153001 0.071946003 0.065964997
0.030006001 0.1512 0.11883
0.052492 -0.022036999 0.10412
0.052439999 -0.021190999 0.10386
0.051587999 -0.022123 0.1038
0.026291 0.11482 0.11492
0.026214 0.11491 0.11558
0.029689001 0.068414003 0.11131
0.030764 0.067698002 0.11175
0.035574999 0.10016 0.11089
0.035185002 0.10122 0.1109
0.021957001 0.088762999 0.096348003
0.062367 0.014877 0.045304999
0.024119001 0.12819999 0.11799
0.02454 0.12808 0.11844
0.02338 0.12946001 0.11818
0.063322 0.0013041 0.10755
0.062849 0.0013646 0.109
0.06239 0.00082636002 0.10889
0.016210999 -0.030049 0.071345001
0.016301 -0.03081 0.071360998
0.055810999 -0.017077001 0.10236
0.055732999 -0.016385 0.10213
0.055443998 -0.016357999 0.10231
0.063715003 0.0041679 0.030307001
0.063106999 0.0034556 0.030664001
0.075658999 -0.020431999 0.11276
0.076504 -0.02118 0.11197
0.077528 -0.021230999 0.11287
0.051277 0.060045 0.088033997
0.051831 0.058779001 0.088326
0.050900001 0.058602002 0.087903
0.035057001 0.10743 0.092684001
0.028705999 0.068071999 0.10933
0.027844001 0.068911999 0.1095
0.028302999 0.067780003 0.10865
0.019916 0.10043 0.1096
0.019576 0.10093 0.10991
0.053679001 0.040398002 0.084274001
0.052163001 0.040203001 0.084196001
0.085042998 -0.0078881001 0.095844999
0.086029001 -0.0075432002 0.096367002
0.086078003 -0.0083539002 0.095706001
0.085735999 -0.014978 0.065618001
0.055831999 0.042195 0.093192004
0.057147 0.041389 0.094195001
0.056221001 0.041664001 0.094141997
0.018896 0.0031812 0.089475997
0.035045002 0.12792 0.090501003
0.018773001 -0.029790999 0.059877999
0.037808001 0.11434 0.11968
0.037613001 0.11532 0.11975
0.031945001 0.15215001 0.11474
0.012765 0.070832998 0.096497998
0.061737001 -0.0058070002 0.028964
0.060548998 -0.0067455 0.028887
0.060711998 -0.0060971002 0.030046999
0.067607 0.0017048999 0.033950999
0.067483999 0.0028376 0.034242999
0.076188996 -0.0054237 0.072580002
0.039854001 0.046259999 0.098438002
0.069666997 0.0086222002 0.076516002
0.069357999 0.0077562998 0.077027
0.029792 0.15599 0.12095
0.029544 0.15501 0.12154
0.033103999 0.14906 0.13143
0.050438002 0.054297999 0.079925001
0.050577998 0.054253001 0.079347
0.043772001 0.036437999 0.071703002
0.043547001 0.036798 0.072536997
0.088575996 -0.0011556 0.10271
0.089901999 -0.0017551 0.10184
0.056754 0.073427998 0.095899001
0.063744001 -0.0082122004 0.013763
0.033401001 0.051116999 0.10375
0.024143999 0.071254 0.077592
0.024293 0.072713003 0.077426001
0.025242001 0.071273997 0.077586003
0.070455 0.0062686 0.078643002
0.070220001 0.006143 0.079980999
0.070771001 0.0060195001 0.079746999
0.044016998 0.057852 0.10458
0.039297 0.052163001 0.064593002
0.040640999 0.051874999 0.065200001
0.081427999 2.4741001e-05 0.090322003
0.082142003 -0.00022437 0.090977997
0.050650001 0.055672999 0.079884999
0.050062001 0.056979999 0.079062998
0.050409999 0.056876998 0.080036998
0.072709002 -0.0056075999 0.024513001
0.072412997 -0.0056555001 0.025527
0.073252 -0.0058626002 0.025087001
0.056685999 0.069821998 0.10953
0.056775998 0.068299003 0.11033
0.057335 0.068861999 0.10926
0.015588 0.13861001 0.11608
0.0156 0.139 0.11657
0.045051001 0.076131001 0.066987
0.045492999 0.076448999 0.067368001
0.031599998 0.1498 0.11123
0.030507 0.15002 0.10999
0.016832 0.16182999 0.10524
0.016923999 0.16114999 0.104
0.016488001 0.16091 0.10381
-0.0014626 -0.037728 0.097741
0.032864999 0.15045001 0.1092
0.049927998 0.039239999 0.080245003
0.050911002 0.039414998 0.079000004
0.021577001 0.096138999 0.092321001
0.043030001 0.088443004 0.099123999
0.043382 0.087376997 0.098745003
0.031188 0.079230003 0.083070002
0.032060001 0.080344997 0.083866
0.032426 0.079443999 0.083350003
0.0048802998 0.12902001 0.11689
0.043655999 0.056187 0.061868001
0.043715 0.055151001 0.06168
0.04194 0.055918999 0.061845001
0.020011 0.14358 0.12116
0.018298 -0.024839001 0.072783999
0.019750001 -0.024519 0.072140001
0.036685001 0.087357 0.084128
0.036591001 0.087655999 0.084735997
0.015604 0.043382 0.093938001
0.0021209 -0.0097323004 0.086139001
0.0024117001 -0.0091153001 0.084847003
0.0014476 -0.0097583001 0.084881999
0.027654 0.056412999 0.075930998
-1.4938e-05 -0.0092561003 0.080692999
0.070463002 0.0075090998 0.09939
0.069904998 0.00703 0.10025
0.07023 0.0064837998 0.10054
0.028650001 -0.036100999 0.097539
0.02726 0.012497 0.084941998
0.019516001 0.046197001 0.094394997
0.019185999 0.046487998 0.093363002
0.019113 0.048020002 0.093050003
0.041722 -0.0015801 0.097216003
0.031316001 -0.009261 0.052276999
0.031705 -0.0080562001 0.052308001
0.028331 0.042964 0.088449001
0.028465999 0.041453 0.087920003
0.029169001 0.042709999 0.088666998
0.031686001 0.034033 0.070334002
0.032591 0.034003001 0.071377002
0.036116999 0.010696 0.055500999
0.035424002 0.010613 0.056251001
0.036001001 0.011576 0.0559
0.0098166 0.15426999 0.11996
0.0090242997 0.15466 0.11955
0.07226 -0.012225 0.10899
0.071714997 -0.012129 0.10829
0.072319999 -0.01209 0.10769
0.069284998 0.0050108 0.10208
0.068313003 0.0055009001 0.10216
0.067463003 0.0046786 0.10238
0.084739998 -0.019078 0.089149997
0.035618 -0.031539001 0.10577
0.024196001 0.0026825001 0.067806996
0.022569999 0.0026173 0.068484001
0.023173001 0.0030383 0.067440003
0.02802 0.010679 0.074695997
0.041092999 0.010884 0.056348
0.041786 0.01181 0.055537
0.041258 0.012319 0.055248
0.059285998 0.016729999 0.046822999
0.058405001 0.015866 0.04637
0.058442999 0.063988999 0.10829
0.043446999 0.094726004 0.097365998
0.036793001 -0.014352 0.040254999
0.037500001 -0.014196 0.040490001
0.0091481004 -0.026318001 0.097723998
0.013726 -0.0156 0.074722998
0.013138 -0.017030001 0.074965999
0.033243001 0.11317 0.084863
0.032343 0.1129 0.085233003
0.032299001 0.11429 0.085477002
0.060483001 0.065660998 0.1016
0.060672 0.064874999 0.10073
0.060665999 0.066436999 0.10075
0.071635999 0.0025028 0.10379
0.071243003 0.0018992 0.1043
0.066404 0.001375 0.050817002
0.066784002 0.0024087999 0.051178001
0.01365 0.1365 0.10514
0.014291 0.13675 0.10547
0.041510999 0.089580998 0.10528
0.042263001 0.089580998 0.10459
0.078031003 -0.011538 0.066152997
0.029049 -0.032161999 0.10192
0.033865999 0.1049 0.082307003
0.033975001 0.10338 0.081478998
0.053557001 0.038982999 0.072774999
0.06921 0.0031738 0.059379
0.068805002 0.0036724 0.060380001
0.059443001 0.059080999 0.098789997
0.040766999 0.015986999 0.062038999
0.039873 0.015861001 0.061763
0.039889999 0.016205 0.062288001
0.01014 -0.0069737998 0.094169997
0.0097097 -0.022062 0.089791
0.036766 0.073004998 0.10879
0.038052998 -0.00073912001 0.093639001
0.038752999 -0.0013929 0.094495997
0.039216999 -0.00042902 0.094012
0.044879001 0.080453999 0.083860002
0.035663001 0.13796 0.10296
0.035282001 0.13925999 0.10311
0.034917999 0.13782001 0.10342
0.041582 0.11406 0.093327999
0.079198003 0.0073150001 0.093122996
0.079273999 0.0068961 0.093140997
0.078694001 0.0080068 0.092456996
0.028554 0.10166 0.089656003
0.037312001 0.11662 0.094848
0.067088999 0.0072214999 0.064104997
0.066949002 0.0069876998 0.065137997
0.067596003 0.0065994998 0.065961003
0.075586997 -0.0071259998 0.053644001
0.042479999 0.01031 0.05672
0.042013001 0.01018 0.057201002
0.042909998 0.0097676003 0.05782
0.070234999 -0.0027360001 0.066287003
0.066152997 -0.0034312 0.052776001
0.065499 -0.0036205 0.052313998
0.065720998 -0.0027023 0.052618999
0.069449998 -0.017340001 0.1071
0.070375003 -0.017131001 0.10753
0.035184 0.027381999 0.065715
0.050753001 0.053222001 0.079644002
0.056093998 0.072169997 0.10982
0.055833001 0.073067002 0.1098
0.026303999 0.10378 0.11719
0.025466001 0.10351 0.1176
0.089776002 -0.010537 0.095389999
0.060901999 0.056485001 0.10237
0.061143 0.057158999 0.1009
0.054880001 0.041322999 0.092276998
0.055748999 0.041499998 0.091485001
0.056777999 0.041515999 0.092133999
0.073187999 0.0031518 0.082620002
0.016381999 0.072393 0.089887999
0.015252 0.072227001 0.090838
0.028734 0.017659999 0.073994003
0.028874001 0.016767999 0.073464997
0.028802 0.016065 0.074340001
0.056246001 -0.028812001 0.10696
0.057707999 -0.029228 0.10655
0.057408001 -0.028361 0.1062
0.015627 0.099624999 0.10458
0.014758 0.10061 0.10583
0.046982002 -0.00035051 0.032504
0.047286 -0.0009707 0.031614002
0.023146 0.1247 0.11598
0.021637 0.12454 0.11597
0.022421001 0.12406 0.1158
0.022923 -0.034155 0.090520002
0.024087001 -0.034811001 0.089796998
0.023903999 -0.033574998 0.090033002
0.060176998 0.019286999 0.035911001
0.060325 0.019114001 0.035443
0.086586997 -0.0012778 0.097598001
0.086318001 -0.00027459001 0.098121002
0.087298997 -0.00029314001 0.098912001
0.022841999 0.12647 0.086985998
0.023557 0.12713 0.087001003
0.023647999 0.12592 0.086319
0.072949998 -0.024156 0.10593
0.072111003 -0.024460001 0.10509
0.072815999 -0.026172001 0.10621
0.039902002 0.10393 0.085203998
0.039595 0.10471 0.085514002
0.039067999 0.10404 0.086489998
0.020693 0.053874999 0.089346997
0.044527002 0.11513 0.099297002
0.044402 0.11529 0.10031
0.042682 -0.024086 0.099967003
0.043621 -0.024796 0.099478997
0.029066 0.041862 0.095996998
0.025176 0.031626999 0.073848002
0.032559 0.046939999 0.074280001
0.048115 0.066793002 0.068898
0.048039 0.068305999 0.06921
0.029541001 0.097512998 0.086957
0.050850999 0.050701998 0.078331001
0.050613999 0.051871002 0.077486001
0.0093141003 -0.028155999 0.088026002
0.010057 -0.027763 0.088834003
0.010214 -0.028032999 0.087430999
0.084104002 -0.0066871 0.10725
0.084922999 -0.0063465 0.10641
0.018897999 0.0038548999 0.089016996
0.018852999 0.0049183001 0.088138998
0.059829 0.017956 0.067433
0.069284998 -0.014085 0.035539001
0.068972997 -0.012672 0.035223
0.068691999 -0.013247 0.035813998
0.029774999 0.10043 0.1155
0.029554 0.10003 0.11524
0.021628 0.0076199002 0.083702996
0.048431002 0.072898999 0.068223
0.019517001 0.1533 0.10329
0.019013001 0.15317 0.10269
0.019607 0.15245 0.10293
0.078901 -0.025474001 0.081541002
0.079034001 -0.026214 0.081978001
0.028163999 0.040445998 0.10032
0.027193001 0.040482 0.10071
0.072706997 -0.0099542998 0.11307
0.072768003 -0.0088892002 0.11343
0.062652998 0.018299 0.088178001
0.062900998 0.01708 0.087412998
0.063763998 0.017573999 0.086236998
0.011976 0.15623 0.10703
0.011422 0.15640999 0.10685
0.012781 0.15696 0.10621
0.07626 0.00015221001 0.1096
0.075590998 -3.8270999e-05 0.10869
0.075833 -0.00079363002 0.10992
0.069164999 0.0091233999 0.097037002
0.068607002 0.0096902996 0.096354999
0.068002 0.0094761001 0.097516
0.063879997 -0.0039869999 0.019321
0.064347997 -0.0053508002 0.017926
0.064737 -0.0047761002 0.018433001
0.035865001 0.017162999 0.095671996
0.035516001 0.017442999 0.096167997
0.034618001 0.017943 0.096294001
0.016178999 0.13502 0.099720001
0.016805001 0.13547 0.099451996
0.048606001 0.075534999 0.10948
0.050214 0.075741 0.10944
0.064023003 -0.002598 0.031235
0.025153 0.02853 0.074302003
0.024565 0.02806 0.075585
0.033558998 0.034676999 0.072177999
0.032818999 0.033735 0.072659001
0.033532001 0.034304999 0.073792003
0.0014861 0.15133999 0.1114
0.0011838001 0.15228 0.11173
0.034869 0.085478999 0.10679
0.034371998 0.085808001 0.10667
0.042683002 0.016093999 0.098903999
0.044284999 0.016044 0.099073
0.021782 0.10598 0.11555
0.021489 0.1066 0.11448
0.021925 0.10585 0.11445
0.0058101998 0.14403 0.11031
0.0059647001 0.14320999 0.1106
0.0053356001 0.14246 0.1114
0.030675 -0.013859 0.049084999
0.031102 -0.014472 0.050028
0.032368999 0.14338 0.10522
0.013518 0.050788 0.099335998
0.015151 0.050893001 0.10019
0.014798 0.05184 0.10036
0.0082802996 -0.0090044001 0.075930998
0.056586001 0.076286003 0.10649
0.055684999 0.075686999 0.10736
0.057077002 0.075620003 0.10678
0.043194 0.11025 0.098421998
0.039453998 0.11713 0.095802002
0.040286001 0.1173 0.095986001
0.040931001 0.11755 0.095687002
0.0049109999 0.15443 0.11103
0.014383 0.13465001 0.11773
0.013557 0.13508999 0.11799
0.013642 0.13414 0.11877
0.052113999 0.043187998 0.092239
0.052671 0.042229999 0.092076004
0.042840999 0.024549 0.10295
0.041359998 0.024048001 0.10289
0.041831002 0.024303 0.10215
0.024589 0.083524004 0.086277001
0.024344999 0.084436998 0.088
0.02478 0.084911004 0.086415999
0.023666 0.077210002 0.089619003
0.024122 0.077094004 0.090742998
0.023636 0.078220002 0.090251997
0.019639 0.14166 0.098994002
0.018452 0.1416 0.097906001
0.018099001 0.1428 0.098235004
0.057688002 0.042585999 0.098851003
0.057246 0.042936999 0.099325001
0.057027999 0.043504 0.10004
0.042799 0.086452998 0.1064
0.037131999 0.12578 0.10088
0.04752 0.016609 0.050562002
0.048005 0.017294001 0.051146999
0.080980003 -0.00042036999 0.096438996
0.080587 -4.8794001e-05 0.094585001
0.079983003 -0.00018052 0.095366001
0.054586001 0.064874999 0.083747998
0.055266 0.065926999 0.083653003
0.054733999 0.065686002 0.084671997
0.094686002 -0.021128999 0.093036003
0.093806997 -0.019887 0.093975
0.0084744003 -0.022608001 0.093276002
0.0082133003 -0.023225 0.094944999
0.0084146997 -0.022659 0.094549
0.031823002 0.018634999 0.067745999
0.018034 0.085114002 0.096643999
0.017224001 0.086177997 0.097301997
0.035753999 -0.010852 0.04214
0.035767999 -0.0098887999 0.043031
0.0080345999 0.1084 0.10768
0.0083066002 0.10829 0.10732
0.0077713002 0.10822 0.10641
0.040911 0.053640001 0.10397
0.040582001 0.052661002 0.10397
0.042295001 0.053004999 0.1037
0.0094285002 0.10385 0.098926999
0.0093985004 0.10522 0.099380001
0.010488 0.15451001 0.10991
0.010971 0.15408 0.11072
0.010296 0.15418001 0.11149
0.061448 0.017986 0.036842
0.060532998 0.017906001 0.037705
0.061849002 0.017029 0.036621001
0.039756 0.077090003 0.10627
0.039303999 0.077078 0.10507
0.021085 0.065073997 0.078993998
0.021245999 0.065017 0.079603001
0.021191999 0.064631 0.080649003
0.029169001 0.067649998 0.10946
0.017922999 -0.01898 0.071861997
0.016798999 -0.019327 0.072102003
0.054869998 -0.015784999 0.10232
0.055179 -0.014584 0.10112
0.054586999 -0.014942 0.10159
0.015257 0.14827999 0.12029
0.0154 0.14851999 0.11919
0.037220001 0.12833001 0.10049
0.038290001 0.12741999 0.099390998
0.037778001 0.12841 0.099320002
0.036835 -0.026094999 0.1012
0.037448 -0.025459999 0.10157
0.048168998 0.079709999 0.070758
0.091243997 -0.016023001 0.097439997
0.091116004 -0.015081 0.09764
0.031539001 0.15735 0.11588
0.031550001 0.15636 0.11534
0.0094614998 0.10758 0.11174
0.0096498998 0.10623 0.11181
0.0097387005 0.10661 0.11219
0.030712999 -0.015667001 0.050276
0.030172 -0.016882 0.050345998
0.025878999 0.027643001 0.074482001
0.025447 0.028070999 0.074523002
0.031481002 -0.020609999 0.034790002
0.010453 0.13697 0.1036
0.023932001 0.16497 0.1004
0.030706 -0.0087890998 0.055264998
0.029054999 -0.0091500999 0.05517
0.031169999 0.039496999 0.093059003
0.084422998 -0.0075754998 0.10546
0.083742 -0.0080688996 0.10636
0.083798997 -0.0084063997 0.10572
0.056012999 0.053061001 0.099739999
0.055257 0.052248001 0.10033
0.033780999 0.035732999 0.069119997
0.019282 0.10181 0.10832
0.029324001 -0.030231001 0.099794
0.030351 -0.029468 0.099670999
0.030100999 -0.029792 0.099192001
0.019254001 0.14901 0.10074
0.018828001 0.15006 0.10014
0.026867 0.019619999 0.083549999
0.026851 0.019559 0.084638998
0.010708 0.1269 0.098424003
0.011303 0.12598 0.097507998
0.01079 0.12554 0.098737001
0.027813001 0.14228 0.091333002
0.028075 0.14103 0.091022
0.02382 0.030466 0.077651002
0.023995999 0.031044001 0.077537999
0.024227999 0.03063 0.076329999
0.025311001 0.045598 0.085600004
0.027656 0.15757 0.10391
0.029038999 0.15666001 0.1029
0.089181997 -0.016767999 0.062859997
0.089169003 -0.016895 0.061965
0.047315001 0.014041 0.031978998
0.039896 0.0089074001 0.054375
0.048099998 0.037485 0.065338001
0.048168 0.037418999 0.067070998
0.039554998 -0.0069984002 0.098503001
0.040160999 -0.0056224 0.098380998
0.039094001 -0.0062680999 0.098720998
0.069155 -0.012722 0.034685001
0.0074458998 0.11211 0.10833
0.020119 0.073491 0.10354
0.020017 0.074349999 0.10327
0.019618001 0.073463999 0.10205
0.00076621998 0.15791 0.11405
0.00082006998 0.15752999 0.11439
0.034306999 0.04166 0.071865
0.034736 0.041861001 0.071071997
0.064066999 0.0033753 0.10261
0.032621998 0.081603996 0.084922999
0.032177001 0.081302002 0.084400997
0.094726004 -0.020209 0.094916999
0.060947001 -0.029294999 0.096877001
0.060274001 -0.028054001 0.097987004
0.060867 -0.029699 0.097722001
0.029718 0.11877 0.12079
0.035174999 0.089868002 0.10933
0.035326 0.090185001 0.10924
0.049648002 0.0081946999 0.032586001
0.048932999 0.0063477 0.033096999
0.011228 0.15135001 0.11659
0.010061 0.15284 0.11602
0.010415 0.15162 0.11561
0.063763 -0.018067 0.10182
0.062341999 -0.016975001 0.10122
0.062780999 -0.018130001 0.10088
0.048985999 0.040631 0.079838999
0.049704999 0.039756998 0.079922996
0.050427001 0.040213998 0.078984
0.059982002 0.063289002 0.10022
0.059764002 0.064136997 0.099799
0.043184001 -0.024834 0.099853002
0.02361 -0.012028 0.057796001
0.023689 -0.01068 0.058662001
0.023229999 -0.011643 0.058093
0.039992999 0.081853002 0.071129002
0.041173 0.082062997 0.072102003
0.041039001 0.082021996 0.070534997
0.023727 0.14924 0.12355
0.029337 -0.029654 0.092859998
0.0295 -0.027946999 0.091807999
0.029394001 -0.029314 0.091592997
0.054304 0.06256 0.095220998
0.025766 0.11165 0.086021997
0.039650001 0.11684 0.11909
0.040539999 0.11734 0.11872
0.040665999 0.11763 0.11846
0.048360001 -0.010269 0.016790001
0.048246 -0.011253 0.016605999
0.032127 0.10614 0.11515
0.031293001 0.10785 0.11446
0.031801 0.10688 0.11401
0.055286001 -0.0072581 0.015375
0.056065001 -0.0081420001 0.014153
0.050174002 0.078294002 0.099864997
0.050173 0.078280002 0.098186001
0.049564999 0.078368001 0.099353999
0.012844 0.14128999 0.10663
0.030058 0.074018002 0.071223997
0.048693001 0.065044999 0.11243
0.050124999 0.064227 0.11228
0.050016001 0.065095 0.11288
0.026331 0.099739999 0.11751
0.025102001 0.099976003 0.11671
0.032017 0.079355001 0.082262002
0.059951998 0.017865 0.090397999
0.039792001 0.033158999 0.063437998
0.039793 0.034224 0.063556001
0.038569 0.12425 0.096904002
0.038396001 0.12515 0.097245
0.031207999 -0.016426001 0.048703
0.031257998 -0.016681001 0.049247999
0.091325 -0.0084076999 0.098774001
0.090829998 -0.0075151999 0.098711997
0.083512999 -0.022301 0.1091
0.082953997 -0.021792 0.10865
0.081895001 -0.022375001 0.10938
0.052406002 -0.0067659002 0.020352
0.053342 -0.0061005 0.021013999
0.05297 -0.0060112998 0.019975999
0.063423 0.028139001 0.081826001
0.062761001 0.028682999 0.080479003
0.056572001 0.0087441001 0.035863999
0.0022513999 -0.0095122 0.089316003
0.0020252001 -0.0094525004 0.088100001
0.0019628999 -0.010002 0.088598996
0.074631996 -0.01493 0.11085
0.073702 -0.014953 0.10972
0.0093430998 0.15243 0.11128
0.0078387 0.15312 0.11129
0.0086241001 0.15325999 0.1123
0.029446 0.034221001 0.086254999
0.028644999 0.033955 0.086452998
0.028721999 0.032961 0.086415
0.050675999 0.0425 0.083944999
0.051024999 0.041297 0.084242001
0.016144 -0.010425 0.071364999
0.014247 -0.010988 0.071543001
0.014494 -0.0097695002 0.071708001
0.024622999 0.076907001 0.097990997
0.019525999 0.1199 0.093231998
0.020606 0.12034 0.092634998
0.020318 0.12022 0.092583001
0.021259001 0.11086 0.11595
0.0219 0.11005 0.11472
0.021883 0.11105 0.11498
0.019776 0.071061 0.10172
0.020607 0.071381003 0.10286
0.034244001 0.13176 0.12588
0.033408999 0.13180999 0.12481
0.034625001 0.13119 0.12501
0.040594999 0.00072955003 0.051631
0.039829001 0.0010671 0.050694
0.039664999 0.0011288 0.051259998
0.038247 0.13289 0.11397
0.037308 0.13228001 0.11346
0.037330002 0.13303 0.11345
0.055473 0.050260998 0.1063
0.055768002 0.049800001 0.10634
0.055558 0.049849 0.10665
0.043104 0.086459003 0.099278003
0.042498 0.087614 0.098191001
0.039613999 0.054249998 0.1068
0.038963001 0.094802998 0.087843001
0.038171999 0.094504997 0.088505
0.076768003 -0.01127 0.10568
0.076823004 -0.010471 0.10626
0.075916998 -0.010898 0.10734
0.042125002 0.011447 0.097736001
0.066491 0.0019842 0.055523001
0.066578001 0.0010294 0.056320999
0.066485003 0.0011075001 0.055176001
0.046891998 0.10911 0.10996
0.046737999 0.10942 0.11052
0.046645001 0.10851 0.11117
0.065361001 -0.0046735001 0.046703
0.065232001 -0.0043937 0.046022002
0.065352999 -0.0029509 0.045997001
0.0068659 0.1015 0.10643
0.0066964002 0.10033 0.1073
0.0065762 0.10143 0.10736
0.024974 0.095123999 0.11219
0.024697 0.096515998 0.11231
0.057812002 0.053477 0.10696
0.022358 0.11993 0.087320998
0.022662001 0.1185 0.087306
0.039053001 0.060860999 0.062475
0.015023 0.11987 0.11389
0.016093001 0.1184 0.11469
0.021376999 0.13392 0.11771
0.02012 0.13420001 0.11772
0.020669 0.13392 0.11777
0.047488999 0.0052343998 0.036936998
0.045896001 0.0053051999 0.036853001
0.024785999 0.079356998 0.082548
0.024204999 0.080224 0.082776003
0.090519004 -0.017906001 0.072943002
0.090066001 -0.018068001 0.074587002
0.090866998 -0.018193001 0.073748
0.0083830003 0.10729 0.10631
0.0085728997 0.10734 0.10633
0.030929999 0.14422999 0.10648
0.031968001 0.14478999 0.10597
0.031787001 0.14358 0.10494
0.015961001 0.0033642 0.084353998
0.056155 0.044089999 0.10056
0.028706999 -0.020509001 0.037921
0.027716 -0.020807 0.038456
0.060637001 0.014166 0.043377001
0.061521001 0.014173 0.042206999
0.023391001 0.076329 0.078565001
0.061432999 -0.0073772999 0.1049
0.061604999 -0.0078974999 0.10543
0.030962 0.11816 0.084154002
0.031518001 0.11805 0.085382
0.031580001 0.11672 0.085267998
0.079951003 -0.027386 0.11332
0.080619998 -0.027970999 0.11444
0.080854997 -0.02726 0.11416
0.10292 -0.025265001 0.098428003
0.1026 -0.023784 0.099091999
0.10367 -0.025456 0.099615
0.033142999 0.083007999 0.084077999
0.032487001 0.083995998 0.084876999
0.027001999 0.070490003 0.077325001
0.062697001 -0.031486999 0.091975003
0.056205999 -0.02699 0.070646003
0.059514001 0.04885 0.10499
0.060658 0.048103999 0.10371
0.060563002 0.049150001 0.10416
0.043887001 0.077817999 0.10135
0.041685 0.073965997 0.10831
0.089226998 -0.011775 0.094628997
0.089054003 -0.010299 0.094853997
0.064939998 0.012944 0.041092001
0.046716999 0.015556 0.056072999
0.046712 0.014882 0.055976
0.035289999 0.13263001 0.10206
0.073057003 0.0061868001 0.096978001
0.072114997 0.006943 0.097323999
0.082422003 -0.01115 0.057670999
0.081294999 -0.0099251 0.056919999
0.081721999 -0.010468 0.057808001
0.044773001 -0.0049338001 0.043706998
0.040286999 0.087118998 0.083425999
0.040137 0.087096997 0.082736999
0.026838001 0.090163 0.10877
0.026923001 0.090768002 0.10753
0.040130999 0.010451 0.053367998
0.037898999 0.010377 0.054003999
0.028162999 0.089273997 0.087347999
0.028092001 0.087966003 0.087274
0.027052 0.088132001 0.086963996
0.016580001 -0.001767 0.073587999
0.016976001 -4.7630001e-05 0.072939001
0.017410001 -0.0012959 0.072697997
0.035723999 -0.0020429001 0.098003
0.037027001 -0.0019628 0.098688997
0.036796998 -0.0012749 0.098507002
0.030148 -0.017643001 0.047219999
0.031596001 -0.016984001 0.047061998
0.030949 -0.016809 0.046514999
0.081742004 -0.024923 0.11313
0.081712 -0.025328999 0.11336
0.082248002 -0.024202 0.11276
0.053296 0.059563 0.10969
0.052551001 0.059826002 0.10999
0.049989 -0.029890001 0.077666
0.04851 -0.030321 0.077936999
0.048346002 -0.029778 0.076006003
0.047573 0.085065998 0.086116999
0.047938 0.083503999 0.086028002
0.047212001 0.083796002 0.085478999
0.025831001 0.022519 0.074386999
0.026881 0.022694999 0.073546998
0.047029 0.10661 0.10897
0.046916001 0.10537 0.10898
0.046948999 0.10503 0.10972
0.046328999 0.11244 0.11031
0.046487 0.1115 0.11146
0.033094 0.11104 0.081804
0.052448001 0.042787001 0.084472001
0.051890001 0.042528 0.084123001
0.046133999 0.10931 0.10889
0.027429 0.022722 0.072333001
0.026484 0.023486 0.073559001
0.054244 0.068861 0.091674998
0.066244997 0.0051702 0.047040999
0.032529999 0.030387999 0.096290998
0.032719001 0.031608999 0.095280997
0.035209 -0.016907999 0.034001999
0.036136001 -0.017983001 0.033023998
0.035069998 -0.017844999 0.033380002
0.047370002 0.020300999 0.059944998
0.04831 0.020262999 0.060307998
0.048648 0.019285001 0.05965
0.020989999 0.14774001 0.095340997
0.01925 0.14771999 0.095562004
0.020265 0.14814 0.095353
0.036168002 0.12488 0.092719004
0.036680002 0.12373 0.092545003
0.020327 -0.013644 0.060841002
0.020896999 -0.013492 0.060316
0.020375 -0.014446 0.059574999
0.060685001 0.02469 0.088477001
0.061988998 0.024168 0.088459998
0.061538 0.024467999 0.087777004
0.088887997 -0.0079784002 0.099776998
0.072182 0.0043429001 0.10038
0.021524999 0.11971 0.093101002
0.022058999 0.11974 0.092160001
0.088427998 -0.014441 0.067511998
0.087743998 -0.014189 0.067061
0.040165 0.077215001 0.065545
0.041042 0.078465 0.065975003
0.043910999 -0.031167001 0.10438
0.043168001 -0.029743999 0.10376
0.039937999 0.056800999 0.069710001
0.048082002 0.013129 0.040732
0.047341999 0.012733 0.041356999
0.048071999 0.012904 0.042220999
0.049585 0.043802999 0.082851
0.035473 0.075897001 0.10887
0.036465999 0.075446002 0.1086
0.043435998 0.033856001 0.098745003
0.043772001 0.034632999 0.098512001
0.058956999 -0.030452 0.10578
0.055812001 0.021375 0.037902001
0.056364 0.021687999 0.037397999
0.076747999 -0.014945 0.11349
0.076123998 -0.014899 0.1131
0.076425001 -0.013725 0.11374
0.052391 -0.01651 0.10289
0.053061001 -0.015862999 0.10291
0.0199 -0.021683 0.060973998
0.019991999 -0.021194 0.059532002
0.019633999 -0.021093 0.060169
0.017658999 0.15154 0.12552001
0.0071343998 0.13134 0.10442
0.0078119999 0.13187 0.10429
0.0084662 0.13174 0.10412
0.054276999 0.018664001 0.057105999
0.025653001 0.032628 0.080344997
0.0026403 0.14489999 0.11134
0.0034264999 0.14486 0.11071
0.0033417 0.14337 0.11148
0.0058741001 0.12086 0.10765
0.067772999 -0.0034882 0.02444
0.066512004 -0.0032798999 0.023596
0.065595001 -0.0038264 0.024623999
0.043405 0.081988998 0.084807999
0.044888999 0.081956998 0.085364997
0.038694002 0.11736 0.10019
0.038681999 0.11702 0.10119
0.051328 0.068155997 0.080689996
0.051240999 0.069886997 0.081073001
0.052065998 0.068384998 0.081615999
0.045558002 0.1066 0.11249
0.045389999 0.10781 0.11257
0.044631999 0.10785 0.11282
0.035741001 0.0084509002 0.059829
0.035211001 0.0078287004 0.058674
0.061716001 0.0053892001 0.042087998
0.062148001 0.0060383002 0.042869002
0.061882999 0.0058944998 0.042376999
0.062088002 0.065508001 0.10506
0.01499 0.050728001 0.088950001
0.013896 0.050641 0.089640997
0.014344 0.051924001 0.088514
0.014031 0.11925 0.10041
0.013623 0.11869 0.1014
0.014001 0.1191 0.10104
0.031399 0.11735 0.086042002
0.031801999 0.11691 0.086083002
0.085217997 -0.013957 0.059216999
0.085225001 -0.015383 0.060215
0.037356 0.14693999 0.10947
0.037337001 0.14607 0.10998
0.036610998 0.14613999 0.10922
0.056699999 0.049114 0.1055
0.055994 0.049715001 0.10581
0.056116 0.048590999 0.10507
0.037505001 0.083457001 0.1043
0.037625998 0.083692998 0.10374
0.043823998 0.059071999 0.10717
0.043981001 0.059416998 0.10611
0.043630999 0.060174 0.10765
0.010256 0.10121 0.11088
0.037363999 0.12388 0.10713
0.037152 0.12467 0.10785
0.086925 -0.0095181996 0.094724998
0.038607001 0.078902997 0.10722
0.039003 0.078823999 0.10668
0.038648002 0.034976002 0.064168997
0.038562998 0.033838 0.063621998
0.037928 0.034363002 0.064309999
0.027822999 0.15730999 0.10578
0.028043 0.15803 0.10574
0.011455 0.1275 0.1176
0.035546001 0.14155 0.092974998
0.035732001 0.1418 0.093804002
0.035546001 0.14083999 0.093253002
0.026171001 0.032880999 0.078959003
0.045084 -0.031645 0.10655
0.045664001 -0.032474998 0.1076
0.031160001 -0.01367 0.094563998
0.030051 -0.015032 0.094336003
0.031550001 -0.014733 0.093856998
0.013306 0.11145 0.098682001
0.013382 0.11029 0.098215997
0.012742 0.11026 0.098185003
0.030245 0.085749 0.10782
0.029381 0.083893999 0.10717
0.043559 0.073803 0.11119
0.0099422 0.11213 0.099197
0.0099579003 0.11093 0.098837003
0.0075305998 -0.0087708998 0.094829001
0.0069195 -0.0074646999 0.094258003
0.0073512001 -0.0084167998 0.094568998
0.0414 0.12986 0.11723
0.071482003 -0.0024555 0.062716
0.070279002 -0.0015048 0.062098999
0.070986003 -0.0017514999 0.061604001
0.027441001 0.16494 0.10145
0.019486999 0.1226 0.095702998
0.018353 0.12263 0.095311001
0.019239999 0.12325 0.095233999
0.03562 0.1028 0.091545999
0.0028072 -0.0096303001 0.091447003
0.0028315999 -0.0089582996 0.091406003
0.0028091001 -0.0084910002 0.091192998
0.054685 0.077702001 0.087904997
0.033649001 0.0077495999 0.061508
0.033663999 0.0069090999 0.060580999
0.033036999 0.0076814 0.062190998
0.091571003 -0.0096875997 0.097556002
0.040732 0.083237 0.084348999
0.040833 0.083695002 0.082680002
0.040888 0.084684998 0.083419003
0.083015002 -0.012044 0.050760001
0.081661001 -0.012376 0.049918
0.081332996 -0.011783 0.050923999
0.020868 0.14723 0.12714
0.043754 0.039081998 0.1001
0.043698002 0.039556999 0.10043
0.013445 0.11464 0.11498
0.016422 0.049488001 0.10035
0.049442999 0.043770999 0.084563002
0.050563 0.043710001 0.084738001
0.019532001 -0.035305001 0.092244998
0.020393999 -0.033764001 0.091983996
0.043717001 0.10895 0.098049
0.074785002 0.0085348999 0.094508
0.075907998 0.0082486002 0.095413998
0.075992003 0.0090896999 0.095151998
0.036738999 0.057310998 0.10394
0.035689998 0.058063 0.10321
0.036516 0.058263998 0.10286
0.040568002 -0.017624 0.099400997
0.040968001 -0.015961001 0.098636001
0.040259 -0.016818 0.098907001
0.066637002 0.0082505001 0.034090001
0.066702999 0.0073612998 0.033509001
0.067028999 0.0071915002 0.032636002
0.084398001 -0.012379 0.066716999
0.085152999 -0.012252 0.067290001
0.060571 0.027790001 0.085859999
0.060773 0.027872 0.085281998
0.055280998 -0.037080999 0.10815
0.055445001 -0.036047999 0.10832
0.054375999 -0.037273999 0.10889
0.056825999 0.0089272996 0.094743997
0.022854 0.11878 0.086234003
0.044234999 0.036086999 0.064236
0.060098 0.013996 0.059574001
0.046457998 0.053337999 0.075705998
0.01335 0.064965002 0.090622999
0.012576 0.064287998 0.091031
0.023441 -0.022146 0.047556002
0.044808999 0.088161997 0.10273
0.045506001 0.088440999 0.10178
0.046705998 0.085915998 0.091038004
0.053516999 -0.0057104998 0.023109
0.037087999 0.10151 0.11706
0.036382999 0.10259 0.11764
0.035661999 0.10264 0.11651
0.078224003 -0.019126 0.079883002
0.077569999 -0.019128 0.079779997
0.051890001 0.020172 0.051971
0.051658999 0.020067999 0.049904998
0.050409 0.020165 0.051188
0.002626 0.14263 0.11392
0.0025907001 0.14366999 0.11475
0.034511 -0.021328 0.034249
0.033930998 -0.020233 0.034779001
0.023266001 0.080564998 0.10193
0.090861 -0.015693 0.094810002
0.0089162998 -0.0029821 0.085564002
0.0092125004 -0.0035548001 0.084941998
0.035870999 0.059959002 0.069643997
0.018113 0.11783 0.11777
0.017945999 0.11902 0.11777
0.035374999 0.15267999 0.12372
0.034527 0.15217 0.12284
0.035457 0.15243 0.12373
0.02994 0.14775001 0.11632
0.029587001 0.14808001 0.11702
0.02995 0.14683001 0.1168
0.068689004 0.0076418002 0.070652999
0.068563998 0.0094432998 0.070840999
0.049171001 0.028929999 0.10332
0.050884999 0.028083 0.10229
0.050303999 0.029238001 0.10275
0.022577001 0.092914999 0.090034001
0.052166998 0.050838001 0.093716003
0.044847 0.056247 0.062245
0.044564001 0.055395 0.062456999
0.055842001 0.027264999 0.069289997
0.056095 0.026103999 0.069089003
0.049261998 -0.010538 0.099593997
0.050303001 -0.010871 0.098448999
0.034658998 0.1019 0.11346
0.034667999 0.10248 0.11463
0.061639 0.015851 0.036433
0.061432 0.015877999 0.037689
-0.0024230999 -0.040251002 0.092491001
0.0058603999 -0.010756 0.098474003
0.0058945999 -0.012223 0.096741997
0.0062286002 -0.012697 0.097622998
0.027310999 0.061710998 0.10586
0.027450001 0.060927998 0.10542
0.027843 0.060768999 0.10509
0.063839003 0.016147001 0.083476
0.032157 0.098871 0.080588996
0.033257 0.099587001 0.080599003
0.02902 -0.038545001 0.10411
0.028492 -0.037834998 0.10387
0.032469001 0.11192 0.084781997
0.032534 0.11303 0.085092001
0.032765999 0.11147 0.08495
0.038690001 0.060373001 0.10873
0.039583001 0.060648002 0.10859
0.039462999 0.061905999 0.1091
0.0093588 0.13249999 0.10147
0.0092328005 0.13150001 0.10148
0.035673 0.1006 0.11427
0.035162002 0.10116 0.11262
0.035002001 0.10105 0.11332
0.0084426999 -0.014043 0.086345002
0.0078047002 -0.013754 0.087195002
0.0076858001 -0.013861 0.086661004
0.084429003 -0.020005001 0.077230997
0.083764002 -0.018912001 0.077275001
0.083832003 -0.019711999 0.077342004
0.023174001 -0.021824 0.048234001
0.061154 0.0089713 0.036880001
0.062015999 0.0098195998 0.035792001
0.027744999 0.0065362998 0.074638002
0.079162002 -0.0090693999 0.078570001
0.078129999 -0.0096902 0.079524003
0.078608997 -0.011043 0.079458997
0.084550001 -0.0079276003 0.10352
0.085431002 -0.0077201002 0.10292
0.013627 -0.018750001 0.094194002
0.067812003 -0.0012562 0.10589
0.067824997 -0.0015617 0.10662
0.06797 -0.001519 0.10751
0.059523001 0.042192999 0.094772004
0.091049001 -0.030236 0.11581
0.091398999 -0.030634001 0.11699
0.091840997 -0.031470999 0.11594
0.012507 -0.0011009 0.086153999
0.047796998 0.019902 0.097285002
0.047224 0.021241 0.097714998
0.047446001 0.019915 0.097326003
0.032809999 0.13194001 0.091436997
0.032779001 0.13249999 0.092096001
0.018299 0.058426 0.10356
0.031167001 0.01203 0.067643002
0.030537 0.011513 0.066848002
0.030177999 0.011562 0.068131
0.014703 0.10672 0.1121
0.013551 0.10648 0.11241
0.038575999 0.11848 0.087522
0.038865 0.11741 0.086712003
0.010804 -0.0016653 0.075684004
0.041740999 0.10014 0.11062
0.044008002 0.099326998 0.11081
0.043223999 0.1002 0.11103
0.037184 0.14568999 0.12657
0.018323001 0.12369 0.095408998
0.017138001 0.15178999 0.10392
0.016226999 0.15128 0.10399
0.016634 0.15298 0.10451
0.023383999 0.0058863 0.070285998
0.024460001 0.0055987998 0.071264997
0.023716001 0.0061264001 0.069357
0.025829 0.0012048 0.088389002
0.026401 0.0028961999 0.088349998
0.067350999 0.0012458001 0.035154998
0.055454999 -0.031665001 0.10802
0.054398999 -0.032141 0.10891
0.055806 -0.033133 0.10822
0.022400999 0.10047 0.11035
0.023476999 0.10065 0.11136
0.022941001 0.10145 0.11207
0.029058 0.16261999 0.094765998
0.029674999 0.16245 0.095656
0.029517001 0.16161001 0.094663002
0.071062997 0.0091885002 0.083191998
0.070771001 0.010213 0.083495997
0.071280003 0.0099029997 0.083894998
0.037772998 0.12009 0.10215
0.037025999 0.12042 0.10059
0.037498999 0.12013 0.10136
0.040049002 0.052209999 0.10593
0.028282 0.10579 0.11494
0.027965 0.10649 0.11537
0.072488002 -0.0097102998 0.049713999
0.072599001 -0.0085990997 0.050271999
0.032033 0.11357 0.082468003
0.031959001 0.11485 0.082966998
0.035158999 0.024214 0.063850999
0.035335999 0.022902001 0.063676
0.034017999 0.023393 0.064661004
0.047908999 -0.013021 0.021893
0.048308 -0.01314 0.022841001
0.036054 0.059551999 0.074438997
0.036543 0.058839001 0.074043997
0.057732001 0.04146 0.093235999
0.031672001 0.055245999 0.078994997
0.032274999 0.054777998 0.080012999
0.031846002 0.055936001 0.080424003
0.056152999 0.035920002 0.089582004
0.056324001 0.058014002 0.10917
0.056086 0.059027001 0.10936
0.041857 0.042263001 0.10001
0.041320998 0.041981 0.099210002
0.041898999 0.040734001 0.099454001
0.032807 0.050905999 0.10108
0.029673001 0.0055347998 0.068997003
0.029425001 0.0052685998 0.07057
0.029708 0.0071965 0.069633998
0.033023998 0.023417 0.098865002
0.032446999 0.023612 0.099532001
0.022955 0.15324999 0.097663
0.021899 0.15352 0.098360002
0.079065003 -0.0076795002 0.11302
0.078241996 -0.0084872004 0.11402
0.032118 0.053220998 0.081822999
0.031601001 0.052801002 0.082540996
0.087027997 -0.00078359002 0.1054
0.086126 0.00022607 0.10555
0.020902 0.085364997 0.10453
0.02203 0.085236996 0.10379
0.043816 0.080738999 0.084742002
0.040013999 0.052099999 0.10462
0.039037 0.051934 0.10548
0.033932 0.0041981 0.058081001
0.085734002 -0.010713 0.10189
0.085625999 -0.011625 0.10251
0.0026304 -0.029879 0.076029003
0.0016989 -0.030927001 0.074924
0.0018542 -0.030424001 0.075781003
0.015424 0.12057 0.11607
0.049904998 0.053116001 0.099278003
0.042102002 0.097580001 0.095091999
0.041800998 0.096919999 0.096359
0.040989 0.095992997 0.096082002
0.031088 0.050207999 0.081687003
0.059556998 0.042773999 0.098474003
0.058768999 0.042010002 0.097723998
0.060568999 0.043088999 0.097888999
0.069408998 0.0066109002 0.076885998
0.069620997 0.0068152999 0.077784002
0.011744 -0.0088162003 0.073321998
0.01078 -0.0099227997 0.074083
0.010306 -0.0085105002 0.074173003
0.0092008002 -0.038695998 0.098219998
0.0085231997 -0.038817 0.099009
0.0083713997 -0.040098 0.098403998
0.0022258 -0.012576 0.081405997
0.0029112 -0.011474 0.082782999
0.0021424 -0.011642 0.081913002
0.085597999 -0.018183 0.090008996
0.085132003 -0.017777 0.090593003
0.086649999 -0.018355001 0.090931997
0.010427 -0.0030459 0.090772003
0.011265 -0.0045627998 0.090534002
0.056531999 0.027222 0.069734
0.021895001 0.14896999 0.097002998
0.026361 0.023642 0.079085998
0.025705 0.022678999 0.078037001
0.057827 0.041652001 0.096509002
0.058534 0.041949 0.096052997
0.029207001 0.029964 0.069202997
0.028423 0.030377001 0.069758996
0.029321 0.031056 0.068580002
0.060846999 -0.020242 0.096762002
0.061133001 -0.020578001 0.096492
0.043416001 -0.013699 0.096251003
0.043329 -0.014688 0.096360996
0.025074 0.0047030998 0.064758003
0.025287 0.0057108002 0.065049998
0.025936 0.0053432002 0.063900001
0.040474001 0.084250003 0.084645003
0.040052 0.085225001 0.084774002
0.068305001 0.0087652002 0.092501
0.067411996 0.0089635998 0.091435
0.066771001 0.0098241 0.092088997
0.10067 -0.025905 0.095545001
0.046946 0.096768998 0.1082
0.046137001 0.096473999 0.10885
0.045991998 -0.02162 0.10196
0.045368001 -0.021481 0.10134
0.067305997 0.0082342997 0.062582999
0.065985002 0.0082569998 0.061889
0.0094585996 -0.038676001 0.097898997
0.010363 -0.039196 0.097037002
0.034343001 0.037175 0.073597997
0.034977 0.038191002 0.074415997
0.051449001 0.007731 0.096482001
0.051587 0.0081799999 0.097043
0.058518 0.028038001 0.093667001
0.058472 0.028424 0.095362999
0.03607 0.020289 0.062955998
0.037036002 0.019509999 0.062396001
0.036387 0.019693 0.062396001
0.0073116999 0.15112001 0.10982
0.0062170001 0.15161 0.10946
0.0067868 0.15183 0.11013
0.064971998 0.00073640997 0.04552
0.065099999 0.0018791 0.046989001
0.065114997 0.00060571003 0.046682
0.033711001 0.15798999 0.12
0.033831 0.15797 0.11902
0.032905001 0.15823001 0.11914
0.051846001 0.077373996 0.094149001
0.052799001 0.077808 0.093212001
0.02218 0.15121 0.098454997
0.022555999 0.15020999 0.098641999
0.059982002 -0.031144001 0.098736003
0.029146001 0.14246 0.092083
0.029697999 0.14374 0.092623003
0.03008 0.14221001 0.091865003
0.016419999 0.062720999 0.10484
0.017875999 0.063151002 0.10523
0.01639 0.063969001 0.10538
0.037588 0.041359 0.069689997
0.037948001 0.039997999 0.069807
0.036610998 0.040724002 0.069747999
0.048919 0.03895 0.091725998
0.00090702 -0.031406999 0.089974001
0.040373001 0.094907999 0.083679996
0.016411001 0.13257 0.11514
0.015456 0.13346 0.11653
0.027664 0.072305001 0.10636
0.032974001 0.0053317002 0.089388996
0.033592999 0.0064185001 0.089169003
0.0073882998 0.1006 0.10637
0.041214999 0.046023 0.074274004
0.040669002 0.046383999 0.073732004
0.081129 -0.010191 0.053449001
0.082075 -0.011568 0.053614002
0.081851996 -0.011012 0.053059001
0.063239999 0.01565 0.071425997
