# .PCD v0.7 - Point Cloud Data file format
VERSION 0.7
FIELDS x y z
SIZE 4 4 4
TYPE F F F
COUNT 1 1 1
WIDTH 1487
HEIGHT 1
VIEWPOINT 0 0 0 1 0 0 0
POINTS 1487
DATA ascii
0.013731 -0.012343 0.098219
0.020083999 0.14624999 0.10098
0.020775 0.14464 0.10057
0.034646001 0.019795001 0.067181997
0.040633999 0.13106 0.11842
0.024437999 -0.029059 0.091008998
0.022770001 -0.028041 0.091498002
0.016650001 -0.019894 0.073167004
0.014889 -0.019072 0.072713003
0.015532 -0.017738 0.073438004
0.043889999 0.092358999 0.10539
0.042753 0.090801001 0.10495
0.044372998 0.090185001 0.10534
0.012209 -0.015253 0.091463998
0.011154 -0.017364999 0.091513
0.016991001 -0.022118 0.054318
0.018599 -0.021183999 0.053427
0.017748 -0.022701001 0.053553998
0.052232001 -0.0061181001 0.019872
0.053311002 -0.0057772999 0.018328
0.05263 -0.0065377001 0.017847
0.032821 0.13446 0.12599
0.033840001 0.13548 0.12552001
0.032832 0.13614 0.12526999
0.019269999 0.11802 0.092078999
0.019858999 0.12003 0.093272999
0.018025 0.12058 0.091195002
0.034005001 0.049669001 0.078440003
0.018593 0.13196 0.11706
0.021261999 0.14954001 0.12417
0.022481 0.14749999 0.12354
0.021955 0.14834 0.12392
0.060830001 0.066327997 0.10627
0.060493998 0.063793004 0.10802
0.061257001 0.064685002 0.10758
0.0012964 -0.037434001 0.10109
0.0030849001 -0.037452001 0.10085
0.0035361999 -0.036199 0.1002
0.037599001 0.14472 0.11066
0.037243001 0.14297999 0.11009
0.021652 0.10499 0.089469001
0.021094 0.10527 0.089171998
0.022105999 0.10353 0.090258002
0.052457999 0.019474 0.039765999
0.051592998 0.019183001 0.0383
0.053842001 0.019625001 0.037879001
0.029936999 -0.035755001 0.1011
0.029123999 -0.035585001 0.099843003
0.071517996 -0.0018045 0.054492999
0.069710001 -0.0022761 0.054528002
0.068223 -0.0010882 0.054483
0.0121 0.050662 0.097534999
0.012367 0.050319001 0.095140003
0.01074 0.050817002 0.096500002
0.024364 -0.037905 0.087894998
0.026315 -0.036238998 0.087425999
0.032901 0.10406 0.11067
0.032164998 0.1049 0.11245
0.022856999 -9.1438997e-05 0.068067998
0.021562999 -0.00027523999 0.069916002
0.022926999 0.00022731 0.069675997
0.052740999 0.082212001 0.084169999
0.053243998 0.081046 0.084831998
0.054129001 0.081327997 0.085406996
0.0026837999 -0.012048 0.086987004
0.0041475999 -0.011086 0.089451
0.0038548 -0.010688 0.090429999
0.069439001 0.0082711997 0.072607003
0.068745002 0.0078616999 0.072146997
0.068994001 0.0096375998 0.072281003
0.047945 0.073928997 0.066960998
0.047945 0.071562998 0.066396996
0.047079001 0.072428003 0.066491
0.016633 -0.015792999 0.097845003
0.017512999 -0.013421 0.097383
0.015969001 -0.012969 0.098656997
0.025443999 0.093023002 0.108
0.025281999 0.092472002 0.10678
0.027378 0.092961997 0.10771
0.059060998 0.041110002 0.095489003
0.059193999 0.042548999 0.095059
0.058603998 0.040544 0.094631001
0.037664998 0.018085999 0.099000998
0.036139 0.017615 0.099724002
0.038102999 0.015294 0.098186001
0.020540001 0.15203001 0.12932
0.019688001 0.15046 0.13003001
0.021018 0.15169001 0.12837
0.053704999 0.061489001 0.082364
0.052739002 0.061804 0.080771998
0.052007001 0.062477998 0.080568999
0.049116999 0.00058981002 0.10255
0.049394999 0.0012737 0.10083
0.048402 -0.00019741 0.10152
0.040649999 0.059594002 0.06185
0.057344999 0.019509999 0.035369001
0.057032999 0.017581999 0.035477001
0.056678001 0.018193999 0.034196001
0.068164997 0.0041545001 0.064796999
0.052887999 -0.0055316002 0.099242002
0.052544001 -0.0065711001 0.10028
0.053980999 -0.0068506999 0.099609002
0.024714001 -0.010347 0.094828002
0.042296 0.10329 0.11456
0.040463999 0.10258 0.1166
0.040865999 0.10431 0.11625
0.028301001 0.12792 0.11626
0.030174 0.12971 0.11695
0.044785 0.043085001 0.074375004
0.044966001 0.041646 0.074877001
0.030327 0.042890001 0.079994999
0.03002 0.04281 0.081488997
0.031596001 0.04606 0.079406999
0.039085999 0.10876 0.087600999
0.039912 0.10912 0.087788001
0.039322 0.10991 0.088224001
0.048964001 0.015576 0.033495001
0.049355999 0.016131001 0.034072999
-0.002752 -0.039631002 0.094837002
-0.00021753 -0.040789001 0.093965001
0.064857997 -0.0053678001 0.041065
0.017397 0.068986997 0.086654
0.018645 0.067459002 0.086437002
0.034586001 0.12583999 0.12027
0.034607001 0.12597001 0.12175
0.033666998 0.12514 0.12125
0.055987 0.071709 0.085206002
0.056003999 0.069573 0.084255002
0.055335999 0.070289001 0.084453002
0.046027001 -0.017411999 0.099656001
0.045855001 -0.017205 0.10039
0.019822 0.12532 0.098103002
0.017554 0.12331 0.099944003
0.051534999 0.072410002 0.11387
0.051290002 0.073287003 0.11316
0.012101 0.1591 0.11569
0.010119 0.15631001 0.11746
0.013595 0.15818 0.11685
0.04211 0.10692 0.099133
0.015273 0.064359002 0.088400997
0.043198001 0.056612 0.10707
0.036982998 0.097678997 0.084031001
0.038642999 0.096377 0.082535997
0.038224 0.096584998 0.082805
0.029932 0.13897 0.12237
0.028604999 0.13959999 0.12307
0.030429 0.13812 0.12261
0.011153 -0.015515 0.095202997
0.011039 -0.018247001 0.095146999
0.0087949 -0.01936 0.099163003
0.010157 -0.020547001 0.097598001
0.0091238003 -0.018402001 0.096827
0.062082998 0.034458 0.075237997
0.061089002 0.035843 0.074680001
0.061168 0.037016001 0.073763996
0.053319 0.046948999 0.091856003
0.054428998 0.044557001 0.091288999
0.053884 0.045258999 0.091941997
0.067634001 -0.0093208998 0.012867
0.068696 -0.008405 0.015569
0.068003997 -0.0085968003 0.014578
0.080770001 -0.0081671001 0.10872
0.082310997 -0.0080500999 0.10838
0.084110998 -0.0067890999 0.10818
0.038015999 0.076716997 0.065591998
0.036497001 0.076728001 0.065535001
0.048643999 -0.013972 0.025012
0.030317999 0.1183 0.1223
0.029951001 0.11669 0.12106
0.030161999 0.11649 0.12115
0.039839 0.052354999 0.062861003
0.041223999 0.053907 0.064404003
0.03963 0.056129001 0.064534999
0.029942 0.051576 0.099411003
0.020191999 -0.020036999 0.056435999
0.03359 0.15147001 0.11466
0.033236999 0.1516 0.11375
0.033794001 0.15153 0.11277
0.028204 0.15259001 0.094051003
0.0027797001 -0.02066 0.086663
0.0041749999 -0.018712001 0.086809002
0.0050813002 -0.019191001 0.086276002
0.040635999 0.11757 0.10167
0.042013999 0.11802 0.10142
0.087168001 -0.011992 0.10289
0.087130003 -0.013498 0.10216
0.052940998 -0.030043 0.10694
0.053213999 -0.028909 0.10786
0.053034 -0.028894 0.10781
0.030572999 0.00015072001 0.090659998
0.030662 0.00021501 0.093148999
0.031695001 -0.00056040002 0.091415003
0.040042002 0.055916999 0.070850998
0.041260999 0.056905001 0.071670003
0.041731 0.056558002 0.072368003
0.068348996 0.010114 0.077786997
0.069853 0.0097572003 0.078077003
0.036842 0.15008 0.12639999
0.035471 0.14893 0.12718999
0.056019999 0.078204997 0.087182
0.057016 0.076081 0.086626001
0.049114 -0.0077665001 0.030324999
0.048953999 -0.0063833999 0.029654
0.05085 -0.0078809001 0.029921001
0.0084896004 -0.016892999 0.090447001
0.0088063003 -0.019176999 0.090060003
0.0077701001 -0.016091 0.088292003
-0.0053953999 -0.039549001 0.087136999
-0.0051517999 -0.038153 0.086574003
-0.0040908 -0.040079001 0.084899001
0.10026 -0.027078999 0.10581
0.099802002 -0.025869999 0.10737
0.034053002 0.043072999 0.078277998
0.033436 0.044148002 0.079331003
0.032758001 0.044697002 0.079682998
0.040279001 0.014533 0.054953001
0.036359999 0.012459 0.055103999
0.047313001 0.060667001 0.087190002
0.047040999 0.059315 0.086384997
0.046962 0.061753001 0.086990997
0.077430002 -0.013259 0.10933
0.076038003 -0.011231 0.10728
0.076516002 -0.011309 0.10998
0.024347 -0.025358001 0.064951003
0.023546999 -0.024462 0.064842001
0.023102 -0.026531 0.065425001
0.091652997 -0.018585 0.06972
0.091541998 -0.018355001 0.068044998
0.092504002 -0.017831 0.070340998
0.048186 0.069159999 0.066665001
0.047297999 0.069104999 0.066923
0.04665 0.069665998 0.068360999
0.030881001 0.14881 0.11735
0.031947002 0.14529 0.11759
0.039297 0.019913999 0.097832002
0.038242001 0.020513 0.098590001
0.039533999 0.019974001 0.096046999
0.035810001 -0.01434 0.039012998
0.035411999 -0.01518 0.03743
0.035007998 -0.015296 0.038904998
0.018488999 0.0040203999 0.073213004
0.01874 0.0022026 0.072696
0.0094678001 0.14854001 0.11557
0.010657 0.14726 0.11577
0.011926 0.1472 0.11588
0.073041998 -0.00050527003 0.10487
0.073400997 -0.0018392 0.10664
0.073426001 -0.00073653 0.10835
0.022050001 0.090451002 0.1049
0.020916 0.092354 0.10324
0.031603999 0.1205 0.086046003
0.029672001 0.12067 0.086249001
0.029664 0.12143 0.084812999
0.065958999 0.0093095005 0.072668001
0.051543999 -0.0060867001 0.021586999
0.053681001 -0.0062452001 0.022092
0.051842999 -0.0052759 0.021594999
0.057821002 0.022764999 0.068322003
0.058857001 0.023212999 0.068024002
0.058942001 0.021286 0.066445999
0.039708 0.049563002 0.10016
0.040199 0.049422 0.10114
0.039227001 0.051747002 0.10058
0.022132 0.074660003 0.093145996
0.021322999 0.074383996 0.094348997
0.021426 0.074045002 0.093390003
0.062286999 0.01812 0.076328002
0.062515996 0.017645 0.076118
0.011454 0.063406996 0.096284002
0.048710998 0.015742 0.035289999
0.048099 0.01417 0.03373
0.046668001 0.014271 0.033422001
0.061023001 0.034867998 0.084083997
0.061916001 0.035962999 0.084137999
0.059911001 0.035355002 0.083727002
0.021613 0.042417001 0.095481001
0.020199999 0.043265 0.097599998
0.02115 0.042868 0.097116001
0.085629001 -0.0078966003 0.098975003
0.034024 0.15119 0.13195001
0.027551999 0.016830999 0.079719
0.025761001 0.015084 0.078466997
0.026898 0.016616 0.079135999
0.021278 0.11921 0.088954002
0.020998999 0.11779 0.088822998
0.018931 0.11792 0.088923998
0.078174002 -0.006114 0.076549999
0.079296999 -0.0075741 0.075057
0.078405999 -0.0065321 0.075277001
0.026769999 0.15876999 0.094757996
0.0023987 -0.030107999 0.078096002
0.0022417 -0.029525001 0.078497998
0.010644 0.065958001 0.0986
0.011279 0.066418 0.098470002
0.011475 0.067753002 0.098858997
0.029191 0.011775 0.076016001
0.028240001 0.0098999999 0.076325998
0.02286 -0.0054029999 0.097304001
0.024698 -0.0056309998 0.096965998
0.023864999 -0.0037026 0.096860997
0.048866 -0.012456 0.032724999
0.04941 -0.012457 0.033310998
0.048094999 -0.012118 0.033436999
0.069362998 -0.012628 0.034536999
0.069709003 -0.010285 0.033388
0.070745997 -0.011176 0.034003999
0.041393001 0.075749002 0.1107
0.040867999 0.075769 0.10739
0.040215001 0.075475 0.11025
0.0072344998 0.13559 0.11143
0.0071777999 0.13492 0.10963
0.0068792002 0.13424 0.11215
0.030714 0.0087486003 0.088492997
0.030668 0.010401 0.087500997
0.030200001 0.0097503997 0.086736001
0.042495001 0.11558 0.094678
0.042495001 0.11544 0.093062997
0.042461999 0.11587 0.095494002
0.012826 0.057404 0.10023
0.011749 0.056875002 0.097497001
0.011175 0.058118999 0.098775998
0.042093001 0.11432 0.095210999
0.040621001 0.11425 0.094026998
0.041999001 0.095592998 0.10258
0.053367 0.049210001 0.090971999
0.053144999 0.049391001 0.092789002
0.053203002 0.049369998 0.092419997
0.0087553002 0.096372001 0.10742
0.0091177002 0.097429998 0.10798
0.0084402999 0.096545003 0.10836
0.034603 0.15341 0.12356
0.031309001 0.15460999 0.12483
0.057333998 0.044569001 0.10267
0.058196001 0.043988001 0.10056
0.049649 0.079589002 0.088012002
0.049408 0.080413997 0.088128999
0.050608002 0.079604998 0.088972002
0.0045261998 0.12701 0.11508
0.0070068999 0.12702 0.11511
0.0070159002 0.12764999 0.11706
0.052354001 -0.019827999 0.10256
0.054476 -0.018119 0.10475
0.052845001 -0.017478 0.10336
0.061345998 0.020599 0.082268
0.060973998 0.019385001 0.083917998
0.062577002 0.020003 0.080857001
0.0074902 0.14945 0.10599
0.0091926996 0.14792 0.10994
0.080868997 -0.013974 0.077334002
0.081225 -0.013786 0.076982997
0.081146002 -0.013944 0.078069001
0.025760001 0.16328999 0.096288003
0.025513001 0.16536 0.095991999
0.047045 0.01856 0.046115998
0.01894 0.12738 0.096311003
0.018186999 0.12789001 0.095563002
0.018533001 0.1268 0.095398001
0.035890002 -0.038654 0.10626
0.0361 -0.036493 0.10683
0.083782002 -0.0010724 0.096368998
0.083442003 0.00033643001 0.095702
0.013312 0.12602 0.1183
0.014755 0.12498 0.11833
0.071901001 -0.010528 0.11116
0.072774 -0.010391 0.11165
0.071667001 -0.010356 0.11234
0.03404 0.038786002 0.076430999
0.037335001 0.012542 0.061519001
0.037262999 0.011772 0.061005
0.052342001 0.0074172001 0.035243999
0.050347999 0.0074717002 0.033826999
0.045611002 -0.024834 0.1006
0.045357 -0.024676999 0.10095
0.044810999 -0.024619 0.098536998
0.048629999 0.067689002 0.077096
0.047910001 0.067036003 0.076472998
0.048023 0.067652002 0.075724997
0.0067652999 -0.036068998 0.073063999
0.0077149002 -0.036035001 0.071736999
0.024728 0.11067 0.11424
0.025393 0.11101 0.11251
0.029402999 -0.0072589 0.095817
0.029242 -0.0033776001 0.095634997
0.028445 -0.0036551 0.096013002
0.023639999 0.087158002 0.086987004
0.024882 0.086681001 0.086871997
0.019069999 -0.015636001 0.071069002
0.01808 -0.014035 0.070586003
0.019646 -0.012344 0.069816001
0.060794 0.058869001 0.10291
0.06047 0.057266001 0.10356
0.022488 0.10737 0.11221
0.090917997 -0.0088374997 0.096795999
0.090741001 -0.010768 0.096299
0.092321999 -0.0096704997 0.096058004
0.028831 0.034777999 0.084762
0.028498 0.036453001 0.086804003
0.044002 0.096216999 0.10959
0.044080999 0.096105002 0.10809
0.045671999 0.095797002 0.10806
0.011735 0.13766 0.10358
0.011633 0.13816001 0.10436
0.013537 0.13805 0.10671
0.022652 0.039772999 0.099063002
0.023503 0.040199999 0.099512003
0.022468001 0.040773999 0.098683998
0.018559 0.15008999 0.097874999
0.019244 0.14854001 0.098258004
0.019094 0.14957 0.099922001
0.041719999 0.014647 0.053594999
0.041800998 0.012371 0.054108001
0.04383 0.01247 0.053614002
0.038378 -0.031493001 0.10572
0.03548 -0.033225 0.10708
0.063621998 -0.012783 0.10434
0.063591003 -0.011687 0.10405
0.063562997 -0.011756 0.10749
0.023685001 -0.010279 0.060293
0.023372 -0.0094670001 0.061365001
0.02358 -0.026552999 0.091219999
0.023228001 -0.023995001 0.090974003
0.023383001 -0.026516 0.090788998
0.041845001 0.10042 0.099448003
0.040993001 0.10057 0.10077
0.042054001 0.10056 0.10104
0.01108 0.066551 0.094897002
0.090304002 -0.024219001 0.111
0.092372 -0.02351 0.11056
0.092318997 -0.024194 0.11
0.037301999 0.090461999 0.083265997
0.036811002 0.090152003 0.084638
0.05294 0.0052057002 0.035765
0.052000001 0.0054934002 0.036814999
0.038148001 0.053663999 0.073732004
0.039262 0.051909 0.074564002
0.037448999 0.051963001 0.073616996
0.040206 0.1013 0.093198001
0.039902002 0.10146 0.091539003
0.038362999 0.099775001 0.091963999
0.039393999 0.025769001 0.064014003
0.040566999 0.026992001 0.063291997
0.040635999 0.026865 0.063472003
0.037900999 0.11941 0.10675
0.063328996 0.015123 0.033946
0.064934999 0.014027 0.035172999
0.018428 0.16328999 0.097989999
0.020319 0.16313 0.099652
0.010381 0.0013158 0.078210004
0.011008 0.00044437 0.078870997
0.031874001 0.041012 0.090862997
0.032086998 0.042162001 0.087777004
0.026023 0.023988999 0.082849003
0.02613 0.021935999 0.082836002
0.026674001 0.023757 0.083351001
0.046463002 -0.019032 0.10185
0.047596999 -0.018609 0.10327
0.050958999 0.056508001 0.095077001
0.051164001 0.055830002 0.094760001
0.053102002 0.056729 0.094881997
0.051746 0.0086740004 0.032559998
0.058864001 -0.012626 0.099616997
0.056933001 -0.01301 0.099106997
0.057783999 -0.013263 0.098518997
0.011504 0.14580999 0.11636
0.011793 0.14511999 0.11508
0.012409 0.14519 0.11478
0.0086732004 -0.026769999 0.091976002
0.0089245001 -0.026112 0.091397002
0.0085858004 -0.028632 0.090214998
0.038913999 0.12157 0.12095
0.0090335002 -0.029502001 0.073698997
0.0096985996 -0.029115999 0.073315002
0.071861997 0.00027714 0.08021
0.070998996 0.0020413999 0.080205999
0.072346002 0.0019535001 0.080482997
0.019655 0.14777 0.096396998
0.018993 0.14738999 0.098412998
0.017657001 0.14793 0.098226003
0.032178 0.11432 0.12129
0.031854 0.11073 0.11976
0.032446999 0.11099 0.12068
0.035197999 0.012261 0.062306002
0.038198002 0.085853003 0.10581
0.037921999 0.084044002 0.10513
0.017202999 0.13060001 0.10096
0.017584 0.13022 0.099550001
0.015745999 0.13308001 0.10039
0.055353001 0.015951 0.045166001
0.055615999 0.015589 0.044854999
0.056276999 0.014525 0.046521999
0.022181001 0.10957 0.11495
0.021163 0.10998 0.11527
0.020065 0.1076 0.11351
0.018793 0.1096 0.086967997
0.017398 0.11187 0.089266002
0.018367 0.11122 0.087658003
0.084054001 -0.0076119001 0.10318
0.084711999 -0.0079910001 0.1015
0.084334001 -0.0077364999 0.10231
0.0085658999 -0.010121 0.099880002
0.0073295999 -0.010792 0.099899001
0.0083753001 -0.010778 0.10143
0.050237 0.023706 0.061482999
0.049984999 0.022995999 0.060996
0.081711002 -0.017252 0.088586003
0.081488997 -0.017852001 0.086759999
0.082028002 -0.017658999 0.087559998
0.058899 0.0087543996 0.037098002
0.058215 0.0096054003 0.036986001
0.059284002 0.0095066 0.038277
0.037633002 0.047079001 0.097050004
0.037636999 0.046673 0.097713999
0.022924 -0.0087893 0.096988998
0.022251001 -0.0086962003 0.095856003
0.023487 -0.0080880998 0.096277997
0.057509001 0.011889 0.034984
0.058580998 0.010718 0.033829
0.058633 0.010687 0.034557
0.023104001 0.040757 0.098927997
0.022399001 0.040738001 0.099050999
0.024274001 0.041510001 0.099220999
0.0007338 -0.011369 0.085175999
0.0019175 -0.010203 0.084889002
0.0026151999 -0.011033 0.083246
0.060419001 0.013798 0.067927003
0.060017001 0.014796 0.067043997
0.022816001 0.076497003 0.098123997
0.025078001 0.076274 0.097538002
0.024018001 0.075101003 0.097833
0.083887003 -0.025834 0.11198
0.083595999 -0.027038001 0.11532
0.084408998 -0.02548 0.11352
0.037032999 0.1194 0.086303003
0.038763002 0.11924 0.087526001
0.039652999 0.1183 0.086267002
0.082117997 -0.011769 0.076517001
0.081768997 -0.011432 0.077785
0.080441996 -0.012428 0.076769002
0.029677 0.050622001 0.093809001
0.030474 0.048434 0.094016001
0.030257 0.050590001 0.094898
0.019931 0.11536 0.11508
0.021467 0.11563 0.11438
0.021527 0.11577 0.11471
0.060628001 0.019052001 0.071309999
0.059935998 0.018722 0.071539998
0.060578 0.020795001 0.071558997
0.080407999 -0.020632001 0.1075
0.081729002 -0.021446999 0.1084
0.082618997 -0.020772999 0.10653
0.012958 0.1515 0.1095
0.012867 0.15121999 0.10822
0.011236 0.1508 0.10751
0.027706999 0.024645999 0.091012999
0.027185 0.024284 0.091865003
0.0082660001 0.097713001 0.10941
0.011202 0.098594002 0.11031
0.0071323998 0.098963998 0.10933
0.036161002 0.0084920004 0.091876999
0.036348 0.0078790002 0.093257003
0.034559 0.0058566998 0.093284003
0.080043003 -0.00067206001 0.098796003
0.083187997 0.00089036999 0.099081002
0.081110999 -0.00043958001 0.098805003
0.049442001 0.081630997 0.094769001
0.047798 0.081704997 0.093551002
0.048548002 0.083580002 0.094973996
0.057069998 0.031959999 0.070813
0.055408999 0.031838998 0.069517002
0.035974 -0.0092366999 0.046167001
0.034366999 -0.0084782997 0.045008
0.034674998 -0.0096447002 0.043117002
0.054830998 0.078249 0.093447
0.055181999 0.076463997 0.095135003
0.031489 0.083251998 0.10742
0.031481002 0.083701998 0.10675
0.021476001 0.15834001 0.098802999
0.022413 0.15824001 0.096362002
0.047214001 0.10801 0.10792
0.046292 0.1083 0.10826
0.047222 0.10769 0.1087
0.010575 0.053376 0.098444
0.0023082001 -0.028859001 0.083708003
0.0010917 -0.030415 0.082700998
0.001875 -0.030428 0.084927998
0.077807002 -0.030091001 0.11256
0.077711999 -0.032202002 0.1102
0.078916997 -0.030057 0.11207
0.03115 -0.013226 0.094871998
0.032747 -0.014271 0.093323998
0.033043001 -0.013424 0.095207997
0.048882999 0.055108 0.086398996
0.048948001 0.053773999 0.086276002
0.046557002 0.05387 0.085258998
0.040273 0.015237 0.058933999
0.042013001 0.014594 0.058513001
0.041861001 0.01495 0.058938
0.01242 0.10493 0.097456001
0.013563 0.10689 0.098212004
0.046103001 0.10906 0.10737
0.043581001 0.10856 0.10519
0.045109998 0.11013 0.10819
0.080192998 -0.014681 0.10728
0.080371998 -0.013383 0.10791
0.080326997 -0.012578 0.10735
0.0076893 -0.035394002 0.072233997
0.0085247001 -0.034977999 0.072126001
0.008281 -0.034688 0.072812997
0.037611 0.032930002 0.095069997
0.0054219998 -0.014088 0.082520001
0.0039841002 -0.014939 0.081426002
0.0047443998 -0.014695 0.082217
0.024185 -0.011372 0.057863999
0.025142999 -0.010767 0.056024
0.025148001 -0.010928 0.055167001
0.04414 0.0076967999 0.029596999
0.044629 0.0093077002 0.030458
0.045917999 0.0090490999 0.030351
0.035034999 -0.0084851002 0.045906
0.034143999 -0.0061583999 0.045699999
0.033670999 0.105 0.083456002
0.032189999 0.10637 0.083943002
0.033907998 0.10546 0.083866
0.059158001 0.032017 0.075975001
0.060545001 0.033440001 0.076683
0.027892999 0.055968001 0.10251
0.027450001 0.056995001 0.10303
0.049580999 -0.024658 0.10377
0.032875001 0.12901001 0.095523
0.033546999 0.12749 0.095586002
0.032481 0.12808 0.094801001
0.0090274997 0.12728 0.10451
0.0065698 0.12771 0.10464
0.0082214996 0.12802 0.10467
0.065614 0.0071818 0.045242
0.065243997 0.0064114002 0.044167001
0.063602999 0.0065458999 0.043818999
0.047706999 0.076081 0.072012998
0.049773999 0.075806998 0.071232997
0.048774 0.073969997 0.069948003
0.049151 -0.0078469999 0.022082999
0.049885999 -0.010298 0.022737
0.033755001 0.053537998 0.10428
0.034023002 0.052108999 0.10196
0.020112 0.13982999 0.12032
0.021373 0.14004999 0.12078
0.043504 0.091559999 0.10742
0.042860001 0.089987002 0.10873
0.043965999 0.089125998 0.10792
0.024104999 0.118 0.11403
0.02503 0.11745 0.11411
0.024276 0.11924 0.11649
0.044826001 0.086736001 0.087842003
0.042594999 0.099036001 0.095866002
0.042213 0.10017 0.097338997
0.041871998 0.097217001 0.098223999
0.023921 0.097397998 0.10892
0.023668 0.098700002 0.10931
0.063689999 0.0081709996 0.090069003
0.027756 0.092101 0.11268
0.029924 0.089653 0.10996
0.028239001 0.090839997 0.11249
0.038973 0.081684999 0.081496999
0.040215999 0.082162 0.079737
0.040398002 0.082217999 0.079833999
0.047040999 0.028626001 0.064452998
0.047111999 0.028734 0.065365002
0.047029998 0.027558001 0.065430999
0.02004 -0.0052564 0.070191003
0.018377 -0.002633 0.071088001
0.036104999 0.066650003 0.11225
0.034949001 0.066317998 0.1123
0.036784999 0.066960998 0.11164
0.029735999 -0.026405999 0.091629997
0.029378001 -0.02658 0.090972997
0.028859001 -0.027613999 0.090116002
0.0044009001 0.13012999 0.11592
0.0040603001 0.12830999 0.11413
0.0040962002 0.13051 0.11604
0.051511001 0.080407001 0.079580002
0.05209 0.080154002 0.080945
0.049484 0.079605997 0.079659998
0.030897001 0.079814002 0.069741003
0.02973 0.079121999 0.071493
0.031661 0.078892998 0.071483999
0.076027997 -0.011169 0.082483001
0.076701 -0.0095843002 0.083806999
0.034837998 0.076774999 0.10762
0.064453997 0.0057915999 0.037200999
0.063091002 0.0054657999 0.038263999
0.062406 0.0044971001 0.037703
0.030634999 -0.011952 0.047286
0.031213 -0.011115 0.047614999
0.032283001 -0.01169 0.047437999
0.018475 -0.018965 0.072040997
0.016992999 -0.016287999 0.071753003
0.019497 -0.016163999 0.070510998
0.026125999 0.092151999 0.10649
0.027375 0.092193998 0.10653
0.061209001 0.025812 0.092987001
0.060345002 0.027448 0.091962002
0.060890999 0.028659999 0.092492998
0.074043997 -0.0061495001 0.063332997
0.074337997 -0.0054969001 0.062495001
0.074369997 -0.0041780001 0.062826
0.0098954998 0.108 0.098468997
0.0082671 0.10544 0.099701002
0.0084769996 0.10811 0.098865002
0.013713 -0.029035 0.072756
0.031443998 -0.017469 0.038575999
0.033188 -0.016732 0.037151001
0.030834001 -0.017317001 0.038090002
0.092580996 -0.020816 0.074065998
0.054960001 0.03802 0.089736998
0.055062 0.038454 0.088734999
0.055728 0.040348999 0.088923
0.02335 0.0031144 0.089527003
0.02562 0.0045385999 0.089280002
0.023469999 0.0037616 0.088238999
0.062279001 0.017999001 0.083843999
0.063663997 0.017171999 0.084131002
0.063964002 0.016287999 0.083125003
0.062166002 -0.0041466998 0.10656
0.062654004 -0.0051226001 0.10458
0.063734002 -0.0055419998 0.10626
0.027841 0.10117 0.090530001
0.028712001 0.10344 0.090818003
0.027793 0.1029 0.091371998
0.034063 0.14853001 0.12915
0.034451 0.14994 0.13042
0.032520998 0.14902 0.13107
0.038628001 0.093511 0.11074
0.031955 0.049761999 0.070533
0.032384001 0.050450999 0.069549002
0.032705002 0.050613999 0.071121
0.026575999 0.074155003 0.10428
0.024561999 0.072368003 0.10572
0.026396001 0.072691999 0.10527
0.036951002 0.10023 0.090443999
0.037218999 0.099365003 0.08845
0.014 -0.0041449 0.089277998
0.012671 -0.0031522999 0.090336002
0.013188 -0.0051364 0.089501001
0.023521001 0.026404999 0.078910999
0.023831001 0.028015001 0.078780003
0.024189999 0.025700999 0.077266999
0.069817998 0.00017925999 0.060855001
0.071824998 -0.0018097 0.061650999
0.071851999 -0.0012208 0.060128
0.023707001 0.075441003 0.097116001
0.077509999 -0.0075086998 0.082709998
0.076929003 -0.0075403 0.084122002
0.076762997 -0.0068925 0.082952999
0.062563002 0.021004001 0.087443002
0.061349999 0.01984 0.087440997
0.052413002 -0.02207 0.10453
0.053339001 -0.02375 0.1043
0.054361001 -0.022996999 0.1048
0.082438 -0.017086999 0.10156
0.081993997 -0.016133999 0.099538997
0.082869001 -0.017105 0.10156
0.042093001 0.086514004 0.092156
0.043416999 0.086672999 0.091687001
0.043545999 0.087893002 0.091087997
0.050282001 0.044236999 0.074078999
0.049876001 0.042842999 0.072747
0.049079999 0.043995999 0.073238999
0.011453 -0.0019741999 0.089768998
0.011177 -0.00066666002 0.090187997
0.01082 -0.0018724001 0.089018002
0.073055997 0.0083018001 0.091164
0.072678998 0.0090319002 0.089130998
0.073408999 0.0083264001 0.088760003
0.016353 -0.011618 0.097730003
0.014754 -0.012675 0.098892003
0.068166003 -0.010265 0.038481001
0.066294998 -0.0091503998 0.038844001
0.065226004 -0.0096669998 0.040026002
0.028503999 0.042013999 0.098757997
0.034538001 0.1497 0.12144
0.037 0.14847 0.12298
0.035477001 0.14809 0.12271
0.059771001 0.068637997 0.099469997
0.014555 0.14426 0.11734
0.013552 0.14266001 0.11776
0.014281 0.14289001 0.11643
0.050237998 -0.018265 0.032543
0.051015001 -0.01619 0.033286002
0.049508002 -0.017093999 0.030649999
0.0024307 -0.0055856998 0.091499999
0.0036088 -0.0066424999 0.090263002
0.0048990999 -0.0047928002 0.091921002
0.037066001 0.097594 0.089534998
0.037691001 0.098453 0.087370999
0.037489001 0.097503997 0.088748999
0.041793 0.042608999 0.072632998
0.040911999 0.042718001 0.072098002
0.041439999 0.042718999 0.073449999
0.025279 0.064455003 0.10735
0.025281999 0.066722997 0.10911
0.024877001 0.066333003 0.10665
0.016372999 -0.040514998 0.093748003
0.016051 -0.039749 0.094388999
0.015039 -0.040761001 0.094204001
0.078676 -0.0081679001 0.074313998
0.078479998 -0.0091853002 0.072494
0.079843 -0.0097828005 0.071162999
0.039278001 0.093918003 0.094694003
0.039462999 0.094856001 0.094434999
0.029255999 0.16376001 0.10086
-0.0058284001 -0.039597999 0.079943001
-0.0074589001 -0.040403001 0.080054998
0.028549001 0.16429999 0.097910002
0.029347001 0.16574 0.098082997
0.051305 0.031520002 0.094699003
0.050336 0.031027 0.093703002
0.052655 0.031753 0.093232997
0.021978 -0.033259001 0.091959
0.022353999 -0.031426001 0.090980999
0.019787 -0.030669 0.091606997
0.030408001 0.15428001 0.12329
0.02816 0.014241 0.076589003
0.027124999 0.015237 0.076673001
0.038148001 0.11446 0.11995
0.037466999 0.1159 0.11911
0.038554002 0.11672 0.11769
0.0079496996 0.13634001 0.10885
0.0069324998 0.13585 0.10987
0.0078728003 0.13736001 0.10876
0.0090255998 -0.020525999 0.098876998
0.0076755998 -0.020533999 0.097506002
0.0088510998 -0.020486999 0.099072002
0.056719001 0.016553 0.033789001
0.059285 0.016383 0.034074001
0.058272 0.014846 0.034913
0.019866001 0.15233999 0.13067
0.019300999 0.073372997 0.078780003
0.019234 0.072943002 0.080729
0.064485997 0.0085177999 0.037882999
0.064585 0.0088911001 0.038492002
0.023080001 0.14399 0.094401002
0.025178 0.14605001 0.093872003
0.024592999 0.14419 0.094405003
0.031468999 0.0038586 0.058414999
0.031721 0.0034763 0.058986999
0.032892998 0.0036672 0.058414001
0.0074207 0.13361 0.10837
0.0064389999 0.13508999 0.11009
0.014902 -0.030367 0.094370998
0.014944 -0.030580999 0.093644999
0.013665 -0.032235999 0.094544001
0.035863999 0.15532 0.11774
0.035622001 0.15543 0.11589
0.034207001 0.15678 0.11561
0.014017 0.11578 0.10036
0.015401 0.11565 0.099160999
0.041542001 0.013931 0.050200999
0.041476998 0.014544 0.051498
0.041905999 0.014969 0.050416999
0.024851 0.075198002 0.1047
0.02447 0.074231997 0.10521
0.050530002 0.078606002 0.086406998
0.049805 0.079971001 0.087518997
0.050328001 0.079687998 0.08794
0.015896 0.13491 0.11556
0.017043 0.13484 0.11737
0.016347 0.13654999 0.11643
0.027379001 0.14809 0.10055
0.027567999 0.14639001 0.10112
0.029335 0.14644 0.10018
0.044631999 0.011242 0.097283997
0.045582 0.012182 0.097999997
0.017126 -0.022917001 0.056926001
0.017335 -0.023723001 0.057161
0.017481999 -0.022174001 0.057959002
0.04332 0.083796002 0.097783998
0.042341001 0.084124997 0.098016001
0.035675999 0.042139001 0.10035
0.09505 -0.020096 0.094228998
0.095342003 -0.020445 0.093719997
0.096111 -0.020791 0.094806001
0.061264999 0.030719001 0.082245
0.061655998 0.032827001 0.079879001
0.040786002 0.0016388 0.049006
0.041786999 0.0023554 0.048526
0.041545 0.0018582999 0.047727998
0.058734 0.032155 0.094751
0.059379999 0.032359 0.093134999
0.058162998 0.033020999 0.092814997
0.040706001 0.051123001 0.10142
0.04002 0.050443001 0.1021
0.032719001 0.10957 0.080200002
0.032635 0.1107 0.080259003
0.020745 -0.016580001 0.091315001
0.018919 -0.016016001 0.092439003
0.018794 -0.017475 0.090559997
0.058309998 0.077939004 0.10351
0.043570001 -0.0039777001 0.045456
0.041494001 -0.0047074002 0.045644999
0.042516999 -0.0031306001 0.047088001
0.059126999 0.018559 0.069273002
0.059703 0.020523001 0.070152
0.030932 0.14236 0.12710001
0.028361 0.14383 0.12627999
0.029027 0.14201 0.12552001
0.080596998 -0.0085525997 0.087794997
0.080683 -0.0081497002 0.089203998
0.082239002 -0.0089149 0.088165
0.043896001 0.054814 0.10326
0.044914 0.053238001 0.10245
0.043529999 0.054591 0.1015
0.033077002 0.070701003 0.10925
0.058332 0.013966 0.063610002
0.059390001 0.012946 0.063897997
0.059482999 0.01192 0.064707004
0.024186 -0.022504 0.045469001
0.022783 -0.023298001 0.046277002
0.025059 0.028112 0.089736
0.025085 0.028979 0.087865002
0.022484001 0.1231 0.095186003
0.022356 0.12323 0.094063997
0.023411 0.12530001 0.095394999
0.011852 0.11004 0.11335
0.0093468996 0.10755 0.11285
0.012127 0.10863 0.11411
0.016443999 0.068383999 0.10528
0.016322 0.068778001 0.1064
0.028268 0.096606001 0.11193
0.033427998 0.0013698 0.060208
0.033094998 -0.00076418999 0.057753999
0.033070002 -0.00060174998 0.058554001
0.091894999 -0.019006999 0.098981
0.092923999 -0.018588001 0.098631002
0.065163001 0.01043 0.076647997
0.066114999 0.011208 0.076829001
0.086845003 -0.027241999 0.11702
0.086759001 -0.027451999 0.1168
0.086544 -0.025969001 0.11493
0.065783001 -0.014318 0.050205
0.066509999 -0.013768 0.049713001
0.065941997 -0.01379 0.049663
0.0047296998 -0.018646 0.086301997
0.01747 -0.02885 0.059057999
0.019109 -0.027228 0.060518
0.030316999 0.050911002 0.10096
0.030355999 0.049008999 0.10003
0.032412998 0.049516998 0.10095
0.075955003 0.0046982002 0.097837999
0.073746003 0.0063327001 0.098228998
0.073784001 0.0049756002 0.098246999
0.081006996 -0.032161999 0.11456
0.081381001 -0.029834 0.1161
0.080724001 -0.030727999 0.11362
0.065564997 0.0091439001 0.078171
0.065711997 0.0084480997 0.076785997
0.0081137996 0.14725 0.10842
0.0079215001 0.14646 0.10895
0.019815 0.074743003 0.080871999
0.018034 0.074748002 0.081316002
0.036516 0.13233 0.12513
0.035257999 0.13022 0.12377
0.035037 0.12904 0.12447
0.076284997 -0.010173 0.051658001
0.029967001 0.12974 0.098292999
0.029555 0.13105001 0.097153999
0.030696999 0.12887 0.098232999
0.01767 0.15922999 0.11169
0.045012999 0.012214 0.038518
0.061028998 0.016388999 0.038984001
0.058975998 0.017704001 0.039019
0.059719 0.016572 0.04016
0.019441999 0.00077653001 0.096736997
0.019193999 3.3758999e-05 0.094107002
0.042732 0.065600999 0.1108
0.041843999 0.064859003 0.11007
0.041940998 0.065844998 0.11077
0.052648999 0.053268999 0.10792
0.052627999 0.051770002 0.10844
0.052708 0.05294 0.10908
0.042608 0.098731004 0.094134003
0.041102 0.098676004 0.092076004
0.029588999 0.019223001 0.093759999
0.036109 -0.025172999 0.10154
0.035202999 -0.024444001 0.10137
0.035859998 -0.023673 0.10061
0.038353998 0.047919001 0.062665999
0.038933001 0.047529001 0.061953001
0.036725 0.047506001 0.063789003
0.033397 0.079386003 0.069389999
0.031574 0.079898 0.068815999
0.032244001 0.081026003 0.070637003
0.036655001 0.0098625002 0.057294
0.079334997 -0.022260001 0.078492999
0.079778999 -0.020568 0.079141997
0.029170999 -0.020029999 0.040929999
0.028214 -0.019316001 0.039710999
0.028000999 -0.018557999 0.039319001
0.060330998 0.0067296 0.036398001
0.059664 0.0067540999 0.038164001
0.062330998 0.0051956 0.037239
0.034343999 0.070514999 0.10869
0.012129 0.13516 0.10428
0.011595 0.13579001 0.10419
0.011731 0.13654999 0.10338
0.039046001 0.084363997 0.10302
0.038922999 0.083919004 0.10501
0.049716 0.00025946999 0.027248999
0.049020998 -0.0010487 0.026513999
0.049183998 0.0017003 0.027240001
0.021973999 -0.010603 0.098077998
0.020119 -0.013507 0.097788997
0.022565 -0.012538 0.097075999
0.043423999 0.014532 0.045178998
0.044089999 0.013499 0.042884
0.044419002 0.014996 0.043529
0.024033001 0.075676002 0.092464998
0.026174 0.075537004 0.092891999
0.026268 0.076987997 0.091913998
0.03019 0.12401 0.084337004
0.029666999 0.12522 0.085256003
0.01784 0.050517 0.090846002
0.018957 0.049679 0.092320003
0.017636999 0.050159 0.090967998
0.015648 -0.020936999 0.0748
0.086084001 -0.014962 0.065384999
0.086957999 -0.015455 0.066148996
0.085205004 -0.014185 0.065407999
0.036511 0.058513999 0.062808
0.037647001 0.059424002 0.063933
0.036104001 0.058894001 0.064392
0.030866001 0.14639001 0.096752003
0.030347001 0.14465 0.097103998
0.031796999 0.14534 0.096109003
0.078459002 -0.017751001 0.08264
0.077895999 -0.017232999 0.082881004
0.077097997 -0.016845001 0.081164002
0.022877 0.078309998 0.085377999
0.022957999 0.079991996 0.084156998
0.022108 0.079117 0.083711997
0.0072404998 -0.02919 0.072996996
0.043306001 -0.028886 0.10222
0.042806 -0.028109999 0.10087
0.011299 0.14397 0.11051
0.011872 0.14526001 0.1108
0.01165 0.14462 0.11086
0.081387997 0.00045590001 0.10597
0.082225002 0.0024663 0.10416
-0.0072770999 -0.038298 0.080907002
-0.0064095999 -0.038789 0.080982998
0.057581 0.055493999 0.097580001
0.057808001 0.055479001 0.097606003
0.056228999 0.054942001 0.098499998
0.015884001 -0.028976001 0.050515
0.0165 -0.029625 0.051454
0.059719998 -0.031076999 0.10582
0.058589 -0.031468 0.10622
0.029674999 -0.017225999 0.048376001
0.029426999 -0.018336 0.049183
0.03012 -0.018137001 0.050856002
0.055149999 0.032393999 0.070212997
0.056611001 0.031293999 0.069233999
0.022879999 -0.027497999 0.090163998
0.023257 -0.02599 0.090947002
0.086562999 -0.024073999 0.1123
0.084135003 -0.024473 0.11278
0.059436999 0.0059938999 0.037758999
0.058490999 0.0063979998 0.035243001
0.058104999 0.0060312999 0.035608001
0.012614 0.11041 0.11443
0.046975002 0.054605 0.076444
0.046879999 0.056005001 0.076329999
0.048193 0.054928001 0.076412
0.061944 -0.0092777004 0.014379
0.060346 -0.0068656001 0.015536
0.060665 -0.0082363002 0.014301
0.061817002 0.065959997 0.10421
0.063100003 0.066976003 0.10324
0.062392 0.067215003 0.10482
0.063559003 -0.0022440001 0.10836
0.065709002 -0.0036549999 0.1086
0.064355001 -0.0027155001 0.10847
0.061326999 0.036022 0.076885
0.061443999 -0.010458 0.013915
0.062716 -0.0099568004 0.014731
0.021935999 0.048436999 0.093891002
0.022438999 0.046610001 0.093874998
0.053661 0.032554001 0.091316998
0.051240001 0.031300001 0.093546003
0.052650001 0.030972 0.091670997
0.014162 0.070849001 0.096395999
0.012768 0.072215997 0.097295001
0.014945 -0.018526999 0.093971997
0.016728999 -0.019065 0.094940998
0.061547998 -0.011841 0.10353
0.060444999 -0.010936 0.10278
0.022635 0.091159999 0.10513
0.042095002 0.11343 0.11629
0.041648999 0.11398 0.11441
0.041228 0.11348 0.11509
0.070513003 -0.028529 0.10208
0.049982 0.0046942998 0.034683
0.049926002 0.0052121002 0.036708001
0.0044785999 0.14061999 0.113
0.0068322001 0.1407 0.11203
0.030382 0.078823 0.072154999
0.062891997 0.0089509999 0.088160999
0.045717999 0.074247003 0.10848
0.080779999 -0.019766999 0.083892003
0.081500001 -0.022089001 0.08512
0.080770001 -0.023412 0.084772997
0.022815 0.073307 0.090012997
0.0045006 0.14196999 0.11593
0.0051226998 0.14284 0.11643
0.074116997 -0.0021005999 0.078538001
0.047587 0.022652 0.060587
0.046861999 0.023664 0.060462002
0.047121 0.023535 0.060511
0.026564 0.022290999 0.079466
0.026485 0.022741999 0.078705996
0.026014 0.022964999 0.080649003
0.070818 -0.0042627999 0.022313001
0.071291998 -0.0034857001 0.020811999
0.070612997 -0.0044315001 0.019552
0.01057 0.14323001 0.11026
0.010389 0.14199001 0.11009
0.057363998 0.056582 0.10868
0.079066999 0.00035762001 0.089510001
0.080794998 9.9552999e-05 0.088423997
0.079788998 0.00010534 0.090779997
0.018392 0.16327 0.10256
0.018343 0.16252001 0.10142
0.0089196004 -0.0094119003 0.077262998
0.0096049001 -0.012556 0.078107998
0.0090746004 -0.011278 0.077210002
0.010413 -0.020071 0.075450003
0.0096623003 -0.02 0.075101003
0.0092737004 -0.019785 0.075676002
0.037347 0.11742 0.098512001
0.037726998 0.11886 0.10084
0.037581999 0.1179 0.099330001
0.054756999 0.072215997 0.11104
0.055642001 0.073334001 0.10997
0.056377001 0.072818004 0.10968
0.0063260002 0.11829 0.11042
0.055588 0.055792999 0.098356001
0.023052 0.080472998 0.090189002
0.024034999 0.079461999 0.089116998
0.023627 0.078845002 0.088633001
0.040011 0.10656 0.10234
0.039464999 0.10575 0.101
0.039074 0.10682 0.10218
0.0037366999 -0.013233 0.078547001
0.0052592 -0.013371 0.079489
0.013532 0.14602 0.11609
0.013593 0.14557999 0.11621
0.012301 0.14647999 0.11697
-0.0025591 -0.041616999 0.086682998
-0.0029761 -0.042844001 0.088160999
-0.0028150999 -0.041747998 0.088707
0.0079300003 -0.031153999 0.095908001
0.0070119002 -0.029805999 0.09629
0.082521997 -0.014486 0.074969999
0.083461002 -0.016111 0.074810997
0.084284 -0.013749 0.073762
0.052266002 -0.033890001 0.10924
0.050349001 -0.032299999 0.10844
0.037884001 0.032414999 0.065297998
0.047245 0.059124 0.085072003
0.048349001 0.062431 0.084491
0.047731001 0.060355999 0.084665999
0.062578999 -0.024112999 0.063910998
0.061517 -0.023135999 0.063804999
0.054692 0.069302998 0.092033997
0.054889999 0.071898997 0.091522999
0.053796001 0.071001999 0.092895001
0.051486 0.067768998 0.11348
0.050992001 0.065663002 0.11425
0.052299 0.067070998 0.11288
0.059317999 0.0026193 0.098486997
0.058281001 0.0028792999 0.096524999
0.058230001 0.0016304 0.098898001
0.060563002 -0.024956999 0.095468
0.087324999 -0.0085773002 0.10292
0.086444996 -0.0073132999 0.10162
0.085988998 -0.0076589999 0.10026
0.016248999 0.069410004 0.086983003
0.017543999 0.068181999 0.087995999
0.017894 0.069537997 0.088101
0.093424 -0.031718999 0.11593
0.092905998 -0.029882999 0.1147
0.073311001 0.0064661 0.084348999
0.073135003 0.0055152001 0.083345003
0.073310003 0.0066991998 0.084123999
0.0061253998 0.13461 0.11204
0.0071395002 0.13268 0.11345
0.034543 0.080444001 0.10809
0.033870999 0.080394998 0.10766
0.034221001 0.078394003 0.10628
0.017213 0.15566 0.10046
0.016931999 0.15567 0.10076
0.017503001 0.15512 0.10138
0.066260003 -0.012675 0.10819
0.067286998 -0.011741 0.10681
0.065121002 -0.012006 0.10847
0.0080847004 0.11372 0.11061
0.0084822001 0.11273 0.11048
0.0086871004 0.11319 0.11078
0.036224 0.15264 0.11381
0.035418 0.15288 0.1146
0.057535999 0.019378001 0.03531
0.029337 0.08726 0.10904
0.03059 0.088256001 0.10828
0.028664 0.090010002 0.10933
0.064622998 -0.0083999 0.046555001
0.065350004 -0.0094705997 0.046438999
0.065150999 -0.0089071998 0.045972001
0.02024 0.042206001 0.097666003
0.018905999 0.040183 0.097585998
0.020527 0.041843001 0.098338
0.014155 0.060520999 0.090282999
0.01307 0.057870999 0.090388998
0.012881 0.060311999 0.090667002
0.073367 -0.0047148 0.067043997
0.074607998 -0.0072980002 0.066921003
0.073615998 -0.0077510001 0.066913001
0.024943 0.093760997 0.090060003
0.023383001 0.093188003 0.088063002
0.032873999 0.047908001 0.074189998
0.033054002 0.046282999 0.072990999
0.034049001 0.047419999 0.074101999
0.049603999 0.059625998 0.10896
0.050643999 0.05917 0.10955
0.050723001 0.060191002 0.10964
0.042403001 0.11756 0.095114
0.042916 0.11526 0.095523998
0.042277001 0.11524 0.095043004
0.057631999 0.0059138001 0.032714002
0.057425998 0.0059527 0.032607
0.055785 0.0062386999 0.034251999
0.067427002 -0.0045023002 0.031849999
0.066366002 -0.0027723 0.032961
0.065415002 -0.0038657 0.033642001
0.026937 0.013965 0.086482003
0.026827 0.012307 0.088118002
0.042592999 0.082051001 0.10178
0.044032998 0.082415998 0.10218
0.043632001 0.082530998 0.10181
0.066329002 -0.00012558 0.041191999
0.064986996 -0.00043551001 0.042126
0.066119999 -0.0011179 0.044376999
0.025179001 -0.022903999 0.045416001
0.024102001 -0.021367 0.044146001
0.074556001 -0.0050404998 0.070868999
0.075800002 -0.0052960999 0.070064999
0.074330002 -0.0038399999 0.070348002
0.063516997 0.00058004999 0.10901
0.029914999 0.131 0.087435
0.045864001 0.044337001 0.1008
0.045233998 0.041781001 0.10117
0.045249999 0.043152999 0.10031
0.044718999 0.1066 0.10759
0.042514 0.1099 0.10648
0.02337 -0.0068902001 0.096440002
0.022883 -0.0091043003 0.095821999
0.022441 -0.0072746999 0.096054003
0.0084344 0.12264 0.10421
0.0077848001 0.12372 0.1047
0.01011 0.12307 0.10431
0.065817997 0.014143 0.084179997
0.063276999 0.015755 0.083420001
0.029089 0.10175 0.084279999
0.028953999 0.098921999 0.084844999
0.048926 -0.0080476003 0.030207001
0.049104001 -0.0090365 0.028111
0.049274001 -0.0097967004 0.031223999
0.056639001 0.036144 0.089170001
0.056713 0.038656998 0.088267997
0.054864999 0.038926002 0.090126
0.050399002 0.047324002 0.074418001
0.050168999 0.048709001 0.074364997
0.033011999 0.057967 0.076488003
0.032551002 0.058402002 0.075742997
0.027251 -0.0092444997 0.055787999
0.027187999 -0.0095637003 0.055596001
0.086465999 -0.020106001 0.1015
0.088196002 -0.020366 0.10135
0.016535001 0.0026703 0.087350003
0.016434001 0.0025972 0.085855998
0.025334001 0.0081163999 0.082307003
0.025026999 0.0065754 0.083104998
0.067282997 0.0031862999 0.033507999
0.028535999 0.081462003 0.10474
0.028473999 0.082378998 0.10548
0.028309001 0.081538998 0.10437
0.078893997 0.0055800001 0.089924
0.080123998 0.0056754998 0.088725999
0.079466 0.0028702 0.089938998
0.055006001 0.032357998 0.098397002
0.054159999 0.029622 0.099304996
0.050492998 -0.0036271 0.031408999
0.050632 -0.0037827 0.031791002
0.0087521998 -0.0089477999 0.099321999
0.0083670998 -0.0096541001 0.099529997
0.023697 0.076514997 0.099832997
0.02355 0.076131999 0.098495997
0.041769002 0.071571998 0.064025998
0.04256 0.072806999 0.064898998
0.041320998 0.070979998 0.06391
0.029546 0.077073 0.11014
0.026376 0.076824002 0.10982
0.013501 0.15290999 0.10535
0.014797 0.15034001 0.10519
0.032538999 -0.015559 0.093959004
0.030641001 -0.01716 0.094144002
0.031161999 -0.017128 0.094021
-0.00052269001 -0.036575001 0.097576
0.00017405 -0.036635 0.097671002
0.0013545 -0.036832999 0.098623
0.066402003 0.010005 0.080155
0.065876 0.0090482999 0.080674
0.065629996 0.0070953001 0.080761001
0.0090915002 0.13719 0.10818
0.054515 0.032476 0.069183998
0.062472999 0.015903 0.057500999
0.060695998 0.015011 0.056444999
0.061763 0.015619 0.059677999
0.073135003 0.0041721002 0.082319997
0.072633997 0.0040511 0.080000997
0.071661003 0.0038002999 0.082211003
0.041393001 0.054657001 0.1069
0.040886998 0.10629 0.11197
0.039873999 0.10566 0.1105
0.041021001 0.10527 0.11207
0.034485001 0.14902 0.11064
0.036462002 0.15036 0.11171
0.0089761997 0.15805 0.10962
0.010389 0.15881 0.11038
0.012258 0.15793 0.10954
0.035725001 0.14213 0.094770998
0.035693999 0.14212 0.096037999
0.077336997 -0.028772 0.11097
0.0063934 0.12387 0.10784
0.0059472001 0.12312 0.10629
0.0049561001 0.1237 0.10813
0.060456 -0.0060268999 0.031909
0.05886 -0.0070064999 0.030317999
0.023589 0.11324 0.11474
0.023384999 0.11467 0.11496
0.062267002 0.033755001 0.077287003
0.063963003 0.033500001 0.078112997
0.061446 0.03345 0.078736
0.063156001 0.024235001 0.077367
0.062885001 0.023530001 0.078201003
0.070580997 -0.017889 0.10401
0.069002002 -0.017620999 0.10214
0.069931 -0.019142 0.10244
0.049773999 0.024877001 0.065182999
0.048898999 0.027037 0.064400002
0.047442999 0.071226999 0.066940002
0.048549999 0.070978999 0.068736002
0.0075575002 0.11217 0.10595
0.020895001 -0.015487 0.062720001
0.021334 -0.015091 0.064121999
0.020528 -0.015077 0.065062001
0.060697999 0.027696 0.091343999
0.061060999 0.027402001 0.092793003
0.061181001 0.026024999 0.091665998
0.014147 -0.035533 0.096027002
0.014445 -0.036919001 0.093689002
0.014903 -0.034391999 0.094524004
0.037381999 0.13095 0.11386
0.036364999 0.12978999 0.11292
0.035409998 0.12996 0.11276
0.0656 -0.00097579998 0.033633001
0.066390999 -0.0033458001 0.033188
0.022545001 -0.021841001 0.094650999
0.021938 -0.020183999 0.094965003
0.042034 0.0024327 0.095347002
0.042819999 0.0023960001 0.095439002
0.031199999 0.10542 0.084829003
0.030035 0.10426 0.085597999
0.030324999 0.1051 0.084285997
0.0295 0.1549 0.10702
0.029743001 0.15538 0.10862
0.013726 0.11274 0.099206001
0.012094 0.11322 0.099044003
0.013179 0.11338 0.099679001
0.042473 0.11067 0.095900998
0.042101 0.11085 0.095995001
0.043754999 0.11091 0.095312998
0.030293999 0.12094 0.11886
0.029642999 0.12226 0.11647
0.029234 0.12223 0.11745
0.033572 0.13718 0.099477001
0.034403998 0.13519 0.099247001
0.033647999 0.13828 0.098185003
0.017519999 0.094520003 0.096055001
0.082429998 -0.010342 0.087153003
0.080092996 -0.0086299004 0.086519003
0.081041999 -0.0095715001 0.087967999
0.05204 0.0066515999 0.035181001
0.029868999 0.061887 0.076977
0.028991001 0.062561996 0.077440001
0.027806001 0.063421004 0.077675
0.039624002 0.098861001 0.11501
0.040403001 0.099486001 0.11522
0.03875 0.098875999 0.11547
0.043857001 0.10115 0.098665997
0.042102002 0.10097 0.097188003
0.041892 0.10144 0.098958999
0.042833999 0.063855 0.11034
0.043795001 0.061664999 0.10952
0.042986002 0.062137999 0.10963
0.014906 0.046296999 0.094143003
0.01548 0.044330001 0.094365001
0.032915 0.0076524001 0.060244001
0.032021001 0.0062640002 0.060656998
0.031925999 0.0052697998 0.061312001
0.051693 0.055883002 0.096483998
0.060463998 0.052960001 0.10269
0.023980999 0.16045 0.11397
0.027038001 0.15676001 0.092951
0.027291 0.15729 0.093757004
0.027350999 0.15747 0.092978999
0.023759 0.093575999 0.094040997
0.023453999 0.094567001 0.09426
0.032412998 0.068237998 0.10826
0.034720998 0.067824997 0.1117
0.034412999 0.068676002 0.10912
0.024116 0.075034998 0.077791996
0.023917001 0.076064996 0.078732997
0.025759 0.075921997 0.080344997
0.020868 -0.015065 0.092951
0.019399 -0.015830999 0.091458999
0.043545999 0.082563996 0.084131002
0.042467002 0.084333003 0.086441003
0.044597998 0.082663 0.084113002
0.018338 0.049821999 0.090830997
0.018366 0.050268002 0.091599002
0.024715999 0.014874 0.078732997
0.023111001 0.01325 0.079241998
0.024695 0.015399 0.079410002
0.059011001 -0.029851001 0.10364
0.058571 -0.031165 0.10582
0.059291001 -0.028898001 0.10325
0.043437 -0.0066089998 0.098031998
0.040961999 -0.0079661999 0.098783001
0.042475998 -0.0079685999 0.099302001
0.036449 0.084886998 0.10506
0.035642002 0.085936002 0.10581
0.035516001 0.086061001 0.1059
0.064723998 -0.0061905002 0.035783
0.064474002 -0.0056544999 0.034805998
0.031401001 0.044464 0.099997997
0.029379001 0.044502001 0.10122
0.028829999 0.043071002 0.10184
0.040961001 0.11639 0.10216
0.043427002 0.11633 0.10134
0.019362999 -0.0064718998 0.069395997
0.018552 -0.0038676001 0.070316002
0.019539 -0.0053782999 0.069995999
0.099311002 -0.023987999 0.10547
0.097032003 -0.024261 0.10689
0.097971 -0.023607999 0.10722
-0.00038186001 -0.032065 0.092531003
-0.00099313003 -0.032446999 0.090841003
0.00042602001 -0.032077 0.091398001
0.034294002 0.017310999 0.095521003
0.034279998 0.018297 0.095518999
0.042176999 0.091857001 0.10081
0.042745002 0.092485003 0.098925002
0.043483999 0.03582 0.074142002
0.044178002 0.037808999 0.073697999
0.044576 0.036047999 0.073889002
0.075661004 -0.0070286002 0.062950999
0.074703 -0.0068482999 0.064548001
0.026663 0.050439 0.089773998
0.027857 0.050361 0.090402
0.027718 0.050671 0.087839998
0.060688999 -0.031539999 0.10413
0.059317 -0.030644 0.10397
0.023673 0.14934 0.10066
0.022786001 0.15159 0.099296004
0.022406001 0.15202001 0.099950999
0.015899001 -0.014046 0.074911997
0.015961001 -0.013427 0.076174997
0.015614 -0.012641 0.073666997
