# .PCD v0.7 - Point Cloud Data file format
VERSION 0.7
FIELDS x y z
SIZE 4 4 4
TYPE F F F
COUNT 1 1 1
WIDTH 1529
HEIGHT 1
VIEWPOINT 0 0 0 1 0 0 0
POINTS 1529
DATA ascii
0.17625 0.052912999 0.066574
0.15686999 0.020736 0.10731
0.15579 0.021485999 0.10619
0.12413 0.0059239999 0.091320999
0.12566 0.0069275 0.090424001
0.097484 -0.018017 0.10192
0.096215002 -0.017911 0.10285
0.096790999 -0.019055 0.1019
0.080375001 -0.036557 0.097144
0.081474997 -0.037859 0.097506002
0.055677 -0.056226999 0.074700996
0.054954 -0.054899 0.075268999
0.055429 -0.054834999 0.074828997
0.046277002 -0.018850001 0.12565
0.052025001 -0.026660001 0.11771
0.052758999 -0.026875 0.11581
0.052841 -0.026571 0.11679
0.089698002 -0.029662 0.097211003
0.090429001 -0.03153 0.097276002
0.091247998 -0.060536001 0.14805999
0.089872003 -0.059494998 0.14893
0.090112999 -0.060435999 0.15064
0.17761999 0.067869 0.078403004
0.17912 0.066281997 0.078597002
0.057386 -0.049775999 0.14872999
0.056458 -0.052758001 0.14887001
0.11439 0.018355999 0.10887
0.17671999 0.046691999 0.086669996
0.17771 0.046471 0.085303999
0.1768 0.046324998 0.085262999
0.078878999 -0.083062001 0.13879
0.079115003 -0.083857 0.13868999
0.067215003 -0.059687998 0.15176
0.058993001 -0.033358 0.1093
0.11898 0.0094601996 0.12545
0.12002 0.011156 0.12402
0.12941 0.032049 0.099685997
0.12864 0.032209001 0.099068001
0.1288 0.033055998 0.098122999
0.12561999 -0.022762001 0.11484
0.10834 0.022430001 0.11898
0.10757 0.022112999 0.11956
0.031644002 -0.030872 0.12541001
0.032534 -0.030472999 0.12526999
0.16374999 0.066941999 0.094582997
0.16398001 0.067657001 0.094887003
0.16414 0.068411998 0.095337003
0.081134997 -0.017821001 0.13191
0.16038001 0.052772999 0.074300997
0.15934999 0.053164002 0.075465001
0.066791996 -0.046041999 0.088800997
0.065802999 -0.044861998 0.087920003
0.059114002 -0.028805999 0.11098
0.060084999 -0.028735001 0.11203
0.082479 -0.078652002 0.15791
0.083246 -0.080557004 0.15771
0.18971001 0.053114999 0.088146001
0.11653 -0.017445 0.098352998
0.17346001 0.05029 0.074712999
0.18624 0.063547 0.095719002
0.18448 0.064267002 0.097029001
0.12867001 0.022801001 0.089258
0.12833001 0.02176 0.088807002
0.14786001 0.051486999 0.10278
0.1442 0.014921 0.11329
0.14448 0.017007001 0.11251
0.14395 0.015968001 0.11393
0.077100001 -0.065632001 0.14927
0.092060998 -0.0088782003 0.11365
0.15971 0.064016998 0.078328997
0.15913001 0.064685002 0.078619003
0.13617 0.032299999 0.10426
0.047189001 -0.023638999 0.14093
0.046847999 -0.023863001 0.14003
0.087128997 -0.088055998 0.1565
0.086432002 -0.086531997 0.15582
0.087514997 -0.087301001 0.15681
0.13257 -0.0013453 0.1096
0.14223 0.055976 0.097258002
0.14226 0.055831999 0.098227002
0.14439 0.056593001 0.098801002
0.14884999 0.014878 0.096031003
0.11609 -0.013475 0.089377999
0.1147 -0.014175 0.090094998
0.074827999 -0.080517001 0.13472
0.074372001 -0.081551 0.13483
0.092469998 -0.016878 0.089272
0.092569001 -0.017152 0.088285998
0.092958003 -0.017854 0.088809997
0.098058 0.0091113998 0.10284
0.098771997 0.0088347998 0.10381
0.098353997 -0.0010328999 0.097939998
0.095339 -0.063312002 0.15223999
0.095615998 -0.064207003 0.15324999
0.11089 -0.0071099 0.12568
0.099169001 -0.032258999 0.12349
0.099918 -0.028045001 0.107
0.046324 -0.047138002 0.1516
0.034559 -0.025350999 0.1417
0.091551997 -0.049137998 0.11681
0.092084996 -0.049058001 0.11497
0.16193999 0.046293002 0.10326
0.031063 -0.034095 0.14862999
0.031769998 -0.033487 0.14776
0.020846 -0.036713 0.12928
0.022077 -0.035557002 0.12890001
0.10776 -0.0083026998 0.12044
0.10828 -0.0072842999 0.11861
0.10823 -0.0068593998 0.11972
0.049385 -0.031275 0.11128
0.047998998 -0.031408999 0.11215
0.087929003 -0.053498 0.11678
0.087987997 -0.052641999 0.11708
0.088253997 -0.052807 0.11723
0.059041001 -0.046227001 0.14312001
0.095334999 -0.065546997 0.13612001
0.12041 0.0060403999 0.090581
0.14193 0.012059 0.10272
0.14674 0.022159999 0.087355003
0.18332 0.058097001 0.066041
0.040288001 -0.05514 0.093094997
0.040316999 -0.053401001 0.094065003
0.040341001 -0.053100001 0.094143003
0.051335 -0.055158 0.081785999
0.021436 -0.025136 0.13184001
0.020352 -0.026233001 0.13088
0.019478001 -0.026156999 0.13116001
0.10811 0.019024 0.12275
0.092900999 -0.0012059 0.11776
0.093610004 -0.00092217 0.11795
0.093358003 -0.0063271001 0.11058
0.11556 0.015483 0.103
0.11464 0.014777 0.10349
0.056860998 -0.057316002 0.15485001
0.058497 -0.056784999 0.15476
0.057758 -0.056150001 0.15374
0.14177001 0.032777 0.081992
0.13679001 -0.0071485001 0.11221
0.14748999 0.029092999 0.11189
0.1473 0.030642999 0.11272
0.14839999 0.029572999 0.11282
0.10395 -0.0048324 0.085550003
0.10511 -0.0032619 0.084813997
0.11135 0.018468 0.11304
0.11148 0.017181 0.11103
0.11145 0.019003 0.11243
0.076183997 -0.045008998 0.14192
0.075612999 -0.043676998 0.14183
0.074731998 -0.044509999 0.14215
0.12582 0.0051206001 0.12583999
0.12472 0.0059397998 0.12378
0.077134997 -0.055732999 0.14718001
0.077577002 -0.053769 0.14712
0.075768001 -0.055062 0.14744
0.15582 0.016194999 0.093391001
0.18043999 0.055939 0.066504002
0.17984 0.057700999 0.067057997
0.18057001 0.058169998 0.066059999
0.062785 -0.026132001 0.12022
0.062259 -0.026518 0.11889
0.093584999 -0.0085968999 0.10613
0.091110997 -0.0088433996 0.10603
0.063538 -0.072296999 0.092928998
0.063532002 -0.071768999 0.093332998
0.14353 0.030541999 0.11056
0.038061 -0.050893001 0.095014997
0.18164 0.062703997 0.097218998
0.18239 0.064462997 0.096949004
0.18151 0.064692996 0.096551001
0.077215999 -0.065013997 0.10483
0.076223001 -0.066692002 0.10558
0.076304004 -0.065985002 0.10399
0.046255998 -0.058343999 0.078428999
0.056108002 -0.033539001 0.14128999
0.10236 -0.023277 0.12333
0.058178999 -0.039499 0.14156
0.058913998 -0.038764998 0.14009
0.030559 -0.048452001 0.097280003
0.060919002 -0.075511999 0.078984
0.062371001 -0.075319 0.079232
0.039843999 -0.045565002 0.10696
0.039191999 -0.044181999 0.10573
0.039423998 -0.045074001 0.10671
0.15986 0.026156001 0.10884
0.1604 0.026932999 0.1099
0.055539001 -0.057599999 0.075352997
0.057133 -0.058837 0.075367004
0.16658001 0.049139 0.10414
0.1654 0.048092 0.10345
0.15894 0.044679001 0.10101
0.15854999 0.045318998 0.10156
0.15812001 0.044530001 0.10111
0.12339 0.019656001 0.10991
0.16565 0.024343999 0.098173
0.1656 0.025304999 0.097184002
0.16624001 0.025712 0.096758999
0.090028003 -0.070180997 0.1446
0.089465 -0.071336001 0.14484
0.089519002 -0.070431001 0.14496
0.082419999 -0.078252003 0.13964
0.082520999 -0.078008004 0.13944
0.079120003 -0.053518999 0.1054
0.078667998 -0.053640999 0.10476
0.12555 -0.015258 0.1092
0.16632 0.046211999 0.073495999
0.16599999 0.045696001 0.074614003
0.15454 0.043019999 0.1028
0.074229002 -0.088393003 0.11461
0.14397 0.026215 0.1078
0.13265 0.033298999 0.092409
0.027815999 -0.025022 0.1283
0.026827 -0.024381001 0.12868001
0.071546003 -0.069223002 0.14835
0.071834996 -0.068540998 0.14887001
0.052944001 -0.082341999 0.072834998
0.053587999 -0.082254998 0.073482998
0.063331999 -0.045217 0.085309997
0.063957997 -0.045474999 0.085073002
0.064770997 -0.046408001 0.086057998
0.064755 -0.064034 0.075014003
0.063841999 -0.063394003 0.073927
0.067047 -0.047141999 0.087656997
0.084314004 -0.02142 0.099013999
0.082567997 -0.021162 0.098504998
0.075370997 -0.031908002 0.13424
0.090496004 -0.072111003 0.14133
0.091183998 -0.072282001 0.14230999
0.13966 0.019827001 0.10968
0.13898 0.020293999 0.1109
0.067723997 -0.082988001 0.10418
0.099705003 -0.011633 0.088936999
0.099838004 -0.011296 0.088556997
0.045811001 -0.063543998 0.082764998
0.044994 -0.064184003 0.084122002
0.10398 0.021126 0.11838
0.089702003 -0.011215 0.11317
0.089290999 -0.011674 0.11363
0.089512996 -0.011545 0.11328
0.041159999 -0.017609 0.14485
0.040098999 -0.017174 0.14474
0.13978 0.043708 0.1084
0.1393 0.043678001 0.10805
0.13976 0.041894998 0.10911
0.1319 -0.00019329 0.12194
0.14342 0.019802 0.086048998
0.14418 0.019497 0.085803002
0.17033 0.070977002 0.095743001
0.04225 -0.074414998 0.067109004
0.042819001 -0.075269997 0.066142999
0.042142998 -0.075158998 0.066468999
0.11385 -0.02413 0.12316
0.11456 -0.025630999 0.12395
0.13778999 0.038764998 0.092831001
0.13471 0.046875 0.091935001
0.17545 0.039769001 0.10084
0.17535999 0.038129002 0.10073
0.17505001 0.038162999 0.099784002
0.12397 0.024560999 0.10823
0.12192 0.023753 0.10735
0.16155 0.065376997 0.077095002
0.039372999 -0.038734 0.11086
0.038261998 -0.038844001 0.11103
0.037774 -0.037792999 0.11093
0.058345001 -0.039287999 0.10332
0.058869001 -0.039526999 0.10296
0.058600999 -0.039400999 0.1018
0.099927001 -0.041661002 0.10907
0.10123 -0.040968001 0.10869
0.10113 -0.040695 0.11003
0.16808 0.047408 0.075227
0.037744999 -0.066125996 0.082287997
0.037386999 -0.065880999 0.080790997
0.10427 0.023538001 0.11395
0.10578 0.023379 0.11364
0.027121 -0.018516 0.12817
0.028052 -0.018932 0.1287
0.027724 -0.018894 0.12949
0.093519002 -0.061469 0.13405
0.093433 -0.063454002 0.13349
0.15700001 0.045175001 0.10193
0.037023 -0.013616 0.13617
0.036541 -0.013056 0.13466001
0.036734 -0.013919 0.13547
0.13253 -0.00060030998 0.10855
0.13262001 -0.00060976 0.10717
0.13255 0.00069928 0.10821
0.094517 -0.0010063 0.105
0.1025 -0.028601 0.11659
0.10362 -0.028653 0.11743
0.075491004 -0.015802 0.10058
0.074066997 -0.015143 0.10247
0.075487003 -0.015861999 0.10196
0.17262 0.055913001 0.097579002
0.17218 0.056164 0.098304003
0.085753001 -0.048641998 0.1111
0.085170999 -0.050829999 0.11265
0.081263997 -0.045781001 0.13597
0.080017 -0.044521999 0.13624001
0.17693 0.068325996 0.081381001
0.17839999 0.068150997 0.080845997
0.17806999 0.067395002 0.079744004
0.091655001 0.0085070003 0.11183
0.078418002 -0.018777 0.12757
0.080045998 -0.017772 0.12754001
0.078300998 -0.074239999 0.15131
0.078322999 -0.074230999 0.15103
0.093152002 -0.078530997 0.14124
0.093638003 -0.076857001 0.13965
0.092432 -0.077581003 0.14025
0.15256999 0.01102 0.10745
0.12384 -0.025241001 0.11978
0.12316 -0.025703 0.11945
0.12393 -0.024711 0.11844
0.10051 -0.041607998 0.11498
0.099955998 -0.040167 0.11346
0.1521 0.021458 0.080902003
0.034876 -0.029391 0.14689
0.036017999 -0.029633 0.14670999
0.090691 -0.066432998 0.15475
0.090268999 -0.065844998 0.15441
0.18543001 0.061689001 0.084954001
0.18589 0.061469998 0.085453004
0.092023998 -0.023941001 0.13467
0.092625998 -0.024491999 0.13443001
0.047975 -0.023182999 0.11736
0.048935998 -0.022622 0.11726
0.049180999 -0.024118001 0.11693
0.15917 0.075580001 0.089836001
0.15926 0.074459001 0.088411003
0.15913001 0.073018 0.089654997
0.10393 0.00028134001 0.12237
0.10349 0.0010954 0.12143
0.13471 0.034460001 0.086392
0.13513 0.034632001 0.086055003
0.13596 0.032767002 0.085833997
0.14721 0.0089194998 0.10651
0.095729001 -0.04005 0.10616
0.071967997 -0.090442002 0.13346
0.081279002 -0.090079002 0.14038999
0.10367 -0.036586002 0.12121
0.10342 -0.037742 0.1214
0.024785999 -0.021451 0.13089
0.11594 -0.0025678 0.12355
0.11643 -0.0040719998 0.1237
0.065246001 -0.064378001 0.075351
0.065302998 -0.063954003 0.075712003
0.17363 0.048983999 0.069068998
0.045658 -0.014922 0.13273001
0.013192 -0.024079001 0.13623001
0.012608 -0.023712 0.13687
0.013066 -0.023825999 0.1362
0.16914999 0.037737999 0.091039002
0.16885 0.037549 0.091343001
0.16809 0.037312999 0.090883002
0.034701001 -0.025018999 0.14015999
0.076021001 -0.089472003 0.12043
0.033581 -0.023267999 0.15009999
0.033036001 -0.024323 0.14836
0.048599999 -0.035014 0.14413001
0.045598999 -0.031213 0.11482
0.048261002 -0.026675999 0.14345001
0.11325 -0.032469001 0.11923
0.11244 -0.033883002 0.11972
0.084611997 -0.056869999 0.1194
0.085561 -0.056336999 0.11829
0.040247999 -0.030327 0.14345001
0.039051 -0.029146999 0.14320999
0.040312 -0.030293999 0.14373
0.051645 -0.021783 0.13597
0.052168 -0.020943999 0.13582
0.092000999 -0.078061998 0.13793001
0.093534 -0.076472998 0.13811
0.093423001 -0.078195997 0.13785
0.15464 0.021307001 0.11244
0.070088997 -0.084592 0.10894
0.094215997 -0.034044001 0.098523997
0.095622003 -0.035709001 0.097998999
0.094421998 -0.035360999 0.096628003
0.039216999 -0.01178 0.13743
0.038251001 -0.012341 0.13774
0.038846999 -0.013044 0.13973001
0.10397 -0.0072090998 0.084036998
0.085303999 -0.011811 0.11322
0.050159 -0.040592998 0.14545999
0.051422 -0.041515999 0.14537001
0.050140999 -0.04104 0.14474
0.1068 -0.010132 0.079887003
0.080565996 -0.071857996 0.12507001
0.13736001 0.015419 0.083861999
0.13806 0.046184 0.10195
0.085505001 -0.048496 0.14148
0.16742 0.037310001 0.081993997
0.16836999 0.037661999 0.080333002
0.17703 0.065453 0.072774999
0.17585 0.064663999 0.074243002
0.087197997 -0.091141 0.16448
0.045981999 -0.063561998 0.085000999
0.045775 -0.063862003 0.084400997
0.092179999 -0.053649999 0.14128
0.089809 -0.053029001 0.14068
0.063300997 -0.070312001 0.079892002
0.062822998 -0.071725003 0.078562997
0.15782 0.031194 0.081119999
0.15635 0.030075001 0.082280003
0.15705 0.029506 0.081868
0.036931001 -0.069582 0.065654002
0.036334001 -0.069032997 0.065967001
0.088587999 -0.043370001 0.10139
0.086188003 -0.071535997 0.15781
0.085500002 -0.070169002 0.15679
0.038516 -0.024174999 0.14691
0.039701 -0.02437 0.14662001
0.038167998 -0.023637 0.14766
0.12904 0.038879 0.10743
0.082838997 -0.062042002 0.10728
0.081666 -0.062339999 0.10603
0.072861999 -0.030552 0.10053
0.073495001 -0.028543999 0.10103
0.12086 -0.015252 0.12662999
0.12937 0.00023557 0.094912998
0.03937 -0.027423 0.14406
0.094658002 -0.062885001 0.13186
0.13761 0.048555002 0.090797998
0.13765 0.047385 0.090029001
0.070643 -0.070970997 0.10247
0.069068 -0.069165997 0.10157
0.1295 0.032958999 0.098746002
0.1296 0.034263998 0.097846001
0.13044 0.033294 0.099367999
0.13767999 -0.0086065996 0.11418
0.13783 -0.0089974003 0.11337
0.12503 0.03193 0.10477
0.12623 0.030297 0.10442
0.092873 -0.081725001 0.14012
0.093382001 -0.080320999 0.13884
0.089029998 -0.070965998 0.15426999
0.088913001 -0.069927 0.15463001
0.089431003 -0.070887998 0.15546
0.12335 -0.0012071 0.095389999
0.12361 -0.0013709 0.095834002
0.12328 -0.002326 0.093962997
0.10581 0.00052935001 0.12288
0.16966 0.040534999 0.088115998
0.16960999 0.039244 0.087641001
0.088898003 -0.050280001 0.12872
0.088996999 -0.049286999 0.12953
0.08856 -0.051093001 0.12921
0.10408 -0.062316 0.14376999
0.10364 -0.063116997 0.14249
0.10362 -0.062570997 0.14263999
0.057782002 -0.034736998 0.10706
0.058382999 -0.033787001 0.1084
0.058561001 -0.033895999 0.10876
0.033449002 -0.014201 0.13152
0.035161 -0.012877 0.13072
0.072196998 -0.030022999 0.10134
0.070533998 -0.029798999 0.10265
0.071768001 -0.028929001 0.10131
0.075182997 -0.054643001 0.10205
0.085440002 -0.051206999 0.10832
0.085092001 -0.052053001 0.10777
0.085979 -0.05108 0.10797
0.14346001 0.038924001 0.083242998
0.14421999 0.037744999 0.084913999
0.14488 0.039625999 0.083843
0.11795 0.0032162 0.086677
0.11911 0.0032352 0.088512003
0.16113999 0.033564001 0.083268002
0.16114999 0.034871999 0.083146997
0.13048001 0.0029589001 0.11836
0.13006 0.0012926999 0.11847
0.062826 -0.05531 0.073775001
0.068949997 -0.024902999 0.1027
0.13259 -0.017503001 0.11815
0.13327 -0.018588001 0.1171
0.13348 -0.017316001 0.11725
0.078846999 -0.068980999 0.11778
0.080491997 -0.067428 0.11669
0.16481 0.037436999 0.075776003
0.15583999 0.050043002 0.074513003
0.15679 0.049584001 0.073261999
0.15644 0.049380999 0.073173001
0.086865999 -0.0030858 0.12151
0.086603999 -0.0038107 0.12013
0.067355998 -0.045194998 0.093029998
0.041388001 -0.021523001 0.1473
0.18144999 0.055197999 0.084348001
0.1174 0.01525 0.092433996
0.11814 0.015427 0.093106002
0.058079999 -0.024979001 0.13935
0.086599 -0.035801999 0.13245
0.086728998 -0.036568999 0.13264
0.066047996 -0.036626 0.14083
0.065814003 -0.037191998 0.14045
0.075999998 -0.032517001 0.099457003
0.075975001 -0.033796001 0.10047
0.17021 0.056873001 0.072778001
0.10384 0.0096674003 0.1226
0.10439 0.0082254997 0.12167
0.12976 -0.0090845004 0.093661003
0.15457 0.042075999 0.079843998
0.10005 -0.0097508002 0.12027
0.10013 -0.0087860003 0.1214
0.059967 -0.032274999 0.10748
0.11889 0.01329 0.093864001
0.11931 0.012996 0.092381999
0.11968 0.012961 0.093639001
0.042629998 -0.012357 0.13608
0.043155 -0.013542 0.13455001
0.15095 0.029828001 0.10782
0.092546999 -0.046269 0.11997
0.093401998 -0.046172 0.12001
0.093220003 -0.045155 0.12077
0.070373997 -0.085133001 0.10746
0.069953002 -0.083843 0.10792
0.038722001 -0.048370998 0.14478999
0.037999 -0.048551999 0.14599
0.038876999 -0.048030999 0.14645
0.13348 0.047224998 0.095193997
0.13262001 0.046787001 0.095637999
0.13316999 0.047157999 0.096442997
0.16971999 0.047463 0.080935001
0.17075001 0.048666 0.080982
0.089203 -0.019575 0.13170999
0.087513998 -0.018882001 0.13063
0.081635997 -0.074032001 0.15344
0.082069002 -0.073238999 0.15487
0.10212 -0.040141001 0.11766
0.090467997 -0.058456998 0.14419
0.090810999 -0.059199002 0.14356001
0.088985004 -0.016302001 0.099169999
0.10502 -0.012923 0.12192
0.10476 -0.0018769 0.085744001
0.10504 -0.0017524 0.087219998
0.10531 -0.00026818999 0.087104999
0.087140001 -0.014678 0.11605
0.086618997 -0.015217 0.11557
0.086987004 -0.013107 0.11683
0.028384 -0.054090999 0.090706997
0.18037 0.068397999 0.093905002
0.17990001 0.068591997 0.095357999
0.15455 0.060851 0.086296998
0.1547 0.061551001 0.085588999
0.090222999 -0.067685001 0.15601
0.066986002 -0.057294 0.15133999
0.065958999 -0.05655 0.15137
0.089836001 -0.081207 0.14415
0.091756001 -0.081625998 0.14484
0.090521999 -0.080278002 0.145
0.071295001 -0.019838 0.11189
0.072402 -0.019597 0.1111
0.15528999 0.057036001 0.087543003
0.15685 0.056446001 0.087185003
0.15614 0.057326 0.087217003
0.16932 0.074593 0.080421001
0.16947 0.073729001 0.079810001
0.053461 -0.085404001 0.077391997
0.023783 -0.044160999 0.1064
0.024923 -0.044927001 0.1067
0.14763001 0.016720001 0.10977
0.026557 -0.022421001 0.13413
0.025209 -0.022518 0.13247
0.084224999 -0.025914 0.13248
0.085225001 -0.025505001 0.13266
0.13936 0.029308001 0.10821
0.14018001 0.028858 0.10786
0.17136 0.045242 0.083549
0.17038999 0.045262001 0.085026003
0.098517001 -0.072136998 0.14444
0.098508 -0.071011998 0.14426
0.098442003 -0.070795 0.14557999
0.16977 0.067450002 0.092396997
0.16858 0.066834003 0.091554001
0.16940001 0.066606 0.092320003
0.096777998 -0.025164001 0.12788001
0.065563001 -0.051771998 0.085102998
0.06363 -0.051975999 0.084494002
0.060865 -0.064083003 0.16053
0.059622001 -0.063438997 0.16085
0.15467 0.035365999 0.10385
0.15685 0.034697998 0.10484
0.085602 -0.073178999 0.13426
0.095907003 -0.035386998 0.12777001
0.094699003 -0.035429001 0.12751
0.15378 0.063767001 0.10244
0.074367002 -0.043846 0.1392
0.076090999 -0.043939002 0.14049
0.074827999 -0.045341 0.1392
0.062111001 -0.074946001 0.078469999
0.062274002 -0.073974997 0.078084998
0.072612002 -0.034768999 0.13767999
0.072664 -0.034217998 0.13665
0.15079001 0.022139 0.084073
0.044183999 -0.062946998 0.088021003
0.043852001 -0.062903002 0.088025004
0.054478999 -0.081101 0.081629999
0.097649999 -0.033186998 0.10278
0.097038999 -0.032545999 0.10288
0.097974002 -0.031927999 0.10322
0.055008002 -0.031106001 0.1195
0.054949 -0.031518999 0.11863
0.054657999 -0.02929 0.11862
0.11262 0.019846 0.10808
0.039372001 -0.065477997 0.071955003
0.097159997 -0.0024129001 0.11622
0.1112 0.010308 0.092845999
0.11105 0.011128 0.092266001
0.083371997 -0.075953998 0.13330001
0.091317996 -0.018172 0.12209
0.091617003 -0.019247999 0.12294
0.092001997 -0.018735999 0.12163
0.14594001 0.030686 0.11259
0.14484 0.031576999 0.11315
0.054508999 -0.082323 0.081403002
0.092946 -0.026879 0.099242002
0.087670997 -0.0090936003 0.12432
0.076546997 -0.094227999 0.1227
0.078034997 -0.093405001 0.1219
0.078224003 -0.059668001 0.096800998
0.078621 -0.011901 0.11262
0.17756 0.042385001 0.088487998
0.17784999 0.041549999 0.089093
0.17735 0.040934999 0.088999003
0.040995002 -0.045717999 0.10112
0.042040002 -0.045986999 0.099279001
0.13507 0.0047845002 0.099569999
0.12418 -0.018823 0.11155
0.17359 0.051061001 0.10184
0.17284 0.050733998 0.10287
0.17308 0.049614001 0.10325
0.051812001 -0.086015001 0.083531998
0.10773 0.0054557002 0.12147
0.10646 0.0066018002 0.1214
0.13988 0.013378 0.085574001
0.18657 0.050836999 0.10079
0.18745001 0.050705001 0.099969998
0.1534 0.044121999 0.10415
0.17020001 0.045496002 0.081818998
0.17099001 0.045272 0.082891002
0.029381 -0.063415997 0.092738003
0.029294999 -0.061064001 0.09189
0.12214 -0.014092 0.095816001
0.13684 0.047168002 0.099583
0.13716 0.048268002 0.098472998
0.14194 0.056233998 0.096345
0.082392998 -0.037354998 0.13368
0.14616001 0.040268 0.079457
0.071664996 -0.041561 0.10003
0.071500003 -0.042337 0.099087998
0.091347001 -0.076637 0.14562
0.090053 -0.078116 0.14647
0.092234999 -0.076899998 0.14509
0.094332002 -0.071437001 0.13117
0.094219998 -0.072088003 0.13262001
0.093032002 -0.071229003 0.13185
0.041131001 -0.049144 0.16035999
0.040452 -0.048593 0.15978
0.092513002 -0.082130998 0.13940001
0.097429998 0.00073453999 0.097296
0.096399002 0.0014737 0.097439997
0.10385 0.02416 0.10942
0.10699 -0.0034113999 0.11934
0.017344 -0.030746 0.13052
0.017611001 -0.029437 0.1305
0.11358 -0.013938 0.094261996
0.11333 -0.013889 0.093878999
0.037291002 -0.031145999 0.12221
0.035654999 -0.030540001 0.12096
0.049656998 -0.042819001 0.10218
0.068328999 -0.037558999 0.13792001
0.068539999 -0.036979001 0.13882001
0.066914998 -0.051817 0.074982002
0.068232 -0.05102 0.075282998
0.1327 0.0021253999 0.10663
0.17316 0.041976001 0.10572
0.17445999 0.041327 0.10458
0.093901999 -0.059409 0.13529
0.095192999 -0.059340999 0.13595
0.094446003 -0.061156999 0.13474999
0.053794 -0.080796003 0.075622998
0.089497 -0.097874999 0.15019
0.089290999 -0.096173003 0.15099999
0.065094002 -0.050884999 0.14478999
0.062259998 -0.051580999 0.1452
0.14444999 0.016091 0.099427
0.14498 0.015745999 0.098921001
0.087279998 -0.053906001 0.12739
0.088386998 -0.054099999 0.12902001
0.1489 0.044978 0.078388996
0.079593003 -0.078538999 0.124
0.044059999 -0.073569 0.068366997
0.043549001 -0.073126003 0.067391999
0.043352 -0.073519997 0.068327002
0.093506001 -0.0001507 0.10837
0.040638998 -0.020319 0.12868001
0.038858 -0.021209 0.12789001
0.039074998 -0.019103 0.12932999
0.10153 0.019673999 0.10638
0.077880003 -0.056203 0.10687
0.13288 -0.010678 0.12346
0.1323 -0.010298 0.12403
0.14046 0.012659 0.082578003
0.14192 0.013994 0.080592997
0.087656997 -0.059487 0.12062
0.087293997 -0.059314001 0.11881
0.096676998 -0.027855 0.12779
0.096510999 -0.028772 0.12792
0.097911 -0.029461 0.12800001
0.076232001 -0.026604 0.13421001
0.16058999 0.041017 0.10465
0.15953 0.039671 0.10478
0.12377 -0.019443 0.12517001
0.12386 -0.021268001 0.12553
0.077986002 -0.012921 0.10916
0.077982001 -0.012386 0.11004
0.094260998 -0.06182 0.13307001
0.11838 0.0028003 0.084821999
0.11877 0.0028637 0.085975997
0.18373001 0.049729999 0.099578001
0.18292999 0.049063001 0.10062
0.16430999 0.046339002 0.10408
0.055865999 -0.023895999 0.12341
0.13914999 0.052276 0.095803998
0.13872001 0.052028999 0.095606998
0.13947999 0.051773001 0.095867999
0.10712 -0.014101 0.080889001
0.053252 -0.074116997 0.080663003
0.16831 0.069546998 0.090956002
0.13901 0.012342 0.086397
0.094002999 -0.029866001 0.098572999
0.094544001 -0.030964 0.097893998
0.093241997 -0.031275999 0.098167002
0.087113 -0.088478997 0.15936001
0.13737001 0.048627 0.092394002
0.13586 0.048469 0.092675
0.093772002 -0.036240999 0.097832002
0.073223002 -0.020749001 0.10295
0.074233003 -0.02134 0.10333
0.087008998 -0.087226003 0.14196999
0.087801002 -0.088172004 0.14261
0.055565 -0.030936999 0.12096
0.090121001 -0.072681002 0.14055
0.093845002 -0.082589 0.14171
0.092959002 -0.083249003 0.14207999
0.093415998 -0.084161997 0.14139999
0.15814 0.064516999 0.083048999
0.16027001 0.065521002 0.081794001
0.15854999 0.065181002 0.081514001
0.045513999 -0.020088 0.12841
0.068902999 -0.027381999 0.12881
0.069123 -0.026868001 0.12872
0.069539003 -0.026388001 0.12809999
0.052717999 -0.033452999 0.10639
0.044300999 -0.021278 0.12655
0.045196999 -0.021776 0.12717
0.044636 -0.021846 0.1267
0.11705 0.018214 0.10745
0.11884 0.017572001 0.1072
0.048524 -0.024142999 0.14256001
0.081028998 -0.02382 0.13275
0.026605001 -0.030272 0.14263999
0.025076 -0.029433999 0.14275999
0.15820999 0.024490001 0.10609
0.15826 0.024831999 0.10536
0.18984 0.057494 0.092791997
0.076706 -0.075753003 0.15195
0.075799003 -0.075093001 0.15286
0.076233 -0.075719997 0.15353
0.088156998 -0.044360001 0.10402
0.088108003 -0.042893 0.10328
0.17769 0.063359 0.072429001
0.17725 0.065333001 0.072645999
0.063919 -0.055132002 0.15095
0.062408 -0.054848 0.15186
0.073471002 -0.033222999 0.13502
0.063965 -0.063902996 0.15431
0.064053997 -0.064917997 0.1558
0.063871004 -0.066468999 0.15476
0.069540001 -0.04806 0.087319002
0.15057001 0.042505 0.1045
0.14911 0.043060999 0.10473
0.067143001 -0.064856999 0.15090001
0.066919997 -0.064608 0.15071
0.065434001 -0.065210998 0.15189999
0.080200002 -0.082232997 0.16649
0.080931999 -0.082355998 0.1664
0.066243999 -0.032035999 0.10582
0.14555 0.016325001 0.088443004
0.14631 0.016983001 0.089098997
0.095259003 -0.036247 0.098095998
0.095833004 -0.037273001 0.098516002
0.045120001 -0.033177 0.11613
0.15436999 0.029803 0.11042
0.15511 0.028713999 0.11152
0.087453999 -0.089569002 0.15229
0.087990001 -0.087878004 0.15189999
0.053521 -0.020353001 0.13225
0.097607002 0.018627999 0.10956
0.17287999 0.074721999 0.089454003
0.17298999 0.075237997 0.089302003
0.15982001 0.056364 0.080897003
0.16140001 0.056786001 0.079742998
0.16088 0.054078002 0.080421001
0.0069742999 -0.025068 0.14204
0.080201998 -0.012305 0.10856
0.082171999 -0.011371 0.10821
0.11945 -0.0078624999 0.082588002
0.11973 -0.0082713999 0.082167998
0.11903 -0.0078152996 0.082787998
0.067753002 -0.056627002 0.074196003
0.046618 -0.057624999 0.078584999
0.047729999 -0.056818999 0.079184003
0.082727 -0.080682002 0.15786999
0.083001003 -0.080169 0.15623
0.046201002 -0.057928 0.084726997
0.045926001 -0.057574 0.085509002
0.10671 0.0065418002 0.092125997
0.10434 0.0063527999 0.092696004
0.10613 0.0074144001 0.092850998
0.035452001 -0.048101 0.099385999
0.061809 -0.054885998 0.15166999
0.029297 -0.022591 0.13099
0.02874 -0.021334 0.13170999
0.1564 0.052795 0.081491999
0.15696999 0.053716999 0.081536002
0.15741 0.051957 0.080485001
0.043506999 -0.068455003 0.070687003
0.043981999 -0.069023997 0.071424
0.17083 0.036982998 0.083616003
0.15749 0.025985001 0.089227997
0.15705 0.028595001 0.088761002
0.15790001 0.02706 0.090136997
0.15545 0.030577 0.10934
0.14929 0.048195001 0.087140001
0.15014 0.048689 0.088114001
0.14999001 0.047093 0.086470999
0.16459 0.068751 0.075608
0.16311 0.068663999 0.075948998
0.10116 -0.067390002 0.14313
0.10135 -0.067114003 0.14235
0.10473 0.018092001 0.096389003
0.10558 0.018313 0.095702
0.090116002 -0.093875997 0.15098999
0.10225 -0.023771999 0.1206
0.055461999 -0.047653999 0.082157001
0.055858999 -0.048698999 0.081413001
0.18517999 0.060736001 0.074896999
0.18520001 0.061576001 0.075556003
0.035820998 -0.050539002 0.15019
0.047658999 -0.059098002 0.16204
0.12462 0.011648 0.11847
0.12244 0.012803 0.11812
0.15087 0.016006 0.088428997
0.13483 0.044066999 0.10512
0.13508999 0.043740999 0.10649
0.14771 0.049128 0.10225
0.083871 -0.032563001 0.097349003
0.083563 -0.030497 0.097390004
0.18898 0.058766 0.083720997
0.18839 0.058669999 0.083458997
0.11995 0.0013892 0.085566998
0.14793 0.015361 0.09443
0.095205002 -0.0069407001 0.10313
0.087292001 -0.089853004 0.16538
0.14481001 0.013832 0.099775001
0.11155 -0.014791 0.11961
0.1105 -0.015151 0.11797
0.11176 -0.014482 0.1192
0.1337 -0.0022485 0.10429
0.10829 0.01732 0.10283
0.10906 0.017495001 0.10134
0.18466 0.051539 0.092147
0.18499 0.052016001 0.091991998
0.070675001 -0.014932 0.11426
0.071367003 -0.016603 0.11543
0.071206003 -0.015292 0.11574
0.16492 0.037402999 0.079774998
0.16495 0.037528001 0.07914
0.10032 0.022421001 0.10886
0.10035 -0.010565 0.12145
0.10057 -0.040803 0.11775
0.18867999 0.055854 0.094616003
0.18895 0.055766001 0.093851
0.19012 0.055213999 0.094658002
0.034511 -0.050494999 0.097088002
0.035153002 -0.050014 0.097580001
0.073372997 -0.01158 0.11801
0.073596001 -0.031562999 0.10066
0.063083999 -0.052891999 0.14736
0.063121997 -0.051148999 0.14678
0.063028 -0.051892001 0.14774001
0.043834999 -0.018288 0.13679001
0.044192001 -0.019494999 0.13680001
0.045193002 -0.018939 0.13618
0.086392999 -0.097455002 0.14345001
0.084472999 -0.096887 0.14335001
0.085207 -0.096010998 0.14286
0.094925001 -0.061253998 0.127
0.094394997 -0.061994001 0.12655
0.061377998 -0.026284 0.12375
0.059152 -0.026912 0.12407
0.061129998 -0.027797 0.12476
0.052069001 -0.042057998 0.099904999
0.17565 0.052708998 0.078447998
0.17613 0.053078 0.079720996
0.063735999 -0.041931 0.14248
0.064538002 -0.041459002 0.14217
0.063740999 -0.041898999 0.1417
0.081951 -0.031553 0.1356
0.062355999 -0.066981003 0.083508
0.16159999 0.037958998 0.10522
0.16139001 0.036917001 0.10577
0.1063 0.0052029998 0.088959001
0.10662 0.0051711998 0.089360997
0.10552 0.0039329999 0.089801997
0.0078531001 -0.023622001 0.138
0.0082403002 -0.023259001 0.13929
0.025201 -0.022663999 0.12921999
0.024799 -0.021005001 0.12993
0.060648002 -0.028252 0.13090999
0.059831001 -0.02899 0.13162
0.068770997 -0.079144999 0.15508001
0.069164999 -0.079925999 0.15601
0.043274999 -0.072825998 0.068678997
0.12606999 -0.020346999 0.12469
0.12498 -0.019461 0.12526
0.066993997 -0.045873001 0.14296
0.067661002 -0.045177002 0.14428
0.066529997 -0.044174999 0.14297
0.10866 0.020629 0.10827
0.10906 0.020804999 0.10954
0.10839 -0.0061619999 0.080351003
0.10657 -0.0063379998 0.080922
0.064007998 -0.069990002 0.091424003
0.065157004 -0.068911999 0.091633998
0.063997 -0.071294002 0.091450997
0.10601 -0.022623001 0.10823
0.10528 -0.023158001 0.10793
0.099450998 -0.076435 0.13784
0.099050999 -0.076508 0.13798
0.16055 0.026896 0.096060999
0.16125999 0.028192 0.094981
0.16146 0.026148999 0.095045999
0.15713 0.053066999 0.083954997
0.15711001 0.053010002 0.085083999
0.071327999 -0.095165998 0.11666
0.072520003 -0.095559001 0.11723
0.095197998 -0.019114999 0.090602003
0.096814997 -0.018689999 0.089547001
0.048106 -0.028677 0.14595
0.1531 0.048218999 0.08162
0.15356 0.047867 0.081843004
0.17321999 0.067290999 0.076061003
0.17506 0.068898 0.075791001
0.058984 -0.047830001 0.083448999
0.13343 -0.0098160002 0.10034
0.13178 -0.010811 0.099200003
0.13344 -0.010346 0.099546999
0.058341 -0.081758998 0.10121
0.058993999 -0.082607001 0.10093
0.059179999 -0.08309 0.10127
0.17992 0.051153 0.098839
0.028114 -0.025660999 0.13921
0.082408004 -0.015104 0.12531
0.081794001 -0.014772 0.12362
0.080992997 -0.013827 0.12565
0.17238 0.071272001 0.091241002
0.17151999 0.071309999 0.091022
0.17197999 0.071280003 0.092358001
0.041958001 -0.074075997 0.066032998
0.040865999 -0.072632 0.065794997
0.041347999 -0.073967002 0.06515
0.061372001 -0.039987002 0.095206998
0.061795 -0.040259 0.096303999
0.099048004 -0.015696 0.087346002
0.16254 0.036138002 0.10465
0.16264001 0.037379999 0.10381
0.16137999 0.038208 0.10406
0.12710001 0.028083 0.099142
0.1094 -0.028427999 0.11063
0.11056 -0.029422 0.11028
0.054097001 -0.046170998 0.084500998
0.068333998 -0.024424 0.1241
0.068122 -0.023301 0.12462
0.068395004 -0.023786001 0.12261
0.077794001 -0.024356 0.13072
0.15333 0.048873 0.099993996
0.15193 0.048409 0.099600002
0.15366 0.047295999 0.099372
0.13067999 0.0098991999 0.11398
0.13105001 0.010466 0.113
0.13116001 0.011786 0.11339
0.13127001 0.035356998 0.089951001
0.12986 0.035177 0.090402998
0.066008002 -0.089463003 0.10056
0.066477999 -0.091250002 0.10162
0.01133 -0.026487 0.14822
0.062407002 -0.071971998 0.095376998
0.1575 0.063895002 0.090351999
0.17172 0.073556997 0.091884002
0.1733 0.072971001 0.091619
0.17161 0.072587997 0.093327999
0.050422002 -0.042792 0.10094
0.16898 0.030335 0.10322
0.061755002 -0.070704997 0.15386
0.16012 0.036975998 0.10477
0.15963 0.036435001 0.106
0.18092 0.050650999 0.096271999
0.17405 0.042281002 0.10585
0.052935001 -0.085739002 0.083810002
0.052692998 -0.084738001 0.084105
0.086317003 -0.044305999 0.13476001
0.075810999 -0.084665999 0.12970001
0.14731 0.059124 0.097906999
0.13033 0.020483 0.11185
0.063419998 -0.040187001 0.10221
0.061882999 -0.038545001 0.10329
0.15832999 0.073027998 0.094369002
0.17585 0.045696001 0.10388
0.17607 0.043154001 0.10318
0.17699 0.044486001 0.10293
0.15176 0.049125999 0.083149001
0.077082001 -0.043565001 0.14153001
0.077936999 -0.045076001 0.14198001
0.078083999 -0.044119999 0.14142001
0.18954 0.054131001 0.089280002
0.19087 0.054673001 0.090875
0.18983001 0.054595999 0.091124997
0.15896 0.031978 0.078680001
0.15916 0.032051001 0.078524999
0.11262 -0.015333 0.098490998
0.11171 -0.016171001 0.099414997
0.11271 0.01524 0.096836001
0.11285 0.017484 0.096089996
0.11519 -0.019675 0.11964
0.069475003 -0.054540001 0.080421999
0.069438003 -0.054347999 0.080610998
0.069224998 -0.054083001 0.083088003
0.082672998 -0.027133999 0.13478
0.18488 0.061728001 0.086264998
0.075521 -0.055461999 0.14659999
0.074110001 -0.056185 0.14776
0.076619998 -0.056720998 0.14785001
0.036389999 -0.065810002 0.075053997
0.035266999 -0.067181997 0.075778
0.1402 0.011974 0.10242
0.14052001 0.012021 0.10092
0.10582 -0.0046629999 0.11949
0.17775001 0.049467999 0.098936997
0.17719001 0.048574001 0.098640002
0.067446001 -0.021939 0.12455
0.11401 -0.01534 0.097216003
0.11294 -0.016933 0.097576
0.169 0.033330999 0.10604
0.086925998 -0.093819998 0.15820999
0.086452998 -0.032584999 0.096614003
0.15919 0.039365001 0.072816998
0.17224 0.075033002 0.093185
0.17265999 0.074667998 0.092827
0.048980001 -0.020283001 0.12707999
0.10029 -0.034972001 0.11065
0.10092 -0.036428001 0.11088
0.043926999 -0.022398001 0.14407
0.043258999 -0.022204001 0.14392
0.099078998 -0.070869997 0.14537001
0.098649003 -0.069484003 0.14598
0.092496 -0.067165002 0.13001999
0.091517001 -0.06701 0.12929
0.092569999 -0.067325003 0.1517
0.092216 -0.067529 0.15037
0.099359997 0.012593 0.10705
0.098140001 0.012559 0.10782
0.038277 -0.015714999 0.14324
0.15512 0.015558 0.10169
0.15499 0.016018 0.10151
0.084390998 -0.063979 0.11806
0.14642 0.010698 0.10921
0.14830001 0.010638 0.10884
0.052172001 -0.049061 0.092782997
0.053063001 -0.048229001 0.092642002
0.13046999 -0.012252 0.12497
0.13218001 0.032731 0.095236003
0.13162 0.031792 0.094214998
0.056056 -0.052933 0.14963
0.057149 -0.053236999 0.14971
0.11399 0.0045929002 0.081896
0.092915997 -0.0040648999 0.10433
0.094328001 -0.004501 0.1056
0.092271999 -0.0040845 0.10486
0.12669 -0.0054967999 0.091104001
0.12732001 -0.004712 0.091911003
0.12667 -0.0055976999 0.092444003
0.15545 0.020649999 0.1098
0.15592 0.021385999 0.1085
0.15594 0.021664999 0.10997
0.15051 0.045740001 0.076821998
0.14655 0.017095 0.1001
0.14670999 0.017128 0.099927001
0.14766 0.017356999 0.099494003
0.071346 -0.034081001 0.10184
0.071372002 -0.033224002 0.10102
0.1611 0.056010999 0.098548003
0.16263001 0.055698998 0.099469997
0.16148999 0.055714 0.099409997
0.047885999 -0.058621999 0.16362
0.071289003 -0.02012 0.12728
0.072380997 -0.021182001 0.12876
0.073861003 -0.020382 0.12929
0.090196997 -0.064919002 0.12868001
0.16407 0.079717003 0.087785996
0.083816998 -0.084576003 0.145
0.084798999 -0.085863002 0.1434
0.085005 -0.084050998 0.14392
0.17477 0.054866999 0.067209996
0.17392001 0.054802001 0.067220002
0.068515003 -0.061395001 0.078028001
0.1173 -0.027888 0.12458
0.1166 -0.02781 0.12536
0.054536 -0.044636998 0.14561
0.14735 0.0089073004 0.10846
0.085325003 -0.092952996 0.16629
0.085755996 -0.093299001 0.16618
0.085325003 -0.092413001 0.16583
0.11775 0.017356999 0.093148001
0.14924 0.054570001 0.10145
0.15008999 0.052946001 0.10048
0.14968 0.055114999 0.10147
0.057126999 -0.046016999 0.089060001
0.056800999 -0.046718001 0.091259003
0.057123002 -0.045483999 0.091214001
0.18425 0.060341001 0.070727997
0.18368 0.058697999 0.071053997
0.12924001 0.01112 0.090976
0.098536998 -0.016776999 0.11978
0.097333997 -0.016380999 0.12004
0.16449 0.037110999 0.086480998
0.12008 0.012439 0.12530001
0.11987 0.011999 0.12394
0.044147 -0.033836 0.14473
0.044367999 -0.032132 0.14463
0.044808999 -0.032258 0.14394
0.094453998 -0.0055171 0.11897
0.094320998 -0.0043835002 0.11836
0.08529 -0.079852998 0.14636999
0.084333003 -0.079942003 0.14717001
0.083898999 -0.080761001 0.14685
0.10806 -0.0024200999 0.11812
0.10791 -0.0028986 0.11927
0.088261999 -0.011489 0.11933
0.16336 0.070651002 0.076765001
0.16334 0.070137002 0.07711
0.061767001 -0.041797999 0.086613998
0.063685998 -0.042342 0.087314002
0.062680997 -0.042427 0.085446
0.11636 0.0050007999 0.085873
0.11629 0.0044535999 0.085628003
0.17118999 0.035223 0.098793998
0.17027999 0.034570999 0.098679997
0.026913 -0.030990001 0.15421
0.16143 0.030689999 0.091192998
0.068603002 -0.079704002 0.15442
0.067390002 -0.079778001 0.15383001
0.067580998 -0.079231001 0.15365
0.098756 -0.070095003 0.14406
0.12805 -0.0058432999 0.097861998
0.14004 0.0074626999 0.10722
0.13989 0.0071183001 0.10687
0.051318999 -0.049803998 0.083081
0.051931001 -0.050112002 0.081752002
0.16801 0.072175004 0.086140998
0.14388999 0.055125002 0.094230004
0.11642 0.012383 0.090066999
0.065906003 -0.026168 0.12243
0.064778998 -0.025842 0.12184
0.15915 0.021788999 0.094005004
0.16003001 0.021524001 0.094241001
0.097808003 -0.064423002 0.14910001
0.098132998 -0.063735001 0.14964999
0.048636999 -0.043726001 0.15011001
0.073646002 -0.042819999 0.14259
0.066087 -0.082627997 0.10305
0.077593997 -0.028728999 0.096390001
0.037509002 -0.046239998 0.10428
0.036931999 -0.046422001 0.10435
0.14841001 0.044054002 0.080747001
0.14787 0.045308001 0.079540998
0.14926 0.033411 0.073909998
0.14789 0.032967001 0.073913999
0.14521 0.013934 0.091766
0.1453 0.014488 0.091471002
0.146 0.015213 0.09059
0.17325 0.073949002 0.085808001
0.17275 0.074727997 0.086052001
0.057721 -0.029053001 0.1179
0.15321 0.060922001 0.10349
0.15202001 0.061370999 0.10275
0.15138 0.018359 0.10837
0.15014 0.017442999 0.109
0.14935 0.017902 0.10674
0.12298 0.0064298999 0.091277003
0.075432003 -0.028302999 0.098927997
0.075016998 -0.028790999 0.098091997
0.13322 0.019586001 0.086368002
0.13199 0.020407001 0.087471999
0.13213 0.021194 0.086998001
0.14328 0.025223 0.073781997
0.14203 0.024693999 0.073942997
0.038385998 -0.045134999 0.10478
0.038043998 -0.045460001 0.10613
0.042316001 -0.019484 0.12471
0.10765 -0.029589999 0.11783
0.10661 -0.029879 0.11657
0.10609 -0.029872 0.11675
0.081404001 -0.058701999 0.1019
0.081426002 -0.057939999 0.10292
0.041071001 -0.061239999 0.096721999
0.041010998 -0.062560998 0.095562004
0.041048001 -0.061939001 0.097689003
0.15631001 0.028183 0.088041998
0.15606 0.028763 0.086732
0.081840001 -0.081110999 0.15363
0.082601003 -0.080828004 0.15404999
0.079487003 -0.078884996 0.1596
0.096056998 -0.0027832 0.12147
0.10096 -0.016783999 0.12493
0.083526999 -0.082850002 0.15699001
0.084780999 -0.082346 0.15798999
0.085152999 -0.083828002 0.15666001
0.042429999 -0.037893001 0.11467
0.041122001 -0.037719999 0.11535
0.056304 -0.082730003 0.1011
0.13940001 0.015253 0.11137
0.14026999 0.016228 0.112
0.11005 0.020199999 0.10852
0.18793 0.050404999 0.099005997
0.18672 0.049251001 0.098459996
0.13987 0.012681 0.084882997
0.18031 0.054400001 0.1004
0.18134999 0.05305 0.10066
0.18107 0.053567 0.10065
0.054418001 -0.076719999 0.098922998
0.055893999 -0.075519003 0.097865999
0.16192 0.068177998 0.094765
0.16264001 0.069835 0.094398998
0.16216999 0.069633998 0.095321998
0.1126 0.0040572002 0.12476
0.11365 0.0038848999 0.12457
0.093487002 -0.0063224998 0.10523
0.093393996 -0.0059945001 0.10467
0.090525001 -0.042575002 0.10064
0.032698002 -0.054409001 0.091246001
0.032993 -0.054136001 0.092070997
0.071964003 -0.070341997 0.14892
0.097254999 -0.040569 0.11134
0.097553998 -0.040181998 0.11216
0.035347998 -0.068171002 0.082439996
0.036392 -0.067062996 0.081619002
0.095366001 -0.033188 0.13042
0.095141001 -0.031566001 0.12989999
0.060295999 -0.057248998 0.072245002
0.039799999 -0.036472999 0.14598
0.040348999 -0.036527999 0.14603999
0.040415999 -0.035160001 0.14579
0.095030002 -3.8237002e-05 0.11521
0.13223 -0.011718 0.12354
0.13129 -0.013245 0.1238
0.13289 -0.012971 0.12262
0.088509999 -0.095688 0.15731999
0.088669002 -0.096382998 0.15656
0.030574 -0.043519001 0.12514
0.10714 0.0051863999 0.089970998
0.10548 0.0047641001 0.090223998
0.048487999 -0.053314999 0.16031
0.047497999 -0.053916998 0.16211
0.063481003 -0.047982998 0.085646003
0.027819 -0.034869999 0.15366
0.10254 0.0076184999 0.12159
0.13031 0.038483001 0.094944999
0.13017 0.039328001 0.095089003
0.13075 0.041129 0.094494
0.17743 0.049834002 0.085787997
0.17759 0.050762001 0.084982999
0.17845 0.051805999 0.084421001
0.16822 0.059358001 0.077905998
0.17072999 0.058571 0.076201998
0.1688 0.058851 0.076405004
0.16077 0.034751002 0.10826
0.12858 0.024174999 0.091247
0.12867001 0.026007 0.090787999
0.095784999 0.0042130998 0.10091
0.095945001 0.0044427002 0.099642999
0.086825997 -0.086659998 0.14744
0.086740002 -0.087012 0.14572001
0.085794002 -0.086158 0.14585
0.10074 0.021245999 0.11461
0.10091 0.021489 0.11533
0.055434 -0.033907998 0.11062
0.055647999 -0.033980001 0.10964
0.046259999 -0.045503002 0.15030999
0.096616998 -0.01929 0.12134
0.17817999 0.061337002 0.095356002
0.058217999 -0.039634999 0.096972004
0.059025001 -0.037581999 0.098214
0.059149999 -0.038628999 0.097076997
0.14202 0.030711999 0.112
0.16245 0.056416001 0.098049998
0.16084 0.056586999 0.097268999
0.13025001 0.039050002 0.10207
0.13022999 0.040879998 0.10225
0.12931 0.039274 0.10204
0.10681 -0.029364999 0.11546
0.087571003 -0.050689001 0.11399
0.087190002 -0.050021999 0.11253
0.085138001 -0.069098003 0.12841
0.16753 0.080039002 0.088411003
0.16927999 0.078909002 0.08704
0.16842 0.080036998 0.087154999
0.16046999 0.079411998 0.088497996
0.16773 0.037165001 0.075707003
0.1681 0.038651001 0.075617
0.12883 0.029455001 0.1102
0.17079 0.069936998 0.076004997
0.17041001 0.070776001 0.07615
0.091784 -0.0077073001 0.11586
0.033893999 -0.026629999 0.12514
0.035521999 -0.026450001 0.1248
0.15294001 0.014691 0.093989
0.15228 0.016097 0.092188999
0.15346999 0.016178001 0.092799
0.13341001 0.034150001 0.095994003
0.17128 0.042316001 0.091743998
0.17155001 0.041804999 0.093131997
0.013287 -0.024243999 0.13587999
0.013675 -0.024681 0.13469
0.088734001 -0.050857 0.11729
0.089034997 0.00066934997 0.12413
0.088910997 0.0031117001 0.12429
0.053854 -0.082211003 0.086122997
0.13733999 0.0098591996 0.086943001
0.1381 0.011182 0.086795002
0.13787 0.010769 0.087392002
0.16545001 0.066385999 0.094346002
0.16611999 0.067758001 0.094155997
0.16615 0.066565998 0.094990999
0.18020999 0.052172001 0.084996998
0.10962 -0.0076632998 0.080509
0.13828 0.04978 0.096069999
0.13071001 5.6522e-05 0.12276
0.12914 0.0010042 0.12398
0.084372997 -0.014778 0.1194
0.082500003 -0.014917 0.11984
0.084072001 -0.014433 0.1193
0.067148 -0.026194001 0.12463
0.065383002 -0.02681 0.12522
0.079613999 -0.059037 0.098077998
0.14501999 0.017417001 0.088091001
0.061071999 -0.069390997 0.15825
0.061048001 -0.068911999 0.15823001
0.14760999 0.03915 0.10918
0.14759 0.037973002 0.1108
0.035719998 -0.036217999 0.12174
0.055372 -0.081381999 0.079719998
0.05517 -0.082452998 0.078979999
0.15655001 0.020656001 0.096642002
0.11754 -0.018618001 0.12461
0.11722 -0.018219 0.12532
0.037701 -0.06741 0.090186998
0.070216998 -0.062960997 0.14654
0.098094001 -0.076127999 0.13594
0.097236 -0.074864 0.13483
0.097277999 -0.073968001 0.1353
0.030371999 -0.047874 0.10103
0.030448999 -0.047525 0.10164
0.17502999 0.065978996 0.094534002
0.14927 0.063514002 0.091587
0.14979 0.061822001 0.090571001
0.14255001 0.017306 0.088956997
0.14116 0.017919 0.088664003
0.048000999 -0.057611 0.073415004
0.068948001 -0.054538999 0.084161997
0.069461003 -0.055814002 0.084007002
0.16964 0.074268997 0.078730002
0.16925 0.074717999 0.078410998
0.13191 0.040495999 0.10874
0.10853 -0.012765 0.12379
0.10808 -0.013069 0.12347
0.10914 -0.012359 0.12363
0.10252 -0.013443 0.081130996
0.10273 -0.013651 0.081421003
0.094131999 -0.015582 0.089984
0.12767 -0.012721 0.10651
0.12611 -0.013125 0.10708
0.070143998 -0.018856 0.114
0.10566 -0.0020661 0.1234
0.085502997 -0.073196001 0.13079999
0.15354 0.057255998 0.10172
0.07784 -0.030383 0.13307001
0.078512996 -0.031514 0.13281
0.043930002 -0.037769999 0.14539
0.04397 -0.037390999 0.14442
0.044596002 -0.037815999 0.14403
0.12197 0.021343 0.096859999
0.1224 0.021247 0.098159
0.12317 0.021707 0.098223001
0.059990998 -0.07198 0.15576001
0.059579 -0.071529999 0.15724
0.10685 -0.021009 0.099784002
0.10856 -0.020972 0.10186
0.15052 0.052855 0.099414997
0.15101001 0.053477999 0.10077
0.1496 0.016813001 0.096074998
0.15041 0.017347001 0.096410997
0.14825 0.017450999 0.097459003
0.16347 0.02097 0.10272
0.1388 0.050471999 0.093502
0.13763 0.049600001 0.091992997
0.046755001 -0.054841999 0.090617001
0.17275 0.065009996 0.095527999
0.17354 0.064659998 0.095620997
0.14432999 0.036781002 0.079880998
0.10388 -0.063395999 0.14467999
0.10233 -0.061209999 0.14591999
0.10137 -0.0053722002 0.095145002
0.10018 -0.0061494 0.095449001
0.11967 0.013456 0.11419
0.047564998 -0.022361999 0.13447
0.048310999 -0.022352001 0.13502
0.044516999 -0.015242 0.13206001
0.1135 -0.0097631002 0.1211
0.076892003 -0.016282 0.10686
0.082924001 -0.013827 0.10701
0.080557004 -0.013868 0.10814
0.15521 0.022883 0.090324
0.15622 0.021252999 0.090066999
0.15338001 0.039163001 0.10386
0.15456 0.041106001 0.10308
0.1005 -0.041382 0.11559
0.090158999 -0.0094272001 0.1124
0.12647 -0.016237 0.097517997
0.1256 -0.016485 0.097873002
0.12517001 -0.016100001 0.098146997
0.068832003 -0.063231997 0.14869
0.14279 0.020705 0.10777
0.13029 0.00066725002 0.11237
0.098187998 -0.063097998 0.14903
0.098453999 -0.063251004 0.148
0.1429 0.016439 0.088974997
0.14172 0.015833 0.088101998
0.13488001 0.042794 0.10475
0.045807 -0.040227 0.11039
0.045444001 -0.037939999 0.10966
0.052554 -0.046581 0.095348999
0.052586 -0.046521001 0.096074
0.034389 -0.022976 0.13824999
0.033002999 -0.023657 0.13752
0.13101 0.023548 0.089984998
0.13153 0.023025 0.088210002
0.022025 -0.050453 0.094853997
0.16966 0.054937001 0.10089
0.17008001 0.054076999 0.10169
0.17101 0.054329 0.10164
0.022183999 -0.028712999 0.14473
0.025062 -0.028886 0.13118
0.13362999 0.045866001 0.098888002
0.13283999 0.044326 0.10009
0.071626998 -0.089202002 0.11226
0.15332 0.018038001 0.10786
0.15404999 0.017557999 0.10757
0.060145002 -0.031590998 0.13999
0.10433 0.0089614997 0.092614003
0.105 0.0083614998 0.092419997
0.10398 0.0063859001 0.093528003
0.15827 0.051709998 0.076444998
0.15951 0.051798999 0.076413997
0.048002999 -0.077914 0.069078997
0.04933 -0.076452002 0.068879001
0.049676001 -0.077791996 0.069903001
0.051647 -0.041593999 0.1427
0.045325 -0.063427001 0.081427
0.045136999 -0.063901 0.080119997
0.18104 0.060006 0.071107
0.027388001 -0.028726 0.12808999
0.026227999 -0.027651001 0.12791
0.027139001 -0.02884 0.12702
0.076476 -0.096799999 0.12763
0.13922 0.048988 0.1028
0.020334 -0.047309 0.10332
0.021431999 -0.046928 0.10362
0.021213001 -0.047164001 0.10319
0.071950004 -0.092104003 0.11097
0.099281996 -0.027168 0.11748
0.10009 -0.026693 0.11688
0.099105 -0.025327999 0.11829
0.058981001 -0.060157001 0.076789998
0.058906998 -0.061234999 0.077624001
0.058008 -0.058750998 0.078239001
0.046891 -0.037714001 0.14345001
0.077698 -0.044158 0.09939
0.077887997 -0.044411 0.099339999
0.077651002 -0.042945001 0.10027
0.18793 0.052386999 0.089538001
0.0065649999 -0.022778001 0.14083
0.089396 -0.096694998 0.14598
0.081602998 -0.073288999 0.12785999
0.082883 -0.072194003 0.12891001
0.083993003 -0.072649002 0.12944999
0.032138001 -0.030091001 0.14792
0.031938002 -0.029722 0.14973
0.031358998 -0.030123999 0.14971
0.13186 0.032708999 0.098044001
0.15437999 0.024002001 0.081040002
0.05827 -0.039112002 0.10196
0.019918 -0.028615 0.14377999
0.018917 -0.026126999 0.14523
0.019726999 -0.027722999 0.1454
0.16517 0.030089 0.10658
0.16502 0.028911 0.106
0.16659001 0.029603001 0.10563
0.14329 0.036821 0.10972
0.14437 0.038648002 0.10978
0.12575001 -0.014922 0.10035
0.12706 -0.014693 0.099370003
0.12668 -0.014991 0.099568002
0.098834001 0.020608 0.11524
0.10486 -0.019117 0.085229002
0.10515 -0.019605 0.085617997
0.099136002 -0.036245 0.1071
0.12232 0.028749 0.099551
0.070683002 -0.059742998 0.084216997
