# .PCD v0.7 - Point Cloud Data file format
VERSION 0.7
FIELDS x y z
SIZE 4 4 4
TYPE F F F
COUNT 1 1 1
WIDTH 1519
HEIGHT 1
VIEWPOINT 0 0 0 1 0 0 0
POINTS 1519
DATA ascii
0.029259 0.014072 0.11449
-0.046381 -0.0012582 0.13589001
0.080003999 0.013736 0.092216998
0.078233004 0.01231 0.092776999
0.004284 0.016717 0.11687
0.12076 0.021121001 0.075195998
0.098035 -0.01063 0.050957002
0.098508999 -0.0084643001 0.052629001
0.0042981999 -0.010625 0.12321
-0.019545 0.0092065996 0.14702
-0.0099275997 -0.012363 0.11293
0.058072999 0.012488 0.11103
0.0051620998 -0.0096672997 0.10646
0.10004 0.021104001 0.080709003
0.1108 0.024359999 0.076029003
0.1105 0.022355 0.077322997
0.041467998 0.022056 0.1134
-0.0068812999 0.014357 0.12841
-0.030352 5.0127001e-05 0.1582
-0.031244 0.00014656001 0.16038001
-0.030556001 0.0019172 0.15978
-0.0079388004 0.016101999 0.10732
-0.0072271 0.01639 0.10662
-0.0040841 -0.016643001 0.11689
-0.0053396001 -0.015302 0.11505
-0.0028216999 -0.016035 0.11568
0.018058 -0.0012798 0.13249999
0.017909 -0.0003365 0.13436
0.13256 0.014763 0.10328
0.035847001 0.025241001 0.099468999
-0.015536 -0.0072925999 0.13359
-0.015306 -0.0076902998 0.13401
0.024816001 -0.0072332998 0.11468
-0.035106 0.0077816001 0.14928
0.13033 -0.029329 0.080256999
0.13237 -0.031631999 0.081203997
0.00094155001 -0.018036 0.11983
-0.0067047002 -0.0093874997 0.13247
-0.0085840002 -0.0081725996 0.13019
0.093516998 -0.02936 0.061859999
-0.010256 -0.016384 0.11636
0.13165 0.032212 0.056037001
-0.0038723 0.018862 0.11919
-0.0051016002 0.018684 0.12027
0.1165 0.049028002 0.037585001
0.11619 0.048813999 0.037402999
0.11738 0.048707001 0.039035
-0.032995 0.014452 0.14584
-0.036297001 -0.014079 0.13244
-0.037156001 -0.013015 0.13392
-0.012073 -0.012275 0.12858
0.13971999 0.035211001 0.073576003
0.028447 0.012995 0.11194
0.090273999 0.00034366001 0.062449001
0.090062 -0.0022374999 0.061094999
0.053805001 0.019857001 0.1038
-0.0017023 0.010303 0.13449
-0.0025820001 0.010119 0.13424
0.037806001 -0.017151 0.10605
0.036653001 -0.019270999 0.1061
0.00070586998 0.021284999 0.11267
0.0029881999 0.021004001 0.11464
0.047419 0.010013 0.085716002
0.045203 0.0088117002 0.086678997
0.012578 -0.0092791999 0.11032
0.013146 -0.0093026003 0.1079
0.11689 0.022155 0.031076999
0.099036001 -0.017291 0.075589001
0.12135 0.0092679998 0.10652
0.10612 -0.035744999 0.04851
0.13099 -0.034143999 0.079419002
0.12566 0.031860001 0.059741002
0.12638 -0.014006 0.091720998
0.067630999 -0.01085 0.081734002
0.069328003 -0.011894 0.080513999
0.026722999 -0.0045643998 0.10298
0.026047001 -0.0035019 0.10175
0.075277001 -0.0012949 0.069448002
0.10973 -0.00070477999 0.094388001
0.0091800001 0.017364999 0.12206
-0.041632 -0.012395 0.13562
0.066198997 0.0097687002 0.095688999
0.12815 -0.0074467999 0.099394999
0.00093988999 0.0085417004 0.10722
0.0020182 0.0093727 0.10989
0.0047114999 0.018829999 0.12746
0.097240001 0.036811002 0.045919999
0.095886 0.036244001 0.047595002
-0.044606 -0.014328 0.13343
-0.012386 -0.00029996 0.1151
-0.010925 0.0017398 0.11526
-0.019223001 0.012213 0.14374
-0.018267 0.011325 0.14314
0.098347999 -0.033859 0.052591
0.13899 0.018463001 0.10327
0.078011997 0.010321 0.11173
0.11653 0.035066999 0.046241
0.11578 -0.033050001 0.070362002
0.11515 -0.03351 0.070863001
0.068416998 0.0049279998 0.113
0.082160003 -0.0068028001 0.066730998
0.082144 -0.0052628 0.063593
0.10521 -0.0044021001 0.047991
-0.036991999 -0.0073731001 0.15126
-0.039402001 -0.0045854002 0.15302999
0.077220999 0.020510999 0.076622002
0.076164998 0.019833 0.078804001
0.11971 0.019231999 0.040047999
0.11816 0.019709 0.038247
-0.0022213 -0.0016555 0.10614
0.12493 0.014532 0.10914
0.079565004 0.00048026 0.064838
0.11462 -0.0090191001 0.10006
0.091853999 0.022294 0.048633002
0.11074 0.00079446001 0.033477001
0.11214 0.00056050002 0.032857999
0.11061 -0.00016172 0.032655999
0.10951 0.030494999 0.057930999
0.1074 0.010272 0.038433
0.10688 0.010241 0.039276
0.031911001 -0.0080148 0.092580996
0.030578 -0.0075221001 0.091461003
0.087590002 0.018704001 0.051323
0.066669002 -0.0095968004 0.081587002
0.097344004 0.040190998 0.054110002
-0.044780001 0.010161 0.13206001
0.11339 -0.047687002 0.064464003
0.0059847999 0.0079589998 0.13821
0.10672 -0.019765001 0.050032999
0.092958003 -0.024261 0.071579002
0.093460999 -0.021189 0.071731001
0.02258 0.0021337001 0.098825999
0.10051 -0.002077 0.094673999
0.09939 -0.0021726999 0.095522001
0.10872 -0.02994 0.051603001
-0.00018418 0.016272999 0.12518001
0.15309 0.023274999 0.10528
0.096813001 -0.016059 0.064897001
-0.036045 -0.0037913001 0.15191001
0.091516003 0.030772001 0.061662
0.11196 0.038947001 0.046332002
0.11085 0.036396999 0.042718001
-0.045713998 0.0026761 0.13522001
-0.045807999 0.0023055 0.13548
-0.045924999 0.0020488 0.13614
0.10097 -0.022954 0.077063002
-0.039953999 0.010103 0.14986999
0.090423003 0.026998 0.047665998
0.048198 0.00074862997 0.084729001
0.11781 0.018761 0.097296
0.1149 -0.0021046 0.10326
0.10605 -0.042734999 0.055475999
0.10702 -0.042608 0.054898001
0.012252 -0.0026982999 0.10908
0.111 -0.020307001 0.048413001
0.11116 -0.021249 0.048126001
-0.017681999 0.019827999 0.1225
0.042968001 -0.01418 0.11594
0.044319 -0.014083 0.1158
0.10658 -0.039822001 0.046549
0.12865999 -0.040155999 0.061723001
0.0053781001 0.017263001 0.1005
0.11315 0.043072 0.035076998
0.043793999 0.019416999 0.10818
0.0041569001 0.017483 0.10302
-0.021931 -0.01326 0.11948
0.091135003 -0.015413 0.070479997
0.087355003 -0.017037001 0.077849001
0.0096052 0.0049147001 0.13824999
0.1344 -0.0064647999 0.097447
0.13275 -0.0080730999 0.095392004
-0.018286999 0.015928 0.13265
-0.0059114001 -0.0011668 0.13785
0.10143 0.0050138002 0.047958001
0.076251999 -0.0057429001 0.06882
0.033516999 0.0018264001 0.12078
0.091798998 0.037494 0.047874
0.061383002 0.0069118999 0.10919
0.070867002 -0.0065518999 0.095482998
0.050411999 0.0035393999 0.085087001
0.072498001 0.001025 0.067341
0.072319001 -0.00078285998 0.066770002
0.13001999 0.021949001 0.085008003
0.031214001 0.0019878999 0.088551998
-0.010464 0.0038008001 0.10862
0.15243 0.015745001 0.11383
0.12178 -0.019996 0.081152
0.12215 -0.019329 0.082354002
0.094296001 -0.0036718999 0.055452999
0.095551997 -0.0049822 0.055284999
0.032618001 -0.0054448 0.094351001
0.11533 0.047573999 0.034548
0.096450001 -0.025186 0.053902999
0.011202 0.0056224 0.13483
0.060637001 0.014233 0.11554
0.035053998 -0.0047133001 0.085782997
0.034669999 -0.0035142 0.085666001
0.12445 -0.019378001 0.042491999
0.12439 -0.019817 0.043763999
0.079880998 0.0057541998 0.098389998
0.080245003 0.0038772 0.097305998
0.078589 0.0041824002 0.098644003
0.1454 -0.017322 0.092864998
0.15707 0.023607001 0.11147
0.15808 0.024173999 0.11147
0.031831998 0.011597 0.1149
0.029979 0.0080696 0.11432
0.13377 0.00095626002 0.11344
0.13507999 -0.0015106 0.11214
0.097739004 -0.036044002 0.065999001
0.011285 -0.012197 0.10529
0.038242001 0.025 0.10372
0.09544 -0.0095466999 0.096343003
0.093309 0.013 0.053210001
0.022027001 0.0026145 0.13225
0.11484 0.025257999 0.028794
0.11812 -0.020834001 0.035208002
0.12774 0.031298999 0.05872
0.10323 0.035978001 0.050896998
0.092372 0.0053448998 0.052545998
0.011928 0.010635 0.10364
0.12796 -0.030773999 0.067222998
-0.043995999 0.012266 0.13152
-0.041754998 0.01425 0.12977
0.10078 0.0080894995 0.093075
0.10682 0.023893001 0.074352004
0.11205 -0.016881 0.039772999
0.11147 -0.016813001 0.039083999
0.11265 -0.01856 0.040135
0.10409 0.037912998 0.045396999
0.010047 -0.017147999 0.10703
0.012674 0.0030121 0.10313
0.10691 -0.00067883002 0.044179
-0.024184 -0.0035625999 0.11878
0.0066522998 -0.011168 0.12186
0.0067381002 -0.011486 0.12152
0.088849001 -0.0079036998 0.097815998
0.021474 -0.0069670002 0.12139
0.098664001 0.016900999 0.088955998
0.072632 -0.0049004001 0.097747996
0.072228998 -0.0023695 0.097718
0.15016 0.0078900997 0.11226
-0.042718001 0.0042098998 0.13112999
0.11859 -0.051993001 0.045157999
0.010563 -0.0026326 0.127
0.0096645998 -0.0039619999 0.12757
-0.019920001 -0.0036613001 0.11517
0.12456 0.030243 0.049291
0.037050001 -0.0090611996 0.11383
-0.026673 0.0073366999 0.14385
0.090645 -0.01175 0.065480001
0.083846003 -0.0050710002 0.064337999
0.013734 -0.016217999 0.11238
-0.019972 -0.0053289998 0.11703
-0.017934 0.010318 0.14225
0.056763999 -0.023290999 0.086949997
0.11433 0.022802001 0.078905001
0.13639 0.011368 0.062749997
-0.028085001 -0.0064038001 0.12015
0.062592998 -0.0067586 0.079189003
0.063942999 -0.0081522996 0.079985999
0.13410001 0.016703 0.10077
0.074974 0.014031 0.10071
0.10258 0.019561 0.081975996
-0.043515999 0.0068470002 0.13969
-0.043924 0.0088352002 0.13975
-0.018248999 -9.3472998e-05 0.13885
-0.018918 -0.0019306 0.14016999
-0.019094 -0.0020895 0.13939001
0.10217 0.033505 0.061370999
0.048957001 -0.0053034001 0.086947002
0.084687002 0.00033728001 0.10276
0.084610999 -0.0010649 0.10184
0.0726 0.0088282004 0.10839
0.12269 -0.036532 0.04087
0.12328 -0.036497001 0.040018
0.12023 0.0087502003 0.10808
0.080559999 -0.010227 0.096134998
0.11619 -0.044068001 0.039149001
0.11164 -0.031824999 0.049412001
0.11196 -0.030745 0.04902
0.11249 0.0044336999 0.02699
0.11244 0.0043458999 0.027836001
0.022425 -0.0039932001 0.12028
0.02386 -0.0036217 0.12107
0.12322 -0.041864999 0.062532999
0.049178001 -0.023293 0.091684997
0.052809998 -0.0015119 0.11988
0.094609 -0.037276 0.064479999
0.11928 -0.044364002 0.060524002
-0.02029 -0.0035971 0.14249
0.10264 0.032756999 0.047472998
0.019905999 -0.0082770996 0.1137
0.094323002 -0.023143999 0.055642001
0.096101001 -0.023800001 0.055156
0.11839 0.030974001 0.06357
0.036364999 -0.0086931996 0.11502
0.036313001 -0.0089271003 0.11563
0.010477 -0.0046668001 0.12879001
0.096372999 -0.040677 0.055438999
-0.046436001 0.00073322997 0.13054
-0.04679 0.00080004003 0.13074
0.030815 0.00563 0.087546997
0.13011999 0.035801001 0.057932001
0.10589 -0.027960001 0.052738
0.069172002 0.0083109001 0.083242998
0.10072 0.027804 0.045462001
0.091697 0.024587 0.04397
0.12746 0.022464 0.085124001
-0.031874999 -0.0069562001 0.14546999
0.051095001 0.0091644004 0.084524997
0.13289 0.029859999 0.073628999
0.13229001 0.030231999 0.073440999
0.073729001 0.011974 0.11376
0.094053999 -0.0023645 0.058789
0.050647002 -0.0048328 0.087321997
0.050733 0.018780001 0.099531002
0.043779001 0.022127001 0.097580001
0.043198001 0.020746 0.097455002
0.13484 -0.031700999 0.081929997
0.13510001 -0.031121001 0.081735
0.053229 0.021328 0.076059997
0.036198001 -0.021477001 0.094784997
0.0051560998 0.011833 0.13835999
0.099110998 0.020358 0.044840999
0.068355002 -0.0065847002 0.096744999
0.068925999 -0.0058105001 0.098743998
0.12268 0.025473 0.056768
-0.023155 0.0066026999 0.15143999
0.039248001 0.0062540001 0.11599
0.12688001 0.026411001 0.079448998
0.11047 0.00067510002 0.094002999
0.10985 -0.0010172999 0.091977
0.066719003 0.011291 0.11262
0.066601999 0.010152 0.11236
0.10119 0.035262 0.050195999
0.15268999 0.010428 0.11262
0.15368 0.010405 0.11318
0.11072 -0.015977001 0.089148998
-0.018315 -0.0025226001 0.13947
-0.032528002 0.0038719999 0.12206
0.12197 -0.00069394999 0.10749
-0.014022 -0.0039963 0.13438
0.0011996001 -0.015964 0.1116
0.088486001 -0.0081438003 0.10042
0.099079996 -0.0088056996 0.051803
0.098791003 -0.0077463002 0.052857
-0.019834001 0.0094317002 0.13863
0.055792999 0.017100001 0.091536999
0.013202 0.019335 0.10925
0.072864003 0.017121 0.074011996
0.11228 0.016981 0.090805002
0.072287001 0.0087927002 0.081817001
0.073091 -0.0044847 0.097655997
0.086769 0.018712001 0.096983001
-0.017363001 0.0013609 0.11821
0.10064 -0.012706 0.052019
0.099294998 -0.012359 0.051757999
-0.029162001 -0.010408 0.13045999
-0.029244 -0.0098182 0.12980001
0.081621997 -0.0046285 0.10197
0.0030086001 -0.011043 0.12176
0.10017 0.012706 0.046112001
0.10404 -0.036417998 0.050459001
0.085135996 0.0048509999 0.10048
0.11876 -0.0063637998 0.10616
0.12337 0.020457 0.082438998
0.029114 0.014599 0.090172999
-0.020406 0.021431999 0.12545
0.05167 0.010347 0.083783001
0.073585004 0.010909 0.11598
0.092642002 0.012729 0.094962999
0.098463997 -0.013493 0.092549004
0.098463997 -0.011417 0.092661001
0.1075 0.00080807001 0.094554998
-0.0050371001 0.0099451998 0.13459
0.12656 0.032901 0.058724001
0.12167 0.015447 0.10371
0.071612 -0.0059884 0.069508001
0.095696002 -0.045529 0.063529
0.025078001 0.00065089 0.12937
0.080862001 0.01408 0.093188003
0.079788998 0.013505 0.093341999
0.13213 0.027532 0.072535001
0.046096001 -0.016047999 0.105
0.044335 -0.015118 0.10436
0.077336997 0.0098604001 0.1101
0.11752 0.032219999 0.048315
0.11849 0.030762 0.048546001
0.060678001 -0.0072324001 0.10239
0.014988 0.01548 0.10234
0.015255 0.016664 0.10458
0.10541 0.023661001 0.075368002
0.0078584999 0.017552 0.12054
0.032072999 0.016357001 0.10334
0.031122999 0.014724 0.10394
0.035275999 -0.0088061001 0.11571
0.034832001 -0.0087492997 0.1166
0.11985 0.045747999 0.042815998
-0.038520999 0.0085247997 0.14929
0.070805997 0.013904 0.1026
0.020125 0.013206 0.11547
0.14173999 0.015876999 0.086692996
-0.011176 0.0016582001 0.1083
-0.011006 0.0029654 0.10925
0.094129004 0.011349 0.056715
0.031969 0.020577 0.092745997
0.094965003 -0.029891999 0.053652
0.11017 0.0057766 0.10089
0.11438 -0.013634 0.033383999
0.11309 -0.013609 0.034065999
0.13331001 -0.021145999 0.086622998
0.094485 0.013653 0.091482997
0.093253002 0.014589 0.092106998
0.061749 0.013204 0.1029
0.12289 -0.021933001 0.083503999
0.12447 -0.022503 0.082240999
0.11398 0.041439999 0.041735001
0.0059409998 -0.0025130999 0.14004999
0.12385 0.0056272 0.11585
0.030893 -0.0083531002 0.1166
0.11551 0.026032999 0.024456
0.0049918001 -0.0038417999 0.12789001
0.1039 0.029046001 0.032749999
0.11507 0.0069832001 0.027714999
0.11562 0.0063374001 0.025656
-0.025055001 0.019719999 0.12862
0.099652998 0.020631 0.073164001
-0.014034 0.018832 0.11272
-0.01218 0.018784 0.11361
-0.044070002 0.023273 0.13027
0.1445 -0.013802 0.089601003
0.062275998 -0.0080158999 0.089183003
0.11579 -0.023371 0.077004001
0.0063854 0.011746 0.13075
0.11296 0.039363001 0.023231
0.11369 0.040768001 0.022471
0.11194 0.040116999 0.028232001
0.078143001 -0.011609 0.069723003
0.079350002 -0.010194 0.068193004
0.12101 0.017604001 0.094354004
0.10135 -0.037434999 0.049904
0.11819 0.012552 0.027271001
0.016248001 0.010841 0.13485999
0.079043999 -0.0036180001 0.066556998
-0.024436999 0.0017751 0.15499
0.093943998 -0.0088074002 0.061838999
0.092903003 -0.0084041003 0.062513001
0.089782 0.016012 0.096616998
0.091339 0.014869 0.096638002
0.092045002 0.015796 0.095923997
0.12978999 0.018895 0.10574
0.12952 0.018433999 0.10399
0.081139997 0.015505 0.073577002
-0.044112999 0.018331001 0.12749
-0.044629999 0.017755 0.12875
0.11745 0.0040191999 0.025189999
0.11621 0.0033317001 0.025413999
0.11715 0.0036416 0.024715999
0.011546 0.017015999 0.11175
0.11559 0.02816 0.058448002
0.0083032995 -0.0080995001 0.10769
0.0084421998 -0.0071192998 0.10685
0.0083643999 -0.0080314996 0.1089
0.0059913001 -0.010645 0.12822001
0.017228 0.01211 0.13079999
0.017004 0.012449 0.1318
0.086739004 0.0010092 0.10493
0.087109998 0.00050778 0.10521
0.089653999 0.00064002001 0.10389
0.057128999 -0.0065977001 0.10896
0.091906004 0.031183001 0.043147001
0.043761998 0.023980999 0.10674
0.042036001 0.022484999 0.10726
0.044240002 0.024387 0.10733
0.094320998 -0.0078566 0.058171
0.090368003 0.026117999 0.038768999
0.089079998 0.026658 0.039345
0.062493 -0.0086137 0.081159003
0.099091001 0.00087220001 0.099628001
0.0084934998 -0.0078421999 0.1048
0.12738 -0.020732 0.084857002
0.12849 -0.022025 0.082594998
0.11554 0.011563 0.10339
0.11616 0.01147 0.10414
-0.012404 0.0052417 0.15045001
0.053670999 0.016488999 0.084660999
0.048080999 -0.0048558 0.11925
0.048324 -0.0047471002 0.11772
-0.042422 -0.0040537999 0.14174999
0.069784999 -0.003551 0.098117001
0.068193004 -0.0044391998 0.099021003
0.069087997 -0.003328 0.098656997
0.094204001 0.021745 0.076168001
0.10518 0.0051483 0.043868002
0.15261 0.0086132996 0.11258
0.071849003 0.013007 0.099560998
0.12937 -0.060231999 0.054547999
0.11483 -0.0017001 0.029709
0.11476 -0.00089228002 0.028705001
0.11731 0.026709 0.069402002
0.1168 0.026518 0.068264
0.022776 0.00050082 0.12382
0.14149 0.015800999 0.10173
-0.025851 0.019641999 0.12577
-0.0069295 0.0018496 0.14601
-0.0030946999 -0.0055888998 0.11174
-0.0013979001 -0.0045377002 0.11313
-0.00011719 -0.0044085002 0.11106
0.026357999 0.0020878001 0.12931
0.12222 -0.018492 0.039910998
0.11154 -0.023910001 0.077339001
-0.024110001 -0.0068592001 0.14353999
-0.017028 -0.0021416 0.13790999
0.11562 -0.021715 0.077312998
-0.023758 0.0086380001 0.14122
0.063998997 0.0092837 0.074537002
-0.044427998 0.011252 0.13977
-0.043625999 0.010464 0.13781001
-0.04439 0.010629 0.13765
0.1366 -0.023497 0.089015998
0.13716 -0.022529 0.089565001
0.045267001 0.011639 0.12536
0.044268999 0.0132 0.12382
0.14038999 -0.016744001 0.092425004
0.031622 0.0057067 0.12489
0.0088489 0.00082417001 0.10363
0.0083982004 0.002012 0.10324
0.10775 -0.041781999 0.051394001
0.13089 -0.056665 0.058205999
0.061191998 0.013889 0.10445
0.13392 0.016789 0.098448999
0.1331 0.015676999 0.098640002
-0.031695001 -0.0094079003 0.14754
0.093307003 -0.013746 0.053397
0.097065002 0.019551 0.070168003
0.095807999 0.018764 0.068535
0.11179 0.014495 0.10092
-0.024954 -0.014655 0.12785999
-0.023397001 -0.016478 0.12636
0.066311002 0.0058566001 0.11074
0.092482001 -0.011073 0.055211999
-0.022154 0.0017953 0.14804
-0.020671999 0.0026713 0.14909001
0.13752 -0.036575999 0.081009001
0.091058999 0.026508 0.05243
0.065311 -0.017969999 0.096054003
0.11504 0.041582 0.026188999
0.11306 0.041687001 0.025473
-0.028915999 0.0012065 0.14695001
0.043731 -0.023026999 0.097419001
0.118 0.02534 0.026535001
0.080991998 -0.0082139997 0.069173001
0.12978999 0.029463001 0.071447998
0.13748001 -0.00067136 0.099976003
0.13034 -0.049013 0.060935002
0.13067999 -0.047386002 0.059631001
0.011101 0.010831 0.13713001
0.018931 -0.0027483001 0.10395
0.019606 -0.00030397001 0.103
-0.0085103 0.019158 0.11358
0.092164002 -0.0037326 0.099596001
0.092109002 -0.0028494 0.097774997
-0.017636999 0.011463 0.14652
-0.017713999 0.0088553 0.14920001
-0.023348 0.0062465002 0.12165
-0.0053089 0.014196 0.12827
0.11938 0.020097001 0.034566998
-0.040718 0.020966001 0.12898
-0.040206 0.021667 0.12778001
-0.0023471999 -0.0039169998 0.11322
-0.0010031 -0.0041513001 0.1132
0.098806001 0.02936 0.043441001
0.14216 -0.013778 0.090336002
-0.015899001 0.010016 0.14047
0.13561 0.033532001 0.075880997
0.11335 -0.017982 0.044757999
-0.029027 0.012448 0.14246
0.036828 -0.020966999 0.093083002
0.037487999 -0.020337 0.095646001
0.12139 0.0027252999 0.10704
0.12388 0.0029171 0.10847
0.1389 0.015192 0.10124
0.13863 0.015969999 0.10153
0.024529001 -0.0083665 0.11147
-0.034988999 0.0022521999 0.16058999
-0.035103999 0.0034419 0.15967999
0.098627001 0.003212 0.097291999
0.062709004 0.011104 0.095783003
0.089451998 -0.017843001 0.076109998
-0.031723 -0.011109 0.12938
0.12921999 0.019673999 0.11022
0.12233 -0.033914998 0.043218002
0.11161 -0.016666001 0.043848
0.093181998 -0.023816001 0.053902999
0.15195 0.019712999 0.11212
0.15081 0.019694 0.11231
-0.026852001 0.0011006 0.15966
0.11004 -0.045150999 0.057976998
0.10951 -0.044475999 0.056922
0.093023002 -0.024098 0.055172998
0.1223 0.029753 0.069972999
0.063828997 -0.016283 0.098668002
0.040587001 0.013248 0.079985999
0.056779001 -0.024983 0.090562001
0.025436001 0.0027717 0.092864998
0.10212 0.034575 0.045164
0.081611998 0.0001167 0.065228
0.13362999 0.039786998 0.062593997
0.061494999 -0.0039689001 0.1025
-0.033185001 0.012593 0.12616
-0.034704 0.011997 0.12540001
-0.034812 0.012047 0.12639999
0.13598999 0.018657001 0.10694
0.098330997 -0.045609001 0.062581003
-0.0066966 0.01302 0.10717
-0.039758001 0.014124 0.12653001
0.016417 -0.013246 0.10764
0.013969 -0.011139 0.10653
-0.0047884998 0.020138999 0.12002
-0.0065126 0.020654 0.11883
0.11514 -0.012397 0.027587
0.15477 0.0058849002 0.11644
0.090014003 -0.016652999 0.079673
0.068203002 0.0064270999 0.10999
-0.031098999 0.014725 0.13231
-0.033401001 0.0021742999 0.12917
0.14624 -0.030169999 0.084256999
0.094749004 0.031380001 0.057999
0.037374001 0.014085 0.080343001
0.11197 -0.0139 0.093312003
0.11256 -0.013637 0.091587
-0.043280002 0.010424 0.1279
-0.020707 0.0071394001 0.12115
-0.022028999 0.0072307 0.11966
0.035737999 0.01943 0.10385
0.058072001 0.012405 0.089281999
0.056395002 0.011199 0.088818997
0.13164 0.0094052004 0.11497
-0.032233998 -0.011418 0.12974
-0.002757 -0.0035744 0.13621999
0.054067999 0.020838 0.082121998
0.054134998 0.020776 0.085019998
0.058189999 0.016620999 0.079557002
0.057399999 0.015184 0.077064998
-0.041455001 -0.00046154999 0.13233
0.14534 0.0062752999 0.10483
0.14425001 0.0069852001 0.10327
0.14441 0.0071136001 0.10418
0.14383 0.01756 0.095834002
0.00067394 -0.0078844996 0.12343
-0.00068514998 -0.0078958003 0.12441
0.0010779999 -0.0081257001 0.12427
0.13218001 0.012227 0.10636
0.034860998 0.0042150998 0.1222
0.083117001 0.0032915 0.064398997
-0.047246002 0.017943 0.13496
0.089102998 0.019568 0.065312997
0.040417001 0.019796999 0.11443
-0.0043830001 0.00023147999 0.10916
0.098653004 0.040167999 0.055314999
-0.046363998 0.0034447 0.13070001
0.14915 0.019241 0.094727002
0.11281 0.037539002 0.032777
0.021054 0.01045 0.13305999
-0.0046871998 0.00093785999 0.11425
-0.0046866001 -0.0026487999 0.11478
-0.0060799001 0.0022154001 0.14638001
-0.0045098001 0.0011264 0.14573
0.051871002 -0.0013434 0.087853
0.052051999 -0.00097076001 0.086606003
0.013592 -0.0012833 0.10368
0.066970997 -0.0093609998 0.081069998
0.026456 0.0066408999 0.10012
0.050480999 -0.0067888 0.11585
0.0087142 0.0019407 0.10188
0.0089427996 0.002359 0.10291
0.0050009 0.019913999 0.11311
0.071230002 0.0011959 0.10305
-0.012483 0.014159 0.12192
-0.011249 0.013127 0.1244
-0.011253 0.01389 0.12258
0.11162 -0.035342999 0.068810999
0.11185 -0.036320999 0.069728002
0.087287001 -0.010781 0.067272
0.032023001 -0.012725 0.10393
0.0086259004 -0.0095413998 0.12884
0.0074899001 -0.0093793999 0.12813
0.091824003 0.023558 0.041143999
0.091742001 0.023603 0.040408
0.13815001 -0.0021007 0.10979
0.13682 -0.0026457 0.10925
0.017477 0.01102 0.13530999
0.016337 0.011922 0.13618
0.13135 0.038380999 0.062879004
0.075994998 0.0088930996 0.1138
0.076058999 0.0090902001 0.11459
0.084725998 0.016093001 0.069553003
0.0036315999 0.0054806001 0.1053
0.0029114999 0.0049510999 0.10355
-0.034596998 0.00075147999 0.15209
0.049724001 0.0043695001 0.12881
0.058600001 0.015117 0.089989997
0.056446999 0.014199 0.089582004
-0.017712001 -0.013152 0.13449
0.11639 -0.018497 0.046629
0.12065 -0.016873 0.084568001
0.060997002 0.014347 0.11844
0.099165 -0.0073766001 0.051938001
0.098458998 -0.0055451002 0.050994001
0.021534 -0.0093508 0.11334
-0.025557 -0.011919 0.12964
0.039243001 0.0059853001 0.11764
0.042773999 0.0067666001 0.11725
0.040438 0.0055614002 0.11595
0.093813002 2.5776e-05 0.059110999
0.094231002 -0.00052176003 0.057105999
-0.012958 0.0035081001 0.11458
-0.013958 0.0032857 0.11629
-0.028797001 0.0022481 0.12485
-0.031088 0.0041363002 0.12544
0.061797999 0.017478 0.092724003
0.12809999 -0.0074069002 0.094717003
0.00032041999 0.011973 0.1054
-0.012596 -0.0039545 0.11604
0.065223999 0.0082350001 0.1105
0.063341998 0.0067850002 0.11047
0.030750999 0.0092628999 0.085478
0.063924 -0.018377 0.094887003
0.11075 0.0049053999 0.035652999
0.057588 -0.0070091002 0.10814
0.055457 -0.0073330002 0.11051
0.051805001 0.017007001 0.083185002
0.041740999 0.020535 0.078449003
0.018007999 -3.5988e-05 0.099498004
0.017824 0.0010267 0.10108
-0.036816999 -0.0060899998 0.15487
0.028209001 0.013837 0.11685
-0.029619999 -0.0045832 0.14038
-0.029890001 -0.0049863998 0.13808
0.063474 0.0093871998 0.079302996
0.073319003 0.0053773001 0.1118
0.072976001 0.0068410002 0.11032
0.055257 0.013072 0.10281
0.029378001 -0.0027637 0.095219001
0.15067001 -0.0046951999 0.10545
0.096927002 -0.0023324999 0.096575998
0.11461 -0.0017059 0.10096
0.12365 -0.029756 0.066246003
0.12499 -0.030739 0.065907001
0.0076768999 -0.0080265999 0.13135
0.022648999 0.0066511999 0.10173
0.054104999 -0.017522 0.092161998
0.097442999 0.032010999 0.064195
0.060848001 0.0098834997 0.070494004
0.12887 0.0033468001 0.11735
0.011594 -0.0095755002 0.12057
-0.014275 -0.014924 0.121
-0.013074 -0.014767 0.1236
0.052908 0.019445 0.096135996
0.096014 0.031191001 0.056947
0.11052 -0.00037957 0.098870002
0.11723 0.018456001 0.092534997
0.11293 0.015092 0.041455999
0.11903 -0.054908998 0.036697999
0.11159 0.028879 0.028658999
0.13936 -0.033147998 0.082514003
-0.011917 0.001906 0.1515
0.10627 0.016018 0.043152001
0.10737 0.016956 0.042599
0.10763 0.016023001 0.043170001
0.14323001 -0.003333 0.094852
0.14189 -0.0050824001 0.096277997
0.064742997 0.01227 0.1189
0.00081087003 -0.0031797001 0.11171
0.14533 0.0061650998 0.10594
-0.0019424 0.0052324999 0.14498
-0.017930999 -0.0020955999 0.11293
0.086276002 0.033888001 0.050377999
0.12740999 0.02445 0.051066
0.14108001 0.032306001 0.079948999
0.038164001 0.0021194001 0.11787
0.10264 -0.029191 0.051828999
-0.011029 -0.00069418998 0.14544
0.016683999 -0.011103 0.10376
0.015135 -0.0092497999 0.10169
0.018057 0.0077555999 0.1249
-0.0089613004 0.0054990002 0.11483
-0.0077311001 0.0040159998 0.11443
0.085401997 -0.0018898 0.10503
0.1109 0.041159 0.025548
0.025401 0.011428 0.12069
0.025708999 0.0095693003 0.12052
0.030596999 0.0099056996 0.10054
0.089056 0.0095111998 0.10204
0.088464998 0.010246 0.10223
0.016860001 -0.0025784001 0.10886
0.14793 6.1774001e-05 0.10907
0.11782 -0.046185002 0.061744001
-0.019130999 0.012731 0.14297999
0.096101999 -0.037004001 0.058975
0.093815997 -0.0078052999 0.057691999
0.034313001 -0.012576 0.10703
0.012255 -0.010455 0.1119
0.01051 -0.0098839998 0.11256
0.061641 0.0012057 0.1184
0.06005 0.0015325 0.11776
0.12216 0.027539 0.05204
0.089855999 0.02297 0.064625002
0.057326999 -0.0057659 0.10793
0.010039 0.0090186 0.12567
-0.0088475998 -0.010274 0.13136999
0.079862997 0.023088999 0.084307
0.078321002 0.022289 0.081436999
0.019681999 0.012764 0.1051
-0.016229 3.4399e-05 0.11721
-0.016104 -0.00050234998 0.11609
0.13462 -0.0077928999 0.10027
0.09719 0.017882001 0.044627
0.11679 -0.032655001 0.070180997
0.055078 -0.011657 0.091003001
0.11251 -0.042934 0.066634998
0.1106 -0.043124001 0.066540003
0.0067588999 -0.0096212998 0.12736
0.13596 0.022403 0.084909
0.11165 -0.0078365002 0.092515998
0.028248001 0.01046 0.1248
0.15752 -0.0025664 0.11384
0.091306001 -0.019158 0.067877002
0.10286 -0.047740001 0.070377
0.096087001 -0.020799 0.055551
0.097130999 -0.020432999 0.053819999
0.10128 -0.014062 0.051955
0.10161 -0.012915 0.051002
0.095013998 -0.041471999 0.066284999
0.096219003 -0.041776001 0.065738998
0.14493001 0.014893 0.10386
0.14454 0.016456001 0.10454
0.14811 0.0011731 0.11053
0.14771999 0.0015959 0.11161
0.1142 0.040166002 0.041572999
0.091558002 0.012326 0.061338
-0.026957 0.0047041001 0.11932
-0.026789 0.0046216999 0.12052
0.14286999 -0.036931001 0.077147998
0.1419 -0.037763 0.077815004
0.058954999 -0.0063482001 0.10323
0.060330998 -0.0043513002 0.10311
0.12912001 0.037459001 0.061764002
0.11382 0.026416 0.072633997
0.12153 -0.022251001 0.082989998
0.11983 -0.020804999 0.082594998
0.15180001 0.010654 0.11268
0.15073 0.019789999 0.098176003
0.095638998 -0.033658002 0.056322999
0.096313 -0.034928001 0.056187
-0.020536 0.0018074 0.11831
-0.010929 0.0097492998 0.1397
-0.011555 0.0097759999 0.14071
0.10547 0.0064991 0.095158003
-0.025307 0.0079174004 0.12295
0.14268 0.023809999 0.083910003
0.14207 0.022492999 0.083672002
0.14162 0.021036999 0.082238004
0.03018 0.015536 0.10313
0.077891 -0.0094197998 0.093942001
0.099753998 -0.01984 0.073168002
0.10099 -0.018375 0.074052997
-0.036880001 -0.0079015 0.14397
0.021880999 0.0073095001 0.13056
0.054531999 -0.010792 0.10079
0.053132001 -0.012024 0.099747002
0.0038854999 0.0049417 0.10553
0.0049447999 0.0047327001 0.10591
0.074805997 -0.0047292998 0.096386001
0.074373998 -0.0040099001 0.095987998
0.075487003 -0.0038848 0.096056998
0.090200998 0.0058713998 0.10146
0.12072 0.028659999 0.052503999
0.10315 -0.022454999 0.049743
0.10277 -0.022403 0.051984001
0.1039 -0.022648999 0.050142001
0.10871 -0.018003 0.049897999
0.058866002 -0.0064599998 0.10276
0.10058 -0.023622001 0.050122999
0.067566 -0.016129 0.093826003
0.066519998 -0.017506 0.092816003
0.13023999 -0.0028174 0.10117
0.12082 -0.019766999 0.042755
0.049539998 -0.0023197001 0.080516003
0.048555002 -0.0021347001 0.082694001
0.098998003 -0.014443 0.052398
0.098738998 -0.013898 0.052832
0.099152997 -0.015737999 0.052901
0.1116 -0.00044972001 0.099459998
0.077090003 0.0050447001 0.065539002
-0.030701 0.0022505999 0.12333
0.10572 0.00035449999 0.048211001
0.10136 0.015648 0.088184997
0.1011 0.016070001 0.088168003
0.030951001 0.0048499 0.089872003
0.044101998 -0.0094176996 0.11908
0.018693 -0.0017875 0.10533
0.11805 -0.018467 0.044312
0.11057 -0.042130001 0.052604999
0.1119 -0.043370999 0.052474
0.087651998 -0.0055253999 0.062204
0.11238 -0.02667 0.075202003
0.11507 0.0085159 0.0264
0.10629 0.025415 0.074111998
0.088049002 -0.0019341999 0.10308
0.13785 0.015970999 0.089891002
0.0083061997 -0.0012724 0.12871
0.051984999 0.014954 0.081724003
0.024168 -0.0091444002 0.11126
0.13774 0.014821 0.095053002
0.11948 -0.047761999 0.052384999
0.085097998 -0.016672 0.073748
0.055195 0.016355 0.12291
0.054908 0.016378 0.12219
0.055604 0.016057 0.12041
0.037225999 0.024891 0.099293001
0.096776001 -0.035946999 0.053743001
0.13311 -0.029347001 0.082385004
0.051582001 -0.012645 0.089291997
-0.034982 -0.0079017999 0.13925
-0.035071999 -0.0066570998 0.13902
0.013438 -0.010915 0.10621
0.058010001 0.00054533 0.12007
0.098444 0.0030342001 0.098655
-0.026115 -0.012194 0.13154
-0.011606 0.01272 0.12385
0.1164 -0.050048999 0.042897999
0.093397997 0.0030459 0.056186002
0.095096 0.0023062001 0.057037
-0.014825 -0.00065578002 0.14575
-0.016911 -0.014515 0.12293
0.097043999 -0.031083999 0.062318999
0.015645999 -0.014241 0.10784
0.015499 -0.015232 0.10806
0.10011 -0.030683 0.051018
0.095752999 0.036517002 0.052526001
0.046406999 -0.018207001 0.10128
0.0071337 0.019659 0.11192
-0.02805 0.015295 0.14044
0.11299 0.014594 0.099881999
0.086217999 0.021144999 0.081478
0.086760998 0.020779001 0.082673997
0.017011 0.011713 0.13015001
0.018599 0.010994 0.13109
-0.01008 -0.0075186999 0.11385
0.094290003 -0.017735001 0.061668999
0.12404 0.012137 0.11307
0.0012946 -0.0078354999 0.12361
0.011975 -0.0048103998 0.12576
-0.043056998 0.014374 0.12734
-0.043274 0.015255 0.12966999
0.13941 0.034228999 0.080696002
-0.012194 0.00018382999 0.13857999
0.03043 -0.0055300002 0.10086
0.12021 -0.052356001 0.035482001
0.12191 -0.053049002 0.037177
0.13384999 -0.0027248999 0.063473001
0.068489 0.0059147002 0.11269
0.025250001 0.014023 0.10285
0.087892003 -0.0097554 0.1
0.040362999 0.023626 0.10635
0.041234002 0.01764 0.11365
0.13225999 -0.037583001 0.073822998
0.10459 0.011908 0.091908999
0.13051 -0.056017999 0.058897998
0.1303 -0.056124002 0.058453001
-0.015029 -0.01346 0.13378
0.1155 0.036084998 0.034357999
0.13233 0.015559 0.096492
0.13034 0.015331 0.098640002
0.020612 0.0034731 0.10021
0.053121999 -0.02383 0.088177003
-0.030761 0.014336 0.14212
-0.027702 0.01774 0.12248
0.11807 -0.040748999 0.04143
-0.010708 0.0088540995 0.14737999
-0.0095988996 0.01017 0.14747
0.094241001 -0.010784 0.054129001
0.14453 -0.023817001 0.090694003
-0.045600999 0.0038385999 0.13652
0.10038 0.016801 0.045228999
0.029887 0.0056285001 0.12616
0.12599 -0.059482001 0.058474999
0.11659 0.031098999 0.053562999
0.11523 0.031130999 0.053371001
0.036116999 0.024642 0.099140003
-0.029177999 0.0064488002 0.1244
0.032752998 -0.0034988001 0.099067003
0.032667 -0.0037422001 0.098091997
0.14365 -0.0050679999 0.083562002
0.13768999 0.017457001 0.10345
0.062756002 -0.014444 0.096625
0.066013001 0.014025 0.094733
0.029619001 0.0043031001 0.088287003
0.15367 0.022988999 0.10512
0.15435 0.023757 0.10771
-0.012918 0.013174 0.13079999
-0.010757 0.014417 0.13029
-0.010856 0.014551 0.13027
0.097322002 0.01357 0.091043003
0.052873001 -0.01097 0.091027997
0.059588 0.016206 0.073073998
0.044757001 -0.018734001 0.10361
0.045093 -0.017242 0.10296
0.043522999 -0.017395999 0.1046
0.10457 0.017116999 0.088157997
0.022397 -0.0072273002 0.10619
0.11307 -0.002471 0.098678999
0.12693 0.018288 0.10743
-0.0094720004 -0.00074327999 0.11292
-0.028760999 0.014399 0.14466999
-0.0025702 0.00047122 0.10319
0.11672 -0.051312 0.040415999
0.10443 -0.024099 0.049745999
0.1366 0.028186001 0.083470002
0.13492 0.029797999 0.084417999
0.053904001 0.015059 0.12199
0.026783001 -0.0064872 0.11923
0.025646999 -0.0065756999 0.11678
0.11728 0.038816001 0.045185
0.13427 -0.039549001 0.058694001
0.13144 -0.036743 0.060029
0.1119 0.039698999 0.025472
-0.0066467999 -0.015504 0.12246
0.094062001 -0.019137001 0.060950998
0.11663 0.019929999 0.1025
0.11681 0.018859001 0.10174
0.084242001 -0.010461 0.10074
-0.046939 -0.011055 0.12970001
-0.046905998 -0.012049 0.1284
0.047028001 -0.0041847001 0.12071
0.072503999 -0.0077757002 0.082313001
-0.0039233998 0.0096100001 0.13741
-0.0030489999 0.0077935001 0.13755
-0.016074 0.01262 0.11347
0.10803 0.027062999 0.068042003
0.055971 -0.010157 0.10207
-0.037477002 0.014271 0.13477001
0.10611 0.030506 0.037133001
0.12816 0.0273 0.074208997
0.12831999 -0.050202999 0.060651999
0.038789 0.021584 0.10718
0.039432 0.022205001 0.10878
0.10497 -0.01135 0.088119
0.12023 0.019198 0.082681
0.12009 0.019975999 0.081128001
0.023583001 -0.0054738 0.11785
0.0096453 0.014146 0.1102
0.11356 0.029130001 0.060830999
0.094494998 0.032878999 0.041072998
0.03785 -0.0088077998 0.1135
0.11144 0.033787999 0.030794
-0.027727 0.013786 0.1399
0.10439 -0.011336 0.049871001
0.095785998 -0.013674 0.087410003
0.10934 -0.033312999 0.047044002
0.14275999 0.0033171 0.10472
0.1441 0.0036178001 0.10318
0.14226 0.0047648 0.10549
0.0070302999 0.011815 0.13823999
0.05192 0.015027 0.089988999
0.11618 -0.011387 0.027409
-0.041574001 -0.0060080001 0.12926
-0.0073799002 -0.015184 0.11244
0.036313999 0.017952999 0.10248
0.076061003 -0.017503001 0.080994003
0.12898 0.028511999 0.070781998
0.015608 0.014952 0.10492
0.014986 0.016399 0.10522
0.0085490001 -0.013099 0.11119
-0.018671 -0.00042072 0.13991
0.13936999 -0.028453 0.086701997
0.14195 -0.029059 0.082626998
0.090008996 0.036568999 0.046147
0.071585998 -0.0070410999 0.084351003
0.11281 -0.0011024 0.032937001
0.078163996 0.015594 0.088798001
0.010589 0.016934 0.12115
0.10786 0.028310999 0.037076999
0.078676999 -0.01536 0.079901002
0.029624 0.012109 0.090140998
0.00025079999 -0.00068211998 0.10436
-0.0016528 0.00014449999 0.10261
0.10541 0.030672001 0.037804998
0.073693 0.012857 0.076576002
0.067643002 0.0013348 0.10063
0.064792 0.0030977 0.10137
0.066271 0.0022793 0.10223
0.11414 -0.015212 0.087329
0.026428999 -0.0069400002 0.10615
-0.020362999 -0.0018118999 0.11433
0.071029 0.0085653998 0.072469003
0.022825001 0.01003 0.12077
0.0092185996 0.0062167002 0.10215
-0.027898001 0.00011109 0.15685999
-0.027550999 -0.00062135002 0.15685
0.054894 -0.023717999 0.093836002
-0.042066 -0.0064865998 0.13506
0.0022485 -0.0073334002 0.12548999
0.019688999 -0.014533 0.10993
0.086937003 -0.012355 0.095306002
0.098669998 0.039891999 0.050593998
0.062252 0.0099457996 0.078689002
0.1383 -0.038495999 0.08044
0.14898001 -0.0016203 0.10962
0.12779 -0.061166 0.058318999
0.090998001 -0.0030044001 0.098690003
0.091098003 -0.0049967999 0.098618001
0.087415002 0.014805 0.099257998
0.087509997 0.01333 0.10137
0.14941999 0.0063425 0.11248
0.081952997 -0.017833 0.086649999
0.02086 0.0093278 0.12611
0.0040019001 -0.0059890002 0.10912
-0.010648 0.012918 0.1327
-0.0088365003 0.011949 0.13294999
0.076371998 -0.014916 0.077045001
0.11126 -0.032754999 0.047697999
0.11072 -0.032363001 0.047343999
0.12701 0.018499 0.087283
0.12515 -0.048422001 0.061073001
0.034483999 -0.0095242001 0.11712
0.091767997 -0.00036308001 0.10074
0.075681999 -0.0012621999 0.10443
0.11425 -0.016983001 0.087934002
0.024433 -0.0043751001 0.12182
0.013085 -0.0062722 0.10537
0.10023 0.0035995001 0.050287001
0.10258 0.0038763999 0.052335002
0.069118999 0.0077670999 0.074302003
-0.0063072001 0.020812999 0.11532
0.034147002 0.0098922998 0.11788
0.11718 -0.0023173001 0.10696
0.010706 -0.0097310999 0.12997
0.14982 0.013546 0.11354
0.059891999 0.011679 0.10931
0.019317999 -0.0026423 0.12416
0.0040849 0.020569 0.12315
0.0040002 -0.017526001 0.11018
0.035278998 -0.019858001 0.096372999
0.033732999 -0.021469001 0.097226001
0.12476 -0.022015 0.082915999
0.10001 0.025062 0.072485998
0.10049 0.023917001 0.071005002
0.04961 -0.0068478999 0.088142
0.047777001 -0.0069805998 0.087835997
0.079421997 -0.0067952001 0.067253999
0.089097999 0.0037668 0.10423
0.017337 0.0091402996 0.13441999
0.050246 0.017897001 0.076301999
0.050466999 0.018057 0.076392002
0.092854001 0.018361 0.081926003
0.056573998 0.0013351 0.12313
-0.029503001 0.0048238002 0.11595
0.011897 0.015587 0.10517
0.013269 -0.016084 0.10671
0.11854 -0.018447001 0.085196003
0.11879 -0.018648 0.085093997
0.032586999 0.010719 0.084090002
0.0082154004 -0.014213 0.11333
0.0091819996 -0.016896 0.11265
0.061485 -0.019616 0.086548999
0.11294 0.033539999 0.018937999
0.089445002 0.034301002 0.052336998
-0.016253 -0.010037 0.13271999
0.034260999 0.0011094999 0.11974
0.0027616001 -0.0083259 0.12443
0.01091 -0.0074878 0.10826
0.010164 -0.0054834001 0.10731
0.00068165001 0.019831 0.12589
0.12199 0.017572001 0.098715998
0.071667001 0.0096955998 0.11283
0.075759001 0.0084654 0.10295
-0.045108002 -0.0021824001 0.13956
0.10106 -0.030869 0.050701998
-0.01518 0.011457 0.14619
-0.0017283 0.015056 0.10431
0.1552 0.0016635 0.11611
0.15553001 0.0023129999 0.11644
0.014733 -0.011433 0.10766
0.017235 -0.0094266003 0.10365
0.10644 -0.01842 0.079943001
-0.045460999 0.010866 0.13756
-0.044686001 0.010586 0.13784
0.096340999 0.018780001 0.069309004
0.11227 -0.0043235002 0.099573001
0.11295 -0.0038735999 0.099762
0.078667 0.015873 0.091031
0.080829002 0.018066 0.090557002
0.079322003 0.019055 0.089569002
0.001663 -0.018119 0.11859
0.1136 0.013905 0.039003
0.15676001 -0.0039722002 0.1129
0.048363999 -0.0038002001 0.084949002
0.071658 -0.0060975002 0.074888997
0.070955999 -0.0061277999 0.073348001
0.13696 0.0025315001 0.11069
0.13699 0.0029770001 0.10676
0.13639 0.0027226999 0.10948
0.11523 -0.037983999 0.068102002
0.067434996 0.0036071001 0.10235
0.11234 -0.0025750999 0.094687998
0.11334 -0.0019095 0.095591001
0.030389 0.00081191998 0.12245
0.11918 -0.00042651 0.10581
0.0012746 0.0099123996 0.14169
0.032265 0.0015673999 0.11961
0.054398 -0.012028 0.10312
0.092868999 -0.016047001 0.088458002
0.11389 0.0032631999 0.026968
0.1371 -0.036104001 0.069573
0.084995002 -0.015911 0.093668997
0.083950996 -0.013845 0.09296
0.11529 0.046211999 0.039182
-0.033082001 0.0070428001 0.15657
0.083279997 -0.0096252998 0.069527999
0.11952 0.018966001 0.10239
0.11963 0.01969 0.10147
0.026497999 0.010319 0.12755001
0.11208 0.027484 0.026412001
0.075635999 0.015395 0.073169999
0.060511999 -0.0022950999 0.084971003
0.091444001 -0.024323 0.060143001
0.089914002 -0.025122 0.061172001
0.11348 0.0063699 0.029324001
0.036988001 0.0064249001 0.11822
0.036003999 0.0034453 0.12096
0.11963 -0.017386001 0.084624
0.11095 0.033059999 0.026504001
0.11934 0.0065187002 0.1096
0.095986001 0.033007 0.054945
-0.016481001 0.0091206999 0.11651
0.11861 0.013061 0.028405
0.11892 0.014074 0.029464999
0.11921 -0.049254 0.056139
0.064684004 0.0097695999 0.079993002
0.15859 0.0013331 0.11652
0.045683 0.021576 0.10683
0.069231004 0.0015615 0.072039999
0.11598 0.017763 0.040511999
0.098020002 0.0041764001 0.049727
0.041482002 0.020896999 0.079953998
0.11464 0.044225 0.026446
0.14296 0.016948 0.081281997
0.12438 0.041117001 0.043003999
0.1233 0.042105 0.043223001
0.12455 0.042206001 0.042270999
0.0071816002 0.012242 0.13009
-0.039841 0.01787 0.13587999
-0.041198999 0.019889999 0.13506
0.033376001 -0.0060061002 0.11524
0.033760998 -0.0057176999 0.117
-0.0026155999 0.0017615 0.11269
0.036889002 0.026047001 0.093928002
0.037206002 0.026223 0.094163999
0.10687 0.023476999 0.077380002
0.12921 -0.021457 0.083355002
0.10395 0.035147998 0.060180001
-0.032614 0.0060613998 0.15984
-0.033092 0.0066124001 0.15975
-0.031048 0.0022592 0.12462
-0.00035551001 0.021591 0.11414
0.13967 0.013987 0.10776
0.14117 0.014031 0.10904
0.13993999 0.015457 0.11027
0.13699999 -0.039749999 0.075680003
0.095615998 0.020178 0.077762
0.056430999 0.019204 0.10457
-0.021182001 -0.015122 0.12431
0.054365002 -0.010464 0.091297999
0.0082689999 -0.0018348 0.10567
0.04611 0.016109001 0.12166
0.12582 0.031399 0.058688
0.034605 0.0098305997 0.1187
0.033622 0.0092455 0.11675
0.091770001 0.040119998 0.051472999
0.049463 -0.017275 0.083723001
-0.021934999 -0.013745 0.12329
-0.0045996001 0.016796 0.10701
-0.0039710999 0.017314 0.10715
-0.025129 -0.0089178998 0.13131
-0.026907001 -0.0088517005 0.13086
0.10646 -0.025508 0.050593998
0.040320002 -0.021654001 0.10308
0.071687996 0.010355 0.080015004
-0.020062 -0.0021096 0.14715999
0.095726997 -0.037168998 0.065998003
0.095586002 -0.039218999 0.065021999
0.012247 0.010682 0.10193
0.037191 -0.020594001 0.10466
0.1027 -0.014707 0.050441999
0.0084816003 -0.017159 0.11347
0.12479 0.0020534999 0.10959
-0.011656 0.0024335 0.11302
-0.011862 0.0028235 0.11438
0.056232002 0.0035416 0.12662999
0.057285 0.0038705 0.12594
0.10526 -0.039041001 0.057052001
0.10624 -0.040121 0.058931001
0.051143002 0.016183 0.075855002
0.053500999 0.017287999 0.077252001
0.087070003 0.020160001 0.072269
0.086978003 0.019933 0.071717001
0.098463997 -0.001199 0.051024001
0.078960001 0.013625 0.094811998
0.079208001 0.015057 0.095550999
0.048845001 0.0055479002 0.083431996
0.1005 0.018828999 0.082482003
0.0037746001 0.0060020001 0.14232001
0.0039829002 0.0081893001 0.14154001
0.0030548 0.0075466 0.14324
0.097948998 0.00042945999 0.051548999
0.10892 -0.033851001 0.047961
0.10873 -0.033891 0.048625
0.14494 -0.0042050001 0.099005997
0.071598001 -0.0058861002 0.069880001
0.11597 0.01544 0.10428
0.13454001 -0.037176002 0.071088001
0.043471001 0.0070076999 0.086643003
-0.031413998 0.0040871999 0.12454
0.0026670001 0.020505 0.10937
0.0038497001 0.018860999 0.10745
0.014512 0.014792 0.11895
0.12235 0.01842 0.089737996
0.10895 -0.042445 0.057240002
0.10684 -0.044153001 0.058467001
0.10821 -0.044031002 0.059841
0.11096 0.034313001 0.022071
0.042847998 0.020912001 0.11389
0.12266 0.044225998 0.041497
0.12386 0.044725999 0.040683001
0.12294 0.046284001 0.042458002
0.11621 0.011716 0.10467
0.067617998 -0.015119 0.095793001
0.067046002 -0.015173 0.095504999
0.067952998 0.0043625999 0.11317
0.15595999 0.023475001 0.10605
0.031348001 0.012627 0.099215999
0.094585001 -0.013661 0.056093998
-0.029717 0.0025140999 0.12493
0.096704997 0.021775 0.073945001
-0.025681 0.014467 0.13766
-0.02616 0.013495 0.13771001
0.050902002 0.024181999 0.087095998
0.13928001 -0.0059973998 0.083641
0.061457001 -0.0047260001 0.10578
-0.031941 0.00232 0.1266
0.020841001 0.0070104999 0.10277
0.021639001 0.0056916 0.10332
0.12898 0.032334 0.071098
0.13056 0.031615999 0.069592997
0.12959 0.032395002 0.071309
0.10925 -0.030763 0.050023001
0.10913 -0.031833 0.049764
-0.046213999 0.0044793002 0.13534001
-0.00032721 -0.0058725001 0.11154
0.0021009 -0.0029337001 0.11208
0.13352001 0.0046179998 0.1109
0.088738002 0.013333 0.10028
0.11313 0.032820001 0.050542999
0.052740999 -0.0079102004 0.11408
0.068735003 -0.00022939 0.10461
0.068095997 -0.0012891 0.10588
-0.0012433 -0.014328 0.11154
0.094841003 0.018926 0.067869999
0.026736001 0.0055979998 0.095059998
0.097870998 -0.033780001 0.070873
0.081580997 0.0061642998 0.064668
-0.028704001 0.00029354001 0.15238
0.14740001 -0.017353 0.090677001
0.11034 -0.042323999 0.046549
0.035820998 -0.0021297999 0.11609
0.03503 -0.0025793 0.11759
0.087452002 -0.016402001 0.092524
0.033220999 0.021493999 0.097860001
0.13104001 -0.014215 0.09206
0.13228001 -0.015603 0.092145003
0.021892 -0.0038689 0.12044
0.020852 -0.0032794001 0.12053
0.048131999 0.02217 0.079291999
0.13124999 -0.020914 0.087576002
0.10703 -0.042922001 0.054572999
0.093840003 0.0050547002 0.099027
0.012506 -0.0069869002 0.1161
0.13186 0.0141 0.11218
0.13173001 0.01513 0.11237
-0.016403001 -0.0086879004 0.1181
0.14071 -0.029725 0.084421001
0.11862 -0.051235002 0.057367999
-0.00697 0.0080944998 0.13559
-0.0074423999 -0.0081628002 0.11327
0.098169997 0.0092658997 0.049548
0.098224998 0.0087249 0.050229002
0.14162 0.0022656999 0.10583
0.10526 0.028239001 0.068682
0.029603999 0.020152999 0.087273002
0.068746001 -0.0093080001 0.075267002
0.012784 0.016001999 0.10683
0.012013 0.016605999 0.1059
0.11406 -0.037175 0.065627001
0.074887 0.018879 0.079126
-0.00089993997 0.017263001 0.10926
0.0063733999 0.0055768001 0.10655
0.075034998 0.012276 0.093037002
0.1313 -0.040081002 0.060479999
-0.044020999 0.0045793001 0.13773
0.079530001 0.0086211003 0.098916002
-0.024029 0.017039999 0.11799
0.074409999 0.020955 0.078226998
0.11565 0.01515 0.10457
0.11562 0.013017 0.10382
0.073789001 0.0069348998 0.11652
0.12952 -0.048755001 0.061106998
0.15955 -0.0039809002 0.11323
0.087095 0.019041 0.072714001
0.10099 0.040465999 0.053250998
-0.0047682999 -0.015761999 0.1159
0.10379 -0.047332998 0.066128001
-0.047249999 0.012059 0.12886
0.022782 0.012049 0.10145
0.054499 -0.01216 0.10849
0.045513 0.015156 0.12441
0.045239002 0.013745 0.12452
0.057870999 0.0077613001 0.12498
-0.0065589999 -0.0023610999 0.13428
-0.0089028003 0.011619 0.12849
-0.039097 0.01392 0.14752001
-0.038026001 0.013005 0.14545999
0.096159004 0.033967 0.057025999
0.090245001 -0.0081417002 0.096175
0.076297998 0.012281 0.10782
-0.037416998 0.020338999 0.13323
0.0062941001 -0.010005 0.12122
-0.029359 0.0067848 0.12185
-0.039344002 0.0057887998 0.13
-0.040183999 0.0062882002 0.13098
-0.039928 0.0065246001 0.13219
-0.029255001 0.016468 0.14031
-0.029289 0.016651999 0.14198001
0.087785996 0.0084301997 0.10366
0.12068 -0.021148 0.035355002
0.035264999 -0.0115 0.088258997
0.036338001 -0.011924 0.088372998
0.051844001 0.01695 0.089711003
0.067775004 -0.0086204996 0.084533997
0.11819 -0.015576 0.027231
0.1175 -0.015773 0.026412001
0.10762 -0.037957001 0.047456998
0.063766003 0.0048602 0.10367
-0.0034969 0.012373 0.13271999
0.053259 0.015308 0.12396
0.053444002 0.016128 0.12455
0.052156001 0.014581 0.12394
0.042684 -0.018704999 0.1039
0.031461999 0.020759 0.084311999
0.030959999 0.020295 0.083617002
0.059746999 0.017357999 0.092508003
0.069486 0.013241 0.083152004
0.093873002 -0.00087843998 0.057503
0.084716 -0.016194001 0.078068003
0.063739002 0.011132 0.11138
0.057952002 -0.0059296 0.10441
0.056531999 -0.021290001 0.082910001
-0.013816 0.013529 0.13533001
-0.0138 0.012042 0.13623001
-0.013856 0.0129 0.13516
0.10473 -0.0058523999 0.043751001
0.1058 -0.0082889004 0.043039002
0.040571999 -0.011306 0.086820997
0.031854998 0.024946 0.092880003
0.032076001 0.025767 0.091990001
0.088192999 0.0096902996 0.063418001
-0.011702 0.011626 0.1446
0.11312 -0.014224 0.033884
0.11276 -0.015144 0.033394001
0.078368999 0.0090154996 0.068729997
0.079232 0.0079068998 0.069002002
0.12335 -0.021149 0.081917003
0.11386 0.0076434002 0.02541
0.11266 0.0096522002 0.027411999
0.13623001 -0.039126001 0.074735001
0.13689999 -0.0033698999 0.1005
0.13683 -0.0033024999 0.10047
0.11182 -0.0076847002 0.037919998
0.13446 -0.029519999 0.082765996
0.13488001 -0.030487999 0.082078002
-0.039960999 0.00032250001 0.12916
0.082875997 0.0010613 0.099394999
0.073448002 -0.015184 0.078576997
0.056680001 0.0085472995 0.076976001
0.063358001 -0.0039161998 0.1083
0.062659003 -0.0039243 0.10784
0.11869 -0.018665999 0.081363
0.045579001 0.0093852999 0.12521
0.085818999 -0.0080594998 0.065132998
-0.039432999 0.012555 0.14575
-0.012415 0.0068321 0.14891
0.10702 -0.030432001 0.074566998
0.028636999 0.013953 0.11256
0.084413998 -0.01677 0.078419
0.081981003 -0.016333999 0.079958998
-0.00054356997 -0.0046542999 0.11151
-0.0023181001 0.0098598003 0.13620999
-0.0028581 0.011252 0.13675
0.11945 0.019816 0.036943
-0.0050460999 -0.0083777001 0.12899999
0.052947 0.011733 0.085761003
-0.030743999 -0.0011599 0.12465
-0.032485001 7.3133e-05 0.12531
-0.0094280001 0.012828 0.12432
0.12024 0.040888 0.045125
0.052841999 0.018769 0.074626997
0.032150999 0.015116 0.10336
