# .PCD v0.7 - Point Cloud Data file format
VERSION 0.7
FIELDS x y z
SIZE 4 4 4
TYPE F F F
COUNT 1 1 1
WIDTH 1495
HEIGHT 1
VIEWPOINT 0 0 0 1 0 0 0
POINTS 1495
DATA ascii
0.044511002 0.049245998 0.31303999
0.045175001 0.048840001 0.31294999
0.068214998 0.033229999 0.30954999
0.065392002 0.034373 0.31162
0.047042999 0.047814 0.31399
0.064015001 0.036485001 0.31242001
0.047176 0.046579 0.31487
0.049681999 0.045198001 0.31547001
0.064075001 0.035452001 0.31336999
0.053734999 0.042328998 0.32029
0.050239999 0.044181999 0.32451001
0.049548 0.044287998 0.32615
0.066662997 0.032765001 0.32530001
0.048586 0.044284001 0.33050999
0.067829996 0.031633001 0.32765001
0.068433002 0.031447999 0.32903001
0.047821999 0.043595001 0.33487001
0.047222 0.044677 0.33770999
0.061693002 0.033764001 0.34746
0.047008999 0.042885002 0.35260001
0.026044 0.076673001 0.18838
0.029183 0.073826 0.18892001
0.0228 0.077800997 0.19041
0.077877 0.042737 0.18303999
0.077037998 0.041981999 0.18306001
0.031334002 0.072742999 0.19117001
0.081214003 0.039701998 0.18334
0.031349 0.072411999 0.19244
0.024343999 0.077344999 0.19318999
0.083373003 0.038325001 0.18534
0.025364 0.076451004 0.19465999
0.031826001 0.071994998 0.19400001
0.075962998 0.042514 0.18906
0.075814001 0.042996999 0.1899
0.084873997 0.036738999 0.18895
0.024087001 0.077087998 0.19809
0.032747 0.070697002 0.19721
0.047134001 0.064741001 0.19645
0.046491999 0.063447997 0.19618
0.045676999 0.065581001 0.19637001
0.045649 0.061689001 0.19597
0.036417998 0.069316998 0.1974
0.075290002 0.044654001 0.19164
0.073866002 0.044939999 0.19152001
0.068253003 0.049203999 0.19276001
0.068031996 0.051008999 0.19283
0.059792001 0.053463001 0.19382
0.049070001 0.062038001 0.19554999
0.047123998 0.062244002 0.19588
0.044052999 0.063153997 0.19573
0.045407999 0.063662 0.19609
0.045963001 0.062772997 0.19594
0.08602 0.035672002 0.19134
0.022543 0.077459998 0.20374
0.022504 0.077288002 0.20535
0.086733997 0.034736 0.19521999
0.024876 0.075425997 0.20892
0.085253 0.034722999 0.19950999
0.083466001 0.035886999 0.20163
0.026691001 0.073193997 0.21277
0.025886999 0.073693 0.21461999
0.026187999 0.073449001 0.21634001
0.052166 0.055713002 0.21275
0.036123 0.067129001 0.21507999
0.033615999 0.068314999 0.21641999
0.034079999 0.067475997 0.21611001
0.058086999 0.051468998 0.21197
0.048815999 0.057654001 0.21359999
0.030134 0.070830002 0.21646
0.028128 0.071694002 0.21669
0.066702999 0.046587002 0.21135999
0.065742999 0.046693999 0.21092001
0.063493997 0.04854 0.21119
0.026727 0.072800003 0.21707
0.030685 0.070017003 0.21723001
0.066822 0.046351001 0.21269
0.030819001 0.069746003 0.21795
0.034062002 0.067116998 0.21753
0.079181001 0.037533 0.21236999
0.032786999 0.068572998 0.21968
0.032094002 0.068510003 0.22062001
0.066610999 0.045828 0.21562
0.068731003 0.044385999 0.21832
0.054821 0.052443001 0.22763
0.056841999 0.050646 0.22751001
0.057112001 0.050409999 0.22781
0.058311 0.049729001 0.22806001
0.059519 0.049245998 0.22844
0.052556001 0.052983999 0.23069
0.051934998 0.054037001 0.23541
0.053851001 0.051922999 0.23616
0.054729 0.050613999 0.23609
0.050264999 0.054193001 0.23839
0.045331001 0.057429001 0.23807999
0.044893 0.057275999 0.23801
0.052910998 0.052820001 0.23826
0.055798002 0.049743999 0.23773
0.057263002 0.049424 0.23703
0.05638 0.050161999 0.23622
0.056467999 0.049539998 0.23882
0.045821998 0.057043999 0.24043
0.049036998 0.054559998 0.23975
0.062517002 0.045997001 0.23836
0.051605001 0.053174 0.24247999
0.045279 0.056848001 0.2437
0.055317 0.048795 0.24417999
0.056752 0.048831001 0.24442001
0.056641001 0.048618 0.24575999
0.051353 0.052869 0.24699999
0.055475999 0.048788 0.24624
0.055631001 0.04941 0.24717
0.054352999 0.049690999 0.24761
0.054809999 0.049681 0.24844
0.050903998 0.052370001 0.25020999
0.055527002 0.049123 0.24902999
0.072022997 0.037737001 0.24803001
0.072659001 0.037643999 0.24917001
0.064199001 0.043308999 0.24913
0.064053997 0.043267 0.25027001
0.056102 0.048836999 0.25202
0.053537998 0.049621001 0.25374001
0.047846999 0.053385999 0.25426
0.048087001 0.053955 0.25286001
0.053766001 0.05006 0.255
0.046794999 0.054226998 0.25768
0.071411997 0.037402999 0.25369
0.071252003 0.037372999 0.25476
0.051493 0.050896998 0.25828001
0.049387999 0.052629001 0.25887001
0.049477 0.052981 0.25756001
0.045793001 0.054657999 0.25926
0.074078001 0.036194 0.25466001
0.065007001 0.042158999 0.25593001
0.045299999 0.055064 0.26045001
0.074490003 0.036028001 0.25582999
0.075094 0.035170998 0.25628
0.072904997 0.036477 0.25599
0.071878001 0.036885999 0.25624001
0.070362002 0.037661999 0.25663
0.070381999 0.037583999 0.25826001
0.044068001 0.055475999 0.26225999
0.075423002 0.034906998 0.25748
0.043366998 0.055684 0.26247999
0.071354002 0.036846999 0.25916001
0.066124998 0.041017 0.25848001
0.069683999 0.038853001 0.25997001
0.067217 0.03985 0.25951001
0.067441002 0.040557001 0.259
0.043375 0.056194 0.26383999
0.070988998 0.037384 0.25962999
0.041269001 0.056448001 0.26594999
0.042210001 0.056421001 0.26557001
0.076279998 0.033365998 0.25966001
0.070450999 0.037696 0.26074001
0.040916 0.056953002 0.26725
0.070283003 0.037202001 0.26163
0.069881 0.037806001 0.26264
0.076871 0.033036001 0.26291999
0.040036 0.057139002 0.26754001
0.076609999 0.032983001 0.26161
0.038741 0.057732001 0.27023
0.077725999 0.031955 0.26457
0.077628002 0.031776 0.26469001
0.037730001 0.058240999 0.27241999
0.037783999 0.058811001 0.27318001
0.071295001 0.036316 0.26883999
0.077046998 0.031934999 0.26877999
0.076935999 0.031920999 0.27004999
0.034343999 0.060470998 0.27680001
0.033417001 0.060672998 0.27733999
0.075522996 0.033633001 0.27195999
0.034391001 0.060871001 0.27829999
0.034435999 0.060121998 0.27961001
0.071392 0.035698 0.27511001
0.071024001 0.036485001 0.27575001
0.034949001 0.059482999 0.28207999
0.071121 0.035772 0.27700999
0.033677999 0.059294999 0.28457001
0.033930998 0.059822001 0.28577
0.072384 0.034462001 0.28095999
0.076396003 0.03081 0.28080001
0.076895997 0.030281 0.28084001
0.075259998 0.031622998 0.28095999
0.075522996 0.031528998 0.28167999
0.074708 0.031823002 0.28303
0.075258002 0.031107999 0.28301001
0.077735998 0.02997 0.28255001
0.076729 0.030303 0.28310001
0.073811002 0.031590998 0.28501001
0.075713001 0.031004 0.28461999
0.074355997 0.031656001 0.28492999
0.033397999 0.059989002 0.28962001
0.073367998 0.032818999 0.28540999
0.075574003 0.030902 0.28582001
0.034007002 0.059535 0.29280001
0.033298001 0.058889002 0.29367
0.033792 0.058876999 0.29403999
0.074483998 0.030990001 0.28916001
0.075328 0.030755 0.28924999
0.071998999 0.032398999 0.29357001
0.038449999 0.054825 0.30191001
0.068710998 0.034581002 0.30050001
0.068563998 0.034341998 0.30296999
0.069371998 0.033707999 0.30439001
0.069224998 0.033069 0.30568001
0.041533001 0.051516 0.30945
0.043352 0.050861999 0.31132001
0.067175999 0.034007002 0.31018001
0.045733999 0.048411999 0.31352001
0.065407999 0.035608001 0.31103
0.062581003 0.037276 0.31163001
0.061627001 0.037801001 0.31118
0.060283002 0.038440999 0.31284001
0.055798002 0.041813001 0.31378999
0.064947002 0.035629999 0.31229001
0.064617001 0.034972999 0.31325999
0.060070999 0.037857998 0.31358001
0.048551001 0.045701001 0.31579
0.047446001 0.045897 0.3195
0.052207001 0.042874999 0.32156
0.064251997 0.034743998 0.32269999
0.050719 0.044647001 0.32584
0.065604001 0.033833999 0.32394999
0.067245997 0.032696001 0.32633001
0.049316 0.044408001 0.32784
0.048349999 0.044326 0.33361
0.068664998 0.030947 0.33028999
0.048441 0.044317 0.33511999
0.046043999 0.045354001 0.33959001
0.067870997 0.030443 0.33621001
0.067079 0.031153001 0.33846
0.044983 0.045366999 0.34141999
0.045389999 0.045318998 0.34437999
0.064341001 0.032834001 0.34259
0.063574001 0.032701999 0.34391999
0.045554001 0.044801001 0.34726
0.060031999 0.034306001 0.35045999
0.058701001 0.034906 0.35143
0.056954 0.035707001 0.35337999
0.027319999 0.076008998 0.18849
0.023437999 0.078345001 0.19075
0.029925 0.073657997 0.1895
0.080007002 0.040474001 0.18287
0.076777004 0.042927001 0.18404999
0.083704002 0.038075998 0.18423
0.076676004 0.042674001 0.18516999
0.024776001 0.076733001 0.19373
0.031693999 0.072229996 0.19320001
0.076398998 0.042405002 0.18684
0.082947001 0.038458999 0.18714
0.08326 0.037521999 0.18743999
0.032141 0.071359999 0.19504
0.024401 0.076742001 0.19678999
0.023243001 0.07756 0.1996
0.023352001 0.077173002 0.19856
0.075258002 0.042606 0.19132
0.033714 0.070188001 0.19746
0.050144002 0.058958001 0.19521999
0.051576 0.061616998 0.19562
0.051120002 0.059785999 0.19487999
0.050712999 0.062281001 0.19568001
0.037914 0.067189999 0.19695
0.060240999 0.056347001 0.19433001
0.059000999 0.056738999 0.19433001
0.059183002 0.057523001 0.19478001
0.057934001 0.054910999 0.1937
0.056382 0.054843001 0.19427
0.056124002 0.0579 0.19446
0.054754999 0.058428001 0.19493
0.056107 0.058998998 0.19509
0.054396 0.060029998 0.19501001
0.055321999 0.061209999 0.19507
0.053769 0.058577001 0.19508
0.049835 0.060334001 0.1953
0.049215999 0.059799001 0.19543
0.086741 0.035014 0.19425
0.023732999 0.075989999 0.20787001
0.086484998 0.035057999 0.19867
0.084288001 0.035599001 0.20100001
0.084214002 0.035301998 0.20509
0.084431998 0.034451 0.20704
0.036467001 0.066226996 0.21509001
0.064404003 0.047873002 0.21125001
0.049667001 0.057027001 0.21352001
0.047981001 0.058093999 0.21347
0.044596002 0.060853999 0.21425
0.039595 0.063988 0.21491
0.027679 0.072393 0.21672
0.081500001 0.036752999 0.20871
0.079705998 0.037314001 0.20938
0.062334001 0.049614001 0.21141
0.060442999 0.050039999 0.21162
0.042817999 0.061912999 0.21445
0.079994999 0.037452001 0.21058001
0.079847001 0.037326001 0.21162
0.031643 0.068770997 0.22066
0.077830002 0.038660999 0.21389
0.067658 0.045097999 0.21719
0.076605998 0.03915 0.21525
0.067390002 0.044735 0.21804
0.055881001 0.052168 0.22595
0.054754999 0.052942 0.22913
0.060729999 0.048243999 0.22979
0.053699002 0.052903 0.23222999
0.062197998 0.046886999 0.23382001
0.05232 0.053587001 0.23492
0.062104002 0.046500001 0.23496
0.055046 0.051476002 0.23452
0.056187 0.050503001 0.23477
0.057252999 0.050034001 0.2344
0.062456999 0.04634 0.23677
0.053424999 0.052186001 0.23695999
0.052536 0.05305 0.23928
0.046622999 0.056820001 0.23879001
0.058047999 0.049291998 0.23849
0.052138999 0.053118002 0.23975
0.051745001 0.053231999 0.24067
0.045944002 0.056403 0.24176
0.057943001 0.049061 0.24013001
0.046932001 0.056325 0.24176
0.063009001 0.045364998 0.24036001
0.062928997 0.045717001 0.23935001
0.056605 0.049617 0.24160001
0.050985001 0.052648999 0.24424
0.0517 0.053495001 0.24426
0.056972001 0.049254999 0.24336
0.047265001 0.055571999 0.2474
0.056938 0.048907001 0.24748001
0.064180002 0.044158 0.24643999
0.047561001 0.054198001 0.25038999
0.064094 0.043823998 0.24759001
0.056926999 0.048494 0.25029001
0.050903998 0.052508 0.25106001
0.047867998 0.053640999 0.25195
0.056256998 0.048046 0.25055999
0.054434001 0.049499001 0.25216001
0.073370002 0.037269998 0.24924999
0.073457003 0.036662001 0.25026
0.050432 0.052891001 0.25389001
0.048514001 0.053794999 0.25472
0.049984001 0.052987002 0.25569999
0.072866999 0.037165001 0.25229999
0.073368996 0.036963999 0.25183001
0.071709 0.037338 0.25279
0.073554002 0.036548998 0.25356999
0.052554 0.050439 0.25678
0.049596 0.052531999 0.25674999
0.051858 0.050765999 0.25687999
0.046688002 0.054497 0.25911999
0.074775003 0.035211001 0.25542
0.072866999 0.036616001 0.25514001
0.044094 0.055236999 0.26113999
0.074680001 0.035805002 0.25748
0.074366003 0.035464998 0.25931001
0.068611003 0.039494 0.25966001
0.076402001 0.034049999 0.25917
0.074772999 0.035264 0.26047999
0.043414 0.056251999 0.2651
0.042247999 0.056779001 0.26624
0.076089002 0.034370001 0.26148
0.076011002 0.034001999 0.26328999
0.039418001 0.057618 0.26944
0.076236002 0.033326998 0.26414001
0.077234 0.032411002 0.26561999
0.069839999 0.037625 0.26697001
0.038922999 0.058587 0.27193001
0.070079997 0.03717 0.26791999
0.076295003 0.03339 0.26888999
0.075791001 0.033135999 0.26795
0.075367004 0.034092002 0.26798999
0.036513999 0.059255999 0.27441999
0.035443 0.06047 0.27495
0.074247003 0.033886001 0.26844999
0.073717996 0.034910999 0.26894999
0.072701998 0.035565 0.26969999
0.034541 0.060672998 0.27533999
0.073969997 0.034384999 0.27173001
0.076482996 0.032894999 0.27142999
0.072913997 0.035123002 0.27247
0.034917001 0.059523001 0.28112999
0.072911002 0.033427 0.28127
0.076370999 0.030486001 0.28159001
0.073734 0.032844 0.28678
0.033849001 0.059728 0.29159001
0.072967 0.032673001 0.29098001
0.034410998 0.058122002 0.29721001
0.072370999 0.032783002 0.29229999
0.034887999 0.057477001 0.29789001
0.03579 0.056758001 0.29942
0.071925998 0.033020999 0.29427001
0.071584001 0.033289 0.29574999
0.036704998 0.056646999 0.29993999
0.070643999 0.033697002 0.29729
0.038755 0.054405998 0.30249
0.070189998 0.034003001 0.29791999
0.039616998 0.054274999 0.30298999
0.068962999 0.034021001 0.29993001
0.040109999 0.053043999 0.30612999
0.041390002 0.052616 0.30873001
0.042201001 0.051865 0.31009999
0.069825999 0.033369001 0.30713999
0.042408999 0.051231999 0.31104001
0.068937004 0.033611 0.30902001
0.066391997 0.034715001 0.31031999
0.060343999 0.038975999 0.31182
0.048455998 0.046716999 0.31477001
0.054692999 0.042755 0.31408
0.057100002 0.041127998 0.31417
0.053188998 0.043451998 0.31457999
0.058348 0.040100001 0.31380999
0.052044999 0.044144999 0.31489
0.059411 0.039312001 0.31424001
0.050767001 0.044612002 0.31540999
0.049729001 0.045917001 0.31483001
0.057147998 0.040307999 0.31940001
0.056315001 0.041087002 0.31924
0.054602001 0.041627001 0.31992
0.057909001 0.039324999 0.31977001
0.058644 0.039051 0.31996
0.053543001 0.042881999 0.32066
0.059808001 0.038449001 0.32016999
0.051743001 0.043485001 0.32205999
0.060941 0.037199002 0.32054999
0.06244 0.036740001 0.32117999
0.051077001 0.044112001 0.32278001
0.050308999 0.043740999 0.32335001
0.063336 0.035987999 0.3215
0.048151001 0.044190999 0.32962999
0.048466999 0.044201002 0.33199999
0.068783 0.030177999 0.33346
0.068773001 0.030391 0.33197999
0.048737999 0.044730999 0.33658001
0.047398001 0.044108 0.33691001
0.045329999 0.045272 0.34033
0.045357998 0.045409001 0.34277999
0.066564001 0.031244 0.33947
0.062797002 0.033463001 0.34503001
0.045621999 0.044950999 0.34880999
0.046751 0.043873999 0.35098001
0.048101999 0.042895 0.35247001
0.04981 0.041444 0.35376
0.056444 0.036775 0.35349
0.050638001 0.040638 0.35455
0.054434001 0.038141001 0.35453999
0.051897999 0.039597999 0.35475999
0.023851 0.078215003 0.18819
0.024285 0.077776998 0.18844
0.025351999 0.076518998 0.19636001
0.052648 0.059760001 0.19518
0.062148001 0.055385999 0.19402
0.060557 0.055169001 0.19389001
0.057264 0.056416001 0.19462
0.056738 0.058038998 0.19452
0.053103 0.061273001 0.19538
0.042989999 0.066408999 0.19651
0.041097 0.06876 0.19699
0.040008999 0.067166999 0.19678999
0.039133001 0.068788998 0.19708
0.022392999 0.077409998 0.2017
0.086603999 0.034639999 0.19695
0.026729999 0.073625997 0.21043
0.083203003 0.036582999 0.20334999
0.083058998 0.03669 0.20427001
0.084406003 0.035262 0.20574
0.054434001 0.054804999 0.21251
0.033769999 0.068829998 0.21568
0.083618999 0.035266001 0.20832001
0.059951 0.050905 0.21175
0.029097 0.071896002 0.21687999
0.082552001 0.035781998 0.20843001
0.041931 0.063249998 0.21475001
0.075814001 0.039669 0.21565001
0.055831999 0.052354001 0.22752
0.059459001 0.049525 0.22724999
0.058184002 0.050152 0.22691999
0.060281999 0.048847999 0.22824
0.056045 0.050946001 0.23317
0.055252001 0.051651999 0.23354
0.057670001 0.049121 0.23613
0.058862001 0.048689999 0.23556
0.058722999 0.049073 0.23676001
0.059055999 0.048937 0.23831999
0.046610001 0.056818001 0.24044
0.048397001 0.055741001 0.24000999
0.047665 0.055668999 0.24118
0.047024999 0.056242 0.24611001
0.051112 0.05294 0.24556001
0.058377001 0.048358001 0.24739
0.057424001 0.048338 0.25183001
0.048315998 0.053994 0.25295001
0.055048998 0.049685001 0.25345001
0.072847001 0.037283 0.25354001
0.047924001 0.054051001 0.25764999
0.050292 0.052129 0.25953001
0.076045997 0.034274001 0.26029
0.041209999 0.057337001 0.26853999
0.071900003 0.036488 0.26921001
0.076264001 0.032777999 0.27039
0.034999002 0.059780002 0.28363001
0.069562003 0.034194998 0.29910001
0.067667 0.034570001 0.30954
0.048345 0.047222 0.31400999
0.048971001 0.044651002 0.33046001
0.068875 0.030761 0.33452001
0.068553999 0.030825 0.33563
0.067805998 0.031045999 0.3378
0.065913998 0.031695001 0.34064001
0.061296999 0.034136999 0.34898001
0.060759 0.033987999 0.34981
0.083025999 0.040236 0.18353
0.083567999 0.038756002 0.18346
0.031805001 0.072618999 0.19243
0.074628003 0.043457001 0.19143
0.072678998 0.046436999 0.19185001
0.069577999 0.048937 0.19271
0.066197999 0.051925998 0.19358
0.044050999 0.065029003 0.19645
0.022918999 0.077886999 0.20218
0.02369 0.078321002 0.20236
0.024250999 0.075929999 0.20852999
0.024733 0.076399997 0.20851
0.084386997 0.035158999 0.20772
0.056518 0.053344999 0.21246
0.055420998 0.053867001 0.21231
0.050997999 0.057002001 0.21332
0.047143001 0.059709001 0.21386001
0.045490999 0.060814001 0.21405999
0.077609003 0.039285999 0.21450999
0.075066 0.040475 0.21652
0.072051004 0.042327002 0.21838
0.058092002 0.050995 0.22637001
0.054781999 0.052963998 0.23013
0.062043998 0.047332 0.23242
0.061693002 0.048009999 0.23138
0.057346001 0.050035 0.23282
0.056457002 0.051504999 0.23214
0.058676001 0.049578 0.23287
0.059294 0.048625998 0.23376
0.060109999 0.049005002 0.23265
0.060026001 0.048519 0.23428001
0.054409999 0.052000999 0.23524
0.053408001 0.052482001 0.23720001
0.050510999 0.055082001 0.23733
0.049635001 0.054885998 0.23896
0.059092 0.048741002 0.23999999
0.045283001 0.057739999 0.24349
0.057921 0.049038 0.24139
0.05799 0.048792999 0.24301
0.058208998 0.048870001 0.24435
0.057863999 0.048434 0.24590001
0.048025001 0.054641001 0.25049001
0.048261002 0.054372001 0.25185001
0.057353001 0.049029998 0.24914999
0.051243 0.053552002 0.25154999
0.054634001 0.049835 0.25487
0.048854001 0.054148 0.25587001
0.053769998 0.050487999 0.25652
0.052754 0.050992001 0.25815001
0.049683999 0.052808002 0.25990999
0.045393001 0.055364002 0.26168001
0.069758996 0.038683999 0.26124999
0.039903 0.058019001 0.27043
0.072437003 0.035797 0.27307999
0.035863999 0.059647001 0.28064999
0.035294998 0.059797 0.28009999
0.072696 0.034255002 0.28207999
0.073191002 0.033121999 0.2899
0.034922998 0.058325998 0.29754999
0.037914 0.056749001 0.30052
0.040459 0.054076001 0.30362001
0.041482002 0.054249998 0.30610999
0.069183998 0.034079999 0.30445001
0.046170998 0.048822999 0.31301999
0.059353001 0.039742999 0.31356001
0.059593 0.040013999 0.31125
0.051105998 0.045304 0.31457999
0.064046003 0.035537999 0.32225999
0.065323003 0.034630001 0.32350999
0.068348996 0.03207 0.32787001
0.068520002 0.033 0.32942
0.046330001 0.045618001 0.34105
0.061592001 0.033957001 0.34757999
0.046551 0.044323999 0.35029
0.059441 0.035296001 0.35097
0.056933999 0.036802001 0.35315001
0.025558 0.077244997 0.18859001
0.025893001 0.078891002 0.18832
0.078948997 0.042176999 0.18277
0.024312001 0.078845002 0.19246
0.025876001 0.076439001 0.19521999
0.076402999 0.044300001 0.18895
0.066133998 0.050330002 0.19306999
0.057766002 0.057691999 0.19433001
0.085844003 0.036277 0.19083001
0.023156 0.078116998 0.20432
0.085841998 0.036311001 0.19950999
0.033270001 0.069282003 0.21642999
0.032818001 0.070237003 0.21678001
0.066656001 0.046463002 0.21415
0.033105999 0.068925999 0.21867
0.057603002 0.051045001 0.23156001
0.058974002 0.050216999 0.23119999
0.060249999 0.048174001 0.23551001
0.059966002 0.04823 0.23664001
0.060304999 0.048177 0.23838
0.05926 0.048404999 0.24181999
0.047796998 0.056304 0.25069001
0.056938 0.048955001 0.25246
0.065610997 0.041949 0.25646999
0.051275 0.051619001 0.25928
0.045389999 0.056368999 0.26383001
0.044535998 0.055906001 0.26339999
0.043915998 0.056630999 0.26554999
0.075951003 0.034007002 0.27017
0.071277998 0.035838 0.27772999
0.035464 0.060454 0.28589001
0.036029 0.060253002 0.28388
0.072690003 0.034503002 0.29409999
0.043329 0.052313998 0.31029999
0.066901997 0.035264999 0.30985999
0.050043002 0.046310998 0.31375
0.051058002 0.045492999 0.31327
0.048275001 0.044902001 0.33822
0.048016999 0.045527998 0.33956999
0.045878001 0.045201998 0.34540999
0.064214997 0.033399999 0.34325999
0.064217001 0.034448002 0.34323999
0.062297001 0.034859002 0.34656
0.062712997 0.034770001 0.34584999
0.057406999 0.037806001 0.35273001
0.050691999 0.041409999 0.35372001
0.050232999 0.042181 0.35347
0.054134998 0.039685 0.35427999
0.026435001 0.077830002 0.18875
0.027992999 0.077063002 0.18841
0.024292 0.079474002 0.18942
0.078183003 0.043327 0.18275
0.031419002 0.074616998 0.18986
0.032081999 0.073757 0.19070999
0.081899002 0.040998001 0.18283001
0.025752001 0.077923998 0.19358
0.026155001 0.077382997 0.19444001
0.085311003 0.037664998 0.19
0.084494002 0.038720001 0.18905
0.037586 0.068071999 0.19741
0.024639999 0.077895999 0.19766
0.024367999 0.078271002 0.19927
0.075505003 0.043731 0.1912
0.058759 0.055578001 0.19422001
0.087095998 0.036049001 0.19238999
0.087227002 0.036428001 0.1937
0.023910001 0.077707998 0.20660999
0.085389003 0.037014 0.20017999
0.027305 0.074982002 0.21012001
0.083145998 0.037402999 0.20461001
0.083957002 0.037089001 0.20499
0.02696 0.074472003 0.21496999
0.057796001 0.053004 0.21225999
0.048037998 0.059645001 0.21389
0.033032998 0.069366999 0.21591
0.033177 0.070302002 0.21574999
0.027225001 0.074084997 0.21623001
0.067750998 0.047240999 0.21151
0.064358003 0.049681999 0.21145
0.062898003 0.050466999 0.21155
0.037884999 0.067400001 0.21546
0.027554 0.073813997 0.21693
0.031851999 0.071007997 0.21708
0.030680001 0.071685001 0.21659
0.032814 0.069981001 0.21868999
0.080554001 0.038022999 0.21193001
0.079985999 0.039016999 0.21235999
0.078685999 0.039641999 0.21363001
0.077917002 0.039859999 0.21441001
0.067754 0.046503 0.21549
0.060191002 0.049424998 0.23157001
0.060215998 0.049582001 0.22958
0.060789 0.048080001 0.23374
0.061512999 0.048186999 0.23244999
0.052395999 0.054106001 0.23441
0.061533999 0.047904 0.23538999
0.050708 0.055011 0.23579
0.061937001 0.047828998 0.2351
0.054492999 0.053431999 0.23672
0.054030001 0.053298 0.23724
0.061071001 0.047844999 0.23672999
0.049718998 0.055514999 0.2375
0.049902 0.056045 0.23846
0.048587002 0.056733999 0.23988
0.047759 0.057321001 0.24049
0.060529999 0.048064001 0.23988999
0.060245998 0.048303999 0.24055
0.052258 0.054115999 0.24118
0.058859002 0.048657 0.24247
0.052026 0.054234002 0.24566001
0.059673999 0.048399001 0.24437
0.058644 0.048142001 0.24691001
0.060196999 0.048223998 0.24564999
0.047727998 0.056458 0.24902999
0.047331002 0.056318998 0.24808
0.058773 0.048788998 0.249
0.065275997 0.044550002 0.24778999
0.057805002 0.048767 0.25338
0.059434 0.048177 0.25308001
0.065419003 0.044169001 0.25231999
0.050648998 0.054007001 0.25461999
0.053440001 0.051259 0.25839001
0.047754001 0.054536 0.25849
0.066565 0.042860001 0.25604001
0.052428 0.052235 0.26008001
0.046390001 0.055592 0.26231
0.069656 0.039701 0.26106
0.041182 0.057684001 0.26978999
0.040791001 0.058685001 0.27199
0.039863002 0.058286998 0.27175999
0.036389001 0.061225999 0.27524
0.035618 0.061221998 0.27792999
0.071526997 0.037625 0.27458999
0.034685999 0.060527999 0.28612
0.073132999 0.035452999 0.28264001
0.034387 0.060196001 0.29141
0.073807999 0.034187 0.28957999
0.036676001 0.057491001 0.29927999
0.036354002 0.058384001 0.29861
0.073069997 0.034451 0.29265001
0.037374001 0.057788 0.29945999
0.040013 0.055266999 0.30230001
0.070352003 0.035286002 0.29852
0.041014001 0.054149002 0.30452999
0.069173999 0.035902001 0.30039999
0.041514002 0.053534999 0.30763
0.042038001 0.053443 0.30882001
0.069728002 0.035204001 0.30474001
0.069741003 0.034703001 0.30476999
0.066762999 0.036201999 0.30961999
0.047945 0.049182002 0.31253999
0.059905 0.040619999 0.31051999
0.058736 0.041630998 0.31104001
0.058267999 0.041168999 0.31222999
0.058781002 0.040399 0.31195
0.065683 0.036729001 0.31095001
0.052622002 0.044856001 0.31417
0.067566 0.033797 0.32655999
0.049578 0.044932 0.33194
0.049876001 0.045095 0.33340999
0.069201 0.032669999 0.33085001
0.068860002 0.031583 0.33469999
0.068285003 0.032129001 0.33636001
0.065987997 0.033057999 0.34096
0.045898002 0.045214001 0.34672001
0.047183 0.045294002 0.34843001
0.062061001 0.035337999 0.34746999
0.047651 0.044663999 0.34957001
0.061469 0.035096999 0.34889001
0.059496 0.036392 0.35084
0.048845999 0.043301001 0.35225999
0.054837 0.038979001 0.35398999
0.052777 0.040502999 0.35427001
0.024584001 0.079324998 0.18872
0.030393999 0.075216003 0.18863
0.029531 0.076389998 0.18849
0.030741001 0.074819997 0.18914001
0.079301 0.042842999 0.18252
0.080757 0.042169999 0.18262
0.080908999 0.041388001 0.18279999
0.077549003 0.043901999 0.18272001
0.083701 0.039382 0.18333
0.032648999 0.073496997 0.19141001
0.077238999 0.044503 0.18406001
0.032650001 0.073307998 0.19284999
0.084482998 0.039218999 0.18457
0.083306 0.039358001 0.18554001
0.032986 0.072809003 0.19365001
0.026717 0.077436 0.19475
0.083359003 0.039177001 0.18726
0.026730999 0.077027 0.1957
0.026187001 0.077251002 0.19663
0.033404 0.072397001 0.19537
0.033629999 0.071933001 0.19631
0.034157999 0.071845002 0.19667999
0.075882003 0.043884002 0.19045
0.034495998 0.071382999 0.19756
0.036006998 0.070717998 0.19774
0.070587002 0.049107 0.19283
0.052777998 0.062960997 0.19558001
0.048218999 0.063063003 0.19598
0.024266999 0.078427002 0.20003
0.086378999 0.036412999 0.19179
0.024188999 0.078426003 0.20134
0.023716999 0.078161001 0.20512
0.023104999 0.077927001 0.20512
0.087416999 0.035946 0.19565
0.086843997 0.035969999 0.1969
0.086689003 0.036116 0.19828001
0.024467999 0.077030003 0.20778
0.025537999 0.076311998 0.20913
0.026296001 0.075322002 0.20964
0.084726997 0.036527 0.20051999
0.083902001 0.037096001 0.20115
0.083407998 0.038038 0.20300999
0.027988 0.074051999 0.21138
0.027744999 0.074178003 0.21303
0.02705 0.074473001 0.21402
0.084661998 0.036208 0.20589
0.084830001 0.036352001 0.20777
0.035220001 0.068581 0.2154
0.033948999 0.069493003 0.21569
0.084059998 0.036235999 0.20822001
0.058763001 0.052441999 0.21175
0.055615999 0.055197001 0.21266
0.053443 0.056712002 0.21288
0.052402001 0.056963999 0.21299
0.048714001 0.059634 0.21355
0.047279 0.060865998 0.21407001
0.029324999 0.072729997 0.21690001
0.028006 0.073748998 0.21727
0.082222998 0.037981998 0.20881
0.083656996 0.037110001 0.20863
0.066478997 0.047904 0.2113
0.061471 0.051525 0.21177
0.059199002 0.052863002 0.21187
0.043421999 0.062972002 0.21462999
0.081215002 0.038458999 0.20947
0.031757999 0.070754997 0.21871001
0.068249002 0.046829998 0.21250001
0.032581002 0.069789 0.22002
0.032115001 0.070197001 0.21969999
0.067759998 0.046911001 0.21439999
0.076945998 0.040339001 0.21506
0.069032997 0.045710001 0.21717
0.068429001 0.045781001 0.21635
0.075534001 0.041491002 0.21659
0.069338001 0.045049999 0.21815
0.074147999 0.042194001 0.21714
0.073054001 0.043012001 0.21777999
0.071804002 0.043618999 0.21811
0.070435002 0.044583 0.21834999
0.057604 0.052400999 0.22589
0.058584001 0.051970001 0.22592001
0.056874 0.052347001 0.22645
0.058997001 0.051403999 0.2272
0.056669001 0.052629001 0.2278
0.060238998 0.050538 0.22739001
0.060369 0.049849 0.22809
0.060842998 0.048960999 0.22872999
0.056715999 0.053141002 0.22904
0.055622999 0.052871 0.22923
0.061190002 0.048930001 0.22965001
0.055503 0.053160001 0.23038
0.061147999 0.04874 0.23108
0.055431999 0.052965999 0.23181
0.059073001 0.049956001 0.23061
0.058699001 0.050985999 0.22988001
0.057619002 0.051562 0.23009001
0.056696001 0.052451 0.23038
0.054384001 0.053746998 0.23238
0.056405999 0.052347999 0.23148
0.060469002 0.049252 0.23101
0.062197 0.048191998 0.23158
0.053091001 0.054386999 0.23346999
0.062784001 0.047821999 0.23271
0.055302002 0.053084001 0.23331
0.052209001 0.055289999 0.23461001
0.062723003 0.047704998 0.23401999
0.061905 0.048154 0.23412
0.055255 0.052974999 0.23475
0.052111 0.055107001 0.23495001
0.050861001 0.055527002 0.23562001
0.051316001 0.05528 0.23447999
0.051100001 0.054896001 0.23468
0.054761998 0.053302001 0.23511
0.062863 0.047598999 0.23503
0.051052 0.055852 0.23698001
0.050223999 0.056035999 0.23729999
0.061774999 0.047658 0.23628999
0.054046001 0.053649999 0.23829
0.047205001 0.057728998 0.23965
0.046824001 0.058132 0.23942
0.053326 0.053968001 0.23928
0.049091 0.057038002 0.23912001
0.061696 0.047651 0.23848
0.052891001 0.053822 0.23946001
0.046337999 0.058194 0.24087
0.064372003 0.046516001 0.23927
0.047770001 0.057195999 0.24183001
0.046243001 0.058279999 0.24209
0.061611999 0.047378998 0.23959
0.048037 0.056844 0.24109
0.045614999 0.058226999 0.24251001
0.064318001 0.046346001 0.24106
0.06092 0.047945999 0.24026
0.045821 0.058552001 0.24349999
0.051823001 0.054373 0.24191999
0.060743 0.048089001 0.24157
0.052074999 0.054382 0.24316999
0.045906998 0.058256 0.24518
0.060070999 0.048503 0.24282999
0.064370997 0.04614 0.24216001
0.051955 0.054274999 0.24434
0.046353001 0.057438999 0.24478
0.046794999 0.057231002 0.24643999
0.047095001 0.057117999 0.24786
0.051713999 0.054279 0.24699999
0.051282 0.054012001 0.24852
0.060148999 0.047842 0.24695
0.065073997 0.045306001 0.24651
0.064966999 0.045350999 0.24501
0.060148001 0.047883 0.24872001
0.057746999 0.049063001 0.24906
0.051054001 0.053691 0.25018999
0.058247998 0.048960999 0.25042
0.065165997 0.044516001 0.24928001
0.059190001 0.048717 0.25145999
0.048179999 0.055870999 0.252
0.048491001 0.055542 0.25301
0.065380998 0.044356 0.25055
0.057975002 0.048315998 0.25172001
0.050965998 0.053888001 0.25294
0.048799999 0.055194002 0.25466001
0.056676999 0.049210001 0.25325999
0.048935 0.054462001 0.25464001
0.050152998 0.053752001 0.25602001
0.049539998 0.054556999 0.25626001
0.055442002 0.049513001 0.25525999
0.065608002 0.043635 0.25365001
0.065250002 0.042978 0.25431001
0.050156999 0.054053999 0.25727999
0.048898 0.05446 0.25749999
0.055601999 0.049924001 0.25633001
0.066650003 0.043579001 0.25501001
0.054377001 0.050411001 0.25712001
0.04843 0.054566 0.25911
0.04992 0.053683002 0.25870001
0.047704 0.054568 0.25940999
0.047692999 0.055011 0.26051
0.046806999 0.054685 0.25997999
0.050921001 0.052313 0.26076999
0.050014999 0.053489 0.26036999
0.051718 0.052625 0.26131999
0.046641 0.055466998 0.26143
0.068037003 0.041390002 0.25878
0.068695001 0.041088998 0.25949001
0.069081999 0.040573001 0.26014999
0.069564 0.040041 0.26146999
0.069619998 0.039919 0.26293001
0.043047 0.057172999 0.26771
0.069908999 0.039227001 0.26438001
0.042970002 0.057681002 0.26887
0.042041998 0.057661001 0.26862001
0.070049003 0.039168999 0.26521
0.042125002 0.057819001 0.26984999
0.069776997 0.039767001 0.26587
0.069666997 0.039142001 0.26728001
0.040913999 0.057946 0.27079001
0.069652997 0.039285999 0.2683
0.040011998 0.058944002 0.27324
0.071004003 0.038396999 0.2685
0.038895 0.059285 0.27362001
0.071497001 0.037675001 0.26876
0.075291999 0.035041999 0.26887
0.074389003 0.036026001 0.26863
0.075000003 0.036175001 0.26901001
0.038128 0.060054999 0.27430999
0.037305001 0.060720999 0.27462
0.072420001 0.037593 0.26989001
0.073374003 0.036552999 0.26953
0.075493999 0.034474999 0.27050999
0.036157999 0.061491001 0.27664
0.035615001 0.060915999 0.27728999
0.075475998 0.034798 0.27160001
0.073366001 0.036015 0.27265
0.036694001 0.061416 0.27790001
0.074607998 0.035626002 0.27193999
0.072433002 0.036727998 0.27283999
0.072180003 0.037073001 0.27412
0.070990004 0.037103001 0.2753
0.036628 0.059950002 0.28101999
0.03669 0.060354002 0.27947
0.071099997 0.037307002 0.27699
0.036764 0.060582999 0.2823
0.071530998 0.036662001 0.27838001
0.035946999 0.060316999 0.28318
0.071973003 0.035951 0.27981001
0.072609 0.036024 0.28134
0.034589 0.060591999 0.28742
0.035048999 0.060635999 0.28962001
0.073206998 0.034272999 0.28435999
0.073632002 0.03537 0.28485
0.073492996 0.033994 0.28562
0.073434003 0.034086 0.28679001
0.034488998 0.059620999 0.29317001
0.035084002 0.060033001 0.29433
0.035486002 0.059822999 0.29547
0.036095001 0.059160002 0.29732999
0.038589999 0.056370001 0.30109999
0.071341999 0.035068002 0.29701
0.039074998 0.055617999 0.30202001
0.070735998 0.03489 0.29776001
0.040564999 0.054795001 0.30318999
0.041239001 0.054731 0.30353999
0.068319 0.036244001 0.30167001
0.069156997 0.035749 0.30372
0.070183001 0.034874 0.30597001
0.069865003 0.034556001 0.30689001
0.044330001 0.051596999 0.31094
0.069590002 0.034857001 0.30787
0.045488998 0.051093999 0.31176999
0.068173997 0.035308 0.30923
0.046693999 0.049362 0.31255001
0.045412999 0.050060999 0.31215
0.063496999 0.038894001 0.31042001
0.062694997 0.039269 0.30974001
0.060736999 0.040325001 0.31038001
0.066148996 0.037021 0.30996001
0.063716002 0.038070001 0.31097999
0.051628001 0.045522999 0.31277001
0.050221 0.047084998 0.31363001
0.049017999 0.047993001 0.31366
0.048198 0.048 0.31334001
0.052173 0.045148998 0.31321001
0.065223001 0.03796 0.31119001
0.058350999 0.041405 0.3134
0.064909004 0.037175 0.3123
0.051681001 0.045255002 0.31399
0.049527999 0.047302999 0.31413001
0.056380998 0.042909998 0.31351
0.057480998 0.042073999 0.31347001
0.054986 0.043646999 0.31397
0.054042 0.04445 0.31387001
0.057663001 0.041138001 0.32012999
0.056612998 0.041260999 0.32016999
0.055372 0.042272002 0.32036999
0.058967002 0.040360998 0.32009
0.054425001 0.043352 0.32100001
0.053151 0.044094998 0.32172
0.061562002 0.038715001 0.32066
0.060630001 0.039204001 0.32051
0.062922001 0.037509002 0.32120001
0.052241001 0.044601999 0.3233
0.063942 0.037043002 0.32188001
0.064655997 0.036486 0.32233
0.064998999 0.036008999 0.32291999
0.051312 0.044946998 0.32477999
0.065866001 0.035666998 0.32376
0.066087 0.035177 0.32431999
0.051091999 0.045279998 0.32563001
0.06673 0.034471001 0.32530999
0.068074003 0.033778999 0.32765001
0.050289001 0.045435999 0.33216
0.068910003 0.032136001 0.33011001
0.069076002 0.031975999 0.33317
0.069018997 0.032157999 0.33199
0.049325999 0.045488 0.33772001
0.068682 0.032032002 0.33500999
0.047302 0.045743 0.34024
0.046833999 0.046124 0.34147
0.068106003 0.031973999 0.33758
0.067854002 0.032749999 0.33805999
0.046953999 0.046158001 0.34268001
0.066996001 0.032614999 0.33939999
0.066574 0.032887001 0.34020999
0.046222001 0.045683999 0.34356999
0.047028001 0.046397001 0.34419999
0.065334998 0.033821002 0.34233999
0.063874997 0.034100998 0.34404001
0.046397001 0.045630001 0.34531999
0.063576996 0.034878999 0.34478
0.060745999 0.035856999 0.34953001
0.048558 0.044257 0.35100001
0.047807001 0.044410001 0.35082
0.058456 0.036945 0.35199001
0.051598001 0.041494999 0.35372001
0.056290999 0.038557 0.35308
0.052772 0.041345 0.35372001
0.05596 0.038337 0.35358
0.024881 0.078373998 0.19309001
0.077072002 0.044181999 0.18525
0.075777002 0.047954001 0.19181
0.074864 0.048250999 0.19227999
0.057353999 0.059363 0.19482
0.056612998 0.060749002 0.19532
0.050370999 0.064364001 0.19625001
0.049789999 0.062927999 0.19588
0.042238001 0.067854002 0.19695
0.086195998 0.037009001 0.19111
0.023575 0.078621998 0.20408
0.083467998 0.037721999 0.20228
0.027856 0.074692003 0.21063
0.057526 0.054497998 0.21213999
0.049734 0.059408002 0.2132
0.050712001 0.058318999 0.21328001
0.036575001 0.068058997 0.21554001
0.039988998 0.065038003 0.21503
0.065315001 0.049017001 0.21153
0.081073999 0.037873998 0.21056999
0.079092003 0.039280001 0.21334
0.076366 0.041042 0.21563999
0.058958001 0.051217999 0.22871999
0.064185001 0.047403999 0.23518001
0.063217998 0.047658 0.2368
0.063228004 0.046974 0.23842999
0.063441001 0.047369 0.23913001
0.062128998 0.047417 0.24129
0.061126001 0.047876999 0.24259999
0.064447999 0.04569 0.24361999
0.04789 0.057351999 0.24880999
0.059085999 0.048811 0.25026
0.056759998 0.049764998 0.25468001
0.066924997 0.042396002 0.25712001
0.047531001 0.055645999 0.26223999
0.050368998 0.053408999 0.26128
0.046716999 0.056047 0.26337999
0.045403998 0.056308001 0.26517999
0.035069998 0.060771 0.28825
0.073532999 0.035075001 0.28358999
0.073683999 0.034209002 0.28874001
0.035594001 0.058857001 0.29668999
0.073395997 0.034393001 0.29095
0.072013997 0.034724999 0.29517999
0.071570002 0.035000999 0.29675001
0.069398001 0.034529999 0.30888
0.053573001 0.044514999 0.31301001
0.052751999 0.045708001 0.31187001
0.051481999 0.046541002 0.31213999
0.057677001 0.042741999 0.31068999
0.057250999 0.042231999 0.31222001
0.051054999 0.047136001 0.31200001
0.051052999 0.045302 0.3274
0.05046 0.045145001 0.3283
0.050101001 0.045302998 0.33074999
0.049885999 0.045242 0.32947001
0.049160998 0.044771001 0.33421001
0.049408 0.044982001 0.33489001
0.049444001 0.045113999 0.33645999
0.065635003 0.033727001 0.34176001
0.04724 0.045529999 0.34705999
0.047010001 0.045720998 0.34603
0.060410999 0.035721999 0.35007
0.058614999 0.037487 0.35165
0.027398 0.078891002 0.18838
0.024442 0.079089001 0.19123
0.076944999 0.044227 0.18674999
0.084252 0.039241001 0.18816
0.072213002 0.048668001 0.19247
0.069735996 0.050253998 0.19298001
0.057806 0.054365002 0.21238001
0.052361 0.058302999 0.21309
0.062573001 0.052251998 0.21204001
0.061149001 0.052288 0.21209
0.045079999 0.062236 0.21435
0.040933002 0.065192997 0.21496999
0.039073002 0.066446997 0.21543001
0.058045998 0.052246001 0.22864
0.054311998 0.053642001 0.23351
0.064200997 0.047472998 0.23348001
0.064199999 0.047219999 0.23667
0.064204998 0.047095001 0.23805
0.063432999 0.047090001 0.24095
0.046796001 0.058453999 0.24312
0.061942 0.047584999 0.24277
0.060968999 0.048013002 0.24436
0.046130002 0.058343001 0.2464
0.061145999 0.048091002 0.24536
0.061783999 0.047667 0.24705
0.061740998 0.047648001 0.24887
0.060407002 0.047940001 0.24993999
0.058309998 0.049387001 0.25464001
0.059723001 0.048216 0.25468999
0.057211 0.049511999 0.25645
0.054451998 0.051272999 0.25830999
0.056324001 0.050661001 0.25775999
0.053993002 0.051454 0.25940999
0.048661999 0.054995999 0.2599
0.052267 0.052333999 0.26045999
0.044599 0.057062 0.26682001
0.070350997 0.039717998 0.26460999
0.042775001 0.057828002 0.26987001
0.041960999 0.058366999 0.27131
0.041023999 0.058812 0.27261001
0.075058997 0.035923 0.27056
0.070767999 0.038178999 0.27598
0.035523001 0.060745999 0.28670001
0.035569001 0.060596999 0.29170999
0.068828002 0.036538001 0.30208999
0.056722 0.042904999 0.31255001
0.056290999 0.0436 0.31128001
0.055399001 0.044289999 0.31123999
0.053711999 0.045455001 0.31139001
0.049042001 0.048517998 0.31290999
0.055268001 0.043685 0.3125
0.057184 0.042109001 0.32032999
0.058529999 0.041368999 0.32030001
0.055909999 0.042835001 0.32073
0.053236 0.044364002 0.32293999
0.051874001 0.045062002 0.32444
0.067271002 0.034791 0.32641
0.069141001 0.032450002 0.33368
0.050321002 0.043249998 0.35262001
0.055087 0.039466001 0.35332
0.078748003 0.044792999 0.18224999
0.02557 0.079635002 0.19097
0.025309 0.079778999 0.1921
0.026690001 0.078892 0.19332001
0.027787 0.078368999 0.19475999
0.028240001 0.078009002 0.19594
0.026036 0.078740001 0.19856
0.062001999 0.058214001 0.19447
0.061124001 0.057220001 0.19420999
0.058740001 0.059057999 0.19479001
0.048574999 0.064593002 0.19616
0.044404 0.066800997 0.19685
0.044381 0.068472996 0.1971
0.024795 0.079337999 0.20093
0.084463 0.037306 0.20816
0.058706999 0.054382 0.21218
0.037151001 0.067502998 0.21588001
0.057661001 0.052446999 0.22725999
0.053406999 0.05449 0.23518001
0.063371003 0.047201 0.24276
0.062484998 0.047584001 0.24416
0.065503001 0.046009 0.244
0.065494001 0.045805998 0.24417999
0.051504001 0.054258998 0.25176001
0.049539 0.055243 0.26067999
0.048958998 0.055396002 0.26154
0.067924999 0.041940998 0.25781
0.046169002 0.056354001 0.26424
0.044397999 0.057236001 0.26804
0.037633002 0.060369 0.28088
0.072076 0.036455002 0.27965999
0.073495999 0.035647001 0.2929
0.073150001 0.034389 0.29288
0.071929999 0.036433 0.29613
0.043784998 0.052501999 0.31049001
0.055034 0.044273999 0.32196999
0.049667999 0.045097999 0.33524001
0.050760001 0.042833999 0.35269001
0.051940002 0.042737 0.35240999
0.028959 0.078486003 0.18844999
0.032118998 0.075925 0.18908
0.081482001 0.042908002 0.18235999
0.077386998 0.045331001 0.18413
0.078245997 0.04552 0.18291
0.033976998 0.073960997 0.19266
0.033962999 0.073486999 0.1939
0.076477997 0.045065999 0.19007
0.025876001 0.079302996 0.19966
0.024773 0.078869 0.2
0.086267002 0.038449001 0.19046
0.087249003 0.038323 0.19284999
0.024683001 0.079209 0.2026
0.087243997 0.036828 0.19577999
0.087494999 0.037145998 0.19427
0.087459996 0.037441999 0.19712999
0.027526001 0.076696001 0.20963
0.027837999 0.074956 0.21416
0.028814999 0.075259998 0.21375
0.085036002 0.037271999 0.20767
0.055025999 0.056107 0.21277
0.048827998 0.061383002 0.214
0.042856999 0.063997999 0.21493
0.032481998 0.072301999 0.2165
0.079603001 0.041168001 0.21349999
0.069957003 0.047460999 0.21561
0.076011002 0.042909998 0.21644001
0.077192999 0.042052001 0.2156
0.075074002 0.043579001 0.21679001
0.071411997 0.045228001 0.21780001
0.053890999 0.054281 0.23682
0.052724998 0.054910999 0.23681
0.051842999 0.055396002 0.23819
0.052538 0.055190001 0.23807
0.049509 0.057829998 0.24053
0.052581999 0.055394001 0.24401
0.04682 0.05926 0.24669001
0.063933 0.046882 0.244
0.052630998 0.054953001 0.24698
0.052359 0.054717999 0.24575
0.063468002 0.046895001 0.24474999
0.062387999 0.047166001 0.24536
0.061687998 0.047687002 0.25013
0.052274 0.055007 0.25013
0.051761001 0.054816999 0.25194001
0.060718 0.048152 0.25108999
0.047765002 0.057496998 0.25231999
0.051569998 0.054942999 0.25303999
0.049400002 0.055493999 0.25621
0.048671 0.056556001 0.25468999
0.050836999 0.055402 0.25768
0.050753001 0.055349 0.25891
0.051201999 0.054752 0.26012
0.068708003 0.042713001 0.25749001
0.048537001 0.055684999 0.26236001
0.069292001 0.042266998 0.25882
0.047347002 0.056345999 0.26576999
0.046124 0.057080001 0.26697999
0.046298001 0.056389999 0.26537001
0.045147002 0.057195999 0.26736999
0.070655003 0.040499002 0.26853001
0.038321 0.061409999 0.27502
0.036940999 0.061492 0.27805001
0.070942998 0.038458999 0.27489001
0.070871003 0.039664999 0.2746
0.037416 0.060725 0.27968001
0.071121 0.039014 0.27722999
0.037588999 0.060665 0.28159001
0.037528999 0.060961999 0.28257999
0.072957002 0.036855001 0.28163001
0.073279001 0.036821 0.28281999
0.073413998 0.036571998 0.28417999
0.073793001 0.036045 0.28707001
0.036809999 0.061076999 0.29258999
0.035778999 0.060152002 0.29385999
0.036412999 0.060817 0.29383999
0.073590003 0.035123002 0.29089999
0.073829003 0.035560001 0.28955001
0.072812997 0.035785001 0.29473001
0.039602 0.057716001 0.30092001
0.040128 0.056697 0.30175
0.041219 0.056752 0.30232
0.071478002 0.036031999 0.29703
0.070595004 0.036619 0.29877001
0.070179 0.037276 0.29945999
0.042544 0.055054002 0.30633
0.042599998 0.054749001 0.30463001
0.070147 0.036483999 0.30478001
0.042952999 0.053135999 0.30978
0.070404001 0.036047 0.30616
0.069128998 0.037046999 0.30822
0.053996 0.045728002 0.31108001
0.054992002 0.045348 0.31101
0.067211002 0.037289001 0.30895001
0.066294 0.038449999 0.30947
0.066005997 0.039097998 0.31005999
0.049587 0.049469002 0.31233999
0.052220002 0.046174999 0.3265
0.052064002 0.045821998 0.32549
0.067327999 0.035539001 0.32710001
0.068741001 0.033367999 0.33063999
0.051261 0.046007998 0.33649999
0.048011001 0.045467 0.34827
0.049476001 0.044961002 0.34981999
0.059583999 0.037705999 0.35045999
0.059073001 0.038662001 0.35093001
0.057369001 0.038718 0.35225999
0.057774 0.039253999 0.35161999
0.051902 0.042172 0.35288
0.053950001 0.040417001 0.35387
0.025458001 0.080229998 0.18874
0.026453 0.079855002 0.18859001
0.025697 0.080260001 0.18961
0.031275 0.076297 0.18881001
0.032512002 0.075437002 0.18941
0.032802001 0.074620001 0.19080999
0.082315996 0.041634001 0.18262
0.083911002 0.041388001 0.183
0.085061997 0.040495001 0.1833
0.077336997 0.046004999 0.18488
0.026269 0.079484001 0.19250999
0.033684999 0.074516997 0.19146
0.084700003 0.040151998 0.18464001
0.077385999 0.045774002 0.18598001
0.084545001 0.041030001 0.185
0.083552003 0.040738001 0.18609001
0.076784998 0.045235999 0.18702
0.034058999 0.072902001 0.19468001
0.083586 0.041675001 0.18729
0.034848001 0.073464997 0.19498999
0.027318001 0.078479998 0.19723
0.026706999 0.078644 0.19754
0.076338001 0.045913 0.19038001
0.085008003 0.039806001 0.18895
0.034853999 0.072641999 0.19676
0.035264 0.072024003 0.19747999
0.085657001 0.039547 0.18990999
0.036449999 0.072176002 0.19742
0.08749 0.036851998 0.19685
0.02538 0.078525998 0.20657
0.086893998 0.037450001 0.19878
0.026110001 0.077670999 0.20817
0.085956998 0.037923001 0.20029999
0.086609997 0.037893999 0.19927
0.026456 0.076899998 0.20905
0.027518 0.075813003 0.21009
0.084815003 0.038279999 0.20115
0.028656 0.075522996 0.21064
0.084188998 0.039496999 0.20179
0.083633997 0.039620001 0.20359001
0.083853997 0.038729001 0.20457
0.085271999 0.038011 0.20622
0.028231001 0.074974999 0.21605
0.029097 0.074493997 0.21729
0.059172001 0.054492999 0.21253
0.060084 0.053856999 0.21219
0.058733001 0.054471999 0.21218
0.056740999 0.055613998 0.21273001
0.037806001 0.069066003 0.21623001
0.083826996 0.038196001 0.20852999
0.082693003 0.038883999 0.20911001
0.067481004 0.049105 0.21163
0.068603002 0.048450999 0.21155
0.064700998 0.050567999 0.21167
0.063713998 0.051814001 0.21164
0.061388001 0.053245999 0.21179999
0.046193 0.062224999 0.21426
0.047215 0.062417999 0.21437
0.030556999 0.073766001 0.21704
0.082078002 0.039584 0.20951
0.066499002 0.050234001 0.21146999
0.081481002 0.03974 0.21100999
0.069080003 0.047534999 0.21423
0.069100998 0.047469001 0.21294001
0.080670998 0.039923999 0.21232
0.078399003 0.041359 0.21441001
0.078697003 0.040532999 0.21356
0.068798997 0.046964001 0.21544001
0.077466004 0.041418999 0.21496999
0.070141003 0.046362001 0.21681
0.071075 0.046239 0.21715
0.073831998 0.044381998 0.21728
0.072544999 0.044994 0.21796
0.064213999 0.047320001 0.23219
0.064690001 0.048025999 0.23397
0.064786002 0.047692999 0.23254
0.064763002 0.048441999 0.23480999
0.064001001 0.048634 0.23538999
0.05356 0.054598 0.23796
0.064003997 0.048574999 0.23678
0.065186001 0.047867998 0.23656
0.053070001 0.055245999 0.23910999
0.050229002 0.056648001 0.23932999
0.049226001 0.057615999 0.2395
0.065397002 0.047763001 0.23794
0.064268999 0.048264001 0.23794
0.048009001 0.058153 0.24089999
0.06436 0.047881 0.23927
0.052972998 0.055309001 0.24023999
0.053082 0.054905999 0.24113999
0.04764 0.058433 0.24212
0.065447003 0.047306001 0.23935001
0.064575002 0.047756001 0.24094
0.065609001 0.047132 0.24097
0.053164002 0.055534001 0.24281
0.047440998 0.059055999 0.24473
0.064603001 0.047653001 0.24242
0.065640002 0.046431001 0.24189
0.046349 0.059110999 0.24517
0.064404003 0.047584001 0.2438
0.04699 0.058336999 0.24776
0.064286001 0.047258001 0.24508999
0.066843003 0.045821998 0.24665
0.066753 0.046314001 0.24477001
0.047632001 0.057909999 0.24936999
0.064429998 0.047334 0.24672
0.052384999 0.055261001 0.24879999
0.063409001 0.047070999 0.24690001
0.062701002 0.047564 0.24775
0.063134998 0.047192998 0.24708
0.066857003 0.045295998 0.24799
0.047942001 0.057966001 0.25086999
0.067008004 0.045046002 0.24908
0.062187999 0.047533002 0.24996001
0.061747 0.047660999 0.25101
0.048108 0.057634 0.25380999
0.060888 0.048331998 0.25156999
0.067231998 0.044631001 0.25345999
0.066157997 0.044397 0.25192001
0.049249001 0.056256 0.25628999
0.061328001 0.048333 0.25468001
0.061021 0.048526 0.25325999
0.051213 0.055071 0.25453001
0.050822999 0.055617001 0.25615001
0.058715001 0.049350999 0.25622001
0.067213997 0.044024002 0.255
0.049396999 0.056028001 0.25793001
0.04964 0.055601001 0.25898001
0.057661001 0.050028998 0.25810999
0.067337997 0.043021999 0.25577
0.068556003 0.043327 0.2561
0.055468999 0.05147 0.25955001
0.054834999 0.051267002 0.25922
0.054234002 0.051789999 0.26054001
0.053213999 0.052903 0.26157001
0.051166002 0.054478001 0.26203999
0.051686 0.053296 0.26221001
0.069865003 0.041916002 0.26029
0.070336998 0.041811999 0.26155001
0.047063001 0.056051999 0.26398
0.070235997 0.041329 0.26271001
0.069828004 0.040844001 0.26446
0.045240998 0.057303999 0.26853001
0.044282001 0.057484001 0.26910999
0.044156 0.058171 0.26975
0.069656998 0.040975001 0.26567
0.043244999 0.058809001 0.27065
