# .PCD v0.7 - Point Cloud Data file format
VERSION 0.7
FIELDS x y z
SIZE 4 4 4
TYPE F F F
COUNT 1 1 1
WIDTH 1526
HEIGHT 1
VIEWPOINT 0 0 0 1 0 0 0
POINTS 1526
DATA ascii
0.020612 0.037971001 0.045814
0.019184001 0.038153999 0.046298999
0.0086313002 0.11982 0.046785001
0.073786996 0.10539 0.14607
0.073698997 0.10585 0.14445999
-0.0068059 0.093358003 0.019218
-0.0088569997 0.091944002 0.017554
-0.0087285005 0.092477001 0.01902
0.025168 0.045959 0.045984998
0.024439 0.045529999 0.045425002
0.024476999 0.046626002 0.044427
0.020959999 0.049966998 0.059647001
0.021005999 0.049536001 0.060063999
0.1028 0.13278 0.055109002
0.1021 0.13153 0.055771999
0.046193998 0.093367003 0.036479
0.045589 0.091949001 0.035200998
0.046909001 0.091886997 0.034782998
0.084349997 0.10805 0.077666
0.085028 0.10879 0.076462001
0.085653998 0.10835 0.077555999
0.081312999 0.11295 0.11418
0.056620002 0.088036999 0.070426002
0.055649001 0.087474003 0.070900001
0.067328997 0.10081 0.061117999
0.067584999 0.14518 0.10677
0.083173998 0.11754 0.044309001
0.084450997 0.11789 0.044587001
0.062650003 0.14577 0.10646
0.062527999 0.14425001 0.10578
0.083944 0.15414999 0.11367
0.084766001 0.15380999 0.11209
0.091081001 0.13816001 0.092097998
0.090066999 0.13914999 0.092201002
0.089813001 0.13861001 0.091935001
0.071271002 0.17109001 0.092477001
0.072039001 0.17239 0.093897998
0.071428001 0.17236 0.092779003
0.033980001 0.20079 0.087508999
0.03418 0.2008 0.086580001
0.034959 0.20084 0.086434998
0.052414 0.14669 0.094183996
0.072145 0.16379 0.075038999
0.072554 0.10659 0.062760003
0.071616001 0.10618 0.063515998
0.080130003 0.11168 0.11709
0.079163 0.111 0.1171
0.0069979001 0.038651001 0.072251
0.076314002 0.15358999 0.10488
0.07739 0.15433 0.10422
0.046328001 0.10095 0.031257998
0.045377001 0.10039 0.031176001
0.045683 0.12113 0.075966999
0.044456001 0.12139 0.075684004
0.058263 0.12557 0.037124
0.059091002 0.12481 0.037133999
0.058008999 0.12551001 0.037165001
0.041940998 0.20288999 0.081478998
0.043205999 0.20364 0.080160998
0.041825 0.20328 0.079387002
0.087963998 0.11877 0.098176003
0.087819003 0.1192 0.098765999
0.087892003 0.11861 0.099304996
0.051711999 0.19505 0.077708997
0.050551999 0.19418 0.078674003
0.046652999 0.088095002 0.046190001
0.047173001 0.086786002 0.047242001
0.081940003 0.10137 0.13676
0.081244998 0.10118 0.1374
0.081721999 0.11333 0.14729001
0.082253002 0.11311 0.14613
0.080697 0.11377 0.14688
0.085709997 0.10008 0.12824
0.087236002 0.10124 0.12835
0.098509997 0.13179 0.048121002
0.097174004 0.13101999 0.047796
0.096979 0.13293999 0.047178999
0.036316998 0.078653999 0.055875
0.035255998 0.077817 0.056286
0.035337999 0.079986997 0.055380002
0.01832 0.059797 0.055353001
0.018355999 0.059788 0.055854999
0.0078448001 0.097774997 0.017374
0.0074759 0.096979 0.016801
0.0077503002 0.098622002 0.016756
0.085222997 0.1044 0.14056
0.026137 0.070370004 0.055558
0.031124 0.12613 0.051150002
0.031191001 0.12597001 0.049986001
0.030699 0.12581 0.050519999
0.045012001 0.097494997 0.042906001
0.044833999 0.097969003 0.041648
0.037452001 0.067084 0.075948
0.037478 0.067423999 0.075671002
-0.0071064001 0.086335003 0.013156
-0.0061996002 0.086741999 0.013268
-0.0087526003 0.091778003 0.023389
0.0044986 0.083039001 0.019974999
0.03334 0.19381 0.077216998
0.032428999 0.19377001 0.078778997
0.032042999 0.19378 0.077283002
0.034795001 0.10388 0.049713001
0.035859998 0.10327 0.049361002
0.035154 0.10384 0.050731
0.073939003 0.10717 0.048852
0.073140003 0.10789 0.046983998
0.093236998 0.12552001 0.045674
0.093129002 0.12478 0.047010001
0.081347004 0.15196 0.10703
0.013398 0.1106 0.048845001
0.011326 0.11084 0.049194999
0.070561998 0.13204999 0.037057001
-0.010609 0.084368996 0.013859
0.094993003 0.10225 0.12446
0.095528997 0.10282 0.12356
0.00043024999 0.11718 0.037815001
0.0012652 0.11741 0.037312999
0.043698002 0.063034996 0.063349999
0.043868002 0.062305 0.062222
0.031872999 0.19400001 0.077496998
0.049493 0.12804 0.040412001
0.048363 0.12795 0.041039001
0.049848001 0.12851 0.041099001
-0.020354999 0.088664003 0.01816
-0.019960999 0.088062003 0.019779
0.068457 0.1028 0.060501002
0.068263002 0.1024 0.060456
0.073918998 0.11411 0.092184
0.073569 0.11332 0.092078999
0.030565999 0.18147001 0.067111
0.077280998 0.12566 0.096043997
0.093232997 0.12241 0.13945
0.041033 0.10933 0.034961998
0.033410002 0.076199003 0.063233003
0.089465998 0.11207 0.055968001
0.089731999 0.11238 0.055826001
0.089590997 0.11326 0.054262999
0.050535001 0.079593003 0.011161
0.049146 0.078286998 0.01149
0.050308999 0.079600997 0.011271
0.087405004 0.11507 0.048085999
0.088474996 0.11476 0.049309999
0.02186 0.11793 0.053642001
0.029541999 0.053123001 0.065393001
0.030791 0.054442 0.066873997
0.030029001 0.054235999 0.066676997
-0.0019193999 0.11208 0.039662
-0.0012146001 0.11311 0.040557001
0.049189001 0.15112001 0.11203
0.050553001 0.15177 0.1109
0.029904 0.18619999 0.065306999
0.030324999 0.18460999 0.066529997
0.059564002 0.13537 0.085152999
0.059099 0.13606 0.084103003
0.055406 0.08461 0.071640998
0.055640999 0.085635997 0.071128003
0.039765999 0.19473 0.067098998
0.032398999 0.18110999 0.059468001
0.027575999 0.10427 0.040374
0.026486 0.10353 0.041281998
0.090819001 0.15756001 0.086231999
0.051199999 0.15764 0.066885002
0.051615998 0.15707 0.067295
0.051982 0.15701 0.068195
0.094384998 0.11151 0.13495
0.094745003 0.11215 0.13488001
0.071456 0.15712 0.10305
0.071935996 0.15541001 0.10271
0.042002 0.099078998 0.032680999
0.060375001 0.097700998 0.046098001
0.058022 0.089872003 0.049231
0.05883 0.090479001 0.050076999
0.080932997 0.15267999 0.1081
0.010342 0.090328 0.029358
0.046749 0.14804 0.11532
0.046895001 0.14974999 0.11581
0.046510998 0.14946 0.11451
0.093590997 0.11431 0.092910998
0.094010003 0.11517 0.093089998
0.057480998 0.094426997 0.045777999
0.058145002 0.094912 0.046826001
0.015541 0.12667 0.043012001
0.017216001 0.12767 0.041653
0.016287001 0.12740999 0.041905999
0.067073002 0.13947999 0.1044
0.066203997 0.13889 0.10349
0.079526 0.099596001 0.12307
0.079526 0.099656001 0.12299
0.081092998 0.099082999 0.12398
0.081494004 0.16374999 0.064599
0.080522999 0.16346 0.064499997
-0.00054345001 0.11625 0.037648998
-0.00077309 0.11534 0.03833
0.066996001 0.13649 0.037822001
0.066211 0.13665 0.037087001
0.039062999 0.20399 0.088763997
0.086081997 0.097409002 0.12092
0.08619 0.097822003 0.11983
0.086516999 0.097479999 0.12025
0.092384003 0.16045 0.060561001
0.092927001 0.1612 0.061055999
0.10511 0.13541999 0.066679001
0.10455 0.13516 0.066101998
0.029493 0.051267002 0.063435003
0.029662 0.052347999 0.064538002
0.084887996 0.11701 0.10748
0.086090997 0.1176 0.10688
0.055396002 0.075304002 0.070611
0.055836 0.075869001 0.069540001
0.083571002 0.097558998 0.11111
0.047024999 0.094365999 0.023677999
0.046023 0.095420003 0.024619
0.085390002 0.13686 0.092749
0.086856 0.13643999 0.092198998
0.064052999 0.12965 0.037535001
-0.0094525004 0.083801001 0.028603001
0.055459999 0.11975 0.086451001
0.054834999 0.12007 0.085721001
0.056304 0.11865 0.086336002
0.088266 0.13590001 0.091670997
0.089519002 0.13557 0.092363998
0.086983003 0.10328 0.084558003
0.086273998 0.10338 0.086038999
0.033339001 0.17595001 0.072131999
0.034173001 0.17658 0.072671004
0.033358999 0.17682 0.073027
0.066371001 0.1551 0.047495
0.066168003 0.15624 0.048585001
0.017298 0.12388 0.032928001
0.017769 0.12374 0.031332001
0.0084312996 0.11451 0.030997001
0.0086388001 0.11356 0.030236
0.0084952004 0.11349 0.030370001
0.090790004 0.10046 0.10693
0.088757999 0.16133 0.082658
0.089668997 0.16077 0.082585998
0.021156 0.10516 0.032683998
0.022046 0.10482 0.032894999
0.020802001 0.10607 0.031387001
4.3275999e-05 0.10146 0.039161999
4.1855001e-05 0.10029 0.037893999
0.00040200999 0.10047 0.038736001
0.02001 0.050595999 0.059767
0.020404 0.050328001 0.059053998
0.020399 0.051860999 0.059652999
0.084319003 0.097916998 0.11335
0.085033 0.097138003 0.11296
0.051252 0.071589999 0.05669
0.051150002 0.071261004 0.056609999
0.047375999 0.085501 0.017281
0.046704002 0.086460002 0.017821999
0.047049001 0.087582 0.016725
0.041005999 0.16850001 0.051878002
0.040516999 0.16851 0.053564001
0.064492002 0.16046999 0.099313997
0.064618997 0.15978999 0.099200003
0.064584002 0.16006 0.098714001
0.061390001 0.080874003 0.061542999
0.060811002 0.079697996 0.060049001
0.062015999 0.080032997 0.060112
0.020364 0.047253001 0.040649001
0.021342 0.047065999 0.040770002
0.067842998 0.13766 0.037409
0.0071345 0.12189 0.041916002
0.0084932996 0.12342 0.041887999
0.0075686998 0.12265 0.041767001
0.048852 0.085373998 0.021486999
0.049910001 0.086051002 0.021784
0.025758 0.1053 0.044805001
0.026371 0.10545 0.043326002
0.026035 0.10581 0.043976001
0.024754999 0.064072996 0.048912998
0.10379 0.14866 0.068662003
0.038222 0.20383 0.089290999
0.038809001 0.20412 0.089376003
0.069038004 0.16211 0.085865997
0.070283003 0.16252001 0.086254001
0.034320001 0.081403002 0.062631004
0.034878999 0.080132 0.062633
0.085074 0.10283 0.12996
0.084085003 0.10156 0.12962
0.044764001 0.18027 0.071422003
0.034922998 0.19904 0.084144004
0.033775002 0.19756 0.084503002
0.035092998 0.19769 0.084461004
0.039799999 0.12099 0.065204002
0.044891 0.10977 0.070381999
0.044188999 0.10923 0.070130996
0.052359998 0.14281 0.11313
0.033353001 0.12729 0.036984
0.032981999 0.12782 0.038114998
0.03421 0.12691 0.036688998
0.014047 0.096848004 0.023091
0.027857 0.070708998 0.060175002
0.052452002 0.14067 0.080181003
0.053160001 0.14124 0.080670998
0.082551003 0.14905 0.041352
0.036063001 0.084221996 0.068355002
0.036157999 0.083626002 0.069118999
0.086177997 0.11736 0.10843
0.085121997 0.11799 0.10927
0.092638001 0.12949 0.086524002
0.093659997 0.12939 0.087085001
0.094581999 0.12864999 0.086891003
0.016884999 0.12679 0.04558
0.017271999 0.12658 0.044856999
0.015472 0.12649 0.044374
0.053952999 0.13417999 0.081719004
0.055325001 0.13455001 0.081249997
0.033353999 0.10642 0.057487998
0.032864001 0.10779 0.057774998
0.020949 0.12448 0.050046001
0.020726001 0.1251 0.049217999
0.019324999 0.12484 0.049904
0.016288999 0.11946 0.030463001
0.016233999 0.12083 0.030121
0.017413 0.11954 0.029773001
0.07485 0.16378 0.074583001
0.0096968003 0.036889002 0.060362
0.042631999 0.13226999 0.067452997
0.043501001 0.13156 0.068052001
0.086932003 0.16316 0.061048001
0.086351998 0.16271999 0.059579998
0.097654 0.10527 0.1125
0.097965002 0.10385 0.11212
0.097561002 0.1054 0.11176
0.10351 0.13305999 0.058933999
0.049077 0.096933998 0.042624999
0.048746999 0.096207999 0.042482998
0.048243001 0.096201003 0.042507999
0.054969002 0.098548003 0.070148997
0.035135001 0.18089999 0.054745998
0.092867002 0.11684 0.089222997
0.093292996 0.11754 0.089250997
0.036589999 0.12165 0.035174001
0.036890998 0.12292 0.035409998
0.056543998 0.10214 0.069828004
0.056394 0.10281 0.069550999
0.055227 0.10274 0.069335997
0.045809001 0.16584 0.064778998
0.0065803998 0.089241996 0.033562999
0.0062883999 0.089597002 0.034063999
0.028762 0.045306999 0.050315
0.028757 0.045442998 0.049918
0.058936 0.090308003 0.066724002
0.058830999 0.089511998 0.065236002
0.058214001 0.091862999 0.066555001
0.014204 0.094950996 0.030648001
0.041368 0.12659 0.060047001
0.041124001 0.1257 0.060440999
0.040290002 0.12606999 0.061161
0.016961999 0.11651 0.028689001
0.017656 0.11798 0.029100001
0.078298002 0.16057999 0.095193997
0.078893997 0.15938 0.094154999
-0.025312999 0.088699996 0.035787001
-0.024955999 0.088707998 0.034740001
-0.024179 0.087664001 0.035319999
0.0012844 0.095400997 0.037379999
0.00095418998 0.096371002 0.036740001
-0.00026500001 0.096063003 0.036111999
0.083599001 0.11916 0.042737
0.082471997 0.11864 0.043109
0.082529001 0.12079 0.041742001
0.099345997 0.15414999 0.075340003
0.082777001 0.13706 0.095917001
0.061136 0.10728 0.040063001
0.077372998 0.17858 0.097340003
0.034157999 0.20207 0.087848
0.034575 0.20084 0.088583
0.047215 0.17275999 0.068905003
0.047355 0.17162 0.068342999
0.098589003 0.12650999 0.080664001
0.099716 0.12762 0.080323003
0.098463997 0.12723 0.079871997
0.012257 0.042950001 0.042396002
0.052584 0.076563999 0.074166
-0.0019219 0.10839 0.029542999
-0.0018197 0.10794 0.029177999
-0.022512 0.094754003 0.027379001
-0.022379 0.094185002 0.027101999
-0.024061 0.095150001 0.027535999
0.014814 0.12667 0.038139999
0.013689 0.12601 0.038309999
0.013276 0.12658 0.039361998
0.092538998 0.12011 0.13642
-0.0079023996 0.094559997 0.021749999
-0.0074828998 0.094233997 0.022867
0.040105 0.164 0.054561
0.1007 0.12876 0.054418001
0.10084 0.13001999 0.052939001
0.10144 0.13004 0.055
0.088339999 0.11901 0.11256
0.088099003 0.1182 0.11192
0.086856 0.11846 0.11165
0.051600002 0.19860999 0.081785001
0.052531 0.19825999 0.082323
0.062748998 0.11543 0.037039001
-0.0020423001 0.10532 0.026707999
-0.0027906001 0.1049 0.026263
0.069372997 0.16760001 0.098681003
0.070188999 0.1681 0.097606003
0.034605 0.049803998 0.051178999
0.035206001 0.050900999 0.051752001
0.032083001 0.072310999 0.064473003
0.031916 0.072338998 0.065251999
0.032699 0.073564 0.065168999
0.051380999 0.12064 0.077712998
0.052666999 0.12081 0.077648997
0.08839 0.14944001 0.10567
0.046863001 0.086456999 0.015224
0.071557 0.10409 0.058584001
0.07119 0.10377 0.057944998
0.072136998 0.10422 0.057794001
0.065206997 0.1468 0.040972002
0.060433 0.111 0.076458
0.059884999 0.11067 0.075526997
0.060573 0.11084 0.075507
0.083219998 0.16294 0.058575999
0.084045999 0.16306999 0.058557
0.046647001 0.15356 0.050147999
0.046534002 0.15360001 0.051089998
0.045499999 0.15482999 0.051100999
0.094879001 0.12938 0.085148998
0.093757004 0.1294 0.085387997
0.093849003 0.12913001 0.085851997
0.033702999 0.10465 0.042048998
0.033179998 0.10426 0.043366
0.031420998 0.10448 0.043529
0.052834 0.19532999 0.075119004
0.051601 0.19663 0.074649997
0.042447001 0.098396003 0.030324001
0.044057 0.098630004 0.029274
0.043931 0.098119996 0.028972
0.077467002 0.10954 0.13918
0.077405997 0.10812 0.13892999
0.035153002 0.11869 0.031272002
0.034736998 0.11942 0.030489
0.035092998 0.12018 0.031900998
0.015395 0.051943999 0.049412999
0.014058 0.052288 0.048735
0.087709002 0.10948 0.058359999
0.087451003 0.11054 0.058745999
0.087805003 0.11147 0.058841001
0.036784999 0.053344 0.050301999
0.036580998 0.052103002 0.050097
0.090832002 0.10563 0.088205002
0.017643001 0.057652 0.05635
0.012329 0.10221 0.020779001
0.010074 0.10216 0.019355999
0.012405 0.10366 0.020640999
0.010391 0.12056 0.032517999
0.026614999 0.069758996 0.055124
0.027804 0.070834003 0.055482998
0.097398996 0.13692001 0.082915999
0.098637 0.13664 0.082010999
0.097966999 0.13766 0.082511
0.01835 0.1078 0.029103
0.020176999 0.10812 0.029779
0.018997001 0.10681 0.029265
0.039184 0.082523003 0.049720999
0.038917001 0.083402 0.050280999
0.056724999 0.13715 0.082984
0.058568999 0.13705 0.084761001
0.058410998 0.15101001 0.087833002
0.059847999 0.15037 0.086080998
0.058272999 0.14977001 0.088134997
0.046144001 0.18772 0.075318001
0.046335001 0.18918 0.074253999
-0.011793 0.085341997 0.030572999
0.057369001 0.076890998 0.069078997
0.056869999 0.075949997 0.069094002
0.056999002 0.077500999 0.068052001
0.077353999 0.10415 0.12299
0.061988998 0.16376001 0.063337997
0.030577 0.069927998 0.053369999
0.030545 0.070322998 0.053512
0.018316001 0.028713999 0.067922004
0.01921 0.029193001 0.068329997
0.019156 0.029513 0.067495003
0.083648004 0.10833 0.071408004
0.084165998 0.10937 0.070941001
0.050021 0.17601 0.068494
0.059239 0.084453002 0.067996003
0.057619002 0.085171998 0.069546998
0.025491999 0.1166 0.028028
0.026022 0.11699 0.027891999
0.091816999 0.13169999 0.041958999
0.091154002 0.13087 0.042842001
0.091798998 0.11627 0.097929999
0.091903001 0.1158 0.097044997
0.091610998 0.11729 0.096083
0.043855 0.14252999 0.066391997
0.044512998 0.14298999 0.065112002
0.045049001 0.14210001 0.064397
-0.025110001 0.096825004 0.022639999
-0.025877999 0.098228 0.022821
0.056122001 0.15307 0.093176998
0.0045701 0.086742997 0.031417001
0.073422998 0.13301 0.093038999
0.073198996 0.13355 0.092661999
0.072631001 0.12933999 0.092216
0.018529 0.045378 0.057677999
0.01746 0.046248998 0.057131
0.089442 0.10363 0.1294
0.089411996 0.10497 0.12962
0.055133 0.15281001 0.10188
0.015108 0.052281 0.048583999
0.050677001 0.14645 0.095565997
0.011664 0.049759999 0.048339002
0.010968 0.048098002 0.046920002
0.011385 0.047660001 0.048214
0.059149999 0.16034999 0.075397
0.055392001 0.073526002 0.056081999
0.055268999 0.074537002 0.056731001
0.055672999 0.073706999 0.057353001
0.067419998 0.16237999 0.068905003
0.043097001 0.13621999 0.072756998
0.079177 0.11314 0.045876998
0.080620997 0.11414 0.045572001
0.080092996 0.11292 0.04606
0.038164001 0.060807999 0.070772998
0.035333999 0.19492 0.081451997
0.035186 0.19367 0.080450997
0.083812997 0.11645 0.1461
0.084968999 0.11722 0.14704999
0.042741001 0.067528002 0.056260001
0.042029999 0.066946998 0.055950999
0.042080998 0.067215003 0.056037001
0.076350003 0.16553 0.094467998
0.096289001 0.15379 0.052170999
0.097489998 0.15355 0.052924
0.085091002 0.1629 0.085694
0.085865997 0.16224 0.085318998
0.078813002 0.10921 0.12231
0.079323001 0.10984 0.12141
0.087990999 0.15989999 0.051708002
0.088899001 0.10103 0.1278
-0.0017595 0.094383001 0.034465998
-0.00091634999 0.095317997 0.034626
0.096683003 0.1158 0.059696
0.050241999 0.088131003 0.013539
0.049931001 0.086891003 0.013091
0.01529 0.12447 0.045791
0.014504 0.12466 0.046544001
0.01492 0.12494 0.046844002
0.036988001 0.17206 0.055596001
0.036958002 0.17384 0.055445999
0.037549 0.17264 0.055125002
0.058123 0.11563 0.036375999
0.058977 0.11501 0.036637999
0.045453999 0.14824 0.10552
0.040205002 0.071782999 0.075755
0.039136 0.069767997 0.075999998
0.043887999 0.13726 0.073296003
0.043866001 0.13779999 0.073122002
0.043745 0.13655999 0.072924003
0.042775001 0.13152 0.065667003
0.055008002 0.13328999 0.041747
0.053941999 0.13341001 0.04332
0.086916998 0.10009 0.10592
0.087707996 0.099986002 0.10466
0.059129 0.12932 0.039687999
0.058633 0.12993 0.040089
0.059192002 0.16674 0.053915001
0.1006 0.13551 0.077211998
0.10123 0.13649 0.077481002
0.040821001 0.16966 0.069268003
0.043917 0.069669001 0.055674002
0.043437 0.069038004 0.056295998
0.04651 0.07361 0.076562002
0.047026999 0.073339999 0.076283999
0.07186 0.10835 0.1468
0.071226999 0.10751 0.14647
0.020702001 0.060733002 0.046128999
0.020465 0.059921999 0.046838
0.021924 0.060906 0.046758998
0.036834002 0.16814999 0.065173998
0.038228001 0.16808 0.065297998
0.052822001 0.13733 0.082006
0.051194001 0.17493001 0.058570001
0.051143002 0.17462 0.058963001
0.078576997 0.11032 0.049653001
0.077592 0.11077 0.049334001
0.017154001 0.029248999 0.064823002
0.017514 0.027539 0.064753003
0.038453002 0.096979998 0.05776
0.038839001 0.098526001 0.058254
0.062334001 0.14763001 0.044549
0.038049001 0.12685999 0.054234002
0.047846999 0.15349001 0.064092003
0.046493001 0.15425 0.062651001
0.046613999 0.15279 0.0634
0.069357 0.16447 0.099051997
0.068216003 0.16372 0.097921997
0.041412 0.12422 0.066417001
0.041436002 0.12427 0.066531003
0.0014632 0.096716002 0.038111001
0.00028824 0.097562999 0.037896
0.033119 0.050236002 0.048843998
0.074415997 0.11049 0.083195001
0.012722 0.039365001 0.050802
0.011712 0.039866 0.05051
0.070978999 0.15095 0.041411001
-0.0012148001 0.080026001 0.022120999
-0.0014025 0.079503 0.022567
-0.0013344 0.079053 0.021523001
0.016218999 0.037462998 0.045942999
0.015913 0.036706001 0.045596
0.026112 0.05697 0.065435998
0.025986001 0.057645001 0.066336997
0.059278 0.10281 0.041675001
0.060268 0.10237 0.041168999
0.059539001 0.10159 0.041572001
0.048356 0.14223 0.054823
0.048734002 0.14167 0.055091999
0.0057840999 0.099633001 0.015636999
0.0048246002 0.098164998 0.016434999
0.0047061001 0.098610997 0.015668999
0.079320997 0.14111 0.037491001
0.078688003 0.14098001 0.037939001
-0.010316 0.086139001 0.013269
-0.0090857996 0.086778998 0.013637
0.042651001 0.059413001 0.063175999
0.041889999 0.058954999 0.065305002
0.041491002 0.057872001 0.064299002
0.041609999 0.094738998 0.034813002
0.018043 0.11632 0.052650999
0.019746 0.11608 0.052875001
0.035656001 0.084404998 0.061586
0.036254998 0.084563002 0.060265001
0.078207999 0.11505 0.10033
0.079158999 0.11609 0.10108
0.09324 0.10734 0.089465998
0.033337001 0.18261001 0.056104001
0.033785999 0.18241 0.055509001
0.047295999 0.11338 0.036401
0.049399 0.1135 0.036396999
0.032554999 0.17338 0.060128
0.033259001 0.17313001 0.059684001
0.082292996 0.10674 0.059319999
0.048861999 0.088273004 0.073439002
0.042289 0.080430001 0.075222
0.0099822003 0.10799 0.024658
0.097007997 0.10148 0.1188
0.096708 0.10212 0.12005
-0.02674 0.093699999 0.022236999
0.037356999 0.079737 0.072192997
0.036336001 0.078988999 0.071689002
0.081504002 0.10688 0.066120997
0.082107 0.10662 0.065030999
0.029483 0.12365 0.030440001
0.029952999 0.1245 0.031601001
0.030648001 0.12402 0.030901
0.099059999 0.12064 0.075264998
0.098293997 0.12088 0.076504
0.088785 0.15194 0.044174999
0.089241996 0.15128 0.044248998
0.087833002 0.1506 0.043726001
0.069874004 0.15955999 0.10055
0.092685997 0.13635001 0.042911999
0.042702001 0.13031 0.060977001
0.042787001 0.13005 0.061912999
-0.027972 0.092582002 0.027981
0.096927002 0.15831999 0.062834002
0.095876001 0.15881 0.062329002
-0.025312001 0.091407999 0.038079001
-0.025372 0.091055997 0.037282001
0.034915 0.076958999 0.070900999
0.035461999 0.076935001 0.071014002
0.052811 0.071768999 0.057691999
0.089042 0.12246 0.13774
0.089754999 0.12136 0.13705
0.089463003 0.12147 0.13619
0.088361003 0.11845 0.14128999
0.089257002 0.11809 0.14162999
0.089374997 0.11826 0.13998
0.035872001 0.17094 0.069963999
0.036361001 0.17161 0.070220001
0.086943001 0.1393 0.039324
0.088048004 0.13846 0.039035
0.092603996 0.11326 0.061326001
0.093344003 0.11363 0.061106998
0.092780001 0.1138 0.062454
0.043364 0.092396997 0.070083998
0.043262001 0.092582002 0.069533996
0.072889999 0.11042 0.087991998
0.074657001 0.10983 0.087054998
0.095836997 0.11699 0.074377
0.097994998 0.1082 0.11868
0.018099001 0.052969001 0.043738998
0.088096999 0.15669 0.090434998
0.048110999 0.14448 0.10713
0.048280001 0.14382 0.10671
0.065494999 0.13970999 0.098289996
0.073693 0.16179 0.076959997
0.071958996 0.16215999 0.076554999
0.072988003 0.16166 0.077515997
0.068985 0.12006 0.039928
0.068924002 0.11947 0.040835999
-0.0044495999 0.097750001 0.018703001
-0.0044201999 0.098944001 0.018668
-0.0031472 0.098701999 0.018044
0.0027319 0.098780997 0.01609
0.0014482 0.098994002 0.016355
0.00072766002 0.099467002 0.015856
0.066748001 0.16128001 0.069578998
0.065477997 0.16061001 0.069881998
0.066336997 0.16122 0.070735
0.099590003 0.12216 0.055204999
0.099283002 0.12204 0.056598999
0.099467002 0.12262 0.057252999
0.068364002 0.13304999 0.036715001
0.042539001 0.12696999 0.069233
0.035822 0.12876 0.045582
0.036040001 0.12917 0.046204001
0.041761 0.19293 0.078129001
0.052561 0.14923 0.075193003
0.052572001 0.14910001 0.076059997
0.056798998 0.14647999 0.11076
0.056993 0.14534999 0.10958
0.0030944999 0.10493 0.040704999
0.0033897001 0.10505 0.041873001
0.040904 0.101 0.066028997
0.042512 0.19536 0.081240997
0.043194 0.19529 0.081339002
0.062858999 0.13744999 0.093259998
0.064242996 0.13809 0.094093002
0.033753999 0.068323001 0.051474001
0.048358999 0.14489999 0.102
0.047759 0.14410999 0.10403
0.049247 0.14504001 0.10244
0.084880002 0.14848 0.095779002
0.079806998 0.16117001 0.086342998
0.079680003 0.16113999 0.084904
0.060938999 0.15896 0.091843002
0.058883999 0.15798999 0.092651002
0.043269001 0.088587999 0.026271001
0.041988 0.088688001 0.027107
0.023476001 0.068925001 0.054237001
0.023822 0.069557004 0.055983
0.024579 0.069273002 0.054499
0.096262001 0.099858999 0.11744
0.096519999 0.10073 0.11914
0.049949002 0.16993999 0.049864002
0.049366001 0.16903 0.049543999
0.049617 0.1709 0.049598999
0.066241004 0.11179 0.082920998
0.067105003 0.11146 0.083297998
0.049748 0.087141 0.046206001
0.048742 0.087930001 0.046059001
0.043402001 0.19473 0.063676
0.093635999 0.11616 0.091227002
0.075459003 0.16219001 0.070073999
0.086065002 0.10172 0.093774997
0.068558998 0.16066 0.053555001
0.068558998 0.16054 0.052914999
0.050441999 0.15074 0.050742
0.078308001 0.16437 0.078031003
0.077177003 0.16492 0.078755997
0.032625001 0.10608 0.059411
0.031376 0.18385001 0.061935998
0.098020002 0.12836 0.048875
0.098309003 0.12925 0.049435999
0.098566003 0.12887 0.050365001
0.050239999 0.18318 0.073155001
0.042339999 0.16369 0.064231999
0.043398999 0.16350999 0.065122999
0.042831998 0.16466001 0.064466998
0.095991001 0.15843999 0.070913002
0.095471002 0.1604 0.069431998
0.057783 0.081574999 0.051410999
0.058281001 0.082331002 0.050831001
0.057916999 0.082170002 0.051959001
0.018138999 0.034596998 0.063616998
0.09612 0.12713 0.083593003
0.095784999 0.12747 0.082694001
0.095039003 0.12747 0.084128998
0.10187 0.15266 0.064186998
0.088591002 0.16125 0.081375003
0.089474 0.16113999 0.080836996
0.090614997 0.16091999 0.080141
-0.0057593002 0.090634003 0.014377
-0.0042115999 0.090216003 0.014666
0.066028997 0.12727 0.037278
0.065697998 0.12803 0.037025999
0.063982002 0.12921 0.038112
0.030735999 0.11312 0.058127999
0.032212999 0.1113 0.057937
0.064246997 0.14709 0.10737
0.062422 0.14693999 0.10676
0.049513001 0.1539 0.10751
0.049872998 0.1531 0.10784
0.034867 0.070271 0.054749001
0.034742001 0.070054002 0.052779999
0.033758 0.070312001 0.053344999
0.044303 0.20243999 0.077785
0.050609 0.095991999 0.042961001
0.050133001 0.096322998 0.042236
0.083307996 0.15031999 0.10573
0.085386999 0.10867 0.066813998
0.086765997 0.10839 0.065915003
0.069089003 0.16075 0.078790002
0.069845997 0.16012 0.079265997
0.020914 0.056639999 0.060773
0.021283001 0.058063 0.062013999
0.020446001 0.058102001 0.060447
0.094058998 0.10856 0.097978003
0.023697 0.045502 0.056898002
0.02476 0.045203999 0.057484001
0.09166 0.1129 0.079461999
0.091626003 0.11277 0.081258997
0.034687001 0.064957 0.073296003
0.034373 0.064090997 0.072766997
0.034912001 0.064553998 0.0744
0.073030002 0.11413 0.091178998
0.072687 0.11514 0.090121999
0.059314001 0.15575001 0.046354
0.058040999 0.15477 0.046870001
0.057865001 0.15542001 0.046002999
0.060265001 0.10379 0.041643001
0.060187999 0.1048 0.041142002
0.061055001 0.10463 0.041591
-0.023087 0.090680003 0.034334
-0.024458 0.08946 0.034056
0.048036002 0.15332 0.065076999
0.085450001 0.12073 0.04219
0.085717998 0.1202 0.044379
0.085740998 0.12009 0.043639001
0.03929 0.12614 0.056680001
0.039338998 0.096327998 0.052519999
0.038913999 0.096853003 0.051725
0.051697001 0.12494 0.078582004
0.051644001 0.12344 0.078426003
0.051578999 0.12385 0.079481997
0.093868002 0.10462 0.10775
0.093222998 0.10382 0.10768
-0.0039598998 0.10254 0.023476999
-0.0034498 0.10238 0.024459001
-0.0034630001 0.10275 0.024821
0.080275998 0.15568 0.10828
0.080830999 0.15654001 0.1066
0.080643997 0.15599 0.10751
0.038717002 0.12673 0.054118998
0.037852 0.12613 0.056180999
0.048025001 0.16674 0.048287001
0.049883999 0.12558 0.038173001
0.04857 0.12408 0.038229998
0.047791 0.12457 0.038998999
0.017217999 0.12206 0.050795
0.018313 0.12293 0.050735999
0.045479 0.097708002 0.043171
0.10402 0.13273001 0.071594
0.077036999 0.17306 0.092579998
0.077152997 0.17306 0.093520999
0.080620997 0.16034 0.092669003
0.080554001 0.16067 0.091195002
0.079945996 0.16099 0.091992997
0.093506001 0.1164 0.12309
0.093718998 0.11643 0.12294
0.093322001 0.11645 0.12165
0.020403 0.027968001 0.064957999
0.020321 0.029017 0.064222001
0.090663001 0.11669 0.12772
0.066022001 0.15118 0.044427998
0.065846004 0.15068001 0.044318002
0.067031004 0.15109 0.043528002
0.080826998 0.12002 0.14841001
0.079694003 0.12123 0.1472
0.081251003 0.11942 0.14631
-0.027175 0.096106 0.023015
0.060669001 0.077615999 0.058382001
0.058789998 0.077293001 0.057326999
0.030197 0.18409 0.067619003
0.030607 0.18343 0.067662001
0.088932998 0.11888 0.13180999
0.059762999 0.12319 0.090622999
0.060695 0.12266 0.090510003
0.060125999 0.12442 0.090425998
0.051079001 0.15143 0.10831
0.084062003 0.12125 0.14726
0.083189003 0.12087 0.14735
0.083837003 0.12039 0.14782999
0.088097997 0.15027 0.10347
0.05088 0.12955 0.040770002
0.052271999 0.12942 0.040702999
0.084763996 0.14813 0.10734
0.042353999 0.099696003 0.042746
0.041909002 0.10107 0.042390998
0.10016 0.12797999 0.053121999
0.099533997 0.12706999 0.052685
0.088857003 0.16322 0.065366
0.089060001 0.16234 0.066040002
0.046670999 0.12142 0.037195999
0.012602 0.037067998 0.066892996
0.0133 0.036555 0.067020997
0.073648997 0.16500001 0.089523003
0.073421001 0.16348 0.087780997
0.072471 0.16377001 0.088105999
0.099884003 0.1233 0.057282001
0.099978 0.12292 0.055955999
0.10042 0.12401 0.056839
0.063814998 0.15178999 0.045912001
0.064259999 0.15127 0.045035001
0.063274004 0.15046 0.045267001
0.046661001 0.12853999 0.041960001
0.047308002 0.12739 0.042622
0.041777 0.16037001 0.052243002
0.042647999 0.16085 0.051573001
0.096235 0.14962 0.049162
0.096616 0.15084 0.049373999
0.063166 0.14821 0.10853
0.088768996 0.16099 0.085859999
0.089207999 0.16076 0.087098002
0.020672999 0.029811 0.064924002
0.079680003 0.10657 0.12948
0.080338001 0.10533 0.12896
0.0084894001 0.096023001 0.017185999
0.049465001 0.13966 0.099359997
-0.01336 0.080323003 0.019680001
-0.012858 0.081583001 0.017872
-0.012602 0.080020003 0.018793
0.022195 0.068337001 0.058543
0.052701 0.071984999 0.071000002
0.054285999 0.072650999 0.069262996
0.01527 0.051429 0.045761
0.01427 0.051566001 0.044831999
0.014108 0.051058002 0.045115001
0.096652001 0.15872 0.070556998
0.037978999 0.087930001 0.068209998
0.037248999 0.089013003 0.067695998
0.03737 0.088188998 0.067755997
0.033713002 0.052409001 0.061806001
0.034281 0.051688999 0.061512999
0.035232998 0.051378001 0.062160999
0.040614001 0.072857 0.076043002
0.040146001 0.072253004 0.075990997
0.041512001 0.071075 0.075386003
0.042846002 0.19284999 0.059291001
0.015021 0.034841001 0.052521002
0.015778 0.033877 0.052545998
0.015942 0.033957001 0.052579001
0.067768998 0.10297 0.062286001
0.068832003 0.10362 0.061437
0.019785 0.10529 0.031883001
0.021411 0.10595 0.031606998
0.051084001 0.17817 0.066197
0.051956002 0.17795999 0.065026
0.10273 0.14783999 0.056499001
0.1029 0.12682 0.062433999
0.10262 0.12682 0.06134
0.10279 0.12699001 0.061253998
0.046957999 0.086475 0.022319
0.045256998 0.086649001 0.022709999
0.021725001 0.039560001 0.046744999
0.083779998 0.099918 0.10574
0.083938003 0.1005 0.10502
0.087017998 0.10485 0.083322003
0.085546002 0.1048 0.082891002
0.086542003 0.10465 0.081928
0.016342999 0.045977999 0.058150001
0.058479 0.075811997 0.062089998
0.078405 0.14162 0.10101
0.077570997 0.14271 0.10167
0.077964 0.14133 0.10198
0.07564 0.11845 0.041822001
0.076999001 0.11842 0.042502001
0.090058997 0.10917 0.13891999
0.089456998 0.10977 0.13992
0.088353001 0.10932 0.14105999
0.0027993999 0.10169 0.040149
0.0016384 0.10221 0.039792001
0.0014864 0.10172 0.040107001
0.068467997 0.10762 0.072599001
0.067855999 0.10717 0.072172999
0.017690999 0.045710001 0.036245
0.082199 0.11963 0.041019
0.094829001 0.11384 0.07
0.022968 0.068806 0.059452999
0.04865 0.19435 0.080527
0.087286003 0.13773 0.038959999
0.074222997 0.16374999 0.061494999
0.084415004 0.1584 0.089735001
0.019102 0.027195999 0.06718
0.018699 0.027207 0.067345001
0.018321 0.026563 0.066889003
0.070458002 0.15798 0.048694
0.068751998 0.15786 0.049098998
0.069426998 0.15916 0.049802002
0.10275 0.12955999 0.063399002
0.039487999 0.095369004 0.059923999
0.038968001 0.096479997 0.060715999
0.039111 0.096547998 0.061076999
0.066794999 0.13355 0.090452999
0.066679999 0.13279 0.089975998
0.066761002 0.13176 0.090319999
0.10446 0.14129999 0.057750002
0.10388 0.14139 0.057057999
0.104 0.14213 0.058277
0.043430001 0.13164 0.072633997
0.044884998 0.13147999 0.073066004
0.043937001 0.13169 0.073247001
0.069086999 0.15640999 0.10267
0.068497002 0.1564 0.10314
0.068860002 0.15531 0.10365
0.052852999 0.13598 0.046204001
0.051826999 0.13425 0.045479
-0.019014001 0.084284 0.033163
-0.020246999 0.084329002 0.032979999
0.020553 0.054988999 0.042635001
0.079590999 0.16208 0.082875997
0.079241998 0.163 0.081997998
0.019035 0.036596999 0.047313999
0.085027002 0.10289 0.13776
0.083515003 0.10343 0.13965
0.082907997 0.10238 0.13781001
0.057618 0.1565 0.097777002
0.058051001 0.15648 0.097021997
0.056655999 0.15577 0.097603999
0.084666997 0.11761 0.11786
0.084045 0.11746 0.11756
0.040486999 0.19193999 0.058364999
0.064176001 0.096316002 0.057137001
0.063066997 0.095769003 0.058214001
0.049844999 0.13699 0.080381997
0.048172001 0.1367 0.080071002
0.042291999 0.20081 0.073583998
0.043432999 0.20097999 0.073694997
0.043129999 0.1999 0.072586998
0.047423001 0.13086 0.044348001
0.015442 0.12801 0.040231999
0.055891 0.15699001 0.045596
0.078991003 0.1504 0.10417
0.080622002 0.15082 0.10417
0.093621999 0.11031 0.084536999
0.093158998 0.10901 0.086011998
0.086452 0.10202 0.091554001
0.086802997 0.10197 0.092664003
0.064098999 0.15951 0.083897002
0.062645003 0.15909 0.085529998
0.063414998 0.15949 0.085772
0.028949 0.12148 0.055642001
0.029733 0.12138 0.055712
0.065121002 0.098623 0.052243002
0.065513 0.099936001 0.052898999
0.079783 0.15239 0.10805
0.079178996 0.13134 0.097630002
0.079531997 0.13032 0.095988996
0.080176003 0.13152 0.096440002
0.095884003 0.12293 0.083959997
0.063730001 0.15573999 0.079608999
0.094476998 0.11559 0.075801998
0.094945997 0.1161 0.075423002
0.094751999 0.11542 0.077096
0.046282999 0.16819 0.066404998
0.046815999 0.16778 0.065195002
0.087307997 0.11662 0.14561
0.086535998 0.11769 0.14509
0.089993 0.12796 0.090241998
0.089798003 0.12576 0.090429999
0.090085 0.12729 0.089900002
0.029649001 0.11002 0.055101
0.053397998 0.1472 0.048657
0.013884 0.10334 0.025467999
0.0138 0.10438 0.026196999
0.073234998 0.11285 0.089155003
0.093837999 0.10578 0.10684
0.063455001 0.14077 0.10503
0.078120001 0.10075 0.11104
0.045412999 0.13899 0.058497999
0.045816999 0.13866 0.059399001
0.075894997 0.10583 0.10112
0.075254001 0.10614 0.099436998
0.076063 0.10531 0.099964
-0.0030847001 0.088059001 0.029672001
-0.0035418 0.089184001 0.029472999
0.075230002 0.10784 0.092326
0.051878002 0.085745998 0.020205
0.052467 0.087077998 0.019673999
0.050053999 0.17657 0.056511998
0.050457001 0.077941999 0.075314999
0.05077 0.077172004 0.074548997
0.056320999 0.16631 0.062070001
0.056651998 0.16705 0.061400998
0.056356002 0.16649 0.062066998
0.0546 0.15351 0.095492996
0.093629003 0.11287 0.1015
0.093189001 0.11363 0.10174
0.093222 0.11247 0.10182
0.037684999 0.10245 0.044670001
0.03805 0.10247 0.046145
0.059613999 0.12038 0.088932998
0.016419999 0.030920001 0.060277998
0.016085999 0.029079 0.061239999
0.015806001 0.030317999 0.061675999
0.078901 0.10473 0.084200002
0.079646997 0.10395 0.084602997
0.078838997 0.10416 0.08574
0.094975002 0.11288 0.12037
0.0084177004 0.10489 0.042787999
0.065016001 0.10409 0.044059001
0.067032002 0.10453 0.043945
0.02679 0.11799 0.054163001
0.028517 0.11844 0.055938002
0.026795 0.11888 0.054506
0.044406001 0.15702 0.063150004
0.045125999 0.15628999 0.063345
0.032620002 0.18492 0.074178003
0.080264002 0.1083 0.052963
0.052026998 0.069495998 0.069597997
0.051268999 0.06938 0.068896003
0.050716002 0.069172002 0.069922999
-0.0024468999 0.081969 0.012203
-0.0034844 0.082661003 0.012725
-0.0025686 0.083276004 0.012836
0.10377 0.13445 0.071024999
0.078380004 0.10368 0.088184997
0.034952 0.077844001 0.070458002
0.037218001 0.051479001 0.052627001
0.053107999 0.094605997 0.070455998
0.053847 0.095537998 0.070354998
0.046606001 0.15015 0.061941002
0.047529001 0.15001 0.061393
0.057978999 0.14352 0.044546999
0.058935001 0.14409 0.042787999
0.075030997 0.18052 0.094994001
0.075680003 0.18246999 0.094889
0.059960999 0.13874 0.099376
0.060412999 0.13892999 0.098292999
0.044066001 0.14208999 0.067501001
0.098279998 0.10553 0.11989
0.098251 0.10474 0.12076
0.098498002 0.10374 0.12042
0.092712998 0.11188 0.10259
0.092630997 0.11312 0.10239
0.022251001 0.11404 0.053971
0.086627997 0.1069 0.079565004
0.087757997 0.10807 0.079351
0.087747 0.10747 0.079577997
0.038105998 0.11499 0.033215001
0.064021997 0.10334 0.044312999
0.023574 0.1069 0.030656001
0.023182999 0.10607 0.031481002
0.0092358999 0.039939001 0.054377001
0.0093109002 0.03974 0.054993
0.0092634 0.039942998 0.054517999
0.047572002 0.092919998 0.071586996
0.047499999 0.093748003 0.071249001
0.031468 0.051004 0.060575001
0.092179999 0.15527999 0.090944
0.088995002 0.1101 0.078155003
-0.0072293999 0.084221996 0.026408
-0.0087457001 0.084991001 0.027285
-0.0080671003 0.084045 0.027450001
0.036777001 0.082131997 0.053245999
0.037611 0.082019001 0.053111002
0.092307001 0.13891999 0.041602001
0.092162997 0.14015999 0.042941
0.092656001 0.13954 0.043350998
0.027131001 0.11519 0.054591
0.027324 0.11416 0.054515999
0.027861999 0.11314 0.054761
0.043960001 0.088499002 0.028927
0.052258998 0.072779998 0.055024002
0.051847 0.072751999 0.055507999
0.035700001 0.082479 0.058708001
0.066644996 0.16012 0.074832998
0.067289002 0.16114999 0.075487003
0.068258002 0.16016001 0.074450001
0.045766 0.1112 0.071914002
0.046859998 0.11744 0.036067002
0.046259001 0.11656 0.035103001
0.045961998 0.11828 0.035402998
0.015798001 0.053711001 0.050795998
0.015461 0.054416999 0.049968001
-0.0050066998 0.090182997 0.026645999
0.068554997 0.14396 0.10527
0.061762001 0.084009998 0.056122001
0.012502 0.036665998 0.065990999
0.069486 0.13774 0.095564999
0.069435999 0.13892999 0.096647002
0.036763001 0.11054 0.067919001
0.089575 0.15637 0.11585
0.090140998 0.15744001 0.11506
0.089626998 0.15681 0.1153
0.076517001 0.10404 0.10906
0.076856002 0.10415 0.10736
0.076410003 0.10401 0.10905
-0.0028378 0.10624 0.036162999
0.010333 0.11215 0.047681998
0.0098663 0.11211 0.048140999
0.030602001 0.046346001 0.052149002
0.030755 0.046921 0.052014001
0.076932997 0.11385 0.14596
0.078083999 0.11319 0.14506
0.033934999 0.049029998 0.051916
0.034304 0.049088001 0.051376998
0.039802 0.059220999 0.068951003
0.039448 0.058357999 0.069450997
0.038977001 0.058529001 0.069213003
0.016023001 0.052080002 0.052917998
0.036888 0.083993003 0.053699002
0.036851998 0.085472003 0.05398
0.075018004 0.13208 0.09296
0.042638 0.065970004 0.057393
0.070160002 0.17087001 0.10099
0.070184998 0.1714 0.1015
0.094994999 0.11511 0.064157002
0.016042 0.031143 0.057269
0.016473999 0.031725001 0.057748001
0.015718 0.032713 0.057514001
0.087867998 0.15270001 0.10353
0.041669 0.090611003 0.027024999
0.042001002 0.091039002 0.025312999
0.042034999 0.090278 0.025519
0.053807002 0.14237 0.080096997
0.048808999 0.14176001 0.054345001
0.048463002 0.14258 0.055346001
0.057840001 0.15705 0.10076
0.096444003 0.14856 0.084236003
0.074198999 0.16242 0.086170003
0.075786002 0.16177 0.085689001
0.075213 0.16213 0.086434998
0.00061574997 0.10764 0.039554998
-0.00083855999 0.10746 0.039177001
0.001003 0.10702 0.040798001
0.075759001 0.10482 0.13872001
0.076334 0.10658 0.13821
0.048969001 0.15877999 0.065571003
0.048884999 0.15708999 0.065039001
0.050409 0.15751 0.065954998
0.093673997 0.10844 0.10491
0.050662 0.068650998 0.060463
0.049394999 0.068558998 0.059877999
0.064015999 0.16102999 0.077549003
0.047834001 0.10361 0.034322999
0.047460999 0.10473 0.035300002
0.048101 0.066432998 0.063428998
0.047091998 0.065610997 0.064726003
0.046330001 0.065906003 0.063267998
0.0088753002 0.087251 0.020065
0.022577001 0.036908001 0.057385001
0.022089001 0.036279 0.059154999
0.022275999 0.035944 0.057456002
0.082061 0.11841 0.11247
0.081982002 0.11688 0.11212
-0.00046812001 0.080541998 0.022374
0.00019763999 0.081237003 0.021942999
0.086736999 0.16277 0.066302001
0.034100998 0.1146 0.030051
0.040973 0.091499999 0.028086999
0.041788001 0.090700999 0.026907001
0.04208 0.090017997 0.028841
0.034132 0.11315 0.061207999
0.033622 0.11255 0.059774
0.033576 0.11207 0.061014
0.035457 0.18086 0.054414999
0.035769001 0.18054 0.053872
0.00024989 0.097199 0.037037998
0.082333997 0.10263 0.12859
0.080863997 0.10225 0.12808999
0.10079 0.13826001 0.051573001
0.10156 0.13933 0.051433999
0.10125 0.13856 0.052122001
0.075425997 0.10525 0.14167
0.07564 0.1045 0.14311001
0.0612 0.11797 0.088395
0.060213 0.11898 0.089172997
0.035921 0.056772999 0.069756001
0.034318 0.056813002 0.069893003
0.035014998 0.056471001 0.069739997
0.0036490001 0.084423997 0.026546
0.0055358 0.085127003 0.026547
0.0032935999 0.084411003 0.026797
0.0072075999 0.10162 0.040183
0.0066801002 0.10064 0.040254001
0.0080297003 0.10161 0.039765999
0.078688003 0.1041 0.12812001
0.079934999 0.10397 0.12791
0.034274001 0.17964 0.074033
0.072375 0.13174 0.092316002
0.072864003 0.1322 0.092859
0.080436997 0.098766997 0.12022
0.059912 0.16153 0.071505003
0.060624 0.1609 0.071644001
0.052719001 0.15372001 0.046824999
0.053571999 0.15470999 0.046735
0.052749 0.153 0.047350001
0.084550999 0.098186001 0.1118
0.083884999 0.097648002 0.11282
0.046546001 0.087329 0.016930999
0.046202 0.087797001 0.017270001
0.050128002 0.14103 0.10223
0.049268 0.14123 0.10175
0.049619999 0.14058 0.10124
0.099918999 0.13 0.077659003
0.036534 0.11777 0.031617999
0.034839001 0.11697 0.030906999
0.03452 0.11845 0.030096
0.076306 0.10789 0.13734999
0.022149 0.042700998 0.055551
0.10339 0.14597 0.073877998
0.071249001 0.17848 0.092143998
0.024197999 0.10967 0.052234001
0.024036 0.10872 0.050914001
0.024881 0.10865 0.051562998
0.069266997 0.16856 0.099274002
0.070657998 0.16847999 0.098594002
0.070216 0.16755 0.097703002
0.019731 0.06202 0.053261999
0.029794 0.12964 0.037916001
0.031181 0.12986 0.039308999
0.036200002 0.077647999 0.053984001
0.036795001 0.077514999 0.053707998
0.036926001 0.077726997 0.052940998
0.041838001 0.093852997 0.033053
0.10171 0.1532 0.073454
0.085841998 0.10421 0.081802003
-0.0020006001 0.091022998 0.014266
0.084611997 0.16416 0.066790998
0.085276999 0.16348 0.067881003
0.094994001 0.15704 0.078364998
0.095282003 0.15710001 0.079856001
0.094898999 0.15662999 0.079735003
0.016674001 0.031043001 0.055964999
0.050145 0.12228 0.036940999
0.058791 0.14658999 0.085863002
0.050055001 0.17535999 0.055886
0.050253998 0.17494 0.056373999
0.044824999 0.081944004 0.048
0.045922 0.083607003 0.047791
0.045818001 0.082859002 0.047141001
0.056770001 0.085739002 0.070564002
0.026787 0.070991002 0.062052
0.037106998 0.087343 0.052184001
0.037916999 0.088491999 0.052643001
0.038150001 0.087917998 0.051715001
0.072563998 0.10641 0.070646003
0.089422002 0.11124 0.077223003
0.055193 0.13801 0.042610999
0.056150001 0.13794 0.041951001
-0.0051513999 0.095082 0.017594
-0.0057798 0.094961002 0.016588001
0.078666002 0.13585 0.09708
0.078211002 0.13534001 0.097625002
0.089757003 0.11718 0.14158
0.090709001 0.11786 0.141
0.089636996 0.1179 0.14056
0.0053547001 0.088202 0.032377001
0.016123001 0.12369 0.049778
0.015278 0.12381 0.048843998
0.015884001 0.12356 0.049688
0.074065 0.14819001 0.038959999
0.073045 0.14815 0.039147001
0.073634997 0.14872 0.040066998
0.10099 0.12603 0.075066
0.10078 0.12541001 0.074188001
0.038837001 0.191 0.076491997
0.0053739999 0.095969997 0.038671002
0.066458002 0.15029 0.10837
0.065545999 0.15061 0.10824
0.095452003 0.14677 0.047297999
0.023225 0.045248002 0.044036001
0.025156001 0.045393001 0.044677
0.023736 0.045398001 0.044649001
0.022436 0.034216002 0.057603002
0.022999 0.032857001 0.057604
0.091165997 0.097332999 0.11214
0.087669998 0.14862999 0.092441
0.087684996 0.14847 0.092081003
0.087507002 0.14759 0.092124
0.013937 0.049796 0.039471
0.062595002 0.15379 0.10412
0.062013999 0.15477 0.10385
0.01912 0.052972998 0.058970001
0.018696999 0.053904001 0.058346
0.019173 0.052166998 0.058548
0.045977 0.094085 0.036490999
0.091095999 0.10696 0.1313
0.090765998 0.10646 0.13063
0.078203 0.16214 0.087246999
0.076583996 0.16173001 0.087330997
0.046135999 0.085886002 0.020606
0.046649002 0.085529998 0.020457
0.076062001 0.10483 0.11438
0.082405001 0.11324 0.12585001
0.056178 0.15541001 0.094544001
0.055509999 0.15556 0.094936997
0.057009999 0.15652999 0.095792003
0.083397001 0.15710001 0.10574
0.029104 0.12864 0.047612
0.029035 0.12746 0.049332999
0.091796003 0.13767 0.091783002
0.091732003 0.13736001 0.090325996
0.091522999 0.13783 0.090833001
0.087467998 0.14033 0.092367001
0.087796003 0.14071999 0.091493003
0.087651998 0.14029001 0.091399997
0.050446 0.085653 0.074033
0.051311001 0.086237997 0.073772997
0.077564999 0.10707 0.11861
0.078707002 0.10639 0.11875
0.047203001 0.16904999 0.048402
0.048215002 0.16823 0.049745999
0.078193001 0.11205 0.14749999
0.077114001 0.11309 0.14731
0.055565 0.078713998 0.050937001
0.056389999 0.079287 0.050836999
0.054639999 0.079745002 0.050588001
0.052593 0.15030999 0.094870001
0.051015001 0.14587 0.097161002
0.049639001 0.14551 0.095660999
0.094548002 0.099091001 0.12028
0.012839 0.10439 0.042794999
0.028044 0.070707999 0.062815003
0.099379003 0.14508 0.082177997
0.10052 0.14523 0.081978001
0.024567001 0.046905 0.05878
0.026307 0.048563998 0.059094999
0.091044001 0.10321 0.10455
0.089612998 0.10293 0.10443
0.015136 0.033987999 0.051394999
0.015159 0.034464002 0.050315
0.016100001 0.033815 0.050972
0.094713002 0.14143001 0.04332
0.05579 0.099719003 0.04143
0.057392001 0.10006 0.042110998
0.030948 0.049330998 0.058240999
0.03658 0.057511002 0.069392003
0.096463002 0.12583999 0.049348
0.095978998 0.12577 0.047421001
0.090641998 0.1032 0.12936001
0.10171 0.12640999 0.074813999
0.061331999 0.11532 0.086655997
0.061349999 0.11641 0.087407
0.092671998 0.15361001 0.1099
0.092377998 0.15222 0.11013
0.092274003 0.15293001 0.10874
0.037695002 0.11775 0.065808997
0.037002999 0.11848 0.066281997
0.073463 0.10709 0.14409
0.074023999 0.10579 0.14365
0.091077 0.1566 0.11554
0.09082 0.15696999 0.11481
0.0026926 0.10652 0.041910999
0.003544 0.10591 0.042052999
0.035764001 0.084040999 0.056226
0.060095001 0.092248 0.064621001
0.061480999 0.093373999 0.064567
0.024052 0.12932 0.04081
0.059275001 0.083199002 0.067651004
0.090098001 0.14946 0.092393003
0.041097 0.12406 0.066044003
0.040667001 0.12354 0.066414997
0.085483998 0.11256 0.049029998
0.083258003 0.11259 0.048958
0.083315998 0.11228 0.048829
0.058839999 0.085615002 0.051690999
0.070514999 0.13833 0.095716998
0.071204998 0.13959999 0.096372999
0.071212001 0.13886 0.097470999
0.060920998 0.13038 0.039639
0.061861001 0.12981001 0.040329002
0.060295001 0.12924001 0.039705001
0.059300002 0.12815 0.039209999
0.097889997 0.14131001 0.081964999
0.098461002 0.14153001 0.082644999
0.049070999 0.10571 0.071727
0.048657998 0.10669 0.071206003
-0.0032561 0.093137003 0.032184001
-0.0032643999 0.093994997 0.031548001
0.020346001 0.060160998 0.061583001
-0.010686 0.088297002 0.02813
-0.0091054002 0.087499 0.028122
-0.0085228002 0.088391997 0.026807001
0.050721001 0.11032 0.071621001
0.051929001 0.1105 0.072117999
0.050983001 0.11137 0.073279999
0.045481 0.06752 0.072360002
0.046707999 0.068621002 0.073345996
0.049653001 0.084252 0.047965001
0.051238 0.082759 0.046720002
0.050303001 0.081873 0.047878999
0.068576999 0.13959 0.037278999
0.068230003 0.14057 0.036970999
0.069891997 0.13968 0.036274001
0.082369 0.11801 0.11132
0.081872001 0.11737 0.11147
-0.0077590998 0.074933 0.018663
0.024512 0.060237002 0.046126999
0.0071938001 0.089711003 0.034924999
0.0078456998 0.089763999 0.034085002
0.0091064004 0.090245999 0.034231
-0.0023320999 0.10881 0.032568
0.022433 0.059246 0.063316002
0.022700001 0.058157001 0.063405998
0.086115003 0.11229 0.14313
0.082957998 0.10354 0.083986998
0.083943002 0.10269 0.083752997
0.083635002 0.10288 0.084641002
-0.0067007001 0.075967997 0.013155
-0.0065796999 0.075808004 0.013999
0.071126997 0.11188 0.083508
0.072397999 0.11123 0.083595
0.0073365001 0.12154 0.039887998
0.049337 0.11212 0.072219998
0.047968 0.11238 0.072939999
0.097521998 0.1516 0.082381003
-0.024808001 0.089114003 0.034294002
0.046803001 0.083820999 0.047904
0.047513001 0.083756 0.047440998
0.057932999 0.15049 0.08946
0.058594 0.14984 0.088872999
0.038477 0.12579 0.056325
0.047910001 0.14948 0.065321997
0.048776999 0.095283002 0.025996
0.086002 0.16046 0.052200999
0.085302003 0.16037001 0.051894002
0.085701004 0.16102 0.052498002
0.059866 0.084173001 0.052485
0.0012775999 0.10973 0.041283
0.00049322 0.10819 0.040711999
0.0023775001 0.1092 0.041777998
0.054375 0.071292996 0.064709
0.053479999 0.070318997 0.063335001
0.052983001 0.069668002 0.062265001
