# .PCD v0.7 - Point Cloud Data file format
VERSION 0.7
FIELDS x y z
SIZE 4 4 4
TYPE F F F
COUNT 1 1 1
WIDTH 1532
HEIGHT 1
VIEWPOINT 0 0 0 1 0 0 0
POINTS 1532
DATA ascii
0.012306 0.043740001 0.20810001
0.013077 0.044941001 0.20727
0.059411999 0.011297 0.19947
0.060178 0.012211 0.19898
0.011052 0.044 0.20761
0.012737 0.043634001 0.21167
0.061443001 0.010274 0.20486
0.035691999 0.025957 0.20829999
0.034017 0.027429 0.20829
0.05844 0.012261 0.20568
0.015504 0.040927 0.21073
0.011945 0.043088 0.21197
0.013385 0.040950999 0.21175
0.059588 0.012543 0.20582999
0.057 0.013081 0.20621
0.020331999 0.038445 0.21247999
0.016667999 0.041079 0.21193001
0.045809001 0.019083001 0.21258
0.04462 0.020761 0.2147
0.032692999 0.029399 0.21652
0.041342001 0.023019999 0.21674
0.053518999 0.014571 0.21336
0.0319 0.028844999 0.21757001
0.057951 0.011972 0.21311
0.057565 0.010692 0.2132
0.053339999 0.016450001 0.21397001
0.059517998 0.011405 0.21345
0.033716999 0.027054001 0.21735001
0.055810999 0.013167 0.21352001
0.035872001 0.025106 0.21766999
0.035301 0.026557 0.21682
0.030048 0.028455 0.21791001
0.0403 0.023156 0.21852
0.026010999 0.032845002 0.22265001
0.023856999 0.032745 0.22186001
0.056878999 0.012137 0.21768001
0.055876002 0.012379 0.21746001
0.055105001 0.011642 0.22149
0.027554 0.032566 0.22352
0.027826 0.031668998 0.22285999
0.014031 0.039760999 0.22669999
0.016439 0.039799999 0.22566999
0.0211 0.032754 0.22516
0.014828 0.040851999 0.22516
0.022476001 0.034042999 0.22565
0.019286999 0.037346002 0.22661
0.022252999 0.034405001 0.22678
0.019926 0.034178998 0.22521
0.055413999 0.011876 0.22233
0.02279 0.032747 0.22396
0.013122 0.040736001 0.22761001
0.014706 0.038754001 0.22863001
0.024402 0.032437 0.22581001
0.025828 0.031026 0.22545999
0.055179998 0.01284 0.22442999
0.020163 0.034648001 0.22985999
0.018586 0.034465 0.2281
0.053947002 0.012394 0.22515
0.056221999 0.012191 0.22476
0.058495998 0.010557 0.22750001
0.058511999 0.0094312001 0.2271
0.016147001 0.034533001 0.23469
0.059347998 0.0074049998 0.22984
0.023147 0.033213001 0.23491
0.016811 0.037303001 0.23665
0.058586001 0.0080893999 0.23097999
0.017650999 0.034982 0.23714
0.023607999 0.031093 0.23706999
0.020354999 0.034519002 0.23665
0.020245999 0.033906002 0.23858
0.019938 0.033619002 0.23796
0.059448 0.0079733003 0.23219
0.019126 0.035162002 0.2406
0.020213 0.034616001 0.23856001
0.058759 0.0081989001 0.23464
0.018747 0.03559 0.23788001
0.052085001 0.013706 0.23456
0.052400999 0.012419 0.23544
0.020919001 0.032489002 0.23759
0.022973999 0.031587999 0.23882
0.021302 0.033133999 0.23938
0.018386999 0.034938 0.24201
0.059036002 0.0085303001 0.23518001
0.054816999 0.010161 0.23568
0.05198 0.012058 0.23492999
0.022116 0.031842001 0.24111
0.019695001 0.034876 0.24011999
0.058192 0.0078499001 0.23568
0.056781001 0.0095939003 0.23558
0.054986998 0.011157 0.2352
0.019446 0.033181001 0.24214999
0.019924 0.034589998 0.24368
0.051658001 0.013731 0.23864999
0.049451999 0.01532 0.23942
0.051034 0.013333 0.23871
0.017426999 0.033635002 0.24383
0.020416001 0.033061001 0.2447
0.047975998 0.014395 0.24021
0.021683 0.033666998 0.24454001
0.022477999 0.032187998 0.24363001
0.018755 0.033236999 0.24526
0.019608 0.034711 0.24721
0.048115 0.014144 0.24134
0.049493998 0.013462 0.24487001
0.019902 0.033082001 0.24656001
0.018262001 0.033119999 0.24919
0.017888 0.035018001 0.24895
0.021765999 0.031978998 0.24948999
0.047493 0.013826 0.24499001
0.018042 0.034853 0.24965
0.018431 0.032993998 0.25136
0.017455 0.033213001 0.24995001
0.019964 0.032274999 0.25334999
0.049214002 0.013819 0.24639
0.047692999 0.012637 0.24817
0.020081 0.031946 0.25101
0.017015999 0.033282001 0.25296
0.019532001 0.033783998 0.25082999
0.019396 0.032676 0.25229999
0.018314 0.034357999 0.25446001
0.020943999 0.032028999 0.25429001
0.018387999 0.033119999 0.25459
0.049869001 0.014392 0.24987
0.019029001 0.033785999 0.25578001
0.018186999 0.034458999 0.25538999
0.046712998 0.011576 0.25281
0.050243001 0.012648 0.25095999
0.020082001 0.032481 0.25562
0.019541999 0.033034001 0.25771999
0.020656999 0.030097 0.25720999
0.018847 0.032400999 0.25745001
0.048744 0.012772 0.25323999
0.048445001 0.013062 0.25511
0.019711999 0.032019001 0.2572
0.047307 0.011861 0.25516999
0.048324 0.011658 0.25654
0.018019 0.032595001 0.26085001
0.018904001 0.032269001 0.26146999
0.018034 0.031415999 0.26016
0.047251001 0.013491 0.25740999
0.020112 0.031746 0.26269001
0.049325999 0.01309 0.25814
0.050808001 0.011829 0.25949001
0.049027 0.012453 0.25872001
0.020312 0.031746998 0.26328
0.019176999 0.032109998 0.26416999
0.019006999 0.029607 0.26587999
0.019811001 0.032559 0.26615
0.050916001 0.011982 0.26233
0.019462001 0.031456001 0.26958999
0.018965 0.032348 0.26868999
0.019777 0.030133 0.26728001
0.020469001 0.030688001 0.26975
0.01969 0.031996999 0.26982999
0.020715 0.030748 0.27118999
0.019064 0.029038001 0.27186
0.019750001 0.030173 0.27149999
0.049787998 0.010129 0.26723
0.018727001 0.030107001 0.27414
0.020395 0.030576 0.27340001
0.01997 0.030878 0.27564001
0.048721999 0.010549 0.27008
0.019531 0.029424001 0.27636999
0.054209001 0.0066987998 0.27129
0.052354001 0.0079910997 0.27085
0.056621 0.0063747 0.2701
0.056007002 0.0056349002 0.27096
0.050654002 0.010732 0.27157
0.056774002 0.0050454 0.27208999
0.057202999 0.0064265998 0.27338001
0.054667 0.0051000998 0.27482
0.055397 0.0057573002 0.2728
0.019948 0.031207001 0.28058001
0.055110998 0.0065874001 0.27520001
0.052583002 0.0084162001 0.27587
0.053778 0.0064090001 0.27706
0.053454001 0.0075543001 0.27709001
0.052124001 0.0093593001 0.27968001
0.01898 0.030084001 0.28288999
0.020531001 0.028153 0.28242001
0.048820999 0.010208 0.27832001
0.047233 0.010641 0.27803999
0.048861999 0.0095651997 0.27821001
0.05139 0.0079161003 0.27878001
0.051029999 0.0079651996 0.28001001
0.049180999 0.0082847001 0.27803999
0.049633 0.0094932998 0.28055
0.046889 0.011148 0.27963999
0.045683999 0.011533 0.28075999
0.046383999 0.01076 0.28082001
0.04597 0.011257 0.28266999
0.045968 0.011863 0.28417
0.046835002 0.010377 0.28263
0.021004001 0.027841 0.28702
0.021792 0.025788 0.28896001
0.020292001 0.027752001 0.28911
0.020098999 0.027316 0.28707999
0.021226 0.027826 0.28975999
0.012044 0.033806998 0.29053
0.0098147998 0.033700999 0.28913999
0.046953999 0.0093508 0.28496
0.047761001 0.010444 0.28564
0.011495 0.032644998 0.29165
0.045306999 0.010847 0.28849
0.020761 0.028088 0.29177999
0.011673 0.033608001 0.29253
0.021431999 0.027690001 0.29190999
0.047949001 0.010575 0.28929999
0.014064 0.033124998 0.29372999
0.012934 0.033479001 0.29464999
0.022583 0.02715 0.29352999
0.024405001 0.026673 0.29503
0.011092 0.034000002 0.29696
0.022686001 0.024467001 0.29464999
0.023422001 0.026492 0.2967
0.012616 0.033057 0.29859
0.046034999 0.010071 0.29341
0.044755999 0.0090450998 0.2949
0.012843 0.032628 0.29936001
0.024068 0.025021 0.29771999
0.011961 0.032400999 0.30171999
0.023260999 0.023336001 0.29864001
0.043132 0.010501 0.29721001
0.043763999 0.01216 0.29651001
0.044402 0.011825 0.29745999
0.012963 0.033227 0.30215999
0.013443 0.0309 0.30052
0.014427 0.031493001 0.30436
0.010418 0.031574 0.30445999
0.043740001 0.011757 0.29938999
0.042640999 0.01088 0.30039999
0.012697 0.030972 0.30443999
0.01255 0.032506999 0.30563
0.012491 0.032145001 0.30540001
0.024286 0.022733999 0.30232999
0.012294 0.032120001 0.30840001
0.024608999 0.02135 0.30598
0.013773 0.031245001 0.30673999
0.042516001 0.012198 0.30287001
0.043053001 0.012002 0.30306
0.02502 0.02172 0.30587
0.015448 0.030417999 0.30928001
0.027944 0.019804001 0.30588001
0.011334 0.031149 0.30833
0.042208001 0.011183 0.30429
0.028384 0.020082001 0.30732
0.025588 0.021338001 0.30689001
0.01371 0.031096 0.30972999
0.027264001 0.019763 0.30899
0.024491001 0.021228001 0.30836001
0.027569 0.021249 0.30954999
0.023991 0.022119001 0.30647999
0.024373 0.023355 0.30856001
0.025713 0.02248 0.31005999
0.026802 0.020289 0.30949
0.013684 0.028705001 0.31117001
0.027434001 0.019897999 0.31123999
0.027474999 0.020111 0.30998001
0.059707999 -0.00041604001 0.30599999
0.058697 -0.00069636002 0.30447999
0.05858 -0.0010692 0.30416
0.041921999 0.010532 0.30662
0.041986998 0.01099 0.30904999
0.026439 0.021543 0.31044999
0.025831999 0.020513 0.31213
0.024963001 0.021731 0.31009999
0.025541 0.021025 0.30906001
0.013696 0.029382 0.31205001
0.014294 0.029718 0.31205001
0.013573 0.029725 0.31204
0.013819 0.031447001 0.31494999
0.013591 0.029151 0.31351
0.058848001 -0.0011537001 0.30774
0.058322001 -0.0018369 0.30785999
0.043005001 0.010066 0.31007001
0.025722001 0.022445001 0.31246999
0.026585 0.019652 0.31104001
0.025883 0.021906 0.31094
0.058488 -0.0013371001 0.30720001
0.024372 0.021252999 0.31364
0.058510002 -0.0010218 0.30788001
0.059390001 -3.2032e-05 0.30936
0.04329 0.010388 0.31005001
0.026567999 0.020674 0.31305999
0.026182 0.021059999 0.31246999
0.026099 0.022371 0.31431001
0.026179001 0.021121001 0.31420001
0.058015 -0.00068320998 0.30969
0.024689 0.022653 0.31323999
0.056905001 -0.0017028 0.30891001
0.024267999 0.023334 0.3134
0.014622 0.028193001 0.31634
0.024255 0.021083999 0.31573999
0.059287999 -0.00077993999 0.31026
0.042236999 0.010452 0.31207001
0.026469 0.020992 0.31433001
0.023933999 0.021942999 0.31490999
0.057413999 0.00092034001 0.31099001
0.045065999 0.010596 0.31251001
0.025187001 0.020164 0.31608
0.023235001 0.021457 0.31716999
0.043724999 0.0077947001 0.31373999
0.025729001 0.020702001 0.31586999
0.059080001 1.162e-06 0.31321001
0.043951999 0.0073441002 0.31477001
0.023255 0.021217 0.31816
0.021937 0.021258 0.31837001
0.046946999 0.0080094002 0.31413001
0.044612002 0.0070427 0.31415001
0.045364998 0.0066193002 0.31485999
0.045426998 0.0061014001 0.31628001
0.045451999 0.0083322003 0.31713
0.060295999 0.00012536001 0.31457001
0.058598001 -0.0014662 0.31577
0.020067999 0.022931 0.31952
0.04733 0.0062000002 0.31683999
0.021729 0.021968 0.31904
0.021128999 0.022531001 0.32253999
0.018944001 0.023843 0.32260999
0.013322 0.029569 0.32516
0.059744999 -0.0010171999 0.31773001
0.046002999 0.0056230999 0.31837001
0.055842999 0.00040421 0.31806999
0.048655 0.0059698001 0.31773001
0.053808998 0.00098280003 0.31819001
0.047520999 0.0047192001 0.31902999
0.019935001 0.025784999 0.32286
0.061294999 -0.0019723999 0.31814
0.049481001 0.0044466001 0.31714001
0.050299 0.0035433001 0.32052001
0.01278 0.029424001 0.32468
0.011509 0.028254 0.32604
0.057505999 -0.0028828999 0.31887001
0.059108 -0.0015934 0.31806001
0.019254001 0.023824001 0.32462001
0.058883 -0.0031957999 0.32161999
0.05971 -0.0018954 0.31942999
0.058888 -0.0015762 0.32085001
0.011132 0.028819 0.32659
0.048799001 0.0041449 0.32222
0.054354001 0.00071018998 0.32065001
0.061032999 -0.0015555 0.32119
0.053939 0.0017446 0.32137001
0.013291 0.02847 0.32933
0.051399998 0.0027439999 0.32205999
0.051587999 0.0041054999 0.32071
0.013648 0.028760999 0.33052
0.059661999 -0.0021923 0.32506999
0.059914 -0.0033970999 0.32460001
0.013751 0.026856 0.33774999
0.014378 0.027348001 0.33572999
0.035893999 0.011302 0.33431
0.034049999 0.013722 0.33397001
0.033712 0.014315 0.33535999
0.032228 0.013778 0.33489999
0.058180001 -0.0043934998 0.33182001
0.030440001 0.015194 0.33702999
0.028191 0.016577 0.33772999
0.042406 0.0066033001 0.33594
0.027388999 0.016501 0.33779001
0.061443001 -0.0042061 0.33335
0.042355999 0.0068112998 0.33621001
0.043699998 0.0081630005 0.33486
0.028108001 0.017379999 0.33902001
0.028525 0.016695 0.33963001
0.012953 0.028697999 0.34153
0.044248998 0.0067147999 0.33752999
0.027899999 0.017302999 0.34000999
0.059971999 -0.0038966001 0.33447999
0.047113001 0.0052729002 0.33853
0.013517 0.02555 0.34239
0.025469 0.018322 0.33892
0.013746 0.026365001 0.34553999
0.026249001 0.018291 0.34167001
0.048294 0.0040680999 0.33858001
0.048266001 0.0034147999 0.34024999
0.025203001 0.017855 0.34255999
0.01466 0.026574001 0.34527999
0.048914999 0.0042285002 0.34099001
0.061361998 -0.0039602998 0.33948001
0.025504 0.017519999 0.34584999
0.015496 0.024094 0.34667999
0.060499001 -0.0057591 0.33917001
0.025679 0.017144 0.34632999
0.015887 0.023998 0.34696001
0.060857002 -0.0052053002 0.34172001
0.049639001 0.0025204001 0.34334001
0.016652999 0.022852 0.34748
0.048124999 0.0020765001 0.34340999
0.048597001 0.0022614 0.34615999
0.016021 0.024005 0.34928
0.059773002 -0.0059441002 0.34389001
0.022837 0.019587001 0.34755
0.017572001 0.023069 0.34987
0.049279001 0.001305 0.34593001
0.018092999 0.021697 0.35132
0.024598001 0.018901 0.35036999
0.019916 0.022028999 0.35067001
0.020737 0.020295 0.34972
0.058860999 -0.0062087001 0.34446999
0.022459 0.02004 0.35032001
0.051201999 0.00099271 0.34755
0.051454999 0.0010052 0.34867999
0.059852999 -0.006691 0.34643999
0.060915001 -0.0049712001 0.34463999
0.053532001 -0.0028945999 0.34886
0.060869999 -0.0066049998 0.34894001
0.051422 9.3602997e-05 0.34928
0.060286 -0.0067353998 0.34834
0.060575999 -0.0062874001 0.34977001
0.056164999 -0.0035107001 0.34931001
0.055681001 -0.0026745 0.35005
0.055287998 -0.0043450999 0.35194001
0.058984999 -0.0052374001 0.35029
0.060952999 -0.0068951002 0.35009
0.056899 -0.0056071999 0.35100001
0.057560001 -0.0052705999 0.35183001
0.057992 -0.0032656 0.35275999
0.060160998 -0.0049725999 0.35214999
0.058917999 -0.0043778 0.35341001
0.060256001 -0.0076744002 0.35710001
0.060182001 -0.0075085 0.35731
0.059608001 -0.0066948002 0.35795999
0.058805 -0.0075678001 0.35725001
0.062941 -0.0091445995 0.36041999
0.059583999 -0.0077308998 0.36052001
0.062550999 -0.0092960997 0.36011001
0.057530001 -0.0056285998 0.35813999
0.062642999 -0.01018 0.36045
0.014581 0.023251999 0.36460999
0.013371 0.024050999 0.36950999
0.01739 0.018866999 0.36923999
0.057241999 -0.0065579 0.36210001
0.057046998 -0.007305 0.36056
0.057425998 -0.0063340999 0.36366999
0.019799 0.019234 0.36916
0.019553 0.017883001 0.36925
0.056871999 -0.003333 0.36362001
0.014362 0.023572 0.37037
0.013757 0.022121999 0.37209001
0.063965999 -0.010517 0.36375999
0.019731 0.019521 0.37009001
0.021 0.01926 0.37024999
0.057704002 -0.0043160999 0.36734
0.016724 0.021279 0.37211001
0.062127002 -0.0081033995 0.36445001
0.055066999 -0.0034618999 0.36769
0.021841999 0.017863 0.37145001
0.021051999 0.017263001 0.37156999
0.017193001 0.020981999 0.37287
0.017082 0.018619999 0.37325999
0.017402001 0.019215999 0.37354001
0.021965999 0.017597999 0.37243
0.061491001 -0.0081903003 0.36735001
0.057332002 -0.0061412002 0.36796999
0.019665999 0.018269001 0.37292001
0.019183001 0.018787 0.37413001
0.058692999 -0.0070914999 0.36609
0.057959002 -0.0072307 0.36801001
0.018379999 0.019257 0.37391999
0.013891 0.042911999 0.19254
0.0079329005 0.047641002 0.19367
0.049293 0.019413 0.18747
0.037663002 0.033349998 0.19220001
0.035158999 0.030339999 0.19156
0.032818001 0.034340002 0.19108
0.029785 0.035781998 0.192
0.061586998 0.011397 0.20022
0.012982 0.043811001 0.20651001
0.061854001 0.010963 0.20344999
0.040658001 0.024374001 0.20818
0.040364001 0.024684001 0.20793
0.032986 0.028615 0.21001001
0.054981001 0.013255 0.20554
0.031711001 0.029993 0.21018
0.029266 0.031996001 0.21019
0.026137 0.034143001 0.2101
0.022151001 0.035149999 0.21156999
0.015539 0.039919998 0.21265
0.049424998 0.017797001 0.20788001
0.046069 0.019772001 0.20667
0.045042001 0.020465 0.20863999
0.051571 0.014761 0.21457
0.049584001 0.016824 0.21344
0.044229999 0.020821 0.21392
0.042036001 0.022190001 0.21543001
0.039875999 0.021522 0.2164
0.037078001 0.024196999 0.21657
0.038143001 0.023383999 0.21715
0.022709999 0.033337999 0.22167
0.040364001 0.021872001 0.21761
0.036706001 0.024460999 0.21947999
0.023755999 0.03404 0.22145
0.027952 0.03104 0.2208
0.039645001 0.024568999 0.21919
0.039177001 0.023227001 0.21884
0.057569001 0.011764 0.21744999
0.030334 0.028857 0.2208
0.02946 0.030273 0.22379
0.020709001 0.033484999 0.22906999
0.021155 0.033691999 0.23089001
0.017432 0.037469 0.23253
0.058499999 0.010432 0.22672001
0.018033 0.036701001 0.23604999
0.022229999 0.031955998 0.23697001
0.052460998 0.011541 0.23726
0.020943001 0.031638 0.24327999
0.018155999 0.035695001 0.24575999
0.019855 0.033443999 0.24713001
0.020864001 0.032494001 0.24575
0.048857 0.014115 0.24434
0.021073001 0.032830998 0.24883001
0.048613001 0.014082 0.2454
0.020289 0.033891998 0.24992
0.049403001 0.014205 0.24729
0.049724001 0.013872 0.24765
0.020083999 0.031005999 0.25253001
0.048361 0.013988 0.25037
0.048216999 0.013259 0.25082001
0.048257001 0.013213 0.25167
0.017899999 0.032529999 0.25843999
0.019525001 0.033720002 0.2572
0.018298 0.032667 0.26164001
0.019234 0.031091999 0.26313001
0.018138999 0.034178 0.26194
0.049327001 0.013047 0.25749999
0.0184 0.033231001 0.26367
0.049327999 0.011765 0.25692999
0.017351 0.031626999 0.26420999
0.017725 0.033257999 0.26701
0.049444001 0.011025 0.26646999
0.021706 0.027884999 0.28481001
0.019559 0.027393 0.28453001
0.048257001 0.01272 0.28248
0.020916 0.029111 0.28876001
0.047768001 0.010131 0.28238001
0.048753001 0.0094830003 0.28459999
0.049610998 0.0089924997 0.28494999
0.014052 0.033902999 0.29284
0.014388 0.032365002 0.29144001
0.019949 0.028094999 0.29453999
0.023375999 0.027961999 0.29300001
0.048264999 0.010169 0.28997999
0.046122 0.010784 0.29139
0.013207 0.032579999 0.29570001
0.045655001 0.011037 0.29286
0.024233 0.024809999 0.29677001
0.044932 0.012372 0.29593
0.01208 0.032949001 0.30428001
0.024168 0.023345999 0.30302
0.041661002 0.01158 0.30103001
0.043306999 0.010531 0.30146
0.044487 0.011247 0.30234
0.043786999 0.010967 0.30337
0.042931002 0.011422 0.30375999
0.059733 0.00037145001 0.30201
0.059018999 0.0012499 0.30208999
0.059239998 -0.00018483 0.3008
0.060479 0.00075205998 0.30520999
0.014972 0.028839 0.31624001
0.014149 0.029614 0.31452999
0.015094 0.029934 0.31720999
0.057519 0.0011375 0.30873999
0.016689001 0.029189 0.3177
0.022813 0.023649 0.31592
0.023517 0.023943 0.31777
0.044760998 0.0082937004 0.31354001
0.016489999 0.028627999 0.31987
0.057597 0.00099286996 0.31288999
0.015407 0.027357999 0.31953001
0.01781 0.027577 0.32069999
0.021182001 0.022365 0.31898001
0.024301 0.022025 0.32122999
0.020561 0.024597 0.31959999
0.017323 0.02575 0.32306001
0.018300001 0.025056001 0.32346001
0.06016 -0.0022672999 0.31705001
0.054793 0.0015 0.31709999
0.052218001 0.0026823999 0.32009
0.012891 0.029480999 0.32398
0.018848 0.025409 0.32224
0.059916999 -0.0034213001 0.32348999
0.060763001 -0.0048023998 0.32780001
0.059556998 -0.0042158999 0.32909
0.059238002 -0.0056109 0.33044001
0.012864 0.026636999 0.33915001
0.046266001 0.0052050999 0.33908999
0.017397 0.023940001 0.3497
0.059790999 -0.0040751002 0.34496
0.018839 0.022035001 0.35093001
0.060865 -0.0070858998 0.35010999
0.062463 -0.0075110998 0.35337999
0.059174001 -0.0056205001 0.35477999
0.059438001 -0.0066292002 0.35529
0.060667999 -0.0076194 0.35418999
0.058733001 -0.0061105001 0.35583001
0.060472 -0.0067992001 0.35597
0.061934002 -0.007613 0.35631001
0.063887998 -0.0088972002 0.35721999
0.013593 0.024868 0.36693999
0.062857002 -0.0095263002 0.36456999
0.058036 -0.0043636998 0.36758
0.010289 0.046519998 0.19454999
0.061533 0.012737 0.18626
0.062631004 0.012115 0.18769
0.024142001 0.038454998 0.19246
0.023934999 0.041106001 0.19339
0.026681 0.035379998 0.19283
0.027244 0.037248001 0.19213
0.062392998 0.0096995002 0.19681001
0.038642999 0.026164999 0.20873
0.038254999 0.025982 0.20873
0.024049999 0.034685999 0.21156999
0.020431001 0.036956999 0.21099
0.019119 0.037845001 0.21151
0.055677999 0.014845 0.20637
0.052266002 0.015501 0.20746
0.048071001 0.019352 0.20745
0.054136001 0.013681 0.21342
0.01898 0.035902999 0.22531
0.021586001 0.034322001 0.23052
0.022574 0.033289999 0.23337001
0.017155999 0.037492 0.23616999
0.023451 0.032582 0.23616999
0.022267999 0.033909 0.235
0.053676002 0.011437 0.23631001
0.055906001 0.0091351997 0.23638
0.058667 0.0087070996 0.23649
0.018937999 0.035061002 0.24143
0.020812999 0.034543 0.24202
0.019489 0.032554001 0.24828
0.017083 0.035073001 0.25637999
0.017796 0.033167001 0.25856
0.018211 0.031931002 0.25883001
0.018178999 0.032744002 0.26815999
0.018353 0.031682 0.26927
0.049543999 0.01151 0.26460001
0.017109999 0.033068001 0.27094999
0.018362001 0.03142 0.27412999
0.049908001 0.0094496002 0.26820001
0.050108001 0.010228 0.27022001
0.051775001 0.0094068004 0.27125001
0.021143001 0.028452 0.28674001
0.010785 0.034914002 0.28911
0.011227 0.033394001 0.28937
0.019757999 0.030578 0.28906
0.047137 0.011145 0.28881001
0.012498 0.031913999 0.29865
0.022981999 0.025797 0.29828
0.059599001 0.0020019 0.29258001
0.060145002 0.00014487001 0.29245001
0.059335999 -0.0013238 0.29398999
0.059005 0.0012325 0.29357001
0.059859 0.00040620001 0.29572001
0.058768 0.0023817001 0.29574999
0.024180001 0.024831001 0.29966
0.059725001 0.0010897 0.29646
0.059556 0.0010586 0.29600999
0.045134999 0.010596 0.29844999
0.012772 0.031897001 0.30371001
0.012522 0.032784 0.30482
0.058922 0.00037600001 0.29775
0.060086999 0.00075935997 0.29751
0.060205001 4.6951e-06 0.29977
0.058323 0.0011882 0.30021
0.023848001 0.023727 0.30407
0.044027999 0.0093550002 0.30614999
0.041795 0.011155 0.30943999
0.043325 0.010729 0.3089
0.058433 0.00031253 0.30693999
0.024111999 0.022933001 0.31277999
0.057209 0.0014883 0.30968001
0.04456 0.0071208999 0.31130999
0.047125999 0.0082216999 0.31244001
0.047513001 0.0072253002 0.31314999
0.056219999 0.0016626 0.31042999
0.016543999 0.027915001 0.31942001
0.017084001 0.028142 0.32155001
0.020682 0.025407 0.31904
0.056301001 0.0023274 0.31452
0.019804001 0.023773 0.32203999
0.05957 -0.00076823001 0.31582001
0.049274001 0.0045725 0.31586
0.052657999 0.0048819999 0.32113001
0.013779 0.027256999 0.33915001
0.061489001 -0.0041193999 0.33577001
0.048539001 0.0041109999 0.34024999
0.016378 0.024874 0.34784001
0.024253 0.019502999 0.34918001
0.017448001 0.021268001 0.35203001
0.017031001 0.024675 0.35060999
0.021694999 0.020086 0.35227999
0.055264998 -0.0019695 0.35001999
0.057859998 -0.0061923 0.35275
0.062588997 -0.0083167003 0.35369
0.059044 -0.0045983 0.35600999
0.063326001 -0.0063944999 0.35567999
0.058437001 -0.0060995002 0.35786
0.016023001 0.022546001 0.36598
0.017927 0.021312 0.36686999
0.018655 0.021832 0.37268001
0.020264 0.019091999 0.37239999
0.023512 0.016913 0.37312999
0.051058002 0.019701 0.18278
0.051022001 0.020497 0.18539
0.01536 0.043505002 0.19023
0.0087296003 0.046905 0.19507
0.050085001 0.020037999 0.18864
0.022744 0.040831 0.19296999
0.022115 0.041604999 0.19281
0.064177997 0.010744 0.18679
0.0086070001 0.048510998 0.20033
0.0071347002 0.047564998 0.20084
0.0090519004 0.047214001 0.20293
0.012178 0.043026999 0.2105
0.012398 0.045478001 0.20997
0.062661 0.0093764002 0.20355
0.063125998 0.0098914001 0.20464
0.042162001 0.022839 0.20851
0.036029998 0.028136 0.2088
0.030006999 0.031392001 0.21197
0.026095999 0.031939998 0.20995
0.043949001 0.022430999 0.20941
0.045731001 0.020692 0.20844001
0.049617998 0.018811001 0.21363001
0.042268001 0.021877 0.21444
0.058391999 0.010448 0.21289
0.059749 0.011293 0.21309
0.039427999 0.025096999 0.21847001
0.018596999 0.03796 0.22552
0.054184999 0.013371 0.22217
0.057303999 0.011855 0.22629
0.021943999 0.034449 0.23385
0.022227 0.034545001 0.23865999
0.055592 0.0099946 0.23694
0.020981001 0.033876002 0.24267
0.018967999 0.036642 0.24416
0.018447001 0.034552999 0.25143
0.018363999 0.033672001 0.25661999
0.049656 0.011914 0.25556001
0.0515 0.010234 0.25777
0.050792001 0.012102 0.25751001
0.017121 0.033002999 0.26807001
0.016372999 0.032853998 0.26561001
0.017713999 0.032967001 0.27055001
0.018592 0.033550002 0.26958999
0.017894 0.032536 0.27122
0.018774999 0.032450002 0.27339
0.050466001 0.011874 0.26605999
0.050572 0.0098959003 0.26739001
0.057564002 0.0057693999 0.27079999
0.048934001 0.010343 0.28026
0.012679 0.035801999 0.28687
0.010175 0.034060001 0.28783
0.011574 0.034428999 0.28595999
0.048432 0.01018 0.28126001
0.051385999 0.0095773004 0.28323001
0.050338998 0.010032 0.28001001
0.019956 0.028516 0.28507
0.01056 0.035163 0.28887001
0.019941 0.030249 0.28764999
0.012277 0.033195999 0.29095
0.019058 0.029185999 0.29008999
0.020145999 0.028364001 0.29212999
0.048048001 0.0099469004 0.28679001
0.022061 0.026807001 0.29418001
0.048416 0.010069 0.29218
0.046603002 0.0094146999 0.29622999
0.060150001 0.0014638 0.29034999
0.045265 0.012209 0.29674
0.012688 0.034421999 0.30296999
0.024746999 0.022460001 0.30482
0.061035 0.00017778001 0.29890001
0.012148 0.032412 0.30766001
0.044697002 0.010138 0.30320001
0.015376 0.032171998 0.30634001
0.058924999 0.0027469001 0.30156001
0.012591 0.032816999 0.30956
0.043646999 0.010474 0.30543
0.041786999 0.011187 0.30759999
0.045534 0.0083042998 0.30631
0.045717001 0.010273 0.30421001
0.024467999 0.025220999 0.30912
0.023918999 0.024305001 0.30906001
0.024165001 0.023599001 0.31165999
0.058143001 0.0013213 0.30590999
0.057034001 0.0011332 0.30708
0.014712 0.028323 0.31363001
0.014312 0.028991999 0.31384
0.046395998 0.0085155005 0.30768999
0.045859002 0.0081460001 0.30956
0.043954 0.0093817003 0.31031999
0.045214001 0.010216 0.30855
0.044077002 0.0096348999 0.31018999
0.016732 0.031424001 0.31468001
0.016388999 0.031064 0.31371
0.045109 0.0091452999 0.31029001
0.060052998 0.00044286999 0.3098
0.016936 0.027687 0.31885001
0.022358 0.024050999 0.31700999
0.022476999 0.025396001 0.31964001
0.055443998 0.001485 0.31308001
0.048843998 0.0060663 0.31538999
0.019928999 0.026151 0.32115
0.049874999 0.0054092999 0.31615001
0.012015 0.028613999 0.32444999
0.054572999 0.0022016 0.31639001
0.052751001 0.0044326 0.31799001
0.051334001 0.0039271 0.31922999
0.052510999 0.0040833 0.31685999
0.053199999 0.0025200001 0.3206
0.038151 0.01069 0.33432001
0.029571 0.017262001 0.33767
0.046207 0.006972 0.33715001
0.061415002 -0.0032746999 0.33893001
0.016681001 0.024575001 0.34917
0.023631001 0.01884 0.34976
0.01761 0.02328 0.35137001
0.018206 0.022554999 0.35257
0.060304999 -0.0072641 0.34784001
0.057050999 -0.0032158999 0.35157001
0.061262 -0.0068859998 0.35019001
0.062008001 -0.0064715999 0.35194999
0.058915999 -0.0054064002 0.35488001
0.064593002 -0.0093737999 0.35800999
0.016734 0.021579999 0.36633
0.015004 0.023429001 0.36603001
0.058717001 -0.0057005002 0.36081001
0.018076001 0.021635 0.36677
0.019889001 0.01929 0.36982
0.022151999 0.018629 0.37066999
0.063442998 -0.0087334001 0.36587
0.055922002 -0.0042496002 0.36754
0.054604001 -0.0033688 0.36921999
0.058545999 0.016426001 0.18279
0.056974001 0.01746 0.18324
0.013326 0.045754999 0.19163001
0.019673999 0.042249002 0.19213
0.018131001 0.04183 0.19074
0.025083 0.036754999 0.19181
0.051660001 0.022884 0.18848
0.051635001 0.020246999 0.18859001
0.045867 0.024963001 0.19013999
0.032954998 0.031844001 0.19034
0.027789 0.035585999 0.19155
0.065462999 0.011087 0.18621001
0.064655997 0.011335 0.18677001
0.0080971001 0.047173001 0.19958
0.0098500997 0.047866002 0.20439
0.063019998 0.011645 0.19690999
0.011363 0.046131998 0.20524999
0.011787 0.04648 0.20744
0.06244 0.010018 0.20337
0.012357 0.044023 0.21371
0.061418001 0.011399 0.20495
0.013656 0.043441001 0.21419001
0.011577 0.044627 0.21253
0.059324998 0.012849 0.20641001
0.053783 0.014746 0.20658
0.051692002 0.017324001 0.20778
0.038353 0.027109001 0.21649
0.036594 0.026882 0.21673
0.038314998 0.025328999 0.2163
0.058837999 0.013142 0.21685
0.020306 0.035914999 0.22779
0.02337 0.035257 0.22686
0.01388 0.040851001 0.22925
0.056129999 0.011838 0.22352
0.054556999 0.013456 0.22285999
0.055909 0.014482 0.22452
0.015644999 0.041097999 0.22973
0.02079 0.035438001 0.23341
0.058603998 0.011546 0.22742
0.057583999 0.010508 0.22547001
0.022 0.035048001 0.23423
0.018224999 0.037283 0.23749
0.018758001 0.034798998 0.23901001
0.021271 0.033690002 0.2383
0.017493 0.035280999 0.24207
0.057643998 0.010998 0.23740999
0.055225998 0.011683 0.23768
0.050273001 0.015518 0.24150001
0.017101999 0.036017999 0.24638
0.050709002 0.015862999 0.24126001
0.018401001 0.035115998 0.2502
0.049860999 0.012798 0.25564
0.016449001 0.034010999 0.26286
0.016751001 0.033041999 0.26539999
0.051422 0.0095584001 0.26570001
0.018294999 0.032042 0.27265
0.018821999 0.031893 0.27756
0.053603999 0.0099334996 0.27066001
0.019482 0.033273999 0.27478001
0.057712998 0.0067691999 0.27103001
0.017339 0.030707 0.27796
0.054570001 0.0080390004 0.27511999
0.055318002 0.0062365001 0.27596
0.053947002 0.0074837999 0.27645999
0.020292999 0.031853002 0.28433001
0.020211 0.031055 0.28397
0.012682 0.035323001 0.28647
0.011524 0.036208 0.28593999
0.050547 0.0080477996 0.28117999
0.012257 0.035190001 0.28873
0.013355 0.034449998 0.28819999
0.018239999 0.032196 0.28742
0.013418 0.035356 0.29058
0.048946001 0.0088211 0.28595999
0.048560999 0.010341 0.28854999
0.013521 0.033849999 0.29429999
0.023637 0.027193001 0.29584
0.047100998 0.0097917998 0.29398999
0.060364999 0.0018332 0.29187
0.014873 0.032632999 0.29866001
0.012336 0.033587001 0.30067
0.023902001 0.024424 0.30054
0.024124 0.026296001 0.30019999
0.024219999 0.025513001 0.30107999
0.013077 0.033112001 0.30230001
0.045646999 0.0097973002 0.29822001
0.013306 0.032060001 0.3039
0.044264998 0.010394 0.30065
0.043924 0.0085626002 0.30261999
0.056634001 0.0015886 0.29921001
0.023645001 0.024641 0.30509001
0.023188001 0.024664 0.30410999
0.024358001 0.024948001 0.30748001
0.015931999 0.029386999 0.31185001
0.060795002 0.00064042001 0.30612999
0.06103 0.0009254 0.30623999
0.023792 0.023288 0.31389999
0.012711 0.031637002 0.31827
0.046455 0.0079488996 0.31498
0.013677 0.028895 0.32100001
0.060977999 -0.0015104 0.31558001
0.050754 0.0048545999 0.31744999
0.053709999 0.0053224 0.31735
0.013873 0.029617 0.33239999
0.059542999 -0.0015370999 0.32706001
0.060968999 -0.0021838001 0.32751
0.01448 0.028431 0.33550999
0.032201 0.015848 0.33434999
0.034681 0.01581 0.33353999
0.041719999 0.0068902001 0.33524001
0.060616001 -0.0029579001 0.33331001
0.013362 0.028240001 0.34215999
0.046781 0.0070222998 0.34085
0.047603998 0.0059730001 0.34061
0.026936 0.018619001 0.34274
0.026861001 0.017947 0.34301999
0.026402 0.018598 0.34715
0.062856004 -0.0061210999 0.34187999
0.016007001 0.02627 0.35260001
0.015328 0.023595 0.35262001
0.016171999 0.024545999 0.35405001
0.016348001 0.024801999 0.35400999
0.056499999 -0.00074394001 0.34836
0.063523002 -0.0074542998 0.35137001
0.062889002 -0.0074761999 0.35727999
0.065944001 -0.0085626999 0.35723001
0.020880001 0.019464999 0.36877
0.019827001 0.021133 0.36882001
0.020958001 0.018832 0.36923
0.014629 0.021329001 0.37106001
0.015124 0.023414001 0.37272999
0.014341 0.024714001 0.37184
0.055808 -0.003422 0.36647001
0.023791 0.017134 0.37360999
0.057831001 -0.0068628001 0.36758
0.050294999 0.020244 0.18276
0.053704001 0.019422 0.18282001
0.052699 0.021671999 0.18325999
0.017717 0.044135999 0.18995
0.059565 0.015818 0.1846
0.018683 0.042174999 0.189
0.015928 0.044438001 0.18983001
0.018027 0.043060001 0.19061001
0.015718 0.045095 0.19073001
0.052468002 0.020749999 0.18624
0.053716999 0.018735999 0.18442
0.060185999 0.015597 0.18379
0.053534001 0.019467 0.18723001
0.0094566001 0.048732001 0.19393
0.062831998 0.013353 0.18463001
0.062818997 0.011659 0.18648
0.019437 0.042661 0.19358
0.063490003 0.011611 0.18664999
0.051747002 0.019641001 0.18759
0.048441999 0.024083 0.18997
0.041193999 0.027601 0.18956
0.0095426999 0.048806999 0.1953
0.0092922999 0.049038 0.19543999
0.063629001 0.010667 0.18885
0.06498 0.010728 0.19118001
0.0076235002 0.048524 0.20123
0.065568 0.011208 0.19419
0.066261999 0.010539 0.19565
0.063215002 0.011333 0.1948
0.011486 0.046512999 0.20513
0.062387001 0.012535 0.19863001
0.013123 0.045983002 0.20656
0.061496999 0.01225 0.19879
0.012499 0.043947998 0.20857
0.061962999 0.012612 0.20045
0.062646002 0.011764 0.20226
0.062100999 0.0089287004 0.20527001
0.012253 0.044594999 0.21165
0.060660001 0.011186 0.20629001
0.058566999 0.013417 0.20731001
0.021368001 0.036843002 0.2112
0.020034 0.039404001 0.21179
0.042321999 0.024557 0.20914
0.030389 0.032439999 0.21061
0.051518999 0.017229 0.20788001
0.046656001 0.019890999 0.21355
0.046062998 0.02266 0.21523
0.033674002 0.028479001 0.21814001
0.032892 0.031001 0.21608999
0.043793999 0.022076 0.21394999
0.054726001 0.015893999 0.2141
0.060640998 0.011611 0.21391
0.059827998 0.013776 0.21247999
0.059122 0.011345 0.21455
0.033989001 0.028546 0.21674
0.057891998 0.01437 0.21360999
0.057110999 0.013132 0.21235999
0.052886002 0.016368 0.21433
0.054714002 0.016522 0.21356
0.042355001 0.024643 0.21704
0.035083 0.028077999 0.21629
0.029973 0.03042 0.21977
0.060771 0.012716 0.21592
0.041684002 0.023095001 0.21872
0.027115 0.032051001 0.22051001
0.027446 0.032464001 0.22198001
0.057532001 0.011849 0.21807
0.027938001 0.031835001 0.22416
0.055435002 0.013787 0.22133
0.013489 0.041462 0.22732
0.015603 0.040814001 0.22792
0.025986001 0.033656001 0.22482
0.016302999 0.038867999 0.22753
0.015549 0.037413999 0.22711
0.017797999 0.038727 0.22776
0.018633001 0.037818 0.22793999
0.019370999 0.036947001 0.22837
0.021545 0.036463998 0.22722
0.01488 0.040835001 0.22879
0.055482 0.013622 0.22217
0.016235 0.040061001 0.22937
0.016324 0.038013998 0.23027
0.055376999 0.012925 0.2246
0.016417 0.040839002 0.23119999
0.056372002 0.011981 0.22645999
0.058692999 0.01135 0.22443999
0.016731 0.04025 0.23378
0.01654 0.038734999 0.23201001
0.058323 0.011462 0.22847
0.059875999 0.0099432003 0.22752
0.018201999 0.037620001 0.23382001
0.020121999 0.035339002 0.23492
0.061183002 0.0097690001 0.22808
0.060008999 0.0095889 0.22926
0.021334 0.033215001 0.23626
0.017925 0.037115999 0.23575
0.060284 0.0076449998 0.23188999
0.019950001 0.034377001 0.23773
0.060318999 0.0086123003 0.23264
0.060644999 0.0096115004 0.23267999
0.018178999 0.036996 0.2402
0.017042 0.037503 0.23936
0.059882 0.0076715001 0.23559
0.01801 0.037671 0.24163
0.059055001 0.0099721001 0.23582999
0.058724001 0.0093131 0.23677
0.059204001 0.0091613997 0.23695999
0.056148 0.010825 0.23731001
0.053440001 0.012883 0.23807
0.053094 0.012709 0.23827
0.052172001 0.014906 0.2396
0.051272001 0.013263 0.23861
0.019002 0.036031999 0.24244
0.050650001 0.014971 0.23953
0.062714003 0.0069284001 0.2392
0.060447998 0.0083844 0.23837
0.059907999 0.0080578001 0.23785999
0.060672 0.0096661998 0.23824
0.060116 0.0078718001 0.23824
0.050563 0.014485 0.24067999
0.017924 0.037445001 0.24496999
0.060600001 0.0074161999 0.2397
0.016065 0.038155999 0.25029001
0.050767001 0.013618 0.24790999
0.050716002 0.01315 0.24755999
0.051571 0.013099 0.24946
0.017999999 0.036718 0.25167999
0.051523 0.013491 0.24982999
0.049853001 0.014227 0.25037
0.050482001 0.014042 0.25189999
0.016934 0.034325 0.25782001
0.049431998 0.013307 0.2543
0.051631 0.01154 0.25259
0.049199 0.014212 0.25433999
0.017062001 0.034256998 0.26534
0.015469 0.035211999 0.26175001
0.052847002 0.012052 0.25687999
0.015523 0.034566998 0.26877001
0.016326001 0.034598999 0.2676
0.050523002 0.012655 0.26409
0.051077001 0.011485 0.26693001
0.017395001 0.034568001 0.27252001
0.017966 0.032646999 0.27483001
0.054728001 0.0086634001 0.26938999
0.057863001 0.0075292001 0.26811999
0.054510999 0.008781 0.2694
0.056896999 0.0061508999 0.27067
0.059117999 0.0066045001 0.27002001
0.053762998 0.0083080996 0.26846001
0.017279999 0.031234 0.27535
0.017162001 0.032497998 0.27717999
0.017495999 0.033819001 0.27689001
0.058961999 0.0065657999 0.27178001
0.058127001 0.0060375002 0.27303001
0.057744998 0.0069090002 0.27355
0.057580002 0.0057843002 0.27344
0.02008 0.031151 0.27957001
0.055791002 0.0070242002 0.27592
0.019136 0.029871 0.28174999
0.053429998 0.0093048001 0.27803001
0.021493999 0.029068001 0.28220999
0.053321999 0.0087579004 0.27721
0.053658001 0.0091367997 0.27884001
0.013266 0.036088001 0.28487
0.01103 0.036169998 0.28551999
0.011686 0.035684001 0.2859
0.011732 0.034832001 0.28360999
0.013576 0.036768999 0.28663
0.014738 0.034605 0.28560001
0.050671 0.0088400003 0.28049999
0.052248001 0.0099729002 0.28178999
0.013122 0.036291 0.28747001
0.011584 0.034852002 0.28830001
0.052933998 0.0077355001 0.28288001
0.020591 0.029862 0.28887001
0.017991001 0.031401001 0.28836
0.018568 0.030378001 0.28876001
0.018307 0.030211 0.28981
0.050838999 0.010187 0.28331
0.050087001 0.0099008 0.28494
0.01246 0.035679001 0.29222
0.049977999 0.0084598996 0.28595999
0.015358 0.033713002 0.29146001
0.013383 0.035002999 0.29244
0.020668 0.030117 0.29142001
0.019238001 0.029041 0.29183
0.018913999 0.029506 0.2922
0.049183 0.010319 0.29069999
0.021566 0.026779 0.29374999
0.060671002 0.00065577001 0.28729999
0.061053 0.0031715999 0.28966999
0.058727 0.0024925 0.2877
0.062449001 0.0022169999 0.28839999
0.046409 0.0096206004 0.29001999
0.059664998 0.0027324001 0.28856
0.060803998 0.0026875001 0.28821999
0.021593001 0.028597999 0.29464
0.012213 0.035914 0.29793999
0.060237002 0.0015873 0.28926
0.060024999 0.00087877997 0.29027
0.061131001 0.001072 0.29007
0.057992999 0.00089895999 0.28981999
0.058736999 0.0030795999 0.29031
0.059966002 0.0026449 0.29157001
0.046406999 0.010178 0.29550001
0.060851999 0.00094499002 0.29286
0.047254998 0.011099 0.29593
0.060837999 0.0012733 0.29359999
0.057902999 0.0028194999 0.29418001
0.059776001 0.0029231 0.29412001
0.047502998 0.010825 0.29767999
0.058926001 0.0021386 0.29523
0.014291 0.031576999 0.30193999
0.014421 0.032122001 0.30228999
0.046858002 0.0097121 0.29876
0.025242001 0.025064001 0.30169001
0.061349999 0.0010599 0.29593
0.061413001 0.00082562998 0.29672
0.059572998 0.0033360999 0.29859999
0.058208998 0.0029074 0.29639
0.014578 0.031771999 0.30531999
0.061269 0.0017446 0.29857999
0.058421001 0.00089199998 0.29918
0.061895002 0.00021066 0.29969999
0.057969999 0.0024155001 0.30153
0.0583 0.0031375 0.30158001
0.057062 0.00041221001 0.30046001
0.016254 0.030944001 0.3082
0.057743002 0.0019713 0.30357
0.044691999 0.010381 0.30531001
0.016012 0.030095 0.3109
0.060428999 1.9781e-05 0.30283999
0.013859 0.029774999 0.31094
0.012984 0.032613002 0.31253001
0.023412 0.026306 0.31176999
0.023053 0.023807 0.31042001
0.02375 0.024931001 0.31224999
0.046457 0.0089226998 0.30820999
0.047378998 0.0096428003 0.30866
0.046565 0.0088556996 0.31028
0.023897 0.024183 0.31354001
0.056579001 0.0025233999 0.30765
0.056685999 0.0018212 0.31009999
0.023288 0.024847001 0.31421
0.014496 0.030691 0.31676999
0.021748001 0.025776999 0.31489
0.047515001 0.0088384999 0.31220001
0.061182 0.00094583997 0.31035
0.060314 -0.00094775 0.31035
0.020578999 0.026115 0.31648999
0.022047 0.024557 0.31711
0.057057001 0.0023258 0.31198999
0.056804001 0.0047296002 0.31059
0.016829001 0.028757 0.31821999
0.059579 0.00055185001 0.31266001
0.056299999 0.0031008001 0.31246001
0.05006 0.0073819002 0.31369001
0.047718 0.0061901999 0.31274
0.014324 0.030781999 0.32148001
0.020090001 0.026241999 0.32003999
0.048953999 0.0060486998 0.31426999
0.059585001 -0.0016329 0.31287
0.049672998 0.0049903002 0.31505001
0.050145 0.0063959002 0.31454
0.019712999 0.026493 0.31766
0.018147999 0.027367 0.31981
0.01342 0.031027 0.32025
0.021051999 0.025728 0.32047999
0.050758 0.0056836 0.31549999
0.012762 0.030300001 0.32073
0.019716 0.027305 0.32007
0.017717 0.027479 0.32165
0.018247999 0.026117001 0.32124001
0.061585002 -0.00102 0.31343001
0.062231001 -0.001496 0.31490001
0.054366 0.0036585999 0.31593001
0.055851001 0.0013464 0.31557
0.012975 0.031656001 0.32339001
0.060298 -0.00059414998 0.31682
0.014275 0.030375 0.32393
0.053429998 0.002508 0.31900001
0.053118002 0.0017671 0.31823999
0.01384 0.031376999 0.32637
0.013646 0.029270999 0.32732001
0.061404001 -0.0014234 0.32102001
0.013677 0.031183001 0.32747999
0.013613 0.030509001 0.32942
0.014186 0.029417001 0.33454999
0.013739 0.029819001 0.33361
0.060337 -0.0024610001 0.32763001
0.014304 0.028369 0.3364
0.060116999 -0.002419 0.32842001
0.060853001 -0.0036379001 0.33047
0.035638001 0.015055 0.33291
0.035983 0.016001999 0.3346
0.061769001 -0.003362 0.33113
0.061289001 -0.0036295999 0.32984
0.038077999 0.012445 0.33445001
0.037248001 0.012451 0.33395001
0.032791998 0.014375 0.33497
0.031350002 0.017348999 0.33403
0.05914 -0.0036853 0.33164999
0.039191 0.0098251998 0.33708
0.030884 0.017618001 0.33565
0.042706002 0.0088785999 0.33579999
0.031065 0.017718 0.33649001
0.030212 0.017781001 0.33945
0.061353002 -0.0017769 0.33368
0.044734001 0.0074466998 0.33654001
0.029696001 0.017859001 0.34075001
0.028946999 0.019058 0.34068999
0.061430998 -0.0047395998 0.33570999
0.045492001 0.0061980002 0.33743
0.046271998 0.0065946002 0.33888
0.012376 0.028213 0.34358999
0.062678002 -0.0040564998 0.33695
0.047152001 0.0060343002 0.34079999
0.01402 0.027284 0.34426001
0.014914 0.027341999 0.34725001
0.049316 0.0041314 0.34266999
0.027396001 0.017685 0.34481001
0.026947999 0.019071 0.34360999
0.014143 0.025668001 0.34696001
0.062844999 -0.0051370999 0.33906999
0.062481999 -0.0045588999 0.34169999
0.050455999 0.0035786 0.34406
0.014373 0.024816001 0.34924001
0.025039 0.019309999 0.34737
0.049823001 0.0031707 0.34478
0.02469 0.020013999 0.34810001
0.023248 0.01935 0.34929001
0.016218999 0.02617 0.35012001
0.061078999 -0.0040366999 0.34355
0.061213002 -0.0047769998 0.34481001
0.050455 0.0026922 0.34575999
0.021358 0.019983999 0.35131001
0.022009 0.021441 0.35172999
0.023588 0.020083999 0.35062
0.061764002 -0.0030936 0.34501001
0.049522001 0.0034912999 0.34705001
0.021840001 0.021430001 0.35047999
0.021517999 0.021904999 0.35064
0.019324999 0.02227 0.3529
0.014434 0.024416 0.35424
0.016564 0.026492 0.35078999
0.023387 0.020679001 0.35304999
0.060991 -0.0058045001 0.34652001
0.016894 0.025417 0.35433999
0.016085001 0.025277 0.35527
0.018130001 0.022938 0.35275
0.054319002 -2.3019e-05 0.34889001
0.060694002 -0.0058535999 0.34744
0.061746001 -0.0062290002 0.34671
0.054448001 -0.00067962002 0.34773999
0.051219001 -0.00027824999 0.34974
0.018059 0.022523001 0.35626
0.017550999 0.023291999 0.35499999
0.015566 0.023796 0.35602
0.064772002 -0.0058106999 0.34845001
0.060438 -0.0061420999 0.34961
0.05579 3.3657001e-05 0.35047999
0.063722998 -0.0055952002 0.34908
0.056295 -0.0014473 0.35150999
0.056464002 -0.0030179 0.35264999
0.058637999 -0.0030544 0.35361999
0.063952997 -0.0076641999 0.35363001
0.064029999 -0.0071251998 0.35493001
0.058313999 -0.0027012001 0.3524
0.057518002 -0.0033239 0.35618001
0.058134001 -0.0048835999 0.35642999
0.064787 -0.0067089 0.35754001
0.014206 0.023446999 0.36559001
0.016894 0.022242 0.36410999
0.014943 0.025637001 0.36553001
0.015614 0.024087001 0.36502001
0.059466001 -0.0060377 0.35811999
0.059540998 -0.0053204 0.35736999
0.014384 0.025269 0.36443999
0.016807999 0.021679001 0.36362001
0.014654 0.024311 0.36546999
0.019034 0.020726999 0.36511999
0.018440999 0.022643 0.366
0.013753 0.024383999 0.36629
0.065035999 -0.0088221002 0.35958999
0.059248 -0.0057704002 0.36181
0.020355999 0.020651 0.36657
0.014496 0.026134999 0.36726001
0.012835 0.024521001 0.36963999
0.058738999 -0.0053305002 0.36201
0.058336999 -0.0040453002 0.36320999
0.021194 0.019439001 0.36963999
0.065098003 -0.0094088996 0.36197999
0.065214001 -0.010855 0.36366001
0.013829 0.023517 0.37130001
0.056056 -0.0040520998 0.36502001
0.065511003 -0.0084352996 0.36385
0.063533999 -0.0095028002 0.36445001
0.055914 -0.0043000998 0.36677
0.062350001 -0.0078740995 0.36697
0.023228999 0.018885 0.36996999
0.021929 0.018441999 0.37259999
0.015865 0.022282001 0.37368
0.016325001 0.021311 0.37336001
0.023859 0.018829999 0.37101999
0.023513 0.016657 0.37127
0.062038001 -0.0072027999 0.36758
0.061080001 -0.0073430999 0.36792001
0.055374 -0.0025762999 0.3678
0.018393001 0.021029999 0.37481999
0.061285 -0.0068164999 0.36671999
0.060183998 -0.0065469998 0.36807001
0.020076999 0.020571999 0.37426001
0.059482999 -0.0059480998 0.36862001
0.056784 -0.0029881999 0.36849999
0.020217 0.019145999 0.37373999
0.025061 0.017898999 0.37347999
0.023698 0.017456001 0.37362
0.023708001 0.016262 0.37281001
0.023654999 0.018591 0.37382001
0.024839999 0.017847 0.37461999
0.021016 0.017723 0.37560001
0.021145999 0.018881001 0.37309
0.01493 0.045444999 0.19043
0.012496 0.047336999 0.19132
0.061604999 0.013779 0.18353
0.017944001 0.040470999 0.19176
0.0096987002 0.048028 0.1939
0.028835 0.041333999 0.19343001
0.027262 0.039779 0.19408999
0.027525 0.042282999 0.19231001
0.0077495002 0.047807001 0.19481
0.0083256001 0.049320001 0.19723
0.065297998 0.011775 0.1866
0.0078935996 0.047603 0.19831
0.066804998 0.01124 0.19303
0.0076048998 0.047247998 0.20311999
0.060740001 0.012495 0.20028999
0.011087 0.044569999 0.20949
0.040541001 0.02538 0.20832001
0.038376 0.028529 0.20848
0.035583999 0.028312 0.20873
0.020045999 0.039701998 0.21096
0.032411002 0.032552999 0.2102
0.030055 0.032522 0.21053
0.026728 0.033351999 0.21083
0.053633999 0.015882 0.20765001
0.050218001 0.019691 0.20947
0.048588 0.019757999 0.20862
0.046115998 0.021833999 0.20853999
0.042814001 0.021849001 0.215
0.042714 0.023442 0.21574999
0.038252 0.025756 0.21675999
0.030293001 0.031504001 0.21865
0.030453 0.031199001 0.21794
0.060904998 0.01209 0.21627
0.039225999 0.025257001 0.21791001
0.02544 0.03269 0.21954
0.040259998 0.026556 0.2203
0.02874 0.031511001 0.22141001
0.025548 0.032965001 0.22205
0.040316001 0.023325 0.22076
0.029247999 0.032118 0.22104999
0.028997 0.034262002 0.22344001
0.056015 0.011636 0.21725
0.025405001 0.034770001 0.22611
0.026227999 0.032586999 0.22671001
0.022841999 0.034393001 0.22657999
0.059682999 0.0089015998 0.23078001
0.022441 0.035059001 0.23862
0.016425001 0.036534999 0.2393
0.019804001 0.035399999 0.24078
0.060428001 0.010687 0.23638999
0.062859997 0.0087422999 0.23884
0.061002001 0.0075488002 0.24150001
0.060981002 0.0081794998 0.24090999
0.050050002 0.012753 0.24096
0.050593998 0.014569 0.2431
0.018405 0.037597001 0.24684
0.018133 0.035726 0.24879999
0.049543001 0.014156 0.24505
0.017937999 0.035440002 0.25121
0.052551001 0.013764 0.24745999
0.052336 0.012647 0.24778999
0.017553 0.035138998 0.25522
0.017503001 0.034908 0.25760001
0.053482998 0.012375 0.25426999
0.017199 0.034961 0.26023
0.015717 0.03661 0.26093
0.051109999 0.012194 0.25731999
0.054271001 0.012823 0.25850001
0.051222 0.010527 0.26051
0.050567001 0.010894 0.25966001
0.051562 0.011053 0.26286
0.052074 0.012256 0.26275
0.050733 0.0088729998 0.26607999
0.052067 0.0091799004 0.26752001
0.052731998 0.01046 0.26794001
0.049857002 0.0093048997 0.27138001
0.016318999 0.032855999 0.27436
0.017134 0.032965999 0.27406999
0.058012001 0.0059063998 0.26842001
0.017916 0.032478001 0.27731001
0.020052001 0.031759001 0.27917001
0.018639 0.031869002 0.28007001
0.019368 0.030205 0.28062999
0.011949 0.036247 0.28185001
0.020639 0.029409001 0.28459001
0.011005 0.034051999 0.28676999
0.018874999 0.031001 0.28771999
0.050795 0.0091773998 0.28385001
0.01317 0.035863999 0.28985
0.018869 0.030362001 0.29221001
0.061466001 0.0019245 0.28465
0.059767 0.0012627 0.28584999
0.013938 0.035045002 0.29102001
0.059425 0.0020103001 0.28723001
0.012043 0.034350999 0.29675001
0.020626999 0.029592 0.29484001
0.047364 0.010836 0.29312
0.014269 0.032648999 0.29596001
0.015064 0.033296999 0.29723001
0.047951002 0.010896 0.29286
0.013364 0.033967 0.29899999
0.022124 0.028186999 0.29603001
0.021923 0.028326999 0.29753
0.048569001 0.012664 0.29578
0.022444 0.026945001 0.29822999
0.014004 0.033514 0.30034
0.057344001 0.0031566999 0.29409
0.015459 0.031381998 0.29973999
0.013372 0.034541 0.30074999
0.058582999 0.0037493999 0.29616001
0.023613 0.026559001 0.30057999
0.058605 0.0043230001 0.29754999
0.02495 0.025948999 0.30247
0.046496 0.010989 0.29944
0.046634 0.010655 0.29988
0.047001 0.011337 0.30293
0.059783999 0.0013693999 0.30164999
0.025257999 0.02531 0.3071
0.023407999 0.024537999 0.30509999
0.015274 0.031420998 0.30976
0.047378998 0.0091343001 0.30491999
0.045518 0.011186 0.30425999
0.022668 0.025804 0.30757001
0.022422999 0.025745001 0.30947
0.012822 0.032759 0.30978999
0.059654001 0.00037346 0.30304
0.056752 0.0032698 0.30555999
0.058060002 0.0037791 0.30441999
0.056086 0.0031266999 0.30531001
0.057622001 0.0014383 0.30551001
0.056827001 0.0031401999 0.30678001
0.045802001 0.0077165002 0.30864
0.0133 0.02997 0.31544
0.015294 0.031704001 0.31542
0.015031 0.031218 0.31827
0.020871 0.025041001 0.31393999
0.02131 0.025908001 0.31571999
0.020097001 0.026215 0.31621999
0.01798 0.027783001 0.31986001
0.048900001 0.0068743001 0.31202999
0.055987999 0.0019324 0.31465
