# .PCD v0.7 - Point Cloud Data file format
VERSION 0.7
FIELDS x y z
SIZE 4 4 4
TYPE F F F
COUNT 1 1 1
WIDTH 1516
HEIGHT 1
VIEWPOINT 0 0 0 1 0 0 0
POINTS 1516
DATA ascii
0.067929 0.088188998 0.14286
0.0049741999 0.048861999 0.16398001
0.044188999 0.072148003 0.15173
0.032458 0.065059997 0.15775999
0.0075881002 0.050223999 0.16685
0.0086947 0.050813001 0.16842
0.047579002 0.074506 0.15478
0.047876 0.074377 0.15537
0.0086901002 0.051302999 0.16847999
0.073436998 0.089965999 0.14749999
0.049121998 0.075654 0.15676001
0.010355 0.051259 0.17078
0.050094999 0.076820999 0.15711001
0.035896 0.066858001 0.16211
0.035624001 0.067796998 0.16357
0.050896998 0.076684996 0.15818
0.074901 0.091829002 0.15019999
0.011679 0.052816 0.17223001
0.011886 0.053405002 0.17224
0.076429002 0.092569001 0.15223999
0.012298 0.053298999 0.17317
0.053665999 0.078048997 0.16097
0.013495 0.053624999 0.17442
0.01367 0.054111999 0.17454
0.053927999 0.078015998 0.16167
0.054382 0.077815004 0.16216999
0.077753 0.093134999 0.15378
0.077588998 0.093539998 0.15452
0.014542 0.053969 0.17596
0.039145999 0.069335997 0.16709
0.014755 0.053162001 0.17634
0.079095997 0.093332998 0.15582
0.079722002 0.093648002 0.15645
0.056944001 0.080439001 0.16537
0.080269001 0.093918003 0.15744001
0.018061001 0.056758001 0.18049
0.018340999 0.056901 0.18106
0.018395999 0.056150001 0.18098
0.058297001 0.081042998 0.16807
0.058419999 0.081853002 0.1683
0.058733001 0.081373997 0.16881999
0.081596002 0.095481001 0.16168
-0.0063405 0.041296002 0.19124
-0.0067659002 0.040964 0.19138999
-0.0056493999 0.041776001 0.19224
-0.0046255998 0.042211 0.19056
-0.0050324998 0.041577 0.18977
-0.0053856 0.041813999 0.19092
-0.0049502002 0.041928001 0.19191
0.08151 0.095802002 0.16226
-0.0036679001 0.042961001 0.19134
-0.0036363001 0.042838998 0.19046
-0.0064989999 0.041193999 0.19253001
-0.007251 0.040573999 0.19228999
0.059069 0.081514999 0.17082
0.081986003 0.096188001 0.16321
-0.0041453 0.042597 0.19159999
0.046753 0.073547997 0.17431
-0.0040326999 0.042895999 0.19241001
-0.0030090001 0.043402001 0.19101
-0.0019173 0.043738 0.19095001
0.020663001 0.058127001 0.18426999
0.020748001 0.057528999 0.18425
0.082753003 0.095806003 0.16335
0.082020998 0.095728002 0.16257
-0.0064139999 0.041219998 0.19329999
0.082534 0.096033998 0.16373999
-0.0075286999 0.040491998 0.19344001
-0.0045282999 0.042433999 0.19292
-0.0076057999 0.040500998 0.19371
-0.0082721999 0.039717998 0.19464
-0.0077026999 0.040185999 0.19403
-0.0067770998 0.041203 0.19430999
-0.0047022002 0.042277999 0.19361
-0.00048630001 0.044787001 0.19137999
0.048271 0.074644998 0.17549001
-0.0082182996 0.040128998 0.19581001
0.00068421999 0.045295 0.19168
0.0016292999 0.045880001 0.19262999
0.0023709 0.046009999 0.19222
-0.0087539004 0.039503999 0.19578999
-0.0087120002 0.039650999 0.1964
0.051617 0.076516002 0.17696001
-0.0083678002 0.039886001 0.19756
-0.0077571999 0.040447 0.19726001
0.003278 0.046530001 0.19289
0.058564998 0.080932997 0.17488
0.058681998 0.079888999 0.17457999
0.024134001 0.058818001 0.18907
0.057023998 0.080053002 0.17641
0.084569998 0.095941 0.16722
-0.0081117004 0.039873999 0.19835
0.0040957001 0.047474999 0.19381
0.055888001 0.078257002 0.17693
0.056511998 0.079627 0.17699
-0.0083887996 0.039312001 0.19897
-0.0082887998 0.0394 0.19925
-0.0078929001 0.039872002 0.19898
-0.0071510002 0.040392 0.19935
0.083930999 0.096410997 0.16943
-0.0076486999 0.039669 0.20001
0.084303997 0.096279003 0.1701
0.083956003 0.096626997 0.17107999
0.024476999 0.059530001 0.18968999
0.0074923998 0.049199 0.19617
0.0084747998 0.049812999 0.19701999
-0.0070528998 0.040194001 0.20197999
-0.0069382 0.040219001 0.20277999
-0.0065668002 0.040268 0.20379999
0.0091198003 0.050136 0.19757999
0.084577002 0.096712999 0.17296
-0.0059125 0.040532 0.20452
0.010189 0.050356999 0.19825
0.010478 0.050723001 0.19916999
-0.0055144001 0.040801 0.20494001
0.028421 0.061438002 0.19377001
-0.0045496002 0.041519001 0.20598
0.011873 0.051120002 0.19942001
0.01251 0.051947001 0.20022
0.084251001 0.096316002 0.17687
-0.0043298001 0.041576002 0.2066
-0.0036549 0.042442001 0.20641001
0.01277 0.051206 0.19943
0.012884 0.052235998 0.20092
0.084253997 0.096536003 0.17845
0.084466003 0.096412003 0.17778
-0.0031409999 0.042631999 0.20825
-0.0040695001 0.041552 0.2077
0.084565997 0.096046001 0.18010999
-0.0038705999 0.041754998 0.20839
0.031239999 0.063685998 0.19729
0.016422 0.054122001 0.20464
0.016315 0.054343998 0.20542
-0.0049331998 0.040658999 0.21303
0.017089 0.054618001 0.20554
0.016562 0.054556001 0.20651001
0.03472 0.065706 0.20025
0.034754001 0.064786002 0.20069
-0.0092706 0.038066 0.21492
0.017495999 0.054830998 0.20633
-0.0098866001 0.037696 0.21625
0.083388001 0.095504999 0.18655001
-0.0095827999 0.037935 0.21720999
0.036649998 0.066458002 0.20213
-0.0092406003 0.038100999 0.21845999
0.082149997 0.094462 0.18925001
0.038321 0.067387998 0.20341
-0.0086091002 0.038642999 0.21969
0.039494 0.068190001 0.20411
0.018518999 0.055443 0.21131
0.018746 0.055539999 0.21238001
-0.0079672001 0.038849 0.22136
0.018528 0.055406999 0.21261001
0.080494002 0.093814999 0.19207001
0.080861002 0.093654998 0.19201
0.019286999 0.055744 0.21336
0.019359 0.055783998 0.21402
0.018648 0.055675998 0.21413
0.044727001 0.071138002 0.2066
0.020094 0.055994 0.21362001
-0.0079961 0.038817 0.22404
0.019171 0.055776 0.21507999
0.019582 0.056113999 0.21596
0.078057997 0.091978997 0.19639
0.077215001 0.090990998 0.19775
-0.0081246002 0.038323 0.22593001
0.019684 0.056191001 0.21664
-0.0079896003 0.038559999 0.22657
0.019688999 0.056333002 0.21710999
0.020905999 0.056557 0.21737
0.020749999 0.056235 0.2167
-0.006209 0.039751001 0.22714999
0.022885 0.057627 0.21856
0.022731001 0.057537001 0.21777
0.021842999 0.056999002 0.21795
0.050537001 0.073824003 0.20827
0.051229998 0.074818999 0.208
0.05043 0.074694999 0.20784999
0.075121999 0.089717001 0.20005
0.021050001 0.056901 0.21889
0.020997001 0.056676999 0.21802001
-0.0050446 0.040160999 0.22741
0.023352001 0.057872999 0.2176
0.073183 0.088416003 0.2018
0.022235001 0.057441 0.21884
0.020732 0.056449 0.22021
0.022422999 0.057321999 0.21950001
0.021811999 0.056874 0.21973
0.021932 0.056729998 0.22065
0.022702999 0.057714999 0.21929
0.071189001 0.087321997 0.20328
0.020821 0.056437001 0.22069
0.065284997 0.083272003 0.20629001
0.066669002 0.084328003 0.20559999
-0.0068425001 0.038995001 0.23052
-0.0072956001 0.039016001 0.23083
0.02062 0.056051999 0.22223
-0.0076722 0.038437001 0.23164999
0.020826001 0.056049999 0.22304
-0.0071128998 0.038775999 0.23228
-0.010903 0.036531001 0.23449001
0.020182 0.056078002 0.22529
-0.010488 0.036812 0.23621
-0.0077340999 0.038313001 0.23808999
0.019977 0.055295002 0.22973999
-0.0072392998 0.038529001 0.23972
-0.0082349004 0.037546001 0.24053
-0.0075845001 0.038417999 0.24111
-0.0076136999 0.038120002 0.23976
0.017798999 0.054434001 0.23445
0.018389 0.054294001 0.23382001
-0.0077391998 0.037914999 0.24202999
-0.0064935 0.038672 0.24435
-0.0058893999 0.038975999 0.24478
0.017002 0.053258002 0.23728
-0.0039559999 0.040196002 0.24597
-0.0025394 0.041572001 0.24675
-0.0025740999 0.041072 0.24685
-0.0021344 0.041377001 0.24733999
-0.003359 0.040460002 0.24726
-0.0031699999 0.040298 0.24783
-0.0026322 0.040888999 0.24747001
-0.0011805 0.042024001 0.24747001
0.00015276 0.042484 0.24749
0.00059781998 0.043037999 0.24743
0.0042829001 0.045203999 0.24679001
0.0074584 0.047394 0.24575
0.023724999 0.056832001 0.24378
0.023008 0.056540001 0.24393
0.030487999 0.059914 0.24296001
0.031051001 0.060378999 0.24304
0.02256 0.056526002 0.24524
0.022722 0.056708001 0.24628
0.03156 0.061974999 0.24342
0.022403 0.056136999 0.24735001
0.023597 0.05734 0.24755999
0.023069 0.056573998 0.24795
0.022631001 0.055768002 0.24808
0.023352001 0.056451 0.24868
0.024146 0.057262 0.24839
0.025253 0.057661001 0.24905001
0.039149001 0.065866001 0.24596
0.028049 0.059161998 0.24961001
0.02922 0.059611998 0.24974
0.030440999 0.060722999 0.24969999
0.039983999 0.066693999 0.24683
0.031249 0.061811998 0.24950001
0.039604001 0.066220999 0.24909
0.040236998 0.066977002 0.24891999
-0.014492 0.038647 0.12651999
-0.016664 0.037195001 0.12740999
-0.015690001 0.037887 0.12668
-0.01843 0.035604 0.1285
-0.016514 0.037138 0.12755001
-0.018042 0.035808001 0.12823001
-0.019947 0.034761999 0.12917
-0.018688999 0.034976002 0.12876999
-0.018975999 0.034182999 0.12865999
-0.011068 0.040791001 0.12627
-0.020547999 0.034102 0.12975
0.062208001 0.085493997 0.10226
0.061774001 0.084976003 0.10258
0.063033 0.085932001 0.10202
0.060114998 0.084642999 0.10352
0.063451998 0.085886002 0.10175
0.063991003 0.086406998 0.10159
-0.022024 0.033216 0.13073
0.059859 0.083623998 0.1037
0.059693001 0.083426997 0.10421
0.064511001 0.087286003 0.10228
-0.0072113001 0.043159001 0.12645
-0.049600001 0.017148999 0.14116
-0.0053237998 0.043363001 0.12571999
-0.0056467 0.043639001 0.12639999
0.058708001 0.082791999 0.10538
-0.0046087001 0.043432001 0.12553
0.037604 0.070234001 0.11229
0.039225001 0.071345001 0.11192
-0.051015999 0.015158 0.14255001
-0.025208 0.031145001 0.13392
-0.025601 0.031410001 0.13407999
-0.024853 0.031114001 0.13348
0.042987999 0.073838003 0.11105
0.043776002 0.073857002 0.11044
0.043469999 0.074134 0.11099
0.057209998 0.082144998 0.10701
0.057976998 0.082523003 0.10618
0.057766002 0.081234999 0.10647
0.065678999 0.087860003 0.10435
0.065635003 0.087775998 0.10362
-0.025717 0.030769 0.13428
0.044326998 0.074181996 0.11026
-0.0023902 0.045697 0.12704
0.045999002 0.075796001 0.1112
0.045474999 0.074970998 0.1106
-0.053202 0.01455 0.14433999
-0.052783001 0.014887 0.14376999
-0.041359 0.021025 0.14003
-0.04016 0.021734999 0.14013
-0.027977001 0.029318999 0.13649
-0.027207 0.029860999 0.13555001
-0.0013428 0.046517 0.12735
0.048106998 0.077003002 0.1112
0.048734002 0.076622002 0.11068
0.055029001 0.080874003 0.10948
0.055459 0.081082001 0.10895
0.055709999 0.080164 0.10907
-0.052407 0.014808 0.14490999
-0.037875999 0.023149 0.14055
0.00021588001 0.047199 0.12805
0.050852999 0.078042999 0.11078
-0.052287001 0.014924 0.14607
-0.031017 0.027886 0.13855
0.034860998 0.068687998 0.11664
0.054193001 0.079928003 0.11035
-0.031672999 0.027153 0.13943
0.065627001 0.087600999 0.10704
-0.051904 0.015052 0.14647999
-0.034717001 0.025210001 0.14103
0.0018758 0.048006002 0.12867001
0.0036229 0.048576999 0.12948
0.0040277001 0.049391001 0.13057999
0.065219998 0.086612999 0.11021
0.065063998 0.086421996 0.11151
0.0055280002 0.050322 0.13112
0.033034999 0.067174003 0.12198
0.0059090001 0.050372999 0.13142
-0.043274 0.019663 0.14838
0.032552999 0.066776 0.12369
0.032527 0.066721998 0.12412
-0.047301002 0.017046001 0.14996
-0.046815 0.017282 0.14973
-0.046015002 0.017879 0.14952999
0.0078873998 0.051925 0.13311
0.0094352998 0.052191 0.13336
0.032315999 0.067117997 0.12585001
0.032529 0.066457003 0.12492
0.0088966005 0.052251 0.13367
0.063326001 0.085873 0.11626
0.032425001 0.066864997 0.12661
0.032871999 0.066367 0.12812001
0.063406996 0.085865997 0.11737
0.063506 0.085855 0.11769
0.011487 0.053507999 0.13538
-0.034410998 0.024891 0.15148
0.032547001 0.066647001 0.12926
0.011938 0.054306 0.1362
-0.035900999 0.023566 0.15424
0.014668 0.055420998 0.13831
0.033089001 0.067328997 0.13146999
0.014391 0.055063002 0.13718
0.015274 0.055934999 0.13862
0.016597999 0.056327999 0.13935
-0.036947999 0.02318 0.15802
-0.036924999 0.023167999 0.15707
0.017421 0.056506999 0.13959
-0.037337001 0.023247 0.15892
0.063169003 0.084991001 0.12548
0.063226998 0.085150003 0.12494
0.034313999 0.067332998 0.13531999
0.034231 0.06741 0.13531999
-0.037351999 0.022688 0.15927
0.019242 0.057771999 0.14165001
0.018626001 0.057870001 0.14135
0.062965997 0.084362999 0.12724
0.062926002 0.084792003 0.12669
0.062817 0.084490001 0.12797
0.020338001 0.058051001 0.14245
0.020785 0.058529999 0.14269
-0.037652001 0.023204001 0.16377001
0.061673 0.084579997 0.13129
0.036077999 0.068371996 0.14022
0.035820998 0.067809001 0.13975
0.022865999 0.059728 0.14497
-0.013346 0.037852 0.15749
-0.0099229002 0.039958999 0.15618999
0.061499 0.084049001 0.13235
-0.014843 0.037050001 0.15804
-0.015354 0.036070999 0.15931
-0.016674999 0.035831999 0.15959001
-0.037193 0.022360999 0.16591001
-0.017832 0.035110999 0.16051
-0.0063041002 0.042286001 0.15682
0.061771002 0.083681002 0.13517
0.061363 0.083476 0.1347
0.037909001 0.069280997 0.14352
0.037356 0.069128998 0.14294
0.037581 0.068719998 0.14322001
0.024644 0.060828 0.14715999
-0.0047239 0.043047 0.15751
0.038074002 0.069149002 0.14417
0.062210999 0.083764002 0.13572
-0.019169001 0.033670001 0.16287
-0.0036271 0.043228 0.15819
-0.0035786 0.043760002 0.15806
0.038665 0.069828004 0.14516
0.062763996 0.083802998 0.13637
0.062724002 0.082966 0.13572
0.02667 0.061740998 0.14964999
-0.03579 0.023810999 0.16960999
0.063322 0.084463999 0.13743
0.063969001 0.084974997 0.13839
-0.035347 0.023007 0.17072
-0.035163999 0.023353999 0.17091
-0.0010207 0.045364998 0.15936001
0.062928997 0.084830001 0.13736001
-0.020967999 0.032230999 0.16518
-0.021539001 0.031732999 0.16626
0.038773 0.069487996 0.14553
0.040206 0.069775 0.14727999
0.039156999 0.069375999 0.14607
0.064709999 0.085182004 0.13895001
-0.023282001 0.031406999 0.16897
0.00046509999 0.046043001 0.16062
-0.033562001 0.024939001 0.17261
0.0011147 0.046721 0.16118
0.0027516 0.045933999 0.16269
0.0019936999 0.046433002 0.16178
0.0023028001 0.045607999 0.16205999
0.065406002 0.085615002 0.13941
-0.032400001 0.025963999 0.17298999
0.028325001 0.063128002 0.15241
0.066197999 0.086305998 0.14047
-0.030508 0.026621001 0.17341
0.029092001 0.063551001 0.15350001
-0.028734 0.027853001 0.17361
0.06724 0.087228999 0.14163999
0.0039130002 0.048181999 0.16282
0.031067001 0.064360999 0.15538
0.070194997 0.088212997 0.1436
0.0049096998 0.047986001 0.16414
0.0053023002 0.048073001 0.16471
0.031693 0.064932004 0.15688001
0.0061661 0.04862 0.16569
0.044996001 0.073439002 0.15257999
0.0065139998 0.049261998 0.1664
0.032083999 0.065067999 0.15761
0.031597 0.065210998 0.15703
0.071318001 0.088849001 0.14512999
0.071625002 0.089130998 0.14574
0.072415002 0.089750998 0.14668
0.033020001 0.066101998 0.15910999
0.034412999 0.065462001 0.15954
0.034223001 0.065972999 0.16021
0.035183001 0.065422997 0.16021
0.0097623998 0.051580001 0.16987
0.011195 0.052124001 0.17134
0.074954003 0.091453999 0.14979
0.01158 0.051640999 0.17216
0.076863997 0.091911003 0.15178999
0.076192997 0.091727003 0.15114
0.037333999 0.066799 0.16328999
0.036915001 0.066606998 0.16286001
0.036587998 0.067114003 0.16304
0.037776999 0.067847997 0.16445
0.037666999 0.067639999 0.16421001
0.012256 0.052953999 0.17296
0.038495 0.068504997 0.16527
0.038741998 0.068618998 0.16577999
0.078172997 0.092730001 0.15353
0.014764 0.054303002 0.17659999
0.040263999 0.069251001 0.16749001
0.078777 0.093056999 0.15493999
0.055463001 0.078438997 0.16321
0.054866999 0.077638 0.16275001
0.055094 0.077979997 0.163
0.014967 0.05381 0.17685001
0.040957 0.069825001 0.16825999
0.079208001 0.093805 0.15673
0.041439999 0.070689999 0.16892
0.015915999 0.054145999 0.17832001
0.016465999 0.054292999 0.17904
0.042582002 0.070992999 0.17
0.057146002 0.079622999 0.16547
0.017313 0.055511001 0.17955001
0.043072999 0.070940003 0.17054
0.057877 0.079112001 0.16632
0.057381 0.079421997 0.16553
0.017845999 0.055817999 0.18036
0.018189 0.055686001 0.18073
0.044041999 0.071929999 0.17183
0.058513001 0.080215 0.16801
0.058003001 0.080275998 0.1673
0.044881001 0.071904004 0.17172
0.045499001 0.072061002 0.17253999
0.018968999 0.055709999 0.18189
0.018549001 0.055886999 0.18138
-0.0070826001 0.040305 0.19024999
-0.0073345001 0.040142 0.19080999
-0.0055458001 0.041118 0.18967
-0.0047574001 0.041623 0.18926001
-0.0063026999 0.040786002 0.18965
-0.0066807 0.040328 0.18998
-0.0058149002 0.041428 0.19028001
-0.0048725 0.041420002 0.18866
-0.0037573001 0.042364001 0.18959001
-0.0043702 0.042066999 0.18951
-0.0079429997 0.039639998 0.19193
-0.0073350999 0.040240999 0.19168
-0.0028782 0.042860001 0.19005001
-0.0029472001 0.042598002 0.18939
-0.0083403997 0.039326999 0.19304
-0.0080794999 0.040047001 0.19275001
-0.0021915 0.043111 0.18984
-0.0021850001 0.043264002 0.19021
0.04699 0.073412001 0.17394
0.059119999 0.080978997 0.16965
0.082767002 0.094962001 0.16197
0.082171999 0.094818003 0.16111
0.019742999 0.056666002 0.18336
0.019423001 0.055868 0.18277
-0.0084295003 0.039308 0.19379
-0.00027451999 0.044539001 0.19063
0.047718 0.073999003 0.17491999
0.048912 0.074127004 0.17516001
0.00053452997 0.044946998 0.19118001
0.020988001 0.057712 0.18464001
-0.0087550003 0.039048001 0.19419999
-0.0089450004 0.039113998 0.19502001
0.0022648 0.045825999 0.19167
0.0013695 0.045511 0.1917
0.021354999 0.057094999 0.18546
0.0014782 0.045265 0.19135
-0.0092954002 0.038635001 0.19602001
-0.0094275 0.038757998 0.1956
0.050489999 0.07525 0.17605001
-0.0089066997 0.039244998 0.19707
0.022429001 0.057549 0.18652999
0.052685998 0.076911002 0.17699
0.053004 0.077304997 0.17685001
0.022995999 0.057870999 0.18756001
-0.0091674002 0.038846999 0.19797
-0.0095969001 0.038201001 0.19853
-0.0093326 0.038017999 0.19914
0.0049105999 0.047355998 0.19358
0.0054786 0.047766 0.19433001
0.054685999 0.078286998 0.17734
-0.0080781998 0.039393999 0.20006999
0.024563 0.058848001 0.18979
-0.0074548 0.039542999 0.20107999
-0.0075173001 0.039618999 0.20208
0.084348999 0.096490003 0.17200001
0.0089149997 0.049748 0.19678999
0.0092546996 0.049548 0.1965
0.085381001 0.096064001 0.17262
0.026006 0.060171001 0.19151001
0.026459999 0.059838001 0.19204
0.026424 0.060485002 0.19204
-0.0058126999 0.040401999 0.20472001
0.027743001 0.060522001 0.19362999
0.084882997 0.096225001 0.17524999
-0.0053379 0.040720999 0.20603
0.084973 0.096407004 0.17608
0.085148998 0.096216001 0.17732
0.013901 0.052588999 0.20176999
0.084848002 0.096428998 0.17840999
0.014726 0.053015999 0.20259
-0.003453 0.042156 0.20943999
-0.0031927 0.041905999 0.20965999
0.016275 0.053367 0.20302001
0.083949 0.095954001 0.18129
0.084720999 0.095555 0.18229
0.015738999 0.053525999 0.20377
0.032356001 0.063394003 0.19876
0.016749 0.054090001 0.2041
-0.0027286999 0.042165998 0.21123999
0.016631 0.054191999 0.20484
0.033734001 0.064266004 0.19973999
-0.0074743 0.038419001 0.21382999
-0.0086363005 0.038256001 0.21431001
-0.0052880999 0.039795 0.21338999
-0.0098927999 0.037562001 0.21529
0.035246 0.064565003 0.20133001
0.084448002 0.095104001 0.18528999
0.019094 0.054967999 0.20678
0.018448001 0.055039 0.20757
-0.010229 0.037485 0.21668001
-0.0099202003 0.037323002 0.21706
0.03613 0.065192997 0.20185
0.083230004 0.094944 0.18715
0.083621003 0.094653003 0.18748
0.084149003 0.094834 0.18679
0.084206 0.094889 0.18607999
0.018547 0.055176001 0.20866001
-0.0096142003 0.037749 0.21759
0.037459999 0.066992 0.20304
0.082768001 0.094676003 0.18825001
0.018818 0.055107001 0.20941
0.018440001 0.055208001 0.21052
0.020090999 0.055176999 0.20795999
0.02007 0.055397 0.20931999
-0.0089742001 0.038157001 0.21945
-0.0081818001 0.038547002 0.22107001
0.019087 0.055187002 0.2104
0.019609001 0.055576999 0.21097
-0.0086073 0.038203999 0.22033
0.040084001 0.067203999 0.20480999
0.040383998 0.067483999 0.20505001
0.020295 0.056086998 0.21162
0.020213 0.05576 0.21149001
0.019817 0.055914 0.2119
0.04056 0.068542004 0.20491999
0.0197 0.055856999 0.21256
0.081965998 0.093281999 0.19239999
0.041099001 0.068637997 0.20528001
0.041923001 0.069041997 0.20547999
0.080081001 0.092895001 0.19378
0.081037 0.093062997 0.19299001
0.080921002 0.092823997 0.19316
-0.0075297998 0.038853001 0.22216
0.021135001 0.056161001 0.21366
0.020810001 0.056465 0.21246
0.020726001 0.056219999 0.21228001
-0.0080754003 0.037974998 0.22228999
-0.0080321003 0.037939001 0.22291
0.021182001 0.056541 0.21402
0.079287 0.092515998 0.19496
0.044000998 0.070729002 0.20646
-0.0082352003 0.038382001 0.22438
0.020233 0.056109998 0.21503
-0.0086415997 0.037957001 0.22555
-0.0086402996 0.037466999 0.22626001
0.020705 0.056226 0.21593
0.021224 0.056598 0.21548
0.047511999 0.072944999 0.20736
0.078334004 0.090925999 0.19754
0.077600002 0.090577997 0.19819
0.021661 0.056520998 0.21619
0.022150001 0.0568 0.21619999
0.022531999 0.057167999 0.21657
0.049215 0.073160999 0.20810001
0.076287001 0.090484999 0.19860999
0.076970004 0.090198003 0.19876
0.021862 0.056765001 0.21702
-0.0060334001 0.038878001 0.22732
-0.0063447002 0.038531002 0.22691
0.023327 0.057698999 0.21669
0.024142999 0.058153 0.2165
0.024256 0.058178 0.2173
0.024704 0.058219001 0.21689001
0.025085 0.058341 0.21594
0.024379 0.058239002 0.21814001
0.023668 0.057999 0.21838
0.024011999 0.058051001 0.21916001
-0.0051318002 0.039331999 0.22758999
0.024222 0.058075 0.21892001
0.056903001 0.077551 0.20811
0.057622999 0.078593999 0.2078
0.071757004 0.087696001 0.20316
0.023243999 0.057473999 0.2201
0.058318 0.078633003 0.20819999
0.059230998 0.079043999 0.20810001
0.023928 0.057657 0.21983001
0.063523002 0.082120001 0.20649999
0.063510001 0.082188003 0.20682
0.065867998 0.083857998 0.20596001
0.066122003 0.083153002 0.20653
-0.0074943998 0.038586002 0.2307
0.022211 0.056713998 0.22138999
0.021322001 0.056306001 0.22171
-0.0078729996 0.037624002 0.23162
-0.0078595998 0.038212001 0.23280001
-0.0080177002 0.037595 0.23236001
0.021135001 0.055886 0.22394
-0.010763 0.036026001 0.23404001
-0.0092689004 0.037218001 0.23354
-0.0090905996 0.036518998 0.23308
-0.011204 0.035948001 0.23548
-0.011206 0.035898998 0.23469
0.021257 0.055886 0.22466999
-0.010791 0.036203001 0.23591
0.021629 0.056265 0.22577
0.020927001 0.055989001 0.22672001
-0.0098839998 0.036623001 0.23667
-0.0085306996 0.037919 0.23745
-0.0078795003 0.037865002 0.23818
0.020492001 0.055280998 0.22865
-0.0082136001 0.037652001 0.23889001
0.019619999 0.054733001 0.23163
-0.0079832003 0.037749 0.24118
0.019175 0.054435 0.23293
0.019678 0.054421999 0.23285
0.018383 0.053831998 0.23529001
0.019378999 0.05373 0.23503
0.01939 0.05401 0.23444
0.018774999 0.053665999 0.23515999
-0.0069301999 0.038118999 0.24435
-0.0046088002 0.039694 0.24539
-0.0053069 0.039049 0.24510001
0.016306 0.052542001 0.23947001
-0.0045499001 0.039315 0.24654
-0.0040787999 0.039781 0.24652
-0.0038886999 0.039901 0.24714001
0.01613 0.051770002 0.24101999
0.015557 0.051922001 0.24064
-0.003604 0.039822999 0.24781001
-0.0040535 0.039324999 0.24754
0.014301 0.051397 0.24169999
-0.0032279 0.040275 0.24827
0.013832 0.050878 0.24278
-0.0021983001 0.041021001 0.24803001
-0.0021307 0.040583 0.24838001
-0.0016935 0.041388001 0.24809
-0.00092228001 0.041825999 0.24785
0.00064366998 0.042257998 0.24805
0.0079263998 0.0471 0.24572
0.02331 0.056232002 0.24332
0.023906 0.056263 0.24279
0.024304001 0.057057999 0.24321
0.025141001 0.057553001 0.24315
0.025420999 0.057151001 0.24259999
0.024583001 0.056619 0.24246
0.026361 0.057526998 0.24228001
0.027209001 0.058320999 0.24259
0.027918 0.058729999 0.24257
0.028553 0.059193 0.24276
0.022314001 0.055705 0.24432001
0.021747001 0.055512 0.24506
0.021508001 0.055326998 0.24638
0.022166001 0.055856001 0.24626
0.021032 0.054949999 0.24548
0.033886001 0.062166002 0.24350999
0.021632999 0.055261999 0.24765
0.021971 0.055534001 0.24799
0.035572 0.063239001 0.24387001
0.034835 0.062847003 0.24354
0.022976 0.055916 0.24849001
0.036605 0.063634001 0.24443001
0.024427 0.057075001 0.24888
0.025734 0.05728 0.24969999
0.0261 0.058047999 0.24941
0.038437001 0.065484002 0.24544001
0.027272001 0.057902001 0.24997
0.027998 0.058598001 0.24958999
0.029274 0.059613001 0.24963
0.030538 0.059985001 0.24975
0.040185001 0.066443004 0.24799
0.036242999 0.064037003 0.24955
0.036812 0.063841 0.24933
0.036908001 0.064254001 0.24950001
-0.015794 0.037225999 0.12718999
-0.014895 0.037434999 0.12689
-0.013368 0.038747001 0.12628999
-0.016620999 0.036377002 0.12771
-0.012771 0.038888998 0.12632
-0.01165 0.039646 0.12626
-0.010917 0.039813001 0.12617999
-0.010417 0.040660001 0.12601
0.063993998 0.086021997 0.10149
-0.020097001 0.033486001 0.12947001
-0.0093325004 0.041030001 0.12596001
0.061223 0.084340997 0.1025
0.064704999 0.086939 0.10182
-0.022252001 0.033238001 0.13093001
-0.0087716002 0.041496001 0.12599
-0.0079415999 0.041800998 0.12591
-0.0074821999 0.042479999 0.12620001
-0.0070984 0.042472001 0.12627
0.060128 0.084250003 0.1037
0.065633997 0.087323003 0.10184
0.065388002 0.08715 0.10242
-0.0060568 0.042792998 0.12605
0.038176 0.070445001 0.11195
0.039057001 0.070891 0.11108
0.059124999 0.083186001 0.10481
0.065756999 0.087637998 0.10305
-0.023939 0.032152999 0.13266
0.038376998 0.070419997 0.11175
0.039754 0.071385004 0.11089
0.040502001 0.071808003 0.11061
0.04132 0.072419003 0.11077
0.041037999 0.072420001 0.11061
0.042041 0.073028997 0.11077
0.041926 0.072605997 0.11021
0.058747999 0.082667999 0.10507
-0.0047908002 0.044025 0.12611
0.042996999 0.073544003 0.11043
-0.049515001 0.015842 0.14132001
-0.0037616999 0.044608999 0.12608001
0.045345001 0.074376002 0.1101
0.066652 0.087700002 0.10436
-0.0030057 0.044817999 0.12612
-0.0028941 0.045184001 0.12656
0.037108 0.069316 0.11287
0.036672998 0.069421999 0.11375
0.057220001 0.081350997 0.10682
-0.051711001 0.014764 0.14347
-0.043334 0.020529 0.14021
-0.0024188999 0.045428 0.12648
-0.052308999 0.014625 0.14413001
-0.043846998 0.018454 0.14013
-0.042676002 0.019649001 0.13985001
-0.041374002 0.020039 0.14018001
0.046133999 0.075494997 0.11061
0.047047 0.075402997 0.11031
0.047656 0.075860001 0.11043
0.056173 0.081253998 0.10829
0.056859002 0.081808001 0.10726
-0.026407 0.030192001 0.13491
-0.0011845001 0.045836002 0.12667
-0.0014843 0.046167001 0.12733001
0.00010823 0.046224002 0.12702
4.3222e-05 0.04668 0.12737
0.035491001 0.068953998 0.1149
0.035953999 0.068635002 0.11391
0.048524 0.076180004 0.1103
-0.00053511001 0.045942001 0.12646
0.066315003 0.087707996 0.10514
-0.052002002 0.014715 0.14503001
-0.028739 0.028961999 0.13699
0.035473999 0.068391003 0.11526
0.049322002 0.077173002 0.11075
0.049231999 0.077339001 0.11127
0.066611998 0.087430999 0.10603
0.050106 0.077808 0.11109
-0.030750999 0.027666001 0.13877
-0.029874001 0.02815 0.13806
0.00064729003 0.047116 0.12762
0.034798 0.068111002 0.11677
0.052896999 0.078795001 0.11064
0.053254001 0.080017 0.11084
0.053801998 0.080067001 0.11068
0.066390999 0.087269001 0.10699
0.066125996 0.087798998 0.10638
-0.051759999 0.014934 0.146
-0.036157001 0.024402 0.14105
-0.030975999 0.027417 0.1392
0.053103998 0.079666004 0.11105
-0.050935999 0.015205 0.14638001
-0.036826 0.023577999 0.14055
-0.031780001 0.026306 0.13978
-0.031831998 0.025705 0.13999
0.066009 0.087392002 0.10741
-0.035342999 0.024568999 0.14101
0.066157997 0.087233 0.10828
0.0023849001 0.048115 0.12912001
-0.050662 0.015184 0.14736
0.033619002 0.067745999 0.11947
0.033629 0.067394003 0.11884
0.0027719999 0.048418 0.12946001
0.033465002 0.066940002 0.11981
0.0042786999 0.049274001 0.13015001
0.033158001 0.066513002 0.12081
0.032942999 0.066740997 0.12181
-0.050209001 0.01529 0.14820001
0.0053506 0.049890999 0.13046999
0.0062791002 0.049917001 0.13077
-0.050039999 0.015623 0.14983
-0.050092001 0.015512 0.14923
0.006362 0.050409 0.13150001
0.032892998 0.066711999 0.12249
0.032717999 0.066404998 0.12269
0.064301997 0.086159997 0.1126
0.064984001 0.085479997 0.11251
0.065362997 0.085606001 0.1121
-0.049805 0.01595 0.15075
-0.045387 0.018255999 0.14915
-0.044691 0.018901 0.14889
-0.043754 0.019219 0.14847
-0.042144999 0.01998 0.14824
-0.048069999 0.016466999 0.15022001
-0.041701 0.020287 0.14857
-0.049054001 0.016205 0.15049
-0.040766999 0.021152999 0.14849
0.0069594001 0.051114 0.13195001
0.063571997 0.085459001 0.1148
0.063835002 0.085298002 0.1143
-0.039747 0.022066999 0.14871
0.0074592 0.050742 0.1318
-0.038879 0.022291999 0.14858
-0.037255999 0.023117 0.14902
-0.037870999 0.02275 0.14896999
-0.036346 0.023486 0.14883
0.063663997 0.085427999 0.11574
-0.035572 0.023941001 0.14906
-0.035135001 0.024447 0.14927
-0.034653999 0.024677999 0.14964999
0.063897997 0.085859001 0.11734
-0.034230001 0.025052 0.14975999
0.064434998 0.085835002 0.11807
-0.034106001 0.025062 0.15023001
-0.034120999 0.024769999 0.15053
0.012542 0.053920999 0.13593
-0.034779999 0.02455 0.15196
0.01259 0.053376999 0.13555001
0.013451 0.053548999 0.13547
0.064259 0.085646003 0.11886
0.064294003 0.085697003 0.11967
0.063983999 0.085667998 0.12017
-0.034952 0.024511 0.15241
0.063968003 0.085605003 0.12125
-0.036169 0.023589 0.15478
0.063773997 0.085354 0.12213
0.015424 0.055472001 0.13783
0.063562997 0.085106 0.12312
0.015552 0.055801999 0.13839
-0.036502998 0.022905 0.15625
0.017602 0.055509999 0.1383
0.017932 0.055927001 0.139
0.018763 0.055032998 0.13823
-0.037080999 0.022918999 0.15817
0.018441999 0.056754999 0.14008
0.018452 0.057124998 0.14049
-0.037103001 0.02153 0.16015001
-0.037386 0.022607001 0.1602
-0.037620999 0.02297 0.15988
0.019130001 0.05731 0.14102
0.063192002 0.084660001 0.12616999
-0.037585001 0.022588 0.16065
0.019866999 0.057966001 0.14206
-0.037581 0.022457 0.16158
0.035082001 0.067339003 0.13755
0.035080001 0.067882001 0.13772
0.035298999 0.067838997 0.13793001
-0.037625 0.02266 0.16281
0.062252998 0.083678 0.13088
0.062141001 0.084060997 0.1305
0.022151001 0.059280999 0.14405
0.061650999 0.083874002 0.13175
0.061735999 0.083570004 0.13243
-0.0095605999 0.039932001 0.15656
-0.010634 0.039303001 0.15666001
0.036336999 0.068710998 0.14138
0.036426 0.068301998 0.14139999
0.061427001 0.083438002 0.13322
-0.012948 0.037436999 0.15773
-0.012717 0.037783001 0.15752999
-0.014121 0.037053 0.15832999
-0.0090177003 0.040258002 0.15656
0.023562999 0.059841 0.14582001
0.024207 0.060226999 0.14635
0.036878001 0.068517998 0.14195
0.061455 0.083359003 0.13402
-0.016816 0.035142001 0.16016001
-0.016213 0.035668001 0.15966
-0.0074668 0.041159 0.15681
-0.0068211001 0.040879998 0.15726
-0.017465999 0.034784999 0.16086
0.024177 0.060571998 0.14699
-0.0060184002 0.041666001 0.15736
-0.036872 0.022677001 0.16752
-0.018761 0.034192 0.16171999
-0.017802 0.034327999 0.16145
-0.0053651999 0.042282 0.1573
-0.0186 0.033594001 0.16219001
-0.0049977 0.042226002 0.15752999
-0.0046436 0.042511001 0.15764999
0.024917001 0.060913 0.14776
0.038068999 0.068852998 0.14351
0.025289999 0.061172001 0.14845
-0.020052001 0.032313 0.16430999
-0.019259 0.032414 0.16389
0.026105 0.061206002 0.14879
-0.020344 0.03263 0.16444001
0.062765002 0.084463 0.13685
-0.0025362 0.043439999 0.15874
-0.0016762 0.044535 0.15942
-0.0018745 0.044222001 0.15905
-0.00079358998 0.044867001 0.15951
-0.035560999 0.023298001 0.17017999
-0.021754 0.030920999 0.16727
-0.022154 0.031496 0.16723
1.1855e-06 0.045391999 0.15982001
0.026961001 0.062029999 0.15011001
0.027225001 0.062327001 0.15091
0.028116999 0.062693 0.15133999
-0.02265 0.031211 0.16839001
0.027894 0.062079001 0.1504
0.040442001 0.070355996 0.14767
-0.034171 0.024242001 0.17238
-0.033601999 0.024581 0.17268001
-0.023313999 0.030847 0.16931
-0.023605 0.030662 0.1699
0.0016968 0.046043001 0.16142
0.041143 0.070776001 0.14836
-0.032933 0.025024001 0.17308
-0.032336999 0.025123 0.17321999
-0.024199 0.030045001 0.17122
-0.023673 0.030329 0.17036
0.041574001 0.07102 0.14922
0.066830002 0.086507998 0.14083999
-0.030665999 0.026187999 0.17372
-0.030339999 0.026295001 0.17357001
0.067786999 0.086907998 0.14162999
-0.024328999 0.028794 0.17226
-0.024924001 0.028433001 0.17297
-0.026342999 0.029139999 0.17278001
0.043095 0.071566999 0.15059
0.0043764999 0.047649 0.16345
0.031277999 0.064329997 0.15593
0.068662003 0.087352999 0.14256001
0.030758999 0.063915998 0.15489
0.044401001 0.072838001 0.15200999
0.0059155002 0.048604 0.16553
0.070574999 0.088638 0.14437
0.032345001 0.064906001 0.15721001
0.045903001 0.073205002 0.15341
0.045626 0.072734997 0.15278
0.0075651002 0.049876001 0.16673
0.032853 0.065415002 0.15837
0.033316001 0.065306999 0.15888
0.033615999 0.065633997 0.15942
0.0080982 0.050140999 0.16760001
0.046923999 0.073894002 0.15434
0.047403 0.074033998 0.15447
0.0086955996 0.050255001 0.16832
0.0093232999 0.050492 0.16944
0.0093208002 0.050232001 0.16936
0.010053 0.050882 0.17003
0.049120001 0.075070001 0.15662
0.049929 0.075773001 0.15695
0.074773997 0.091063 0.149
0.050207999 0.075561002 0.15742999
0.075172998 0.091227002 0.14951999
0.051383 0.076196998 0.15831
0.038058002 0.067745999 0.16472
0.052205 0.077439003 0.15949
0.012138 0.051932 0.17297
0.052829001 0.076890998 0.16012
0.077385001 0.092403002 0.15238
0.077647001 0.092327997 0.15277
0.053721 0.077780001 0.16133
0.039312001 0.068692997 0.16636001
0.013546 0.053059999 0.17468999
0.014131 0.052795 0.17531
0.014224 0.053390998 0.17535999
0.040677 0.069185004 0.16764
0.055339999 0.079264998 0.16361
0.055622999 0.078405 0.1636
0.078846 0.093103997 0.15552001
0.0416 0.070306003 0.16885
0.056139 0.079012997 0.16393
0.056276999 0.079182997 0.16453999
0.015697001 0.054166999 0.17783
0.042870998 0.070422001 0.16983999
0.080188997 0.094075002 0.15773
0.081187002 0.093313001 0.15703
0.043919999 0.071442001 0.17128
0.080619998 0.094118997 0.15794
0.017348001 0.055075999 0.17982
0.058154002 0.080176003 0.16685
0.058049001 0.079585001 0.16690999
0.081854999 0.094743997 0.16051
0.081220001 0.094757996 0.16011
-0.0054175002 0.040630002 0.18741
-0.0065056998 0.039774001 0.18772
-0.005202 0.040895 0.18827
-0.0077062999 0.039390001 0.18914001
-0.0085239997 0.039480001 0.19018
-0.0079321004 0.039434001 0.19006
-0.0084435996 0.039147999 0.18934999
-0.0077523999 0.039836001 0.19021
-0.0063213999 0.04036 0.18866
-0.0051732999 0.041088 0.18864
-0.0036823 0.041823 0.18855999
0.045630999 0.0726 0.17282
0.058795001 0.081092998 0.16881999
-0.0094114002 0.038400002 0.19151001
-0.0091791004 0.038711999 0.19121
-0.0097142998 0.038247999 0.19053
-0.0082414998 0.039478 0.19113
-0.0090503003 0.038722999 0.19045
-0.0071576 0.039542001 0.18794
-0.0035860999 0.042257 0.18943
0.058784999 0.080757998 0.16909
-0.0089204004 0.038899999 0.19219001
-0.0020655999 0.042879999 0.18941
0.046395998 0.072893001 0.17351
0.059351001 0.080498002 0.17053001
0.059480999 0.080677003 0.17001
-0.0093783 0.038543999 0.19215
-0.0092080003 0.038545001 0.19354001
-0.0011529 0.043372001 0.1895
-0.00082444999 0.044169001 0.19028001
0.047584999 0.073564 0.17425001
0.083518997 0.095131002 0.16337
-0.0095054004 0.038412001 0.19425
-0.0088515999 0.038704 0.19439
5.6362001e-05 0.044089999 0.18999
-0.00049876998 0.043480001 0.18951
0.047968999 0.073652998 0.17477
0.00091931998 0.044992998 0.19073001
0.00072855997 0.044268999 0.19012
0.048517998 0.07395 0.17499
0.08337 0.095533997 0.16371
0.0014538 0.045065999 0.19078
0.049421001 0.074738003 0.17550001
0.020809 0.056965001 0.18446
-0.0096155005 0.038479999 0.19539
0.049989 0.074741997 0.17567
0.059365999 0.080246001 0.17292
-0.010181 0.037997998 0.19573
0.0024530999 0.045526002 0.19125
0.0027842999 0.046004999 0.19196001
-0.01055 0.037549 0.19659001
-0.010867 0.037319999 0.19574
0.0034093 0.046041001 0.19194999
0.058929998 0.080325 0.17374
-0.010261 0.037836999 0.19657999
-0.0098670004 0.038137998 0.19719
-0.0097447 0.038453002 0.19682001
-0.010407 0.037778001 0.19771001
0.0036510001 0.046248 0.19238
0.051608 0.075985 0.17652
0.051775999 0.076122999 0.17666
0.058809001 0.080029003 0.17423999
0.083948001 0.095604002 0.16542999
0.0042071999 0.046528999 0.19282
0.052926 0.076281004 0.17664
0.053984001 0.075888999 0.17646
0.054451 0.076842003 0.17656
0.057781 0.079742998 0.17558999
0.057337001 0.079557002 0.17606001
0.0055396999 0.047157001 0.19320001
0.055087999 0.077923998 0.17704999
0.054455001 0.077483997 0.17697001
0.084388003 0.095702998 0.16655
0.0055502998 0.047662001 0.1939
0.084778003 0.09584 0.16809
-0.0086292997 0.038272999 0.19987001
0.0060787001 0.048163 0.19493
0.0067158001 0.048115 0.19487999
-0.0086752996 0.038810998 0.19991
0.0076561999 0.0482 0.1946
-0.0086279996 0.038279001 0.20063999
0.084585004 0.096207999 0.16906001
0.0075511001 0.048547 0.19533999
0.024924999 0.059540998 0.19019
0.0077240001 0.048834 0.19577
0.024944 0.059144001 0.19039001
-0.0084955003 0.038194001 0.20152999
0.0083408002 0.048679002 0.19532
0.0087008998 0.048864 0.19597
0.084991999 0.096120998 0.17093
-0.0080837002 0.038890999 0.20173
0.025199 0.059659 0.19065
0.0090345005 0.049291998 0.19614001
-0.0074955998 0.039216999 0.20300999
-0.0077502001 0.038950998 0.20232999
0.02565 0.059788 0.19126999
0.085363999 0.095928997 0.17185
0.0098773995 0.049949002 0.19733
0.010224 0.050030001 0.19743
0.027078001 0.060026001 0.19286001
0.085502997 0.096248999 0.17349
0.010943 0.050376002 0.19792999
-0.0065631 0.039338 0.20455
-0.0071398998 0.039159998 0.20382001
0.085184 0.096432 0.17384
0.085372999 0.096449003 0.17464
-0.0064653 0.039857 0.20473
-0.0060923998 0.040107001 0.20517001
0.027803 0.060474999 0.19399001
0.028376 0.060842 0.19399001
0.011827 0.050645001 0.19864
0.028805999 0.061005 0.19465999
0.028881 0.060353 0.1953
-0.0047455002 0.040520001 0.20679
0.013186 0.051708002 0.20017999
0.014105 0.052136 0.20084
-0.0045143999 0.040736999 0.20781
0.014352 0.052414 0.20122001
0.014915 0.052758001 0.20142999
0.030221 0.062171001 0.19662
0.014436 0.052664999 0.20204
-0.0039822999 0.040911 0.2088
0.085367002 0.096000999 0.17926
0.015185 0.052967001 0.2023
0.030882999 0.062707998 0.19722
-0.0047625001 0.039737999 0.20804
-0.0044037001 0.039749 0.20866001
0.085306004 0.095908001 0.18046001
-0.0037145 0.041191 0.20963
-0.0032144 0.041554999 0.21018
0.0164 0.053371999 0.20351
0.031442001 0.062748 0.19784001
0.032081001 0.062858999 0.19853
0.084945999 0.095781997 0.18109
-0.0029227999 0.041444 0.21111999
0.016957 0.053566001 0.20295
0.017192001 0.053991999 0.20399
0.032497998 0.062176 0.19942001
0.017845999 0.054207999 0.20416
-0.0027315 0.041625001 0.21179
0.018029001 0.054786999 0.20492999
0.033386 0.063878998 0.19961999
-0.003269 0.041018002 0.21216001
0.034063999 0.064180002 0.2001
0.033886999 0.063079 0.20034
-0.0082104001 0.037829001 0.21412
-0.0092709996 0.037657999 0.2146
-0.0075864 0.03805 0.21393999
-0.0068851002 0.038846999 0.21386001
-0.005959 0.039214 0.21385001
-0.0047443002 0.040070999 0.21325999
-0.0039889002 0.040640999 0.21276
0.017632 0.054760002 0.20561001
0.018257 0.054953001 0.20581999
-0.0097709997 0.037126999 0.21509001
0.034217 0.064622 0.20043001
0.084504001 0.095186003 0.18435
0.084660999 0.095550999 0.18353
-0.01045 0.036486 0.21547
-0.010551 0.036743999 0.21633001
-0.010453 0.037103999 0.21708
0.035739001 0.065139003 0.20158
-0.010056 0.037060998 0.2181
-0.010867 0.036288999 0.21682
0.083833002 0.095357999 0.18603
-0.010792 0.036237001 0.21755999
-0.010335 0.036350999 0.21815
0.036493 0.065690003 0.20218
0.036809001 0.0656 0.20246001
0.037902001 0.066091001 0.20329
0.083206996 0.094180003 0.18856999
0.083682001 0.094420999 0.18801001
0.038398001 0.066863 0.20404001
0.082708001 0.094218001 0.18934
-0.0097470004 0.036956001 0.21911
0.020275 0.055535 0.21001001
-0.0091348998 0.037641 0.21983001
-0.0085680997 0.037834998 0.2207
0.021330001 0.056187999 0.21052
0.020638 0.05576 0.21065
0.021078 0.056286 0.21163
0.082300998 0.093859002 0.19089
0.081725001 0.093740001 0.19137
0.022188 0.056159001 0.21043
0.082101002 0.093662001 0.19147
0.021400001 0.056570999 0.21225999
0.022229999 0.056318998 0.21159001
0.041522 0.068584003 0.20545
0.080595002 0.092313997 0.19418
0.021540999 0.05658 0.21358
0.043136001 0.069220997 0.20626999
0.080058001 0.092304997 0.19414
0.021732001 0.056421001 0.21321
-0.0083921999 0.037721999 0.22420999
-0.0083411997 0.037324 0.22342999
0.02162 0.056568 0.2139
0.022076 0.056662999 0.21412
0.079681002 0.092146002 0.19491
0.043524001 0.069632001 0.20643
0.044473998 0.070079997 0.20675001
0.079565004 0.092092998 0.19554999
0.045214999 0.070536003 0.20694
-0.0088878004 0.037152 0.22424001
0.046161 0.071358003 0.20705
0.078920998 0.091495998 0.19675
0.022338999 0.056648001 0.21516
0.046144001 0.071874 0.20694999
-0.0092733996 0.036579002 0.22572
-0.0089929998 0.037227001 0.22513001
0.021655001 0.056418002 0.21554001
0.022399001 0.057092 0.21577001
0.046960998 0.071608 0.20743001
-0.0089587998 0.036704998 0.22634999
0.047816001 0.072203003 0.20769
-0.0075463001 0.037847001 0.22677
0.023538999 0.057147998 0.21557
0.024095001 0.057613 0.21527
0.024145 0.058145002 0.21591
0.024697 0.057782002 0.21540999
0.077561997 0.090415999 0.19848999
-0.0083133997 0.037344001 0.22672001
-0.0079412004 0.036878999 0.2271
-0.0069777002 0.038376998 0.22696
0.050082002 0.073817 0.20814
0.025438 0.057964999 0.21674
0.075837001 0.089507997 0.20020001
0.076307997 0.089836001 0.19953001
0.051236998 0.074148998 0.20853999
0.051713999 0.074539997 0.20837
0.075320996 0.089279003 0.20068
-0.0052731 0.039778002 0.2274
0.025232 0.058440998 0.21797
0.052832 0.075136997 0.20888001
0.053591002 0.075493999 0.20856
0.073674001 0.087890998 0.20238
0.024806 0.058223002 0.21829
0.054853 0.076549001 0.20849
0.054779001 0.076661997 0.20837
0.05494 0.076296002 0.20851
0.055201001 0.075589001 0.20905
0.055876002 0.076142997 0.20891
0.055565 0.076563001 0.20846
0.073120996 0.087856002 0.20242
-0.0042181001 0.040031999 0.22849999
0.024923 0.058136001 0.21901
0.057472002 0.078207999 0.20801
0.072305001 0.087281004 0.20311999
0.059471998 0.079030998 0.20823
0.071861997 0.086755 0.20355999
-0.0043033999 0.039724 0.22887
-0.0044653998 0.039957002 0.22911
0.024123 0.057530001 0.22006001
0.060690001 0.079795003 0.20774999
0.06185 0.080091998 0.20795999
0.064094998 0.081644997 0.20708001
0.068090998 0.084535003 0.20548999
0.068740003 0.085047998 0.205
0.068838 0.085363999 0.20483001
0.070069 0.086019002 0.20424999
0.070975997 0.086096004 0.20405
-0.0059687002 0.039057001 0.22992
-0.0053145001 0.037617002 0.2296
-0.0069471002 0.038338002 0.23039
-0.0060486002 0.037349999 0.22972
-0.0050646998 0.039067999 0.22946
-0.0049104001 0.038212001 0.22939
0.024025001 0.057514001 0.22054
0.063063003 0.081262 0.20712
0.064831004 0.082126997 0.20693
0.067511998 0.084173001 0.2057
-0.0074475999 0.037932001 0.23037
0.023173001 0.056903999 0.22155
0.024041001 0.057438999 0.2211
0.021981999 0.056432001 0.22184999
0.022299999 0.056373 0.22201
0.021461001 0.056081001 0.22288001
0.021678001 0.056127999 0.22296999
0.022043001 0.056609001 0.22341999
0.022577999 0.056405999 0.2226
-0.0097126001 0.036339 0.23345
-0.0085508004 0.037156999 0.23288999
0.021599 0.056166001 0.22361
0.023422999 0.057057999 0.22220001
0.022919999 0.05683 0.22315
0.023418 0.057193998 0.22289
-0.01195 0.034901001 0.23469999
-0.011487 0.035611998 0.23425999
-0.010268 0.036409002 0.23393001
0.023025 0.056942999 0.22431999
0.023584001 0.05742 0.22417
0.024723001 0.057735998 0.22389001
0.024367001 0.057663001 0.22272
0.025038 0.057967 0.22274999
0.025316 0.058109999 0.22351
0.025876001 0.058201998 0.22237
0.025998 0.058396999 0.22333001
0.022164 0.056341 0.22483
0.024886999 0.057675999 0.22474
-0.011668 0.034993 0.2357
-0.011288 0.035124 0.23652001
0.022275001 0.056665 0.22515
0.022833999 0.056901 0.22473
0.023451 0.057145 0.22544999
0.024072001 0.057409 0.22506
-0.010871 0.035604998 0.23649999
0.025513999 0.057996001 0.22423001
0.023432 0.056885999 0.22600999
-0.010045 0.036146998 0.23723
0.022863001 0.056458 0.22637001
0.025036 0.057521999 0.22527
0.022028999 0.056152999 0.22674
-0.0092887999 0.036649 0.23743001
-0.0090319999 0.036823999 0.23765001
0.021186 0.055497002 0.22772001
0.021190001 0.055791002 0.22724999
0.021985 0.055686999 0.22745
0.021179 0.055202 0.22849
-0.0087674996 0.036828 0.23830999
0.02186 0.055500999 0.22826
-0.0079934997 0.037466999 0.23845001
0.020586001 0.055238999 0.22928999
-0.0084210997 0.037195999 0.23910999
0.020616001 0.055080999 0.22983
0.020976 0.054931998 0.23078001
0.020056 0.054871 0.23119
-0.0082606003 0.037253 0.24122
-0.0082863998 0.036890998 0.24034999
0.020192999 0.054699998 0.2318
0.020003 0.054590002 0.23233999
-0.0078357998 0.037128001 0.24191
-0.0074233999 0.037397999 0.24293
-0.0072570001 0.037432998 0.24369
-0.0072376998 0.038015001 0.24391
-0.0074085998 0.037723999 0.24473999
0.018758999 0.05356 0.2358
0.018381 0.053318001 0.23646
0.018129 0.052836001 0.23689
-0.0064792 0.038155999 0.24519999
-0.0068476 0.037523001 0.24542999
0.017943 0.052905999 0.23733
0.017632 0.052583002 0.23812
-0.0056794998 0.037792999 0.24577001
-0.0052752001 0.038569 0.24586
0.017391 0.052436002 0.23868001
0.016948 0.052221999 0.23931
0.016674001 0.051871002 0.2403
0.016797001 0.052168999 0.23966999
0.015488 0.051557999 0.24127001
0.014822 0.050779 0.24222
0.015552 0.051157001 0.24172001
-0.0035301 0.039623 0.24844
-0.0027352001 0.040026002 0.24878
0.013606 0.050429001 0.24277
-0.0013749 0.041087002 0.24833
0.013144 0.049920999 0.24327999
0.013549 0.049947001 0.24326999
-0.00037500999 0.041701999 0.24819
0.0016479 0.042897001 0.24766
0.0025913999 0.043219 0.24736001
0.0032625999 0.043899 0.24717
0.011844 0.049385 0.24423
0.013336 0.049226001 0.24419001
-0.00042110001 0.041097 0.24886
-0.00086362998 0.040860001 0.24888
0.0004397 0.041847002 0.24857999
0.00090973999 0.042557999 0.2481
0.0026839999 0.04304 0.2475
0.0029736999 0.043221999 0.24766
0.0040726 0.044319998 0.24710999
0.0047603999 0.044757999 0.24688999
0.0084868995 0.047341999 0.2458
0.012762 0.048322 0.24479
0.01058 0.048342001 0.24496
0.012096 0.047913 0.24532001
0.0057760999 0.044922002 0.24681
0.0070535 0.045908 0.24643999
0.022329001 0.055645999 0.24334
0.023134001 0.055543002 0.24266
0.021791 0.054997001 0.24357
0.022327 0.055778001 0.24405999
0.021926999 0.055604 0.24469
0.021561 0.055277001 0.24453001
0.025851 0.056276001 0.24213
0.020868 0.054802001 0.24477001
0.020846 0.054396 0.24510001
0.020617999 0.054428 0.24578001
0.029173 0.059622001 0.24291
0.020501001 0.054405 0.24681
0.030974001 0.060302999 0.24285001
0.03362 0.060876999 0.24343
0.033197001 0.060672998 0.24333
0.032761 0.061269999 0.24326999
0.033183001 0.061981 0.24338999
0.034407001 0.062463 0.24371
0.034189999 0.063013002 0.24366
0.021829 0.055355001 0.24828
0.021002 0.054696999 0.24790999
0.021196 0.054432999 0.24871001
0.022324 0.054854002 0.24905001
0.022855001 0.055560999 0.249
0.023505 0.056054998 0.24902
0.024178 0.056426 0.24936999
0.036968999 0.064413004 0.24469
0.024711 0.056547001 0.24935
0.037216999 0.064350002 0.24474999
0.02513 0.057048999 0.24924
0.037671 0.064829998 0.24499001
0.038151 0.064870998 0.24552999
0.026402 0.057606 0.24953
0.038736001 0.065367997 0.24598999
0.038929999 0.065578997 0.24593
0.038695998 0.064852998 0.24641
0.039838001 0.066125996 0.24733
0.039624002 0.065564997 0.24708
0.031486001 0.060594 0.24978
0.032533001 0.060141999 0.24947
0.039735999 0.065719999 0.24815001
0.034100998 0.062100001 0.24945
0.039985001 0.066175997 0.24798
0.036042999 0.063446999 0.24933
0.035535 0.062871002 0.24945
0.037746001 0.064680003 0.24941
0.039159998 0.065119997 0.24835999
0.038970999 0.065295003 0.24894001
0.038378999 0.065084003 0.24941
-0.014033 0.038020998 0.12656
-0.013773 0.037498999 0.12666
-0.015657 0.036008999 0.12718
-0.018240999 0.034839999 0.12835
-0.010473 0.040096 0.12606999
0.062380001 0.08427 0.10195
0.062183999 0.084886998 0.10221
0.064902999 0.086553 0.10097
0.060577001 0.083369002 0.10323
-0.0085401004 0.040754002 0.12504999
0.039703999 0.071087003 0.11009
0.039289001 0.070726998 0.11066
0.040561002 0.071092002 0.10936
0.040422998 0.071406998 0.10989
0.041335002 0.071970001 0.10975
-0.0069825002 0.042011 0.12599
0.041815002 0.072241999 0.10942
0.042644002 0.073192 0.10994
-0.022922 0.032023001 0.13132
-0.024072001 0.031349 0.13248999
0.037725002 0.069320999 0.1117
0.038019001 0.070029996 0.11166
0.043726999 0.073339999 0.10945
0.044433001 0.073835 0.10951
0.066679001 0.087531999 0.10305
0.066598997 0.087457001 0.10233
-0.048834 0.016479 0.1411
-0.003643 0.043951001 0.12548999
-0.0027367 0.043979999 0.12497
-0.049598999 0.014914 0.14177001
-0.049185999 0.015243 0.14143001
-0.047871999 0.016178999 0.14092
-0.0020192 0.044966999 0.12605
0.045722 0.074816003 0.10983
-0.045637 0.017662 0.14034
0.036742002 0.068916999 0.11335
0.066662997 0.087453 0.10369
-0.043542001 0.018831 0.1401
-0.026715999 0.029196 0.13503
-0.02585 0.030228 0.13429999
0.036123 0.067767002 0.11324
0.035813 0.068049997 0.11392
-0.051599 0.014567 0.14398
-0.041882001 0.02104 0.14009
-0.026845001 0.029802 0.13531999
0.048755001 0.076117001 0.10991
-0.027492 0.029192001 0.13608
