# .PCD v0.7 - Point Cloud Data file format
VERSION 0.7
FIELDS x y z
SIZE 4 4 4
TYPE F F F
COUNT 1 1 1
WIDTH 1520
HEIGHT 1
VIEWPOINT 0 0 0 1 0 0 0
POINTS 1520
DATA ascii
0.066924997 0.1469 -0.0031474
0.066559002 0.14737 -0.0037845001
0.066850998 0.14560001 0.0024761001
0.067185 0.14421 0.0017876
0.066761002 0.14799 -0.0035414
0.071935996 0.10557 0.11407
0.068324 0.13733 0.031780999
0.066918999 0.14898001 -0.0031461001
0.066802002 0.14951999 -0.0039201002
0.066573001 0.14973 -0.0047863
0.066684 0.15037 -0.0047610002
0.064980999 0.16418 -0.042335
0.067074999 0.14834 0.0025438999
0.067146003 0.14714 0.0019262
0.067276999 0.14855 0.0018374
0.066665001 0.15102001 -0.0052709002
0.066762 0.1514 -0.0052379998
0.066064 0.15961 -0.026271001
0.068360001 0.13939001 0.032067999
0.066665001 0.15396 -0.0062425998
0.071915999 0.11046 0.11358
0.069595002 0.13082001 0.056729998
0.067194 0.14975999 0.0021883
0.069693998 0.13028 0.056653999
0.066734999 0.15524 -0.0064205001
0.066528 0.15673999 -0.0077975001
0.066636004 0.15637 -0.0076239002
0.066910997 0.15186 0.0028025999
0.066803001 0.15245 0.0033654999
0.068328999 0.14218 0.032187
0.064836003 0.16934 -0.039923001
0.065972 0.16872001 -0.040665001
0.065897003 0.16919 -0.040052999
0.067000002 0.15419 0.0037793999
0.070403002 0.12683 0.079572
0.066924997 0.15926 -0.0073811999
0.069712996 0.13563 0.055794001
0.065908998 0.16558 -0.024653999
0.071941003 0.11429 0.11388
0.068421997 0.14493001 0.032628998
0.066399001 0.16069999 -0.0088865999
0.066967003 0.15569 0.0035194999
0.066526003 0.1605 -0.0078675002
0.068296 0.14572001 0.032740001
0.068825997 0.14582001 0.033096999
0.068077996 0.14617001 0.032520998
0.066711999 0.15683 0.0042882999
0.067116 0.1567 0.0037084999
0.068175003 0.14763001 0.033006001
0.066904001 0.15718 0.0037146001
0.066912003 0.15814 0.0041141999
0.066813998 0.15876 0.0041123
0.068223998 0.14828999 0.033291001
0.066835001 0.16327 -0.0088587999
0.066430002 0.16461 -0.0088074002
0.067851998 0.14937 0.032669999
0.065966003 0.16580001 -0.0096362997
0.066661999 0.16557001 -0.0088740997
0.066602997 0.16543999 -0.0088018999
0.069044001 0.14267001 0.054403
0.066141002 0.16655 -0.0094477003
0.066156998 0.16756999 -0.0098416004
0.066389002 0.16784 -0.0090392996
0.067368001 0.16161001 0.0043051001
0.069770001 0.14463 0.053659
0.067904003 0.15186 0.033064
0.065824002 0.17233001 -0.024408
0.070386998 0.13551 0.078781001
0.065967999 0.1749 -0.031969
0.065927997 0.17478999 -0.033004001
0.065249003 0.17603999 -0.031060999
0.066078998 0.17547999 -0.030436
0.066790998 0.16288 0.0045997002
0.065808997 0.17431 -0.024781
0.066872999 0.16367 0.0048107998
0.066077001 0.16868 -0.0095891999
0.069545999 0.14647999 0.053403001
0.065632001 0.17556 -0.026027
0.068899997 0.14899001 0.052685998
0.066058002 0.17211001 -0.0081912
0.066565 0.17177001 -0.0074455002
0.071707003 0.12886 0.10904
0.066637002 0.16694 0.0061801998
0.070194997 0.14145 0.077965997
0.070891 0.14128 0.078385003
0.070762001 0.14099 0.078461997
0.068883002 0.15008999 0.052237
0.068392999 0.15772 0.033431999
0.066010997 0.17316 -0.0079808999
0.067286998 0.16915999 0.0056488998
0.068145998 0.15900999 0.033107001
0.068622999 0.1587 0.033907
0.068735003 0.15312999 0.052338999
0.069316998 0.15223999 0.052085001
0.066160001 0.17375 -0.0073680002
0.066147998 0.17483 -0.0075833001
0.071924999 0.13277 0.10691
0.071896002 0.13219 0.10717
0.066541001 0.17431 -0.0063115
0.066045001 0.17560001 -0.0071470998
0.071950004 0.13312 0.10695
0.066938996 0.16979 0.0055277999
0.068028003 0.1619 0.033241
0.068232 0.16271 0.033518001
0.070009001 0.14691 0.077815004
0.068852 0.15572999 0.051243
0.066373996 0.17682 -0.005905
0.071344003 0.13644999 0.10429
0.067960002 0.16374999 0.032930002
0.066542998 0.17743 -0.0043285
0.066524997 0.17681 -0.0047944002
0.066005997 0.17795999 -0.0050193998
0.069123 0.15785 0.050145
0.069374003 0.14904 0.076901004
0.068129003 0.16501001 0.032623999
0.065922 0.17855 -0.0050239
0.069845997 0.14932001 0.077714004
0.066863999 0.17445 0.0091468003
0.065865003 0.17964999 -0.0044779
0.066335 0.17828999 -0.0043309
0.06594 0.17986 -0.0036497
0.066241004 0.17949 -0.0039077001
0.071167998 0.14126 0.10101
0.067763001 0.16734 0.031422999
0.066765003 0.17527001 0.0092027001
0.067890003 0.16759001 0.032058999
0.067659996 0.16777 0.031411
0.065954998 0.18025 -0.0044327001
0.068833001 0.16024999 0.050257999
0.067533001 0.16825999 0.031008
0.070463002 0.15117 0.078387
0.070044003 0.15033001 0.077936999
0.066160999 0.18049 -0.003121
0.067849003 0.1691 0.032157
0.067638002 0.16913 0.031174
0.068599999 0.16212 0.048434999
0.066794001 0.17694999 0.011518
0.066725999 0.17668 0.010862
0.066242002 0.18133 -0.0022376999
0.066372998 0.1805 -0.0024345
0.069862001 0.1524 0.077834003
0.070214003 0.15267999 0.078124002
0.066601999 0.17738 0.012126
0.070882998 0.14490999 0.098587997
0.067748003 0.17066 0.030214
0.067708999 0.17179 0.029829999
0.068439998 0.16437 0.047958001
0.066206001 0.1831 -0.0016839
0.066996999 0.17817 0.014187
0.066869996 0.17838 0.01373
0.069958001 0.15412 0.078769997
0.068401001 0.16621999 0.047347002
0.06718 0.17319 0.028777
0.067608997 0.17366999 0.029868999
0.067487001 0.17271 0.029548001
0.066850998 0.17885999 0.015361
0.066229001 0.18365 -0.00010475
0.068566002 0.16656999 0.046436001
0.067312002 0.17454 0.028049
0.066831999 0.18224999 0.00039919
0.066363998 0.18362001 0.00038084001
0.069811001 0.15557 0.079239003
0.067442998 0.17416 0.029201001
0.068333998 0.16767 0.045634001
0.067267999 0.17555 0.027634
0.066807002 0.17945001 0.017599
0.066459998 0.18402 0.0018417001
0.066861004 0.17964999 0.016392
0.068415999 0.16812 0.045263998
0.066973999 0.18003 0.015663
0.067018002 0.17846 0.021915
0.066949002 0.17888001 0.020926001
0.068120003 0.17036 0.044057999
0.067483999 0.17648999 0.027887
0.066977002 0.17829999 0.022791
0.066958003 0.17942999 0.019695001
0.066921003 0.17907 0.020136001
0.066843003 0.18021999 0.016863
0.066699997 0.18467 0.0028351001
0.066481002 0.18557 0.0027693999
0.067102998 0.17989001 0.020525999
0.067203999 0.17979001 0.021213001
0.067317002 0.17736 0.027388999
0.067312002 0.17773999 0.026667999
0.067308001 0.17814 0.025539
0.066866003 0.17866001 0.024053
0.067194998 0.17921001 0.02232
0.067171998 0.17910001 0.023092
0.068043001 0.17155001 0.044503
0.067400001 0.17919999 0.025231
0.067629002 0.17896 0.02602
0.067318 0.17967001 0.024419
0.066207998 0.18619999 0.0035600001
0.068085 0.17163999 0.043549001
0.068051003 0.17215 0.042785998
0.067695998 0.17309999 0.042638998
0.067561001 0.17319 0.042094
0.070174001 0.15883 0.081340998
0.070221998 0.15828 0.081288002
0.067483 0.17997 0.025597
0.067149997 0.17975 0.023716999
0.066644996 0.18522 0.0051096999
0.066554002 0.18543001 0.0048274002
0.066411003 0.18627 0.0048635001
0.070791997 0.15378 0.093808003
0.070579 0.1543 0.093350999
0.066228002 0.18609001 0.0053135999
0.066362001 0.18667001 0.0067258002
0.071695 0.14277001 0.12943
0.067992002 0.17332999 0.041395999
0.067902997 0.17453 0.040674999
0.067818999 0.17558999 0.038552001
0.067823999 0.17567 0.037416
0.067247003 0.17964999 0.029082
0.067349002 0.17883 0.028808
0.067376003 0.17907 0.02806
0.072719 0.13844 0.14192
0.069986999 0.1604 0.08151
0.067953996 0.17499 0.039946001
0.067919001 0.1753 0.03906
0.067420997 0.18001001 0.028245
0.066136003 0.18765999 0.007772
0.072725996 0.14224 0.13109
0.072756998 0.14601 0.12106
0.072013997 0.14565 0.12195
0.072094001 0.14629 0.1207
0.067539997 0.17715 0.036754999
0.066636004 0.18703 0.0089833001
0.066423997 0.18661 0.0076182
0.072338998 0.14045 0.13917001
0.07181 0.14227 0.13365
0.070205003 0.16074 0.082387
0.066333003 0.18821999 0.0090424996
0.073007002 0.14207 0.13494
0.071710996 0.14903 0.11579
0.070008002 0.15735 0.093272999
0.067575999 0.17731 0.035808001
0.067414999 0.18023001 0.030089
0.067259997 0.18133999 0.029727001
0.067279004 0.18057001 0.028872
0.067299001 0.18080001 0.02877
0.067667 0.17862999 0.03461
0.067617998 0.17865001 0.03396
0.067904003 0.17831001 0.033101
0.068093002 0.17839999 0.032581002
0.067675002 0.17947 0.032915998
0.067158997 0.18136001 0.024939001
0.067234002 0.18243 0.024396
0.066988997 0.18294001 0.025571
0.067259997 0.1823 0.025446
0.067229003 0.18190999 0.025872
0.069898002 0.16198 0.082098
0.067829996 0.17804 0.035185002
0.067064002 0.18257999 0.026327001
0.067290999 0.18136001 0.024483999
0.067451 0.18110999 0.030532001
0.067157 0.18232 0.027275
0.071456 0.15209 0.11218
0.070283003 0.15964 0.092197001
0.067163996 0.18171 0.030749001
0.067284003 0.18222 0.030289
0.067074999 0.18306001 0.027479
0.066997997 0.18392 0.027696
0.067083001 0.18421 0.025591999
0.067143999 0.18346 0.024243001
0.066724002 0.18886 0.012343
0.066526003 0.18861 0.011305
0.066451997 0.18881001 0.011583
0.066600002 0.1886 0.010123
0.067331001 0.18152 0.031677999
0.067515001 0.18116 0.031496
0.067285001 0.18211 0.028811
0.067215003 0.18217 0.027956
0.070248 0.15996 0.093298003
0.067327999 0.1813 0.032233998
0.067001 0.18455 0.024106
0.067013003 0.18537 0.024092
0.066579998 0.1893 0.013295
0.066698998 0.18862 0.013159
0.067033999 0.18578 0.021848001
0.066817999 0.18647 0.021159001
0.066921003 0.18833999 0.013795
0.072407 0.14268 0.14365
0.071551003 0.15584999 0.1071
0.070816003 0.15583999 0.10679
0.070519999 0.15958001 0.097140998
0.069656 0.16571 0.080723003
0.067264996 0.18348999 0.023968
0.067276999 0.18561 0.023446999
0.066777997 0.18764 0.020416999
0.066767998 0.18846001 0.018972
0.066986002 0.18747 0.018724
0.066808 0.18774 0.017729999
0.066803999 0.18788999 0.016681001
0.071230002 0.15847 0.10141
0.066825002 0.18644001 0.023831001
0.066959001 0.18768001 0.019184001
0.069755003 0.16762 0.076876
0.069724001 0.16744 0.077613004
0.072424002 0.14478 0.14341
0.072667003 0.14590999 0.1429
0.071989998 0.15056001 0.13125999
0.071985997 0.15045001 0.13219
0.072619997 0.15012001 0.13191999
0.072108999 0.15121999 0.13127001
0.071874 0.15078001 0.13218001
0.0726 0.15064999 0.13113999
0.071742997 0.15225001 0.13028
0.071920998 0.1533 0.12842
0.069363996 0.17205 0.076511003
0.071976997 0.15048 0.13688
0.072760999 0.14956 0.13766
0.069403 0.17338 0.075608999
0.069107004 0.17357001 0.075181
0.072408997 0.14911 0.14210001
0.071813002 0.15433 0.12751
0.069261998 0.17437001 0.075235002
0.071829997 0.15589 0.12538999
0.071202002 0.16139001 0.11612
0.071659997 0.16356 0.11294
0.070866004 0.16561 0.10962
0.070630997 0.16704001 0.10659
0.070548996 0.16768999 0.10575
0.069035001 0.17783 0.077421002
0.070595004 0.16791999 0.10503
0.070546001 0.16924 0.10365
0.069089003 0.17975 0.076210998
0.069201 0.18113001 0.075607002
0.070578001 0.17028999 0.10301
0.070955999 0.17016 0.10268
0.070247002 0.17211001 0.10285
0.070345998 0.17323001 0.10296
0.069237001 0.18178999 0.076917
0.069174998 0.18291999 0.078525998
0.069355004 0.18213999 0.078109004
0.071108997 0.17304 0.10561
0.070468001 0.17290001 0.10754
0.071358003 0.17144001 0.11417
0.071014002 0.17196 0.11274
0.069411002 0.18378 0.079426996
0.070906997 0.17019001 0.1218
0.069801003 0.18459 0.081963003
0.069462001 0.18494 0.081707999
0.071105003 0.17001 0.12613
0.07113 0.16999 0.12673
0.069626004 0.18543001 0.082878001
0.069493003 0.18593 0.084215999
0.071405001 0.16945 0.13128
0.071468003 0.16962001 0.13048001
0.069045998 0.18636 0.084604003
0.071263999 0.16887 0.13447
0.071920998 0.16923 0.13432001
0.071943998 0.16617 0.14255001
0.069604002 0.18707 0.085732996
0.069449998 0.18636 0.085529
0.071828 0.16794001 0.14123
0.071810998 0.16878 0.13775
0.069416001 0.18814 0.085247003
0.069467001 0.19039001 0.085869998
0.072379 0.16827001 0.14982
0.072759002 0.16893999 0.14848
0.072806999 0.16855 0.14961
0.069362 0.19220001 0.085574999
0.069329999 0.19293 0.084926002
0.069427997 0.19418 0.084320001
0.072057001 0.16903 0.15278
0.071331002 0.17869 0.12909999
0.071286 0.17878 0.12839
0.069077 0.19539 0.083875999
0.071264997 0.17986999 0.12769
0.069516003 0.19378 0.089433998
0.069348998 0.19484 0.087459996
0.069606997 0.19531 0.084927998
0.069546998 0.1945 0.091348998
0.0722 0.17473 0.14864001
0.072139002 0.17475 0.14782
0.071973003 0.17399 0.15218
0.072958998 0.17474 0.15155999
0.070776999 0.19112 0.10454
0.070307001 0.19128001 0.10563
0.069109999 0.19675 0.091392003
0.070610002 0.18838 0.1159
0.070102997 0.1912 0.10846
0.069245003 0.19741 0.091425002
0.069412 0.19702999 0.092422001
0.072214998 0.17817999 0.14484
0.069408 0.19686 0.091959
0.071593001 0.18076 0.13932
0.071409002 0.18059 0.14134
0.071921997 0.18000001 0.14406
0.071868002 0.18046001 0.14308999
0.071707003 0.18091001 0.14214
0.069422998 0.19772001 0.093703002
0.069136001 0.19831 0.092775002
0.069250003 0.19904999 0.092972003
0.069738001 0.19852 0.093897
0.069288999 0.19969 0.093330003
0.069691002 0.2007 0.093424998
0.069675997 0.20195 0.092864998
0.069519997 0.20271 0.092165001
0.067461997 0.1091 -0.034093
0.067230999 0.10899 -0.033085998
0.067135997 0.10994 -0.035852
0.072319001 0.070156001 0.074795999
0.072391003 0.069849998 0.075283997
0.070128001 0.081667997 0.042780999
0.068471998 0.098777004 -0.0049776002
0.068338998 0.099684998 -0.0077224998
0.068588004 0.099229001 -0.0038689
0.067424998 0.10883 -0.030339999
0.066537 0.11068 -0.036869999
0.070655003 0.081703 0.043758001
0.070660003 0.083253004 0.039324999
0.070626996 0.082662001 0.040231999
0.068083003 0.10331 -0.013965
0.068223998 0.10351 -0.013317
0.067565002 0.10331 -0.014003
0.067648001 0.10324 -0.013833
0.072192997 0.071626 0.073032998
0.071891002 0.072309002 0.072769001
0.070771001 0.081528999 0.045295
0.067025997 0.11296 -0.040626999
0.065999001 0.11575 -0.047221001
0.066460997 0.11621 -0.047120001
0.071088001 0.081726 0.046232
0.067947999 0.10444 -0.015726
0.066927999 0.10885 -0.027949
0.070649996 0.080994003 0.049006999
0.066949002 0.10834 -0.025734
0.072093002 0.073128 0.071213
0.073059998 0.075813003 0.065223001
0.072117999 0.076090999 0.064516
0.071314998 0.077780999 0.060444999
0.067564003 0.10636 -0.018663
0.067350999 0.10682 -0.019559
0.071690001 0.077500001 0.063496999
0.071428001 0.078391999 0.061448999
0.071238004 0.077816002 0.060991
0.069076002 0.10724 -0.019347001
0.067354001 0.10693 -0.020136001
0.066772997 0.11702 -0.047284
0.066601001 0.1178 -0.048025999
0.066563003 0.11775 -0.047738001
0.068147004 0.10369 -0.010822
0.070794001 0.080771998 0.054559998
0.071021996 0.081559002 0.05288
0.070883997 0.081058003 0.054088
0.068154998 0.10521 -0.012728
0.067943998 0.10622 -0.012855
0.068751 0.10249 0.00050338998
0.068754002 0.10098 -0.00065889
0.06893 0.10145 -0.00033215
0.067881003 0.1071 -0.012697
0.067745999 0.10813 -0.012634
0.068048999 0.10747 -0.013346
0.068038002 0.10844 -0.013151
0.066481002 0.12149 -0.048893999
0.067805998 0.10884 -0.013145
0.069923997 0.092331998 0.033273
0.067377001 0.10946 -0.013167
0.067217998 0.10975 -0.013307
0.072315 0.070069999 0.093722999
0.067939997 0.10931 -0.013516
0.070216998 0.094028004 0.032696001
0.067074001 0.11034 -0.013374
0.06758 0.11049 -0.013311
0.068710998 0.10532 0.0033191
0.069682002 0.094384998 0.032574002
0.067391999 0.11127 -0.013563
0.067711003 0.11121 -0.013543
0.067924 0.11159 -0.013987
0.072897002 0.071102999 0.096358001
0.067855 0.1126 -0.014009
0.068149999 0.10644 0.0046349
0.067768998 0.11364 -0.014325
0.067752004 0.11278 -0.014371
0.072373003 0.072150998 0.098204002
0.06859 0.1067 0.0047717998
0.067578003 0.1153 -0.015523
0.069371 0.097603999 0.031514999
0.067869 0.11479 -0.014905
0.067417003 0.11614 -0.015864
0.066353999 0.12778001 -0.047022
0.066506997 0.12724 -0.047497999
0.068572998 0.1074 0.0054898001
0.066918999 0.11628 -0.01456
0.067814 0.11633 -0.014596
0.067805 0.11568 -0.014358
0.067855999 0.11711 -0.015845999
0.067354001 0.11679 -0.016938001
0.066997997 0.11739 -0.017754
0.069932997 0.10015 0.031049
0.070005998 0.10097 0.031021999
0.068310998 0.10937 0.0069133001
0.067785002 0.11769 -0.014852
0.066412002 0.12898 -0.046078
0.069925003 0.10205 0.030731
0.067059003 0.12019 -0.018401001
0.066381 0.12996 -0.045320999
0.069252998 0.10392 0.030103
0.067243002 0.1231 -0.019487999
0.065628998 0.13151 -0.042902999
0.070572004 0.1049 0.030703001
0.070141003 0.10531 0.030327
0.066716999 0.12853999 -0.032852001
0.066520996 0.13176 -0.042463001
0.067226 0.12454 -0.020078
0.066407003 0.12853 -0.029695
0.066822998 0.12871 -0.031098001
0.066962004 0.12907 -0.033741999
0.066770002 0.12987 -0.034409001
0.067117997 0.12538999 -0.020067999
0.072940998 0.079278 0.10503
0.073087998 0.079797 0.10524
0.067570999 0.12635 -0.020397
0.067039996 0.12612 -0.020024
0.066375002 0.13234 -0.037990998
0.066702001 0.13241 -0.039184999
0.068924002 0.11401 0.011047
0.066766001 0.12567 -0.018215001
0.066712998 0.12630001 -0.01973
0.067371003 0.12384 -0.015875001
0.067743003 0.12463 -0.016117999
0.067054003 0.12661999 -0.019222001
0.067074999 0.12733001 -0.020083001
0.067208 0.12687001 -0.020538
0.067073002 0.12688001 -0.019752
0.067096002 0.12729 -0.020502999
0.066903003 0.12658 -0.018056
0.067086004 0.12951 -0.025822001
0.067213997 0.12733001 -0.018618001
0.067782998 0.12603 -0.016571
0.067506 0.12791 -0.019559
0.067410998 0.12822001 -0.020354999
0.066949002 0.12718999 -0.017671
0.072927997 0.082797997 0.10802
0.073143996 0.082121998 0.10776
0.069178 0.11087 0.029671
0.068914004 0.11758 0.012341
0.068772003 0.11669 0.012037
0.068706997 0.11834 0.012486
0.066711001 0.131 -0.022007
0.067065999 0.13191999 -0.021235
0.067133002 0.13151 -0.022017
0.067345999 0.12981001 -0.014983
0.067377001 0.13006 -0.01568
0.067305997 0.13084 -0.017738
0.066740997 0.13156 -0.019783
0.068703003 0.12023 0.012181
0.067507997 0.12964 -0.014131
0.067656003 0.12954 -0.013145
0.072209001 0.085522003 0.1092
0.067801997 0.12963 -0.012663
0.072902001 0.086595997 0.10943
0.069181003 0.11559 0.030215001
0.069660999 0.11736 0.030363999
0.069766998 0.11659 0.030572999
0.073135003 0.088316999 0.11076
0.067290001 0.13135999 -0.0084060999
0.067380004 0.13123 -0.0090988996
0.067385003 0.13169999 -0.0076571
0.067552999 0.13124999 -0.0077888998
0.068016998 0.12594999 0.0081363004
0.069238998 0.11887 0.030444
0.068363003 0.12705 0.0069749998
0.067974001 0.12706 0.0071608
0.067226 0.13231 -0.0064587998
0.067809999 0.13175 -0.0057184999
0.067573003 0.13196 -0.0063991002
0.067465998 0.12834001 0.0069173998
0.068025999 0.12744001 0.0070465002
0.068276003 0.12802 0.0063318
0.067567997 0.13244 -0.0051751998
0.067249 0.13321 -0.0048845001
0.067690998 0.13395 -0.0044731
0.067335002 0.13469 -0.0047948998
0.072791003 0.092569999 0.11202
0.067727998 0.13172001 0.0049243001
0.068148002 0.13098 0.0046720002
0.067326002 0.13285001 0.0050164
0.067597002 0.13527 -0.0027407
0.067818999 0.13411 -0.0029418
0.067581996 0.13478 -0.0037843999
0.067924999 0.13199 0.0040425998
0.067818999 0.13279 0.0039837998
0.067725003 0.13375001 0.0027323
0.067783996 0.13324 0.0032307
0.068035997 0.13339999 0.0028333999
0.067786999 0.13466001 -0.0010482999
0.067371003 0.13506 -0.0016714
0.067284003 0.13572 -0.00085151999
0.067666002 0.13319001 0.0034055
0.067125 0.13619 -0.0021037001
0.067272998 0.13578001 -0.0030131
0.067208998 0.13651 -0.0029277001
0.066905998 0.13685 -0.0038429
0.066156998 0.14924 -0.037946001
0.065701999 0.14866 -0.039712999
0.066278003 0.14849 -0.038892999
0.065668002 0.14918 -0.040164001
0.065590002 0.14936 -0.040658999
0.066159002 0.14994 -0.042440999
0.066382997 0.14834 -0.038364999
0.065589003 0.15049 -0.042567
0.067588001 0.13556001 -0.00040921001
0.067209996 0.13679001 -0.0010323999
0.067451 0.13749 -0.0041966001
0.06543 0.15142 -0.043526001
0.065747 0.15052 -0.043134999
0.073156998 0.094949998 0.11279
0.073092997 0.094380997 0.11227
0.067539997 0.13466001 0.0021003
0.067532003 0.13473 0.0022362999
0.067198001 0.13694 -0.001683
0.067025997 0.13748001 -0.0029583999
0.065637 0.14988001 -0.038899001
0.067290999 0.13542999 -0.00035818
0.068613 0.12634 0.030355001
0.069151998 0.12512 0.030743999
0.067588001 0.13556001 0.001452
0.066927001 0.13832 -0.0027576
0.067676 0.13513 0.00048141001
0.067062996 0.13766 -0.00012347
0.067322001 0.13756 -0.001173
0.066141002 0.15278 -0.044500001
0.065591998 0.15208 -0.043680001
0.073022 0.096179001 0.11313
0.067023002 0.13902 -0.0023242999
0.068742998 0.12683 0.030639
0.065471999 0.15341 -0.043855999
0.067094997 0.14014 -0.0019554
0.066094004 0.15108 -0.035185002
0.066032 0.15455 -0.044718001
0.068811998 0.12867001 0.030658999
0.065569997 0.15285 -0.033617001
0.065397002 0.15603 -0.044459
0.070733003 0.11698 0.064684004
0.066082001 0.15217 -0.033840001
0.070831999 0.11563 0.069730997
0.070514999 0.11786 0.063392997
0.070990004 0.11714 0.064218
0.068968996 0.12876999 0.030928001
0.066373996 0.1521 -0.032774001
0.071341 0.11521 0.071869001
0.066179 0.15260001 -0.031884
0.066073999 0.15319 -0.031640999
0.068774 0.13046999 0.031165
0.066058002 0.15226001 -0.029028
0.065925002 0.15259001 -0.030474
0.070799001 0.11511 0.072393999
0.071194999 0.1155 0.073147997
0.068870999 0.13163 0.031369999
0.069058001 0.13178 0.031558
0.067313999 0.14262 -0.0004588
0.066642001 0.15256999 -0.028245
0.065944001 0.15264 -0.028255999
0.066018999 0.15859 -0.044560999
0.065722004 0.15824001 -0.044532999
0.070649996 0.12013 0.061299998
0.067074001 0.14347 -0.0011626
0.073036 0.10194 0.11335
0.072779998 0.10086 0.11316
0.070439003 0.12091 0.060470998
0.067216001 0.14338 0.00053357001
0.067300998 0.1435 -0.00053051999
0.067217998 0.14539 -0.0014077
0.066996999 0.14500999 -0.0021891999
0.066848002 0.14512999 -0.0026701
0.071067996 0.11627 0.075089999
0.070547 0.12216 0.059822001
0.067244999 0.14326 0.0013515
0.067240998 0.14433999 0.00066095003
0.067239001 0.14385 0.00050954003
0.067222998 0.14407 -0.00058913999
0.065788999 0.15974 -0.044279002
0.06701 0.14587 -0.0027048001
0.065884002 0.1609 -0.044192001
0.070647001 0.11676 0.075949997
0.070605002 0.12351 0.059117001
0.067468002 0.14497 0.00048739
0.067103997 0.14545 0.001347
0.067097999 0.14676 -0.0022440001
0.067134999 0.14674 -0.0013354
0.072457001 0.10452 0.11418
0.070345998 0.12436 0.058681998
0.067202002 0.14572001 0.00085464999
0.067171998 0.14609 -0.00030556999
0.067295998 0.14679 0.0002086
0.067175999 0.14669999 -0.0006645
0.067193002 0.1473 -0.0012456001
0.067364 0.14718001 -0.0018915
0.066550002 0.15573999 -0.026604
0.073018998 0.10541 0.1138
0.067193002 0.14804 -0.0025981001
0.068986997 0.13535 0.032021999
0.067284003 0.14753 0.0011451
0.066178001 0.16416 -0.042835999
0.067400001 0.14873999 -0.0019834
0.066881999 0.15019 -0.0032222001
0.072797 0.11947 0.078305997
0.072410002 0.11849 0.077892996
0.072213002 0.12045 0.078699999
0.070285998 0.12117 0.078510001
0.070701003 0.1222 0.0788
0.069879003 0.12735 0.057535999
0.067457996 0.14961 -0.0021069001
0.067235999 0.14925 0.0019812
0.067050003 0.15007 -0.0025295001
0.067129001 0.15132 -0.0041629998
0.066505998 0.15838 -0.026494
0.067071997 0.15243 -0.0049148998
0.067051001 0.15219 -0.0049911998
0.067533001 0.15287 -0.0039287
0.072203003 0.10882 0.11365
0.071787 0.12271 0.079343997
0.067105003 0.15152 0.0016625
0.067367002 0.15023001 0.0013668
0.067102998 0.15354 -0.0051790001
0.066940002 0.15364 -0.0054921
0.067180999 0.15072 0.0023582
0.067235999 0.15208 0.0019745
0.067382999 0.15237001 0.00090705999
0.067041002 0.15492 -0.0053637
0.066738002 0.15496001 -0.0061152
0.066055998 0.16255 -0.025889
0.066598997 0.16125 -0.026326001
0.066749997 0.16225 -0.026028
0.068599999 0.13996001 0.032528002
0.067097999 0.15471999 -0.0054657999
0.065246001 0.16757999 -0.040895
0.066850998 0.15749 -0.0070822001
0.066564001 0.15741 -0.0077196001
0.071153998 0.12406 0.079411
0.071255997 0.12564 0.079691999
0.067149997 0.15287 0.0024309
0.068691 0.14205 0.032623999
0.067296997 0.15362 0.0026695
0.067114003 0.15366 0.0034310999
0.066960998 0.15599 -0.0065095001
0.0669 0.15668 -0.0067154998
0.072246999 0.11288 0.11411
0.069590002 0.13338999 0.055962
0.070032999 0.13362999 0.055668
0.069858 0.13551 0.055411
0.066780999 0.15829 -0.0072877002
0.066716 0.1585 -0.0075000999
0.067124002 0.15800001 -0.0067415
0.071011998 0.12648 0.079770997
0.066698998 0.16511001 -0.025087999
0.066552997 0.16572 -0.024889
0.068855003 0.14396 0.032717999
0.067373 0.15514 0.0029579001
0.067299001 0.15629999 0.0030065
0.069962002 0.13634001 0.055202
0.069756001 0.13743 0.055066001
0.072622001 0.11727 0.11267
0.066662997 0.15983 -0.0073075001
0.066807002 0.16075 -0.0073666
0.068535 0.14647999 0.032915998
0.066745996 0.16111 -0.0079229996
0.066684999 0.16142 -0.0082171001
0.066712998 0.16178 -0.0081647998
0.065692 0.17157 -0.038206
0.072539002 0.11767 0.11231
0.066494003 0.16269 -0.0088823996
0.066868 0.16248 -0.007886
0.067135997 0.16304 -0.0076681999
0.069773003 0.13942 0.054618001
0.071152002 0.13044 0.079673
0.071010001 0.13124 0.079559997
0.071865 0.13045 0.079983003
0.069471002 0.14079 0.054659002
0.067047998 0.1592 0.0035955
0.065681003 0.17388999 -0.035484999
0.069398001 0.14124 0.054397002
0.069825001 0.14172 0.053771
0.068374999 0.149 0.033386
0.06628 0.17030001 -0.024312001
0.071108997 0.13336 0.079535998
0.070990004 0.1345 0.079052001
0.068765 0.1495 0.033712
0.068185002 0.15020999 0.03348
0.066909 0.16438 -0.0078598997
0.065765001 0.17459001 -0.033916
0.072324999 0.12091 0.11236
0.067377001 0.16079 0.0036516001
0.066367999 0.17212 -0.024847999
0.065696999 0.17486 -0.033681002
0.072307996 0.1218 0.11186
0.069545999 0.14335001 0.054049
0.066453002 0.1662 -0.0088839997
0.067400001 0.16162001 0.0041366001
0.067134999 0.16242 0.0042007999
0.065099999 0.17545 -0.032205001
0.072387002 0.1239 0.11079
0.069208004 0.14462 0.054172002
0.066919997 0.16721 -0.0080209002
0.066650003 0.16682 -0.0088066002
0.066284001 0.17342 -0.025175
0.065948002 0.17372 -0.024944
0.065990001 0.1754 -0.031192999
0.068572 0.15295 0.033516001
0.066505998 0.16898 -0.0087959003
0.066444002 0.16865 -0.0088413004
0.069457002 0.14586 0.053890001
0.067038 0.16475999 0.0044078999
0.067097001 0.16357 0.0041646999
0.066503003 0.16817001 -0.0085341996
0.065737002 0.17474 -0.025254
0.066218004 0.17434999 -0.025761999
0.066062003 0.17557999 -0.029234
0.065970004 0.1758 -0.029779
0.065661997 0.17591 -0.029065
0.067139998 0.16608 0.0050196
0.067250997 0.16641 0.0048918002
0.067190997 0.164 0.0039987001
0.067114003 0.16436 0.0041356999
0.066261001 0.17486 -0.026554
0.065879002 0.17561001 -0.027434999
0.070380002 0.13835999 0.078258999
0.068355002 0.15501 0.033688001
0.071061 0.13860001 0.078837
0.070860997 0.13779999 0.078689002
0.069755003 0.14681999 0.05297
0.066509001 0.17025 -0.0081866002
0.066706002 0.16966 -0.0081393998
0.072039001 0.12720001 0.11016
0.06961 0.14823 0.052455001
0.069254003 0.14877 0.052271999
0.066625997 0.17083 -0.0078862002
0.069514997 0.14907999 0.051729001
0.068631001 0.15569 0.034088999
0.066969 0.17106999 -0.0063283001
0.066947997 0.17065001 -0.0067770998
0.070435002 0.14074001 0.078094997
0.068774 0.15668 0.034302
0.068847001 0.15762 0.034453001
0.068426996 0.15649 0.033744
0.066941001 0.16734999 0.0055513
0.06628 0.17259 -0.0073279999
0.066739999 0.17341 -0.0058920002
0.06707 0.1723 -0.0061300001
0.066616997 0.17279001 -0.0067465999
0.070532002 0.14224 0.077931002
0.069447003 0.15186 0.051529001
0.067042001 0.16925 0.0052446998
0.068603002 0.15801001 0.033934999
0.066763997 0.17304 -0.0063735
0.068580002 0.16009 0.033117
0.067008004 0.17026 0.0055223
0.066866003 0.17059 0.0061598001
0.066460997 0.17381001 -0.0065346002
0.067151003 0.17113 0.0055964999
0.071870998 0.13525 0.1052
0.072154 0.13502 0.10555
0.066795997 0.17474 -0.0051199002
0.066385001 0.17563 -0.0059404001
0.066495001 0.17565 -0.0058197002
0.066627003 0.1751 -0.0060906
0.069155 0.15406001 0.052147001
0.068571001 0.16174001 0.034079
0.068618 0.1605 0.033794001
0.068379 0.16089 0.033296
0.069250003 0.15401 0.051647
0.069380999 0.15524 0.051144999
0.067245997 0.17183 0.0056346999
0.067028999 0.17208999 0.0063164001
0.066574 0.17605001 -0.0054819002
0.070097998 0.14777 0.077853002
0.068939 0.1566 0.050816
0.069039002 0.15756001 0.050039001
0.069118999 0.15652999 0.050521001
0.06825 0.16305 0.033822
0.068319999 0.16497 0.033310998
0.068033002 0.16474 0.033020001
0.066832997 0.17342 0.0075539998
0.068631999 0.16364001 0.033946
0.068856001 0.15864 0.050188001
0.066992 0.17400999 0.0079338998
0.067020997 0.17738 -0.0032958
0.066667996 0.17825 -0.0031463001
0.071699001 0.13832 0.10331
0.070904002 0.14920001 0.078681998
0.070495002 0.14846 0.078496002
0.070215002 0.14958 0.078093
0.069554001 0.15828 0.049398001
0.069020003 0.15955 0.049720999
0.068224996 0.1654 0.032917999
0.066841997 0.17478 0.0081481999
0.071468003 0.14128 0.10087
0.068899997 0.15990999 0.049947999
0.066439003 0.17941999 -0.0031282001
0.066514 0.17976999 -0.0029304
0.066423997 0.17968 -0.0026569001
0.070426002 0.14988001 0.078208998
0.068103001 0.16703001 0.032104
0.068388 0.16680001 0.033240002
0.068221003 0.16586 0.032804001
0.066745996 0.17878 -0.0027307
0.068772003 0.16071001 0.049334999
0.068824999 0.16077 0.049733002
0.066947997 0.17615999 0.0095328996
0.066955 0.17560001 0.0089140004
0.066923998 0.17662001 0.0094132004
0.071809001 0.14282 0.099361002
0.071718998 0.14318 0.099370003
0.070068002 0.15132999 0.077959999
0.068712004 0.16283999 0.04806
0.068940997 0.16221 0.047929
0.068778001 0.16213 0.047626998
0.071411997 0.14377999 0.098963998
0.068199001 0.16818 0.032574002
0.067031004 0.17711 0.0099787004
0.066468 0.18114001 -0.0011612
0.071250997 0.14496 0.098343
0.070643999 0.15228 0.079037003
0.070381001 0.15346 0.078524001
0.068837002 0.1635 0.047490999
0.067138001 0.17771 0.011327
0.067061998 0.17745 0.010504
0.070771001 0.1459 0.098339997
0.067890003 0.17102 0.030882999
0.067970999 0.17172 0.031016
0.066652 0.18199 -0.00069692999
0.066799 0.18158001 -0.00077073002
0.066464998 0.18221 -0.001116
0.067100003 0.17826 0.011955
0.066926003 0.17804 0.011606
0.068934999 0.16439 0.047107998
0.068607002 0.16497999 0.047403
0.068839997 0.16542 0.046838999
0.068515003 0.16594 0.047421999
0.067782 0.17254999 0.030115001
0.070923001 0.14783999 0.096697003
0.068991996 0.16573 0.046250001
0.071318001 0.14841001 0.095582001
0.070689999 0.14873999 0.096184999
0.070225999 0.15452 0.079383999
0.066887997 0.17929 0.014601
0.067149997 0.17921001 0.013081
0.066694997 0.18298 0.0013864
0.068634003 0.16672 0.046096999
0.068876997 0.1671 0.044922002
0.068171002 0.17309 0.031355999
0.068139002 0.17237 0.03111
0.067705996 0.17342 0.031029999
0.067975 0.17407 0.031998001
0.070612997 0.1552 0.080205001
0.068643004 0.16688 0.045483001
0.067158997 0.17929 0.013991
0.067737997 0.17419 0.030890999
0.067064002 0.1803 0.01476
0.070510998 0.15606 0.080614001
0.068443 0.16835999 0.044674002
0.067652002 0.17524999 0.028532
0.066428997 0.18461999 0.0021486001
0.070817001 0.14985 0.095466003
0.068425998 0.16959 0.043793999
0.068787999 0.16866 0.043671999
0.067821003 0.17544 0.031233
0.067961 0.17591999 0.031837001
0.067873001 0.17483 0.030564001
0.066685997 0.18377 0.0023314999
0.067707002 0.17603 0.028449999
0.071083002 0.15123001 0.094745003
0.068425 0.16998 0.042973999
0.068217002 0.17083 0.043726999
0.068430997 0.17072 0.042518001
0.068048 0.1749 0.032542001
0.067484997 0.17497 0.030683
0.067817003 0.17576 0.029266
0.067037001 0.18076999 0.016074
0.066999003 0.18137001 0.016890001
0.070619002 0.15225001 0.094554998
0.071354002 0.15161 0.093941003
0.070625 0.1569 0.081100002
0.070239 0.1574 0.080720998
0.067785002 0.17523 0.032921001
0.067713998 0.17596 0.031082001
0.067707002 0.17623 0.029021
0.067492999 0.17721 0.028191
0.067869 0.17708001 0.029046999
0.066997997 0.18046001 0.018027
0.066706002 0.18466 0.0034634999
0.066628002 0.18491 0.0039184
0.068070002 0.1726 0.041747998
0.068478003 0.17101 0.041416999
0.068446003 0.17177001 0.040739998
0.068273999 0.17325 0.036791001
0.068167001 0.17369001 0.035753999
0.068155997 0.17403001 0.036564
0.067901 0.1763 0.03176
0.067272 0.18066999 0.018975001
0.067272 0.1813 0.01608
0.067015 0.18169001 0.015682001
0.068405002 0.17049 0.042029999
0.068025 0.17429 0.035758
0.067134 0.18114001 0.017627999
0.066996001 0.18117 0.015481
0.066717997 0.18525 0.0043366998
0.068295002 0.17238 0.040465001
0.067018002 0.18006 0.022515001
0.066955 0.18038 0.021686999
0.067116 0.18058001 0.020954
0.070565999 0.15383001 0.093947001
0.068006001 0.17374 0.040727999
0.068084002 0.17333999 0.040199
0.068250999 0.17296 0.039306998
0.067960002 0.17374 0.039747
0.067897998 0.17501 0.036403
0.067852996 0.17505001 0.036784999
0.068039 0.17462 0.035429001
0.067869 0.17758 0.028922999
0.067438997 0.17804 0.028345
0.067478999 0.17824 0.027416
0.067477003 0.17842001 0.026644999
0.067469999 0.18094 0.019892
0.067394003 0.18199 0.017387001
0.066720001 0.18532 0.0068247998
0.067011997 0.18494 0.0060549001
0.066509001 0.18607 0.0067312
0.066572003 0.18529999 0.0058121998
0.068097003 0.17400999 0.038699999
0.067450002 0.17957 0.027047001
0.067038 0.18076 0.024708999
0.067286998 0.18095 0.023085
0.067216001 0.18219 0.020143
0.067353003 0.18148001 0.019453
0.067360997 0.18179999 0.018034
0.066868998 0.18558 0.007243
0.066717997 0.18577 0.0072968998
0.067611001 0.1794 0.030315001
0.067930996 0.17838 0.030048
0.067859001 0.17748 0.029492
0.067504004 0.17984 0.026194001
0.066986002 0.18125001 0.022074001
0.067309 0.18188 0.021175001
0.067483 0.18175 0.019376
0.067061998 0.18257999 0.018602001
0.068172999 0.17431 0.038290001
0.068262003 0.17357001 0.037726998
0.072986998 0.14474 0.12347
0.073046997 0.14385 0.12552001
0.070468001 0.16028 0.082925998
0.070502996 0.15914001 0.083135001
0.070175 0.15955 0.081844002
0.067901999 0.17622 0.035277002
0.067975 0.17665 0.034977
0.068043999 0.17658 0.034626
0.067803003 0.17775001 0.034155998
0.067951001 0.17697001 0.034061
0.067905001 0.17712 0.033611
0.068028003 0.17754 0.032981999
0.067514002 0.18065999 0.026688
0.067239001 0.18102001 0.025831999
0.067333996 0.18206 0.023331
0.06724 0.18277 0.020756001
0.067152001 0.1855 0.0081254998
0.067050003 0.18624 0.0084285997
0.072433002 0.14497 0.12303
0.073307998 0.14585 0.12139
0.067922004 0.17659999 0.032632001
0.068066999 0.17701 0.032584999
0.067633003 0.17902 0.030823
0.067836002 0.17861 0.030455001
0.067482002 0.18055999 0.027198
0.067151003 0.18219 0.022116
0.067143999 0.18255 0.021798
0.067326002 0.18312 0.020102
0.067322999 0.18339001 0.018860999
0.073200002 0.13913999 0.14134
0.070312999 0.15692 0.093051001
0.070776999 0.15559 0.092678003
0.070101 0.16046999 0.082368001
0.067984998 0.17847 0.031890001
0.067708999 0.17873 0.031238999
0.067624003 0.17990001 0.031853002
0.067515999 0.18124001 0.027674999
0.067555003 0.1815 0.02703
0.066978 0.18316001 0.021886
0.067162 0.18357 0.020891
0.066887997 0.1865 0.0081780003
0.073232003 0.14063001 0.14025
0.072540998 0.13995001 0.1398
0.072875999 0.14224 0.13207
0.072214998 0.1471 0.11933
0.067350999 0.18283001 0.023576001
0.067272998 0.18361001 0.022950999
0.067133002 0.18432 0.019166
0.066973001 0.18549 0.013872
0.067074001 0.18539999 0.012841
0.066826001 0.18607999 0.01299
0.072531998 0.14808001 0.1179
0.072414003 0.14814 0.11725
0.073100999 0.14847 0.11699
0.067504004 0.18010999 0.031091001
0.066973999 0.18427999 0.019962
0.067075998 0.18624 0.013915
0.067460999 0.18460999 0.015564
0.067313001 0.18471 0.014802
0.066794999 0.1866 0.013043
0.066820003 0.18648 0.012085
0.066979997 0.18688001 0.012531
0.067015 0.18689001 0.011543
0.067092001 0.18649 0.011678
0.066721 0.18748 0.0098259998
0.066955 0.18701001 0.0097340001
0.066880003 0.18728 0.0094443997
0.066913001 0.18455 0.020691
0.066923 0.18527 0.019454001
0.067111999 0.18547 0.018753
0.067100003 0.1846 0.018118
0.066993997 0.18731 0.010473
0.070412003 0.15787999 0.092200004
0.070125997 0.15909 0.091693997
0.070919998 0.15805 0.091417
0.070592001 0.15875 0.091624998
0.070633002 0.16240001 0.082465
0.066610001 0.18765 0.011914
0.067204997 0.18454 0.022112001
0.066731997 0.18757001 0.012741
0.067097001 0.18630999 0.019003
0.067097001 0.18657 0.017974
0.067059003 0.18768001 0.013823
0.067045003 0.18706 0.014479
0.072780997 0.13977 0.14602
0.072725996 0.13931 0.14606
0.071818002 0.15199 0.11253
0.070008002 0.16287 0.081794001
0.070427999 0.16356 0.081095003
0.067064002 0.18526 0.021671999
0.067146003 0.18559 0.020714
0.067186996 0.18589 0.019816
0.067220002 0.18576001 0.018297
0.067180999 0.18701001 0.015618
0.067226999 0.18678001 0.015214
0.067060001 0.18758 0.015711
0.067024998 0.18786 0.014718
0.070773996 0.16004001 0.092102997
0.067025997 0.18485001 0.023489
0.066976003 0.1855 0.022156
0.067290001 0.18578 0.017795
0.067294002 0.1867 0.017271001
0.067162 0.18686999 0.016718
0.067142002 0.18686 0.015959
0.072742999 0.14088 0.14586
0.066676997 0.18712001 0.019328
0.066969 0.18713 0.020343
0.073569 0.14208999 0.14538001
0.073146001 0.14267001 0.14449
0.072423004 0.14241 0.1444
0.071506001 0.15523 0.10826
0.072471999 0.15595999 0.10701
0.071696997 0.15541001 0.10785
0.071062997 0.16045 0.094485998
0.07141 0.15689 0.10554
0.071051002 0.15779001 0.10433
0.069893003 0.16652 0.080762997
0.069757998 0.16874 0.075770997
0.070076004 0.16834 0.076040998
0.073156998 0.14337 0.14428
0.072838999 0.14364 0.14359
0.070275001 0.16768 0.080624998
0.070413999 0.16655 0.081292003
0.072644003 0.14997999 0.13311
0.071984001 0.15005 0.13282
0.069673002 0.17015 0.076352
0.070111997 0.17 0.076750003
0.069797002 0.17078 0.076825
0.072701 0.1468 0.14241
0.072732002 0.15008 0.13327999
0.072506003 0.15030999 0.13402
0.072329998 0.15098999 0.13096
0.072449997 0.15136001 0.13102999
0.073043004 0.14702 0.14311001
0.072948001 0.14719 0.14251
0.072564997 0.15136001 0.1312
0.072824001 0.14816999 0.14252
0.071842 0.15253 0.12892
0.072857 0.15061 0.13501
0.072457999 0.15053 0.13455001
0.069727004 0.1718 0.077255003
0.072973996 0.14982 0.13681
0.07265 0.15059 0.13608
0.073019996 0.14962 0.13914999
0.072350003 0.15417001 0.12862
0.072984003 0.14997 0.14064001
0.069935001 0.17264 0.077923998
0.069600999 0.17291 0.076669998
0.069734 0.17402001 0.075824
0.072956003 0.14933001 0.14229999
0.072678 0.14982 0.14146
0.072825 0.15001 0.14151999
0.072469003 0.14985 0.14151999
0.072272003 0.15615 0.12479
0.069982 0.17433999 0.076222003
0.072200999 0.15659 0.12392
0.069963001 0.17532 0.075581998
0.069652997 0.17465 0.075370997
0.071161002 0.15992001 0.11827
0.071814999 0.16049001 0.11762
0.071960002 0.16153 0.11597
0.071846001 0.16178 0.11496
0.071465001 0.16275001 0.11349
0.07181 0.16333 0.11308
0.069806002 0.17595001 0.076144002
0.071241997 0.16456001 0.11125
0.069666997 0.17704 0.076820001
0.071681999 0.16512001 0.11069
0.070864998 0.16742 0.10542
0.070974 0.16809 0.10464
0.069790997 0.17709 0.077587001
0.071533002 0.16685 0.10623
0.071148001 0.16845 0.10414
0.071180001 0.16861001 0.10362
0.069323003 0.17811 0.078169003
0.071163997 0.16940001 0.10315
0.069697998 0.17930999 0.077849001
0.069812 0.17794999 0.078547001
0.070969 0.16971 0.10314
0.069420002 0.17907 0.077780999
0.069518998 0.18004 0.076972999
0.069513001 0.18075 0.076181002
0.069760002 0.18047 0.077783003
0.069711998 0.18069001 0.076752998
0.070720002 0.17129 0.10275
0.070560001 0.17139 0.10258
0.071055003 0.17155001 0.10221
0.069573 0.18116 0.077174
0.069656998 0.18142 0.077813998
0.070625998 0.17223001 0.10236
0.070987999 0.17318 0.10282
0.069265999 0.18248001 0.078832999
0.069434002 0.18227001 0.079598002
0.069773003 0.18178999 0.079208001
0.070505999 0.17346001 0.10343
0.069389999 0.18175 0.078566
0.070882 0.17349 0.10491
0.070729002 0.17361 0.10405
0.06983 0.18312 0.080620997
0.071290001 0.17173 0.1127
0.071355999 0.17252 0.11013
0.071676001 0.17192 0.11133
0.072309002 0.17174999 0.11283
0.071533002 0.17226 0.11164
0.069934003 0.18416999 0.081074998
0.069429003 0.18431 0.080521002
0.069604002 0.18479 0.081464
0.072085001 0.17042001 0.12125
0.069692999 0.1851 0.082327999
0.070185997 0.18509001 0.083352
0.072102003 0.16462 0.1435
0.070078999 0.18529999 0.085043997
0.072492003 0.1653 0.14362
0.072191998 0.16974001 0.13037001
0.070018001 0.1859 0.085574001
0.072099 0.16598 0.14294
0.072967999 0.16993 0.13125999
0.0722 0.16953 0.13203
0.072039999 0.16968 0.13109
0.072228 0.16948 0.13503
0.071829997 0.16746999 0.14179
0.071970999 0.16895001 0.13861001
0.06961 0.18757001 0.085276
0.069592997 0.1893 0.085360996
0.072841004 0.16829 0.14256001
0.072645001 0.16782001 0.14251
0.072454996 0.16903 0.1408
0.071966998 0.16895001 0.13982999
0.069576003 0.19004001 0.085676998
0.069929004 0.19152001 0.086153999
0.072439 0.16832 0.14969
0.069793001 0.1927 0.085868001
0.069758996 0.19251999 0.085389003
0.073008999 0.16912 0.15119
0.072513998 0.16856 0.15149
0.072686002 0.16906001 0.15208
0.073086999 0.16953 0.1525
0.072058 0.17872 0.12867001
0.071854003 0.18035001 0.12725
0.069793999 0.1936 0.090152003
0.069724001 0.19382 0.090980001
0.069545999 0.19428 0.088275999
0.069991998 0.19368 0.088191003
0.070136003 0.19341999 0.089038
0.069649003 0.19468001 0.087403998
0.069619 0.19474 0.086673997
0.069435 0.19498 0.085860997
0.072043002 0.18093 0.12673
0.072788998 0.17113 0.15383001
0.072350003 0.17526001 0.14579
0.072480001 0.17549001 0.14517
0.072324 0.17511 0.1464
0.069824003 0.19497 0.092335999
0.069729999 0.1943 0.091960996
0.069877997 0.19412 0.092143998
0.069498003 0.19532999 0.091870002
0.069766 0.19505 0.093643002
0.070055 0.19429 0.093197003
0.069596998 0.19582 0.093878001
0.069847003 0.19483 0.094425999
0.072469003 0.17399999 0.15223999
0.072267003 0.17456 0.15155999
0.072921 0.17507 0.15074
0.073654003 0.17501999 0.15147001
0.072237998 0.18018 0.13644999
0.070924997 0.19103 0.10555
0.070690997 0.19153 0.10366
0.070051 0.19535001 0.094493002
0.07175 0.18051 0.13759001
0.071376003 0.18539 0.12378
0.070958003 0.18493 0.12439
0.070817001 0.18798 0.11647
0.070765004 0.18818 0.11533
0.071330003 0.1883 0.11515
0.071321003 0.18882 0.11422
0.071006 0.19121 0.1066
0.070069 0.19638 0.095307998
0.069875002 0.19541 0.094976
0.072209999 0.18043999 0.13677
0.071332 0.18606 0.12191
0.071427003 0.18613 0.12133
0.071446002 0.18700001 0.11885
0.071171999 0.18705 0.11943
0.071590997 0.1868 0.11949
0.071047999 0.19111 0.10831
0.070791997 0.19126999 0.10777
0.069730997 0.19639 0.094529003
0.069660999 0.19682001 0.094042003
0.069408 0.19705001 0.093290001
0.070866004 0.19052 0.1112
0.070545003 0.19103 0.10916
0.069812998 0.19762 0.094186999
0.072580002 0.17917 0.14498
0.072714001 0.17995 0.14465
0.072397999 0.18038 0.14402001
0.072369002 0.18119 0.14137
0.071856998 0.18083 0.14184999
0.070606001 0.19619 0.099409997
0.069813997 0.19797 0.094253004
0.072566003 0.18068001 0.14304
0.070560001 0.19744 0.098692998
0.070231996 0.19695 0.099008001
0.069798 0.19926 0.093910001
0.070524998 0.19888 0.097554997
0.070407003 0.19847 0.098058999
0.069968 0.20004 0.096550003
0.070115998 0.20095 0.095651999
0.069673002 0.20286 0.093873002
0.068689004 0.098962002 -0.0060282
0.067325003 0.10861 -0.031628001
0.067571998 0.1088 -0.032237001
0.067152999 0.10946 -0.034979999
0.068067998 0.10976 -0.036021002
0.067129999 0.11018 -0.036533002
0.070765004 0.081615999 0.042463001
0.070796996 0.081954002 0.041676998
0.070588998 0.082349002 0.040817998
0.068478003 0.098881997 -0.0043779998
0.067065999 0.11061 -0.037241001
0.072039001 0.07057 0.074061997
0.068397 0.10121 -0.0089881998
0.066812001 0.1112 -0.037563998
0.072246 0.068239003 0.081657998
0.073174 0.068008997 0.082858004
0.072424002 0.067984 0.082970999
0.068660997 0.099661 -0.0024637999
0.068494 0.099385999 -0.0032899999
0.067195997 0.10895 -0.029538
0.067466997 0.11136 -0.038291
0.066512004 0.11383 -0.043094002
0.066745996 0.1142 -0.043648999
0.066720001 0.11434 -0.044622999
0.067532003 0.11498 -0.044700999
0.066698998 0.11484 -0.045598999
0.066203997 0.11497 -0.046296999
0.072600998 0.067801997 0.084503002
0.068558998 0.10154 -0.0096070003
0.068336003 0.10215 -0.010128
0.069030002 0.1034 -0.013451
0.067481004 0.10894 -0.029045001
0.06803 0.10916 -0.030272
0.066960998 0.11336 -0.041356999
0.066945001 0.11363 -0.041933998
0.066689 0.11373 -0.042319
0.067155004 0.11414 -0.042946
0.066891 0.11535 -0.046321999
0.070317999 0.085059002 0.037138
0.067804001 0.1088 -0.028367
0.073050998 0.072476 0.071626
0.072624996 0.072058 0.072264999
0.071921997 0.072570004 0.071855001
0.068228997 0.1028 -0.010371
0.066592999 0.11638 -0.04758
0.072631001 0.073565997 0.070453003
0.071915999 0.073541 0.070249997
0.070951998 0.081037998 0.050025001
0.070289999 0.086323999 0.036320001
0.070436999 0.086026996 0.036527
0.068576001 0.10026 -0.0015721
0.068324998 0.099982001 -0.0021379001
0.068143003 0.10443 -0.013075
0.067546003 0.10849 -0.024955001
0.068248004 0.10859 -0.025730001
0.072200999 0.068221003 0.086741
0.071852997 0.076052003 0.064398997
0.071327999 0.076439999 0.063782997
0.067801997 0.10784 -0.021389
0.067663997 0.10799 -0.022024
0.067947 0.1084 -0.022219
0.067561999 0.10852 -0.022746
0.072329 0.068355002 0.087595001
0.071741998 0.076888002 0.063147999
0.07096 0.081298999 0.051640999
0.071106002 0.081818998 0.052154999
0.070390001 0.087347999 0.035576001
0.068833001 0.10077 -0.0012494
0.072860003 0.068384998 0.088022001
0.069986999 0.088174 0.035261001
0.072646998 0.068484999 0.089478001
0.072497003 0.068143003 0.088913001
0.071174003 0.080187 0.05559
0.072573997 0.068752997 0.090283997
0.071148999 0.078387998 0.063933
0.071305998 0.078443997 0.063942
0.072164997 0.078437999 0.061103001
0.072042003 0.078635998 0.062100999
0.071540996 0.078804001 0.062661998
0.070641004 0.088586003 0.035317998
0.066381998 0.11944 -0.04851
0.072921999 0.069436997 0.091705002
0.069900997 0.089065999 0.035123002
0.066767 0.11915 -0.048145998
0.070197001 0.089800999 0.034793999
0.066283002 0.11979 -0.048505001
0.066180997 0.12075 -0.049114
0.072953999 0.069812998 0.093060002
0.070188001 0.091401003 0.033782002
0.072778001 0.070348002 0.093837999
0.072824001 0.070509002 0.094291002
0.068458997 0.10369 0.0016287999
0.068382002 0.10429 0.0022754001
0.066808999 0.1225 -0.048962999
0.066265002 0.12264 -0.049134001
0.066692002 0.12292 -0.048886999
0.072970003 0.070811003 0.094506003
0.07367 0.071015999 0.095380001
0.073651001 0.07068 0.094607003
0.066573001 0.12339 -0.048780002
0.069966003 0.094448 0.032613002
0.068210997 0.11091 -0.014082
0.068475001 0.10601 0.0040173
0.067235999 0.12486 -0.048234001
0.066505 0.12433 -0.048675001
0.066179 0.12529001 -0.048404001
0.072953001 0.071969002 0.097759999
0.072729997 0.071548 0.097254001
0.070006996 0.09578 0.032504
0.072933003 0.072421998 0.098320998
0.068054996 0.11413 -0.014496
0.072802 0.072737999 0.098752998
0.069944002 0.098375998 0.031374
0.069899999 0.098840997 0.031288002
0.066532999 0.12678 -0.047456998
0.068769 0.10832 0.0057751001
0.068154998 0.11588 -0.015511
0.072768003 0.073965997 0.10002
0.068843 0.10902 0.0066319001
0.067469001 0.11764 -0.016516
0.066321999 0.12809999 -0.046618
0.068003997 0.1168 -0.014596
0.068548001 0.10946 0.0069289999
0.069654003 0.10147 0.030776
0.068901002 0.10956 0.0071661999
0.068824001 0.11037 0.0078272996
0.067332 0.11813 -0.015028
0.066674002 0.12938 -0.045584001
0.067814 0.11873 -0.015117
0.072972998 0.075530998 0.10221
0.069149002 0.11065 0.0083566001
0.069035999 0.11104 0.0086104004
0.069178998 0.11042 0.0081606004
0.067745 0.11974 -0.015134
0.069802001 0.10331 0.030499
0.067535996 0.12145 -0.018592
0.072944999 0.076274 0.10302
0.067757003 0.12085 -0.015353
0.067625999 0.12219 -0.018627999
0.066376001 0.13112999 -0.043400001
0.066362001 0.13037001 -0.044626001
0.069931999 0.1042 0.030314
0.068577997 0.11164 0.0093991002
0.069564 0.10465 0.030066
0.069023997 0.11264 0.010311
0.067883 0.12162 -0.015366
0.067791 0.12273 -0.018815
0.066747002 0.13156 -0.042916998
0.069262996 0.112 0.0097999005
0.069573998 0.11233 0.010143
0.068876997 0.11331 0.010603
0.067045003 0.12852 -0.032127
0.066845 0.12865999 -0.033457998
0.066523999 0.13199 -0.041816998
0.066664003 0.13217001 -0.041287001
0.067229003 0.12493 -0.020311
0.066786997 0.12878001 -0.029888
0.066624999 0.13248999 -0.040532999
0.066405997 0.13245 -0.040245
0.066941999 0.12897 -0.029119
0.072896004 0.080082998 0.10581
0.069394998 0.10721 0.029751999
0.069577001 0.10807 0.030029001
0.068772003 0.11481 0.011272
0.067015998 0.12932 -0.026908001
0.067042001 0.12921999 -0.027807999
0.073215999 0.080353998 0.10643
0.073146001 0.080784 0.10693
0.069605999 0.10896 0.030051
0.067401998 0.12933999 -0.026559999
0.067162998 0.12669 -0.018100001
