# .PCD v0.7 - Point Cloud Data file format
VERSION 0.7
FIELDS x y z
SIZE 4 4 4
TYPE F F F
COUNT 1 1 1
WIDTH 1528
HEIGHT 1
VIEWPOINT 0 0 0 1 0 0 0
POINTS 1528
DATA ascii
0.14868 0.094679996 0.031048
0.14813 0.095215 0.03114
0.16647001 0.062433001 -0.022739001
0.14873999 0.045256998 0.0051405998
0.14683001 0.045959 0.0051143002
0.098203003 0.067482002 0.053151
0.079039 0.073057003 0.048087999
0.16073 0.1111 0.0075297998
0.13939001 0.062469002 0.013911
0.13042 0.060961999 0.053564001
0.13992 0.10552 0.013148
0.14032 0.10662 0.013017
0.14571001 0.075755 0.031035
0.14532 0.075577997 0.032175999
0.12905 0.083191 0.0072626001
0.072562002 0.044709001 0.059287999
0.11886 0.094208002 0.023422999
0.065573998 0.080190003 0.053382002
0.056635998 0.099248998 0.033746
0.056368999 0.10054 0.03249
0.056242999 0.10013 0.033178002
0.087301001 0.088660002 0.069516003
0.16709 0.12817 0.016659001
0.12909999 0.057213999 0.028084001
0.090903997 0.092440002 0.061361
0.079393998 0.075460002 0.047557998
0.082510002 0.038412001 0.041932002
0.12209 0.091711 0.017027
0.12183 0.089621998 0.015591
0.12143 0.088753998 0.016538
0.11495 0.094458997 0.016743001
0.18313999 0.13489 0.0099333003
0.047153998 0.078606002 0.069580004
0.067611001 0.062928997 0.10889
0.14822 0.10781 0.028275
0.14922 0.10752 0.029000999
0.19023 0.14101 0.0094726998
0.19008 0.13911 0.0090070004
0.19017 0.14072999 0.0082142996
0.11871 0.080430999 0.016809
0.11786 0.080388002 0.018439
0.15907 0.11763 0.057716999
0.17617001 0.052352998 -0.02445
0.15929 0.099861003 0.033410002
0.17075001 0.098711997 0.035700001
0.17027999 0.099506997 0.036410999
0.17017999 0.099678002 0.035161
0.060773 0.080164 0.063460998
0.060787 0.079336002 0.063259996
0.080118999 0.047738001 0.059797999
0.081156 0.04879 0.059179999
0.065968998 0.048599001 0.072536997
0.066508003 0.049931999 0.074274004
0.065412 0.049128 0.073362
0.15333 0.064813003 0.0079084001
0.15369999 0.063158996 0.0076254001
0.15313999 0.063910998 0.0072019999
0.12035 0.10106 -0.011288
0.12004 0.10243 -0.011067
0.11612 0.077926002 0.029750001
0.11699 0.078459002 0.030911
0.18943 0.14054 0.028155999
0.098673001 0.090825997 0.0069613
0.080367997 0.065793999 0.052972
0.079026997 0.066973001 0.05271
0.080201 0.066642001 0.052891001
0.16032 0.12677 0.013158
0.12993 0.057881001 0.02386
0.16669001 0.10229 0.0097147003
0.16652 0.10288 0.0088523999
0.14929 0.11003 0.0348
0.090738997 0.050549999 0.032497
0.091597997 0.048622001 0.032109998
0.11629 0.058768 0.057487998
0.1382 0.10692 0.016357001
0.067895003 0.050268002 0.086193003
0.099388003 0.089047 0.069812
0.069734998 0.059029002 0.096670002
0.070179 0.059636001 0.095461003
0.05412 0.073413 0.053693999
0.11255 0.073241003 0.041551001
0.11191 0.074441001 0.042385001
0.11244 0.075196996 0.041219
0.15618999 0.057879001 -0.0031132
0.15591 0.059872001 -0.0037575001
0.13609999 0.071864001 0.054724999
0.13593 0.070943996 0.055590998
0.18336 0.14933001 0.017903
0.15543 0.073678002 0.015348
0.15566 0.072342001 0.015675001
0.14326 0.059935998 0.012016
0.14268 0.060800999 0.012484
0.14611 0.081344999 0.0027578999
0.074481003 0.059579 0.1056
0.076279998 0.044629 0.058022
0.075648002 0.043168001 0.057404999
0.18235999 0.12544 0.020207001
0.18241 0.12612 0.019246999
0.081157997 0.085588999 0.051190998
0.079945996 0.085920997 0.051155999
0.10699 0.10629 -0.0049065002
0.10761 0.10537 -0.0054223998
0.17743 0.13090999 0.017526999
0.13824999 0.098036997 0.032412998
0.074265003 0.070220001 0.078358002
0.073407002 0.070321999 0.079268999
0.072801001 0.069472998 0.079010002
0.064211003 0.079356 0.065857999
0.0638 0.079109997 0.065013997
0.15211 0.12025 0.015263
0.15152 0.1205 0.015576
0.15823001 0.10654 0.0054784999
0.1567 0.10754 0.0064292001
0.061703 0.070722997 0.071073003
0.062146999 0.072417997 0.070404999
0.1558 0.11581 0.060812
0.16317999 0.10332 0.0066244998
0.18164 0.12242 0.01853
0.18301 0.12307 0.018646
0.18211 0.12198 0.019197
0.15509 0.087724 0.032754
0.15030999 0.1092 0.028973
0.14952999 0.10941 0.029124999
0.097600996 0.089226998 0.0081345001
0.083609998 0.067613997 0.12318
0.084936999 0.06752 0.12346
0.084351003 0.067413002 0.12478
0.10355 0.095187999 0.0015642
0.099319004 0.087903 0.0088368002
0.065797001 0.066941001 0.078913003
0.18001001 0.13439 0.023770999
0.18043 0.13663 0.022755999
0.068815 0.058834001 0.098477997
0.17687 0.12504999 0.035976
0.17588 0.12551001 0.035619002
0.17456 0.096995004 0.033493999
0.17562 0.097214997 0.034584999
0.13608 0.058348 0.034412999
0.04064 0.078148998 0.066339001
0.13270999 0.080090001 0.063633002
0.12804 0.077258997 0.066073999
0.13539 0.057542 0.037211001
0.12865999 0.058967002 0.053245999
0.15782 0.088565998 0.023571
0.12954 0.094755001 0.019848
0.12925 0.094424002 0.020657999
0.098278001 0.090765998 0.0078499997
0.033647999 0.080039002 0.057225998
0.032341 0.080063999 0.058171
0.17159 0.13143 0.028372999
0.14940999 0.060644001 0.017897001
0.056559 0.086204 0.038339
0.12032 0.081574 0.033427
0.11975 0.082923003 0.032692
0.12695 0.074966997 0.0077836001
0.17172 0.10042 0.040339999
0.17174 0.099910997 0.039423
0.17208999 0.098312996 0.040284999
0.057755999 0.072360002 0.068407997
0.070500001 0.059627999 0.08529
0.070758998 0.060405001 0.087132998
0.077951998 0.066569999 0.052570999
0.17766 0.11759 0.021283001
0.17914 0.1178 0.022306001
0.11409 0.064797997 0.066776
0.062776998 0.052948002 0.099875003
0.087163001 0.085423 0.050383002
0.156 0.052728001 0.019841
0.099877998 0.077742003 0.049238
0.17168 0.13006 0.040406
0.17091 0.13015001 0.042022999
0.17084999 0.13078 0.042052999
0.075878002 0.080998003 0.071988001
0.13157 0.056862999 0.038881999
0.12544 0.092139997 0.0189
0.16038001 0.10514 0.032793999
0.16162001 0.10572 0.032986
0.16162001 0.10541 0.033344999
0.067984998 0.048992001 0.092207
0.066239998 0.048264999 0.091357999
0.063459001 0.079879999 0.055328
0.093571 0.039584 0.033073001
0.075900003 0.063823 0.1084
0.075511999 0.064686999 0.10907
0.17470001 0.14348 0.018833
0.17542 0.1435 0.019939
0.17591 0.14474 0.018975001
0.15692 0.10827 0.036306001
0.14523 0.082695998 0.047013
0.14501999 0.083788998 0.047711
0.11679 0.060174 0.039004002
0.17487 0.093021996 0.042206001
0.16761 0.059287999 -0.015197
0.11958 0.083589002 0.068420999
0.11046 0.095155999 0.0095488001
0.11166 0.093314998 0.0091084
0.11207 0.094913997 0.0083857998
0.1121 0.068926997 0.04078
0.14334001 0.046592001 0.00098469004
0.14199001 0.046331 0.00061560998
0.034577999 0.077405997 0.055565
0.033456001 0.077537 0.056248002
0.11699 0.077110998 0.032818001
0.11625 0.077973999 0.035797
0.0656 0.049116999 0.071006
0.065459996 0.04902 0.070517004
0.065837003 0.049401999 0.069284
0.13605 0.096189 0.030119
0.13530999 0.094801001 0.031093
0.13608 0.095330998 0.031484999
0.062636003 0.053645 0.10144
0.12529001 0.058952 0.056607001
0.12537999 0.058896001 0.056332
0.089222997 0.069805004 0.068993002
0.089400999 0.070028998 0.067884997
0.18635 0.13733 0.028403001
0.17799 0.093190998 0.041037999
0.070511997 0.052728999 0.12469
0.093097001 0.069480002 0.067712002
0.093075998 0.069829002 0.067234002
0.080588996 0.066159002 0.12556
0.15294001 0.063325003 0.0064586001
0.073950998 0.086631998 0.063770004
0.074314997 0.086749002 0.063671999
0.17845 0.10703 0.033821002
0.15563001 0.059609 0.0094657997
0.16099 0.053805999 -0.0072793001
0.17271 0.052592002 -0.019611999
0.15047 0.068887003 0.0062433998
0.10954 0.11159 -0.0039279
0.042803001 0.090630002 0.048595998
0.16268 0.12887999 -0.011266
0.14847 0.1069 0.030649001
0.15020999 0.081846997 0.031084999
0.15107 0.083301 0.03029
0.17008001 0.097240999 0.026689
0.053049002 0.066118002 0.065590002
0.053266998 0.067233004 0.066405997
0.080159999 0.039765999 0.042396002
0.057468999 0.051452 0.07192
0.058100998 0.050138 0.071434997
0.16892 0.11766 -0.0017685
0.16885 0.11558 -0.0015013
0.15673999 0.064921997 -0.013627
0.15882 0.087499999 0.0093654003
0.12094 0.082792997 0.033372
0.045922 0.081326 0.046806
0.044989001 0.082130998 0.045892999
0.045026999 0.082994998 0.045069002
0.11194 0.093841001 0.0086701997
0.11223 0.093489997 0.010125
0.13853 0.064754002 0.010373
0.14309999 0.073597997 0.040541001
0.13259999 0.084002003 0.0049572
0.095285997 0.040955 0.032031
0.14342999 0.099327996 0.027969001
0.1548 0.056327 0.010008
0.15372001 0.089395002 0.0038258999
0.16377001 0.12886 0.014269
0.1627 0.12826 0.014876
0.11111 0.088762999 0.014592
0.10982 0.086820997 0.014473
0.11145 0.08873 0.013401
0.17693999 0.14404 0.013986
0.077996001 0.062036999 0.11249
0.076875001 0.060387 0.11311
0.14466999 0.11325 0.014738
0.10408 0.096166 0.012412
0.10309 0.096064001 0.01113
0.13399 0.065989003 0.056295
0.13372 0.067647003 0.056134
0.081053004 0.051695 0.057951
0.15779001 0.10272 0.0049011
0.15039 0.088711999 0.0019009
0.15225001 0.11492 0.052576002
0.13472 0.10598 0.016511001
0.15288 0.044994999 0.0062221
0.15385 0.045931 0.0058706002
0.063376002 0.058634002 0.11319
0.062877998 0.059597 0.11136
0.061429001 0.058936 0.11169
0.095937997 0.085240997 0.049011
0.093866996 0.085381001 0.048041001
0.15603 0.049364999 -0.012087
0.076605 0.057702001 0.12503999
0.076976001 0.057845999 0.12673
0.16249999 0.11118 0.037278
0.16250999 0.11011 0.036267001
0.064025998 0.035539001 0.055371001
0.088958003 0.090882003 0.054451998
0.090438999 0.090604 0.052868001
0.16182999 0.09144 0.0097265001
0.15724 0.085008003 0.0060502002
0.15846001 0.084717996 0.0077332002
0.078606002 0.088693999 0.065329
0.12977 0.081568003 0.041028
0.13124 0.081958003 0.040700998
0.10048 0.090507001 0.011753
0.15293001 0.10312 0.032899
0.080568001 0.058984999 0.057300001
0.095158003 0.093157999 0.059942
0.095086999 0.093369 0.060236
0.070626996 0.051729001 0.078221001
0.070979998 0.053034 0.079470001
0.069704004 0.050972998 0.078419
0.15859 0.095076002 0.0040813
0.1583 0.094327003 0.0041919998
0.1261 0.091705002 0.014857
0.12746 0.092762999 0.013953
0.066202 0.081197999 0.057599001
0.098802 0.089984 0.053410999
0.15922999 0.12611 -0.0036899999
0.15433 0.12203 0.026361
0.053888001 0.063786998 0.071592003
0.084317997 0.082760997 0.077109002
0.10386 0.086731002 0.072857
0.10372 0.087263003 0.073362999
0.12572999 0.082130998 0.067281
0.16207001 0.063111 -0.0086409003
0.16202 0.061025999 -0.0091442
0.15351 0.088835999 0.027427001
0.1541 0.089928001 0.027817
0.16636001 0.099120997 0.028314
0.16619 0.11967 0.046135001
0.11965 0.075246997 0.016727
0.090530001 0.077450998 0.073298
0.056766 0.075438 0.055068001
0.056848999 0.10199 0.032056
0.093152002 0.066422999 0.063575
0.094875999 0.066587001 0.064452998
0.15939 0.12591 0.0020629
0.11288 0.087260999 0.049151
0.13506 0.087050997 0.031560998
0.070846997 0.048459001 0.058398001
0.076899998 0.077572003 0.074977003
0.15498 0.057000998 0.019907
0.15492 0.058152001 0.019099999
0.15423 0.057140999 0.019284001
0.062075 0.061826002 0.086323999
0.1376 0.088033997 0.031155
0.096805997 0.089152999 0.068737999
0.096598998 0.089910001 0.068910003
0.13527 0.071941003 0.056173999
0.082009003 0.048590999 0.061547998
0.15346 0.11949 0.020031
0.087931 0.072429001 0.069894001
0.14459001 0.066927999 0.033208001
0.14461 0.068094999 0.032827999
0.14499 0.077770002 0.034315001
0.17406 0.097829998 0.030151
0.17309999 0.099569999 0.031771999
0.1452 0.10252 0.036077
0.14566 0.10206 0.035386
0.14658999 0.10333 0.036150999
0.16823 0.090823002 0.018074
0.1452 0.10401 0.034963001
0.14571001 0.048735 0.0081538996
0.13461 0.093966 0.024142999
0.17828999 0.1035 0.033404
0.14905 0.10641 0.0055441
0.1391 0.10975 0.022874
0.061732002 0.054095998 0.10374
0.061962001 0.053397 0.10295
0.061785001 0.053955998 0.10498
0.13811 0.080591001 0.045272
0.13621999 0.10674 0.020881999
0.13635001 0.10809 0.020909
0.16712999 0.098560996 0.023739001
0.093034998 0.041000001 0.044541001
0.062735997 0.087627999 0.03365
0.061397001 0.088466004 0.033341002
0.18097 0.13575 0.024226001
0.073086999 0.031479999 0.052510001
0.073193997 0.032871999 0.053916
0.1142 0.062717997 0.042817999
0.075762004 0.033785999 0.048154
0.075723 0.033053 0.048105001
0.074718997 0.03393 0.048153002
0.16992 0.1071 0.012759
0.16835 0.095751002 0.023940001
0.13504 0.082796998 0.036726002
0.1592 0.12033 0.052669998
0.054728001 0.066362001 0.069236003
0.054214999 0.065640002 0.069475003
0.054028001 0.065622002 0.070046
0.12654001 0.081193 0.067443997
0.18324 0.14877 0.018645
0.15349001 0.078934997 0.0068820999
0.10748 0.11444 -0.0072769001
0.18989 0.1366 0.015631
0.14189 0.067247003 0.041219998
0.079138003 0.090626001 0.060555
0.061946999 0.049849 0.070795998
0.14568 0.10796 0.0085757999
0.14632 0.10818 0.0086319996
0.17913 0.12643 0.024388
0.17959 0.12718 0.02534
0.16494 0.053112999 -0.020138999
0.1649 0.05226 -0.018607
0.16483 0.053686999 -0.019229
0.076203004 0.066652 0.11541
0.077102996 0.067584001 0.11584
0.12477 0.084494002 0.054613002
0.12459 0.085205004 0.056077
0.085491002 0.077140003 0.074027002
0.084132999 0.076738998 0.072198004
0.15391999 0.058265001 0.0050558001
0.14782 0.044447999 0.0080978004
0.16124 0.093984999 0.0078587001
0.052625999 0.098972 0.038630001
0.052498002 0.099303 0.038632002
0.080948003 0.066418998 0.051800001
0.079549 0.065288 0.052978002
0.035383999 0.085046001 0.055652998
0.11459 0.062240001 0.037046999
0.11379 0.063216001 0.038173001
0.16313 0.13958 -0.010384
0.16993 0.11478 0.0049788998
0.1381 0.10098 0.022190001
0.13937999 0.10194 0.022728
0.13897 0.10196 0.022389
0.092336997 0.075227 0.072499
0.058993001 0.061252002 0.086208999
0.10781 0.085458003 0.013442
0.10521 0.086085998 0.014159
0.17517 0.095789999 0.046211001
0.17423999 0.096119002 0.045262001
0.048292998 0.10009 0.035549
0.047903001 0.10122 0.035507999
0.047977999 0.10297 0.034534998
0.15312 0.090131998 0.031134
0.17820001 0.15093 0.0061551002
0.03379 0.084276997 0.053539
0.15752999 0.1295 -0.00017296
0.1578 0.13034999 0.0011113
0.11129 0.10426 -0.0070516998
0.11085 0.10287 -0.0055384999
0.11101 0.10341 -0.0071207001
0.16229001 0.086916998 0.010245
0.16255 0.12797999 0.019493001
0.066618003 0.053155001 0.10325
0.17679 0.11056 0.023612
0.12981001 0.070095003 0.062544003
0.13052 0.072192997 0.062143002
0.12984 0.070968002 0.062964
0.15629999 0.11866 0.045299001
0.1573 0.11949 0.044358
0.17738999 0.12387 0.035597999
0.14669999 0.1046 0.035282999
0.14484 0.1039 0.035638001
0.10511 0.084752001 0.020087
0.16977 0.13123 0.018471999
0.15453 0.11858 0.051155999
0.10489 0.087071002 0.024829
0.1699 0.11353 0.0065410999
0.17102 0.11351 0.0072082998
0.15900999 0.12423 0.0072678002
0.16813999 0.12754001 0.015029
0.046847999 0.087370999 0.054738
0.045717001 0.087880999 0.054416001
0.077362999 0.077613004 0.047793001
0.076592997 0.078561999 0.047596999
0.076962002 0.078354999 0.047883999
0.14521 0.090905003 0.032453999
0.14489 0.088921003 0.033211999
0.12168 0.056767002 0.034828998
0.17488 0.14317 0.020112
0.1749 0.14363 0.021214999
0.17987999 0.13767 0.030986
0.11483 0.062355999 0.036887001
0.055542 0.072328001 0.055013999
0.083400004 0.045448001 0.039717998
0.057394002 0.1019 0.033135999
0.073861003 0.063582003 0.1001
0.074036002 0.064363003 0.099498004
0.087766998 0.086598001 0.076070003
0.086562 0.086015001 0.075776003
0.06797 0.063552998 0.094122
0.069659002 0.063546002 0.094008997
0.16186 0.11169 0.038791999
0.081107996 0.034637 0.052960001
0.082061999 0.036463998 0.052625
0.15030999 0.1187 0.025374999
0.17202 0.13469 0.025218001
0.14958 0.062697001 0.0049823001
0.15662999 0.063322 0.016077001
0.10071 0.087849997 0.049277
0.10108 0.086948998 0.049550001
0.13716 0.095172003 0.033369999
0.13691001 0.094774 0.032446001
0.12994 0.095586002 0.018887
0.040913999 0.087815002 0.045990001
0.080991 0.066862002 0.051649
0.081721999 0.053778 0.062960997
0.081262 0.054476999 0.063538
0.18438999 0.14095999 0.011212
0.18472999 0.14249 0.0095876995
0.1602 0.092670001 0.032545999
0.15838 0.091448002 0.033169001
0.14844 0.044649001 0.00061867997
0.1714 0.12741999 0.0036599999
0.10956 0.095817 0.010952
0.10989 0.065985002 0.047295
0.10979 0.065018997 0.046491001
0.12069 0.098759003 -0.010888
0.12101 0.099680997 -0.011498
0.13367 0.097632997 0.011507
0.14524999 0.052404001 0.0034483999
0.1451 0.051355999 0.0057176002
0.17126 0.13427 0.037842002
0.075986996 0.041106001 0.04823
0.11838 0.1015 -0.010354
0.11714 0.10233 -0.010469
0.13018 0.081896 0.040918
0.12831999 0.081855997 0.042045001
0.12506001 0.10277 -0.014197
0.12569 0.1014 -0.013607
0.11461 0.065780997 0.068253003
0.097907998 0.084256001 0.013305
0.16599 0.13078 0.019478001
0.17545 0.098415002 0.043552998
0.17606001 0.097179003 0.044682
0.15175 0.10709 0.0050956998
0.071452998 0.066422001 0.080268003
0.071673997 0.066124 0.081726
0.11803 0.057872001 0.058249
0.11292 0.089824997 0.061746001
0.15944 0.11709 0.0098518999
0.16486999 0.12657 0.033259001
0.13997 0.075438 0.0046815001
0.070735998 0.076389 0.071126997
0.070586003 0.077698 0.069917999
0.070317999 0.076856002 0.070534997
0.15448999 0.11319 0.037840001
0.11012 0.068520002 0.070987001
0.051541999 0.095165998 0.046572998
0.052026998 0.095918 0.046355002
0.051621001 0.095902003 0.046549
0.15921 0.053982001 0.018603999
0.18002 0.12447 0.024342
0.17982 0.12534 0.024498999
0.16227999 0.095082 0.02672
0.13612001 0.091118999 0.031376999
0.13536 0.091755003 0.031521998
0.12862 0.074952997 0.064465001
0.16271 0.12383 -0.010677
0.13631 0.10202 0.021002
0.084813997 0.066228002 0.055661
0.065174997 0.075681001 0.070271999
0.18814 0.14451 0.026715999
0.11092 0.089837998 0.064432003
0.11169 0.090283997 0.063987002
0.11112 0.089920998 0.063799001
0.067883 0.070381001 0.04981
0.050786 0.081036001 0.059059002
0.18521 0.14645 0.0084119001
0.1856 0.14498 0.0090517001
0.078272998 0.042296 0.072540998
0.079498 0.042505 0.073035002
0.068860002 0.054443002 0.10264
0.1796 0.10039 0.038051002
0.1804 0.10056 0.037353002
0.070331 0.036260001 0.055117
0.18536 0.13786 0.0095961001
0.11316 0.10311 -0.0078512002
0.13792001 0.091854997 0.031287
0.16593 0.13052 0.024674
0.082397997 0.063045003 0.056549001
0.081646003 0.062765002 0.057868
0.17653 0.1355 0.035434999
0.077063002 0.060699999 0.11554
0.16013999 0.085649997 0.016518001
0.11461 0.092023998 7.3162999e-05
0.15606 0.056626 -0.0025935001
0.082667999 0.046594001 0.066748001
0.098635003 0.087013997 0.050930999
0.053695999 0.065361001 0.067238003
0.054320998 0.065165997 0.067711003
0.17231999 0.10109 0.019037001
0.17252 0.10128 0.018316999
0.12306 0.066421002 0.067671999
0.17846 0.099238999 0.042070001
0.17806999 0.098370001 0.041405998
0.17952999 0.098258004 0.041990999
0.055077001 0.080403 0.059445001
0.054129001 0.080114998 0.060686
0.11948 0.097961999 -0.0047244001
0.11891 0.097658001 -0.0052315001
0.052416001 0.084395997 0.041567001
0.051463 0.085447997 0.041289002
0.052390002 0.085781001 0.041485999
0.14426 0.078884996 0.0036897
0.15727 0.05562 -0.015531
0.1495 0.11233 0.037074
0.1785 0.1103 0.031360999
0.038136002 0.07361 0.058555
0.039101999 0.074233003 0.057652999
0.12862 0.082419999 0.049017999
0.12642001 0.083230004 0.049029
0.086811997 0.068714 0.066997997
0.12295 0.085579 0.056993
0.065070003 0.052214999 0.063277997
0.14384 0.084597997 0.0021965001
0.097323 0.087610997 0.013886
0.17030001 0.10103 0.028457001
0.13984001 0.083609998 0.0021766999
0.13875 0.083591998 0.0022066
0.066575997 0.072130002 0.071764
0.081963003 0.038229998 0.042769998
0.070308998 0.054281 0.11889
0.070767999 0.054278001 0.12101
0.12764999 0.069021001 0.064533003
0.1256 0.090779997 0.014007
0.11931 0.079001002 0.072044998
0.11829 0.078636996 0.071907997
0.14551 0.10127 0.028458999
0.14599 0.10086 0.0284
0.14661001 0.10218 0.028232001
0.078524001 0.068522997 0.05091
0.15787999 0.10162 0.0036834001
0.15857001 0.10018 0.0046271998
0.085400999 0.049167 0.039882999
0.080959 0.040862001 0.055066001
0.16153 0.074571997 -0.019068999
0.16205999 0.073973998 -0.018726001
0.076867998 0.085493997 0.068728998
0.077188998 0.085101999 0.067730002
0.051899999 0.089662001 0.051158998
0.12817 0.066864997 0.012545
0.12783 0.068067998 0.012746
0.12805 0.068843998 0.011618
0.14198001 0.043926001 0.0015425
0.078714997 0.060423002 0.12357
0.138 0.061749998 0.015765
0.13723999 0.091853999 0.0051519
0.073003002 0.064558998 0.11391
0.052728001 0.096926004 0.044899002
0.10722 0.069706 0.047563002
0.10772 0.071033999 0.046455
0.17634 0.11877 0.013275
0.053957999 0.057449002 0.081317
0.054473002 0.058961 0.081703998
0.10785 0.089772001 0.0039392002
0.17041001 0.10374 0.013648
0.16983999 0.10254 0.013743
0.14635 0.11319 0.03098
0.082434997 0.041494999 0.075072996
0.16827001 0.12064 0.041561998
0.17079 0.10106 0.031585999
0.17033 0.10147 0.032049999
0.16596 0.118 -0.00019635999
0.17969 0.14634 0.010147
0.17452 0.093292996 0.045008
0.17527001 0.094784997 0.045575999
0.16542 0.11969 0.00060778001
0.16451 0.12117 0.00069806998
0.11636 0.058862001 0.047026999
0.070188001 0.062192999 0.052019998
0.069681004 0.063340999 0.053585
0.17794 0.15064999 0.009443
0.12693 0.055868 0.043728001
0.12863 0.056745 0.044472001
0.11505 0.069687001 0.069940001
0.16139001 0.10881 0.0065714
0.16256 0.10875 0.0074497
0.10982 0.1079 0.00049323001
0.1146 0.082704999 0.024366001
0.1018 0.065059997 0.060013998
0.1353 0.10687 0.018244
0.13657001 0.10754 0.019308001
0.090793997 0.070372 0.051270999
0.090281002 0.070326 0.052317999
0.14153001 0.067065001 0.043264002
0.14189 0.066942997 0.042868
0.057985999 0.064824998 0.077624999
0.058674999 0.065667003 0.078639001
0.13514 0.098436996 0.010264
0.10189 0.089677997 0.015055
0.10138 0.089091003 0.016906001
0.17512 0.13122 0.031785998
0.17936 0.11399 0.027433001
0.1793 0.11472 0.028116999
0.030303 0.079953998 0.059323002
0.1104 0.10063 0.032256
0.15325999 0.11889 0.050864
0.15442 0.11841 0.049546
0.15279999 0.11784 0.049593002
0.075236 0.088574 0.056958001
0.15188 0.079140998 0.024622001
0.15212999 0.078422002 0.022894001
0.1787 0.097905003 0.044218
0.15612 0.11217 0.049520999
0.063326001 0.080824003 0.061829999
0.16021 0.12406 -0.011131
0.15934999 0.12468 -0.011652
0.15967 0.088901997 0.021211
0.083085001 0.064850003 0.06741
0.083192997 0.064685002 0.066023998
0.080229998 0.063330002 0.055426002
0.079967998 0.061613999 0.057146002
0.12437 0.057367001 0.051353998
0.16227999 0.13054 0.018812001
0.1637 0.13064 0.019811001
0.16923 0.13172001 -0.011304
0.15658 0.082340002 0.0097145997
0.11208 0.090462998 0.0073735001
0.11141 0.089287996 0.0083699999
0.16606 0.12602 -0.011877
0.15627 0.12178 0.019394999
0.15583 0.12242 0.020609001
0.15701 0.12287 0.020197
0.12730999 0.056441002 0.029084999
0.1268 0.057119001 0.029322
0.098293997 0.047175001 0.028804
0.12456 0.087200001 0.011132
0.070747003 0.056871999 0.079418004
0.12168 0.092504002 0.018972
0.12242 0.091076002 0.017295999
0.12233 0.067025997 0.017562
0.12169 0.068306997 0.017356001
0.12174 0.067824997 0.016569
0.042950999 0.090217002 0.049532
0.066629 0.074378997 0.072002999
0.067322001 0.074988998 0.071341999
0.065729998 0.075505003 0.070060998
0.080779001 0.057950001 0.14033
0.076875001 0.063727997 0.10828
0.069113001 0.052157 0.12656
0.069250003 0.051185999 0.12718999
0.081623003 0.044062998 0.062918998
0.17372 0.13031 0.0091452003
0.040895 0.077817 0.052506
0.11011 0.084156998 0.024773
0.16616 0.12546 -0.011019
0.1655 0.12497 -0.010935
0.16477001 0.12553 -0.010602
0.12261 0.065315001 0.066294
0.1525 0.1138 0.039737999
0.15211999 0.11344 0.039246999
0.081413999 0.039483 0.06605
0.071993001 0.039781999 0.057385001
0.17152999 0.12922999 -0.012738
0.18072 0.14274 0.023615999
0.16387001 0.065738 -0.014062
0.16384 0.065058 -0.013403
0.13965 0.10043 0.024302
0.079787999 0.063663997 0.1133
0.15751 0.080821 0.016030001
0.15827 0.081343003 0.016592
0.15019 0.11401 0.039149001
0.1552 0.065629996 0.01297
0.079067998 0.064749002 0.11656
0.17189001 0.13139001 0.031239999
0.17245001 0.13056 0.031094
0.17327 0.13157 0.030309999
0.17031001 0.096657 0.030626001
0.081234999 0.058458999 0.14301001
0.081412002 0.058651 0.14301001
0.1375 0.10911 0.019784
0.13722999 0.10839 0.017958
0.13595 0.10792 0.017899999
0.073048003 0.057034001 0.11265
0.074413002 0.058387 0.11293
0.073841996 0.057139002 0.11333
0.17944001 0.14603999 0.011698
0.091031 0.065851003 0.058651999
0.092648998 0.066050999 0.059473999
0.091288 0.066274002 0.059292998
0.13197 0.081244998 0.0050297999
0.092279002 0.081891999 0.049598001
0.040277001 0.081100002 0.063289002
0.13951001 0.059546001 0.023006
0.074115999 0.081992999 0.071089
0.063602 0.030275 0.058451001
0.045910001 0.098490998 0.039769001
0.045125999 0.098702997 0.040114
0.15485001 0.12378 0.01501
0.050884999 0.080154002 0.066540003
0.049637999 0.080551997 0.066381
0.17102 0.12412 0.0067159999
0.082156003 0.046666998 0.065364003
0.063074999 0.047731001 0.084981002
0.15561999 0.075868003 0.014516
0.098511003 0.083971001 0.076981999
0.12497 0.067782 0.066046998
0.068627998 0.084911004 0.059257001
0.13356 0.10626 0.016339
0.078419998 0.035068002 0.059346002
0.078818001 0.035560001 0.060477
0.13705 0.10554 0.0155
0.13781001 0.10714 0.016838999
0.086566001 0.066457003 0.062812001
0.11492 0.11068 -0.0099226004
0.11482 0.11023 -0.0094328001
0.13590001 0.062968999 0.051162001
0.1515 0.11384 0.039545
0.046321999 0.075560004 0.074352004
0.17028999 0.11387 0.0064556999
0.18445 0.11807 0.031884
0.091849998 0.087993003 0.051486999
0.17175999 0.10686 0.035870001
0.17113 0.10797 0.035944
0.161 0.12648 -0.011404
0.16136999 0.12654001 -0.011867
0.1869 0.14654 0.021771999
0.18564001 0.14658999 0.021833001
0.057828002 0.062595002 0.082194
0.084287003 0.087690003 0.069879003
0.083281003 0.087111004 0.070249997
0.17820001 0.10102 0.034350999
0.17779 0.10046 0.034630001
0.16883001 0.13273001 0.024817999
0.13214999 0.069117002 0.060897
0.088145003 0.089803003 0.053061999
0.080743 0.082185 0.074927002
0.14902 0.083663002 0.028836999
0.17432 0.10936 0.036281999
0.17394 0.11057 0.035424002
0.16737001 0.11527 0.0020089
0.16603 0.11491 0.00069005002
0.16662 0.11541 0.0013487
0.066505 0.082695 0.057349999
0.10549 0.091150001 0.025449
0.10489 0.089378998 0.025257999
0.10551 0.090699002 0.025911
0.14282 0.079338998 0.0039094002
0.099326998 0.035999998 0.037227001
0.098612003 0.036038999 0.037036002
0.10477 0.090875 0.024808999
0.10429 0.090291001 0.023331
0.10381 0.089714997 0.024556
0.14928 0.10616 0.036582001
0.15525 0.11917 -0.0081460997
0.15643001 0.12098 -0.0074573001
0.1131 0.081793003 0.02289
0.11359 0.082547002 0.021265
0.055473 0.070747003 0.068777002
0.14562 0.072391003 0.031184001
0.15538999 0.092118002 0.0041605998
0.1874 0.11989 0.033447001
0.16197 0.11643 0.043547001
0.16232 0.11661 0.044622999
0.16226 0.11622 0.045538999
0.086691998 0.091523997 0.064177997
0.085436001 0.092106998 0.062948003
0.086061001 0.091779999 0.062503003
0.072535001 0.039810002 0.059950002
0.070894003 0.040344998 0.061344001
0.15411 0.061195999 -0.0089625996
0.053679001 0.093047999 0.045731999
0.063923001 0.082386002 0.061636999
0.16305 0.10652 0.0065752999
0.16918001 0.11807 0.039932001
0.11752 0.085307002 0.064410001
0.054407999 0.070216 0.054944001
0.12462 0.091610998 0.020668
0.16933 0.11688 0.0024422
0.13057999 0.090489 0.0088676
0.16659001 0.12773 0.011025
0.16675 0.12729999 0.011378
0.15727 0.12203 0.029239999
0.16753 0.056033999 -0.014372
0.15336999 0.11925 -0.014403
0.16532999 0.13146999 -0.01295
0.069775999 0.056412999 0.083901003
0.072015002 0.055488002 0.084567003
0.13382 0.057666 0.043008
0.15904 0.086727001 0.0093681999
0.1594 0.087926 0.0087265996
0.091109 0.069675997 0.068432003
0.16077 0.11676 0.062243
0.16135 0.1176 0.060134001
0.1617 0.11748 0.061053999
0.17223001 0.13203999 0.047919001
0.17874999 0.12304 0.014191
0.040351 0.083058998 0.058679
0.039866 0.083005004 0.057659999
0.15835001 0.12193 0.030223999
0.083818004 0.084536001 0.049222998
0.16850001 0.056665 -0.016308
0.14806999 0.045189999 0.010355
0.14835 0.047566999 0.012242
0.18073 0.14775001 0.021352001
0.083549999 0.067074001 0.12158
0.083273001 0.067892 0.12246
0.084120996 0.067272 0.12272
0.062619999 0.04885 0.072885998
0.15183 0.083250001 0.025355
0.15108 0.082492001 0.025978999
0.15847 0.092793003 0.026450999
0.074271999 0.074831001 0.047077999
0.075871997 0.075377002 0.047997002
0.10188 0.088239998 0.048450001
0.10185 0.087560996 0.049699999
0.15537 0.072255 0.01209
0.15496001 0.071713999 0.012139
0.11937 0.070355996 0.069657996
0.17839999 0.13699999 0.031635001
0.17757 0.13742 0.030902
0.18126 0.13500001 0.012375
0.058729 0.079658002 0.061427001
0.082193002 0.056542002 0.064269997
0.149 0.044636 0.0038298001
0.14923 0.045699 0.0027399
0.16843 0.12735 -0.0045229001
0.16842 0.12735 -0.0045226002
0.16836999 0.12710001 -0.0031061999
0.078973003 0.054211002 0.069692001
0.067478999 0.050044 0.13552999
0.10894 0.092359997 0.025265999
0.14499 0.068115003 0.031966999
0.13569 0.094598003 0.030637
0.16384999 0.095720999 0.029317001
0.16361 0.096023999 0.029472999
0.14042 0.060603999 0.033666998
0.17242 0.12167 0.0010469001
0.053447001 0.084179997 0.042512
0.18243 0.12639 0.02978
0.18399 0.12603 0.028654
0.11231 0.094958998 0.0081353998
0.11292 0.095965996 0.0072114998
0.11152 0.086822003 0.048670001
0.12014 0.078498997 0.016816
0.11912 0.077563003 0.017339
0.052807 0.079209 0.064829998
0.053901002 0.078956001 0.064671002
0.11025 0.088771999 0.011847
0.11439 0.11056 -0.0089822002
0.15583999 0.079112001 0.019950001
0.16693 0.12906 0.0048600002
0.16745 0.12892 0.0050476999
0.16233 0.070403002 -0.019645
0.081252001 0.079572 0.047798999
0.080521002 0.079568997 0.048533998
0.15099999 0.11507 0.038013998
0.084388003 0.044110999 0.073040999
0.11287 0.090567999 0.05765
0.069371998 0.032838002 0.053160999
0.18629999 0.14588 0.022375001
0.13647 0.089387998 0.030107999
0.090719998 0.044009998 0.043244999
0.092465997 0.043947 0.043428998
0.052622002 0.070653997 0.05553
0.051511001 0.069963001 0.055934001
0.051592 0.071796998 0.055133
0.058178999 0.049784001 0.077440999
0.058536999 0.050345 0.077234998
0.056375001 0.050802998 0.076488003
0.041554999 0.078688003 0.066060998
0.040463999 0.079290003 0.065964997
0.14445999 0.11171 0.016907001
0.11281 0.085194997 0.074762002
0.11198 0.085208997 0.074042
0.102 0.085166998 0.080025002
0.10184 0.086704001 0.08083
0.16055 0.13018 0.019935001
0.16133 0.13014001 0.021568
0.070145003 0.051316001 0.062470999
0.069582 0.050870001 0.061802
0.15267999 0.1147 0.031787999
0.099601001 0.079213001 0.048866998
0.098984003 0.077763997 0.049810998
0.14395 0.11355 0.024457
0.14406 0.11467 0.026417
0.16619 0.1285 0.026012
0.10764 0.078693002 0.045951001
0.16338 0.053886998 -0.0092388997
0.13718 0.060486 0.044059999
0.13625 0.060320999 0.044116002
0.13352001 0.063671 0.056093998
0.13369 0.064493001 0.056175999
0.13276 0.064196996 0.056384001
0.14431 0.055194002 0.015794
0.14614999 0.054432001 0.016697001
0.15648 0.12244 0.018617
0.17784999 0.097687997 0.045581002
0.11256 0.1101 -0.0074522002
0.16058999 0.049527001 -0.013441
0.15722001 0.12622 0.0098559
0.15702 0.1256 0.011887
0.15825 0.12751 0.011311
0.089184001 0.065572999 0.061039999
0.088996001 0.065288 0.059455998
0.075823002 0.033732999 0.055589002
0.13441999 0.067055002 0.011608
0.1645 0.087543003 0.016477
0.16057 0.12609001 0.023751
0.16102 0.12577 0.023455
0.16136999 0.12659 0.023387
0.19035999 0.14111 0.026621999
0.11502 0.081286997 0.045113999
0.096395001 0.038102999 0.036059
0.097997002 0.037073001 0.036986999
0.092124 0.065815002 0.055408001
0.093060002 0.065984003 0.054878999
0.084468 0.039778002 0.074823998
0.18004 0.10803 0.039083999
0.16113 0.11431 0.042137999
0.16054 0.11524 0.042723998
0.15964 0.11406 0.044597
0.073765002 0.066183999 0.073660001
0.080224998 0.059025999 0.14279
0.1595 0.092114002 0.034513
0.12093 0.077675 0.015828
0.16111 0.1156 0.048792999
0.16001999 0.11576 0.049247
0.061666001 0.053720001 0.063314997
0.077244997 0.072137997 0.074156001
0.077610999 0.072063997 0.073778003
0.16760001 0.098108999 0.013852
0.17660999 0.14543 0.018015999
0.17772 0.14692999 0.018436
0.14511999 0.082409002 0.030867999
0.1446 0.081886001 0.031628001
0.10791 0.064361997 0.05082
0.10829 0.064861 0.050221
0.10862 0.064295001 0.051022001
0.11328 0.069590002 0.071466997
0.17602 0.11126 0.037980001
0.041416001 0.072595 0.064709999
0.074662 0.059402 0.1125
0.075511999 0.079060003 0.073619999
0.12327 0.10143 -0.0087591996
0.12286 0.10174 -0.0083178002
0.13981999 0.1046 0.0096650003
0.093778998 0.091549002 0.066059999
0.069885999 0.061912 0.091663003
0.15419 0.11883 0.047304999
0.055064999 0.061466999 0.075006999
0.054793 0.061395001 0.074546002
0.061432 0.048881002 0.074423
0.15452 0.046494 0.0052975002
0.12815 0.062890999 0.061289001
0.12903 0.063196003 0.06089
0.12284 0.090173997 0.016652999
0.15846001 0.056665 -0.0041135
0.1566 0.057813 -0.0027332001
0.083364002 0.067349002 0.1266
0.082273997 0.069115996 0.12635
0.08929 0.035496 0.044783
0.15454 0.054049999 0.012582
0.11761 0.079268001 0.040576
0.11812 0.080307998 0.041131999
0.15806 0.12193 0.0087652998
0.15688001 0.12308 0.0096449004
0.17259 0.12998 0.010867
0.17227 0.12987 0.012885
0.17456 0.12937 0.011386
0.061592001 0.030773001 0.058630999
0.15091 0.044114999 0.0049013998
0.15075 0.044176001 0.006511
0.14966001 0.044358999 0.0056234002
0.17986999 0.13942 0.021694001
0.11733 0.058143999 0.049373001
0.087425999 0.090365 0.066647999
0.073996998 0.070947997 0.077031001
0.11028 0.087227002 0.013519
0.15607999 0.088855997 0.031289998
0.081886999 0.039444 0.054850999
0.050099 0.097411998 0.037384
0.049116001 0.098196 0.035664
0.17779 0.10315 0.031498998
0.095532998 0.085097998 0.011552
0.17862 0.13867 0.033433001
0.14737 0.10278 0.035826001
0.16513 0.11985 0.0085925004
0.16486999 0.12056 0.0090063
0.16381 0.12152 0.0088980002
0.063575 0.052294999 0.065222003
0.098526001 0.091211997 0.0059916
0.16486 0.1295 0.010987
0.066241004 0.048951998 0.083981998
0.068189003 0.049826 0.083407998
0.10201 0.064772002 0.056713
0.10564 0.093355 0.0010778999
0.16444001 0.054414999 -0.010357
0.079823002 0.042431999 0.073085003
0.08151 0.041152 0.073638998
0.081588998 0.041184999 0.074129999
0.16032 0.11632 0.062504001
0.16016001 0.11603 0.060807999
0.04916 0.081757002 0.062323999
0.14332999 0.095109999 0.0039774999
0.14402001 0.094315 0.0029646
0.11009 0.095547996 0.031532999
0.16847 0.092981003 0.021300999
0.1292 0.082238004 0.053318001
0.12984 0.081917003 0.054370001
0.1302 0.082261004 0.054278001
0.15837 0.13226999 -0.0021740999
0.062431 0.057769001 0.10205
0.063037999 0.058371998 0.10316
0.072720997 0.056545001 0.10863
0.099991001 0.083328001 0.048446
0.17343 0.12735 0.0060505001
0.15208 0.087857001 0.032354999
0.15144999 0.086827002 0.030751999
0.15131 0.087044001 0.031580001
0.043019999 0.076328002 0.068455003
0.14703 0.10673 0.03444
0.10304 0.086438 0.017601
0.10309 0.086933002 0.018095
0.1022 0.087390997 0.016542999
0.045060001 0.078709997 0.072889999
0.041809998 0.076619998 0.070827998
0.042580001 0.075276002 0.072792001
0.042468 0.076894 0.072674997
0.15332 0.072360002 0.020877
0.18945 0.14234 0.0071032001
0.073137999 0.036513999 0.0537
0.16393 0.11695 0.050011002
0.076986998 0.073817 0.047541998
0.15741 0.12823001 -0.0018878001
0.15713 0.12881 -0.00068628002
0.15644 0.12898 -0.0021104999
0.15152 0.092320003 0.031153999
0.15294001 0.093731999 0.029982001
0.047905002 0.070745997 0.066464998
0.15290999 0.11845 0.048879001
0.069825001 0.055057999 0.088646002
0.070417002 0.051766001 0.088698998
0.15513 0.062341999 -0.0081085004
0.087595001 0.076948002 0.047919001
0.14218 0.084292002 0.046135001
0.15525 0.1225 -0.010756
0.14662001 0.092432998 0.031856999
0.11363 0.10221 0.0042372001
0.070885003 0.060481999 0.079076
0.070504002 0.060318001 0.077330999
0.071551003 0.061197001 0.078685999
0.061553001 0.080112003 0.062549002
0.16405 0.12207 -0.00074485998
0.16373 0.12251 0.00055726001
0.13387001 0.075519003 0.060399
0.076762997 0.067930996 0.11726
0.082718 0.035250999 0.052037999
0.082410999 0.034781002 0.051128998
0.14778 0.074271001 0.028173
0.14853001 0.076233 0.027945001
0.11729 0.083660997 0.072667003
0.19129001 0.13263001 0.028535999
0.182 0.14026999 0.030067001
0.18065999 0.12616 0.020569
0.064710997 0.034758002 0.056141
0.066315003 0.035188999 0.056850001
0.056657001 0.093782 0.032981001
0.10189 0.092334002 0.060033001
0.053916998 0.094448 0.035293002
0.16293 0.093197003 0.0095565002
0.12827 0.066147 0.061909001
0.12828 0.067377001 0.062751003
0.12754001 0.066239998 0.063578002
0.12809999 0.071630001 0.010736
0.062904 0.053498998 0.10523
0.063207999 0.053151999 0.10445
0.17218 0.14038999 0.018588001
0.17251 0.14013 0.017692
0.17172 0.13942 0.017251
0.080628999 0.040945999 0.061248001
0.081648998 0.040916 0.062332999
0.081357002 0.039172001 0.062763996
0.15239 0.053117 0.017243
0.11183 0.073328003 0.043441001
0.10348 0.065784 0.057353001
0.10461 0.064107999 0.058522001
0.16176 0.066099003 -0.012343
0.068042003 0.052519001 0.11704
0.067611001 0.052235998 0.11858
0.077370003 0.034788001 0.059277002
0.077381 0.035383999 0.059413999
0.075103998 0.062971003 0.070602998
0.074141003 0.063458003 0.071098998
0.12726 0.084596001 0.0096701002
0.16152 0.12605 0.016228
0.16221 0.12769 0.015438
0.12848 0.073209003 0.0086216005
0.053337 0.065237001 0.066794001
0.15845001 0.12096 0.041531999
0.081184 0.051286999 0.069112003
0.082714997 0.050310999 0.069181003
0.15464 0.049642999 -0.011821
0.084574997 0.080256999 0.076131001
0.046581 0.095657997 0.045058001
0.095164001 0.089642003 0.070276998
0.13072 0.057859998 0.045922
0.070168003 0.061995 0.092462003
0.15548 0.083026998 0.0073472001
0.15019 0.081515998 0.0046514999
0.10796 0.080470003 0.075799003
0.10692 0.080829002 0.075974002
0.10617 0.080339998 0.075698003
0.086567 0.071718998 0.12616
0.086323 0.071310997 0.12689
0.15332 0.045356002 0.0067866002
0.048827998 0.07841 0.068223998
0.07925 0.058185 0.14391001
0.079285003 0.058017001 0.14319
0.085451998 0.034897 0.046813
0.084140003 0.034239002 0.047495998
0.092316002 0.068131998 0.067561999
0.092468999 0.066942997 0.065167002
0.096032999 0.047724999 0.029936001
0.096106999 0.049201999 0.030491
0.13706 0.074891999 0.053863
0.082144 0.051890001 0.061416
0.08185 0.052739002 0.062096
0.14687 0.105 0.03035
0.1186 0.099095002 0.0020754
0.11849 0.099765003 0.0010308
0.18358 0.14005999 0.028922999
0.10133 0.091438003 0.0054485002
0.10159 0.090439998 0.0048568002
0.10169 0.090561002 0.0045086001
0.073889002 0.057020001 0.070325002
0.073523998 0.056972001 0.071069002
0.074000999 0.055179998 0.070454001
0.17901 0.13468 0.023602
0.097043 0.038150001 0.038339
0.058033001 0.063813999 0.057631999
0.15646 0.049063001 -0.0064336001
0.15535 0.047683999 -0.0087040998
0.16151001 0.12655 0.021762
0.19083001 0.13943 0.026508
0.12735 0.083833002 0.053541001
0.12509 0.070194997 0.01275
0.12571999 0.069154002 0.013521
0.070834003 0.054198999 0.075705998
0.16336 0.098710999 0.0079242997
0.11881 0.079694003 0.038468
0.098433003 0.085483998 0.010202
0.14757 0.056267999 0.00066019001
0.14864001 0.076197997 0.0058440999
0.077281997 0.036331002 0.046015002
0.077439003 0.039301001 0.045862999
0.044780001 0.088276997 0.053835001
0.0436 0.088202 0.054485001
0.076581001 0.064862996 0.11022
0.16997001 0.13276 0.025346
0.094714999 0.085775003 0.015822999
0.12806 0.083697997 0.033544
0.17842001 0.10952 0.028662
0.16429999 0.11708 0.041427001
0.16358 0.11582 0.042539001
0.16523001 0.11781 0.045152001
0.087869003 0.075568996 0.071712002
0.087233998 0.076131999 0.072495997
0.11505 0.083709002 0.030175
0.1278 0.081359997 0.060738999
0.12973 0.081518002 0.061372001
0.17524999 0.12897 0.034961
0.17475 0.12891001 0.035355002
0.080248997 0.043403 0.050058
0.081685998 0.044546999 0.048744999
0.18255 0.14538001 0.027339
0.182 0.14432999 0.027417
0.11092 0.067915998 0.070187002
0.11166 0.067794003 0.070165001
0.16542 0.092223004 0.029496999
0.062070999 0.048664 0.093142003
0.17734 0.13222 0.02908
0.17670999 0.13186 0.029573999
0.14210001 0.045588002 -0.0011826
0.14336 0.044872001 -0.0022737
0.15988 0.094131999 0.028997
0.15614 0.1163 0.010732
0.12909 0.065135002 0.0142
0.13055 0.066616997 0.012753
0.070837997 0.055520002 0.10086
0.082937002 0.082235999 0.048491001
0.082041003 0.083251998 0.048744
0.054793 0.055844001 0.071185999
0.070775002 0.077436 0.050450001
0.066284001 0.052715 0.12533
0.14887001 0.10736 0.036490999
0.16977 0.13319001 0.00023835999
0.059305999 0.064806998 0.054458998
0.16902 0.13255 -0.011795
0.055298001 0.06357 0.075235002
0.060417999 0.061608002 0.056710001
0.060485002 0.060198002 0.057571001
0.1363 0.098500997 0.0096775005
0.17036 0.062834002 -0.024530999
0.17104 0.062043998 -0.025566
0.1195 0.062986001 0.026331
0.18249001 0.092648 0.049192
0.18237001 0.093322001 0.050065
0.055743001 0.057541002 0.086994
0.053010002 0.075305 0.055557001
0.082607001 0.040295999 0.073725998
0.078400999 0.062479999 0.10963
0.16839001 0.13068999 0.017732
0.11118 0.072302997 0.043283999
0.11057 0.071469001 0.043547001
0.16482 0.13149001 -0.0067476002
0.11487 0.10756 -0.011577
0.17056 0.12777001 -0.0073238001
0.16377001 0.13060001 -0.0038705999
0.080498002 0.036231 0.061682001
0.16083001 0.097799003 0.034279
0.054384001 0.095772997 0.041993
0.072655998 0.032074999 0.051268
0.072915003 0.033378001 0.050142001
0.18807 0.13276 0.026868001
0.072917998 0.036343001 0.056143001
0.072448999 0.035509001 0.056437999
0.11065 0.10494 0.0020695
0.11141 0.10521 0.0025245999
0.088059999 0.046633001 0.035317998
0.088463001 0.046905998 0.034961
0.1742 0.12736 0.017999999
0.17567 0.12814 0.018102
0.066887997 0.049738001 0.094171003
0.067635998 0.049988002 0.095353998
0.10844 0.095746003 0.015246
0.10969 0.095654003 0.013956
0.071511999 0.055992998 0.11458
0.1229 0.076010004 0.011617
0.17245001 0.12464 0.015213
0.17230999 0.12513 0.015146
0.11423 0.066317998 0.033369001
0.17264 0.13096 0.0091602001
0.17171 0.1311 0.0098155001
0.10699 0.087366998 0.069614001
0.13342001 0.099403001 0.016023001
0.15428001 0.079434998 0.0083526
0.1543 0.080155 0.0067778998
0.15429001 0.079911999 0.0085212002
0.11603 0.077287003 0.071676999
0.13485999 0.059664 0.021995001
0.13579001 0.059266001 0.023469999
0.13383999 0.058834001 0.022372
0.10959 0.10565 0.0021508001
0.17325 0.13117 0.032453001
0.061698999 0.075397 0.054591998
0.14219999 0.10125 0.034830999
0.084817998 0.064343996 0.064760998
0.16892999 0.12983 0.01829
0.17041001 0.12864999 0.01946
0.033989999 0.082235999 0.057753999
0.032125 0.082326002 0.057650998
0.06134 0.069881998 0.072402
0.11293 0.092706002 0.015883001
0.11386 0.091773003 0.015205
0.067698002 0.050411001 0.091294996
0.069472 0.051332999 0.092007004
0.092053004 0.054423999 0.031629
0.16734999 0.057868998 -0.014975
0.071052998 0.058667 0.092306003
0.15659 0.061708 0.014741
0.13754 0.060384002 0.017827
0.10962 0.097029999 -0.0037535999
0.1099 0.095508002 -0.0017727
0.10905 0.096772 -0.0021840001
0.11506 0.093015 0.016338
0.1148 0.093316004 0.017116001
0.14128999 0.1063 0.024436001
0.15922 0.11844 0.011525
0.15838 0.11943 0.011591
0.15237001 0.067806996 0.020519
0.057186998 0.05424 0.090774
0.067890003 0.083233997 0.064034
0.067452997 0.08179 0.064276002
0.14947 0.044966001 0.0072844001
0.056956999 0.095022999 0.032837
0.055447001 0.096087001 0.033376999
0.13382 0.065563001 0.056761
0.12095 0.096744999 -0.0089338999
0.12288 0.059523001 0.059266001
0.10234 0.084595002 0.076379001
0.075966999 0.032331001 0.051685002
0.16618 0.092413999 0.028442999
0.058175001 0.056304 0.096132003
0.058552999 0.055668 0.095475003
0.068099 0.052650001 0.10118
0.091627002 0.085515998 0.016226999
0.074081004 0.064273998 0.073169999
0.074419998 0.065108001 0.072557002
0.083801001 0.061553001 0.058952998
0.082280003 0.062298998 0.058308002
0.082294002 0.062302999 0.058758002
0.12679 0.082549997 0.046402
0.14899001 0.1116 0.029865
0.069449 0.059299 0.093808003
0.1542 0.12337 0.0050748
0.14913 0.11436 0.011984
0.14878 0.065837003 0.0073392
0.12299 0.056705002 0.043402001
0.10917 0.067115001 0.069670998
0.10824 0.068033002 0.069914997
0.057668 0.069155 0.070289999
0.069683999 0.061666999 0.12156
0.17106999 0.12899999 0.0029364
0.171 0.12816 0.0031101999
0.11014 0.087632 0.010002
0.15502 0.048172001 0.0018493
0.17411999 0.12894 0.0079209004
0.17373 0.13033 0.0083018998
0.14778 0.089507997 0.034173999
0.076481998 0.061735999 0.10744
0.077852003 0.063216999 0.10788
0.076553002 0.062641002 0.10927
0.080830999 0.037907001 0.043042
0.070486002 0.034391999 0.056394
0.071818002 0.034740001 0.055663001
0.073789001 0.066597998 0.074588999
0.066853002 0.048006002 0.081611998
0.10818 0.084445998 0.017437
0.15617 0.060258001 0.01163
0.12717 0.080123 0.0080458
0.16919 0.10282 0.011837
0.11569 0.096597999 0.0051297001
0.047219001 0.091948003 0.051660001
0.046870001 0.091007002 0.051856
0.1063 0.095504999 0.011505
0.10615 0.096079998 0.012053
0.11782 0.06752 0.024001
0.11818 0.067957997 0.023050999
0.1106 0.091179997 0.061280001
0.1567 0.061060999 -0.0063430001
0.15559 0.060587 -0.0051736999
0.14075001 0.071648002 0.0076983999
0.14071999 0.070675001 0.0075122002
0.057053 0.051414002 0.071414001
0.11388 0.11056 -0.0098102996
0.18574999 0.13213 0.018284
0.084991999 0.066579998 0.066160999
0.085982002 0.066013999 0.065241002
0.1848 0.095494002 0.052172001
0.076017 0.079299003 0.048078001
0.16379 0.064218998 -0.021004001
0.10118 0.088715002 0.014166
0.16353001 0.11106 0.0082536004
0.098732002 0.087621003 0.050237998
0.10035 0.088871002 0.049543001
0.090222001 0.088584997 0.051587
0.089409001 0.087260999 0.051015001
0.15415999 0.1205 -0.0095560998
0.17326 0.14282 0.018862
0.16637 0.056056 -0.016024999
0.12966999 0.088023998 0.031111
0.12827 0.087323003 0.031230999
0.082419001 0.058240999 0.060672
0.070091002 0.057177 0.089786001
0.070830002 0.057190999 0.088733003
0.073371999 0.068196997 0.10056
0.062015001 0.067873999 0.053263001
0.091228999 0.04744 0.041179001
0.059018001 0.097462997 0.035064999
0.13627 0.10414 0.019799
0.13553999 0.1048 0.018617
0.055686001 0.052308001 0.086274996
0.17374 0.099619001 0.030617001
0.17449 0.10058 0.030776
0.14912 0.096005 0.0030495001
0.18716 0.13682 0.020097001
0.15715 0.085447997 0.021737
0.15772 0.084563002 0.021475
0.10321 0.071805999 0.049807001
0.12605 0.082924999 0.061533999
0.12587 0.083443999 0.061039999
0.14238 0.098173 0.0058068
0.082828999 0.063736998 0.057799999
0.14187001 0.086737998 0.0019038999
0.14242999 0.084303997 0.0019458
0.14144 0.086401999 0.0012672
0.039372999 0.077573001 0.055295002
0.039209999 0.078598998 0.055659998
0.16205999 0.11529 0.040626999
0.16230001 0.11408 0.040105999
0.18377 0.1269 0.019662
0.15891001 0.055227 -0.015844001
0.082887001 0.073537 0.048448998
0.084282003 0.073576003 0.048864
0.048654001 0.088546 0.053284001
0.15545 0.054848999 0.0092409998
0.16562 0.11058 -0.0019569001
0.16706 0.11113 -0.00087106001
0.055287 0.089115001 0.046806999
0.073651999 0.063780002 0.11593
0.073633 0.064479999 0.1162
0.079213001 0.038826998 0.044087
0.073691003 0.032074001 0.052683
0.15862 0.064882003 -0.010293
0.15796 0.064053997 -0.0097890999
0.078392997 0.060943 0.055898
0.041102 0.074409999 0.065902002
0.15332 0.11623 0.011061
0.15385 0.11741 0.012997
0.079801999 0.044679001 0.045961998
0.074226998 0.066028997 0.051050998
0.072766997 0.066319004 0.051150002
0.11175 0.092637002 0.024978001
0.18923999 0.13382 0.016065
0.18926001 0.13586999 0.016268
0.18535 0.13428999 0.029847
0.18562999 0.13462999 0.028595001
0.14205 0.082465 0.038748
0.17926 0.13787 0.033045001
0.070491999 0.043706998 0.062746003
0.067930996 0.075281002 0.050740998
0.067492999 0.074336 0.049841002
0.14806999 0.083778001 0.029113
0.096261002 0.088183001 0.010264
0.14331999 0.070878997 0.040504001
0.14241999 0.070982002 0.041545998
0.14267001 0.070587002 0.041370999
0.054462999 0.066555001 0.071144
0.054170001 0.066623002 0.067645997
0.1259 0.093075998 0.025103999
0.070286997 0.051741 0.1329
0.13939001 0.092854999 0.0040480001
0.12006 0.084073 0.029624
0.060256999 0.075921997 0.067702003
0.058777999 0.076439001 0.067878
0.057514999 0.050319999 0.076614
0.057969999 0.050276 0.075956002
0.16828001 0.12932999 0.011195
0.087050997 0.064847998 0.060120001
0.087049998 0.064846002 0.061234001
0.15271001 0.078241996 0.022823
0.16587 0.11083 -0.0017107
0.13811 0.094497003 0.0063431002
0.138 0.095348999 0.0068946001
0.079608001 0.078171 0.075747997
0.079044998 0.079103999 0.075980999
0.083938003 0.087881997 0.052071001
0.083460003 0.087523997 0.052829999
0.11375 0.10303 -0.0085880999
