# .PCD v0.7 - Point Cloud Data file format
VERSION 0.7
FIELDS x y z
SIZE 4 4 4
TYPE F F F
COUNT 1 1 1
WIDTH 1638
HEIGHT 1
VIEWPOINT 0 0 0 1 0 0 0
POINTS 1638
DATA ascii
0.14797001 0.048666999 0.12578
0.14572001 0.046909999 0.12849
0.14746 0.046801999 0.12946001
0.14777 0.048673999 0.13332
0.14628001 0.046627998 0.13491
0.14778 0.047099002 0.13614
0.14786001 0.046119999 0.14791
0.14684001 0.053218 0.083201997
0.14627001 0.045666002 0.15085
0.14839 0.045345999 0.14665
0.15165 0.048319001 0.14456999
0.15309 0.054258 0.091963999
0.15787999 0.053792 0.098664001
0.15831 0.052071001 0.11641
0.15967999 0.051888 0.11739
0.16260999 0.052136999 0.11855
0.16566999 0.053684998 0.1113
0.16542999 0.053491 0.11963
0.16505 0.055211 0.11093
0.16719 0.055236001 0.11056
0.17067 0.056331001 0.10876
0.17197999 0.055374 0.1305
0.17465 0.057360999 0.10871
0.17452 0.055759002 0.1314
0.17399 0.057631001 0.10919
0.17541 0.058244001 0.10692
0.17577 0.055571001 0.12258
0.17613 0.055691998 0.12219
0.17676 0.054650001 0.1303
0.1777 0.059202 0.096504003
0.1781 0.056974001 0.10775
0.1796 0.056412 0.11923
0.17674001 0.057675999 0.12015
0.17842001 0.058669001 0.10616
0.17978001 0.057546001 0.10767
0.17957 0.055962998 0.12262
0.17985 0.057425 0.12375
0.18015 0.058476001 0.10789
0.18265 0.058378 0.10644
0.18119 0.058735002 0.10437
0.18170001 0.058812 0.1078
0.1824 0.055836 0.12066
0.18371999 0.058559 0.12089
0.18499 0.058990002 0.10479
0.18399 0.058853 0.11899
0.18446 0.058030002 0.12348
0.18466 0.060283002 0.097438999
0.18686999 0.057716001 0.12976
0.18768001 0.056855001 0.13067
0.18773 0.061246 0.1061
0.18649 0.060304001 0.10606
0.18583 0.060577001 0.098145999
0.1867 0.060311999 0.097961999
0.18724 0.058182999 0.13037001
0.18839 0.057482 0.12379
0.18855 0.0581 0.1222
0.18711001 0.058486 0.12537
0.18961 0.056384999 0.13167
0.18901999 0.061965998 0.097328
0.18810999 0.059117999 0.12622
0.19009 0.061971001 0.098424003
0.18983001 0.057889 0.13172001
0.19056 0.057248 0.13356
0.19344001 0.062289 0.10119
0.19495 0.058362 0.13609999
0.19472 0.061354998 0.1061
0.19476999 0.059282001 0.1365
0.19594 0.061103001 0.094644003
0.19532999 0.064158 0.093811996
0.19559 0.062946998 0.094550997
0.19644 0.063243002 0.096199997
0.19685 0.064444996 0.094524004
0.197 0.063423999 0.096345
0.19783001 0.062738001 0.10103
0.19841 0.059239 0.13919
0.20088001 0.064272001 0.094320998
0.1997 0.066409998 0.093705997
0.20259 0.065531999 0.092132002
0.20084 0.063124999 0.10176
0.20363 0.065214999 0.093561999
0.20242 0.064778 0.095491998
0.20214 0.064214997 0.10322
0.20362 0.064581998 0.092036001
0.20218 0.063277997 0.10294
0.20431 0.063776001 0.10182
0.20445 0.065378003 0.10309
0.2044 0.066183999 0.093764998
0.2057 0.059092 0.14619
0.20585001 0.065895997 0.094398998
0.20547999 0.065099001 0.096043997
0.20555 0.065030001 0.097083002
0.20644 0.064764999 0.1004
0.20565 0.065885998 0.10052
0.20386 0.065548003 0.096973002
0.20475 0.059898999 0.14688
0.20721 0.065724999 0.095054001
0.20661999 0.059101 0.14856
0.20795999 0.060394 0.14778
0.20633 0.066414997 0.094907999
0.20874 0.065857001 0.095902003
0.20771 0.064874999 0.097611003
0.20798001 0.059795 0.14884
0.21155 0.061852001 0.14684001
0.21138 0.066486999 0.10056
0.21100999 0.066500999 0.10175
0.21325 0.062181 0.14731
0.21574999 0.067481004 0.097732
0.21657 0.067722999 0.094456002
0.21708 0.068542004 0.095749997
0.21768001 0.062419999 0.14881
0.21953 0.069568001 0.093842
0.22144 0.063649997 0.15087999
0.2253 0.070505999 0.096437998
0.22855 0.071148999 0.10185
0.23023 0.071162 0.10395
0.23191001 0.066212997 0.14636
0.23148 0.072936997 0.10629
0.23627999 0.065493003 0.14309999
0.24138001 0.072787002 0.10777
0.24356 0.071569003 0.10743
0.24466 0.070735 0.13798
0.24395999 0.074104004 0.10854
0.24424 0.073631003 0.10901
0.24602 0.069118999 0.13591
0.24726 0.073766001 0.11225
0.24648 0.074574001 0.11719
0.24774 0.073080003 0.11851
0.24808 0.071423002 0.12634
0.24947999 0.073697001 0.13376001
0.25044 0.072229996 0.13665
0.25189 0.071277 0.13347
0.25102001 0.0744 0.12485
0.25198999 0.074239999 0.12367
0.25132 0.073301002 0.12687001
0.2525 0.072663002 0.13511001
0.25229999 0.073804997 0.12156
0.25321001 0.074134 0.12099
0.25263 0.072669998 0.12848
0.25330001 0.073398001 0.13160001
0.25413001 0.076661997 0.11854
0.25498 0.075374 0.117
0.25795999 0.076885998 0.11425
0.25878 0.073807999 0.13627
0.26142001 0.075790003 0.13643999
0.26165 0.075497001 0.11128
0.26538 0.078281999 0.11031
0.26615 0.077601001 0.11086
0.27103999 0.080372997 0.11203
0.27223 0.079800002 0.11409
0.27671999 0.080150001 0.12065
0.28022999 0.080642998 0.12009
0.28123999 0.079237998 0.14124
0.28226 0.078489996 0.13975
0.28334999 0.080588996 0.13832
0.28453001 0.080682002 0.12596001
0.28709 0.079328999 0.13576999
0.28597999 0.082544997 0.13037001
0.28692999 0.081547 0.13136999
0.28591001 0.081317 0.13335
0.28713 0.07982 0.13257
0.11926 0.041868001 0.14478999
0.12443 0.047161002 0.083094999
0.127 0.042132001 0.14174999
0.12989999 0.049088001 0.078000002
0.12735 0.046753999 0.087792002
0.12994 0.048645001 0.099743001
0.12988 0.048245002 0.1018
0.13036001 0.045166001 0.10143
0.12909 0.047550999 0.10392
0.13054 0.047892001 0.10515
0.12846 0.048539001 0.10565
0.12705 0.045666002 0.13119
0.13311 0.050546002 0.077693999
0.13237 0.052078001 0.075806998
0.14733 0.051886 0.10648
0.1487 0.045961998 0.15143999
0.15175 0.054187 0.0876
0.15044001 0.048648 0.14135
0.15091 0.048035 0.14341
0.15700001 0.053105 0.096075997
0.16147 0.052845001 0.12
0.16241001 0.052944001 0.11513
0.16298001 0.054003 0.11983
0.16778 0.055105999 0.12115
0.1692 0.054040998 0.12427
0.17286 0.055116002 0.12445
0.17398 0.054069001 0.12763
0.17577 0.055006001 0.11971
0.17535 0.056072 0.11929
0.17399999 0.056731999 0.12235
0.17451 0.054405 0.12182
0.17753001 0.057068001 0.10817
0.1807 0.057363998 0.12017
0.18313999 0.057833001 0.1072
0.18359999 0.059443001 0.10633
0.18527 0.058885001 0.11781
0.18990999 0.062047999 0.10184
0.19102 0.060031999 0.12365
0.19147 0.059663001 0.1247
0.19220001 0.058859002 0.13455001
0.19462 0.061220001 0.10681
0.19558001 0.062197 0.10723
0.19564 0.062665001 0.10525
0.19504 0.062392998 0.098815002
0.19724999 0.060694002 0.13872001
0.19899 0.059296999 0.14035
0.20224001 0.061368998 0.14399999
0.21511 0.062794998 0.14966001
0.2155 0.069280997 0.094896004
0.21796 0.068135999 0.099540003
0.22194999 0.070280001 0.098206997
0.22492 0.069462001 0.097370997
0.23100001 0.066449001 0.14725
0.23723 0.067194 0.14300001
0.23794 0.070046999 0.14274999
0.2361 0.073238999 0.1089
0.23943999 0.069183998 0.14063001
0.24582 0.074256003 0.11227
0.24473 0.070418999 0.13772
0.25421 0.073034003 0.13211
0.25314999 0.073508002 0.13468
0.25911 0.074363001 0.13604
0.26449001 0.079186998 0.11145
0.26870999 0.078406997 0.13950001
0.27258 0.075997002 0.14129999
0.27911001 0.079233997 0.13942
0.28573999 0.082630001 0.12882
0.1195 0.039055999 0.152
0.12238 0.041804999 0.14426
0.12243 0.038306002 0.15098
0.12421 0.048089001 0.085933998
0.12718 0.048211001 0.080072001
0.12694 0.048838001 0.088358
0.1239 0.041044001 0.14215
0.12826 0.050019 0.12771
0.12879001 0.049164999 0.12703
0.12769 0.050406002 0.12955
0.12987 0.042369001 0.1516
0.13598 0.049933001 0.076472998
0.13675 0.044211999 0.15259001
0.14855 0.046275001 0.13987
0.14717001 0.050393999 0.10423
0.14658999 0.049350999 0.10739
0.14698 0.049546 0.11261
0.1488 0.049656998 0.11506
0.14871 0.048122 0.12782
0.14748 0.048650999 0.13175
0.15587001 0.053277999 0.10128
0.16208 0.053844001 0.12016
0.16847999 0.056329999 0.10859
0.17226 0.057496998 0.10994
0.17411 0.054669 0.12533
0.1728 0.053865001 0.12107
0.17339 0.056058999 0.11879
0.17386 0.055323999 0.13009
0.17833 0.057154 0.11918
0.17941999 0.058758002 0.10692
0.18116 0.059760999 0.10807
0.18302 0.060288999 0.10913
0.18262 0.055883002 0.12796
0.18588001 0.059308998 0.12221
0.18982001 0.062018 0.1091
0.18742999 0.061087001 0.10779
0.19233 0.059048999 0.1332
0.19715001 0.064182997 0.099825002
0.19631 0.063308001 0.10085
0.20028 0.064859003 0.10119
0.20085999 0.060024001 0.14166
0.20206 0.059069 0.14234
0.21003 0.060625002 0.14794999
0.21629 0.067249 0.10107
0.21784 0.067849003 0.10187
0.21881001 0.063069999 0.14936
0.22077 0.069349997 0.095491
0.22171 0.069332004 0.095454998
0.2226 0.071134001 0.098371997
0.22487 0.070347004 0.098756999
0.22697 0.070652999 0.09843
0.22822 0.065769002 0.1477
0.23168001 0.068383999 0.14404
0.23390999 0.066441998 0.14351
0.24341001 0.069064997 0.14128
0.24747001 0.073172003 0.11716
0.24600001 0.072722003 0.12809999
0.27397001 0.078052998 0.1408
0.27915001 0.082289003 0.1215
0.28235 0.081946 0.12323
0.28626001 0.082241997 0.1259
0.2854 0.082939997 0.13073
0.12077 0.039629001 0.1517
0.12137 0.043653 0.14249
0.12351 0.047970001 0.085320003
0.12323 0.046967998 0.081812002
0.12904 0.047240999 0.088064998
0.12863 0.045956999 0.10939
0.12825 0.051978 0.093506999
0.12854999 0.052473001 0.091247
0.12885 0.052983001 0.094247997
0.12864999 0.049400002 0.095895
0.12994 0.048002001 0.096496001
0.13011999 0.049755 0.095914997
0.12972 0.049231 0.096675999
0.12879001 0.049086999 0.10659
0.12941 0.049529999 0.1047
0.12846 0.050712001 0.10474
0.13009 0.048999 0.10758
0.12891001 0.044526 0.13037001
0.12888999 0.046613 0.13127001
0.12943 0.045455001 0.12789001
0.12905 0.045552 0.13172001
0.13091999 0.042606998 0.15440001
0.13778999 0.053194001 0.077712998
0.14015999 0.052189998 0.080481999
0.14356001 0.054901998 0.081481002
0.14047 0.045618001 0.15001
0.14308999 0.046399001 0.14867
0.14585 0.053415999 0.080724999
0.14743 0.049428999 0.11713
0.14645 0.047720999 0.14135
0.14757 0.048695002 0.12043
0.14683001 0.049782999 0.12486
0.14575 0.048347 0.13016
0.1473 0.048459999 0.1318
0.14681 0.047293 0.15013
0.14949 0.052467 0.085698999
0.15565 0.055220999 0.097482003
0.16031 0.053319 0.11894
0.16148999 0.052995998 0.11881
0.15937001 0.052641001 0.11754
0.16333 0.054076999 0.12045
0.16558 0.056040999 0.12047
0.16655 0.054021999 0.12233
0.16452999 0.055782001 0.11115
0.16791999 0.056111 0.12036
0.16587 0.054055002 0.12057
0.16886 0.054235999 0.12339
0.1696 0.054354999 0.12315
0.17141999 0.054880999 0.12051
0.1723 0.055241998 0.11967
0.17427 0.0568 0.10866
0.1705 0.054021999 0.13062
0.17408 0.055842001 0.10716
0.17306 0.055810001 0.12154
0.17561001 0.058685999 0.10865
0.17613 0.056116 0.11798
0.17547999 0.056853998 0.12928
0.17789 0.05576 0.12953
0.17947 0.055445999 0.11754
0.18006 0.058286 0.12374
0.17839999 0.0579 0.10912
0.17919999 0.057797 0.11783
0.18167999 0.057535999 0.12356
0.18461999 0.059145 0.10704
0.18478 0.059533998 0.11946
0.18288 0.05847 0.12763
0.18539 0.059202 0.12288
0.18434 0.059587002 0.1095
0.18875 0.059273001 0.12174
0.18742999 0.059767 0.13033
0.18932 0.060426999 0.12332
0.18883 0.057583999 0.13156
0.19109 0.057737 0.13097
0.1884 0.061608002 0.10898
0.19066 0.061602 0.10806
0.19216 0.062091 0.10893
0.19055 0.059220999 0.12524
0.19137 0.059840001 0.12515999
0.19046 0.059014 0.13315
0.19221 0.059140999 0.13181999
0.19204 0.062438 0.10824
0.19351 0.062812001 0.095452003
0.19447 0.058270998 0.13479
0.19479001 0.062826 0.098615997
0.19496 0.059530001 0.13697
0.19428 0.062853999 0.099468999
0.20106 0.066269003 0.10403
0.20100001 0.065885 0.10247
0.20026 0.064737998 0.10382
0.20433 0.061473001 0.14339
0.20787001 0.065833002 0.098601997
0.20902 0.068223 0.10146
0.20976 0.067852996 0.10275
0.21377 0.062221002 0.14895
0.21811 0.068873003 0.095311001
0.22035 0.063568003 0.1506
0.22491001 0.070358999 0.10111
0.22424001 0.065452002 0.14774001
0.22845 0.067325003 0.14757
0.23495001 0.071677998 0.1069
0.23526999 0.071539 0.10822
0.23415001 0.069252998 0.14242999
0.23548 0.069834001 0.14268
0.24402 0.071552999 0.13981
0.24745999 0.073833004 0.11574
0.24616 0.073496997 0.11637
0.24710999 0.071795002 0.12376
0.24581 0.073043004 0.12141
0.24713001 0.073039003 0.12526999
0.24705 0.073183998 0.12640999
0.24619 0.072122999 0.12997
0.24822 0.071342997 0.13383
0.25066 0.072177 0.13503
0.25391999 0.074341998 0.13194001
0.25593999 0.072774999 0.13246
0.25920999 0.079745002 0.11362
0.26075 0.075952999 0.13446
0.26881999 0.076214001 0.13909
0.27373001 0.077211998 0.14105999
0.27866 0.080294997 0.14015999
0.28332999 0.081361003 0.13817
0.28466001 0.081138998 0.13635001
0.28637001 0.081857003 0.13241
0.28698999 0.082117997 0.13240001
0.12262 0.041753002 0.15083
0.12332 0.049107 0.081436001
0.12522 0.049733002 0.079402998
0.12839 0.051628001 0.078299999
0.12623 0.045021001 0.14054
0.13113999 0.050131001 0.078697003
0.12863 0.049922001 0.10805
0.12908 0.048498001 0.10754
0.12833001 0.048661001 0.10956
0.12971 0.042711999 0.15324999
0.13391 0.050078999 0.075612001
0.134 0.042821001 0.15424
0.13716 0.043655999 0.15383001
0.13953 0.044863001 0.14934
0.13981999 0.044581 0.15015
0.14480001 0.045189999 0.15152
0.14287999 0.046558999 0.14906999
0.14652 0.049005002 0.13741
0.14713 0.049196001 0.13557
0.14862999 0.052746002 0.10272
0.14837 0.052053999 0.10104
0.14974 0.046309002 0.14437
0.14862999 0.048041001 0.14545
0.15095 0.048404999 0.1436
0.14951999 0.048806999 0.14185999
0.15133999 0.055712 0.086897999
0.15154999 0.053027 0.10234
0.15079001 0.05102 0.10177
0.15549999 0.053911 0.094802998
0.15424 0.056039002 0.093263999
0.15526 0.05491 0.094897002
0.15648 0.055259999 0.099523999
0.15553001 0.055594001 0.097617999
0.15617999 0.056223001 0.098853998
0.15982001 0.053962 0.11537
0.15913001 0.053296998 0.11397
0.16347 0.053537998 0.11968
0.16337 0.053456999 0.11845
0.16534001 0.055374 0.11984
0.16334 0.055110998 0.1101
0.1664 0.054953001 0.11191
0.16956 0.055468999 0.12156
0.1714 0.055233002 0.12908
0.17095999 0.054692999 0.11828
0.17054 0.054556999 0.11827
0.16957 0.055300001 0.11845
0.17303 0.05565 0.13245
0.17177001 0.055137001 0.11848
0.17371 0.056623001 0.11874
0.17494 0.056869999 0.11809
0.17343999 0.054977 0.12826
0.17557999 0.056294002 0.13073
0.17257001 0.056667 0.11665
0.17665 0.058033001 0.11689
0.17671999 0.056116 0.1177
0.17529 0.058187 0.10906
0.17904 0.059502002 0.10924
0.17851999 0.056713 0.12804
0.18024001 0.059193 0.10738
0.18179999 0.058159001 0.12754001
0.18548 0.057624001 0.12854999
0.18629 0.058843002 0.12545
0.18774 0.062769003 0.099252999
0.18635 0.062541999 0.10818
0.18754999 0.058518 0.12838
0.19073001 0.061760999 0.10877
0.1936 0.059259001 0.12632
0.1926 0.062192 0.10614
0.19325 0.064801998 0.098986
0.19379 0.062678002 0.098537996
0.1946 0.063391 0.10109
0.19585 0.065282002 0.095797002
0.19599999 0.059895001 0.13546
0.1969 0.060472999 0.1367
0.19778 0.061257999 0.13685
0.19901 0.065934002 0.097236998
0.19994999 0.061195001 0.14131001
0.2018 0.064914003 0.10355
0.20147 0.066717997 0.093301997
0.20264 0.060559001 0.14296
0.20675001 0.061184 0.14850999
0.20985 0.061599001 0.14678
0.21528 0.068406001 0.10321
0.21597999 0.067899004 0.10344
0.21593 0.068081997 0.097009003
0.21653999 0.063409001 0.14811
0.21816 0.069681004 0.099664003
0.2191 0.070220999 0.10045
0.21754999 0.064631 0.14929999
0.21907 0.069663003 0.095216997
0.21987 0.068833999 0.10153
0.22025999 0.069840997 0.10001
0.22086 0.071075998 0.097305998
0.22176 0.070390999 0.10037
0.22579999 0.069444999 0.099827997
0.2229 0.071036004 0.10038
0.22446001 0.071333997 0.10213
0.23063999 0.067872003 0.14523
0.23077001 0.067991003 0.14668
0.23280001 0.071065001 0.10391
0.24345 0.074947998 0.10871
0.24226999 0.070607997 0.14054
0.24586999 0.072875001 0.13597
0.24445 0.075594999 0.10917
0.24631999 0.072838001 0.11468
0.24399 0.073123001 0.13695
0.24668001 0.075211003 0.11508
0.24429999 0.071613997 0.13514
0.24755 0.073423997 0.13176
0.24676 0.074364997 0.11443
0.25229001 0.075079001 0.12816
0.25613999 0.074647002 0.13208
0.25777999 0.075190999 0.1332
0.25924999 0.077125996 0.11269
0.26271001 0.075871997 0.13477001
0.26153001 0.07942 0.1116
0.26301 0.0792 0.11247
0.26741001 0.075379997 0.13659
0.26846999 0.077418998 0.13722999
0.27982 0.083145998 0.12205
0.28279001 0.081168003 0.14066
0.11865 0.041051 0.14785001
0.11933 0.039078001 0.14436001
0.1212 0.040196002 0.15189999
0.12171 0.049575001 0.087226003
0.1222 0.047499999 0.086070001
0.12415 0.041459002 0.14263
0.12337 0.04865 0.082029998
0.1229 0.042358 0.14198001
0.12352 0.041407 0.15056001
0.12545 0.051204 0.080008
0.12522 0.042737 0.15005
0.12515 0.042631 0.14189
0.12758 0.049846999 0.088189997
0.12791 0.050390001 0.089197002
0.13 0.05099 0.078374997
0.12720001 0.042622 0.15238
0.12796 0.043279 0.14004
0.12882 0.048797 0.12675001
0.12936001 0.046197999 0.12622
0.12839 0.047630999 0.12684
0.13088 0.045118999 0.12633
0.12958001 0.044252999 0.13762
0.12836 0.051144 0.091677003
0.12887 0.049887002 0.091141
0.12999 0.049849998 0.099404998
0.13031 0.051242001 0.099578999
0.12980001 0.047098 0.10906
0.12885 0.048404999 0.12197
0.12896 0.047168002 0.12472
0.12646 0.045460001 0.12511
0.12906 0.046349 0.12625
0.12971 0.045929 0.12558
0.13143 0.05226 0.077884004
0.13424 0.043713 0.15383001
0.13455001 0.044128001 0.15436
0.13495 0.053057 0.075832002
0.13921 0.046071999 0.15026
0.13953 0.052563 0.078148998
0.14123 0.052143 0.080944002
0.14183 0.046034001 0.14929999
0.14474 0.046103999 0.15013
0.14693999 0.046664 0.15172
0.14589 0.051148999 0.11928
0.14683001 0.049446002 0.13779999
0.14747 0.048489999 0.14245
0.14781 0.049139 0.14108001
0.14722 0.051856998 0.11241
0.14701 0.049580999 0.12444
0.14760999 0.047757 0.14563
0.14642 0.046631001 0.14822
0.14752001 0.053410001 0.1017
0.14725 0.051002 0.10262
0.14688 0.052469 0.10489
0.14743 0.046861 0.15063
0.14714999 0.047254 0.14562
0.14938 0.053796999 0.10138
0.14841001 0.046943001 0.14405
0.14952999 0.048211999 0.14055
0.15026 0.054990001 0.087027997
0.15075999 0.048948001 0.14249
0.15039 0.049113002 0.14366999
0.14997999 0.053321999 0.10125
0.1558 0.054196 0.1002
0.16282 0.054425001 0.1169
0.16231 0.053994 0.11551
0.16278 0.055114999 0.11389
0.16389 0.054825999 0.11363
0.16384 0.056396 0.11269
0.16434 0.054467 0.12043
0.17008001 0.056281 0.12241
0.17025 0.055984002 0.11893
0.16976 0.054894 0.11846
0.17167 0.055787001 0.12492
0.17025 0.056012999 0.12969001
0.1724 0.053702001 0.12902001
0.17207 0.057433002 0.12218
0.17133 0.05531 0.11838
0.17242999 0.056256998 0.11526
0.1716 0.056139998 0.11836
0.1745 0.056168001 0.11659
0.17297 0.055296 0.12976
0.17200001 0.054568999 0.12577
0.17256001 0.058635999 0.11073
0.17612 0.057459 0.12287
0.17482001 0.056283001 0.13122
0.17703 0.055291999 0.11787
0.17983 0.057427999 0.11627
0.18084 0.057891998 0.11668
0.18043999 0.057888001 0.1247
0.18087 0.056377001 0.11739
0.18170001 0.059156001 0.11759
0.18132 0.058408 0.11932
0.18256 0.059482999 0.11928
0.18241 0.057980001 0.12574001
0.18138 0.059432998 0.11829
0.18445 0.061276 0.098839998
0.18627 0.062151998 0.098912999
0.18481 0.059613001 0.10791
0.18513 0.060692001 0.10775
0.18622001 0.059457 0.11901
0.18700001 0.059020001 0.12212
0.18804 0.058212999 0.12722
0.18635 0.058823999 0.12768
0.18919 0.060339998 0.12013
0.19148 0.060040999 0.13021
0.18906 0.062599003 0.099880002
0.19042 0.062827997 0.099353001
0.19084001 0.059473999 0.12502
0.19113 0.060933001 0.12885
0.18972 0.061499 0.12786999
0.1928 0.059861001 0.13116001
0.19144 0.064227998 0.097447999
0.1913 0.062605001 0.10859
0.19236 0.060240999 0.13111
0.19391 0.064199001 0.096519001
0.19345 0.064012997 0.097801998
0.19261 0.064644001 0.098513998
0.19366001 0.062391002 0.099788003
0.19074 0.063621998 0.10193
0.19392 0.063204996 0.10212
0.19330999 0.060027 0.13412
0.19428 0.065195002 0.095660001
0.19449 0.060153998 0.13397001
0.1961 0.063725002 0.10028
0.19317999 0.063147001 0.10708
0.19565 0.065610997 0.10351
0.19456001 0.063451998 0.10601
0.19651 0.063603997 0.10584
0.19588 0.061496001 0.13478
0.19716001 0.063349999 0.10188
0.19850001 0.059119999 0.13729
0.19681001 0.060557 0.13665999
0.19648001 0.064537004 0.093148999
0.1963 0.064506002 0.1018
0.19796 0.060426001 0.13778
0.19716001 0.063726999 0.10145
0.19840001 0.063028 0.10313
0.19999 0.065532997 0.094747998
0.19964001 0.059632 0.13807
0.19815999 0.064673997 0.094672002
0.2009 0.059746001 0.13947999
0.20242999 0.065793999 0.094379
0.20220999 0.065571003 0.091877997
0.20254 0.060619999 0.14262
0.20324001 0.06182 0.14212
0.20457999 0.065123998 0.10342
0.20566 0.066588998 0.095542997
0.20663001 0.067768 0.094585001
0.20612 0.060529001 0.14760999
0.20757 0.061051998 0.14804
0.21026 0.06842 0.098504998
0.20779 0.063143998 0.14706001
0.20833001 0.062923998 0.14651
0.2115 0.068503 0.10243
0.21172 0.069284998 0.10406
0.21189 0.063092001 0.14585
0.21360999 0.067743003 0.10458
0.21343 0.062075999 0.14808001
0.21540999 0.063665003 0.14885999
0.21604 0.070061997 0.10184
0.21751 0.069038004 0.098095998
0.2159 0.069365002 0.096983999
0.21646 0.069866002 0.098947003
0.2194 0.069420002 0.097998999
0.21944 0.070078 0.099192999
0.21867 0.068769999 0.098053001
0.2211 0.069673002 0.095638998
0.21984001 0.069417998 0.097410001
0.22104999 0.068279997 0.10059
0.22154 0.069907002 0.098243997
0.22002999 0.070355996 0.10014
0.21788 0.065862998 0.14872999
0.22068 0.070193999 0.10142
0.22231001 0.070113003 0.099234998
0.22315 0.066007003 0.14899001
0.22341 0.065149002 0.14937
0.22314 0.064588003 0.14835
0.22500999 0.069996998 0.099345997
0.22476 0.071971998 0.098830998
0.22961 0.071135998 0.10353
0.23153 0.066982999 0.14476
0.23472001 0.072279997 0.10908
0.23752999 0.073367998 0.10884
0.23995 0.074225001 0.10762
0.23917 0.073330998 0.10753
0.23952 0.068490997 0.13995001
0.24144 0.072126999 0.1391
0.24369 0.075324997 0.11153
0.24384999 0.072471 0.13734999
0.24459 0.073944002 0.11415
0.24413 0.074709997 0.11725
0.2447 0.073110998 0.11702
0.2463 0.074244998 0.11942
0.24602 0.073944002 0.12496
0.24596 0.074966997 0.11459
0.24642 0.074321002 0.11432
0.24625 0.073026001 0.11807
0.24764 0.071144 0.13372999
0.25099 0.072821997 0.13485
0.25204 0.073137 0.13104001
0.25577 0.076852001 0.1164
0.25849 0.075567998 0.13422
0.25775 0.077376001 0.11484
0.26029 0.079379 0.11256
0.25931999 0.075451002 0.13482
0.26295999 0.076719001 0.13674
0.26434001 0.079732999 0.11068
0.26657999 0.077496998 0.13601001
0.26905 0.078488 0.13883001
0.26876 0.079752997 0.11217
0.27243 0.081652001 0.11365
0.27068001 0.078236997 0.14032
0.27454001 0.078671001 0.14149
0.27505001 0.083348997 0.11834
0.27875999 0.080456004 0.11873
0.27803999 0.079233997 0.14065
0.28255001 0.081671998 0.12406
0.28317001 0.081813999 0.12365
0.28490999 0.083113 0.12771
0.11901 0.041017 0.14663
0.12065 0.040872 0.15118
0.1199 0.040812999 0.14373
0.1224 0.046781 0.082667001
0.12291 0.048730001 0.087292001
0.12472 0.049601 0.080337003
0.12442 0.048317 0.086932003
0.12364 0.040812001 0.1496
0.12493 0.042819999 0.14126
0.12531 0.048395999 0.088068999
0.12726 0.050657999 0.080196999
0.12675001 0.048981 0.078322999
0.12585001 0.041559 0.14075001
0.12665001 0.043278001 0.14978001
0.12943 0.043416999 0.15293001
0.12808999 0.043021001 0.15202001
0.12875 0.048943002 0.090990998
0.12918 0.042569999 0.13988
0.13022999 0.045182999 0.12053
0.12909 0.049596 0.12093
0.12926 0.046528999 0.11792
0.12918 0.048581999 0.12154
0.12912001 0.043226 0.13416
0.12774999 0.050841998 0.11058
0.12834001 0.050048999 0.11125
0.1283 0.049426999 0.11319
0.12800001 0.04786 0.10908
0.12971 0.045504998 0.11307
0.12963 0.048953 0.11336
0.12793 0.048023999 0.11621
0.12887 0.048407 0.11618
0.12872 0.048611 0.11659
0.12915 0.05136 0.11615
0.12938 0.048250001 0.11771
0.12799001 0.045712002 0.12043
0.12995 0.046050001 0.12192
0.1339 0.052834999 0.077581003
0.13737001 0.044309001 0.15208
0.1408 0.054063 0.078084998
0.14069 0.052981999 0.080518
0.14516 0.054405998 0.079703003
0.14679 0.053245001 0.080013998
0.14687 0.049384002 0.13756
0.14805999 0.052645002 0.105
0.14677 0.048870999 0.12368
0.14733 0.049327001 0.12424
0.1469 0.048939001 0.12896
0.14781 0.048443001 0.13437
0.14785001 0.047403 0.14828999
0.14794999 0.053853001 0.084452003
0.14563 0.053998999 0.086819999
0.14679 0.052958999 0.1069
0.14725 0.051426001 0.10907
0.14683001 0.049005002 0.1304
0.14809 0.054784998 0.086048
0.14959 0.054482002 0.086452998
0.15041 0.047968 0.14392
0.15099999 0.056628998 0.089140996
0.1552 0.053238999 0.10217
0.15294001 0.055190999 0.091840997
0.15402 0.055672999 0.10053
0.16108 0.054249 0.11665
0.16369 0.056315999 0.11812
0.1646 0.055601001 0.11181
0.16685 0.054138001 0.12118
0.16933 0.056543998 0.11019
0.16868 0.056559999 0.12099
0.16989 0.056868002 0.10967
0.16975001 0.055651002 0.11755
0.17016999 0.055833999 0.11732
0.16769999 0.057337999 0.11543
0.17117 0.057618 0.11155
0.17206 0.055955 0.11968
0.17315 0.056666002 0.12286
0.17193 0.055526 0.12808999
0.17382 0.058355998 0.1155
0.17316 0.057206001 0.12233
0.17377999 0.057438999 0.12152
0.17325 0.055852 0.13031
0.17564 0.057774998 0.11604
0.17449 0.055764001 0.12845001
0.17487 0.058029 0.10842
0.17394 0.057932001 0.10959
0.17621 0.058692001 0.11646
0.17625 0.057146002 0.12435
0.17835 0.058127001 0.12337
0.17812 0.058389001 0.11677
0.18028 0.058215 0.12893
0.18122 0.059602998 0.11733
0.18280999 0.060578 0.10927
0.18097 0.058180001 0.12897
0.18312 0.060354002 0.10678
0.18407001 0.05982 0.11715
0.18370999 0.058761999 0.1241
0.18374 0.056729998 0.1285
0.18595999 0.058361001 0.11775
0.18456 0.059198 0.12132
0.18694 0.062629998 0.097540997
0.18743999 0.061815999 0.096817002
0.1869 0.061427999 0.12476
0.18708999 0.059484001 0.12906
0.18885 0.061917 0.12677
0.18934 0.062705003 0.098157004
0.18866 0.063592002 0.097617999
0.18944 0.062057 0.10061
0.19028001 0.062923998 0.097727999
0.18986 0.059482999 0.12321
0.18986 0.060201 0.12721001
0.19171 0.060162 0.12294
0.19089 0.05996 0.13079
0.19197001 0.062752001 0.097166002
0.19155 0.062963001 0.099388003
0.19182 0.060079999 0.13349
0.19611 0.064589001 0.096850999
0.19546001 0.064542003 0.098774999
0.19561 0.063207999 0.10426
0.19756 0.066050999 0.095555
0.19779 0.065750003 0.098136
0.19682001 0.060710002 0.13569
0.19715001 0.061165001 0.1347
0.19925 0.066207998 0.094993003
0.20004 0.066489004 0.096896
0.20114 0.060004 0.1401
0.20096999 0.065978996 0.095955998
0.20347001 0.066179998 0.096628003
0.20242999 0.064829998 0.10442
0.20213 0.062705003 0.1419
0.20295 0.065438002 0.1027
0.20525999 0.067835003 0.096662998
0.20403001 0.066829003 0.095789999
0.20579 0.066624999 0.096766002
0.20434999 0.059801001 0.14410999
0.20461001 0.061933 0.14627001
0.20401999 0.066749997 0.098223999
0.20495 0.067542002 0.099861003
0.20575 0.066843003 0.10171
0.20595001 0.062006 0.14634
0.20833001 0.067515999 0.098980002
0.20869 0.068085998 0.097378001
0.20908 0.067318 0.10184
0.21021999 0.063474 0.1464
0.21875 0.067750998 0.10118
0.21749 0.068782002 0.096725002
0.22362 0.071627997 0.10185
0.22059999 0.06549 0.14928
0.22702 0.071039997 0.10261
0.22554 0.066625997 0.14901
0.22727001 0.071709 0.10315
0.22812 0.065994002 0.14824
0.22869 0.066706002 0.14755
0.22961 0.071693003 0.10415
0.2313 0.071873002 0.10584
0.22975001 0.067217998 0.14692
0.2321 0.072972 0.10622
0.23168001 0.067876004 0.14437
0.23274 0.073579997 0.10591
0.23264 0.070086002 0.14251
0.23478 0.071578003 0.10818
0.23480999 0.069541 0.14287999
0.24002001 0.071704999 0.14057
0.24090999 0.071661003 0.14044
0.24333 0.075791001 0.10772
0.2403 0.071892999 0.14106999
0.24431001 0.075661004 0.10946
0.24514 0.073321998 0.11226
0.24439 0.074023001 0.12105
0.24624 0.073045999 0.13258
0.24638 0.074401997 0.12662999
0.24704 0.074828997 0.1256
0.24557 0.074205004 0.12861
0.24641 0.073519997 0.12266
0.24581 0.073450997 0.12969001
0.24761 0.075176001 0.12158
0.24614 0.073097996 0.1313
0.24593 0.073422998 0.13263001
0.25196999 0.075681999 0.12328
0.25284001 0.075983003 0.12374
0.2511 0.074592002 0.12777001
0.25189 0.075090997 0.1234
0.25171 0.075838998 0.12237
0.25369999 0.075808004 0.1285
0.25303 0.076755002 0.12141
0.25367001 0.074542001 0.1313
0.25279999 0.074846998 0.12049
0.25514001 0.077326 0.11859
0.25319999 0.075958997 0.13121
0.25422001 0.073544003 0.13096
0.25544 0.077625997 0.11625
0.25984001 0.075368002 0.13500001
0.26175001 0.075313002 0.13439
0.26668 0.078050002 0.11282
0.26535001 0.078162 0.11142
0.26844001 0.079048 0.13795
0.26679999 0.076180004 0.1374
0.27101001 0.078263998 0.14063001
0.27138001 0.078089997 0.14093
0.27217001 0.080449 0.11534
0.27763 0.081874996 0.12068
0.27748001 0.081528999 0.14192
0.28064999 0.081950001 0.13854
0.28310001 0.08213 0.13755
0.28560999 0.081846997 0.13564
0.28472 0.083843 0.12812001
0.28624001 0.082400002 0.13574
0.28619 0.082916997 0.13108
0.28532001 0.082047001 0.13395
0.11902 0.039969999 0.14966001
0.11727 0.040174998 0.15091
0.12605 0.042904001 0.15037
0.12873 0.046838999 0.11847
0.1302 0.050262999 0.10844
0.13089 0.051020999 0.10886
0.12858 0.048781998 0.11376
0.12808999 0.050211001 0.11321
0.12827 0.049795002 0.11889
0.12818 0.04589 0.12886
0.12915 0.047091 0.13226999
0.12938 0.044996999 0.13214
0.12964 0.047226001 0.13410001
0.13121 0.042608 0.15346
0.13648 0.052832998 0.077853002
0.13996001 0.045233 0.14861
0.14347 0.053229999 0.082722001
0.14323001 0.054365002 0.082727998
0.14544 0.055856999 0.079961002
0.14789 0.050742999 0.11736
0.14669 0.049144998 0.14184
0.147 0.054894 0.082446001
0.14793 0.050510999 0.11006
0.14688 0.048424002 0.14892
0.14764 0.053679001 0.082818002
0.14707001 0.049849 0.13221
0.15361001 0.054375999 0.091463998
0.16174001 0.054915 0.11777
0.16214 0.055128999 0.1123
0.16128001 0.053904999 0.11301
0.16259 0.055975001 0.11081
0.167 0.055668999 0.11699
0.16684 0.055567998 0.11838
0.17051999 0.054926999 0.11576
0.16987 0.055493999 0.11467
0.17171 0.057966001 0.11324
0.17349 0.058908999 0.11354
0.17242 0.056434002 0.12803
0.17347001 0.056793001 0.12537
0.17381001 0.055052001 0.12829
0.17933001 0.056848001 0.12879001
0.1778 0.057934001 0.1237
0.18131 0.060167 0.11591
0.18587001 0.060846999 0.1179
0.18585999 0.058867998 0.12819999
0.18725 0.060249999 0.11996
0.18995 0.064003997 0.098350003
0.18946999 0.059622999 0.12901001
0.19137 0.061590999 0.12515999
0.19763 0.064484 0.096473999
0.19994999 0.061422002 0.13838001
0.20484 0.067721002 0.10234
0.20602 0.067267999 0.096946001
0.21281999 0.062996 0.14734
0.23385 0.072976001 0.10757
0.24314 0.075314999 0.11072
0.24546 0.071806997 0.13438
0.26109001 0.076339997 0.13474999
0.26925001 0.081178002 0.11149
0.26984 0.081549004 0.11255
0.27197999 0.081308998 0.1145
0.27508 0.081074998 0.11529
0.28202 0.083152004 0.12293
0.28292999 0.082199998 0.1236
0.12291 0.051242001 0.082102001
0.12358 0.049787 0.079388
0.12272 0.042617001 0.141
0.12975 0.049672 0.090781003
0.12891001 0.052012 0.093015
0.12997 0.050519999 0.098449998
0.12842999 0.050225999 0.10413
0.12955 0.045596 0.12843999
0.13145 0.043455999 0.15309
0.13236 0.044174001 0.15307
0.13756 0.045481 0.15202001
0.13756999 0.04603 0.15222
0.14737 0.054414999 0.080977999
0.14697 0.050717998 0.11553
0.14714 0.051247999 0.11575
0.146 0.050581001 0.12206
0.14838 0.049582999 0.12619001
0.14673001 0.050299 0.12761
0.15354 0.055705 0.089672998
0.15431 0.056008 0.093864001
0.15677001 0.054703999 0.096848004
0.16113 0.055477999 0.11511
0.1646 0.056035999 0.11859
0.16760001 0.056545999 0.11015
0.16565 0.057463001 0.11081
0.16796 0.054745998 0.11415
0.16608 0.056283001 0.11773
0.16714001 0.056573 0.11426
0.16897 0.054972999 0.11238
0.16813999 0.057062 0.11294
0.16897 0.056798998 0.11315
0.16833 0.055093002 0.11908
0.16993999 0.055847999 0.12028
0.16993999 0.057122 0.12572999
0.17149 0.054807998 0.12575001
0.17417 0.05917 0.11437
0.17637999 0.056724999 0.13106
0.17664 0.058223002 0.11501
0.17703 0.058086999 0.11479
0.17829999 0.059808001 0.11473
0.17941999 0.058966 0.11679
0.18284 0.058010001 0.12816
0.18441001 0.057815999 0.12847
0.18363 0.060079999 0.11784
0.18378 0.059632 0.12627
0.18659 0.061262999 0.12026
0.18895 0.061081 0.12687001
0.18877999 0.061259001 0.12278
0.19114999 0.061035 0.1247
0.19201 0.061310001 0.12791
0.19323 0.060601 0.13237
0.1957 0.064828001 0.10325
0.19976 0.062247999 0.14015
0.20919999 0.067841001 0.10303
0.21187 0.063514002 0.14436001
0.2084 0.062622003 0.14635
0.21709999 0.069595002 0.10243
0.22528 0.071785003 0.10191
0.22498 0.067316003 0.14862999
0.22984999 0.068304002 0.1459
0.23344 0.070225 0.14162
0.23542 0.071217999 0.14212
0.23829 0.073711999 0.10967
0.24347 0.071612 0.13755
0.24546 0.075369 0.12196
0.2441 0.074995004 0.11893
0.24649 0.074001998 0.13029
0.25492999 0.077450998 0.11671
0.25681001 0.077799 0.11558
0.26321 0.077970996 0.11352
0.26231 0.079833999 0.11359
0.27158001 0.078620002 0.13929
0.2791 0.081744 0.12111
0.27889001 0.081621997 0.13928001
0.28288001 0.083456002 0.12405
0.28371999 0.083534002 0.12826
0.11806 0.039987002 0.1498
0.1192 0.043177001 0.14933001
0.12182 0.049569 0.084914997
0.12055 0.043063998 0.15146001
0.12412 0.042514998 0.14968
0.12621 0.051132001 0.090755001
0.13043 0.049097002 0.10219
0.12761 0.049768001 0.11164
0.13023999 0.051644001 0.078264996
0.13387001 0.045244001 0.1543
0.13845 0.05424 0.078915998
0.14769 0.048395 0.14297
0.14717001 0.049169999 0.14413001
0.14915 0.054421999 0.10277
0.14862999 0.048523001 0.14407
0.16649 0.057434998 0.11527
0.16663 0.056882001 0.11391
0.16963001 0.056963 0.11192
0.17067 0.057222001 0.1121
0.17256001 0.058440998 0.11257
0.17599 0.058079999 0.11558
0.18164 0.060286 0.12937
0.18520001 0.062258001 0.11759
0.19114999 0.061783999 0.10837
0.19075 0.061144002 0.12486
0.19569001 0.063224003 0.13348
0.19476999 0.060874999 0.13383999
0.19507 0.062343001 0.13499001
0.2078 0.068194002 0.096764997
0.21312 0.068140998 0.10276
0.21555001 0.063943997 0.14834
0.21509001 0.063865997 0.1468
0.23026 0.073996998 0.10448
0.24093001 0.071152002 0.141
0.24434 0.074913003 0.11196
0.24424 0.073563002 0.13298
0.24405999 0.072598003 0.13102999
0.26752999 0.077316999 0.13680001
0.26907 0.078509003 0.138
0.27605999 0.078686997 0.13985001
0.27669001 0.082732998 0.11889
0.27540001 0.083646998 0.11883
0.27851999 0.083864003 0.12059
0.27757999 0.082999997 0.12092
0.28413001 0.083980002 0.12888999
0.28525001 0.082369 0.13473
0.28382999 0.082772002 0.13683
0.28562999 0.083474003 0.13313
0.11677 0.042392001 0.14952999
0.11922 0.042778999 0.14612
0.11915 0.042367999 0.15146001
0.12126 0.048300002 0.087077998
0.1201 0.043545 0.1428
0.12253 0.042275 0.14229999
0.12133 0.050297 0.080977
0.12372 0.043334 0.14935
0.12417 0.044146001 0.14938
0.12822001 0.052919999 0.079057001
0.12714 0.053465001 0.080738999
0.12904 0.043899 0.13665
0.12543 0.044425 0.1496
0.12729 0.044473 0.15287
0.12827 0.050522 0.090088002
0.12884 0.049575001 0.11115
0.13368 0.050935999 0.076596998
0.13399 0.054093 0.076047003
0.1356 0.046117999 0.15301
0.13961001 0.055906001 0.079245001
0.14022 0.046239998 0.14985999
0.14207999 0.054389998 0.083397999
0.14390001 0.056136001 0.081652001
0.14435001 0.047166001 0.15098999
0.14729001 0.051309001 0.11369
0.14838 0.050756998 0.12593
0.14704999 0.047832001 0.14323001
0.14677 0.049089 0.14237
0.14638001 0.047594 0.14934
0.14738999 0.053723998 0.10214
0.1477 0.054037001 0.10574
0.14684001 0.053846002 0.10745
0.14715999 0.050549001 0.13732
0.14634 0.048294 0.14940999
0.14653 0.049197 0.14572001
0.14564 0.048714999 0.14559001
0.14799 0.050317999 0.14518
0.15006 0.054646 0.087090001
0.15075 0.057016999 0.086502001
0.15143 0.056728002 0.088693
0.15283 0.055739999 0.089567997
0.15062 0.054784998 0.10118
0.16732 0.057395998 0.11266
0.16520999 0.054747999 0.1115
0.16769999 0.056403998 0.11152
0.16725001 0.056062002 0.11104
0.16847999 0.055413 0.12153
0.17200001 0.057314001 0.11081
0.16869 0.055470001 0.12472
0.17030001 0.057438001 0.1108
0.17005999 0.057714999 0.12139
0.17095999 0.057849001 0.11986
0.17173 0.057365 0.11149
0.16997001 0.055759002 0.12636
0.17057 0.055385001 0.12521
0.17208999 0.056561999 0.1257
0.17292 0.056159999 0.12809999
0.17568 0.058231998 0.11297
0.17668 0.058878999 0.11293
0.17323001 0.057427 0.12324
0.17523 0.059287 0.11446
0.17983 0.059161998 0.1248
0.17900001 0.059324998 0.11451
0.17889 0.060082 0.11521
0.18132 0.059726 0.11481
0.18079001 0.059356 0.12785999
0.17985 0.057696 0.12952
0.18316001 0.061879002 0.11621
0.18347 0.060772002 0.10705
0.18635 0.061820999 0.1175
0.18705 0.061533 0.1162
0.18694 0.063258 0.10967
0.18661 0.061923999 0.12717
0.19123 0.062313002 0.12304
0.18945999 0.061356001 0.13043
0.1913 0.064548001 0.10691
0.19225 0.063909002 0.12563001
0.19372 0.061724 0.13196
0.19656 0.065467 0.10471
0.20122001 0.061863001 0.1391
0.20149 0.064654998 0.14023
0.20284 0.061654001 0.13885
0.20422 0.063500002 0.14524999
0.20789 0.064494997 0.14597
0.21031 0.068549998 0.10443
0.21443 0.064894997 0.14782
0.21818 0.070866004 0.10247
0.21871001 0.066156 0.14856
0.22566999 0.072361 0.10264
0.22801 0.067720003 0.14692999
0.22627001 0.068892002 0.14778
0.2282 0.074605003 0.10426
0.22834 0.069282003 0.14584
0.23168001 0.068290003 0.14348
0.23332 0.073236004 0.10648
0.23244999 0.070012003 0.14196
0.23495001 0.074244998 0.10903
0.23694 0.069665 0.14252999
0.2387 0.071984999 0.14162999
0.23848 0.076003 0.10914
0.23919 0.075254999 0.10877
0.24251001 0.074777998 0.11333
0.24191999 0.074345 0.13568
0.24253 0.075121999 0.11995
0.24368 0.075221002 0.1229
0.24409001 0.074189 0.12315
0.24433 0.07322 0.12206
0.24512 0.074902996 0.11483
0.24628 0.073480003 0.12949
0.26041999 0.080012999 0.1134
0.26436001 0.077753998 0.13584
0.26341 0.078043997 0.13510001
0.26547 0.082408004 0.11238
0.26782 0.081834003 0.11222
0.26842001 0.081518002 0.11344
0.27362999 0.082852997 0.11598
0.27526999 0.079554997 0.14074001
0.27759001 0.081858002 0.13954
0.27926999 0.083552003 0.12143
0.28055 0.081207 0.13891999
0.28014001 0.083477996 0.12409
0.28169999 0.083719999 0.12521
0.28231001 0.083334997 0.13693
0.28477001 0.083053999 0.13152
0.28608999 0.082966 0.13436
0.118 0.042169001 0.15148
0.1191 0.042383 0.14242999
0.11962 0.043579001 0.14422999
0.11939 0.042702001 0.14297999
0.12029 0.049298 0.084857002
0.12225 0.050012 0.083270997
0.12211 0.048983999 0.082829997
0.12193 0.048656002 0.085375004
0.12062 0.050547 0.079195
0.12306 0.042916 0.14105
0.12311 0.051553 0.087918997
0.12257 0.044110999 0.14282
0.12485 0.051575001 0.079104997
0.12468 0.049887002 0.079580002
0.12474 0.043595999 0.14123
0.12369 0.044275999 0.14865001
0.12707999 0.049869999 0.079807997
0.12586001 0.043884002 0.14808001
0.12733001 0.043304998 0.14932001
0.12693 0.044746999 0.14128
0.12786999 0.044670001 0.14055
0.12775999 0.044024002 0.14001
0.12747 0.049621001 0.090600997
0.12818 0.045209002 0.14018001
0.12890001 0.044649001 0.13959999
0.12823001 0.051467001 0.098333001
0.12919 0.051975001 0.11972
0.12927 0.047699001 0.12437
0.12963 0.044284999 0.15225001
0.13118 0.052097 0.078764997
0.13197 0.044112001 0.15415999
0.13501 0.045635998 0.15246999
0.13367 0.044856001 0.15421
0.13595 0.05314 0.076752998
0.1358 0.055234998 0.077535003
0.13885 0.055063002 0.077572003
0.13682 0.046218 0.15238
0.13774 0.047352999 0.15132999
0.13821 0.045878999 0.14961
0.13992 0.054336 0.078879997
0.13932 0.054009002 0.079501003
0.14252 0.055714 0.082116
0.14094 0.046983 0.14708
0.14168 0.047479998 0.1486
0.14236 0.047912002 0.15079001
0.14511 0.054668002 0.081568003
0.14703 0.056867 0.082682997
0.1459 0.048046999 0.13989
0.14590999 0.048900999 0.14207
0.14691 0.055128001 0.081848003
0.14698 0.052081998 0.11058
0.14591999 0.051654 0.11674
0.1469 0.051042002 0.11886
0.14632 0.051755 0.11978
0.14781 0.049814001 0.12368
0.14599 0.051213998 0.12649
0.14627001 0.048822001 0.14838
0.14528 0.050184 0.14968
0.14847 0.056988001 0.084202997
0.14841001 0.056935001 0.083476
0.14731 0.052655 0.10357
0.14624999 0.054026 0.1088
0.14641 0.052441999 0.11062
0.14608 0.050393 0.13067
0.14806999 0.056228001 0.086443
0.14839 0.049477998 0.14638001
0.15051 0.053594001 0.10076
0.14951999 0.050499 0.14496
0.14984 0.049336001 0.14431
0.15087999 0.055307001 0.10175
0.15248001 0.055833999 0.090595998
0.15312999 0.055270001 0.10044
0.15324 0.053594001 0.10026
0.15465 0.056320999 0.094319001
0.15346999 0.055943999 0.1002
0.15423 0.056136999 0.094621003
0.15601 0.056007002 0.095640004
0.15515 0.055644002 0.096455
0.15408 0.055945002 0.098582998
0.16 0.055737 0.11518
0.16047999 0.057151999 0.11314
0.16109 0.054653 0.1165
0.1608 0.056338001 0.1142
0.16152 0.055342 0.11645
0.16326 0.056915998 0.1129
0.16362999 0.055080999 0.11098
0.16382 0.054414 0.1119
0.16396999 0.057358999 0.11691
0.16260999 0.055438001 0.11666
0.16497999 0.056120999 0.11048
0.16407999 0.056136001 0.1173
0.16535001 0.056894999 0.11059
0.16472 0.055794999 0.11736
0.16564 0.055181999 0.1131
0.16418999 0.057307001 0.11389
0.16394 0.056938998 0.11459
0.16394 0.056219999 0.11609
0.16538 0.056745999 0.12018
0.16603 0.056596 0.11627
0.16471 0.0568 0.11273
0.16714001 0.057438001 0.11006
0.16681001 0.056426 0.11979
0.16779 0.057693999 0.11064
0.16635001 0.057819001 0.11769
0.16835 0.057369001 0.12304
0.16733 0.058049001 0.11089
0.16884001 0.057916999 0.11212
0.16884001 0.058228999 0.12011
0.16799 0.056754999 0.12106
0.16719 0.056536 0.12377
0.16738001 0.055830002 0.12281
0.16802 0.055372 0.12359
0.16887 0.056479 0.11958
0.16913 0.058215 0.10944
0.16935 0.056659002 0.1245
0.17095999 0.056386001 0.12502
0.17104 0.057879999 0.1091
0.17263 0.056476001 0.12164
0.171 0.057271998 0.12976
0.17253 0.057287 0.12835
0.17223001 0.058052 0.12225
0.17087001 0.057781 0.12642001
0.17206 0.059211001 0.11132
0.17304 0.057310998 0.11997
0.1724 0.057165999 0.13021
0.17483 0.059362002 0.10854
0.17372 0.057611 0.12903
0.17290001 0.057309002 0.13075
0.1734 0.058053002 0.11133
0.17305 0.05807 0.1276
0.17448001 0.056334 0.13136999
0.17569 0.060426001 0.11026
0.17475 0.059181999 0.11197
0.17595001 0.057455 0.13007
0.17412999 0.058515999 0.12237
0.17570999 0.059707001 0.11358
0.17686 0.058734 0.1244
0.17758 0.057535 0.13252001
0.17848 0.059849001 0.11379
0.17625 0.061025001 0.10858
0.17794 0.058784001 0.12405
0.17817999 0.057310998 0.1286
0.17896999 0.057140999 0.12999
0.17911001 0.058288999 0.13038
0.1797 0.060035001 0.12397
0.17991 0.060143001 0.12469
0.18179999 0.059634998 0.11365
0.18137001 0.062614001 0.10849
0.18039 0.060972001 0.10808
0.18298 0.060761999 0.11514
0.18268999 0.060996 0.11622
0.18085 0.059282001 0.12556
0.18553001 0.061407 0.11727
0.18379 0.061895002 0.10866
0.18501 0.062413 0.1158
0.18404 0.06002 0.12970001
0.18554001 0.060049001 0.12805
0.18528999 0.062407002 0.10861
0.18442 0.061464 0.11727
0.18454 0.061011001 0.1257
0.18646 0.060107999 0.12927
0.18771 0.059964001 0.11849
0.18692 0.059971999 0.12779
0.18731999 0.060941 0.12642001
0.18816 0.061184 0.12843999
0.18752 0.060228001 0.11972
0.18865 0.06284 0.10808
0.18844 0.061177999 0.10795
0.18990999 0.061870001 0.12703
0.18881001 0.060867 0.12806
0.18870001 0.061508998 0.12087
0.19168 0.064315997 0.10793
0.18900999 0.06123 0.12344
0.18938001 0.061012998 0.1295
0.18994001 0.061514001 0.12774999
0.19070999 0.060667999 0.13094001
0.19278 0.061319001 0.12955
0.19067 0.060146 0.13119
0.19284999 0.061494999 0.12759
0.19183999 0.061503001 0.12849
0.19453999 0.061760001 0.12661
0.19273999 0.062444001 0.13213
0.19348 0.064305 0.10635
0.19464 0.065389 0.10597
0.19464999 0.066026002 0.1052
0.19638 0.065701999 0.10415
0.19637001 0.066183001 0.10488
0.19755 0.062576003 0.13801999
0.19929001 0.066064 0.10533
0.19877 0.063461997 0.13733999
0.19959 0.062692001 0.13629
0.20121001 0.067134 0.10331
0.20139 0.062176 0.13705
0.20073 0.066840999 0.10464
0.20191 0.066745996 0.10442
0.20017999 0.062165 0.13956
0.20207 0.067175999 0.1058
0.20478 0.062830999 0.14188001
0.20412999 0.067428999 0.10281
0.20394 0.062504999 0.14076
0.20398 0.068233997 0.10208
0.20363 0.068425 0.097055003
0.20338 0.068915002 0.099523999
0.20645 0.068720996 0.099403001
0.20333 0.063607 0.14247
0.204 0.065003999 0.14407
0.20561001 0.067794003 0.10355
0.20451 0.067598999 0.10166
0.20694 0.067714997 0.097730003
0.20475 0.065568998 0.14509
0.20706999 0.062606998 0.14635
0.20716999 0.069784999 0.097432002
0.20765001 0.068342 0.10159
0.20794 0.065360002 0.14534
0.20701 0.069004998 0.098632
0.20699 0.068410002 0.10126
0.20990001 0.069096997 0.10503
0.21059 0.068416998 0.10359
0.20981 0.063713998 0.14478999
0.20918 0.063463002 0.14535999
0.21265 0.069634996 0.10415
0.21337999 0.066229999 0.14636
0.21354 0.068870001 0.10485
0.21252 0.064482003 0.14663
0.21403 0.069758996 0.10341
0.21602 0.071546003 0.10412
0.21524 0.065318003 0.14864001
0.21901 0.066491999 0.14861999
0.21922 0.070294 0.10153
0.2207 0.072098002 0.10185
0.22118001 0.070873998 0.10165
0.22157 0.072439 0.10229
0.22239999 0.065355003 0.14971
0.22247 0.067667998 0.14918999
0.22525001 0.068948999 0.14824
0.22645 0.068765998 0.14894
0.2295 0.068071999 0.14527
0.23186 0.074721999 0.10655
0.23095 0.069280997 0.14480001
0.23305 0.074243002 0.10578
0.23248 0.069346003 0.14396
0.23361 0.070355996 0.14263
0.23417 0.075534001 0.10922
0.23767 0.075542003 0.11138
0.24058001 0.076653004 0.10848
0.24052 0.076663002 0.10731
0.24195001 0.072910003 0.13829
0.24101 0.076554999 0.10855
0.24252 0.073661998 0.13891999
0.24235 0.075462997 0.11166
0.24211 0.072199002 0.13734999
0.24064 0.072333001 0.13765
0.24412 0.076394998 0.11765
0.24296001 0.074320003 0.11704
0.24184 0.076146998 0.11954
0.24402 0.075607002 0.11427
0.24313 0.074865997 0.11648
0.24477001 0.072756 0.12988999
0.24450999 0.073579997 0.13389
0.24461 0.073435999 0.13383
0.24423 0.072789997 0.13513
0.24318001 0.073472001 0.13015001
0.24601001 0.076771997 0.11415
0.24548 0.076512001 0.12324
0.24654999 0.075727999 0.11582
0.24443001 0.073541999 0.13070001
0.24578001 0.073363997 0.13253
0.24555001 0.07542 0.12471
0.24643999 0.075575002 0.12401
0.24532001 0.074699998 0.12759
0.24658 0.074844003 0.12766001
0.25233999 0.076856002 0.12519
0.25082001 0.074717 0.12639
0.25195 0.074860997 0.12756
0.25130999 0.077275999 0.1221
0.25218999 0.075553 0.12801
0.25249001 0.076618001 0.12902001
0.25305 0.077578999 0.11999
0.25330001 0.075970002 0.12162
0.25354001 0.077251002 0.11818
0.25465 0.076128997 0.13104001
0.25476 0.079093002 0.11756
0.25516 0.078835003 0.11595
0.25503999 0.078321002 0.11589
0.25622001 0.076265 0.13176
0.25735 0.079245001 0.11604
0.25725001 0.079506002 0.11542
0.25687999 0.077212997 0.13146999
0.25848001 0.078681 0.11493
0.26141 0.081266999 0.11224
0.26435 0.079016 0.13533001
0.26412001 0.080147997 0.11344
0.26653001 0.082404003 0.11206
0.26530001 0.081974998 0.11132
0.26815999 0.08055 0.1353
0.26752001 0.080969997 0.11285
0.27017 0.079295002 0.13957
0.26925999 0.080360003 0.14003
0.27076 0.082197003 0.1142
0.27134001 0.082999997 0.11393
0.27248999 0.080541998 0.13901
0.27149001 0.082056001 0.11528
0.27228001 0.082593001 0.1161
0.27302 0.079046004 0.13985001
0.27388 0.082200997 0.14012
0.27706999 0.083198003 0.11762
0.27697 0.082259998 0.12
0.27432999 0.079855002 0.13958
0.27765 0.083118998 0.12068
0.27994001 0.083829999 0.12413
0.28011999 0.083596997 0.13704
0.28015 0.082732998 0.13942
0.28393 0.083967 0.12683
0.28472 0.082177997 0.13579001
0.28308001 0.083875 0.12985
0.28330001 0.085097998 0.13387001
0.28505999 0.084315002 0.12977999
0.12294 0.042856 0.15137
0.12443 0.049439002 0.087733001
0.1286 0.053711999 0.092134997
0.12995 0.053479001 0.094044998
0.12947001 0.051511999 0.11423
0.12791 0.051761001 0.11666
0.12827 0.050048001 0.12385
0.12897 0.047483001 0.1228
0.12845001 0.047063001 0.13123
0.13054 0.052352 0.078749999
0.13248999 0.045899998 0.15401
0.14147 0.054653998 0.082112998
0.14042 0.047632001 0.1494
0.14854001 0.053606998 0.11358
0.14618 0.051562998 0.12132
0.14556 0.051376998 0.12143
0.14617001 0.049445 0.13936
0.14726999 0.048866 0.13446
0.14696001 0.054221999 0.10496
0.14929 0.054306999 0.084808998
0.15049 0.056304999 0.089024
0.15312999 0.056887001 0.091821
0.16238999 0.056793001 0.11411
0.17057 0.059243999 0.10932
0.17182 0.059921 0.11044
0.17309999 0.057744 0.11108
0.17493001 0.059719 0.10922
0.17555 0.059509002 0.11193
0.17859 0.058912002 0.11212
0.17833 0.061179001 0.10832
0.18211 0.060006 0.13011
0.18508001 0.061553001 0.11586
0.18651 0.063239999 0.11857
0.19147 0.064625002 0.10796
0.19356 0.063051999 0.13174
0.19306 0.062673002 0.12772
0.19531 0.062945999 0.13175
0.19733 0.06146 0.13379
0.21789999 0.066428997 0.1477
0.22029001 0.070735998 0.10215
0.22364999 0.071856 0.10336
0.22634999 0.067165002 0.14794999
0.22652 0.074024998 0.10204
0.23062 0.074486002 0.10404
0.23024 0.074078999 0.10863
0.24325 0.075038001 0.11111
0.24304 0.073386997 0.12962
0.24335 0.073739 0.12927
0.24246 0.073873997 0.13144
