# .PCD v0.7 - Point Cloud Data file format
VERSION 0.7
FIELDS x y z
SIZE 4 4 4
TYPE F F F
COUNT 1 1 1
WIDTH 1505
HEIGHT 1
VIEWPOINT 0 0 0 1 0 0 0
POINTS 1505
DATA ascii
0.070125997 0.19434001 0.054465
0.070620999 0.19489001 0.054646
0.070233002 0.19597 0.053833
0.086976998 0.19411001 0.064631999
0.069356002 0.19585 0.053576
0.069948003 0.19671001 0.053326
0.069408998 0.19716001 0.052960001
0.068837002 0.19772001 0.052643999
0.074929997 0.19862001 0.055463001
0.068925001 0.19921 0.05249
0.073991999 0.19881999 0.054916002
0.068630002 0.20052999 0.051791999
0.088999003 0.19894999 0.064088002
0.073120996 0.20004 0.054136999
0.074202999 0.19967 0.054740999
0.069063 0.20178001 0.051192001
0.072388001 0.20228 0.052900001
0.075204 0.20196 0.054271001
0.078216001 0.20236 0.056469999
0.074695997 0.2027 0.053826001
0.097508997 0.20036 0.068039
0.097153001 0.20108999 0.067481004
0.074115999 0.20216 0.053865001
0.075883999 0.20298 0.054761
0.079896003 0.20298 0.057475999
0.080931999 0.2024 0.057652
0.083532996 0.20162 0.059115
0.08461 0.20106 0.060350001
0.086025 0.2025 0.060952
0.099256001 0.20092 0.069000997
0.097902998 0.19956 0.068788998
0.069261 0.20308 0.050542999
0.082134001 0.20274 0.058417998
0.083337002 0.20243999 0.059138998
0.069586001 0.20429 0.050229002
0.072316997 0.20324001 0.052448999
0.096584 0.20097999 0.06741
0.071857996 0.20408 0.052770998
0.086993001 0.20354 0.061218001
0.089644998 0.20195 0.063336998
0.071938999 0.20492999 0.051238999
0.071717001 0.20569 0.051295001
0.093923002 0.20271 0.064900003
0.095021002 0.20223001 0.065650001
0.093254 0.20163 0.065589003
0.096175998 0.20234001 0.066518001
0.060215 0.20529 0.044080999
0.058561999 0.20523 0.043806002
0.059034001 0.20671999 0.043540999
0.061432999 0.20532 0.045076001
0.099826999 0.20382001 0.068411
0.092940003 0.20306 0.064829998
0.063051999 0.20631 0.045795999
0.071203999 0.20532 0.050315998
0.092442997 0.20388 0.064162999
0.066481002 0.20615 0.048283
0.065521002 0.20619 0.047153998
0.066272996 0.20704 0.047125999
0.064639002 0.20704 0.045960002
0.065392002 0.20688 0.046785001
0.060929 0.20991001 0.043492999
0.092961997 0.20694999 0.063235998
0.094659999 0.20743001 0.063735999
0.095843002 0.20844001 0.064194001
0.099436998 0.20761 0.066788003
0.062185001 0.21087 0.043584999
0.062894002 0.21184 0.043719999
0.065931998 0.21160001 0.044868998
0.066707999 0.21152 0.046105999
0.067818001 0.21175 0.046893999
0.097547002 0.20920999 0.064662002
0.098743998 0.20924 0.065751001
0.064553998 0.21335 0.044422001
0.065707996 0.21333 0.044606999
0.097730003 0.21058001 0.064579003
0.10212 0.21139 0.066312
0.10327 0.21145 0.066973999
0.10266 0.21262001 0.065582998
0.098520003 0.21335 0.063496999
0.10343 0.21277 0.066073
0.10428 0.21348999 0.066529997
0.10095 0.21352001 0.064759001
0.10258 0.21335 0.065582
0.1029 0.21455 0.065462999
0.060199998 0.21641 0.040683001
0.059813999 0.21786 0.039494
0.065159999 0.21607 0.043444999
0.066266999 0.21686999 0.043056998
0.067181997 0.21713001 0.043767001
0.066771001 0.21712001 0.042986002
0.066563003 0.21992999 0.041887999
0.066367999 0.21962 0.041469999
0.065435998 0.2221 0.041324001
0.066849001 0.22165 0.041722
0.0198 0.066666 0.079694003
0.025932999 0.068437003 0.081798002
0.024596 0.068494998 0.081944004
0.015482 0.069095999 0.076398
0.057918999 0.066365004 0.10088
0.058715999 0.066676997 0.10183
0.061531 0.067234002 0.10299
0.013653 0.073307998 0.072581001
0.038004 0.072019003 0.089897998
0.039551001 0.071263999 0.090355001
0.01243 0.073780999 0.072605997
0.012529 0.078093 0.070439003
0.01294 0.079462998 0.070623003
0.016083 0.082607999 0.070917003
0.018856 0.084060997 0.072001003
0.064852998 0.082172997 0.099168003
0.026606999 0.089818001 0.073651999
0.046130002 0.094807997 0.08213
0.046277002 0.095611997 0.083167002
0.050926 0.097102001 0.085368
0.054490998 0.096473999 0.086925
0.060059998 0.099108003 0.089585997
0.062398002 0.098486997 0.091153003
0.059145998 0.099564001 0.088990003
0.063075997 0.10033 0.090444997
0.035213999 0.10376 0.072686002
0.037902001 0.10445 0.073283002
0.037129998 0.10514 0.072944999
0.039269999 0.10471 0.074367002
0.060082 0.10341 0.087608002
0.041972999 0.10537 0.075305998
0.044686001 0.10547 0.077408001
0.067735001 0.10392 0.092008002
0.067350999 0.10282 0.091417
0.068614997 0.10372 0.092614003
0.038214002 0.10599 0.073158003
0.040098 0.10618 0.074005999
0.046 0.10578 0.077903003
0.040950999 0.10628 0.074635997
0.047148999 0.10607 0.078629002
0.03884 0.10736 0.072945997
0.044725001 0.1068 0.077048004
0.048462 0.10691 0.078596003
0.040217001 0.10771 0.073647
0.040856998 0.10798 0.073629998
0.047125001 0.10684 0.078284003
0.046174999 0.10689 0.077404998
0.03167 0.10938 0.068138003
0.039051 0.11004 0.072245002
0.038601998 0.11185 0.071263
0.031355001 0.11507 0.065729
0.060811002 0.11164 0.084564999
0.031206001 0.1138 0.065651
0.03881 0.1144 0.069756001
0.038883999 0.11548 0.069533996
0.041258 0.1182 0.069975004
0.064173996 0.11753 0.083439998
0.065018997 0.11834 0.084074996
0.065583996 0.11909 0.084069997
0.066996001 0.12232 0.083692998
0.069314003 0.12841 0.082149997
0.069874004 0.12862 0.082516
0.046441 0.13162 0.068222001
0.049236 0.13697 0.066761002
0.049871001 0.13855 0.06622
0.073973 0.13771001 0.081272997
0.048955001 0.14027999 0.066243
0.050407998 0.13993999 0.065810002
0.074688002 0.13965 0.081028998
0.051642999 0.14534999 0.065187998
0.052051 0.14661001 0.064822003
0.054455001 0.15033001 0.064378001
0.055257998 0.15017 0.064598002
0.056309 0.15496001 0.063920997
0.077578999 0.15599 0.075112998
0.075277001 0.15976 0.072544001
0.072140001 0.16057999 0.070266001
0.063169003 0.16227999 0.064842001
0.064819999 0.16215999 0.065343
0.065563001 0.16221 0.066004999
0.068576001 0.16227999 0.067390002
0.068644002 0.16304 0.067199998
0.074340999 0.16267 0.071387999
0.070922002 0.16297001 0.069100998
0.075673997 0.16261999 0.072210997
0.066023 0.16339999 0.065787002
0.067322001 0.16361 0.066605002
0.064143002 0.16486 0.06363
0.064322002 0.16632999 0.063497998
0.066281997 0.16708 0.063894004
0.074888997 0.16828001 0.068489
0.076125003 0.16798 0.069977999
0.067558996 0.16884001 0.064165004
0.068373002 0.1684 0.064645998
0.073444001 0.16892999 0.067938
0.071975 0.16960999 0.066408999
0.070395999 0.16946 0.065619998
0.074547 0.18752 0.060858998
0.079499997 0.18749 0.063571997
0.074143 0.18893 0.059516001
0.080950998 0.18708 0.064455003
0.081974998 0.18726 0.065647997
0.082479998 0.18855999 0.064786002
0.072714999 0.18917 0.058672
0.071571 0.19069 0.057365999
0.069986001 0.19074 0.056630999
0.069977 0.1934 0.055321999
0.068003997 0.19375999 0.054892
0.086476997 0.19330999 0.064678997
0.068809003 0.19509 0.054361999
0.088188998 0.19619 0.064792998
0.067479998 0.19922 0.051915001
0.067723997 0.20069 0.05136
0.089376003 0.20024 0.063626997
0.090848997 0.19886 0.06538
0.090103999 0.19874001 0.064540997
0.091252998 0.20012 0.065022998
0.099174999 0.19930001 0.069761999
0.096796997 0.19847 0.069548003
0.090352997 0.20006999 0.064122997
0.090591997 0.20127 0.063871004
0.096102998 0.19963001 0.068167001
0.08495 0.20209 0.060446002
0.068538003 0.20336001 0.050333001
0.073711999 0.20311999 0.053346001
0.076897003 0.20292 0.055413999
0.094656996 0.20134 0.066353001
0.094198003 0.20001 0.066940002
0.095545001 0.20144001 0.066800997
0.074046001 0.20434999 0.053009
0.082331002 0.20403001 0.058587998
0.091775998 0.20148 0.064919002
0.090761997 0.20286 0.063844003
0.060022 0.20473 0.044888999
0.059838999 0.20396 0.045231
0.058446001 0.20427001 0.044516001
0.084951997 0.20316 0.060166001
0.083485998 0.2035 0.059324
0.085988998 0.20333 0.06095
0.089966998 0.20310999 0.062910996
0.099982999 0.2025 0.069183998
0.092302002 0.20261 0.064429
0.060833 0.20386 0.045743998
0.088643 0.20435999 0.061662
0.088785999 0.20344999 0.061902002
0.070289001 0.20576 0.049996
0.087296002 0.20464 0.061110001
0.069238998 0.2062 0.049775001
0.070711002 0.20721 0.049996
0.059395 0.20830999 0.043258999
0.061646 0.21101999 0.043391999
0.098819003 0.20804 0.065692
0.068604 0.21056999 0.048080001
0.068919003 0.21174 0.047869999
0.096483998 0.20941 0.064370997
0.064393997 0.21244 0.044077002
0.09691 0.21208 0.063304998
0.097485997 0.21340001 0.063258
0.10372 0.21209 0.067892
0.10416 0.21306001 0.067763001
0.099529997 0.21374001 0.064314
0.098687001 0.21506999 0.063856997
0.061459001 0.21596999 0.041251
0.10144 0.21436 0.064613
0.059215002 0.21692 0.040047999
0.10339 0.2145 0.066396996
0.066385001 0.2166 0.044431999
0.024315 0.065920003 0.082571
0.024294 0.067372002 0.082188003
0.048548002 0.071007997 0.096552998
0.049796 0.070316002 0.097075999
0.029808 0.071753003 0.083015002
0.028543999 0.071854003 0.082463004
0.029092999 0.072104998 0.084257998
0.031897001 0.073146001 0.088478997
0.031920001 0.072742999 0.087458998
0.032497 0.072645999 0.088627003
0.066195004 0.069848001 0.10536
0.066380002 0.070758998 0.10512
0.068329997 0.076494001 0.1036
0.067667998 0.076586999 0.10319
0.018711001 0.087398 0.070548996
0.046912 0.088169999 0.086484
0.039919998 0.088454001 0.082149997
0.041356999 0.088391997 0.082924001
0.025118999 0.089978002 0.072975002
0.048709001 0.088142999 0.087573998
0.054713 0.087509997 0.091127999
0.056231 0.087609999 0.091885
0.034706999 0.090136997 0.078235
0.035728 0.089722 0.078997999
0.032214999 0.095588997 0.074552
0.038952 0.095738001 0.078722998
0.050545 0.095852003 0.085483
0.057948999 0.096460998 0.089378998
0.059817001 0.096703 0.090176001
0.029046001 0.10026 0.070836999
0.030731 0.10085 0.071494997
0.031863 0.10258 0.071865998
0.060741 0.10164 0.089060999
0.064062998 0.10115 0.091398001
0.035535999 0.10523 0.072529003
0.069302998 0.10211 0.093699001
0.036688998 0.10642 0.072713003
0.030176001 0.10745 0.068890996
0.029689001 0.10753 0.068810999
0.037101001 0.10745 0.072526
0.038849 0.10867 0.072645999
0.060309999 0.10639 0.087154001
0.037803002 0.10928 0.072121002
0.037854001 0.11026 0.071970999
0.037641998 0.11345 0.070145003
0.032520998 0.11514 0.067299001
0.030002 0.11521 0.065463997
0.062079001 0.11266 0.08501
0.062948003 0.11397 0.084700003
0.038226001 0.11603 0.069642
0.039639998 0.11849 0.069656
0.040212002 0.12014 0.069760002
0.040697999 0.12133 0.069146998
0.065733999 0.12005 0.083535001
0.065884002 0.11958 0.085006997
0.066137001 0.12061 0.084406003
0.043573 0.12659 0.068876997
0.069123 0.12759 0.083302997
0.048099 0.13606 0.067006998
0.048163 0.13719 0.066675
0.048423 0.13868999 0.066371001
0.049357999 0.14133 0.065972
0.075081997 0.14077 0.081234001
0.046348002 0.15020999 0.060396999
0.045028999 0.15056001 0.059728
0.054356001 0.15191001 0.063987002
0.051608998 0.15362 0.062615
0.047010001 0.15614 0.057971001
0.051167998 0.15637 0.060582999
0.078181997 0.1541 0.077376001
0.05799 0.15723 0.064176001
0.078194998 0.15557 0.076001003
0.078316003 0.15679 0.076127999
0.076100998 0.16009 0.073409997
0.067348003 0.16252001 0.066400997
0.077350996 0.16389 0.072077997
0.077055 0.16237999 0.072651997
0.078473002 0.16367 0.073253997
0.063378997 0.16353001 0.064935997
0.062582001 0.16516 0.063155003
0.063040003 0.16674 0.062884003
0.077620998 0.16556001 0.072135001
0.064554997 0.16794001 0.063300997
0.077008002 0.16683 0.070693001
0.078029998 0.16670001 0.071773
0.066535003 0.16909 0.063846998
0.074004002 0.16981 0.067787997
0.067699 0.17014 0.064269997
0.075171001 0.16958 0.068740003
0.073340997 0.17183 0.066760004
0.069045 0.1708 0.064499997
0.071771003 0.1714 0.066394001
0.070161998 0.17068 0.065226004
0.075447001 0.18579 0.061980002
0.077220999 0.18640999 0.063124001
0.079104997 0.18555 0.064191997
0.073271997 0.18769 0.059884999
0.077811003 0.1867 0.062835999
0.071974002 0.18783 0.059262998
0.080577001 0.18565001 0.065071002
0.071110003 0.1894 0.058125
0.083696999 0.18962 0.065401003
0.068743996 0.19135 0.056541
0.069176003 0.19259 0.055837002
0.086975999 0.19365001 0.065865003
0.067855 0.19656 0.053335
0.087957002 0.1948 0.065812998
0.088426001 0.19738001 0.064475
0.090510003 0.19629 0.066689998
0.088684998 0.19513001 0.066207998
0.089015 0.19629 0.065595001
0.090547003 0.19746999 0.066055
0.089206003 0.19776 0.065252997
0.095528997 0.19853 0.069182999
0.098728001 0.19819 0.069812
0.099621996 0.19828001 0.071144
0.099822998 0.19947 0.070950001
0.099997997 0.20114 0.070542999
0.092468001 0.19999 0.065935999
0.057978999 0.20284 0.044881999
0.068239003 0.20214 0.050542001
0.077010997 0.20401999 0.055497002
0.079646997 0.20401999 0.057597
0.074831001 0.20412999 0.054147001
0.075829998 0.20434999 0.055063002
0.10031 0.20249 0.070137002
0.067065001 0.20347001 0.050055001
0.068836004 0.20471001 0.049647
0.063648999 0.20502999 0.047258999
0.067291997 0.20421 0.049511001
0.072672002 0.20593999 0.052416001
0.062486 0.20516001 0.04651
0.066085003 0.20497 0.048988
0.065061003 0.20474 0.048315
0.089814998 0.20457999 0.063137002
0.091417998 0.2045 0.063303001
0.067787997 0.20629001 0.048957001
0.091403 0.2062 0.063553996
0.10028 0.2054 0.068042003
0.099864997 0.2053 0.067479998
0.069127001 0.20742001 0.049224
0.067914002 0.2076 0.048898999
0.071594 0.20764001 0.051146001
0.059574999 0.20956001 0.043446999
0.056074001 0.20990001 0.041106001
0.057225 0.20851 0.041646
0.055590998 0.20862 0.041313998
0.068338998 0.20924 0.048085
0.057622999 0.20998 0.041668002
0.058759 0.2096 0.041949999
0.057948001 0.21096 0.041195001
0.059186999 0.21098 0.04171
0.094330996 0.20818 0.063923001
0.093015 0.20834 0.063221999
0.099895 0.20939 0.066877
0.059307002 0.21259999 0.041760001
0.060228001 0.21084 0.042610999
0.060346998 0.21222 0.042078
0.061539002 0.21239001 0.043400001
0.057978 0.21228001 0.041182999
0.096482001 0.21084 0.063946001
0.10148 0.21106 0.067101002
0.062757999 0.21596 0.042105
0.10413 0.2139 0.067066997
0.067884997 0.21681 0.044845998
0.099795997 0.21468 0.064269997
0.10147 0.21627 0.064825997
0.10269 0.21573 0.065645002
0.059827998 0.21923 0.040026002
0.067252003 0.22026999 0.043122001
0.067477003 0.22182 0.042874001
0.066453002 0.22242001 0.042022001
0.052073002 0.067472003 0.098311
0.052322 0.069073997 0.097902998
0.063285001 0.067523003 0.10503
0.034097001 0.071939997 0.086874999
0.047731001 0.070782997 0.095693998
0.035861 0.072417997 0.089776002
0.012012 0.076995 0.071217999
0.062026002 0.086909004 0.096212
0.024019999 0.090031996 0.072668001
0.036786001 0.089410998 0.079152003
0.039852001 0.095660001 0.078993998
0.04445 0.096091002 0.081920996
0.039859999 0.096538 0.080687001
0.027252 0.098796003 0.070669003
0.056237001 0.096814997 0.089867003
0.058935001 0.097064003 0.091282003
0.029302999 0.10094 0.071238004
0.054056998 0.099702999 0.086108997
0.061625998 0.10169 0.089523003
0.033511002 0.10418 0.072215997
0.033813 0.10498 0.072228998
0.066377997 0.10398 0.09166
0.035479002 0.10647 0.07243
0.060224999 0.10475 0.087512001
0.028201001 0.11145 0.065954998
0.037397999 0.11499 0.070023
0.061574001 0.11146 0.085536003
0.030506 0.11657 0.065603003
0.031200999 0.11624 0.066207998
0.038288001 0.11747 0.069159999
0.064557001 0.11677 0.084985003
0.06397 0.11554 0.085026003
0.041214 0.12262 0.069100998
0.043625001 0.1258 0.069055997
0.071810998 0.13285001 0.082199
0.075617 0.14187001 0.080805004
0.076617002 0.14375 0.080263004
0.052232001 0.14731 0.064487003
0.052618999 0.14915 0.064199999
0.050361 0.14816999 0.063887
0.052676 0.15065999 0.063615002
0.053114001 0.15225001 0.063432001
0.054623 0.15336999 0.063969001
0.054683 0.15523 0.063146003
0.078441001 0.15305001 0.077643998
0.077212997 0.15803 0.074537002
0.074330002 0.16153 0.071792997
0.075579002 0.16143 0.072553001
0.061726999 0.16256 0.064916
0.072899997 0.16181 0.071052998
0.064815 0.16340999 0.065467
0.077834003 0.16227999 0.073922999
0.061266001 0.16506 0.062744997
0.062178999 0.16398001 0.064034
0.078689002 0.1654 0.072988003
0.061919998 0.16684 0.062490001
0.076815002 0.16794001 0.070652001
0.075948 0.16993999 0.069452003
0.066330999 0.17079 0.063427001
0.068290003 0.17151999 0.064009003
0.074321002 0.17106999 0.067446999
0.075493 0.17144001 0.068373002
0.069306001 0.17189001 0.064331003
0.070753999 0.17231999 0.064882003
0.072159998 0.17239 0.065746002
0.074307002 0.18376 0.063066997
0.074881002 0.18499 0.062176
0.075953998 0.18501 0.062721997
0.078204997 0.18466 0.064741999
0.077023 0.18497001 0.063336998
0.074077003 0.18569 0.061328001
0.07299 0.18649 0.060460001
0.070477001 0.18794 0.058708001
0.069458 0.18856999 0.058017001
0.069871001 0.18946999 0.057645999
0.083481997 0.18846001 0.066142999
0.067518003 0.19512001 0.054164998
0.089831002 0.19524001 0.066946998
0.097914003 0.19701999 0.070537001
0.096097 0.19598 0.070684999
0.096520998 0.19733 0.069950998
0.099183001 0.19701999 0.071805
0.091683999 0.19854 0.066674002
0.092840999 0.19755 0.068042003
0.093801998 0.1988 0.067486003
0.066439003 0.2008 0.051088002
0.066372998 0.20167001 0.050586998
0.059438001 0.20276 0.045791
0.094939001 0.19984999 0.067557998
0.057255998 0.20455 0.044475
0.078137003 0.20400999 0.056607999
0.065324999 0.20377 0.049369998
0.064630002 0.20377 0.048537999
0.080757 0.20390999 0.058391001
0.084821001 0.20463 0.060137998
0.074441001 0.20576 0.054026999
0.073789999 0.20573001 0.053162001
0.088698998 0.20604999 0.061804999
0.089993 0.20543 0.062546998
0.056609999 0.20708001 0.042252999
0.055013001 0.20716999 0.041951999
0.058123 0.20852 0.042824998
0.069725998 0.20894 0.049610998
0.10062 0.20664001 0.068020001
0.10084 0.20811 0.067901999
0.056414999 0.21146999 0.040706001
0.094846003 0.20952 0.063739002
0.060350999 0.21391 0.041613001
0.062153999 0.21352001 0.042808
0.063362002 0.21340001 0.043889001
0.067002997 0.21342 0.045945
0.065902002 0.21496999 0.044868998
0.064705998 0.21489 0.04386
0.095402002 0.21269999 0.062715001
0.063755997 0.21501 0.043437
0.062475 0.21512 0.042429999
0.096058004 0.214 0.062743999
0.097560003 0.21479 0.063623004
0.099918 0.21637 0.064020999
0.068136998 0.2186 0.044581998
0.018797001 0.067598 0.079438999
0.018634001 0.067739002 0.080344997
0.016553 0.068673998 0.078744002
0.025544999 0.069958001 0.081777997
0.057399999 0.066693999 0.10304
0.057813998 0.067015998 0.10227
0.061634999 0.067662999 0.10507
0.031785 0.072130002 0.085828997
0.033048999 0.072304003 0.087104999
0.029185001 0.072926998 0.086351
0.030517001 0.072628997 0.086306997
0.030362001 0.073131002 0.087623999
0.034231 0.072529003 0.089065
0.039701998 0.071916997 0.092715003
0.013169 0.080371998 0.070505999
0.066872001 0.07858 0.10234
0.066178001 0.079713002 0.10235
0.018881001 0.086737998 0.071785003
0.043758001 0.088224001 0.084576003
0.060446002 0.087185003 0.094759002
0.062348999 0.087288998 0.097268999
0.052946001 0.087967001 0.090219997
0.057162002 0.087369002 0.092656001
0.035836998 0.095668003 0.078378998
0.031163 0.09612 0.074646004
0.038716 0.096238002 0.079829
0.025049999 0.099069998 0.069665998
0.02606 0.099206999 0.069808997
0.024886001 0.098076001 0.069858
0.025722999 0.098127 0.070092998
0.057900999 0.097139001 0.09065
0.060070001 0.097479999 0.091256998
0.032504998 0.10405 0.072089002
0.064337999 0.10224 0.091972001
0.060860001 0.10306 0.088808
0.065935001 0.10474 0.09206
0.067551002 0.10475 0.091773003
0.035975002 0.10769 0.072040997
0.031523999 0.10979 0.069504
0.036387999 0.10926 0.071864001
0.032035001 0.10986 0.069268003
0.028155001 0.11285 0.065548003
0.032784998 0.11233 0.068815
0.036669999 0.1107 0.071808003
0.036697999 0.11198 0.071212001
0.028894 0.11392 0.065513
0.033339001 0.11398 0.068428002
0.033307001 0.11482 0.067823
0.032680999 0.11611 0.066719003
0.038596001 0.11866 0.069500998
0.065651998 0.11847 0.085221
0.068737 0.12621 0.084579997
0.067468002 0.12451 0.084204003
0.068325996 0.12606999 0.083667003
0.044101998 0.12818 0.069294997
0.073972002 0.13849001 0.081790999
0.050570998 0.14689 0.064507
0.05119 0.14944001 0.063588001
0.051688001 0.15082 0.063644998
0.043113999 0.15206 0.058341
0.051277999 0.1524 0.062899999
0.053750001 0.15333 0.063754
0.045430001 0.15474001 0.058109999
0.044578999 0.15535 0.058975998
0.053861 0.15443 0.063322
0.055613 0.15606999 0.063562997
0.05652 0.15606 0.064161003
0.07846 0.15583 0.077186003
0.077845998 0.15814 0.075617
0.060097001 0.16178 0.064712003
0.076219998 0.16134 0.073445
0.077634998 0.16147 0.074739002
0.060988002 0.16410001 0.063101999
0.059847999 0.16416 0.062531002
0.059957001 0.16569 0.062263001
0.062153999 0.16793001 0.062609002
0.063051999 0.16791999 0.062922001
0.063702002 0.16923 0.062624998
0.064831004 0.16915999 0.063128002
0.065283 0.17030001 0.062982
0.076918997 0.16941001 0.070275001
0.067020997 0.17143001 0.063336
0.076664001 0.17155001 0.069472
0.075556003 0.17227 0.068218999
0.074331 0.17244001 0.067199998
0.069661997 0.17251 0.064612001
0.06797 0.17310999 0.063484997
0.072990999 0.17216 0.066600002
0.072194003 0.17373 0.065591998
0.074244998 0.17412999 0.066542
0.069663003 0.17425001 0.063932002
0.071405999 0.17431 0.064677
0.068493001 0.17433 0.063371003
0.073853001 0.17414001 0.066357002
0.073443003 0.17512 0.065787002
0.070044003 0.17576 0.063709997
0.072439998 0.17581999 0.064865999
0.071226001 0.17609 0.064249001
0.07423 0.18229 0.063431002
0.073314004 0.18370999 0.062447999
0.075687997 0.18248001 0.064130001
0.075839996 0.18333 0.063496999
0.076958999 0.18335 0.064703003
0.072614998 0.18449 0.061392002
0.077964 0.1833 0.065206997
0.079421997 0.18395001 0.065843999
0.071647003 0.18505999 0.060862001
0.070959002 0.18497001 0.060199998
0.079911999 0.18443 0.065332003
0.070432998 0.18657 0.059092999
0.071838997 0.18641999 0.059907999
0.081183001 0.18593 0.065812998
0.082708001 0.18765999 0.066090003
0.084430002 0.18984 0.066344
0.068075001 0.19291 0.055353001
0.06797 0.19131 0.055875
0.086282 0.1926 0.066813998
0.088211998 0.19379 0.066981003
0.097239003 0.19451 0.071393996
0.097476996 0.19561 0.070952997
0.098748997 0.19591001 0.072066002
0.067280002 0.19808 0.052967001
0.095803 0.19699 0.069945
0.091776997 0.19742 0.067506
0.058933999 0.20155001 0.046509001
0.057553001 0.20163 0.045743
0.056293 0.20166001 0.0451
0.057289001 0.20288 0.045079
0.063846998 0.20265 0.049150001
0.063211001 0.20401999 0.047828998
0.057312001 0.20596001 0.043983001
0.056008 0.20596001 0.043191001
0.055046 0.205 0.04321
0.054933 0.20582999 0.042247001
0.085816003 0.20443 0.061048001
0.10072 0.20392001 0.069798
0.072861999 0.20716999 0.052547
0.10217 0.20502999 0.070192002
0.10211 0.20358001 0.070326
0.10322 0.20498 0.071185999
0.10108 0.20491 0.069366999
0.10152 0.20641001 0.069044001
0.071175002 0.20893 0.050103001
0.091688998 0.20722 0.063158996
0.10234 0.20631 0.069863997
0.069374003 0.21027 0.048976
0.10117 0.20757 0.068637997
0.10047 0.20893 0.06763
0.056924999 0.2121 0.040878002
0.059556 0.21393999 0.041731998
0.059803002 0.21551 0.041142002
0.060660999 0.21517999 0.041726999
0.067198001 0.21517 0.045616999
0.067791998 0.21335 0.046898998
0.094847001 0.21112999 0.063662998
0.10239 0.21109 0.067818001
0.098878004 0.21625 0.063784003
0.020126 0.067239001 0.081529997
0.052531 0.067031004 0.10024
0.054258998 0.066717997 0.10126
0.014369 0.069724999 0.076798998
0.025614001 0.070877001 0.081844002
0.02726 0.071967997 0.082654998
0.030707 0.071961001 0.084798001
0.064673997 0.068425998 0.1062
0.025877999 0.073526002 0.086222999
0.027040999 0.073045999 0.084550999
0.027643001 0.073537 0.086740002
0.041157998 0.071796 0.093570001
0.042838998 0.071392 0.094021
0.042456001 0.071962997 0.095238999
0.043573 0.071734004 0.093800999
0.011721 0.074063003 0.072967
0.011357 0.076869003 0.071866997
0.011485 0.078009002 0.071107998
0.068019003 0.076512001 0.10491
0.067847997 0.076981999 0.10347
0.067134999 0.078399003 0.10394
0.015088 0.082902998 0.070972003
0.016786 0.083903 0.071598999
0.01528 0.083659999 0.071737997
0.017263999 0.084403999 0.072484002
0.064837001 0.08027 0.10086
0.018818 0.085262999 0.072255999
0.018145001 0.086055003 0.072169997
0.065824002 0.083541997 0.1009
0.067388996 0.084766001 0.10026
0.066625997 0.084082998 0.10129
0.067258 0.086139001 0.10009
0.058031999 0.087263003 0.093754999
0.046553999 0.088633999 0.087843001
0.051798999 0.088367 0.089571998
0.027815999 0.089809999 0.075051002
0.047421001 0.096303001 0.084799998
0.026637999 0.097663 0.071261004
0.049759001 0.095647 0.086492002
0.051073998 0.097296998 0.085845999
0.024288001 0.098017 0.070698
0.02747 0.099766001 0.070575997
0.025534 0.10042 0.069674999
0.026101001 0.10006 0.070133999
0.027378 0.10047 0.070995003
0.054099001 0.098557003 0.088018999
0.029246001 0.10209 0.071269996
0.068088003 0.099094003 0.095919997
0.057759002 0.10012 0.088473
0.069679998 0.10033 0.096487001
0.069913 0.099600002 0.095303997
0.062762998 0.10203 0.091164
0.062452 0.10111 0.090640001
0.069682002 0.10052 0.095141001
0.065380998 0.10307 0.092148997
0.061085001 0.10319 0.089281999
0.068285003 0.10569 0.093093999
0.067769997 0.10602 0.091935001
0.02782 0.11054 0.066981003
0.032164998 0.11068 0.069185004
0.060534 0.10758 0.086920001
0.03255 0.11134 0.069738999
0.060958002 0.10891 0.086158
0.061165001 0.11026 0.086042002
0.061110001 0.10904 0.086823002
0.036180999 0.11291 0.070694998
0.061716001 0.11038 0.086851001
0.036924999 0.11514 0.070151001
0.036516 0.11341 0.070386
0.029201001 0.11563 0.065476
0.029579001 0.11659 0.065367997
0.032414 0.11693 0.067705996
0.037671 0.11828 0.069197997
0.065206997 0.11705 0.086232997
0.039145999 0.12059 0.070038997
0.041696001 0.12437 0.069761999
0.067047998 0.12359 0.084279999
0.069135003 0.12816 0.084142998
0.04541 0.13077 0.068925999
0.046038002 0.13153 0.068415001
0.071354002 0.13166 0.08241
0.046962999 0.13597 0.067008004
0.047276001 0.13714001 0.067038998
0.073625997 0.13703001 0.082970001
0.048050001 0.14071 0.066435002
0.049585 0.14269 0.065962002
0.049725998 0.14437 0.065572999
0.049713001 0.14557999 0.064625002
0.048958 0.14569999 0.064094998
0.04972 0.14654 0.064025
0.048298001 0.14598 0.064505003
0.076784 0.14462 0.080813996
0.076892003 0.14526001 0.081788003
0.077444002 0.14623 0.081367001
0.077244997 0.14651 0.080121003
0.077697001 0.14801 0.080807
0.047973 0.15064 0.061694
0.049835999 0.15110999 0.062724002
0.048402999 0.15132999 0.062252998
0.042325001 0.15182 0.058952
0.042396002 0.15329 0.058352001
0.043292999 0.15294001 0.057969
0.051561002 0.15447 0.062058002
0.051403999 0.15589 0.062426001
0.054359999 0.1565 0.063376002
0.049750999 0.15745001 0.060869001
0.056912001 0.15746 0.063855998
0.058249 0.15832999 0.064375997
0.058949001 0.16509999 0.061817002
0.079079002 0.16231 0.074722998
0.079053 0.16432001 0.074051999
0.060651001 0.16685 0.062174
0.062431999 0.16907001 0.06236
0.077892996 0.1683 0.071611002
0.064539 0.17007001 0.062760003
0.065490998 0.17194 0.062927999
0.076645002 0.17242 0.069035999
0.066864997 0.17306 0.063013002
0.067337997 0.1745 0.062981002
0.076122999 0.17387 0.068154998
0.076424003 0.17388999 0.068663001
0.076058999 0.17478 0.067552
0.068265997 0.17574 0.063038997
0.069004998 0.17699 0.063054003
0.074079998 0.17670999 0.065494999
0.075230002 0.17686 0.066656001
0.070487 0.17734 0.063353002
0.075465001 0.17591999 0.067051001
0.071346 0.17707001 0.064021997
0.072572999 0.1769 0.064638004
0.073078997 0.17824 0.064493999
0.070525996 0.17840999 0.062957004
0.074224003 0.17824 0.065425001
0.075208999 0.17773999 0.066042997
0.071754999 0.17888001 0.063973002
0.073026001 0.17994 0.063975997
0.071657002 0.17972 0.063295998
0.074652001 0.17984 0.064663999
0.073307998 0.18084 0.063450001
0.071309999 0.18020999 0.062762
0.074864998 0.18073 0.064717002
0.071667999 0.18155 0.062401
0.073016003 0.18234 0.062743001
0.071630001 0.18260001 0.061779
0.076778002 0.18206 0.065507002
0.076080002 0.18099999 0.065318003
0.077878997 0.18244 0.065898001
0.070474997 0.18239 0.061539002
0.070988998 0.18421 0.061097
0.068999 0.18712001 0.058593001
0.082438 0.18718 0.066996999
0.068213999 0.18982001 0.057371002
0.067221001 0.19119 0.05604
0.067271002 0.19223 0.055702001
0.085169002 0.19125 0.066620998
0.066662997 0.19441 0.055105999
0.087917 0.19225 0.067713
0.088574 0.19268 0.068136998
0.088982999 0.19389001 0.067388996
0.089378998 0.19369 0.068232998
0.097668 0.19307999 0.072668001
0.097078003 0.19332001 0.072460003
0.098534003 0.19446 0.072369002
0.096561 0.19506 0.071323998
0.094789997 0.19603001 0.070189998
0.066076003 0.19786 0.05305
0.092244998 0.19654 0.068258002
0.091743 0.19678 0.067777
0.057041001 0.20040999 0.045968
0.056403 0.20063999 0.045522999
0.065407 0.19956 0.051477998
0.066108003 0.19942001 0.051583
0.095169 0.19717 0.069816001
0.058357999 0.20028 0.047247998
0.094494998 0.19863001 0.068231001
0.059726 0.20228 0.046867002
0.060238998 0.20315 0.046905998
0.060787998 0.20239 0.047387
0.063322 0.20171 0.049348999
0.062492002 0.20274 0.048631001
0.06521 0.20254 0.050354
0.065126002 0.20288999 0.049956001
0.063270003 0.20283 0.048742998
0.062141001 0.20413999 0.047228001
0.10183 0.20253 0.071027003
0.10199 0.20068 0.071774997
0.10111 0.20125 0.071427003
0.10248 0.20184 0.071601003
0.054861002 0.20484 0.042750999
0.080578998 0.20505001 0.05909
0.082107 0.20536 0.059656002
0.081380002 0.20487 0.059055999
0.057932001 0.20723 0.043483999
0.076017 0.20611 0.05576
0.083033003 0.20551001 0.060288999
0.083732001 0.20484 0.059797
0.10284 0.20333999 0.071193002
0.085851997 0.20539001 0.061166
0.084596001 0.20551001 0.060679998
0.073441997 0.20697001 0.053015999
0.087619998 0.2058 0.061875999
0.088574998 0.20681 0.062247999
0.090172999 0.20647 0.062895
0.071369998 0.20856 0.051174
0.071575999 0.20806 0.051856
0.069973998 0.21065 0.049906999
0.092166997 0.20852 0.063100003
0.093166001 0.20942 0.063732997
0.10155 0.20795 0.069381997
0.057854999 0.21404999 0.041030999
0.068714999 0.21247 0.047998998
0.068953 0.21262001 0.048223998
0.058449 0.21349999 0.041232999
0.10139 0.21077999 0.067449003
0.066901997 0.21620999 0.045402002
0.058216002 0.21788999 0.039540999
0.095899999 0.21534 0.063477002
0.10284 0.21475001 0.067547001
0.068717003 0.21753 0.047196001
0.068236999 0.21743999 0.045793001
0.068643004 0.21916001 0.046358
0.068781003 0.21873 0.045414001
0.10154 0.21615 0.066615
0.067952 0.22013 0.044245999
0.060897999 0.22012 0.040275998
0.060823999 0.22097 0.040176999
0.10009 0.2174 0.063956998
0.099632002 0.21764 0.064749002
0.10097 0.21709 0.064682998
0.063556001 0.22224 0.041444
0.067102 0.22257 0.043009002
0.067211002 0.22312 0.043563999
0.063015997 0.23851 0.033755001
0.063723996 0.23946001 0.033392001
0.064269997 0.23828 0.034253001
0.064820997 0.23875999 0.034758002
0.064259999 0.23962 0.033860002
0.065351002 0.23965 0.034743
0.062729999 0.24023999 0.033284999
0.063146003 0.24155 0.033923
0.023136999 0.068956003 0.082336999
0.023042001 0.067833997 0.082955003
0.055124 0.066601001 0.10196
0.056389999 0.066664003 0.10261
0.024517 0.070197999 0.082023002
0.051945999 0.066809997 0.098871
0.052942 0.067805 0.099839002
0.013629 0.070919 0.075855002
0.059167001 0.066901997 0.10354
0.060453001 0.067418002 0.10459
0.012732 0.071767002 0.075098999
0.063000999 0.067573003 0.106
0.052283 0.069875002 0.098628998
0.02524 0.071667999 0.081766002
0.012723 0.073207997 0.073333003
0.034903999 0.071976997 0.088257
0.012124 0.074957997 0.072135001
0.066947997 0.070978999 0.10592
0.065812998 0.069968 0.1071
0.010835 0.075838 0.072103001
0.067730002 0.072835997 0.10665
0.068016 0.074216001 0.1064
0.01181 0.079350002 0.070817001
0.067579001 0.077785 0.10456
0.013922 0.082170002 0.070993997
0.017561 0.087350003 0.071211003
0.017004 0.08811 0.071165003
0.017914001 0.088973999 0.070285
0.067287996 0.086338997 0.10107
0.066683002 0.086832002 0.099747002
0.059119999 0.087541997 0.095018998
0.060136002 0.087479003 0.096137002
0.022252001 0.090434 0.072405003
0.049249999 0.088445999 0.088289998
0.035890002 0.090268001 0.080775999
0.03452 0.095484003 0.077983998
0.050928999 0.096358001 0.087052003
0.026365001 0.097834997 0.072159
0.041345 0.096942998 0.081023
0.024215 0.099549003 0.069623999
0.040552001 0.098757997 0.080544002
0.051401 0.097355001 0.086724997
0.054203998 0.097476996 0.087990001
0.041085999 0.099045999 0.080335997
0.024736 0.10064 0.069980003
0.042133 0.099257998 0.08061
0.043830998 0.098034002 0.082429998
0.044188 0.098691002 0.081643
0.053659 0.098183997 0.087187
0.059029002 0.098109998 0.091205999
0.026102999 0.10079 0.070492998
0.05105 0.097898997 0.085566998
0.030833 0.10278 0.071667001
0.065673999 0.099206001 0.092937998
0.030072 0.10244 0.07158
0.052315 0.099669002 0.086158998
0.054763 0.10044 0.087623999
0.06129 0.099800996 0.090773001
0.062935002 0.099793002 0.092053004
0.065527 0.10007 0.093998
0.058256999 0.10129 0.088942997
0.057746999 0.1005 0.088896997
0.059953 0.10095 0.089984
0.069922999 0.10144 0.095646001
0.030785 0.10447 0.071611002
0.062035002 0.10265 0.090101004
0.061772 0.1037 0.090116002
0.032350998 0.10576 0.071438
0.034391001 0.10641 0.072039001
0.061303999 0.10463 0.088835999
0.033406999 0.1058 0.072126999
0.033852998 0.10694 0.071877003
0.034347001 0.10823 0.071659997
0.030091001 0.10766 0.070354998
0.068777002 0.10432 0.093514003
0.029189 0.10885 0.069284998
0.066583 0.10604 0.091471002
0.031474002 0.10916 0.071002997
0.028181 0.10977 0.067982003
0.060568999 0.10664 0.088007003
0.060679998 0.10717 0.087743998
0.035533 0.10935 0.071672
0.03576 0.11041 0.071547002
0.026856 0.11153 0.066872999
0.036129002 0.11161 0.071010999
0.027772 0.11439 0.065468997
0.033737998 0.11369 0.069397002
0.035886001 0.11516 0.070235997
0.061937999 0.11118 0.086595997
0.035425998 0.11346 0.070384003
0.028321 0.1157 0.065058
0.028774001 0.11714 0.064957
0.036267001 0.11629 0.069813997
0.030219 0.11823 0.066096999
0.030146999 0.11741 0.065775998
0.037294 0.11721 0.069178998
0.063423 0.11406 0.085482001
0.039244 0.11923 0.069604002
0.066602997 0.11971 0.085506998
0.066751003 0.12115 0.085166
0.067043997 0.12288 0.084798001
0.042328998 0.12602 0.069646999
0.044183999 0.13022 0.068860002
0.044484001 0.13095 0.068728998
0.070376001 0.12991001 0.083237
0.069748998 0.12878001 0.083948001
0.045134999 0.13228001 0.068333
0.071252003 0.13158 0.084106997
0.045554999 0.13372 0.067905001
0.045455001 0.13505 0.067408003
0.046066001 0.13638 0.067331001
0.072818004 0.13581 0.082906
0.047736999 0.13971999 0.066970997
0.048705999 0.14195 0.066161998
0.074458003 0.13997 0.082377002
0.075645 0.14157 0.082110003
0.049068999 0.1429 0.065838002
0.048455998 0.14429 0.064521
0.048588999 0.14494 0.064461
0.048402999 0.14747 0.064104997
0.076415002 0.14382 0.082249001
0.045712002 0.15082 0.061585002
0.050685 0.15101001 0.063261002
0.052294001 0.1542 0.062948003
0.053327002 0.15498 0.063086003
0.078652002 0.15164 0.080015004
0.078144997 0.15072 0.079461001
0.079154 0.15350001 0.079520002
0.051119 0.15688001 0.061802
0.054981001 0.15798 0.063257001
0.078731999 0.15741999 0.077656001
0.056990001 0.15868001 0.063592002
0.057969 0.15904 0.063995004
0.058219999 0.16042 0.064005002
0.059324 0.16031 0.064691998
0.077522002 0.16017 0.075253002
0.078176998 0.15917 0.076071002
0.076848999 0.16124 0.074075997
0.061322 0.16344 0.064335003
0.061051998 0.16281 0.064631999
0.078276001 0.16178 0.074817002
0.079039998 0.16123 0.075400002
0.058704998 0.16299 0.063846
0.059363998 0.16379 0.063345999
0.060931999 0.16376001 0.063553996
0.05807 0.16429999 0.061781999
0.058192998 0.1646 0.062065002
0.060157001 0.16306999 0.064475
0.080292001 0.1628 0.076016001
0.079576999 0.1629 0.075044997
0.058235999 0.16602001 0.061627001
0.059776001 0.16706 0.061526999
0.060586002 0.16853 0.062104002
0.061383002 0.16819 0.062337998
0.078576997 0.16705 0.072379999
0.079145998 0.16689999 0.072994001
0.060532998 0.16986001 0.061974999
0.061960001 0.16981 0.062091
0.079054996 0.16834 0.073100001
0.078441001 0.16848999 0.072244003
0.062964998 0.17005 0.062414002
0.063274004 0.17055 0.062501997
0.078238003 0.16985001 0.071636997
0.063809998 0.17215 0.062449999
0.077739999 0.17105 0.070504002
0.064811997 0.17242 0.062573999
0.077849999 0.17267001 0.070069999
0.065090001 0.17332999 0.062581003
0.065591 0.17473 0.062339
0.066809997 0.17526001 0.062545002
0.077197999 0.17418 0.069124997
0.077412002 0.17575 0.068526998
0.067558996 0.17619 0.062542997
0.066242002 0.17651001 0.062017001
0.076876998 0.17703 0.067840002
0.067899004 0.17771 0.061958
0.076604001 0.17808001 0.066968001
0.06859 0.17866001 0.062208001
0.075756997 0.17945001 0.065707996
0.076086 0.17926 0.066078
0.077160999 0.17906 0.066969998
0.069334 0.17964 0.061827999
0.069369003 0.18147001 0.061453
0.077117004 0.18098 0.066175997
0.069521002 0.18231 0.061374001
0.078212 0.18200999 0.066251002
0.078818999 0.18243 0.066857003
0.079469003 0.18302 0.066726997
0.068911001 0.18268999 0.060757
0.069287002 0.18408 0.060309
0.070331 0.18550999 0.059711002
0.068131 0.18571 0.059406999
0.080571003 0.18449999 0.067354999
0.068631999 0.18705 0.058495998
0.082548998 0.18638 0.067744002
0.068085998 0.18822999 0.057868998
0.068370998 0.18903001 0.05759
0.068058997 0.18921 0.057312999
0.067079999 0.18997 0.057084002
0.084045 0.18883 0.067910999
0.085468002 0.19011 0.068126
0.084709004 0.18970001 0.067403004
0.086166002 0.19146 0.067394003
0.086666003 0.19219001 0.067045003
0.087453 0.19149999 0.067993999
0.087403998 0.19228999 0.067213997
0.096695997 0.19267 0.072577998
0.098039001 0.1929 0.073302001
0.097438 0.19185001 0.073665999
0.067088 0.19659001 0.053709
0.098812997 0.19441 0.073252998
0.096258998 0.19399001 0.071723998
0.095159002 0.19487999 0.071392998
0.066156998 0.19683 0.053309999
0.065393001 0.19813 0.052406002
0.090630002 0.19513001 0.068447001
0.092481002 0.19614001 0.068802997
0.055 0.19806001 0.046360999
0.055436999 0.19952001 0.045913
0.056589998 0.19893 0.046930999
0.055748001 0.19933 0.045891002
0.091007002 0.19593 0.068099998
0.093217 0.19713999 0.068654999
0.099554002 0.197 0.072524004
0.05576 0.20048 0.045364998
0.057250999 0.19988 0.046757001
0.093865 0.19751 0.069293998
0.064657003 0.20096 0.051197
0.063426003 0.20008001 0.050859001
0.063750997 0.20100001 0.049867999
0.10024 0.19848999 0.072662003
0.099538997 0.19873001 0.072108001
0.055911001 0.20209999 0.045205999
0.056276999 0.20369001 0.044798002
0.10181 0.19983999 0.072434001
0.10079 0.20008001 0.071790002
0.10201 0.19963001 0.072842002
0.054386001 0.20390999 0.043370001
0.05384 0.20453 0.042879
0.053950999 0.20351 0.043308001
0.056416001 0.20461001 0.044601999
0.061294001 0.20296 0.048142999
0.055992998 0.20460001 0.044020999
0.053587999 0.20533 0.042985
0.053725999 0.20644 0.042918999
0.056901999 0.20568 0.044055
0.10093 0.20226 0.071166001
0.10211 0.20128 0.072979003
0.077918001 0.20578 0.057105001
0.079190999 0.20486 0.057631999
0.076787002 0.20473 0.055989001
0.076736003 0.20614 0.056474
0.077762999 0.20461001 0.056758001
0.054113001 0.20747 0.042700998
0.10273 0.20395 0.07198
0.086792 0.20562001 0.06177
0.087529004 0.20641001 0.061965
0.10278 0.2053 0.071658
0.073705003 0.20738 0.053653002
0.072522998 0.20768 0.052354999
0.088462003 0.20782 0.062602997
0.054469999 0.20936 0.042160001
0.054949999 0.21032 0.041391999
0.10321 0.20655 0.071511
0.054765999 0.21084 0.041914999
0.091254003 0.20766 0.063349001
0.070565 0.21035001 0.050779
0.091656998 0.20886999 0.063372999
0.056194998 0.213 0.040541999
0.069934003 0.21201999 0.049672998
0.093943 0.20953999 0.063778996
0.10103 0.20958 0.068157002
0.093235999 0.21012001 0.063437998
0.067852996 0.21397001 0.047469001
0.058501001 0.21567 0.041404001
0.059154 0.21496999 0.041416001
0.068196997 0.21510001 0.047088001
0.094435997 0.2119 0.063147001
0.10288 0.21106 0.069631003
0.094008997 0.21297 0.062893003
0.10393 0.21163 0.068898
0.067584999 0.21603 0.045855001
0.057507001 0.21837001 0.040047001
0.097367004 0.21549 0.063619003
0.10206 0.21557 0.067189001
0.058517002 0.21865 0.039855
0.068415001 0.21958999 0.045235001
0.098329 0.21832 0.064194001
0.098820001 0.21708 0.063478
0.067781001 0.22057 0.043880001
0.062167 0.22225 0.040723
0.06233 0.23882 0.033326
0.062430002 0.23752999 0.034162
0.063612998 0.23720001 0.035190001
0.065084003 0.2384 0.035418
0.065880001 0.24112 0.034965999
0.066615 0.23977 0.035783999
0.064488001 0.24172001 0.034081001
0.064227998 0.24070001 0.034001999
0.023704 0.066367999 0.083180003
0.022639999 0.066487998 0.083052002
0.021291001 0.066775002 0.082048997
0.017557001 0.067896999 0.079800002
0.02369 0.067400999 0.083162002
0.015678 0.068963997 0.077719003
0.014342 0.070456997 0.076130003
0.052995998 0.069495 0.099785998
0.063914999 0.067987002 0.10631
0.011481 0.073016003 0.073972002
0.051396001 0.070487 0.097964004
0.026206 0.072715998 0.082583003
0.06532 0.068980001 0.10724
0.039291002 0.072389998 0.092807002
0.038695998 0.071921997 0.091095999
0.037565 0.073321998 0.095973
0.038270999 0.073252998 0.094203003
0.039039001 0.072901003 0.095247999
0.068040997 0.076027997 0.10498
0.012252 0.081248 0.070661001
0.012777 0.082024999 0.071245998
0.066583 0.079397999 0.10341
0.014244 0.083774 0.071305998
0.064992003 0.081326999 0.10191
0.064768001 0.082030997 0.10013
0.064594999 0.081534997 0.10074
0.065227002 0.082773998 0.10115
0.016788 0.089383997 0.070482999
0.018354001 0.090659998 0.070196003
0.067573003 0.085063003 0.10143
0.017322 0.090464003 0.070262
0.038741 0.089073002 0.082971998
0.037819002 0.088959001 0.082746997
0.0458 0.088522002 0.087194003
0.020785 0.090715997 0.071671002
0.019487999 0.090856001 0.071313001
0.040456999 0.088596001 0.084005997
0.063460998 0.086613998 0.098214
0.065429002 0.087100998 0.099739
0.025781 0.090370998 0.074945003
0.047926001 0.088701002 0.088859998
0.055484999 0.088016003 0.092676997
0.029611001 0.090301998 0.077316999
0.031002 0.090397 0.077858001
0.032106001 0.090839997 0.078362003
0.035115 0.090056002 0.079696
0.02973 0.096468002 0.074646004
0.028518001 0.097122997 0.073443003
0.025163 0.097512998 0.071572997
0.042412002 0.096759997 0.081951
0.048719998 0.096093997 0.086156003
0.027364001 0.097638004 0.072995
0.023484999 0.099671997 0.069747999
0.022735 0.098177999 0.070226997
0.041691002 0.098236002 0.080845997
0.054951001 0.097301997 0.089280002
0.05638 0.098135002 0.089699998
0.057856999 0.097608 0.090659998
0.042828999 0.099696003 0.081299998
0.027138 0.10199 0.070992999
0.055686001 0.098977 0.088770002
0.066861004 0.099284999 0.095651999
0.053282 0.099960998 0.087187
0.056074001 0.10001 0.088359997
0.056772999 0.10018 0.088652
0.060713999 0.10074 0.091018997
0.062321998 0.10076 0.091799997
0.069104001 0.099266998 0.096313998
0.063428 0.1007 0.092495002
0.064502999 0.10029 0.093229003
0.029017 0.10354 0.071515001
0.030322 0.10362 0.071474001
0.031541999 0.10455 0.071757004
0.069564 0.10176 0.094595999
0.062942997 0.10362 0.09121
0.069183998 0.10282 0.094782002
0.032853998 0.1087 0.071418002
0.032652002 0.10715 0.071768999
0.060527001 0.10517 0.088009998
0.061177 0.10627 0.089163996
0.030858001 0.10807 0.069839001
0.028368 0.10921 0.068681002
0.067635 0.10711 0.092145003
0.031957999 0.11001 0.069973998
0.066281997 0.10758 0.091691002
0.034481 0.10949 0.071594998
0.027265999 0.11105 0.067720003
0.026427001 0.1122 0.066519998
0.026912 0.11333 0.066017002
0.034995999 0.11119 0.070896
0.03503 0.11236 0.070834003
0.033270001 0.11224 0.069343001
0.033645999 0.11521 0.068815
0.063303001 0.11348 0.087159
0.063487001 0.1141 0.086606003
0.032051999 0.1177 0.067385003
0.031488001 0.11756 0.066192999
0.031424001 0.11834 0.066912003
0.028848 0.11837 0.065580003
0.036440998 0.11772 0.069439001
0.036745999 0.11915 0.069730997
0.038167998 0.11935 0.069960997
0.065931 0.11849 0.085986003
0.039839 0.12212 0.070321001
0.040580001 0.12291 0.070037998
0.067155004 0.12134 0.086061999
0.066969998 0.11977 0.086672999
0.068327002 0.12524 0.085247003
0.043195002 0.12714 0.069643997
0.070524998 0.13026001 0.084081002
0.071406998 0.13308001 0.083829001
0.046332002 0.13794 0.067511998
0.046521001 0.13884 0.066834003
0.073996998 0.13845 0.083102003
0.075295001 0.14119001 0.082029
0.047573999 0.14319 0.065142997
0.044495001 0.15091 0.060913999
0.049086001 0.15024 0.063693002
0.042966999 0.15126 0.060077
0.046992 0.15093 0.062213
0.078157999 0.14927 0.080654003
0.043485999 0.15110999 0.059179001
0.052227002 0.15534 0.062886998
0.045418002 0.15612 0.058998
0.079184003 0.15482 0.079196997
0.047483999 0.15715 0.059367001
0.053587999 0.15635 0.063086003
0.079155996 0.15489 0.077818997
0.078746997 0.15584999 0.078051001
0.048526 0.15774 0.060118999
0.056278002 0.15787999 0.063671
0.078657001 0.15803 0.076668002
0.057482 0.16328999 0.062964998
0.056901999 0.16439 0.061482999
0.056515999 0.16317999 0.061875001
0.079580002 0.16126999 0.076526001
0.057239 0.16577999 0.061414
0.080500998 0.16427 0.075816996
0.079533003 0.16417 0.075002998
0.080018997 0.16558 0.074918002
0.079199001 0.16608 0.073651001
0.062139999 0.17087001 0.06219
0.078451999 0.17140999 0.071552999
0.064202003 0.17366 0.062505998
0.064567998 0.17528 0.061850999
0.065020002 0.17668 0.061836001
0.066218004 0.17783999 0.061639
0.077469997 0.17662001 0.068651997
0.077794999 0.17828999 0.068442002
0.066230997 0.17914 0.061569002
0.067693003 0.17869 0.061923999
0.067947 0.1804 0.061420001
0.078482002 0.18095 0.067445002
0.067247003 0.1815 0.060773998
0.068172 0.18193001 0.060844999
0.067322999 0.18322 0.060153
0.080160998 0.18333 0.067583002
0.081326999 0.18555 0.066552997
0.067088 0.18711001 0.058373
0.083048999 0.18776999 0.068210997
0.083145 0.18826 0.066909999
0.066261001 0.19307999 0.055656999
0.088105001 0.19163001 0.069200002
0.096367002 0.19196001 0.072926998
0.098439999 0.19306 0.074483
0.066330001 0.19523001 0.054602999
0.065745004 0.19572 0.054133002
0.095253997 0.19325 0.072320998
0.098775998 0.19475999 0.074009001
0.090085 0.1947 0.067877002
0.091431998 0.19381 0.069764003
0.092201002 0.19514 0.069270998
0.064677 0.19697 0.052703999
0.053596001 0.19799 0.046617001
0.054281998 0.19960999 0.045805998
0.056037001 0.198 0.047915
0.094080999 0.19525 0.071413003
0.099220999 0.19588 0.072950996
0.099503003 0.19614001 0.073651001
0.099918999 0.19724 0.073578
0.05438 0.20073 0.045708999
0.057827 0.19921 0.048441999
0.093583003 0.19639 0.069783002
0.059145 0.20155001 0.047752999
0.061652999 0.20033 0.049936
0.10116 0.19711 0.074427001
0.10132 0.19815999 0.073391996
0.054972999 0.20225 0.045127001
0.059877999 0.20176999 0.048014
0.10021 0.19947 0.071852997
0.061891999 0.20153999 0.049265999
0.055330001 0.20334999 0.044364002
0.079444997 0.20545 0.058251001
0.10222 0.20265999 0.072835997
0.074804001 0.20603999 0.054428
0.074492 0.20749 0.054685
0.085643001 0.20636 0.061882
0.072807997 0.20892 0.052717999
0.089969002 0.20767 0.063069999
0.071641997 0.20926 0.051667999
0.10276 0.20712 0.070133999
0.10237 0.20812 0.070464998
0.054729 0.21184 0.041618999
0.054901998 0.21308 0.041251
0.10135 0.20964999 0.069068
0.068998002 0.21364 0.048574999
0.093272001 0.21165 0.063523002
0.10207 0.21128 0.068604998
0.056214001 0.2146 0.040993001
0.056660999 0.21551 0.040867001
0.058038 0.21654999 0.040440999
0.068012998 0.21644001 0.046826001
0.093768999 0.21428999 0.062757
0.1037 0.21337999 0.069146
0.10415 0.21216001 0.069922999
0.056683 0.21715 0.040247001
0.095246002 0.21477 0.062634997
0.10281 0.21387 0.068005003
0.097411998 0.21664 0.063349001
0.058625001 0.21938001 0.040502999
0.10057 0.2166 0.065967001
0.060102001 0.22036999 0.040254999
0.067823 0.22046 0.044798002
0.097111002 0.21827 0.063417003
0.061781 0.22127999 0.040559001
0.067795999 0.22192 0.044156998
0.068010002 0.22214 0.044978999
0.064875998 0.22257 0.042038999
0.066081002 0.22296 0.042771999
0.064236 0.23725 0.036099002
0.061232001 0.23865999 0.033326
0.061276998 0.24044 0.033183001
0.066532001 0.24131 0.035408001
0.023213999 0.070583999 0.081986003
0.012246 0.072251 0.074424997
0.028274 0.073045 0.084931001
0.028039999 0.072336003 0.083865002
0.037253 0.072099 0.090457
0.010753 0.074127004 0.073326997
0.067351997 0.072345003 0.1063
0.010904 0.078681 0.071327001
0.068483002 0.075116999 0.10602
0.018162001 0.084964 0.072310999
0.041618001 0.088783003 0.085271001
0.043256 0.088319004 0.085285999
0.036885001 0.089896999 0.08145
0.053800002 0.088284001 0.091250002
0.057321001 0.087695003 0.093712002
0.036881998 0.096060999 0.078845002
0.046101 0.095532 0.084648997
0.042863 0.097762004 0.081986003
0.051447 0.098273002 0.086364001
0.025919 0.10161 0.070648998
0.028093001 0.10341 0.071051002
0.059130002 0.10189 0.089656003
0.030981001 0.10601 0.071301997
