# .PCD v0.7 - Point Cloud Data file format
VERSION 0.7
FIELDS x y z
SIZE 4 4 4
TYPE F F F
COUNT 1 1 1
WIDTH 1522
HEIGHT 1
VIEWPOINT 0 0 0 1 0 0 0
POINTS 1522
DATA ascii
0.064416997 0.070486002 0.052965999
0.071811996 0.079636 0.055977002
0.047316 0.047814999 0.042204
0.085894004 0.10318 0.065929003
0.08388 0.10362 0.066747002
0.039765 0.050331999 0.049456999
0.041039001 0.053720001 0.050949
0.071952 0.10183 0.074975997
0.035557002 0.053068999 0.055031002
0.035758998 0.054175001 0.056827001
0.046905998 0.069477998 0.062859997
0.049743 0.071267001 0.062383998
0.055048 0.080077 0.065508001
0.059610002 0.086043 0.067956001
0.061149999 0.089060999 0.069573
0.064663999 0.093161002 0.070445001
0.066202998 0.095771998 0.072259001
0.067293003 0.095784999 0.072029002
0.07141 0.10081 0.073501997
0.047363002 0.070029996 0.061131999
0.072250001 0.1008 0.073151998
0.037140999 0.056458 0.055227999
0.036938999 0.057202 0.058276001
0.039227001 0.059266999 0.059234001
0.040332001 0.066350996 0.062463
0.038238 0.063982002 0.061051998
0.039625 0.064498998 0.062830999
0.035257 0.096095003 0.093516998
0.036502 0.098264001 0.093935996
0.034756001 0.097383998 0.095452003
0.033716999 0.099606998 0.096600004
0.034460001 0.10019 0.096942998
0.018423 0.080980003 0.090648003
0.03241 0.10019 0.099647
0.033383001 0.1006 0.10046
0.018307 0.081986003 0.093381003
0.019115999 0.081497997 0.091040999
0.03043 0.10274 0.099855997
0.017713999 0.082473002 0.0933
0.030099001 0.099872001 0.10071
0.027377 0.097648002 0.099744
0.027410001 0.099289 0.1007
0.014268 0.084227003 0.096735999
0.026339 0.10041 0.10252
0.025830001 0.10033 0.10274
0.020276999 0.092790999 0.099126004
0.020678001 0.092569999 0.099082001
0.024759 0.098595999 0.10186
0.01243 0.084876001 0.09691
0.019448999 0.091535002 0.099146999
0.021996001 0.097341001 0.10121
0.022847001 0.097613998 0.10383
0.021908 0.099676996 0.1021
0.011827 0.087692998 0.10034
0.012556 0.087067999 0.10026
0.011508 0.085130997 0.098553002
0.024169 0.10329 0.10691
0.011202 0.086558998 0.10002
0.011785 0.087201998 0.10001
0.023878001 0.1055 0.1088
0.023443 0.10517 0.10954
0.024605 0.10736 0.10818
0.026167 0.10944 0.10987
0.0069686999 0.083586 0.10081
0.025611 0.11101 0.11051
0.0072631999 0.085666001 0.099744
0.026620001 0.11267 0.1123
0.0040585999 0.084353 0.10442
0.0034970001 0.083554 0.10261
0.0043588998 0.085233003 0.1033
0.0020616001 0.085451998 0.10472
0.021927999 0.11239 0.1148
0.0052712001 0.089158997 0.10653
-0.00039197001 0.086554997 0.10609
0.020897999 0.11731 0.11877
-0.0002325 0.085988 0.10699
-0.00038559001 0.087176003 0.108
0.01977 0.11777 0.11973
0.019416999 0.11749 0.12192
-0.0041546002 0.086400002 0.11034
-0.0056285001 0.086937003 0.11152
-0.0042202999 0.087949999 0.11058
0.018808 0.11792 0.12413
-0.0073016002 0.087099999 0.11362
0.012796 0.11896 0.13067
0.0096786004 0.11872 0.12977
0.0058927001 0.11844 0.13005
-0.013189 0.094659001 0.12401
-0.011977 0.095615 0.1229
0.00032627 0.11671 0.13161001
-0.013313 0.097413003 0.12297
-0.012202 0.096574999 0.12429
-0.011662 0.099257 0.12644
-0.013427 0.099550001 0.12502
-0.011629 0.10014 0.12786999
-0.010113 0.1029 0.12899999
-0.0094531998 0.10315 0.12874
-0.0051083001 0.1101 0.1303
-0.0077030002 0.10541 0.12769
-0.0040878998 0.11088 0.13055
-0.0042269998 0.11045 0.13022999
-0.012876 0.099694997 0.12839
-0.013129 0.1024 0.12849
-0.00032630001 0.11893 0.13508999
-0.012385 0.10028 0.12817
-0.0046645999 0.11216 0.13285001
-0.0035071 0.11456 0.13328999
-0.0031647999 0.11588 0.13387001
-0.004708 0.11438 0.13303
-0.020447999 0.11077 0.13970999
-0.020205 0.1114 0.14134
-0.023451 0.11002 0.14097001
-0.019507 0.11352 0.1454
-0.026208 0.10698 0.14135
-0.018679 0.11634 0.14632
-0.023345999 0.1097 0.14049999
-0.020918 0.11763 0.14635
-0.024762001 0.11088 0.14302
-0.022833999 0.11113 0.1435
-0.023456 0.11026 0.14438
-0.021032 0.11737 0.14642
-0.021947 0.11608 0.1476
-0.022461999 0.11541 0.14806999
-0.026760999 0.11348 0.14771
-0.022219 0.11901 0.15008
-0.023504 0.11981 0.14947
-0.030653 0.11189 0.14711
-0.032439999 0.1107 0.1505
-0.027313 0.12113 0.15246999
-0.028275 0.11865 0.15221
-0.029332001 0.11479 0.15260001
-0.029761 0.11715 0.15354
-0.031525999 0.11262 0.15205
-0.028875001 0.12082 0.15428001
-0.032788001 0.11752 0.15414999
-0.034058999 0.11947 0.15786999
0.094531 0.095844001 0.055854
0.091095001 0.095611997 0.055608001
0.087545998 0.092090003 0.054797001
0.089059003 0.097726002 0.058738001
0.053364001 0.049197 0.040401999
0.058249 0.054668002 0.042938001
0.088737004 0.099708997 0.063275002
0.047911 0.047099002 0.041191
0.059046 0.060630001 0.050315998
0.062532999 0.065872997 0.051031999
0.069894999 0.076743998 0.054487001
0.082754999 0.10404 0.068547003
0.041652001 0.050404001 0.048432
0.039928 0.049911 0.049214002
0.078740001 0.10358 0.071231999
0.076428004 0.10205 0.071624003
0.077026002 0.10201 0.072186999
0.038187001 0.053991999 0.054731
0.039744999 0.053950001 0.053897001
0.037521001 0.053342 0.056545999
0.049989 0.074127004 0.063008003
0.052592002 0.076021999 0.065149002
0.055975001 0.079391003 0.064850003
0.058816001 0.086776003 0.068412997
0.058979999 0.086158 0.067731
0.061570998 0.088540003 0.068971001
0.064401001 0.094949 0.071803004
0.069582 0.098447002 0.073168002
0.043503001 0.067397997 0.064361997
0.033241 0.097048 0.094724
0.033890001 0.097382002 0.096125998
0.017507 0.090195999 0.10087
0.020571999 0.094354004 0.10223
0.014515 0.088198997 0.099124998
0.0096241999 0.087259002 0.10099
0.010966 0.087569997 0.10141
0.025614001 0.10624 0.10985
0.022821 0.11418 0.11493
0.021274 0.11414 0.11761
-0.0069355001 0.087751001 0.11271
0.016009999 0.12071 0.12487
0.00095200998 0.11546 0.13228001
-0.0020260999 0.11505 0.13304
-0.0010168999 0.11442 0.13336
-0.023863001 0.10954 0.14286999
-0.021159001 0.11332 0.14443
-0.026279001 0.11712 0.15143999
-0.027000001 0.11645 0.153
0.054790001 0.045435999 0.037617002
0.059578001 0.052696999 0.040346
0.089729004 0.098084003 0.059390999
0.083631001 0.090746999 0.055681001
0.081522003 0.090540998 0.060307998
0.079097003 0.088753 0.060623001
0.076086998 0.084383003 0.058021002
0.078978002 0.086750999 0.059254002
0.067014001 0.068163 0.056090999
0.066444002 0.066942997 0.054839998
0.067768 0.068547003 0.054145999
0.067740999 0.075029999 0.053845
0.070565 0.075492002 0.053734001
0.073238999 0.079701997 0.05562
0.074897997 0.079548001 0.058793999
0.043708 0.047327001 0.044135001
0.072917998 0.10256 0.074628003
0.053179 0.077684 0.064940996
0.058570001 0.082663 0.066468
0.061845001 0.089951001 0.069040999
0.04462 0.065927997 0.062642999
0.038678002 0.062210001 0.061949
0.040477999 0.065366998 0.063023999
0.03909 0.063932002 0.063170001
0.036936 0.098343998 0.095321
0.031095 0.095224001 0.095669001
0.031060001 0.10226 0.10152
0.020006999 0.092799 0.10077
0.023471 0.09832 0.10344
0.021122999 0.095005997 0.10176
0.011865 0.089345001 0.099855997
0.022608999 0.10376 0.10664
0.011616 0.086594 0.10193
0.011422 0.088180996 0.10227
0.026033999 0.11061 0.11214
0.0063017998 0.084801003 0.10331
0.0058821999 0.086571001 0.10349
0.0029736999 0.084416002 0.10418
0.0053443001 0.085271999 0.10344
0.023596 0.11026 0.11358
0.0031238 0.086041003 0.10447
0.0030795 0.087714002 0.10618
0.020384001 0.11683 0.12056
-0.0073238001 0.086799003 0.11471
-0.010269 0.09042 0.11723
0.0049593998 0.11626 0.13034
0.00089334999 0.11748 0.13361
-0.0058327001 0.10739 0.12988
-0.0034663 0.1117 0.13194001
-0.0015748 0.11474 0.13228001
-0.0039452999 0.11141 0.13288
-0.021965001 0.11041 0.14365
-0.019005001 0.11257 0.14356001
-0.021645 0.11272 0.14445999
-0.021395 0.11802 0.14797001
-0.021122999 0.11618 0.14997
-0.022739001 0.1184 0.14907999
-0.024272 0.11484 0.14850999
-0.026265999 0.1147 0.14898001
-0.027472001 0.11279 0.14833
-0.02847 0.11226 0.14781
-0.023852 0.11715 0.15255
-0.029282 0.1112 0.14962
-0.028368 0.11327 0.14955001
-0.025966 0.11436 0.14974
-0.027958 0.11493 0.1504
-0.032827999 0.11182 0.15202001
0.052572001 0.04493 0.038299002
0.052510001 0.045754999 0.038270999
0.084472001 0.089511998 0.056129001
0.089943998 0.097107999 0.059298001
0.057912 0.054230999 0.043140002
0.065185003 0.069941998 0.052609
0.066807002 0.070001997 0.053394001
0.066243 0.068883002 0.055753
0.067418002 0.072172001 0.053746998
0.042536002 0.047239002 0.044904001
0.042863 0.047024 0.048682999
0.043155 0.048725002 0.047697999
0.084017999 0.10392 0.069990002
0.082759 0.10232 0.068478003
0.053055 0.077166997 0.064562
0.044176999 0.066362001 0.061345998
0.037875 0.059000999 0.059811998
0.037834 0.055845998 0.060956001
0.039902002 0.058246002 0.061508998
0.043202002 0.065678 0.064190999
0.039632998 0.064204 0.062794998
0.033197999 0.097236998 0.097719997
0.027426001 0.10011 0.10132
0.025010999 0.098768003 0.10362
0.017876999 0.091379002 0.1008
0.015789 0.091571003 0.10085
0.013768 0.090594999 0.10197
0.011399 0.088156 0.102
0.011424 0.090278 0.10215
0.023535 0.11105 0.11521
-0.00097161002 0.086576 0.10869
0.019136 0.11715 0.12203
-0.0051350002 0.087188996 0.11065
-0.0051509002 0.087273002 0.11064
-0.011395 0.092078999 0.12109
0.0031212999 0.11574 0.13160001
0.00025077001 0.11426 0.13335
0.0015918 0.11452 0.13106
0.00046596999 0.11584 0.13304
-0.0011541001 0.11366 0.13109
-0.0012598 0.11571 0.13189
-0.00057534 0.11606 0.13262001
-0.0066604 0.10741 0.13056
-0.00091658998 0.11314 0.13293999
-0.0019485001 0.11377 0.13279
-0.018781999 0.1125 0.14384
-0.019734001 0.11491 0.14487
-0.020634999 0.11525 0.14611
-0.022887999 0.11691 0.14764
0.091352999 0.093390003 0.056626
0.060293 0.049782999 0.037448999
0.092427 0.091078997 0.055535998
0.059354998 0.051934998 0.041800998
0.092183001 0.098453999 0.058853
0.092249997 0.097065002 0.059457999
0.091271996 0.097020999 0.059643999
0.05294 0.047775999 0.040132001
0.089772999 0.095246002 0.059960999
0.058278002 0.053142998 0.043558002
0.050949 0.046285 0.042553
0.055351999 0.054899 0.046181999
0.056265999 0.056774002 0.046410002
0.048558 0.045952 0.043017
0.056970999 0.056689002 0.047694001
0.058839999 0.058740001 0.050094001
0.061824001 0.061554 0.051594999
0.061620001 0.062146001 0.051143002
0.066836998 0.071744002 0.053346999
0.068507999 0.073046997 0.055020001
0.068674996 0.073069997 0.055805001
0.047072001 0.046225 0.045724001
0.045340002 0.045607999 0.045102999
0.081202 0.10162 0.069816999
0.042477999 0.050398 0.049688
0.042486999 0.052816 0.051167998
0.041905001 0.049713001 0.051649999
0.078161001 0.1009 0.071203999
0.075833 0.10026 0.071851
0.041545 0.054138001 0.055473998
0.040810999 0.052526001 0.052687
0.03932 0.053242002 0.053773001
0.075767003 0.10341 0.073275
0.072977997 0.10161 0.073843002
0.046227001 0.066528998 0.061896998
0.047251001 0.068318002 0.062601998
0.049242001 0.069784001 0.062422
0.051674001 0.072667003 0.064456001
0.050526001 0.071061999 0.064055003
0.056584001 0.080902003 0.067038998
0.065453 0.091826998 0.070785999
0.045814 0.063666999 0.062151
0.047835998 0.065080002 0.060385998
0.044403002 0.064741999 0.062541001
0.034736998 0.098715998 0.095542997
0.032892998 0.096483998 0.096134
0.030094 0.096630998 0.099069998
0.025201 0.099407002 0.10489
0.024811 0.099725999 0.10416
0.021168999 0.097340003 0.10191
0.022023 0.098739997 0.1052
0.011417 0.088794 0.10126
0.025826 0.10985 0.11205
0.0080690999 0.085914999 0.10227
0.023042999 0.11209 0.1133
0.025067 0.11025 0.11261
0.021966999 0.11166 0.11644
0.020607 0.113 0.11703
0.0031784 0.088210002 0.10796
0.0024812999 0.087871999 0.10783
0.00068103999 0.087733999 0.1082
0.019975999 0.11508 0.11823
0.021640999 0.11521 0.11927
-0.0016617 0.087238997 0.10893
0.018564001 0.11673 0.12193
0.018771 0.1161 0.12371
0.017527999 0.11653 0.12553
0.01873 0.11787 0.12427
0.011604 0.11989 0.12891001
-0.0098863998 0.090255998 0.11856
0.0096465005 0.11791 0.13031
0.0070647998 0.11754 0.13089
-0.011444 0.092122003 0.12192
-0.012142 0.092716001 0.12311
-0.011222 0.095721997 0.12551001
0.0030795 0.1138 0.13214999
-0.010275 0.10211 0.12746
-0.019284001 0.11348 0.1461
-0.019537 0.11499 0.14534
-0.020877 0.11703 0.14776
-0.023867 0.11518 0.14951
-0.024928 0.11643 0.14966001
-0.023161 0.11638 0.14959
-0.024979001 0.11675 0.15039
-0.028661 0.11431 0.15029
-0.025653999 0.11503 0.15025
-0.025798 0.11671 0.15119
-0.029627001 0.1144 0.15367
-0.027647 0.11344 0.15171
-0.031796001 0.11461 0.15465
-0.031931002 0.11428 0.1549
0.093765996 0.097299002 0.057797998
0.060456 0.046792001 0.038624
0.058547001 0.045566 0.036435999
0.055296 0.043056 0.037291002
0.088072002 0.091770999 0.054786
0.054191999 0.044649001 0.038034
0.060091998 0.051419001 0.039416
0.060336001 0.051052999 0.039822001
0.086947002 0.090135999 0.055305
0.093750998 0.098002002 0.059103999
0.088652 0.091035001 0.055523999
0.055066001 0.046195999 0.041641001
0.060160998 0.05463 0.044034
0.059593 0.052799001 0.043166999
0.054432001 0.047417998 0.040941
0.084592998 0.09008 0.058141999
0.083387002 0.089957997 0.059648
0.057433002 0.057092 0.044064999
0.087086 0.095747001 0.061471
0.052331999 0.046271 0.042038001
0.081882 0.088375002 0.058230001
0.081758998 0.090414003 0.058463998
0.087255999 0.098738 0.063244998
0.057441998 0.055418 0.045797002
0.079452999 0.090806 0.060525
0.047501002 0.047506001 0.044482
0.063569002 0.064893 0.052237
0.062270001 0.065747 0.052294001
0.086483002 0.10091 0.063429996
0.085202999 0.10168 0.065609001
0.087286003 0.10273 0.063794002
0.085323997 0.10176 0.066301003
0.085412003 0.10146 0.068388999
0.041099001 0.047713 0.049359001
0.041942 0.049081001 0.048122998
0.041676 0.050985999 0.050565001
0.080257997 0.10285 0.070468999
0.076035999 0.10109 0.072518997
0.075658001 0.10112 0.073402002
0.039221998 0.052831002 0.054455999
0.072899997 0.10299 0.074856997
0.036623001 0.052581999 0.056853
0.037758 0.053325001 0.057112001
0.072389998 0.10137 0.075476997
0.048416 0.069518 0.062951997
0.058502 0.081456997 0.067364
0.060848001 0.085855 0.068292998
0.064999998 0.092372999 0.072787002
0.064043 0.092422001 0.071226999
0.066903003 0.093836002 0.072642997
0.038525999 0.055502001 0.057427999
0.062226001 0.086967997 0.069294997
0.071213 0.098977998 0.075503998
0.072802 0.10221 0.076499
0.038690999 0.055578001 0.057557002
0.040024001 0.061333001 0.061939001
0.039409 0.061845001 0.062233001
0.041859001 0.064489998 0.063971996
0.038538001 0.062288001 0.061788
0.040727999 0.064727001 0.063956
0.033844002 0.097576 0.096367002
0.034035999 0.098902002 0.096943997
0.032635 0.098121002 0.096343003
0.031461999 0.096715003 0.097416997
0.033546001 0.10017 0.098508
0.030903 0.098376997 0.098298997
0.033518001 0.10001 0.099074997
0.031677 0.10098 0.10094
0.029196 0.096371002 0.10102
0.027790001 0.096853003 0.10205
0.028558001 0.099766001 0.10303
0.030957 0.1011 0.10112
0.025232 0.096996002 0.10271
0.026807999 0.10068 0.1033
0.024119999 0.097493 0.1027
0.019184999 0.092649996 0.1018
0.019021999 0.093433 0.10176
0.017934 0.091632001 0.1025
0.018041 0.091518 0.10298
0.016787 0.090297997 0.10202
0.023145 0.10149 0.10598
0.021089001 0.096242003 0.10369
0.019772001 0.095392004 0.10369
0.021066001 0.096642002 0.10224
0.022067999 0.098647997 0.10559
0.023181999 0.10096 0.10518
0.015017 0.089683004 0.10066
0.023607999 0.10027 0.10713
0.013683 0.090038002 0.10226
0.013511 0.089422002 0.10088
0.013029 0.088863 0.10344
0.024334 0.10291 0.10711
0.012633 0.088691004 0.10172
0.023406001 0.105 0.1084
0.023717999 0.10294 0.10962
0.025278 0.10617 0.10935
0.025489001 0.10595 0.11044
0.011025 0.087343998 0.10384
0.024236999 0.10673 0.11208
0.0092067998 0.084967002 0.10335
0.0096635995 0.086225003 0.10196
0.011418 0.087142996 0.10332
0.027015001 0.10848 0.1108
0.02634 0.10972 0.11186
0.0081471996 0.085446998 0.10338
0.0066243 0.085410997 0.10385
0.02471 0.10947 0.11506
0.02251 0.10757 0.11523
0.022655001 0.11062 0.11583
0.022871001 0.11097 0.11519
0.0073330002 0.085383996 0.10642
0.0062487 0.087002002 0.10676
0.006089 0.088643998 0.10664
0.0052164998 0.089165002 0.10828
0.0028468 0.088359997 0.10709
0.021365 0.11008 0.11663
0.020486001 0.11424 0.12018
-0.0014084 0.086405002 0.11088
-0.0041669998 0.086781003 0.11336
-0.0066567999 0.086397998 0.11206
0.016868999 0.1193 0.12718
0.016109001 0.11742 0.12759
0.014689 0.11902 0.12746
0.01351 0.11859 0.12723
0.013024 0.1193 0.12895
0.014429 0.11846 0.12748
-0.0096003003 0.089010999 0.11656
-0.0098940004 0.089267001 0.11697
0.011261 0.11961 0.13015001
-0.0088211996 0.089175999 0.11818
0.011973 0.11848 0.13048001
0.0079768999 0.11812 0.13097
0.0062831002 0.11686 0.13049001
-0.011762 0.093561001 0.1202
0.0063829999 0.1183 0.13037001
0.0046386998 0.11712 0.13033
0.0043636998 0.1176 0.13152
0.0037306 0.11385 0.13229001
-0.0098283002 0.095536999 0.12403
0.0030894 0.11556 0.13252001
-0.011474 0.097889997 0.126
0.0018606 0.11377 0.13151
0.00081803999 0.11205 0.13212
-0.010618 0.096873 0.12662999
-0.010691 0.098716997 0.12671
-0.00067769003 0.11354 0.13282
-0.010105 0.099656999 0.12927
-0.0015333 0.1111 0.13294999
-0.0105 0.099455997 0.12888999
-0.0082048001 0.10252 0.13005
-0.0076354002 0.10326 0.13082001
-0.0021984 0.10958 0.13256
-0.0027993 0.11234 0.13217001
-0.011596 0.10093 0.13074
-0.011995 0.099439003 0.12858
-0.003174 0.11028 0.13346
-0.0028399001 0.11313 0.13331001
-0.012864 0.099229999 0.12885
-0.013318 0.10044 0.12996
-0.0041075 0.11286 0.13432001
-0.0038232999 0.11316 0.13387001
-0.018882001 0.1125 0.14380001
-0.020881999 0.11503 0.14392
-0.022631001 0.11721 0.14887001
-0.023976 0.11389 0.15109
-0.025490001 0.11455 0.15068001
-0.024512 0.11709 0.15123001
-0.024862999 0.1169 0.15104
-0.024883 0.11779 0.15129
-0.024925999 0.11499 0.15079001
-0.027753999 0.11392 0.15087999
-0.029511999 0.1132 0.14898001
-0.030722 0.11258 0.15084
-0.03266 0.11136 0.15275
-0.031668998 0.11277 0.15228
-0.030258 0.11471 0.15242
-0.032024998 0.11405 0.15315001
0.093828999 0.096890002 0.056942001
0.094733 0.096447997 0.056813002
0.059935998 0.051148001 0.039623
0.086135998 0.089413002 0.056249
0.059618998 0.055039998 0.042118002
0.074694999 0.084368996 0.057822999
0.076719001 0.085488997 0.059645999
0.063220002 0.066863 0.053068001
0.065094002 0.070395999 0.053293001
0.073293999 0.077973001 0.058302999
0.073804997 0.078460999 0.056829002
0.075225003 0.082387 0.058844
0.084900998 0.10146 0.066540003
0.043986998 0.046872001 0.045125
0.082650997 0.10207 0.069821
0.079159997 0.10069 0.070676997
0.074625999 0.098945998 0.072357997
0.037943002 0.052257001 0.055744998
0.037025999 0.053002998 0.054937001
0.055213999 0.075447001 0.065637998
0.058812 0.082007997 0.068109997
0.061296999 0.086949997 0.069188997
0.066266999 0.094943002 0.072942004
0.063302003 0.089496002 0.070804
0.061390001 0.087600999 0.069867
0.066923998 0.095436998 0.074890003
0.070721 0.098480999 0.074267998
0.042819001 0.064563997 0.064047001
0.030528 0.098070003 0.098135002
0.018666999 0.092923 0.10367
0.020907 0.093006 0.10175
0.019733001 0.092354998 0.10176
0.022045 0.098940998 0.10529
0.021111 0.097684003 0.10468
0.015455 0.090503 0.10228
0.01282 0.089559004 0.10313
0.024691001 0.10849 0.11265
0.0089081004 0.085846998 0.10494
-0.0021251 0.086368002 0.10981
-0.0029017001 0.085408002 0.11155
-0.0068315999 0.086774997 0.11373
-0.0068758 0.089119002 0.11468
-0.01079 0.094394997 0.12483
-0.007309 0.10306 0.12755001
-0.0061014998 0.10481 0.13022
-0.0047342 0.10786 0.13048001
-0.0055604 0.10848 0.13156
0.090636998 0.091434002 0.056182999
0.087343998 0.088711001 0.056961998
0.086971998 0.098278999 0.061799001
0.088845 0.098865002 0.064632997
0.049555998 0.045798 0.044915002
0.04862 0.047029998 0.043846998
0.078079 0.084914997 0.061574001
0.077937998 0.085928001 0.059795
0.078644 0.085735999 0.060474001
0.067685001 0.072251 0.055755999
0.071020998 0.072095998 0.056788001
0.078183003 0.10096 0.071056001
0.052294999 0.073587999 0.064148001
0.055275001 0.076453999 0.066188
0.055411998 0.078322999 0.065417998
0.057319999 0.080899999 0.066932
0.064611003 0.091172002 0.071811996
0.069619998 0.097016998 0.072982997
0.037765 0.059891999 0.062863998
0.040649999 0.061652001 0.062899999
0.032765999 0.099182002 0.098707996
0.030754 0.097671002 0.10012
0.032384001 0.097519003 0.099880002
0.029820999 0.1018 0.10296
0.027451999 0.099717997 0.10263
0.022477999 0.09832 0.1067
0.0067801001 0.085426003 0.1049
0.024204001 0.10915 0.11288
0.0067492998 0.086883999 0.10597
0.0072691999 0.090042002 0.10652
0.022632999 0.1123 0.11873
-0.0015324 0.086121999 0.11276
-0.0020639999 0.086627997 0.11191
0.018312 0.11779 0.12346
-0.0062046 0.088560998 0.11277
0.015115 0.11777 0.12888999
-0.0077756001 0.087869003 0.11598
0.011655 0.11622 0.12904
-0.0086401002 0.089040004 0.12043
0.0063453 0.11618 0.13263001
-0.010877 0.092408001 0.12295
-0.0039267 0.10889 0.13146
-0.027735 0.11378 0.15284
-0.03066 0.11185 0.15177999
-0.029919 0.11428 0.1516
0.060221002 0.054226998 0.043558002
0.087416999 0.096341997 0.060192998
0.083080001 0.088942997 0.058626
0.057829998 0.055137999 0.046767
0.078901 0.087306 0.059843998
0.057815999 0.055700999 0.049403999
0.057372998 0.060136002 0.047812998
0.076889999 0.082388997 0.059119999
0.057507001 0.080305003 0.065194003
0.072284997 0.10125 0.075879999
0.038731001 0.055684 0.058564998
0.016834 0.090177 0.10326
0.021917 0.098053999 0.10577
0.019459 0.095491998 0.10371
0.020352 0.097726002 0.10521
0.024324 0.10041 0.1067
0.015572 0.091209002 0.10356
0.0085736997 0.089534 0.10621
0.0038439999 0.086014003 0.10995
0.021118 0.11337 0.11819
0.020559 0.1154 0.11998
0.014232 0.11702 0.12808999
-0.0075768 0.088683002 0.11595
0.012165 0.11701 0.12876
0.011945 0.11747 0.12881
0.0013869 0.11258 0.1314
0.092185996 0.092602998 0.056697998
0.093505003 0.094028004 0.055925
0.062061001 0.052508999 0.041480001
0.089276999 0.090031996 0.056623001
0.087560996 0.087566003 0.054985002
0.088140003 0.089226 0.056453999
0.055195 0.045125999 0.039815001
0.089647003 0.095838003 0.059774999
0.053771 0.045768 0.039963
0.058952998 0.054471001 0.046055999
0.088799998 0.095871001 0.062422998
0.088651001 0.093797997 0.061156999
0.083191 0.087658003 0.057826001
0.054232001 0.048230998 0.043699998
0.053358998 0.048973002 0.043097999
0.087844998 0.097026996 0.061464
0.087796003 0.096229002 0.061884999
0.087604001 0.097409002 0.063970998
0.087646998 0.097939 0.064966999
0.067835003 0.070424996 0.054535002
0.070990004 0.075014003 0.056345001
0.071183003 0.075616002 0.057907
0.072516002 0.075213999 0.058853999
0.072218999 0.076481 0.059372
0.072933003 0.076421998 0.059687998
0.047559999 0.047222 0.046498999
0.084991999 0.10004 0.068643004
0.085183002 0.10227 0.067129001
0.042413998 0.047940999 0.049679998
0.084284998 0.10332 0.070386998
0.043613002 0.047516 0.051068
0.043425001 0.052406002 0.054719999
0.039115001 0.053328998 0.056540001
0.074216001 0.10057 0.076266997
0.039788 0.053596001 0.056862
0.053160001 0.073132999 0.066473
0.056869 0.079437003 0.068021998
0.048547 0.065215997 0.063065998
0.037873 0.055982001 0.060571998
0.042009 0.064130999 0.063465998
0.03221 0.10043 0.099863999
0.026727 0.097145997 0.10246
0.029849 0.096816003 0.10172
0.028942 0.10061 0.10419
0.02682 0.099625997 0.10603
0.017774001 0.093469001 0.10317
0.023902001 0.10253 0.10962
0.012559 0.088083997 0.10306
0.010027 0.087228 0.10407
0.026334999 0.10617 0.1137
0.0073827002 0.086819999 0.10821
0.0015454 0.086914003 0.10895
0.020081 0.11465 0.12156
0.016427999 0.11872 0.12398
-0.0067330999 0.088886999 0.11669
0.0057120002 0.11486 0.13098
-0.0082302997 0.093420997 0.12279
0.0050534001 0.11411 0.1314
-0.0099168997 0.097701997 0.12867001
-0.0023246 0.11242 0.13407999
-0.010154 0.099128999 0.12890001
-0.0099040996 0.098926 0.1285
-0.002356 0.11047 0.13483
-0.0028645999 0.11216 0.13534001
0.094766997 0.095922999 0.056414001
0.093878999 0.094665997 0.056931999
0.094058998 0.096846998 0.058681998
0.058671001 0.046055 0.038536001
0.056630999 0.044654001 0.036819998
0.091369003 0.091348 0.055950001
0.055813 0.044220001 0.037154999
0.061223 0.050032999 0.039452001
0.062229998 0.051624 0.040996999
0.088165998 0.088844001 0.056453001
0.094088003 0.096147999 0.058777999
0.060761999 0.052211002 0.042399999
0.062236998 0.052942 0.042259
0.061262999 0.052437 0.043993
0.061159998 0.054341 0.042195
0.058637001 0.054935001 0.045338001
0.092739001 0.098258004 0.059406001
0.083990999 0.088846996 0.057693999
0.084717996 0.089147002 0.057452001
0.054113999 0.047003999 0.042231999
0.05424 0.048985001 0.044578999
0.058975998 0.056129999 0.046840001
0.082566001 0.087858997 0.058720998
0.081235997 0.086717002 0.061032999
0.052241001 0.046263002 0.044009
0.051316001 0.047490001 0.041907001
0.051033001 0.047203999 0.043428
0.088388003 0.096146002 0.062522002
0.057608001 0.056968998 0.047432002
0.050211001 0.046634998 0.044259999
0.080604002 0.089267999 0.059953999
0.07903 0.087601997 0.059994001
0.088179 0.099820003 0.063888997
0.060150001 0.060192998 0.050811
0.062723003 0.063605003 0.053569999
0.047435001 0.045720998 0.045293
0.087071002 0.099757999 0.066432998
0.046491999 0.045846 0.046018999
0.084361002 0.10428 0.069779001
0.043097999 0.045483999 0.047598999
0.082450002 0.10227 0.069978997
0.081060998 0.10057 0.071061
0.079189003 0.10119 0.070858002
0.079944998 0.10084 0.072070003
0.044142 0.048744999 0.052366
0.044128001 0.050721999 0.051904999
0.043954 0.052958999 0.054487001
0.076232001 0.098448001 0.071905002
0.078500003 0.098604999 0.072412997
0.043276001 0.052896 0.053137001
0.077228002 0.097266003 0.072746001
0.075418003 0.10177 0.074311003
0.040160999 0.053054001 0.056678999
0.074363999 0.1025 0.074929997
0.073223002 0.10081 0.076595999
0.039592002 0.053089999 0.058483999
0.045212001 0.065241002 0.062766999
0.046294998 0.066032 0.063063003
0.048431002 0.067621998 0.06199
0.050565001 0.067933001 0.063268997
0.057767998 0.081078999 0.068581
0.059025999 0.081777997 0.069854997
0.060173001 0.08258 0.068086997
0.061708 0.084976003 0.070239998
0.060504999 0.085468002 0.071754001
0.066869996 0.093415998 0.073774002
0.066973001 0.093326002 0.072219998
0.070193 0.095554002 0.073454998
0.039895002 0.054437999 0.058897998
0.043526001 0.063309997 0.061921999
0.039832 0.056745 0.061620999
0.043117002 0.064195998 0.062843002
0.0405 0.059473 0.062367
0.042893998 0.060913 0.062433999
0.041328002 0.062490001 0.061969001
0.031442001 0.098328002 0.10048
0.031877 0.098907001 0.10155
0.029513 0.098545998 0.10288
0.030598 0.099184997 0.10296
0.027650001 0.097634003 0.10359
0.026937 0.098893002 0.10612
0.025955001 0.098164 0.10396
0.024902999 0.098237 0.10554
0.019233 0.091875002 0.1035
0.018595001 0.091013998 0.10312
0.023489 0.098655999 0.10837
0.024866 0.10057 0.10664
0.01808 0.091302998 0.10639
0.018789001 0.094710998 0.10509
0.020233 0.094715998 0.10418
0.021594999 0.098379999 0.10803
0.025008 0.10056 0.10827
0.020267 0.094368003 0.10606
0.020335 0.096836001 0.10806
0.01675 0.092698 0.10521
0.016424 0.090490997 0.10565
0.014005 0.091110997 0.10385
0.013303 0.087716997 0.10379
0.013481 0.088992998 0.10401
0.023313001 0.10236 0.10996
0.011751 0.086666003 0.10423
0.023496 0.104 0.1111
0.023708001 0.10553 0.11026
0.025165001 0.10562 0.11144
0.026943 0.10564 0.1115
0.028276 0.10828 0.11236
0.011825 0.086331002 0.10443
0.010381 0.085271999 0.10374
0.010264 0.085279003 0.10545
0.025656 0.10712 0.11315
0.0097711999 0.086944997 0.10544
0.022460001 0.10712 0.11473
0.022358 0.10817 0.11336
0.0090508005 0.087715 0.10736
0.0087575 0.090103999 0.10721
0.0064935 0.087918997 0.10807
0.021575 0.10918 0.11573
0.0058515999 0.088082001 0.10919
0.0036925999 0.086911 0.10959
0.0042145001 0.088091999 0.1091
0.001623 0.086498998 0.11026
9.8662e-05 0.088074997 0.11041
-0.00041884001 0.085890003 0.11184
0.020943001 0.11314 0.12169
0.019283 0.11408 0.12189
0.018062999 0.11551 0.1247
0.017854 0.11434 0.12506001
-0.0066008 0.088304996 0.11655
-0.0077002998 0.090575002 0.11803
-0.0085167997 0.088698998 0.11893
-0.0084579997 0.090364002 0.1192
0.010819 0.11501 0.13062
0.0093179001 0.11562 0.12959
-0.0080998996 0.089100003 0.12055
-0.0095801 0.090628996 0.12104
-0.0089705996 0.091522999 0.12271
-0.010507 0.093221001 0.12205
-0.010051 0.091692999 0.12287
0.0061816 0.11385 0.13266
0.0053629 0.11453 0.13242
-0.0092278002 0.093400002 0.12444
-0.010523 0.095466003 0.1245
-0.010531 0.095664002 0.12513
0.0026887001 0.11331 0.13202
-0.011983 0.095077001 0.12616999
0.00088981999 0.11242 0.13233
0.00024667001 0.11259 0.13232
0.0012154001 0.11082 0.13406999
-0.010047 0.096799001 0.12682
-0.0092374999 0.099385999 0.12861
-0.0096864002 0.10019 0.12808
-0.010853 0.099023998 0.12902001
-0.0073155998 0.10081 0.12914
-0.0023996001 0.10882 0.13253
-0.0022783 0.11018 0.13101
-0.0017795 0.11093 0.13344
-0.011475 0.099494003 0.13008
-0.0028742999 0.11273 0.13485
-0.031217 0.11216 0.15188999
0.089479998 0.090961002 0.056674
0.055383999 0.046705 0.042615999
0.078489996 0.086511001 0.060081001
0.069195002 0.076155998 0.057181001
0.071934998 0.075116999 0.056692999
0.075813003 0.080776997 0.058651999
0.087217003 0.099969 0.066285998
0.046358999 0.045756999 0.045623999
0.084200002 0.10107 0.070472002
0.043329999 0.047369 0.048668001
0.044006001 0.051187001 0.052103002
0.043051999 0.052529 0.056471001
0.073535003 0.10041 0.076021999
0.054598998 0.074844003 0.065761
0.054940999 0.077125996 0.067983001
0.057943001 0.079660997 0.067640997
0.061563998 0.083074003 0.070141003
0.062542997 0.087402999 0.070450999
0.063019 0.089392997 0.072247997
0.065729998 0.090222999 0.071252003
0.067689002 0.095671996 0.074396998
0.070767999 0.10027 0.075193003
0.046080999 0.063487001 0.061283998
0.040013 0.057879999 0.061037999
0.039046001 0.057824999 0.060897999
0.040371999 0.061455 0.062857002
0.030786 0.096349001 0.10099
0.029362001 0.096759997 0.10057
0.029561 0.099491999 0.10172
0.030231999 0.097970001 0.10285
0.026944 0.099285997 0.10505
0.022972999 0.099262998 0.10675
0.0092569999 0.088000998 0.10522
0.0088304998 0.089537002 0.10642
0.022214999 0.10748 0.11501
0.0096832998 0.088509001 0.1089
0.0027788 0.086057 0.11009
0.020989001 0.11321 0.11902
0.020313 0.11224 0.12091
0.019458 0.11515 0.1218
0.018638 0.11405 0.12316
-0.0026699 0.084909 0.1139
-0.0035208 0.086511999 0.11534
-0.0057895002 0.085951999 0.11627
0.014557 0.11818 0.12743001
0.011303 0.11705 0.13070001
0.0082107997 0.11604 0.13116001
-0.0083681 0.10055 0.12895
-0.0056751999 0.10456 0.13111
-0.0045173001 0.10633 0.13187
-0.0036317001 0.10623 0.13141
-0.0034719 0.10933 0.13060001
0.056575 0.043237001 0.037905
0.087488003 0.087746002 0.055261001
0.081896998 0.086965002 0.05962
0.050735001 0.049288999 0.044987001
0.078442998 0.081835002 0.059386
0.076125003 0.083140001 0.060998999
0.075179003 0.10077 0.074612997
0.040702 0.051352002 0.055353999
0.070419997 0.096612997 0.073771998
0.041700002 0.062813997 0.064043999
0.028932 0.098476999 0.10206
0.026874 0.099474996 0.10702
0.023452999 0.1006 0.10979
0.022127001 0.097001001 0.10792
0.025854999 0.10381 0.10997
0.025460999 0.10695 0.1145
0.010104 0.089818999 0.10719
0.0075329999 0.090777002 0.10837
0.020538 0.11007 0.11673
0.022546999 0.10865 0.11796
0.019055 0.11417 0.12546
0.016650001 0.11533 0.12716
0.013743 0.11553 0.12871
-0.0060748002 0.089518003 0.11927
-0.0086099003 0.097301997 0.12696999
-0.0067659002 0.10254 0.13006
-0.0031882999 0.10915 0.13164
-0.0061706002 0.10498 0.13016
-0.0059721 0.10412 0.12994
0.059939999 0.046792001 0.037356999
0.059723999 0.047424 0.038316999
0.060910001 0.048884001 0.040624999
0.091053002 0.094871998 0.060598999
0.089653 0.095073 0.061271001
0.083492003 0.087617002 0.059227001
0.058116 0.056988999 0.049513001
0.045479 0.045681 0.048071001
0.075848997 0.097575001 0.071952
0.051803 0.071594 0.064115003
0.055433001 0.076943003 0.068198003
0.067694999 0.091330998 0.073002003
0.071296997 0.098502003 0.075328
0.039749 0.056559 0.059560999
0.023987001 0.099624 0.10761
0.021757999 0.095238999 0.10765
0.010834 0.090681002 0.10843
0.0070874002 0.088301003 0.11081
0.0054497002 0.088362001 0.10983
0.018293001 0.11464 0.12429
-0.004623 0.088365003 0.11532
-0.0083796997 0.090535998 0.12138
0.0085262004 0.11628 0.13027
-0.0073894002 0.093246996 0.12345
0.0040261 0.1133 0.13176
0.00072200003 0.11123 0.13187
-0.0071723 0.10217 0.12995
0.059604999 0.045244001 0.038323
0.090907998 0.090048 0.056947
0.091082998 0.090176001 0.05838
0.054855999 0.045897 0.043492999
0.089975998 0.094498999 0.061494
0.090166003 0.093992002 0.060784001
0.059691001 0.055135999 0.046158001
0.056051001 0.046489 0.042985
0.061956 0.060835999 0.051266
0.076761 0.081165999 0.058738001
0.046928 0.046232 0.047091998
0.044257998 0.048602 0.050244998
0.045107 0.048432998 0.051683001
0.078824997 0.099739999 0.072727002
0.075501002 0.098567002 0.072990999
0.040459 0.053298 0.058265999
0.051801 0.071716003 0.064709
0.051043998 0.069038004 0.065176003
0.066119999 0.088703997 0.072319999
0.027236 0.098222002 0.10377
0.016944 0.087281004 0.10595
0.024583001 0.10276 0.11166
0.010508 0.085203998 0.10589
0.010428 0.090709001 0.10822
0.021149 0.10608 0.11422
0.0079015 0.089459002 0.11033
0.00069109001 0.087307997 0.11137
0.015315 0.1158 0.12797
0.012062 0.11681 0.12937
0.013864 0.11315 0.13080999
0.01095 0.11501 0.12985
0.0050761998 0.11359 0.13251001
0.0037086001 0.11124 0.13255
-0.0072766002 0.10102 0.12987
-0.0030952999 0.10782 0.13184001
0.093506999 0.092322998 0.057937998
0.094172999 0.092257001 0.057133999
0.093488 0.093107998 0.058626
0.095293999 0.093695 0.058697
0.059416 0.044222999 0.038950998
0.061997999 0.047433 0.040275
0.089178003 0.088983998 0.058598001
0.088841997 0.088271998 0.056940999
0.087624997 0.087462999 0.056967001
0.091785997 0.095214002 0.061574999
0.061657999 0.05424 0.045829002
0.061585002 0.054916002 0.044945002
0.060729001 0.05545 0.046161
0.084275 0.086553998 0.057991002
0.088886999 0.092859 0.059776001
0.088119999 0.092807002 0.060086999
0.086681999 0.093344003 0.062431
0.087503999 0.094489001 0.063522004
0.059921 0.054763 0.049132999
0.058912002 0.056214001 0.048175
0.053236 0.049070001 0.043651
0.082851999 0.086507 0.060214002
0.087848 0.094581001 0.062928997
0.057792999 0.057411999 0.048246
0.080513 0.085885003 0.061622001
0.081708997 0.086892001 0.059895001
0.087020002 0.094953999 0.064581998
0.079596996 0.084825002 0.061553001
0.059519999 0.057278998 0.049284
0.064363003 0.065089002 0.053043
0.064482003 0.064795002 0.052948002
0.069233999 0.070899002 0.055968001
0.073518001 0.079521999 0.059801001
0.051224999 0.045988999 0.046491999
0.085836999 0.099175997 0.067905001
0.087696999 0.099956997 0.065164998
0.048436001 0.045653 0.046438001
0.08365 0.09945 0.071165003
0.084455997 0.10038 0.069468997
0.044334002 0.048507001 0.049488999
0.082281001 0.097358003 0.072125003
0.080788001 0.098380998 0.071096003
0.078896001 0.097955003 0.072893001
0.077676997 0.095647998 0.072632998
0.043556001 0.050581001 0.05401
0.078754999 0.097997002 0.073237002
0.078327999 0.096640997 0.072982997
0.042555999 0.053665001 0.055743001
0.043097001 0.053560998 0.056398999
0.075243004 0.098017998 0.074492998
0.041912001 0.053199001 0.055245001
0.076017 0.098077998 0.075397998
0.039686002 0.053808998 0.059951
0.038191002 0.052901 0.057496
0.074643001 0.099292003 0.076001003
0.054062001 0.072534002 0.064664997
0.052361 0.072603002 0.065302998
0.040084999 0.053516999 0.059473
0.041182 0.052774999 0.058545999
0.04662 0.063943997 0.062383998
0.045508001 0.061521001 0.062456001
0.072664998 0.099133 0.076807998
0.072979003 0.098774001 0.077386998
0.041352 0.055769 0.060456
0.040959999 0.060180999 0.063174002
0.041627999 0.060132001 0.065164
0.026280001 0.099549003 0.10713
0.026289999 0.097808003 0.10578
0.024312001 0.098214 0.10759
0.024611 0.099788003 0.10731
0.018929999 0.090954997 0.10666
0.019597 0.092211999 0.10616
0.019447001 0.094829999 0.10647
0.024555 0.1007 0.11023
0.016766001 0.092165999 0.10745
0.022888999 0.094564997 0.10682
0.022087 0.098099001 0.10846
0.016100001 0.086836003 0.10486
0.014234 0.085372999 0.10499
0.01535 0.086952999 0.10648
0.017038999 0.089957997 0.10706
0.025292 0.10208 0.1124
0.024963999 0.10489 0.11104
0.026543999 0.10577 0.1122
0.01228 0.086547002 0.10598
0.0097361999 0.086384997 0.107
0.011317 0.087523997 0.10805
0.010957 0.086213 0.10656
0.012087 0.088926002 0.10813
0.010348 0.090689003 0.10813
0.023391999 0.10627 0.11465
0.0099451002 0.090525001 0.1104
0.021802999 0.10609 0.11504
0.021135001 0.10705 0.11617
0.0068235002 0.088292003 0.11011
0.0053698998 0.088529997 0.11117
0.0043970998 0.088062003 0.11071
0.019543 0.11259 0.12158
0.0011509 0.085878998 0.11312
0.019231001 0.11325 0.12413
-0.0018201 0.087696001 0.11298
0.015659999 0.1147 0.12588
-0.0043996 0.087986998 0.11876
0.015187 0.11624 0.12828
-0.0078399004 0.090586998 0.12102
0.01077 0.11547 0.13053
0.011789 0.11377 0.1295
0.0087746 0.11376 0.13087
-0.0088737998 0.091978997 0.12461
0.0078913001 0.11265 0.13062
-0.0080171004 0.093286 0.12399
-0.0072369999 0.094685003 0.12588
-0.0075591998 0.096678004 0.12841
0.00026058001 0.11118 0.13307001
0.0016248 0.1099 0.13165
-0.0090768002 0.096928999 0.12874
-0.0083034998 0.097567998 0.12876
-0.0037825 0.10687 0.13180999
-0.0039812 0.10494 0.13053
-0.0020592001 0.10473 0.13021
-0.0019971 0.10792 0.1322
-0.0010278 0.10921 0.13605
-0.00069777999 0.11153 0.13428
0.061542001 0.04806 0.040851999
0.060515001 0.049964 0.041777998
0.063239001 0.053049002 0.043717999
0.093316004 0.094610997 0.059992
0.093941003 0.094498999 0.060086001
0.062329002 0.054512002 0.045639001
0.085038997 0.086117998 0.057783
0.061749998 0.055047002 0.046328001
0.054547999 0.047598999 0.046094999
0.054196 0.047619998 0.045823999
0.051228002 0.046925999 0.046356
0.059103001 0.056790002 0.047104001
0.060672 0.058455002 0.050005998
0.06002 0.059599001 0.052166
0.062093999 0.061756998 0.052792002
0.061930001 0.061384 0.053268
0.064012997 0.063536003 0.053497002
0.066965997 0.065812998 0.054024
0.072768003 0.075401001 0.058364999
0.073339999 0.076240003 0.059505999
0.073582999 0.077151 0.060130998
0.049612999 0.047194 0.046069
0.084546998 0.099078998 0.068851002
0.045621999 0.047703002 0.049024999
0.081440002 0.099151999 0.071758002
0.045058999 0.047865 0.050046999
0.043843001 0.051511001 0.053571001
0.045538001 0.051867999 0.054473002
0.076155998 0.097359002 0.072966002
0.075264998 0.099134997 0.074955001
0.055853002 0.07683 0.067143001
0.060144 0.080298997 0.068990998
0.061037 0.082103997 0.070584998
0.060146 0.082131997 0.069399998
0.070860997 0.095082998 0.075479999
0.044257998 0.061661001 0.063414998
0.044381998 0.061393 0.063624002
0.040789999 0.058614001 0.062491
0.029756 0.098805003 0.10425
0.028835 0.098370001 0.10516
0.028262001 0.097309001 0.10573
0.029123001 0.096969999 0.10472
0.028279001 0.096933998 0.10508
0.028578 0.097441003 0.10649
0.019396 0.092105001 0.10531
0.021087 0.096318997 0.10858
0.022581 0.097372003 0.10851
0.024689 0.10478 0.11223
0.023262 0.10471 0.11432
0.021198001 0.10575 0.11457
0.011201 0.090813003 0.10997
0.0078400997 0.089088999 0.11108
0.020746 0.10664 0.11825
0.021546001 0.10743 0.1162
0.0063058999 0.087141 0.11199
0.022964001 0.10867 0.11994
0.019577 0.11171 0.12114
0.0024325999 0.086736999 0.11233
0.00095399999 0.084890999 0.11189
0.019145001 0.11344 0.12437
0.016907999 0.1139 0.125
0.017905001 0.11258 0.12435
-0.00091831997 0.086439997 0.11537
0.015429 0.11559 0.12696999
0.015897 0.1152 0.12667
-0.0047086002 0.088280998 0.11816
-0.0038624001 0.087086 0.11843
-0.0057684002 0.089636996 0.1187
-0.006854 0.089025997 0.11861
-0.0060079 0.090787999 0.12104
-0.0070524998 0.090377003 0.12128
-0.0079795001 0.091963001 0.12197
0.0079397997 0.11264 0.13192999
0.0045759999 0.10959 0.13323
0.0049649002 0.11186 0.13307001
0.0028466 0.11057 0.13197
-0.0046009002 0.10227 0.13043
-0.0035914001 0.1026 0.13158999
-0.0047577 0.10471 0.13059001
-0.0016609 0.10932 0.13421001
0.058997001 0.046397999 0.038816001
0.091957003 0.091435 0.057898
0.062208999 0.051229998 0.041388001
0.055861998 0.044682998 0.040185001
0.063323997 0.052894998 0.044006001
0.085552998 0.085694 0.060299002
0.088174 0.094176002 0.06538
0.052060999 0.047479998 0.045887001
0.082111999 0.086165003 0.059934001
0.060428001 0.055945002 0.049658
0.074460998 0.077347003 0.060231
0.087139003 0.096748002 0.066128999
0.084702998 0.099111997 0.069766998
0.045196 0.046843 0.04933
0.080582 0.097750001 0.073165998
0.045368001 0.049231999 0.053808
0.045683999 0.051534999 0.054675002
0.044154 0.051173002 0.055440001
0.042601001 0.052526001 0.056077
0.052728001 0.071631998 0.065661997
0.053815 0.071585998 0.066251002
0.055339001 0.074112996 0.066436999
0.053957 0.073550001 0.065980002
0.057863999 0.078409001 0.068277001
0.061863001 0.083267003 0.071845002
0.068030998 0.092263997 0.073971003
0.049275 0.067506999 0.065503001
0.063879997 0.086208001 0.072465003
0.065022998 0.087194003 0.073489003
0.064319998 0.091122001 0.072387002
0.070184 0.096662 0.077313997
0.041026 0.056919001 0.06137
0.044362999 0.060559001 0.062288001
0.040415999 0.057174999 0.061843999
0.041582 0.062711 0.063291997
0.027996 0.098236002 0.10697
0.025828 0.098486997 0.1056
0.02462 0.10032 0.10967
0.025211001 0.098088004 0.11014
0.023673 0.098048002 0.10787
0.012019 0.086171001 0.10472
0.01313 0.090907998 0.10881
0.022558 0.10323 0.11428
0.023991 0.10445 0.11411
0.011138 0.091581002 0.10962
0.0091575002 0.090291001 0.10904
0.022253999 0.10975 0.11909
0.0036553 0.087507002 0.11134
0.021120001 0.11036 0.12046
0.00052603998 0.086833999 0.11474
0.019716 0.11132 0.12366
0.00063093001 0.086259 0.1138
0.0174 0.11201 0.12524
-0.0073483 0.090521999 0.11974
0.0093534999 0.114 0.13041
0.0085252998 0.11532 0.13131
-0.0086700004 0.093822002 0.12597001
-0.0077746999 0.099910997 0.12834001
-0.0057759001 0.099491 0.12908
-0.0063323998 0.10201 0.12977999
-0.0086748004 0.096865997 0.1283
-0.0014641 0.11028 0.13425
0.055530999 0.044250999 0.041708998
0.057688002 0.045857999 0.043189999
0.086805001 0.087334998 0.056965999
0.062907003 0.05398 0.045097999
0.055470999 0.048424002 0.044544
0.060086001 0.05517 0.049180999
0.082695 0.084431998 0.060320999
0.050620999 0.047019001 0.046317
0.087443002 0.096074 0.065458
0.046851002 0.045198001 0.048666999
0.046831999 0.065817997 0.062693998
0.049637001 0.069668002 0.066211
0.066751003 0.091789 0.071957
0.068343997 0.093620002 0.075014003
0.041542001 0.058065001 0.062576003
0.041754998 0.058199 0.063446
0.025075 0.099105999 0.10773
0.020643 0.094327003 0.10692
0.021624001 0.094342999 0.10856
0.024660001 0.10162 0.10997
0.014633 0.086919002 0.10598
0.025055001 0.10296 0.11135
0.025256 0.10347 0.1134
0.024739999 0.10453 0.11228
0.023014 0.10761 0.11853
0.0070378999 0.090216003 0.11139
-0.00089991 0.086535998 0.11412
-0.0026431 0.086042002 0.11478
-0.0021189 0.087247998 0.11731
0.014335 0.11413 0.12862
-0.0063807 0.091362998 0.12373
0.0048797 0.11216 0.13236
-0.0095384 0.096950002 0.1274
-0.00064832001 0.10691 0.13322
0.064193003 0.049168002 0.042238001
0.064094 0.048962001 0.042734999
0.090740003 0.094442002 0.060736999
0.054903999 0.045372002 0.043600999
0.063238002 0.062746003 0.054806001
0.086317003 0.097143002 0.068654999
0.043343 0.052701999 0.057043999
0.048767999 0.066875003 0.065177001
0.072278 0.096307002 0.075429
0.011948 0.088359997 0.10693
0.012571 0.090377003 0.11039
0.021718999 0.10285 0.11408
0.021368001 0.10217 0.11437
0.021128001 0.10418 0.11557
0.021596 0.1105 0.12115
0.017057 0.11299 0.12606999
-0.0049020001 0.088243999 0.11967
0.011036 0.11236 0.13038
0.0094630998 0.11355 0.13142
-0.0079488996 0.093083002 0.1247
-0.0067372001 0.093956001 0.12616
-0.0046953 0.10145 0.12898999
0.057023 0.045031998 0.041926999
0.093053997 0.090239003 0.058646999
0.088831 0.088960998 0.057813998
0.084734 0.084386997 0.057494
0.063553996 0.055519 0.046631999
0.084146999 0.084600002 0.058272999
0.055806 0.047488999 0.044047002
0.060486998 0.054368999 0.04823
0.087194003 0.095358998 0.067695998
0.051853001 0.046441 0.047258001
0.078147002 0.080835998 0.060327999
0.065854996 0.065305002 0.053231999
0.066545002 0.066372998 0.056293
0.073893003 0.074079998 0.061319999
0.074726999 0.079884999 0.060364
0.049598999 0.046190999 0.048108
0.085855998 0.099335 0.068503998
0.077999003 0.095822997 0.072944999
0.076252997 0.096331 0.074755996
0.075943999 0.096133001 0.073113002
0.075891003 0.097957 0.074900001
0.042206999 0.051275 0.057032
0.074243002 0.099555999 0.076862
0.056338999 0.07598 0.068769
0.048206002 0.064450003 0.063824996
0.062436 0.083559997 0.073256001
0.065953001 0.088878997 0.073844999
0.042993002 0.057507999 0.061588999
0.020004001 0.092371002 0.10777
0.019151 0.092391998 0.10718
0.015357 0.087866001 0.10747
0.01227 0.087366 0.10775
0.013842 0.090599 0.10994
0.014358 0.092689998 0.1102
0.013357 0.092859 0.10967
0.012411 0.091209002 0.11143
0.020421 0.1075 0.11864
0.021768 0.10861 0.12059
0.0043575 0.087182 0.1132
0.00040071001 0.087066002 0.11529
0.015668999 0.11363 0.12718
0.015635001 0.11314 0.12768
-0.0020886001 0.088907003 0.11832
0.012286 0.11263 0.12962
-0.0054084999 0.091034003 0.12392
0.0075710001 0.11191 0.13117
-0.0069117998 0.093895003 0.1261
0.0032776 0.10941 0.13388
-0.0063360999 0.094589002 0.12684
-0.0034898 0.10085 0.12907
0.063017003 0.047194999 0.040770002
0.060536999 0.047272 0.041568998
0.094738998 0.092673004 0.060315002
0.062561996 0.050710998 0.042339999
0.087274998 0.087424003 0.060330998
0.091213003 0.091425002 0.061891999
0.060359001 0.057149999 0.049899999
0.061790999 0.058619998 0.052312002
0.076687999 0.077914998 0.061009999
0.076759003 0.078419998 0.060819998
0.067235999 0.063652001 0.055057
0.065554 0.062982999 0.056118999
0.065737002 0.064525999 0.056377001
0.049860001 0.045595001 0.047826
0.084927998 0.099748001 0.070414998
0.045961 0.047906999 0.050765
0.045731999 0.050177999 0.052979
0.045173001 0.051766999 0.056717999
0.075645998 0.097530998 0.074785002
0.067950003 0.092450999 0.073945001
0.019680001 0.090823002 0.10632
0.024468999 0.10256 0.11184
0.014587 0.089373998 0.10718
0.015446 0.088229999 0.10836
0.025381999 0.10349 0.114
0.019924 0.10101 0.11389
0.02014 0.1022 0.11368
0.020998999 0.10278 0.11651
0.01156 0.092789002 0.11148
0.020335 0.10521 0.11734
0.0096487002 0.089698002 0.11265
0.022023 0.1057 0.11668
0.019506 0.10808 0.12085
0.020251 0.10818 0.11998
0.020006999 0.11126 0.12311
0.0015217999 0.086305998 0.11516
0.01911 0.10934 0.12187
0.02059 0.11179 0.123
-0.0022406001 0.088688999 0.11712
-0.0046079 0.087653004 0.12047
0.014457 0.11284 0.12729999
0.012719 0.11322 0.13061
-0.0056588999 0.090576999 0.12108
0.0073421998 0.10968 0.13122
-0.0063601001 0.09409 0.12636
0.0056465999 0.10927 0.13244
0.0046497998 0.10867 0.13189
-0.0066692 0.095811002 0.12778001
-0.0056642001 0.098976001 0.12988999
-0.0046827998 0.10007 0.13076
-0.001755 0.10555 0.1322
-0.00052875001 0.10751 0.13259
-6.1236e-07 0.10612 0.13151
0.057393 0.044057 0.040266
0.092652999 0.090015002 0.060398001
0.063623004 0.051644001 0.044447001
0.058623001 0.044702001 0.042491999
0.063642003 0.053854 0.048062999
0.092568003 0.09285 0.062899999
0.056898002 0.044275999 0.041556001
0.056816999 0.046422999 0.044036001
0.085510001 0.083169997 0.057769001
0.091848999 0.092510998 0.060844
0.063933998 0.054476 0.048223
0.084054999 0.083876997 0.059547
0.082557 0.084785998 0.060245998
0.056798998 0.046753999 0.046484999
0.063652001 0.056332 0.048712999
0.089564003 0.091094002 0.063823998
0.087692998 0.092509001 0.063381001
0.062217999 0.056063998 0.047779001
0.05514 0.048129 0.046286002
0.054145001 0.046712998 0.046383999
0.061416 0.057420999 0.051146999
0.053454999 0.046034999 0.047761999
0.079053 0.082984 0.060715001
0.079994 0.083792999 0.061965
0.065052003 0.065021001 0.054602001
0.067849003 0.069381997 0.056892
0.067782 0.068787999 0.057131
0.068935998 0.071061999 0.056251999
0.070458002 0.072296001 0.058609001
0.048796002 0.04589 0.050581999
0.048503 0.045981999 0.048498999
0.085038997 0.097649001 0.069941998
0.083466001 0.097971 0.069470003
0.046139002 0.048215002 0.053479001
0.081583001 0.097216003 0.071681
0.045414999 0.048884001 0.053656001
0.044814002 0.051045999 0.054726999
0.077880003 0.096340999 0.07423
0.045527998 0.051612999 0.056136001
0.043733999 0.052767999 0.056926001
0.045740001 0.053769 0.056472
0.045139 0.053846002 0.058171999
0.075984001 0.094902001 0.074597001
0.075304002 0.097184002 0.074947
0.073573999 0.097442001 0.076375
0.056688 0.074653 0.068582997
