# .PCD v0.7 - Point Cloud Data file format
VERSION 0.7
FIELDS x y z
SIZE 4 4 4
TYPE F F F
COUNT 1 1 1
WIDTH 1466
HEIGHT 1
VIEWPOINT 0 0 0 1 0 0 0
POINTS 1466
DATA ascii
0.071786001 0.058901001 0.034628998
0.071452998 0.059703 0.034715999
0.072704002 0.060254 0.03469
0.027379001 -0.043189 0.035328001
0.027123 -0.042055 0.035025001
-0.025381999 0.021752 0.12650999
-0.025072999 0.021005999 0.12639999
0.045549002 0.0040098 0.13304
0.046144001 0.0025034 0.13299
0.032650001 0.072962001 0.093340002
0.042266 -0.019299001 0.060637999
0.042530999 -0.019293001 0.060091
0.041418001 -0.019664001 0.059962999
0.061407 0.025149001 0.062031999
0.054639999 0.10848 0.071124002
0.044826999 0.10065 0.058750998
0.043361001 0.10048 0.058644
0.036400001 0.0048198001 0.13524
0.037129 0.0038093 0.13508999
0.058401 -0.0058562998 0.076535001
0.058269002 -0.0066931001 0.075264998
0.041687001 -0.040837001 0.065837003
0.042585999 -0.040571 0.066275001
0.041908 -0.039820999 0.066882998
0.013076 0.032687001 0.10862
0.012391 0.032134 0.1079
0.040743999 -0.045173001 0.045740999
0.040702999 0.052046999 0.075001001
0.036584999 0.0021178001 0.13523
0.036639001 0.0015755 0.13493
0.037276 0.0011382001 0.13494
0.060539 -0.0093654003 0.078667998
0.060709 -0.010041 0.079162002
0.060695 -0.010109 0.078543
0.040162001 0.034963999 0.11167
0.039701 0.035211001 0.11224
0.039452001 0.034281 0.11612
0.038628999 0.033975001 0.11624
0.033195999 0.10981 0.054071002
0.032370999 0.11043 0.053822
0.0296 -0.043901999 0.050276998
0.029338 -0.044723999 0.049011
0.069815002 0.034508999 0.079228997
0.070099004 0.033638999 0.078399003
-0.036973 0.014592 0.12254
-0.036618002 0.015172 0.12239
-0.037728999 0.014235 0.12202
0.038888 -0.01224 0.078272
0.039964002 -0.012542 0.077269003
0.03974 -0.012858 0.077877998
0.031853002 -0.021694999 0.12058
0.032726001 -0.021126 0.12139
0.031803999 -0.020571999 0.12189
0.021248 -0.013599 0.083504997
0.020942001 -0.012917 0.085009001
0.062410999 -0.0062171998 0.11044
0.0039959 -0.01661 0.082418002
0.066546999 0.037264001 0.085814998
0.065911002 0.035905 0.086172
0.053971 0.088693 0.067069001
0.053495001 0.089759 0.065990001
0.051277 0.015861001 0.12785999
0.051268 0.016759001 0.12695999
0.050671998 0.017445 0.1274
0.0097671002 0.0080856001 0.10105
0.068374 0.036458001 0.037935998
0.068079002 0.037767999 0.037696
0.069020003 0.037572 0.037362002
0.030478001 -0.043683998 0.034770001
0.019712999 -0.0036929999 0.12577
0.01914 -0.0020190999 0.12597001
0.019063 -0.0038083 0.125
0.054627001 -0.005407 0.073430002
0.054000001 -0.0058586001 0.072388999
0.092073001 0.070561998 0.026619
0.092506997 0.069931 0.025826
0.092912003 0.070695996 0.025459999
0.067622997 0.026366999 0.075557001
0.067284003 0.026271001 0.075300001
0.023961 0.023987001 0.12239
0.025186 0.023940001 0.12232
0.025080999 0.024769999 0.12162
0.021935999 0.070306003 0.076907001
0.022128999 0.071235001 0.076236002
0.024754001 -0.048604 0.041159999
0.025723999 -0.048278 0.042082999
0.025124 -0.048051 0.042018998
0.035941001 0.039331 0.10566
0.035057001 0.039374001 0.10542
0.035445999 0.014136 0.13276
0.064676002 0.045711 0.043511
0.064718999 0.045161001 0.042877998
0.067483 0.058373 0.038520999
0.067043997 0.059053998 0.039244998
0.027724 -0.022290999 0.11807
0.026802 -0.021372 0.11804
0.027296999 -0.022077 0.1174
0.082206003 0.059425 0.052120999
0.081688002 0.060894001 0.051626999
0.081597 0.060231999 0.051971
0.035287 -0.035087001 0.057500999
0.035431001 -0.034442 0.056515999
0.035209 -0.035555001 0.056795999
0.040555999 0.017302999 0.075107999
0.039425999 0.016317001 0.075120002
0.039291002 0.016951 0.075061001
0.030002 0.077527002 0.069930002
0.030502999 0.076091997 0.069839999
0.029666999 0.076858997 0.070224002
0.038803 0.047947999 0.101
0.037427999 0.046905998 0.10093
0.064995997 0.035891999 0.041476
0.064733997 0.035615999 0.042502999
0.064370997 0.036463 0.041933998
0.046831001 -0.04191 0.064254001
0.047201 -0.04245 0.063143998
0.0059515 0.0029577999 0.10548
0.0062928 0.0022435 0.10636
0.0061035999 0.0034046001 0.10596
-0.0037140001 -0.00097932003 0.074346997
-0.0027377 -0.0011488 0.075172998
-0.0031020001 -0.00042761999 0.073661998
0.055456001 0.041503999 0.054444
0.055178002 0.040817 0.054928999
0.018129 -0.049488001 0.046411
-0.028325999 0.027612999 0.11892
-0.028812001 0.027522 0.11816
0.029774001 0.011891 0.132
0.02918 0.012129 0.13166
0.038936 -0.021361999 0.099009
0.039469 -0.021106999 0.099463999
0.039016999 -0.020957001 0.10032
0.0056770998 0.031801 0.10651
0.0053233998 0.030618999 0.10562
-0.034960002 0.0037881001 0.12181
-0.034754999 0.0023801001 0.12152
0.053564001 0.01301 0.12722
0.060966998 0.049950998 0.064912997
0.060993001 0.049927998 0.066090003
0.045573 0.081093997 0.082075998
0.046744999 0.049883999 0.075770997
0.045874 0.049711 0.074974
0.045077998 0.050700001 0.075130999
0.044314001 0.053924002 0.077266
0.042567998 0.054527 0.076716997
0.024335001 0.075291 0.074243002
0.051107999 -0.019029999 0.094746001
9.1879003e-05 -0.00014572 0.083953999
0.00059925998 -0.00081982999 0.085020997
0.063295998 0.047573 0.085069001
0.063052997 0.048673999 0.084555
0.025148001 -0.0528 0.054712001
0.084473997 0.079194002 0.042544998
0.084625997 0.080802001 0.042479999
0.083967 0.080792002 0.042454001
0.025342001 0.00095628999 0.13211
0.025573 9.1979004e-05 0.13224
0.025838999 0.0010217 0.13248
0.045995001 0.065292999 0.079129003
0.045740999 0.066707 0.079271004
0.056368001 -0.012852 0.11482
0.011676 0.015930001 0.12184
0.012057 0.016616 0.12299
0.052427001 0.090117998 0.080669999
0.052186999 0.089376003 0.081174999
0.033991002 0.11301 0.057466
0.033110999 0.11297 0.057900999
0.075237997 0.033367999 0.048829999
0.066914998 0.033631999 0.042567998
0.066441 0.033689 0.042817999
0.066252999 0.034318998 0.042312998
0.013638 0.0032001 0.086608998
0.020653 -0.049796 0.046789002
0.021273 -0.049073 0.045719001
0.036931001 -0.028419999 0.068224996
0.036880001 -0.029340999 0.068502001
0.037583001 -0.02918 0.068848997
0.039411001 0.11188 0.056958999
0.038637001 0.11168 0.056402002
0.038686998 0.11246 0.057518002
0.042711999 0.071856 0.091476001
0.041852999 0.072408997 0.091265
0.027589999 0.052297998 0.093390003
0.066951998 0.035416 0.039409
0.066812001 0.036249999 0.03881
0.067500003 0.034945 0.039446998
0.023913 0.058825999 0.079539999
0.027279001 -0.0089389002 0.084312998
0.026343999 -0.0081262998 0.084582001
0.026727 -0.0072598001 0.084206998
0.034545999 -0.017283 0.082937002
0.033783 -0.017116001 0.083350003
0.022910001 0.021144999 0.081963003
0.087370999 0.078827001 0.042300001
0.035852 -0.0084563 0.077367
0.036428999 -0.0076056002 0.077056997
0.055169001 -0.036821999 0.055163998
0.054917 -0.037092 0.056430001
0.054637 -0.037494998 0.055727001
0.017665001 -0.033856001 0.089259997
0.017204 -0.034164 0.088877
0.017245 -0.033316001 0.088803999
0.010489 -0.00096366002 0.073014997
0.010889 -0.00101 0.073247999
0.075493999 0.036912002 0.045541
0.074225999 0.035532001 0.045240998
0.075773999 0.066794001 0.010584
0.075381003 0.066459998 0.01107
0.054547001 0.035344999 0.10945
0.054397002 0.036068 0.10855
0.036501002 0.059960999 0.099403001
0.031358 0.036688 0.079274997
0.030598 0.03633 0.080600001
0.030947 0.037459001 0.080092996
0.0012855 -0.01225 0.079107001
0.030848 -0.0098499004 0.13098
0.032033 -0.010493 0.13089
0.030925 -0.0090969997 0.13121
0.036703002 0.028655 0.072205998
0.035806999 0.029337 0.072365999
0.035726 0.030315001 0.071672
0.053234 0.0043410999 0.080176003
0.052096002 0.0041117002 0.080170996
0.045692001 0.044528 0.10487
0.045361999 0.04462 0.10441
0.044493999 0.044424001 0.10504
0.054276001 0.053305 0.089640997
0.055225 0.053332001 0.089051999
0.055043999 0.053874001 0.088687003
-0.044186 0.014304 0.11378
-0.04355 0.015594 0.11304
-0.044013001 0.015092 0.11231
0.035969 0.057549 0.073679999
0.035487998 0.056483999 0.073965997
0.029735999 0.11327 0.054653998
0.029154999 0.11365 0.055146001
0.077489004 0.072469003 0.031661998
0.077674001 0.071901001 0.030966001
0.033936001 0.11103 0.059526
0.035174001 0.11069 0.060359001
0.034936 0.11125 0.059962999
0.056843001 -0.0141 0.088036999
0.057806998 -0.013389 0.087710001
0.045568001 0.071039997 0.079423003
0.0078798998 -0.0054103001 0.10769
0.064202003 0.018909 0.10218
0.064172 0.019456999 0.10309
0.064374998 0.018648 0.10271
0.00083084003 -0.014828 0.089827001
0.00087933999 -0.014722 0.089102998
0.083272003 0.062139001 0.05054
0.082957998 0.061305001 0.051038999
0.084380999 0.061230998 0.049740002
0.059204999 -0.011768 0.074465998
0.045995001 0.070606999 0.081928998
0.057263002 0.025799001 0.065759003
0.05909 0.025432 0.066307001
0.058210999 0.025864 0.066514999
-0.017527999 0.031622998 0.10836
-0.018364999 0.030596999 0.10824
-0.018696001 0.030931 0.10925
0.044052999 0.029034 0.12086
0.044383999 0.028755 0.12097
0.035556 0.0052066999 0.13486999
0.036633998 0.0062289 0.1347
0.033286002 0.072130002 0.094456002
0.063299 0.0035655999 0.11684
0.063401997 0.0045071999 0.11631
0.062960997 0.0049246 0.11671
-0.012987 0.027097 0.10561
-0.013778 0.026805 0.10543
0.023166999 0.0070092999 0.084446996
0.023608999 0.0077320002 0.083791003
0.024126999 0.0060226 0.084008001
0.013475 -0.035041001 0.096785001
0.014681 -0.036079001 0.096372999
0.040863 -0.010513 0.074455999
0.040585998 -0.010827 0.074340001
0.067341998 0.036353 0.083222002
0.067437001 0.035741001 0.084339999
0.067055002 0.035408001 0.083912
0.050825998 0.081192002 0.075041004
0.051344 0.081756003 0.074568003
0.049001999 -0.039878 0.064957
0.059248 -0.022396 0.071261004
0.058997001 -0.023211 0.071658
0.047885999 0.032001 0.11624
0.0061558001 0.029784 0.10479
0.0070117 0.030337 0.1055
0.0069571999 0.029158 0.1041
0.060350001 0.0276 0.055289
0.06103 0.027403001 0.053562
0.0051174001 -0.0028647999 0.10257
0.0052498998 -0.0028933 0.10331
0.056439999 -0.01595 0.10228
0.055286001 -0.016929001 0.10201
0.055562999 -0.016336 0.1013
0.052615002 -0.012281 0.12243
0.048779 -0.010395 0.066413999
0.049516 -0.010022 0.067163996
0.042389002 0.1116 0.068242997
-0.0042034001 0.022225 0.12234
-0.0038198 0.022831 0.12266
-0.0044269999 0.022283001 0.12318
-0.042436 0.0033427 0.11229
-0.043244999 0.0039832001 0.11292
0.059711002 -0.01042 0.075741
0.059269 -0.0096137002 0.075461
0.072166003 0.048020002 0.066327997
0.072347 0.047632001 0.066861004
0.073115997 0.047316 0.066538997
0.036973 0.10598 0.054724
0.073994003 0.032354001 0.048749
0.074344002 0.033069 0.047989
0.015941 -0.028516 0.097511999
0.015998 -0.027550001 0.098269001
0.015414 -0.028167 0.098364003
-0.0045654001 -0.0066935001 0.068212003
-0.0034449 -0.0060152002 0.068681002
0.083910003 0.064836003 0.023786001
0.084431998 0.065157004 0.024493
0.083154 0.065257996 0.024472
0.0084138997 -0.039416999 0.089989997
0.020470999 -0.046764001 0.040369
0.020114001 -0.045984998 0.040206999
0.019754 -0.047049001 0.039556999
0.059018001 0.026353 0.059601001
0.060272001 0.025695 0.059083998
0.0082921004 -0.015845001 0.079256997
0.031168999 0.035773002 0.079816997
0.03077 0.035108998 0.078846999
0.030707 0.034997001 0.079853997
0.068847001 0.057780001 0.036497999
0.068012998 0.057565998 0.037753001
0.044907 0.069894999 0.077435002
0.045209002 0.069370002 0.078636996
0.044813 0.069159001 0.077531002
-0.00093232002 0.035131 0.11607
-0.0018687 0.035087999 0.11555
-0.0021096 0.03486 0.11616
0.028168 0.058215 0.096776001
0.027778 0.059528999 0.096758001
0.027602 0.058779001 0.096091002
-0.038309 0.016899001 0.11972
-0.038566001 0.016044 0.12035
-0.037905999 0.017232999 0.12032
0.045968 -0.023535 0.079354003
0.045083001 -0.023759 0.078534
0.046131998 -0.024549 0.077923
0.029676 0.056977998 0.075452998
0.030596999 0.055746999 0.075687997
0.0043140999 0.018316999 0.11868
0.0042695999 0.019200999 0.12004
0.052142002 0.021336 0.12332
0.051185999 0.021616001 0.12403
0.051816002 0.020845 0.12442
0.0075285002 -0.0079365 0.071960002
0.060378999 0.048147 0.082304001
0.060897 0.047230002 0.082281001
-0.0039634001 -0.0022724001 0.071405001
0.068903998 0.060230002 0.093702003
0.068072997 0.059730001 0.093406998
-0.013205 -0.022017 0.11238
-0.012392 -0.021599 0.11332
-0.013889 -0.021407999 0.11305
0.056947 -0.0056171999 0.074592002
0.056398999 0.011173 0.12467
0.055610001 0.012295 0.12424
0.057631999 0.039783001 0.10066
0.058548 0.039122 0.10002
-0.014054 0.014358 0.12408
0.061831001 0.025010999 0.059328999
0.062096 0.025141001 0.059177998
0.020855 0.030905001 0.10977
0.020042 0.03098 0.10916
-0.0027025 -0.0098432004 0.089261003
-0.0027655 -0.0089194998 0.088551998
0.011838 -0.026484 0.089960001
0.012677 -0.026005 0.090740003
0.01258 -0.026846001 0.090891004
0.049628001 0.023050001 0.12432
0.084082998 0.062036999 0.031741001
0.083515003 0.061163001 0.032428999
0.082506001 0.062341001 0.031282999
0.0043158 -0.00073799002 0.090585001
0.0033638 0.036825001 0.11398
0.0026243001 0.036262002 0.11514
0.0036567999 0.036947001 0.11488
-0.0063975998 -0.010177 0.067019001
-0.0053412002 -0.010124 0.067032002
-0.0065842001 -0.0106 0.067523003
0.055743001 0.10822 0.05993
0.016772 -0.032419998 0.095307998
0.030564999 -0.042201001 0.042789001
0.030169001 -0.042305999 0.043361001
0.090208001 0.077115998 0.028139999
0.089174002 0.076615997 0.027336
-0.019005001 0.014642 0.12592
-0.019207001 0.01345 0.12494
-0.01825 0.014125 0.12544
0.0066805999 0.011906 0.10407
0.0071548 0.012812 0.10355
0.033289999 0.11647 0.063522004
0.031890001 0.1155 0.063809998
0.032777999 0.11561 0.06425
0.064985 -0.00066696998 0.10491
0.064506002 -0.00045362001 0.10434
0.059248999 0.055654 0.089767002
0.059857 0.055082999 0.091072999
0.081358999 0.073356003 0.045035001
0.082800001 0.073128998 0.045187
0.082339004 0.073285997 0.044959001
0.048941001 0.081644997 0.080838002
0.04941 0.081477001 0.080371998
0.049722001 0.081887998 0.079727001
0.058522001 0.048999999 0.093704998
0.059406001 0.04854 0.093516
0.058878999 0.050129998 0.093401998
0.058295 -0.0033143 0.082613997
0.057858001 -0.0030054001 0.081707001
0.065292001 0.1071 0.066928998
0.064878002 0.10692 0.068071999
0.064974003 0.10611 0.067326002
0.054170001 0.053323999 0.090579003
0.077596001 0.040635999 0.048156001
0.077692002 0.041023001 0.048893999
0.077377997 0.040422998 0.049189001
0.040720001 0.048943002 0.10127
0.041429002 0.047672998 0.10147
0.041728001 0.048911002 0.10105
0.060371 0.020436 0.082241997
0.060031999 0.021120001 0.080472998
0.033691 0.046229001 0.098847002
0.032864001 0.045286 0.097967997
0.033569001 0.045389999 0.098540001
0.059881002 0.056648001 0.089175999
0.068636 0.055815998 0.052430999
0.067868002 0.055569001 0.051844999
0.068364002 0.054852001 0.051676001
0.065879002 0.013052 0.099730998
0.065618001 0.013038 0.10049
0.065477997 0.012258 0.099347003
-0.0024194 -0.021818001 0.10884
-0.0012437 -0.020695999 0.10911
-0.0022076 -0.020841001 0.10999
0.022499001 0.030745 0.11311
0.022392999 0.030568 0.11189
-0.026962999 0.028322 0.11268
0.040029 -0.020919999 0.091067001
0.052866001 -0.019614 0.061229002
0.051934998 -0.018517001 0.061868999
0.052719999 -0.018964 0.061694
-0.023317 0.031799 0.12457
-0.02444 0.031174 0.12372
0.0051895999 0.033746 0.10846
0.0061443001 0.033932 0.10928
0.055438001 0.11086 0.068453997
0.038977999 0.094433002 0.081487
0.047984 0.030972 0.11717
0.045338001 0.090115003 0.085437998
0.044658002 0.091283999 0.085303001
0.044472001 0.090492003 0.085546002
0.042148001 0.094958998 0.066472001
0.065880001 0.011758 0.10281
0.048363 0.11135 0.068246998
0.048944999 0.11139 0.068396002
0.049137 0.11217 0.067763999
0.071713999 0.068581998 0.044487
0.072240002 0.068052001 0.046165001
-0.020865999 0.01694 0.11457
-0.021829 0.016925 0.11429
0.065438002 0.030245 0.089942001
0.065573998 0.031571001 0.089896999
0.057571001 0.045919999 0.059374001
0.056944001 0.045267999 0.060888
0.057498999 0.04569 0.060380001
0.016887 -0.011717 0.080365002
0.016019 -0.011489 0.079471
0.016536999 -0.010611 0.080805004
0.048425 0.0047535999 0.13186
0.049841002 0.0044808001 0.13124999
0.049026001 0.0051882002 0.13180999
0.051139999 0.086997002 0.065130003
0.051288001 0.085964002 0.065840997
0.050106999 0.085801996 0.065186001
0.075917996 0.068485998 0.018849
0.075149998 0.068983003 0.017418001
0.075846002 0.068415001 0.017859001
0.049378999 0.083361998 0.081742004
0.077068999 0.058818001 0.053714
0.076972999 0.057946 0.053849
0.0086925998 -0.033307999 0.088538997
0.0078974003 -0.033571001 0.088063002
0.0084186997 -0.031923998 0.088441998
0.027735 0.019306 0.12878001
0.072962999 0.032265 0.046388999
0.073096998 0.032129999 0.047885001
0.072624996 0.031571999 0.046957999
0.065384001 0.011808 0.098623998
0.061806999 0.040631998 0.093905002
0.061585002 0.042575002 0.093607001
0.061246999 0.041398998 0.094613999
0.010151 -0.035682 0.090019003
0.01081 -0.036495 0.090180002
0.016789 0.029414 0.10582
0.017047999 0.030172 0.10729
0.017380999 0.029925 0.10649
0.055925 -0.0084774001 0.12159
0.055013999 -0.0092128003 0.12212
0.055385001 -0.010087 0.12083
0.01042 -0.023497 0.087041996
0.011564 -0.022918001 0.085848004
0.030166 0.037121002 0.081533998
-0.004162 0.028387001 0.12316
-0.0036486001 0.029227 0.12276
-0.0045913998 0.028642001 0.1234
0.023154 -0.0092174998 0.1274
-0.0025964 -0.0030650001 0.082492001
-0.0025475 -0.010269 0.067910001
-0.0021206001 -0.0091562998 0.067385003
-0.0014719 -0.0096479999 0.067171
0.045288 0.075340003 0.080664001
0.045026999 0.074395001 0.081228003
0.045290999 0.073592998 0.080724001
0.076683998 0.04042 0.041184001
0.0080439998 0.0013231999 0.086976998
0.0082657998 0.0012388 0.087640002
0.0091297003 0.0017334 0.087632999
0.054366998 0.031574 0.10858
0.055202 0.031349 0.10794
0.070358999 0.055491999 0.090328
0.069851004 0.055404 0.090639003
0.0070595001 -0.020834001 0.086517997
0.0083876997 -0.021791 0.086282
0.0074204002 -0.021190999 0.087348998
0.038410001 -0.021902001 0.094292998
0.059664998 0.030383 0.10454
0.029402001 -0.048898 0.041712999
-0.00081229 -0.015049 0.10331
-0.0013142 -0.015587 0.10263
-0.0016377 -0.015414 0.10373
0.045798 0.065849997 0.078791998
-0.000159 -0.016465999 0.10974
0.00032778 -0.015336 0.10939
-0.00090381003 -0.014629 0.10981
0.051672 -0.019115999 0.099949002
0.067535996 0.052889001 0.090452999
0.066294 0.051674001 0.090249002
0.066992998 0.052253 0.089983001
0.010106 0.0024979999 0.083136
0.0092877997 0.0021148 0.083632998
0.010472 0.0028706 0.083838001
0.042819999 0.10153 0.061330002
0.041926999 0.10246 0.061353002
-0.043168999 0.016047001 0.1123
-0.043026 0.016433001 0.11332
0.054014999 0.043200999 0.063046001
-0.0042285002 -0.022394 0.10614
-0.0048516002 -0.022670999 0.10689
0.026152 0.030785 0.082938999
0.034835 -0.052552 0.055142
0.035169002 -0.052390002 0.054641999
0.035728 -0.052363001 0.055112001
0.062040001 0.027217999 0.053289998
0.06126 0.026868001 0.054616001
-0.024398999 0.031183001 0.11723
-0.024106 0.031390999 0.1167
0.061484002 0.035459001 0.045988001
0.062104002 0.034880999 0.045520999
0.062151 0.033964999 0.046390001
-0.0070162001 -0.019855 0.10658
-0.0077351001 -0.020036999 0.10575
-0.0084835002 -0.020333 0.10648
-0.016363 0.014404 0.12532
-0.015865 0.015291 0.12559
-0.037698999 0.0081799002 0.12052
-0.037891999 0.0068903002 0.11945
0.054730002 -0.026986999 0.056797002
0.054999001 -0.026879 0.057172
0.055608001 -0.027244 0.057650998
0.070844002 0.027293 0.054226
0.029573999 0.050675999 0.07993
0.029193001 0.051054999 0.080577999
0.055892002 -0.034651 0.055971999
0.055121999 0.0094707003 0.082088001
0.054790001 0.010257 0.081831999
0.055601001 0.010532 0.082529001
0.0099985003 -0.023065001 0.099542998
0.0094608003 -0.022603 0.099823996
-0.023414001 0.019400001 0.12704
0.038943999 -0.028902 0.053766001
0.038522001 -0.029539 0.054304
0.055236999 -0.024225 0.060632002
0.055202998 -0.025137 0.059413999
0.054850999 -0.024359999 0.059827998
0.065553002 0.0088548996 0.10028
0.065600999 0.0075977002 0.10056
0.064387001 0.01867 0.10641
0.064540997 0.018275 0.10617
0.064654998 0.018387999 0.10527
0.010439 -0.010156 0.11423
0.010441 -0.011151 0.11357
0.017533001 -0.013997 0.078994997
0.017295999 -0.014972 0.079414003
-0.0015712 -0.015159 0.11015
-0.0021114 -0.014212 0.11008
0.028472001 -0.010742 0.12939
0.028441001 -0.0098217996 0.13005
-0.012197 -0.022807 0.11221
-0.012599 -0.022515001 0.11138
-0.0039213998 -0.0046895002 0.079396002
-0.0032393001 -0.0055404999 0.079209
-0.0034843001 -0.0046349 0.080348998
0.049637001 -0.017019 0.11873
-0.0084942002 -0.0089421999 0.069734
-0.0073655001 -0.0086458996 0.070713997
-0.0087973 -0.0081582004 0.070012003
0.057895001 -0.019472999 0.079116002
0.057324 -0.020057 0.078564003
0.060290001 0.014506 0.11893
0.029839 0.026797 0.076603003
0.028812001 0.025465 0.076591
0.052990001 -0.011697 0.067009002
0.052278001 -0.012112 0.066514
0.052258998 -0.010885 0.067019001
0.05333 -0.0096727004 0.12418
0.052648 -0.010426 0.12448
0.020024 0.013991 0.127
0.019282 0.015002 0.1259
0.01251 -0.0093679 0.11658
0.012664 -0.010253 0.11628
0.012836 -0.010852 0.11624
-0.0080821002 0.029462 0.10665
-0.0083274003 0.028585 0.10628
0.032924999 0.10878 0.054434001
0.034355 0.10783 0.055312999
0.032697 0.1083 0.055137999
0.017492 -0.023236001 0.089821003
0.039489001 0.039370999 0.068513997
0.038855001 0.038835 0.068558998
0.047869999 -0.00054646999 0.077206999
0.047768999 0.00026080001 0.077136002
0.017229 -0.02949 0.095449999
0.017851001 -0.028739 0.094985001
0.040649001 0.0074594002 0.073143996
0.042477999 0.0066751 0.073784001
0.041491002 0.0066340002 0.073086001
-0.0018214 0.02837 0.10726
-0.00087624998 0.028895 0.10703
-0.042157002 0.0057096998 0.11111
-0.041262999 0.0061452999 0.11154
-0.031833 0.021834999 0.11343
-0.031234 0.020978 0.11264
-0.036671001 0.019947 0.12056
0.080881998 0.062228002 0.051734
0.079650998 0.062756002 0.051766999
0.0067912 0.011406 0.1057
0.0067953002 0.010766 0.10652
0.0071496 0.011697 0.10743
0.037354998 0.11328 0.060107
0.056984998 0.046804 0.066611998
0.057996001 0.047665 0.06684
0.031877 -0.041142002 0.044849999
0.032178 -0.040778 0.046238001
0.063874997 0.043754999 0.086650997
0.064263999 0.043051999 0.087645002
0.027341001 0.0062728999 0.075314999
0.026596 0.0070059998 0.075846002
0.026693 0.0071065999 0.075874999
0.065158002 0.048096001 0.042883001
0.064625002 0.046670999 0.043058999
0.064728998 0.047375001 0.043331001
0.033549 0.059827998 0.099201001
0.033217002 0.058961999 0.099133
0.033976 0.058467999 0.099428996
0.025829 0.030379999 0.085083999
0.014304 -0.0089827003 0.078703001
0.014418 -0.0080506001 0.078305997
0.014202 -0.0073889 0.078472003
0.0081746997 -0.019386999 0.084146999
0.0095531996 -0.019996 0.084123999
0.0094325002 -0.020679001 0.084646001
0.031980999 0.10824 0.055130001
0.017077001 -0.018081 0.08145
0.017983001 -0.017997 0.081882
0.017511999 -0.018684 0.082457997
0.025219999 0.0058797998 0.13221
0.024195001 0.0046005002 0.13173001
0.024986001 0.0049920999 0.13204999
0.052037001 0.056389999 0.089074001
0.065240003 0.012457 0.10109
0.065566003 0.011468 0.099869996
0.037055999 0.11463 0.060593002
0.043873999 0.076448999 0.084293
-0.013585 0.025684001 0.13042
-0.012703 0.025767 0.12991001
-0.01266 0.027075 0.13023999
0.044369999 -0.021517999 0.11418
0.025924001 -0.021175999 0.097474001
0.025474001 -0.021663001 0.097894996
-0.035342999 0.021912999 0.11996
-0.034453001 0.021258 0.12119
-0.034371 0.021932 0.12066
0.021559 0.0029263 0.084461004
0.020498 0.0033392 0.084941
0.022158001 0.0030189001 0.084360003
0.059319001 0.056062002 0.087777004
0.060291 0.056563001 0.088404998
0.060532 0.057002001 0.088164002
0.040578 -0.0086581996 0.13180999
0.039615002 -0.0081837 0.1322
0.039997 -0.0092244996 0.13152
0.077178001 0.035466 0.067275003
0.029406 -0.046263002 0.053176999
-0.015053 0.014317 0.11589
-0.016625 0.014394 0.11642
-0.015481 0.0152 0.11608
0.05449 -0.014794 0.063386001
0.013874 -0.024584001 0.10099
0.013336 -0.024548 0.10043
-0.032598 0.01915 0.12338
-0.032033 0.019081 0.12353
-0.031558 0.019960999 0.12288
-0.020662 0.015147 0.11604
-0.019859999 0.014863 0.11624
0.0019769999 0.026763 0.10624
0.028434999 0.0062512001 0.13348
0.028216001 0.0076782 0.13336
0.027322 0.0064500002 0.1329
0.023009 0.066540003 0.090392999
0.022575 0.065695003 0.088992998
0.022977 0.065257996 0.090729997
0.049692001 0.0042968998 0.077552997
0.0063275001 0.0027385999 0.10266
0.075995997 0.030303 0.063588001
0.076421 0.030755 0.063845001
0.068158999 0.061322 0.049341999
0.064011 -0.00069664 0.098172002
0.064217001 -1.3939e-05 0.097770996
0.032883 0.071778998 0.070505999
0.032896001 0.072938003 0.070648998
0.021209 -0.0025027001 0.083305001
0.068818003 0.043515 0.077529997
0.069654003 0.042025 0.077937998
-0.020559 0.033346999 0.11554
-0.020302 0.033314999 0.11458
-0.020935001 0.032977998 0.11493
0.0085068 0.023187 0.12467
-0.019308001 0.017026 0.12762
-0.020384001 0.015977001 0.12730999
-0.018719001 0.016089 0.12713
0.085946001 0.083434999 0.035743002
0.087048002 0.084132001 0.036396999
0.0066280998 0.032536 0.10696
0.0068613002 0.033606 0.10827
0.048069 0.099717997 0.062442999
0.034118999 -0.022608001 0.1045
0.035962999 -0.022477999 0.10476
0.034814 -0.022394 0.10573
0.0055236001 -0.020501999 0.092542998
0.087118998 0.071179003 0.043120999
0.087136999 0.070418999 0.043556999
0.087745003 0.070316002 0.042757999
0.068081997 0.032425001 0.08179
0.068406999 0.032072 0.080836996
0.018488999 0.010077 0.12676001
0.018879 0.0099616004 0.12701
0.054065 0.038401 0.055769999
0.054478001 0.039432999 0.055236001
0.050209001 0.044275001 0.070655003
0.049215999 0.043497998 0.069943003
0.049118001 0.044909 0.071266003
0.034221001 -0.041565999 0.036819998
0.033185001 -0.041035 0.036203001
0.03269 0.036373999 0.074791998
0.031814002 0.036658999 0.075457998
0.058888 0.048779 0.071059003
0.059362002 0.049219001 0.070202999
0.058173001 0.048622001 0.070343003
0.047876 0.065076001 0.084918
0.047701001 0.065056004 0.084057003
0.048859 0.021648999 0.12582
0.047917001 0.022558 0.12574001
0.038176 0.082911 0.066192001
0.038201999 0.084247999 0.066238001
0.038778 0.083788998 0.065817997
0.045543 0.10853 0.069168001
0.046682999 0.10958 0.069141999
0.02361 0.066054001 0.091577001
0.025241001 -0.019731 0.11885
0.024119001 -0.019211 0.11956
0.011367 -0.0096258996 0.11585
0.010977 -0.0090504996 0.11528
0.0058828001 0.035184 0.11882
0.0062622 0.035431001 0.11811
0.077803999 0.067726001 0.017255001
0.054712001 0.029255999 0.059457
0.054933999 0.028385 0.060502
0.053915001 0.029797001 0.060361002
0.027729001 0.057207 0.095647
0.027845001 0.055943999 0.095804997
0.028147001 0.057500001 0.096482001
0.036201 -0.045400001 0.059285998
0.036674999 -0.044753999 0.059347998
0.092886001 0.067065999 0.015829001
0.058394998 -0.010609 0.087934002
0.058736 -0.011659 0.086801998
0.060835 0.042550001 0.046909001
0.060729001 0.041956998 0.046849001
0.059935 0.042736001 0.048039
0.016956 -0.036713 0.091733001
0.016876999 -0.035704002 0.090814002
0.016903 -0.036008 0.091909997
0.017697999 -0.020104 0.11432
0.016868999 -0.020633999 0.11398
0.043641001 0.090425 0.085556999
0.043129001 0.091535002 0.085088998
0.042883001 0.090612002 0.085620001
0.013457 0.012329 0.090562999
0.012669 0.013154 0.091229998
0.03114 0.067299999 0.096832
0.030944001 0.066440001 0.096813999
0.031785998 0.067171 0.097269997
0.081551 0.063933998 0.092329003
0.080643997 0.064721003 0.092500001
0.082529001 0.064566001 0.092404999
0.054643001 -0.036146 0.053273998
0.054533999 -0.037223 0.053849
0.054311 0.026869001 0.11365
0.075133003 0.029362001 0.069544002
0.075815 0.030159 0.069412
0.074727997 0.0295 0.070652999
0.054402001 -0.028657001 0.068705
0.042884 -0.041289002 0.047270998
-0.001777 -0.0021454999 0.070744
-0.0013246 -0.0028512999 0.070652999
-0.0025992999 -0.0027113 0.070771001
0.021647001 -0.0084784003 0.12666
0.0217 -0.0081273997 0.12695999
0.020811001 -0.0085546998 0.12650999
0.010314 -0.044282001 0.088538997
0.010547 -0.044578001 0.089381002
0.0097724004 -0.043393999 0.089249
0.045387998 0.033721998 0.11335
0.065785997 0.026559999 0.082707003
0.065576002 0.026205 0.082216002
0.050462998 -0.022283999 0.082965001
0.052654002 0.028578 0.11323
0.026916999 0.033348002 0.087948002
0.058681998 -0.0098126 0.087090001
0.059023 -0.010558 0.085924
0.020561 0.029328 0.087854996
0.020576 0.029727999 0.08867
0.021383001 0.030042 0.088591002
0.051716 -0.0019767 0.077293999
0.05108 -0.0015705 0.077757001
-0.026039001 0.0070364 0.12489
-0.026647 0.0080875 0.12608001
-0.02667 0.0074745002 0.12544
-0.013373 0.028039001 0.10583
0.062743001 0.024653001 0.067805998
0.024304001 -0.0254 0.1021
0.03153 -0.017986 0.085952997
0.030789999 -0.017888 0.086809002
0.030920999 -0.017636999 0.086176001
-0.033585999 0.0030867001 0.12014
0.014401 0.026153 0.10201
0.0082577001 0.014275 0.10382
0.0077864998 0.014254 0.10466
0.054986998 0.10074 0.059953
0.025014 0.032278001 0.089934997
0.023851 0.031312 0.089956999
0.031722002 -0.042693999 0.049476001
0.04905 0.031018 0.065814003
0.048804998 0.032334 0.065840997
0.049364999 0.031973001 0.065389998
0.047118999 0.067189001 0.082686998
0.047327001 0.066578001 0.082924999
0.070588998 0.033631001 0.042552002
-0.010036 0.014924 0.11808
-0.01079 0.014461 0.11921
-0.010417 0.014433 0.11848
0.045779001 0.024205999 0.12519
0.046619002 0.023748999 0.12498
0.0061424002 -0.016477 0.1067
0.022729 0.060350001 0.087396003
0.023360001 0.058763999 0.087815002
0.022933999 0.059950002 0.088345997
0.058249999 -0.0070361001 0.08924
0.058013 -0.0074653002 0.090402998
0.058205001 -0.0080231 0.089670002
0.010322 0.019123999 0.097163998
0.028136 0.036676001 0.092547998
0.028813001 0.037409998 0.091958001
0.028325999 0.036570001 0.092009
0.035429999 0.049215 0.098872997
0.035473999 0.050214998 0.098632999
0.042511001 0.083512999 0.083949998
0.043285001 0.082869001 0.083489999
0.011013 0.034249999 0.11082
0.011892 0.033684999 0.1101
0.024708999 0.068940997 0.074078001
0.024204001 0.069449 0.074516997
0.05218 -0.010432 0.067578003
0.053461999 -0.011118 0.067630999
0.056650002 0.10902 0.070412003
0.057457 0.10872 0.070437998
0.045805 0.094278 0.063791998
0.046689998 0.093965001 0.063417003
0.045414001 0.093814999 0.063986003
0.030336 0.054963 0.076651998
0.01089 -0.0092503997 0.076481
0.011731 -0.0085735004 0.076038003
0.011863 -0.0096584 0.076945998
0.041972 0.10061 0.054676998
0.015294 -0.0067512002 0.11925
0.055064 -0.018957 0.063821003
0.055868998 -0.018596999 0.064695999
0.056341998 -0.020062 0.064834997
0.059797 0.022854 0.071526997
0.01444 0.0030650001 0.084926002
0.064103 0.10644 0.061432
0.092193 0.075609997 0.034141
0.091778003 0.073982999 0.033147998
0.03576 -0.037181001 0.04276
0.035358999 -0.037432998 0.043299001
0.053516999 -0.010825 0.12352
0.056674 0.012648 0.1232
0.060109001 -0.0085202996 0.083319001
0.060534999 -0.0099703996 0.083279997
0.016485 0.03011 0.12177
0.032033999 0.076962002 0.069554999
0.030703999 0.030878 0.11842
0.031059001 0.030768 0.11841
0.039156001 0.0056469999 0.072815001
0.040149 0.0058048 0.073282003
0.039018001 0.0048745 0.072871
0.057599999 0.038001999 0.1023
0.058534998 0.037553001 0.10156
0.057445001 0.038881 0.10119
0.026489999 0.013648 0.13144
0.026839999 0.012328 0.13150001
0.026976001 0.013599 0.13139001
0.048797999 -0.021276001 0.084536999
0.04941 -0.021662001 0.083897002
0.039113998 -0.045517001 0.043781999
0.038633998 -0.045021001 0.042374
0.0058228001 -0.019889999 0.099036999
0.0065251999 -0.020623 0.098508
0.0065139001 -0.020956 0.098995999
0.032345001 0.072185002 0.094135001
0.065489002 0.025103999 0.057013001
-0.024734 0.020591 0.12685999
0.062236 0.050212 0.060024001
0.011283 -0.0085835001 0.075597003
0.011896 -0.0078306999 0.075737998
-0.045186002 0.012466 0.11115
0.047265999 0.085188001 0.083722003
0.047777999 0.084623002 0.08337
0.047577001 0.085277997 0.083901003
0.051293001 -0.020693 0.057101
0.050878 0.0019494999 0.078841999
0.050884001 0.001356 0.078607999
-0.0023949 0.029598 0.10722
0.048900999 -0.020183001 0.10149
0.048342999 -0.019989001 0.10087
0.061427001 0.0057321 0.08845
0.011623 -0.00049638998 0.075285003
0.011594 -0.00057641999 0.076247998
0.012339 -0.0012801 0.076734997
0.054442 0.087356001 0.069151998
0.054543 0.088427998 0.068373002
0.064415999 0.052434999 0.044847
0.064999998 0.050825 0.044957001
0.024975 0.076637998 0.073032998
0.033163 -0.022598 0.095081002
0.031959999 -0.021609999 0.094673
0.033199001 -0.021876 0.094233997
0.027842 0.060676001 0.097283997
0.028183 0.061283 0.097333997
-0.034913 0.0044494998 0.11761
-0.035914999 0.0029984999 0.11722
0.046744999 -0.044360001 0.056045
0.047711998 -0.043861002 0.057080001
0.046528999 -0.044736002 0.056992002
0.008808 0.034152001 0.11062
0.0087452 0.034726001 0.11178
0.0097522 0.034233 0.11208
-0.010549 0.029580999 0.10616
0.042580999 0.076724 0.085175
0.04315 0.077046998 0.084628001
0.041999001 0.077459 0.085047998
0.082139 0.065537997 0.024754001
0.083025999 0.065412998 0.024759
0.083238997 0.053174999 0.037512999
0.084031001 0.053513002 0.038231
0.084229 0.052645002 0.038915001
0.045446001 0.038872998 0.10953
0.044353999 0.038396999 0.10985
0.045186002 0.038297001 0.11014
0.047798999 0.08839 0.063657999
0.091383003 0.066714004 0.025063001
-0.011435 0.014815 0.11521
-0.012168 0.016411001 0.11519
0.061841 0.046905998 0.05274
0.061769001 0.046472002 0.052083999
0.041179001 -0.0096116001 0.073863
0.041731 -0.0086273998 0.073882997
-0.038052998 0.019623 0.11997
-0.036704998 0.018828999 0.12106
0.051681999 0.097512998 0.080247998
0.052033 0.096065 0.080859996
0.057429999 -0.033057 0.061567999
0.056754 -0.034407001 0.060927
0.057055999 -0.033891998 0.060290001
0.075234003 0.028982 0.060143001
0.074837998 0.028393 0.059826002
0.075140998 0.028821001 0.059172001
0.087688997 0.083658002 0.041809
0.087481 0.083208002 0.042383999
0.075942002 0.056894999 0.033282001
-0.038385998 -0.0012538 0.11444
-0.038245998 -0.0019578 0.11447
-0.038915999 -0.0015961 0.11418
-0.012562 0.032219999 0.10733
-0.013117 0.032765999 0.10759
0.064328998 0.024851 0.079851002
0.064622998 0.024565 0.081242003
0.064126 0.024047 0.080482997
0.051406 0.11365 0.066569999
0.051622 0.11411 0.065614998
0.065445997 0.037608001 0.040019002
0.066136003 0.036798999 0.039335001
0.065825 0.035898998 0.040089
0.055172 0.049120001 0.080913
0.054570001 0.049977999 0.081413001
0.055394001 0.050551001 0.081978999
0.0013974 0.021651 0.12058
0.0018826 0.021096 0.11997
0.061257001 0.055333 0.091686003
0.060715999 0.055562001 0.091523997
0.016496001 0.0097912 0.12491
0.041999001 0.064815998 0.098122001
0.029688001 0.00078885001 0.13395999
0.016452 -0.022182999 0.1061
0.016697999 -0.02207 0.10712
0.064308003 0.025426 0.078353003
0.065043002 0.025855999 0.078626998
0.064182997 0.025083 0.078672998
0.0023564 -0.012139 0.071488
0.0043074 -0.012416 0.071620002
0.0033883001 -0.012074 0.072286002
0.012644 -0.0061937999 0.075988002
0.01309 -0.0060303002 0.076683
0.019246999 0.030859999 0.11141
0.019179 0.031536002 0.1131
0.040649999 0.030129001 0.071223997
0.040066 0.030130001 0.071571
0.041418001 0.031021999 0.070926003
-0.038105 0.0075905998 0.11838
-0.037965 0.0078632003 0.11914
0.028151 -0.018891999 0.088482
0.028767001 -0.018862 0.088242002
0.037308 -0.034258001 0.048928
0.037372001 -0.033546999 0.049984999
0.052655999 0.023391001 0.072553001
0.052643001 0.023525 0.071524002
0.053523999 0.023065001 0.073007002
-0.028584 0.0088115996 0.12709001
-0.029712001 0.0076699001 0.12665001
0.060926002 0.041179001 0.046029001
0.060954999 0.039393999 0.045605998
0.060428999 0.040394999 0.046530001
0.029518001 0.070235997 0.094244003
0.029335 0.069264002 0.094522998
0.040704999 -0.025342001 0.054527
0.041138999 -0.025212999 0.055539001
0.040419001 -0.02445 0.053819001
0.035806999 -0.034706 0.053989001
0.035946 -0.034209002 0.054644998
0.035983998 -0.033989999 0.055610001
0.064621001 0.02595 0.087378003
0.064583004 0.025251999 0.086319998
0.064905003 0.026325 0.085991003
0.031877 -0.0056952001 0.079703003
0.032733999 -0.0055030002 0.078511998
0.032717001 -0.0058240001 0.079429999
0.055289 0.018642001 0.12301
-0.037002001 0.012367 0.12232
-0.037002999 0.011362 0.12213
0.020504 0.029936999 0.1184
-0.013962 0.035369001 0.11815
0.061434999 -0.0092150997 0.097612999
0.060993999 -0.0096642002 0.096862003
-0.024507999 0.013747 0.11676
-0.023647999 0.013717 0.11687
-0.024605 0.012714 0.11752
0.072907999 0.047447 0.03497
0.072361998 0.047782999 0.035106
0.072477996 0.048891999 0.034961998
0.047988001 -0.019316001 0.11653
0.051847 0.046039999 0.071419999
0.051103 0.046064999 0.072307996
0.051791999 0.046760999 0.073269002
0.071240999 0.059741002 0.085427001
0.072178997 0.060253002 0.086297996
0.072382003 0.059588 0.086245
0.036699001 -0.021741999 0.12072
0.037921999 -0.021011 0.12095
0.036660001 -0.021018 0.12142
0.044385999 0.1161 0.065692998
0.044447001 0.11542 0.064388998
0.043506 0.11618 0.064762004
0.068363003 0.052707002 0.051318001
0.01911 0.0049840999 0.12815
0.020091999 0.0051858001 0.12882
0.017068001 -0.017015999 0.08044
0.021131 -0.014265 0.12294
0.021946 -0.014046 0.12397
0.02142 -0.013155 0.12388
0.051385 0.023957999 0.071356997
0.050616 0.023548 0.072336003
0.050783999 0.024057001 0.071861997
0.060821999 0.036261 0.046696
0.060919002 0.035960998 0.046535
0.060224 0.036775 0.047017001
0.037330002 0.10993 0.063685998
-0.023564 0.026202001 0.10813
-0.024537999 0.026234999 0.10915
-0.024239 0.02699 0.10913
0.074142002 0.02753 0.060486
0.033817001 -0.036919001 0.06041
0.075888 0.029356999 0.063764997
0.074991003 0.027876999 0.063725002
0.075668998 0.028568 0.063208997
0.060228001 -0.011659 0.10199
0.059262998 -0.012009 0.10111
0.049656 0.098113999 0.080493003
0.049571 0.099207997 0.079811998
0.04335 -0.042008001 0.048610002
0.015097 -0.041563001 0.091752
0.01422 -0.041889999 0.093098
0.014798 -0.042217001 0.092501
0.034510002 -0.0049486002 0.075603001
0.035631001 -0.0051421998 0.075708002
0.056109 0.030383 0.055550002
0.043744002 0.0063629001 0.074230999
0.024936 0.081168003 0.079056002
0.010097 -0.0028542001 0.11476
0.010415 -0.0035081001 0.1157
0.092308 0.078391999 0.035870001
0.014544 -0.0031945 0.11861
0.013351 -0.0033513 0.11819
0.013679 -0.0040654 0.11812
-0.034221001 0.0095124003 0.12508
-0.034938 0.0092791999 0.12473
0.0085744001 0.034876999 0.118
0.0078486996 0.034651998 0.11706
0.0081692003 0.034304999 0.11863
0.047619998 -0.036107998 0.070064001
0.046696998 -0.036761001 0.069499001
0.047313999 -0.036984999 0.068671003
0.05466 0.086502999 0.074305996
0.054269001 0.085170999 0.074106999
0.054292999 0.085596003 0.073780999
0.03435 -0.0074586999 0.078506
0.034053002 -0.0071298 0.078109004
0.024645999 0.073377997 0.073954001
0.025319999 0.072855003 0.073429003
0.024111999 0.072525002 0.074348003
0.025628 0.020462001 0.080376998
0.024925999 0.020989001 0.080882996
0.025266999 0.021907 0.080233
0.054031 -0.0047809002 0.073990002
0.065549999 0.01242 0.10986
0.065540001 0.01344 0.10855
0.065154999 0.013031 0.10925
0.0092925001 -0.0040878002 0.1089
0.010294 -0.0047833999 0.10919
0.01084 -0.0051842001 0.10963
0.022665 0.064774998 0.089371003
0.022787999 0.065001003 0.090283997
0.062486 -0.0033644 0.11464
0.061921 -0.0038813001 0.11577
0.041134998 -0.021483 0.10327
0.041317001 -0.021219 0.10228
0.033031002 0.013098 0.073067002
0.032981999 0.011714 0.072182
0.053339001 -0.039545 0.054329999
0.012195 -0.01732 0.11304
0.012184 -0.016538 0.11263
0.046700001 -0.037562001 0.048328999
0.026825 0.056086 0.079054996
0.027031999 0.055821002 0.078355998
0.028103 0.0072511998 0.074565001
0.027131001 0.0078913998 0.075451002
0.027504999 0.0090696998 0.074842997
0.060373999 0.1008 0.068228997
0.060401998 0.10125 0.067656003
0.047541998 -0.020781999 0.10447
0.048328999 -0.020396 0.10391
0.018338 0.010124 0.087661996
0.018696999 0.010311 0.086843997
0.057197001 0.052767999 0.084090002
0.05793 0.052476 0.083494999
0.056474 0.052017 0.083715998
0.065117002 0.051137999 0.046158001
0.010235 -0.02189 0.085059002
0.0089009004 -0.021648001 0.085343003
-0.0092163999 -0.022950999 0.11167
-0.0084066 -0.022993 0.11081
-0.0075638001 -0.022597 0.11168
0.030468 -0.0068994001 0.080518998
0.0091219004 0.003643 0.1028
0.0087425001 0.0043223999 0.10289
0.049778 0.015458 0.12902001
0.049447 0.015361 0.12921
0.066137999 0.059007 0.084472001
0.066715002 0.057626002 0.084278002
0.021121001 -0.047625002 0.039731
0.030247999 0.066321999 0.096807003
0.037147 0.020478001 0.074320003
0.088628002 0.064019002 0.042709999
0.015045 0.010764 0.090369001
0.037542 0.084495999 0.066016003
0.054798 -0.017169001 0.10269
0.053711001 -0.017836001 0.10247
0.054363001 -0.017548 0.10131
0.042562 -0.045058001 0.04975
0.042406 -0.044312999 0.048967
0.035512 0.0048012999 0.072378002
0.034648001 0.0043063001 0.072172999
0.034685001 0.005417 0.071983002
0.012568 0.0032056 0.086346
0.013672 0.0030710001 0.087477997
0.056731999 -0.013776 0.11051
0.055284999 -0.012059 0.11799
0.0091543002 -0.029069001 0.088362001
0.033240002 -0.052281 0.049539
0.031722002 -0.052421998 0.049454
0.032577001 -0.052087002 0.048223998
0.088514 0.066679001 0.031819001
0.087999001 0.066419996 0.030665001
0.089215003 0.067051001 0.030857
0.069931999 0.047504 0.035918001
0.069144003 0.048273999 0.036350999
0.069838002 0.049075 0.036176998
0.074371003 0.058471002 0.093061998
0.074919999 0.058208 0.092327997
0.033923 -0.039069001 0.047313999
-0.0083684996 -0.023252999 0.10916
0.042808998 0.064320996 0.076393001
0.0026934999 -0.018567 0.10714
0.0024727001 -0.018926 0.10584
0.0035298001 -0.018169999 0.10626
0.014558 0.026095999 0.10039
0.014201 0.025382999 0.10051
0.032049 0.090552002 0.072752997
0.031157 0.089498997 0.072650999
0.031296 0.090172999 0.073862001
0.027628001 -0.046549998 0.046466999
0.028547 -0.045825001 0.047194999
0.031063 -0.013918 0.080738001
0.031099999 -0.013421 0.080427997
-0.0087866997 0.022552 0.10717
-0.0087716002 0.023196001 0.1067
0.012739 -0.045090999 0.090267003
0.080215 0.081706002 0.03602
0.014854 -0.042920999 0.088210002
0.014973 -0.042529002 0.088812999
0.014977 -0.043347999 0.089258
0.045125999 0.077744 0.073907003
0.045255002 0.077656999 0.072759002
0.045880001 0.077625997 0.073317997
0.029011 0.084099002 0.078860998
0.029301001 0.085081004 0.078180999
0.028170999 0.084163003 0.078267001
0.064630002 0.057135999 0.045556001
0.076201998 0.059746999 0.094030999
0.077440999 0.060325 0.094917998
0.049336001 -0.015766 0.062803
0.071731001 0.055881001 0.088468999
0.040472999 -0.045513999 0.060364999
0.041283999 -0.045113001 0.061174002
0.017275 -0.035571001 0.089093
0.017279999 -0.034821998 0.089915
0.083131999 0.047230002 0.048827
0.083733998 0.047516 0.048131999
-0.0044145002 0.030206 0.12229
-0.0044661001 0.029518001 0.12294
-0.024292 0.0084228003 0.12368
-0.024704 0.0089253001 0.12451
-0.025312001 0.0080175996 0.1249
0.046055 0.056047998 0.097269997
0.045311 0.056407999 0.096965
-0.040761001 0.012467 0.11884
-0.040417999 0.011868 0.11897
-0.0096936999 -0.020505 0.1094
0.033824001 -0.039308 0.052636001
0.034628 -0.037973002 0.053272001
0.034224 -0.038596001 0.051699001
0.065696001 0.029816 0.085689001
0.052937001 -0.017855 0.096290998
0.012989 -0.018262999 0.11332
0.01259 -0.017331 0.11419
-0.00078383001 -0.0082473001 0.084908001
-0.00062066998 -0.0082123 0.084049001
0.076614 0.063414 0.051624
0.075130001 0.062831998 0.051913999
0.045862 0.042950001 0.069156997
0.045039002 0.043134999 0.068907
0.0451 0.044422001 0.069084004
0.091526002 0.071978003 0.021438001
0.056090999 -0.028292 0.057112999
0.056191999 -0.028988 0.055973999
0.055374 -0.028052 0.056228999
0.020028999 0.030253001 0.11917
0.019729 0.029722 0.12009
0.020718001 0.029746 0.11886
0.053201001 0.087595999 0.067070998
0.078489996 0.042822 0.047114
0.079187997 0.042895 0.045991998
0.030131999 0.034435999 0.10868
0.03033 0.034937002 0.11038
0.030762 0.034738999 0.10941
0.018964 0.0030133 0.12721001
0.020127 0.0024333999 0.12856001
0.019774999 0.003456 0.12818
0.064650998 0.054166999 0.041329
0.065722004 0.054582998 0.040205002
0.065439001 0.053658001 0.040389001
0.02421 0.056501001 0.083048001
0.065917999 0.046231002 0.040366001
0.082195997 0.062096 0.094062999
0.082661003 0.063189998 0.093134999
0.076931998 0.043485999 0.062019002
0.04104 -0.021419 0.094360001
0.041191 -0.021486999 0.093666002
0.042142998 -0.021098999 0.093365997
0.042415 0.074447997 0.088830002
0.013701 0.009908 0.12227
0.013274 0.010874 0.12189
0.012844 0.0094453003 0.12159
0.031953 -0.022991 0.11774
0.036318999 0.11675 0.063331001
0.037298001 0.11662 0.063481003
-0.0058514001 -0.0027701 0.076696999
-0.0053433999 -0.0023002001 0.076093003
-0.0060345 -0.0024154 0.075742997
0.089241996 0.076963998 0.040851001
0.088821001 0.077225 0.041435
0.0011945 0.033895999 0.10938
0.001746 0.033955 0.10839
0.031102 0.086568996 0.079242997
0.031782001 0.086038999 0.080334
0.031762 0.087062001 0.08004
0.058014002 0.037347998 0.10329
0.057991002 0.032079998 0.10437
0.057124998 0.032958001 0.10458
0.05711 0.031773999 0.10537
0.0082563004 -0.021623001 0.088673003
0.0074761999 -0.021283001 0.088184997
0.064216003 0.052246999 0.084234998
0.062673002 0.052779999 0.083774
0.063359998 0.053185001 0.084256001
0.027632 0.035999998 0.093707003
0.021575 0.030510001 0.11143
0.02079 0.030799 0.1117
0.03097 0.080741003 0.083063997
0.072507001 0.030218 0.074083999
0.073324002 0.031222001 0.073954999
0.07209 0.030771 0.074744001
-0.038608 0.019308999 0.11222
-0.038093001 0.018285999 0.11153
0.077284999 0.073765002 0.029199
0.077225 0.074017003 0.027687
0.077251002 0.07288 0.028295999
-0.011635 0.031355999 0.10695
-0.011113 0.031778 0.1073
-0.010205 0.031217 0.10692
0.028953999 0.030683 0.078009002
0.028725 0.030982001 0.078488
0.0089541003 0.0051962999 0.11101
0.0093023004 0.0044379001 0.11114
0.0099497996 0.0051397001 0.11186
0.056225002 -0.015954001 0.10307
0.073049001 0.040498 0.074798003
0.073740996 0.04002 0.074487001
0.051449999 0.032552999 0.062756002
0.05125 0.031564999 0.063669004
0.050779 0.033163 0.063203998
0.017981 0.020461001 0.083570004
0.018756 0.02177 0.083107002
0.018609 0.02108 0.083178997
0.071043998 0.060185999 0.035406001
0.070216 0.060718998 0.035785001
0.038407002 -0.041305002 0.039484002
0.038309 -0.042048 0.039588999
0.059537001 -0.014876 0.073760003
0.059696998 -0.016361 0.073833004
0.059335001 -0.015748 0.073522002
0.076485999 0.052126002 0.054341
0.076283999 0.051644001 0.05424
0.077228002 0.051134001 0.054258
0.045653 0.013872 0.13149001
0.045045 0.013219 0.13201
0.045988999 0.012525 0.13146999
0.080752 0.061533 0.031532999
0.080720998 0.052122001 0.053318001
0.080816999 0.051066 0.052859999
0.081502996 0.051261999 0.052529
-0.035866 0.019114999 0.12179
-0.035964001 0.020005001 0.12145
0.080641001 0.066804998 0.020714
0.062610999 0.05119 0.092257001
0.062088002 0.051008001 0.092327997
0.040212002 -0.02392 0.061328001
0.040088002 -0.024597 0.061997999
-0.035309002 0.018731 0.12227
0.076269001 0.050494 0.054003
0.077322997 0.049584001 0.053284999
0.040344 -0.035911001 0.045752998
0.041067999 -0.035960998 0.046634998
-0.02954 0.024925999 0.11469
-0.029208001 0.025677999 0.1152
-0.028488001 0.026445 0.11462
0.054637 -0.016107 0.096798003
0.055172998 -0.015464 0.096197002
0.054843999 -0.016253 0.097390004
0.063519001 0.028785 0.097855002
0.052616999 0.045600999 0.10099
0.067096002 0.047334 0.038619999
0.02471 -0.049626 0.048801001
0.031661 0.041579999 0.096966997
0.077904999 0.040803 0.054588001
0.077917002 0.041823 0.054320998
-0.01221 -0.020276999 0.11415
-0.013133 -0.021176999 0.11368
-0.012476 -0.021290001 0.11396
-0.00059036002 -0.00082014001 0.077918999
-0.0022656999 -0.00080039998 0.077613004
-0.0012044 -0.00062742003 0.078977004
0.053350002 0.038054001 0.057264999
0.052893002 0.038460001 0.058013
0.030664001 0.054616001 0.096881002
0.032001998 0.054322999 0.097281002
0.031567998 0.054947 0.097434998
0.044333 0.033682998 0.11584
0.04366 0.034247998 0.11503
0.043419998 0.034247998 0.11561
0.031911999 -0.022056 0.095022
0.023017 0.032170001 0.10644
-0.016466999 0.035432 0.12066
-0.015456 0.035498999 0.12134
-0.014934 0.035726 0.12085
-0.0033553001 0.028596999 0.10753
-0.0041196002 0.030145001 0.10768
0.058901001 0.10028 0.063781001
0.058835 0.10032 0.062882997
0.0025678 -0.014057 0.087158002
0.0033974999 -0.014772 0.086180001
0.0030257001 -0.015861999 0.086809002
0.042539999 -0.019382 0.081592001
0.042486999 -0.018769 0.083149999
0.01939 0.029198 0.093985997
0.018809 0.029273 0.095050998
