# .PCD v0.7 - Point Cloud Data file format
VERSION 0.7
FIELDS x y z
SIZE 4 4 4
TYPE F F F
COUNT 1 1 1
WIDTH 1564
HEIGHT 1
VIEWPOINT 0 0 0 1 0 0 0
POINTS 1564
DATA ascii
0.064019002 0.17404 0.044932
0.062098999 0.17123 0.017601
0.061675001 0.17242 0.017688001
0.060706001 0.17391001 0.017543999
0.061531998 0.17595001 0.018394001
0.062190998 0.17772999 0.018939
0.062043998 0.17816 0.017732
0.063101999 0.17974 0.018358
0.062831998 0.18098 0.018191
0.063463002 0.18295 0.017793
0.063157998 0.18423 0.018107001
0.063663997 0.18505999 0.019095
0.063249998 0.18723001 0.017996
0.063970998 0.18787 0.018622
0.064529002 0.18967 0.018594
0.064953998 0.19078 0.018038001
0.064388998 0.19261999 0.019083001
0.065024003 0.19415 0.018835999
0.066062003 0.19532 0.018944999
0.065842003 0.19573 0.018115999
0.065681003 0.1979 0.01912
0.066376999 0.19901 0.019317999
0.067309998 0.20073 0.018746
0.067498997 0.20276 0.018732
0.067704998 0.20351 0.018781001
0.067971997 0.20489 0.018418999
0.069077 0.20581 0.018519999
0.070465997 0.20705999 0.018253
0.070294 0.20777 0.016721999
0.072005004 0.20968001 0.017921001
0.072876997 0.21112999 0.017000001
0.073954001 0.21189 0.015579
0.075277999 0.21246 0.01456
0.075952001 0.21417999 0.014259
0.077875003 0.21566001 0.014336
0.079057999 0.21682 0.01269
0.080825999 0.21765999 0.012985
0.082447998 0.21945 0.012527
0.083107002 0.21885 0.012184
0.13891999 0.167 0.074720003
0.1401 0.16631 0.073698997
0.14001 0.16856 0.074513003
0.13978 0.16864 0.074513003
0.1406 0.16881999 0.074675001
0.13999 0.16962001 0.074321002
0.14394 0.14248 0.084115997
0.14365 0.14445999 0.084581003
0.11349 0.23969001 -0.033927001
0.11506 0.24094 -0.033562999
0.11428 0.24102999 -0.032705002
0.13759001 0.16706 0.076008998
0.13731 0.16689999 0.076384999
0.13639 0.16796 0.076603003
0.12017 0.1532 0.085385002
0.1211 0.1534 0.084554002
0.11725 0.24098 -0.032905001
0.10548 0.20772 0.066037998
0.10617 0.20873 0.066021003
0.12323 0.26809001 0.0068140002
0.12455 0.26923999 0.0062348
0.093138002 0.18098 0.076466002
0.10651 0.25455001 0.00077777001
0.10709 0.25569001 0.0015757
0.10772 0.25645 0.0019952001
0.10796 0.25944999 0.00084522
0.10957 0.26091 0.00154
0.1122 0.26225001 0.001021
0.11111 0.26102 0.0014165
0.10941 0.26168999 0.00085036003
0.054076001 0.13713001 0.035255
0.054855999 0.1367 0.035744
0.053975999 0.13798 0.033312
0.13463999 0.16443001 0.077013001
0.13431001 0.16535001 0.078720003
0.074621998 0.14693999 -0.0043159998
0.094812997 0.24318001 -0.0012404
0.096031003 0.24505 -0.0015373999
0.094870001 0.24518 -5.8747999e-05
0.075825997 0.1498 -0.0024448
0.077287003 0.14999001 -0.0036993001
0.12234 0.24271999 -0.033332001
0.12864999 0.13823999 0.089481004
0.12699001 0.13756999 0.089472003
0.12813 0.13583 0.088009
0.10722 0.20979001 0.066439003
0.10373 0.20603 0.067527004
0.054767001 0.13952 0.017270001
0.053073 0.14009 0.016855
0.054478999 0.13829 0.017351
0.15020999 0.25342 -0.047146
0.10667 0.24008 -0.0047718999
0.057078999 0.14289001 0.016890001
0.057597999 0.14495 0.016642001
0.057845999 0.14590999 0.016539
0.059590999 0.14702 0.015869999
0.060120001 0.14875001 0.016455
0.061106 0.14985999 0.016531
0.060424998 0.15068001 0.016316
0.060888 0.15283 0.015884001
0.061701 0.15387 0.016000001
0.061200999 0.15582 0.015913
0.060864002 0.15837 0.016576
0.068630002 0.25036001 0.0017629
0.068099 0.25207001 0.0014408
0.061257999 0.16008 0.016892999
0.061492 0.15996 0.015535
0.061880998 0.16038001 0.015966
0.061896 0.16135 0.017305
0.13243 0.12678 0.04699
0.061252002 0.16395 0.016835
0.060849998 0.16486999 0.017273
0.061081 0.16592 0.015952
0.062513001 0.16557001 0.016623
0.061659001 0.16719 0.017082
0.061358001 0.16621999 0.016416
0.062973 0.16762 0.016977999
0.061427999 0.16841 0.016525
0.061894 0.1683 0.018038001
0.062757999 0.1705 0.01805
0.062564999 0.17148 0.018774999
0.062245 0.17275999 0.017592
0.062968001 0.17374 0.018625
0.061675001 0.17561001 0.019196
0.061976999 0.17670999 0.018763
0.062245 0.17866001 0.017885
0.062597997 0.17873999 0.019447001
0.063853003 0.18065999 0.019428
0.064528003 0.18212 0.018409999
0.063882999 0.18353 0.019214001
0.065350004 0.18533 0.019107999
0.063417003 0.18681 0.019381
0.064698003 0.18881001 0.018851999
0.065421 0.18975 0.018751999
0.065224998 0.19128001 0.019594001
0.065192997 0.19181 0.019647
0.066434003 0.19324 0.019455001
0.066597 0.19458 0.019969
0.066839002 0.19648001 0.020042
0.067088 0.19806001 0.018624
0.066587999 0.19922 0.020118
0.067107998 0.19983999 0.019508
0.068054996 0.20252 0.019768
0.067884997 0.20288999 0.019982999
0.069468997 0.20389 0.019014999
0.069948003 0.20647 0.019515
0.070974 0.20682999 0.019238001
0.071684003 0.20764001 0.017771
0.072678998 0.20919 0.017506
0.073806003 0.21066999 0.017019
0.074354 0.21132 0.016355
0.076347001 0.21257 0.015766
0.077409998 0.21389 0.015127
0.077762999 0.21597999 0.015392
0.079494998 0.21653999 0.013815
0.081013002 0.21791001 0.013569
0.084353 0.21935999 0.012962
0.084409997 0.21972001 0.011317
0.13945 0.16577999 0.074418001
0.13934 0.16531999 0.074483
0.11319 0.12984 0.011735
0.11305 0.1304 0.010732
0.11461 0.12973 0.011118
0.054598998 0.22916999 -0.028124999
0.053932 0.22855 -0.027353
0.055137999 0.22996999 -0.027148001
0.14981 0.14481001 0.043426
0.15092 0.14653 0.042599
0.14909001 0.14489999 0.044475999
0.14736 0.14150999 0.077388003
0.14631 0.14245 0.078415997
0.14685 0.14077 0.076746002
0.14681999 0.18713 0.066716999
0.10097 0.22792999 -0.0024935999
0.099666998 0.22961999 -0.0028762
0.10011 0.22897001 -0.0025915999
0.072286002 0.14668 -0.0029722999
0.1026 0.20355 0.068550996
0.10321 0.20463 0.068241999
0.14855 0.25336999 -0.047403
0.13981999 0.15798999 0.074033998
0.13967 0.15977 0.073244996
0.082206003 0.15322 -0.013766
0.13526 0.25178 0.0065843002
0.13623001 0.25260001 0.0068235998
0.13521001 0.25200999 0.0070977998
0.11931 0.13107 -0.016849
0.11885 0.13164 -0.018152
0.11876 0.13278 -0.016303999
0.10885 0.25521001 0.0013381999
0.10807 0.25509 0.0013727
0.10596 0.23988 -0.010424
0.10408 0.23848 -0.0085616
0.10881 0.25858 0.0014281
0.11018 0.25962999 0.0016815
0.13620999 0.16745 0.076508999
0.13642 0.16847999 0.076392002
0.13440999 0.16844 0.077134997
0.11249 0.26221001 0.0020619
0.076737002 0.24292 -0.033775002
0.077785 0.24133 -0.033546001
0.077120997 0.24108 -0.034908999
0.11514 0.24493 0.0040365998
0.084570996 0.13967 -0.028221
0.084624998 0.14032 -0.028604999
0.086039998 0.13872001 -0.028282
0.10463 0.23797999 -0.022460001
0.055110998 0.14037 0.017591
0.056586999 0.13913 0.019059001
0.055799998 0.14103 0.018509001
0.053537998 0.13771001 0.01661
0.055427 0.1382 0.017335
0.056779999 0.14193 0.017968999
0.056084 0.14264999 0.017062001
0.057495002 0.14447001 0.01825
0.058247998 0.14467999 0.017968999
0.058478002 0.14572001 0.017689999
0.059422001 0.14679 0.017764
0.060612999 0.14893 0.018054999
0.060768001 0.1497 0.017138001
0.061900999 0.15123001 0.016687
0.061354 0.15200999 0.016587
0.061864998 0.15397 0.016996
0.061558999 0.15549 0.016904
0.061716001 0.15719 0.017148999
0.061432 0.15858001 0.017209999
0.063130997 0.15983 0.017966
0.062245999 0.161 0.017371001
0.061941002 0.1621 0.017223001
0.062642001 0.16458 0.018748
0.063135996 0.16500001 0.018353
0.062474001 0.16651 0.018945999
0.062734999 0.16754 0.019224999
0.062661998 0.16983999 0.018483
0.064021997 0.17185 0.018585
0.062486 0.17154001 0.018484
0.063220002 0.17429 0.019091999
0.063198999 0.17481001 0.020157
0.063130997 0.17631 0.019525001
0.062343001 0.1781 0.02
0.064208001 0.17981 0.020207999
0.062973 0.18055999 0.020016
0.063703001 0.18278 0.02032
0.064537004 0.18471999 0.019586001
0.065609001 0.18545 0.020459
0.064502999 0.18659 0.020516001
0.065475002 0.1877 0.020103
0.064917997 0.18837 0.019706
0.065889999 0.19089 0.020075999
0.066295996 0.19302 0.019629
0.066501997 0.19333 0.020085
0.066288002 0.19491 0.020014999
0.067167997 0.19563 0.019874999
0.068084002 0.19760001 0.020633001
0.068273999 0.19824 0.019943001
0.068323001 0.19986001 0.020440999
0.068903998 0.20118 0.020824
0.070459999 0.20290001 0.019306
0.070024997 0.20351 0.020271
0.069787003 0.20607001 0.019599
0.070937999 0.20675001 0.019544
0.073697999 0.20847 0.018297
0.072839998 0.20843001 0.018285999
0.074043997 0.21001001 0.016855
0.075153999 0.21123999 0.017775999
0.077049002 0.21328001 0.017041
0.076526999 0.2129 0.016038001
0.078369997 0.21443 0.015636999
0.080647998 0.21641 0.015044
0.080431998 0.21697 0.015972
0.084068999 0.21969 0.014124
0.083007999 0.21857999 0.014354
0.084310003 0.21963 0.014671
0.082901999 0.21867 0.013416
0.13454001 0.18748 0.076500997
0.14756 0.13654 0.041147001
0.14756 0.13615 0.043219
0.14686 0.13527 0.041531999
0.14777 0.25429001 -0.046836
0.14612 0.25623 -0.045602001
0.098486997 0.23682 -0.0022284
0.099374004 0.23624 -0.0030501999
0.099326 0.23847 -0.0030654999
0.052149002 0.14849 -0.0014008
0.053011 0.14955001 -0.0010849
0.14670999 0.13967 0.076453
0.15605 0.2638 -0.050907999
0.15524 0.26264 -0.048459999
0.11028 0.2419 -0.0011175
0.070583001 0.15489 -0.00049936998
0.14542 0.15186 0.083380997
0.14568999 0.15062 0.082780004
0.14669999 0.15101001 0.081897996
0.080967002 0.25285 -0.032832999
0.080007002 0.25130999 -0.033557002
0.079894997 0.25271001 -0.032531001
0.085817002 0.20347001 0.051187001
0.078496002 0.16707 0.068870999
0.069981001 0.16063 0.059046999
0.089414001 0.19930001 0.055927001
0.10046 0.2098 0.062279999
0.10131 0.20861 0.061149001
0.11048 0.25885999 0.0021076
0.11076 0.26010001 0.0029659001
0.10888 0.25738999 0.001808
0.10998 0.25782001 0.0027808
0.11209 0.26124001 0.0023942001
0.061941002 0.15176 0.0035176
0.061391 0.15171 0.0038745
0.062394999 0.15335 0.0051238001
0.11532 0.24391 -0.0027956001
0.11536 0.24314 -0.0019066
0.056775998 0.19124 -0.028958
0.056998 0.19039001 -0.028215
0.056986999 0.19036999 -0.027177
0.060764 0.18889 -0.032065999
0.061324 0.14019001 -0.0091145998
0.061361998 0.14168 -0.0089274002
0.062951997 0.14179 -0.0095237
0.13796 0.21286 0.048629999
0.084206 0.2436 -0.034476999
0.058830999 0.14398 0.018497
0.058120001 0.14515001 0.018111
0.059590001 0.14561 0.017618001
0.060075 0.14753 0.017643999
0.060483001 0.14777 0.017713999
0.061466001 0.14920001 0.017595001
0.062408 0.15074 0.017548
0.062341999 0.15188999 0.018175
0.061763 0.1538 0.016971
0.062983997 0.15526 0.017042
0.062509 0.15636 0.017445
0.062569 0.15789001 0.019428
0.062059999 0.15963 0.017930999
0.062784001 0.16062 0.019471001
0.062236 0.16349 0.019609001
0.063028 0.16368 0.019293999
0.063874997 0.16446 0.018594
0.063224003 0.16690999 0.019169999
0.063423 0.16735999 0.019794
0.062546998 0.16948 0.019432001
0.063412003 0.17103 0.019893
0.063415997 0.17273 0.019716
0.062678002 0.17352 0.020178
0.063400999 0.17474 0.020714
0.063547 0.17696001 0.020535
0.063734002 0.17794999 0.020594999
0.063340999 0.17934 0.020823
0.064154997 0.18028 0.020413
0.064337999 0.18212999 0.021085
0.063987002 0.18393999 0.021333
0.065123998 0.18528999 0.021024
0.065113999 0.18594 0.021338001
0.064828999 0.18751 0.02166
0.065462999 0.1894 0.02135
0.066237003 0.19014999 0.020746
0.066644996 0.19126999 0.021229999
0.066353001 0.19326 0.020679001
0.067117997 0.19444001 0.020899
0.068129003 0.19606 0.020435
0.066877998 0.19741 0.020499
0.068245001 0.19822 0.020112
0.068354003 0.19982 0.020098001
0.069247998 0.20105 0.020543
0.068965003 0.20277999 0.019807
0.071369998 0.20273 0.021264
0.071455002 0.20432 0.019317999
0.073237002 0.2059 0.019564999
0.073266 0.20825 0.018865
0.073648997 0.20906 0.018999999
0.074327998 0.20998999 0.018614
0.075818002 0.2119 0.018514
0.077411003 0.21268 0.018228
0.078015998 0.2138 0.016785
0.078968003 0.21556 0.017359
0.080247 0.21699999 0.015557
0.081887998 0.21828 0.016292
0.08405 0.2193 0.016193001
0.13952 0.16405 0.073579997
0.13944 0.16437 0.075319
0.13406 0.1846 0.077159002
0.13421001 0.18468 0.078024998
0.13779999 0.16785 0.075411998
0.13902999 0.16972999 0.076310001
0.13759001 0.17062999 0.076557003
0.096253 0.23450001 -0.00011376
0.10487 0.23728 -0.010022
0.10498 0.23586001 -0.011047
0.10197 0.2353 -0.027574001
0.098504998 0.20603999 0.061696999
0.097732 0.2041 0.061393
0.12763999 0.12326 0.056582
0.12807 0.1237 0.057766002
0.065619998 0.18055999 -0.03162
0.065006003 0.17935 -0.031732999
0.063928999 0.18025 -0.03156
0.12373 0.24539 0.0056812
0.071415 0.16812 0.060003001
0.095252998 0.20441 0.059572
0.10148 0.20379999 0.064791001
0.099026002 0.20281 0.063336
0.058619998 0.13511001 0.018684
0.11115 0.26023999 0.0033024999
0.11226 0.26102999 0.0027028001
0.11324 0.26198 0.0026189999
0.096317999 0.23149 3.1877e-05
0.095100001 0.23365 -0.00038538
0.13925999 0.18412 0.074065998
0.15020999 0.25389999 0.014798
0.119 0.24502 0.0047104
0.11973 0.24697 0.0069156
0.069546998 0.14342999 -0.0051421002
0.10421 0.21724001 0.055162001
0.10264 0.21704 0.054680001
0.057541002 0.19533999 -0.029501
0.057417002 0.19668999 -0.030322
0.057707001 0.19555999 -0.029913999
0.10227 0.22188 0.037058
0.059289999 0.14327 0.019262999
0.060298 0.14522 0.01959
0.059842002 0.14628001 0.019494999
0.060377002 0.14753 0.018658999
0.062465999 0.14866 0.018928001
0.062526003 0.15001 0.018945999
0.062664002 0.15108 0.017782999
0.062693998 0.15262 0.018453
0.062922001 0.15403999 0.018687
0.063184001 0.15524 0.018199001
0.062318001 0.15669 0.019282
0.063662998 0.1574 0.018612999
0.062893003 0.15992001 0.019517999
0.062857002 0.16162001 0.020011
0.063340999 0.1628 0.019944999
0.062762998 0.16403 0.020722
0.062449999 0.16604 0.02028
0.063478999 0.16755 0.020462999
0.063060001 0.16841 0.020231999
0.064198002 0.16931 0.020920999
0.064299002 0.17133 0.020912001
0.063258 0.17222001 0.020780999
0.064626999 0.17501 0.020842001
0.064228997 0.17534 0.020219
0.064290002 0.17603999 0.021415001
0.064301997 0.17817 0.021221001
0.063721001 0.17962 0.021841999
0.064650998 0.1811 0.021744
0.064273 0.18203001 0.021873999
0.064898998 0.18379 0.021756999
0.064583004 0.18542001 0.021883
0.065557003 0.18632001 0.022743
0.065196998 0.18788999 0.022578999
0.065953001 0.18874 0.021644
0.066739999 0.19083001 0.022522001
0.066650003 0.19233 0.022646001
0.067327999 0.1929 0.022657
0.066483997 0.19479001 0.022217
0.066931002 0.19588999 0.020818001
0.067933999 0.19738001 0.021686001
0.068974003 0.19848999 0.021346999
0.069615997 0.19991 0.022167001
0.069661997 0.20125 0.021361999
0.071874 0.20186 0.020761
0.072714001 0.20475 0.021397
0.072745003 0.20491999 0.020249
0.073169 0.20722 0.019996
0.073453002 0.20801 0.020506
0.074864998 0.20864999 0.019634999
0.076018997 0.21080001 0.019176999
0.076099001 0.21189 0.01932
0.077232003 0.21264 0.019365
0.079347998 0.21364 0.018235
0.080008 0.21496999 0.017839
0.081000999 0.21715 0.017499
0.082542002 0.21763 0.015896
0.085555002 0.22048 0.01581
0.072315 0.25560999 -0.028069999
0.073923998 0.25474 -0.029815
0.071511 0.25457999 -0.029912001
0.13109 0.12627 0.073662996
0.13959999 0.141 0.088035002
0.14772999 0.25582001 -0.046344001
0.13026001 0.13937999 0.090646997
0.12830999 0.13922 0.091086
0.13362999 0.24326999 -0.044941001
0.10868 0.21081001 0.066520996
0.097594999 0.20047 0.063548997
0.094621003 0.19864 0.064722002
0.060575001 0.13697 0.042564999
0.058304001 0.13708 0.041967999
0.058656 0.13646001 0.041884001
0.072485998 0.1399 0.051713999
0.073679 0.14126 0.052572999
0.072499998 0.1417 0.050725002
0.071065001 0.17174999 0.062042002
0.10805 0.24101 -0.0053706998
0.10998 0.24112 -0.0055412999
0.10146 0.20522 0.065053999
0.10048 0.20537999 0.063883997
0.11069 0.25872001 0.0031363999
0.11339 0.26084 0.0044319001
0.11371 0.26262999 0.0039217998
0.14012 0.18663999 0.073294997
0.13880999 0.1869 0.074437
0.11621 0.26510999 0.0035532999
0.095477998 0.24564999 -0.00080799998
0.094639003 0.24472 -0.0014353
0.12369 0.24838001 0.011597
0.12329 0.25002 0.013255
0.12143 0.24907 0.010378
0.098549999 0.2167 0.051557999
0.05463 0.22787 -0.028743001
0.055865001 0.22984 -0.028465001
0.056726001 0.22702 -0.029214
0.10748 0.24229001 -0.035326
0.15482999 0.25861001 0.012632
0.061214998 0.14441 0.019995
0.060968999 0.14561 0.019637
0.061778001 0.14639001 0.019735999
0.062148999 0.14934 0.018367
0.063000999 0.14997999 0.019478999
0.063234001 0.15028 0.019388
0.063409001 0.15221 0.019985
0.063948996 0.15379 0.019808
0.062996 0.15447 0.019303
0.064053997 0.15714 0.019223001
0.064320996 0.15806 0.02024
0.063777998 0.15785 0.020603999
0.063873999 0.16142 0.020486001
0.063524 0.16260999 0.020359
0.063106999 0.16346 0.021073001
0.063929997 0.16529 0.020886
0.063423 0.16654 0.021632001
0.064838998 0.16798 0.021577001
0.064686 0.16983999 0.022163
0.064051002 0.17051999 0.021938
0.065098003 0.17184 0.021207999
0.064737 0.17385 0.022441
0.065026999 0.17518 0.021402
0.064562999 0.17651001 0.022338999
0.064469002 0.17728999 0.022111
0.065791003 0.17986 0.021802999
0.065398999 0.18036 0.022624001
0.065449998 0.18334 0.023303
0.065448999 0.18376 0.022400999
0.066358 0.18574999 0.023472
0.066343002 0.18623 0.023306999
0.066069998 0.18731999 0.023931
0.066923998 0.18846001 0.022799
0.066670001 0.19052 0.023239
0.066431999 0.19174001 0.022995001
0.067387998 0.19377001 0.022704
0.067501999 0.19468001 0.023309
0.068195999 0.19618 0.022786001
0.068499997 0.19753 0.023234
0.070212997 0.19713999 0.023018001
0.069535002 0.19973999 0.022475
0.070667997 0.20037 0.022674
0.071298003 0.20186 0.02134
0.072851002 0.20404001 0.021648999
0.073060997 0.20518 0.021569001
0.073930003 0.2062 0.020919999
0.075038999 0.20829999 0.021021999
0.075580001 0.20841999 0.020664001
0.076403998 0.20990001 0.020555999
0.076684996 0.21038 0.020246999
0.077413 0.21247999 0.019094
0.079268001 0.21382 0.0175
0.080233999 0.21494 0.018475
0.081234999 0.21554001 0.017863
0.085580997 0.21924999 0.017008999
0.13923 0.16250999 0.074588001
0.13477001 0.18370999 0.077767
0.13376001 0.18362001 0.078171
0.14444999 0.14580999 0.085206002
0.14291 0.14393 0.086000003
0.13420001 0.12864 0.074161999
0.086319998 0.19593 0.053918999
0.085825004 0.19719 0.054476
0.086005002 0.19546001 0.054807998
0.12176 0.24699999 0.0099534998
0.12265 0.24651 0.0099389004
0.12339 0.24803001 0.010038
0.095996 0.13244 0.013816
0.095656998 0.13239001 0.012933
0.097455002 0.13264 0.013233
0.081450999 0.18335 0.069091998
0.098489001 0.20153999 0.063382998
0.079512 0.18965 0.063341998
0.13708 0.24484 -0.046027999
0.13781001 0.24402 -0.046475001
0.1029 0.20612 0.064030997
0.11861 0.24484999 0.00053475
0.11958 0.24401 0.00052124
0.11388 0.26063001 0.0043234001
0.11512 0.26232001 0.0042209998
0.11478 0.26394999 0.0041402001
0.1174 0.26475 0.0049880999
0.13774 0.17287 0.076688997
0.13673 0.17283 0.076328002
0.13677 0.17155001 0.076328002
0.092362002 0.23819999 0.00025103
0.12586001 0.25071999 -0.032694999
0.15008999 0.25481001 -0.046718001
0.11372 0.2428 0.0010404
0.063031003 0.14225 -0.0090031996
0.063221999 0.14256001 -0.0081471996
0.070132002 0.25635001 -0.021484001
0.070725001 0.25635001 -0.019927001
0.14832 0.26732001 -0.047623001
0.14611 0.26604 -0.046539001
0.12524 0.24648 0.00090143998
0.12506001 0.24687999 0.0019556
0.072277002 0.19302 0.049857002
0.073624998 0.19284 0.051302001
0.073944002 0.19441 0.050418999
0.062703997 0.14659999 0.020435
0.062758997 0.14823 0.020462999
0.062904 0.14934 0.019326
0.063312002 0.1504 0.020391
0.06549 0.15227 0.019827999
0.064387001 0.15353 0.02018
0.063322999 0.15484001 0.020230001
0.064466 0.15625 0.020378999
0.064793997 0.15747 0.020667
0.064961001 0.15936001 0.020256
0.064290002 0.16143 0.021415001
0.064149998 0.16279 0.021926001
0.063410997 0.16265 0.021772999
0.064823002 0.16497 0.021429
0.064425997 0.16605 0.022268999
0.064391002 0.16813 0.022369999
0.065238997 0.16848999 0.022275001
0.066179998 0.17005999 0.022014
0.065691002 0.1724 0.023065999
0.065471001 0.17452 0.022528
0.065544002 0.17513999 0.022338999
0.066134997 0.17635 0.023019001
0.065577 0.17745 0.022954
0.066232003 0.17942999 0.023344001
0.066163003 0.1797 0.023597
0.065288998 0.1813 0.024063
0.064990997 0.18406001 0.023884
0.065683 0.18464001 0.023955001
0.066122003 0.18627 0.023793001
0.066267997 0.18776 0.024132
0.067061998 0.1891 0.023809999
0.067270003 0.19025999 0.024215
0.067004003 0.1918 0.02447
0.067331001 0.19374999 0.024513001
0.066826001 0.19487999 0.024181001
0.068021998 0.19549 0.023867
0.068175003 0.19701999 0.024250001
0.068967 0.19724999 0.024925999
0.070309997 0.19851001 0.024414999
0.071112998 0.20027 0.022782
0.071808003 0.2017 0.022251001
0.073178999 0.20253 0.022492001
0.073305003 0.20478 0.023196001
0.073908001 0.20596001 0.022050001
0.075398996 0.20810001 0.021716001
0.076163001 0.20833001 0.021921
0.077301003 0.20938 0.021300999
0.078036003 0.21111 0.020847
0.079475999 0.21174 0.020265
0.080835 0.21292 0.019156
0.080886997 0.21433 0.018167
0.082295001 0.21675999 0.018561
0.082511 0.21739 0.019021999
0.14168 0.16909 0.072562002
0.1415 0.1696 0.073019996
0.14077 0.16822 0.074488997
0.13456 0.18019 0.078165002
0.13362999 0.17905 0.078437999
0.13496 0.12594999 0.041067
0.15261 0.15487 0.044551998
0.07429 0.13922 0.053417999
0.15106 0.25723001 -0.047334
0.057340998 0.2465 -0.00019768999
0.056363001 0.24567001 -0.00038968999
0.079389997 0.18592 0.065540001
0.099619001 0.21672 0.052804001
0.098320998 0.21625 0.052444998
0.099540003 0.20299 0.062817
0.078144997 0.17941 0.067780003
0.079246998 0.18006 0.067619003
0.070983998 0.17093 0.061962999
0.13361999 0.26828 0.0085851997
0.13486999 0.27023 0.010296
0.13421001 0.27074 0.01001
0.11625 0.14454 0.087259002
0.097879998 0.20253 0.062844001
0.083342001 0.18472999 0.069563001
0.082344003 0.18492 0.068792999
0.10282 0.21377 0.058756001
0.10367 0.21456 0.058465
0.11495 0.26176 0.0051675998
0.11568 0.26295999 0.0043902001
0.118 0.266 0.0046927999
0.13766 0.18583 0.074988
0.13717 0.18591 0.075156003
0.13699 0.18467 0.076495998
0.12548999 0.12307 0.046434999
0.12643 0.12356 0.045563001
0.12973 0.26563999 -0.00074309
0.12992001 0.26330999 -0.0015841
0.12763 0.26637 -0.00037486001
0.056593001 0.22815999 -0.028431
0.062555 0.14693999 0.021383001
0.062925003 0.14794999 0.020486001
0.11723 0.21785 0.01608
0.11576 0.2182 0.016091
0.064163998 0.14854001 0.020854
0.064691 0.15026 0.020745
0.065582998 0.15151 0.020567
0.064517997 0.15370999 0.020687001
0.065196 0.1549 0.019921999
0.065701 0.15549999 0.021741999
0.065465003 0.15765999 0.021599
0.064556003 0.15903001 0.021012999
0.065747999 0.16028 0.022639999
0.063948996 0.16266 0.022555999
0.065048002 0.1639 0.022787999
0.064277999 0.16492 0.022932
0.065075003 0.16653 0.023048
0.064855002 0.16700999 0.022569001
0.065158002 0.16884001 0.023179
0.066032 0.17025 0.023126001
0.066630997 0.17095999 0.022906
0.066163003 0.17309 0.022677001
0.066753 0.17539001 0.023769001
0.066772997 0.17666 0.023313999
0.065962002 0.17701 0.024003001
0.065451004 0.17913 0.024631999
0.066398002 0.18066999 0.02423
0.065941997 0.18213999 0.025007
0.066187002 0.18335 0.024497001
0.066783004 0.18506999 0.026402
0.067322999 0.18621001 0.024683001
0.067413002 0.18681 0.024660001
0.067321002 0.1881 0.024782
0.067065999 0.19023 0.0251
0.067077003 0.19148999 0.024979001
0.067055002 0.19320001 0.025443999
0.068337001 0.19418 0.026536999
0.068882003 0.19524001 0.025162
0.069509 0.19724999 0.025704
0.069780998 0.19909 0.025036
0.070974 0.19967 0.025101
0.071976997 0.20118999 0.024173001
0.072595 0.20227 0.022916
0.073472999 0.20306 0.023739001
0.074496999 0.20412999 0.023546999
0.075290002 0.20596001 0.023713
0.075943001 0.20731001 0.022864001
0.076482996 0.20840999 0.022499001
0.077170998 0.21039 0.021198999
0.078243002 0.21082 0.021911001
0.080499999 0.21234 0.020447001
0.081485003 0.21274 0.020183999
0.081308 0.21472 0.019923
0.082912996 0.21555001 0.019667
0.083149001 0.2175 0.019843001
0.083671004 0.21709 0.019258
0.14050999 0.16559 0.073540002
0.14332999 0.17788 0.072618
0.14351 0.17803 0.072094001
0.14399999 0.17862999 0.072074004
0.14323001 0.18009 0.072351001
0.12634 0.25518 -0.031897999
0.089530997 0.14293 -0.021468
0.090824999 0.14065 -0.021612
0.089714997 0.14229 -0.022381
0.14506 0.19288 0.064305
0.14613999 0.19268 0.063184001
0.14589 0.19383 0.064034
0.15064 0.25837001 -0.046861999
0.10467 0.21633001 0.057482
0.11758 0.15265 0.080936
0.11516 0.14934 0.080225997
0.086005002 0.19578999 0.058754999
0.086888999 0.19487 0.059888002
0.099936999 0.22804999 -0.0012943
0.099400997 0.2281 -0.0023958001
0.098411001 0.22911 -0.00058727001
0.098315999 0.21689001 0.050650999
0.11721 0.26339999 0.0056113
0.11366 0.25843 0.0046085999
0.11248 0.25929999 0.0036522001
0.11721 0.26405999 0.0049677999
0.11854 0.26572999 0.0056175999
0.14676 0.19408 0.062595002
0.044335 0.22838999 -0.0032846001
0.12781 0.12316 0.050455
0.12591 0.12293 0.050214
0.11416 0.20848 0.070125997
0.095371999 0.21938001 0.037106
0.12537 0.21928 0.029238001
0.075591996 0.21729 0.0085993996
0.073485002 0.21694 0.0090833995
0.1094 0.22338 0.037121002
0.090047002 0.25106001 -0.0011356
0.064196996 0.1476 0.022344001
0.064811997 0.14864001 0.021415999
0.066058002 0.14941999 0.020934001
0.065508999 0.15196 0.020398
0.065903001 0.15322 0.022039
0.066334002 0.15445 0.021489
0.066532999 0.15614 0.021168999
0.066081002 0.15658 0.021755001
0.065800004 0.15916 0.022409
0.066124998 0.16088 0.023255
0.065057002 0.16156 0.023142001
0.065257996 0.16355 0.023181999
0.066212997 0.16395 0.023708999
0.065543003 0.16587999 0.022931
0.066051997 0.16678999 0.023394
0.066428997 0.16936 0.023607001
0.066422001 0.17021 0.02369
0.065624997 0.17191 0.023922
0.066062003 0.17316 0.024107
0.067024998 0.17359 0.023952
0.066890001 0.17609 0.023937
0.067336001 0.17764001 0.024366001
0.067580998 0.17887001 0.024085
0.066542998 0.18064 0.02465
0.067074001 0.18203001 0.024166999
0.067293003 0.1829 0.024828
0.066969 0.18407001 0.026027
0.067567997 0.18499 0.025962001
0.067790002 0.18757001 0.025225
0.068331003 0.18895 0.026338
0.068608001 0.19049001 0.026095999
0.068558 0.19158 0.025804
0.067832999 0.193 0.026715999
0.068580002 0.19362999 0.026432
0.068534002 0.19588999 0.026598001
0.069995001 0.19698 0.025844
0.069839001 0.19735 0.025225
0.071284004 0.19955 0.025409
0.071560003 0.20124 0.025615999
0.072783001 0.20169 0.024842
0.073558003 0.20234001 0.024023
0.074570999 0.2043 0.023483001
0.074780002 0.20544 0.024372
0.076099001 0.20805 0.024008
0.076890998 0.20855001 0.02245
0.078225002 0.21036001 0.022708001
0.078869998 0.21094 0.021694999
0.080154002 0.21151 0.021193
0.081042998 0.21188 0.020063
0.082965001 0.21528 0.020260001
0.083466001 0.21628 0.020142
0.13940001 0.13513 0.081952997
0.13995001 0.13598999 0.082679003
0.083204001 0.21477 0.020899
0.085152 0.21741 0.019721
0.14058 0.16655999 0.073261999
0.14356001 0.17754 0.071558997
0.14519 0.18005 0.072007
0.14402001 0.18131 0.071078002
0.14303 0.18163 0.071915999
0.082796998 0.15019 -0.014933
0.081352003 0.15085 -0.01453
0.082587004 0.15203001 -0.014725
0.1454 0.16716 0.068112999
0.14492001 0.16673 0.068066001
0.14341 0.16919 0.072655998
0.077978 0.16424 0.067732997
0.08969 0.19266 0.068285003
0.094420999 0.21377 0.048480999
0.13661 0.14184999 0.088903002
0.091628 0.20871 0.054425001
0.10618 0.21241 0.062624
0.10634 0.21338999 0.063309997
0.099413998 0.20734 0.062410999
0.10327 0.21367 0.059287999
0.097165003 0.18726 0.077248
0.097253002 0.1885 0.076572999
0.11825 0.26478001 0.0052764998
0.12149 0.2649 0.0068287998
0.12167 0.26367 0.0060840002
0.12268 0.26495999 0.0059465999
0.069963999 0.19812 -0.037406001
0.078612998 0.24360999 -0.033944
0.098394997 0.21753 0.049082
0.086534999 0.25121 0.0017193001
0.10859 0.22195999 0.037004001
0.049617998 0.23649999 -0.020852
0.050703999 0.23829 -0.020494999
0.050838001 0.23720001 -0.020973001
0.053817999 0.23359001 -0.025153
0.054342002 0.23458999 -0.024331
0.063049003 0.14745 0.021823
0.064915001 0.16919 0.045759998
0.064911999 0.17092 0.045554999
0.065494001 0.16976 0.045981001
0.066114001 0.15003 0.021825001
0.066848002 0.15045001 0.021692
0.067887001 0.15281001 0.02232
0.067207001 0.15431 0.022619
0.067028001 0.15617999 0.022744
0.066817001 0.15692 0.022585999
0.066385001 0.15869001 0.023569001
0.066385999 0.15953 0.024668001
0.066720001 0.162 0.022925001
0.066941001 0.16264001 0.023153
0.067346998 0.16419999 0.023891
0.066573001 0.16604 0.024135999
0.066573001 0.16771001 0.024638999
0.067317002 0.16876 0.024893999
0.067225002 0.16988 0.024150001
0.066545002 0.17113 0.024764
0.067777 0.17353 0.024798
0.067780003 0.17431 0.025272001
0.067844003 0.17495 0.024977
0.068533003 0.17625999 0.024292
0.068173997 0.17808001 0.025068
0.067648999 0.18007 0.02582
0.068685003 0.18238001 0.026046
0.068167001 0.18158001 0.025768001
0.068259001 0.18384001 0.025395
0.069177002 0.18527 0.026651001
0.067856997 0.18735 0.026425
0.068765 0.18798999 0.026474999
0.067837998 0.18970001 0.027171001
0.067087002 0.1913 0.027489999
0.068605997 0.19267 0.028001999
0.069251999 0.19487999 0.027437
0.069117002 0.19604 0.027233001
0.068903998 0.19715001 0.026707999
0.069877997 0.19745 0.025907001
0.071805999 0.19912 0.026439
0.071943 0.20087001 0.025893001
0.072881997 0.20187999 0.025211001
0.073297001 0.20347001 0.025347
0.075065002 0.20453 0.024367999
0.075259 0.20581 0.024126999
0.076227002 0.20728999 0.024359999
0.076843999 0.20892 0.023476001
0.080018997 0.20951 0.023201
0.07903 0.21085 0.022645
0.080362998 0.21128 0.021921
0.082009003 0.21340001 0.021427
0.082768999 0.21521001 0.021957999
0.15374 0.25655001 -0.048035
0.13837001 0.1337 0.080963999
0.13818 0.13415 0.082014002
0.13695 0.14839999 0.090209998
0.13568 0.13095 0.078451
0.13737001 0.13246 0.078727998
0.13536 0.13164 0.078534998
0.14193 0.17110001 0.073553003
0.14035 0.27386999 0.01054
0.13723999 0.27219 0.010978
0.13963 0.27289 0.010572
0.1345 0.24959999 0.01266
0.078428 0.15476 0.067506
0.079852 0.15458 0.066928998
0.078580998 0.15553001 0.067973003
0.11644 0.14278001 0.087751999
0.11625 0.14443 0.087750003
0.089828998 0.19247 0.068025
0.075028002 0.19257 0.056379002
0.070812002 0.16091 0.060132999
0.061016999 0.13563 0.018147999
0.058924999 0.13609 0.016626
0.080476001 0.13493 0.060941
0.081813999 0.13662 0.061857
0.1196 0.26424 0.0060739
0.11967 0.26552001 0.0065703001
0.12146 0.26642999 0.0063629998
0.12076 0.12372 0.0020248001
0.11985 0.12484 0.0023811001
0.12009 0.12483 0.00092791999
0.073935002 0.20413999 -0.036804002
0.075278997 0.21171001 -0.035014998
0.074804999 0.2138 -0.036477
0.075646996 0.21326999 -0.036288999
0.084904 0.22209001 0.0094034001
0.085832998 0.22337 0.0080608996
0.084942997 0.22332001 0.0087858001
0.084729999 0.21690001 0.021514
0.085267 0.22488999 0.0071938001
0.10704 0.22322001 0.036858998
0.13273001 0.21752 0.040238
0.13303 0.1223 0.035110001
0.13292 0.12105 0.033900999
0.13375001 0.12102 0.033732999
0.12031 0.24529999 0.0046581998
0.066432998 0.15012001 0.022098999
0.06803 0.15232 0.022431999
0.067139998 0.15074 0.022708001
0.067727 0.15459999 0.022473
0.067570001 0.156 0.022599
0.068490997 0.15629999 0.023235001
0.067727 0.15783 0.023324
0.068279997 0.15985 0.023543
0.067350999 0.16034999 0.024766
0.068302996 0.16301 0.0242
0.067423999 0.16395999 0.024297999
0.068166003 0.16546001 0.02486
0.066928998 0.16732 0.024971999
0.067463003 0.16862001 0.025736
0.067337997 0.16968 0.024536001
0.067906998 0.1715 0.026010999
0.067350999 0.17299999 0.025141001
0.067865998 0.17369001 0.026195001
0.068317004 0.17546 0.025884001
0.068798997 0.17670999 0.025743
0.068582997 0.17877001 0.025162
0.068888001 0.17933001 0.025586
0.069441997 0.18177 0.026373001
0.069286004 0.18239 0.025885001
0.069349997 0.1842 0.027161
0.069211997 0.18516 0.026201
0.069072999 0.18697 0.026342999
0.068704002 0.18827 0.027407
0.068162002 0.19001999 0.027865
0.068658002 0.1911 0.028212
0.069265001 0.19295 0.027956
0.068778999 0.19377001 0.028847
0.068649001 0.19583 0.027983001
0.070412003 0.19691999 0.028207
0.070986003 0.19769999 0.027989
0.071562 0.19978 0.026714999
0.072079003 0.20095 0.027489999
0.072988003 0.20103 0.027574999
0.073926002 0.20304 0.026068
0.074851997 0.2045 0.025759
0.076054998 0.2051 0.025581
0.076990001 0.20668 0.024777001
0.077762 0.2077 0.025605001
0.078942001 0.21009 0.024654999
0.080271997 0.21087 0.023906
0.081674002 0.21176 0.02262
0.083116002 0.21284001 0.022727
0.083474003 0.21461999 0.022479
0.084840998 0.21492 0.02232
0.060630001 0.13862 0.043055002
0.059709001 0.13891 0.042557999
0.068498999 0.16786 0.057096001
0.068678997 0.17023 0.057794999
0.12649 0.24686 0.0045709
0.12474 0.24615 0.0045805001
0.11602 0.14605001 0.087076001
0.11688 0.14777 0.086987004
0.11806 0.14884999 0.087843001
0.11824 0.14612 0.087880999
0.11826 0.14793 0.089428
0.1165 0.14578 0.089229003
0.074644998 0.17697001 0.064314999
0.13557 0.24469 -0.048397999
0.13834 0.24363001 -0.047919001
0.10367 0.21405999 0.060864002
0.1213 0.26664999 0.0053134002
0.11227 0.24087 -0.029565999
0.123 0.26916 0.0056868
0.079306997 0.23864999 -0.035969
0.10266 0.23713 -0.027181
0.12507001 0.15651 0.084980004
0.14873999 0.27491 0.010598
0.14905 0.27515 0.01046
0.1486 0.27361 0.011472
0.10469 0.23917 -0.021576
0.1052 0.22238 0.037455998
0.10136 0.23665 -0.028594
0.1022 0.23803 -0.029262001
0.10241 0.23829 -0.027504001
0.067916997 0.15102001 0.023390001
0.068677999 0.15281001 0.023124
0.068223998 0.15414999 0.023068
0.069101997 0.15478 0.024414999
0.069000997 0.15691 0.023832999
0.068639003 0.15809 0.023879001
0.068674996 0.15849 0.024247
0.069325 0.16096 0.02399
0.069179997 0.16224 0.024742
0.068489 0.16353001 0.024805
0.069522999 0.16557001 0.025295001
0.068506002 0.16666999 0.025072999
0.068737 0.16818 0.025815999
0.069057003 0.16914 0.025278
0.068896003 0.17048 0.026179999
0.069119997 0.17265999 0.026071001
0.069306001 0.17445 0.026302001
0.069208004 0.17578 0.026083
0.068821996 0.17624 0.025744
0.06972 0.17806 0.026978999
0.069719002 0.17967001 0.027704
0.069301002 0.18143 0.026985001
0.069397002 0.18224999 0.026861001
0.070426002 0.18446 0.027206
0.069807999 0.18572 0.026989
0.069683 0.18653999 0.027766
0.069032997 0.1884 0.028772
0.069481999 0.18975 0.029069999
0.069503002 0.19098 0.029820001
0.069507003 0.19244 0.028827
0.070854999 0.19437 0.029563
0.069072001 0.19605 0.028385
0.070313998 0.19655 0.028929999
0.070573002 0.19876 0.029493
0.0713 0.19947 0.028294001
0.072548002 0.20049 0.028179999
0.074105002 0.20224001 0.027975
0.074833997 0.20251 0.027339
0.075469002 0.20371 0.026317
0.076134004 0.20630001 0.027386
0.077468999 0.20719001 0.025970001
0.077899002 0.20748 0.02706
0.078961998 0.20919 0.024785999
0.079945996 0.20985 0.025157999
0.081744 0.21172 0.024106
0.082982004 0.21278 0.023419
0.083013996 0.21408001 0.023706
0.085185997 0.21546 0.023079
0.096005999 0.23196 -0.00025243999
0.095302999 0.2325 0.00096198003
0.13899 0.17347001 0.075851999
0.13973001 0.17314 0.075243004
0.15019999 0.15617999 0.055654999
0.1505 0.15669 0.053231001
0.15097 0.15772 0.055149
0.14063001 0.13184001 0.075818002
0.14075001 0.13236 0.076388001
0.14238 0.13511001 0.077010997
0.14165001 0.13344 0.077908002
0.14614999 0.16848999 0.069003001
0.14589 0.16889 0.069568001
0.11886 0.15046 0.087003998
0.081897996 0.15798 0.069473997
0.082797997 0.15955999 0.069843002
0.080854997 0.15958001 0.069099002
0.093379997 0.20288 0.058276001
0.080241002 0.18756001 0.065218002
0.077678002 0.17556 0.066797003
0.14252 0.27625999 0.011477
0.14199001 0.27546 0.010286
0.093788996 0.19754 0.066192001
0.1145 0.24387001 -0.0045897001
0.12064 0.26341 0.0063446001
0.12254 0.26578999 0.0071192998
0.1248 0.26905 0.0069701001
0.126 0.26923999 0.0075018001
0.12818 0.16208 0.081272997
0.12624 0.16164 0.080917999
0.13084 0.24392 -0.049121998
0.10164 0.21684 0.053564001
0.10275 0.22167 0.037186
0.10079 0.13003001 0.034417
0.10043 0.13045999 0.034609001
0.099931002 0.13097 0.033259999
0.11868 0.24635001 -0.0042039999
0.11793 0.24674 -0.0057278001
0.11787 0.24639 -0.0039456999
0.10538 0.23819999 -0.028639
0.069306001 0.15294001 0.023959
0.069927 0.15192001 0.023684001
0.069801003 0.15523 0.024436001
0.070073001 0.15685 0.023742
0.06972 0.15776999 0.025092
0.069426998 0.15997 0.025419001
0.069293998 0.16076 0.024653001
0.068884 0.16260999 0.024586
0.069490999 0.16311 0.025051
0.069931999 0.16504 0.024862999
0.069397002 0.16662 0.025255
0.069794998 0.16802 0.026207
0.069723003 0.16971 0.025665
0.069894999 0.17125 0.026985001
0.069844998 0.17214 0.026590999
0.069730997 0.17372 0.026249001
0.070762999 0.17478 0.027538
0.069747001 0.17715999 0.027341001
0.069900997 0.17856 0.026983
0.070253998 0.17893 0.027604001
0.070216 0.18072 0.028649
0.070459001 0.18169001 0.028805001
0.070804998 0.18362001 0.027998
0.070248 0.18584999 0.027681001
0.069654003 0.18694 0.029185999
0.069020003 0.18843 0.029165
0.069853999 0.19063 0.029550999
0.069402002 0.19096 0.029433001
0.070538998 0.1929 0.030765999
0.070082001 0.19430999 0.030911
0.070141003 0.19475 0.030141
0.070804 0.19706 0.029561
0.071433 0.19779 0.029903
0.072558001 0.19915 0.029502001
0.072719 0.20027 0.029444
0.074166998 0.20119999 0.029037001
0.075223997 0.20242 0.028108001
0.075326003 0.20445 0.027201001
0.075887002 0.20584001 0.028486
0.076810002 0.20631 0.027040999
0.078267999 0.20730001 0.026614999
0.079425 0.20949 0.026001001
0.081044003 0.20994 0.025076
0.081978999 0.21182001 0.025245
0.083407 0.21232 0.024574
0.084283002 0.21344 0.024715001
0.12845001 0.24899 0.0055963001
0.13042 0.24845 0.0063234
0.12903 0.24838001 0.0070374999
0.14923 0.1479 0.053142
0.1494 0.14935 0.053893
0.14835 0.14872 0.054937001
0.12242 0.15187 0.088451996
0.12136 0.15084 0.089195997
0.13903999 0.17840999 0.075507
0.13607 0.24946 0.012834
0.13558 0.24986 0.013451
0.14 0.17534 0.075760998
0.13968 0.17644 0.075718999
0.10038 0.23197 -0.0030600999
0.099094003 0.23184 -0.0030280999
0.11669 0.25113001 -0.027589001
0.083150998 0.16508999 0.070919
0.084243998 0.16492 0.072829001
0.083727002 0.16594 0.072640002
0.11929 0.15151 0.086112
0.12 0.15225001 0.085115999
0.10332 0.24121 -0.0013434
0.062306002 0.13439 0.014224
0.063896999 0.1433 -0.0074756001
0.065003 0.14376999 -0.0067734001
0.11012 0.15184 -0.0050873999
0.074295998 0.25231999 -0.034439001
0.11552 0.24420001 -0.0047968002
0.11596 0.24343 -0.0040358002
0.12396 0.26659 0.0076238001
0.12396 0.26771 0.0077656
0.12605999 0.26953 0.0072252001
0.12672 0.27055001 0.0070612999
0.15051 0.26104999 -0.047561999
0.12848 0.12467 0.045830999
0.12647 0.12411 0.046039999
0.10456 0.22181 0.029031999
0.1032 0.22108001 0.029854
0.14509 0.15415999 0.081069
0.14334001 0.15538 0.082464002
0.14504001 0.15324 0.080631003
0.070423 0.15290999 0.024435
0.15507001 0.25824001 -0.049803998
0.15536 0.25909001 -0.049782
0.070037 0.15496001 0.024552001
0.070125997 0.15646 0.025010999
0.070974998 0.15779001 0.024940001
0.069549002 0.15967999 0.025993999
0.070511997 0.16028 0.025895
0.070963003 0.16119 0.025452999
0.070688002 0.16302 0.025677999
0.070041999 0.16484 0.026347
0.070513003 0.16644 0.026175
0.070667997 0.16762 0.027450001
0.071240999 0.16923 0.027123
0.070381999 0.17044 0.027471
0.071287997 0.17236 0.02757
0.070892997 0.17433 0.027879
0.07062 0.17436001 0.027918
0.070441 0.17632 0.028679
0.071102999 0.17749 0.028968001
0.070485003 0.17905 0.028504999
0.070639998 0.18106 0.029235
0.070083998 0.18219 0.027855
0.070344001 0.18289 0.028999001
0.071257003 0.18411 0.029527999
0.069582999 0.18705 0.02988
0.071257003 0.18824001 0.030516
0.069206998 0.18905 0.029835001
0.070197999 0.19176 0.030285999
0.070529997 0.19171 0.030766999
0.071116999 0.19363999 0.030424001
0.071135998 0.19506 0.031128
0.070343003 0.19660001 0.031073
0.071797997 0.19795001 0.030346001
0.073109999 0.19914 0.030086
0.073870003 0.20062999 0.029741
0.074052997 0.20175 0.029526999
0.074134998 0.20321 0.029761
0.075383998 0.20466 0.029857
0.077826999 0.20626 0.029038999
0.077731997 0.20682 0.028664
0.078392997 0.20821001 0.027256999
0.079985999 0.20886 0.027303001
0.080261 0.20994 0.026497001
0.081831999 0.21239001 0.026276
0.083646998 0.21235 0.026252
0.086709999 0.21428999 0.024858
0.086599998 0.19639 0.056127001
0.13537 0.17862999 0.078091003
0.14008 0.14727999 0.089080997
0.14042 0.148 0.088757001
0.14027999 0.1488 0.08918
0.1016 0.24397001 -0.00041881
0.10112 0.24299 -0.00076571997
0.10147 0.24281999 -0.0013145
0.13987 0.18636 0.072829001
0.14658 0.14624 0.082332
0.14715999 0.14646 0.080730997
0.14609 0.14712 0.081909001
0.098624997 0.23054001 -0.0021013999
0.15236001 0.18038 0.023220001
0.15183 0.18037 0.022785001
0.12127 0.15373001 0.086346999
0.065725997 0.14154001 0.046397999
0.09601 0.19437 0.072644003
0.071588002 0.18482 0.057482
0.071892001 0.18629999 0.057061002
0.093399003 0.21814001 0.037788998
0.093487002 0.23512 0.00029523001
0.092671998 0.23436999 0.0023612001
0.071829997 0.18073 0.057477001
0.071447998 0.17895 0.057406001
0.11878 0.24779999 0.0088735996
0.12551001 0.26752001 0.0074669002
0.14443 0.25127 0.015308
0.14239 0.25161001 0.016462
0.15312999 0.17939 0.022413
0.15312999 0.17893 0.022381
0.10204 0.22093 0.030406
0.068985 0.17246 -0.030255999
0.069013 0.17151 -0.02923
0.12078 0.22171 0.048542999
0.12467 0.22123 0.047963999
0.069683999 0.15075999 0.024169
0.070180997 0.15202001 0.025139
0.070529997 0.15507001 0.025249001
0.071229003 0.15295 0.025838999
0.071448997 0.1565 0.025637999
0.071073003 0.15731999 0.025891
0.072291002 0.15857001 0.025939001
0.072126999 0.16091 0.026376
0.071548998 0.1626 0.026281999
0.071547002 0.16322 0.026094999
0.070742004 0.16453999 0.027085001
0.069831997 0.16637 0.026854999
0.071560003 0.16738001 0.028237
0.071171001 0.16934 0.027757
0.070367999 0.17103 0.028214
0.070262998 0.17146 0.028191
0.070887998 0.17377999 0.028324001
0.070904002 0.17515001 0.028465001
0.14487 0.24879 -0.050682001
0.14652 0.24891999 -0.051729001
0.14507 0.24776 -0.050081
0.074951001 0.19484 0.048905
0.073296003 0.19513001 0.048847999
0.14268 0.25272 0.013267
0.14428 0.25364 0.013911
0.13268 0.21723001 0.047033001
0.13324 0.21747001 0.049219999
0.13463999 0.2172 0.048638001
0.069689997 0.17910001 0.030205
0.069709003 0.17794999 0.030067001
0.12183 0.26247999 -0.035464998
0.069224 0.18093 0.030374
0.068980001 0.18178 0.030564001
0.12089 0.22014 0.052474
0.12078 0.21902999 0.053683002
0.12312 0.22029001 0.052724998
0.069485001 0.18432 0.031571001
0.069629997 0.1846 0.031207999
0.050391 0.19685 -0.0072686002
0.070658997 0.18793 0.030892
0.070605002 0.18628 0.031594001
0.070835002 0.1899 0.031512
0.071699001 0.19029 0.031103
0.071176 0.19233 0.031426001
0.070602998 0.19369 0.032655999
0.071255997 0.19418 0.031546999
0.071588002 0.19614001 0.031851001
0.072310001 0.19735999 0.031424001
0.07339 0.19927 0.030981001
0.074011996 0.19981 0.031250998
0.074272998 0.20213 0.030165
0.075032003 0.20285 0.030123999
0.076416999 0.20406 0.030184999
0.077579997 0.20551001 0.029843001
0.078523003 0.20603999 0.029198
0.079677001 0.20764001 0.028573001
0.081014998 0.2098 0.028447
0.082119003 0.20991001 0.027690999
0.083150998 0.21134 0.027367
0.08303 0.21229 0.026192
0.094898 0.24217001 -0.001908
0.096248999 0.24206001 -0.00092849002
0.095491 0.24358 -0.0014355
0.14537001 0.13641 0.075351
0.14609 0.13744999 0.075801998
0.13341001 0.18877999 0.075438
0.14552 0.1904 0.066293001
0.098066002 0.22923 -0.00079023
0.14712 0.14814 0.081010997
0.14552 0.14945 0.081880003
0.14662001 0.14855 0.080766998
0.062950999 0.19502001 -0.035108
0.15377 0.25971001 -0.050832
0.15487 0.26159999 -0.051844001
0.15316001 0.25907001 -0.050636999
0.11177 0.15947001 -0.0079610003
0.11206 0.15978999 -0.0073023001
0.097413003 0.20602 0.060311999
0.098246001 0.20757 0.061133999
0.096919999 0.20748 0.060196999
0.070909001 0.17665 0.028538
0.097240001 0.20576 0.060917001
0.13298 0.12567 0.062684998
0.12636 0.26778999 0.0083360998
0.12494 0.26661 0.0067698001
0.12632 0.26839 0.0080738999
0.066667996 0.23891 -0.031842001
0.070364997 0.17568 0.029824
0.13256 0.19438 0.074464999
0.13332 0.19487 0.074386001
0.13321 0.19581001 0.073611997
0.058952 0.14635 0.031601001
0.059204001 0.14684001 0.032972001
0.057234 0.14458001 0.033080999
0.057482999 0.14568 0.031849001
0.059783999 0.14757 0.033922002
0.064939 0.14555 -0.006143
0.064831004 0.14376999 -0.0057945
0.12207 0.2217 0.048080999
0.12269 0.22119001 0.047803
0.066196002 0.13524 -0.017541001
0.066785999 0.13636 -0.016956
0.066597 0.13591 -0.018188
0.072109997 0.15583999 0.026195001
0.072222002 0.15496001 0.025864
0.071800001 0.15742999 0.026177
0.071345001 0.15911999 0.027182
0.072832003 0.15921 0.027261
0.072192997 0.16192999 0.027549
0.072508998 0.16260999 0.027535001
0.071841002 0.16414 0.02833
0.071837001 0.16539 0.027930001
0.071129002 0.1675 0.027725
0.071386002 0.16873001 0.028635001
0.070937999 0.17092 0.02918
0.070943996 0.17253 0.028634001
0.070483997 0.17376 0.029661
0.13625 0.21633001 0.045566998
0.13399 0.21718 0.046806999
0.13516 0.2158 0.046229001
0.11726 0.2447 -0.027673
0.15128 0.26655 -0.047724001
0.1012 0.21811 0.052310001
0.099918999 0.21732999 0.052310001
0.1014 0.21693 0.052859001
0.10242 0.21775 0.052758001
0.13149001 0.21754999 0.048296001
0.13246 0.21713001 0.049362
0.13425 0.21718 0.048071001
0.11155 0.13564999 0.082038999
0.11088 0.13716 0.082474999
0.061856002 0.21907 -0.034851
0.073101997 0.25580999 -0.0231
0.07124 0.25702 -0.022400999
0.12195 0.22014 0.051747002
0.12479 0.22006001 0.051396001
0.12346 0.21984001 0.052119002
0.12577 0.21919 0.052313
0.13166 0.21799999 0.049136002
0.12961 0.21825001 0.050781
0.13017 0.21653 0.050314002
0.12982 0.21775 0.050866
0.070311002 0.19209 0.047761999
0.069526002 0.19224 0.046112999
0.069108002 0.19125 0.047192998
0.065866001 0.19423001 -0.036029
0.070667997 0.18881001 0.032256
0.064645 0.17615999 0.040704001
0.063363001 0.17823 0.041333999
0.064498 0.17634 0.040654
0.071516998 0.19047 0.032152999
0.071672 0.19171 0.032706998
0.071511 0.19291 0.032641001
0.071378998 0.1947 0.032478999
0.072499998 0.19649 0.032042
0.073863 0.19729 0.031890001
0.073406003 0.19858 0.032930002
0.074605003 0.19979 0.032501001
0.074900001 0.20100001 0.031047
0.074732997 0.20252 0.031372
0.076857001 0.20468 0.030719001
0.078354001 0.20536999 0.030327
0.077655002 0.20582999 0.029893
0.079067998 0.20778 0.029823
0.081205003 0.20830999 0.029067
0.082093999 0.21029 0.028649
0.082891002 0.20987999 0.02751
0.083622999 0.2128 0.026838001
0.14796001 0.25512999 0.016914001
0.14786001 0.25749999 0.017122
0.14723 0.25560001 0.016733
0.087118998 0.21499 0.025861001
0.087278001 0.21492 0.027612999
0.066044003 0.14531 -0.0046011
0.067487001 0.14602999 -0.0035705999
0.14528 0.14526001 0.083292
0.14541 0.14597 0.084655002
0.14361 0.14358 0.084536999
0.1443 0.14356001 0.083122
0.12286 0.1955 -0.0097851995
0.10035 0.23192 -0.0037869001
0.10165 0.23258001 -0.003877
0.10024 0.23312999 -0.0040830001
0.11852 0.25260001 -0.027386
0.11944 0.25472 -0.029103
0.14884 0.25544 -0.046287
0.063115999 0.20855001 -0.029568
0.13331001 0.12932999 0.078434996
0.13237999 0.12944999 0.077317998
0.14401001 0.25536999 0.010163
0.14531 0.25657001 0.0092078
0.14409 0.25415999 0.010481
0.094045997 0.19223 0.072490998
0.095229998 0.19408 0.071709998
0.10468 0.20344 0.068007
0.10334 0.20234001 0.068351001
0.077624999 0.13398001 0.058196999
0.078041002 0.13575 0.056327
0.076935001 0.13585 0.057806
0.1294 0.27123001 0.0081032999
0.12922999 0.27099001 0.0091639003
0.13015001 0.27179 0.007917
0.12895 0.27050999 0.0073246001
0.14354999 0.13139001 0.032646
0.14406 0.13129 0.034049001
0.14428 0.12943999 0.033257999
0.14662001 0.16974001 0.068355002
0.14501999 0.13336 0.068856001
0.14541 0.13515 0.070639998
0.1426 0.26089001 -0.043233
0.15155999 0.25415999 -0.048678
0.12972 0.16361 0.080395997
0.13070001 0.16457 0.080172002
0.12887999 0.16502 0.080286004
0.14651 0.24895 -0.050829999
0.14026999 0.25257 0.01103
0.14137 0.25187001 0.011798
0.12495 0.24332 -0.037280001
0.12564 0.24392 -0.036176
0.058474001 0.14631 0.034178
0.057750002 0.1446 0.033231001
0.058561999 0.14498 0.034322999
0.063941002 0.14930999 0.033057
0.062031001 0.14929999 0.032256
0.079065003 0.15586001 -0.0097848997
0.11601 0.24049 -0.035730001
0.12842 0.26107001 -0.037801001
0.083071999 0.25600001 -0.024451001
0.071516 0.15453 0.027702
0.071832001 0.15538 0.027073
0.072347999 0.15769 0.028142
0.071777001 0.15834001 0.027713001
0.071709 0.15990999 0.028217001
0.072053999 0.1613 0.027774001
0.072061002 0.16327 0.028855
0.071732998 0.16451 0.028674001
0.072186999 0.16618 0.028647
0.071702003 0.16775 0.029642001
0.071739003 0.16943 0.029817
