# .PCD v0.7 - Point Cloud Data file format
VERSION 0.7
FIELDS x y z
SIZE 4 4 4
TYPE F F F
COUNT 1 1 1
WIDTH 1540
HEIGHT 1
VIEWPOINT 0 0 0 1 0 0 0
POINTS 1540
DATA ascii
0.10353 0.13279 0.021261999
0.073812999 0.13688999 0.039026
0.072632998 0.13736001 0.036706999
0.094152004 0.13242 0.021294
0.096332997 0.13275 0.018798999
0.078708999 0.13526 0.03875
0.080031 0.13583 0.037409
0.11782 0.12617999 0.072282001
0.055498 0.21461 -0.019553
0.053854998 0.21520001 -0.01902
0.051385 0.2145 -0.017845999
0.051123999 0.21653 -0.017082
0.048682 0.21541999 -0.01626
0.047168002 0.21696 -0.017145
0.046714 0.21781 -0.019227
0.045271002 0.2165 -0.017473999
0.044755001 0.21933 -0.016045
0.043852001 0.22070999 -0.016876999
0.089199997 0.13265 0.027561
0.12664001 0.12541001 0.022399999
0.062677003 0.13421001 0.041871998
0.063621998 0.13361999 0.041333001
0.11718 0.12353 0.040761001
0.11536 0.12476 0.041986998
0.091683999 0.1332 0.030776
0.082845002 0.13516 0.033158999
0.11717 0.12912001 0.014018
0.11329 0.12918 0.013982
0.060726002 0.13415 0.041388001
0.067015 0.16219001 -0.0038574
0.057812002 0.1366 0.040213
0.057099 0.13707 0.038279999
0.058293 0.13553999 0.039624002
0.1186 0.12429 0.053497002
0.1171 0.12283 0.034864001
0.11957 0.12362 0.033720002
0.060339 0.13467 0.040849
0.059154 0.13456 0.040860999
0.059013002 0.13727 0.031073
0.10655 0.12885 0.026935
0.059673999 0.21355 -0.018821999
0.10486 0.12996 0.018627999
0.10427 0.13078 0.01895
0.10733 0.1312 0.018949
0.1102 0.12984 0.018230001
0.11055 0.12922999 0.018107001
0.11254 0.13076 0.019895
0.11342 0.13034999 0.01749
0.088422999 0.13432001 0.028624
0.087745003 0.1346 0.021299001
0.088073 0.13435 0.020184999
0.085490003 0.13452999 0.028171999
0.063298002 0.13402 0.036695998
0.065709002 0.13462999 0.037266001
0.057482999 0.21529 -0.018934
0.055441 0.21430001 -0.017958
0.053360999 0.21398 -0.018654
0.051511001 0.21453001 -0.017028
0.050763 0.21510001 -0.017821999
0.048932999 0.21573 -0.016154001
0.047757 0.21615 -0.017130001
0.047134999 0.21615 -0.015938001
0.046220999 0.21676999 -0.01602
0.043736 0.21923999 -0.015143
0.043403 0.21985 -0.015207
0.12608001 0.1249 0.069159001
0.11805 0.12709001 0.071859002
0.065952003 0.13404 0.041432001
0.066907004 0.13241 0.040853001
0.10388 0.12628999 0.037873998
0.13065 0.12446 0.061294999
0.10937 0.12938 0.026825
0.10841 0.13099 0.025206
0.11088 0.12975 0.025628
0.1042 0.12571 0.037555002
0.10434 0.12631001 0.037184
0.10365 0.13138001 0.026124001
0.11909 0.12929 0.016496001
0.11782 0.12989999 0.016627001
0.11967 0.12886 0.016486
0.051178001 0.18268 -0.0011026
0.11538 0.13045 0.017851001
0.081023 0.13603 0.021648999
0.1176 0.13011 0.01812
0.11511 0.12963 0.01702
0.12553 0.12367 0.015636001
0.12630001 0.1232 0.016115
0.056209002 0.13688999 0.032113001
0.055015001 0.13811 0.030276
0.056210998 0.13652 0.029755
0.054613002 0.13647 0.030304
0.062936999 0.13507 0.030882001
0.061149001 0.13473 0.030582
0.063548997 0.13474 0.028889
0.091139004 0.13365 0.019734999
0.11704 0.12775999 0.018354001
0.084765002 0.13508999 0.029053001
0.085176997 0.13426 0.028039001
0.061988998 0.1339 0.036851
0.068995997 0.13627 0.028352
0.071245998 0.13652 0.026862999
0.055192001 0.2146 -0.019352
0.056253001 0.21448 -0.019091001
0.052654002 0.21382 -0.017340001
0.052813999 0.21510001 -0.017184
0.050841 0.21427999 -0.016868001
0.048126001 0.21521001 -0.017478
0.048216 0.21544001 -0.01458
0.047708999 0.21678001 -0.014747
0.045226999 0.21799999 -0.014345
0.044098999 0.21854 -0.015591
0.043334 0.21969 -0.01406
0.044376001 0.22054 -0.013451
0.042465001 0.22266001 -0.012658
0.075571001 0.13643999 0.030182
0.069259003 0.13314 0.041087002
0.12278 0.12836 0.016119
0.12691 0.124 0.060626
0.12419 0.12347 0.060864002
0.12208 0.12346 0.060711998
0.092014998 0.13179 0.02912
0.089859001 0.13389 0.02911
0.12473 0.12354 0.01382
0.12399 0.12312 0.013284
0.058667 0.13445 0.030275
0.12354 0.12387 0.015382
0.12343 0.12695999 0.015946001
0.061101001 0.17994 -0.027416
0.093272001 0.13365 0.018733
0.065668002 0.13212 0.035682
0.12365 0.12242 0.014397
0.12639999 0.12336 0.015690001
0.12759 0.12247 0.012827
0.075756997 0.13709 0.027143
0.086649999 0.13299 0.021284999
0.061294001 0.13546 0.038674001
0.13224 0.12205 0.032382999
0.12800001 0.12215 0.041630998
0.057615999 0.21239001 -0.01708
0.043207001 0.22296999 -0.012329
0.055176001 0.21202999 -0.015521
0.056611001 0.21478 -0.015774
0.054916002 0.21326999 -0.017796
0.052145999 0.21575999 -0.016074
0.051056001 0.21512 -0.015201
0.049109999 0.21584 -0.015476
0.047334 0.21567 -0.013651
0.047885999 0.21728 -0.014095
0.045852002 0.21748 -0.015201
0.045582 0.21854 -0.013963
0.043984 0.21950001 -0.014328
0.044222001 0.21954 -0.013363
0.044357002 0.22225 -0.011766
0.12006 0.12572999 0.070497997
0.11721 0.12941 0.025982
0.11693 0.12975 0.02304
0.11704 0.12886 0.024188999
0.12147 0.12763999 0.023147
0.11916 0.12864 0.025535
0.12167 0.12852 0.022186
0.094644003 0.13060001 0.021698
0.11863 0.12406 0.060750999
0.11759 0.1243 0.061834998
0.11811 0.1236 0.063437
0.11354 0.13042 0.025676999
0.11191 0.13009 0.025425
0.11412 0.12884 0.023631001
0.080150999 0.13606 0.038812999
0.077229001 0.13500001 0.039030999
0.078129001 0.13563 0.039115001
0.11497 0.12521 0.035241
0.049077999 0.21882001 0.0016606
0.10919 0.13202 0.0027997
0.12287 0.12935001 0.016748
0.12277 0.12729999 0.015477
0.068534002 0.16989 -0.02533
0.070194997 0.16996001 -0.027595
0.10429 0.13155 0.015865
0.11072 0.13057999 0.014541
0.081969 0.13324 0.021923
0.12079 0.12606999 0.070330001
0.13086 0.12177 0.033314999
0.059737001 0.13458 0.038681
0.12552001 0.12608001 0.021785
0.12688001 0.12397 0.021712
0.056419 0.21241 -0.017429
0.056228999 0.21404 -0.016178001
0.054283001 0.21306001 -0.014887
0.052450001 0.21422 -0.014599
0.05167 0.21454 -0.014467
0.049984999 0.21512 -0.014166
0.048857 0.21651 -0.013125
0.046918001 0.21539 -0.01303
0.045336999 0.21734001 -0.013008
0.044907 0.21823999 -0.012446
0.043632001 0.21841 -0.012611
0.041561998 0.22060999 -0.011341
0.042411 0.22084001 -0.011943
0.12694 0.1234 0.032995
0.098638996 0.12636 0.046998002
0.076407 0.13759001 0.03937
0.11394 0.12388 0.062435001
0.11313 0.1243 0.063795999
0.11159 0.12435 0.0623
0.081234999 0.13476001 0.039397001
0.06129 0.17459001 -0.023561001
0.070214003 0.17144001 -0.029676
0.067878999 0.1723 -0.028232001
0.066174001 0.17039999 -0.02908
0.066682003 0.17199001 -0.027965
0.056554999 0.13522001 0.029638
0.055050001 0.13541 0.03074
0.05672 0.18096 -0.023372
0.060008999 0.17648999 -0.024721
0.082098 0.13473 0.022164
0.098747 0.13218001 0.018239001
0.083713003 0.13513 0.020273
0.12672 0.12457 0.015874
0.1249 0.12679 0.019245001
0.12381 0.12853999 0.018061999
0.060741998 0.13551 0.029945999
0.098416999 0.12746 0.047403
0.11341 0.13022999 0.025161
0.11805 0.12981001 0.025792001
0.054614 0.21242 -0.014903
0.053679999 0.2131 -0.014144
0.054063998 0.21324 -0.014724
0.050719999 0.21514 -0.011774
0.049467999 0.21382 -0.013198
0.048466999 0.21649 -0.012608
0.047348 0.21664999 -0.013228
0.045398999 0.21568 -0.011372
0.045019001 0.21829 -0.010854
0.045116998 0.22036999 -0.010898
0.044578001 0.22001 -0.010898
0.043577 0.22031 -0.0097674001
0.11036 0.12658 0.062125999
0.10917 0.12474 0.063914999
0.10769 0.12619001 0.063598998
0.10123 0.13187 0.023235001
0.10062 0.13197 0.022022
0.082032003 0.13463999 0.034037001
0.063419998 0.17305 -0.026681
0.062429 0.17264 -0.024021
0.068388999 0.17038 -0.026746999
0.067153998 0.17126 -0.027308
0.059898 0.17828999 -0.024909999
0.058938 0.17788 -0.023657
0.058499999 0.18035001 -0.023810999
0.052209999 0.17912 -0.0095287003
0.078186996 0.1328 0.0093528004
0.05381 0.2114 -0.013399
0.054067001 0.21379 -0.013346
0.052122999 0.21455 -0.012008
0.051196001 0.21483999 -0.012838
0.05023 0.21431001 -0.012045
0.047242001 0.21653999 -0.012687
0.047944002 0.2165 -0.010923
0.047042999 0.21654999 -0.011666
0.045843001 0.21844 -0.010157
0.045205999 0.21819 -0.010414
0.044544999 0.22018 -0.0090734996
0.11993 0.12631001 0.070881002
0.083772004 0.13438 0.039500002
0.12766001 0.12599 0.027355
0.10665 0.12733001 0.064172
0.10386 0.12904 0.064686
0.10391 0.12807 0.065017
0.10226 0.12826 0.067073002
0.076554999 0.16752 -0.027022
0.067313001 0.17144001 -0.027323
0.066913001 0.1705 -0.025556
0.066128999 0.17125 -0.027268
0.065237999 0.17185 -0.025679
0.064097002 0.17165001 -0.025800001
0.062061999 0.17305 -0.024739999
0.058878001 0.17669 -0.023238
0.058488999 0.17782 -0.023283999
0.058095999 0.17929 -0.021628
0.056779001 0.18091001 -0.021863
0.056851 0.18086 -0.021438001
0.088090003 0.13391 0.020872001
0.063529 0.13301 0.026529999
0.061806001 0.13331001 0.024944
0.056821 0.21162 -0.012318
0.054761 0.21312 -0.011931
0.053100999 0.2121 -0.013148
0.052288 0.21452001 -0.011821
0.051089 0.21450999 -0.011021
0.048039 0.21404999 -0.011115
0.047940999 0.21709 -0.010424
0.046115 0.21607 -0.0095280996
0.044977002 0.21751 -0.010799
0.046601001 0.21909 -0.0086329002
0.075436004 0.13243 0.056014001
0.074216001 0.13619 0.026519001
0.099785998 0.13039 0.067597002
0.077969 0.13191999 0.054382998
0.079813004 0.12915 0.054435
0.07621 0.16624001 -0.028011
0.068258002 0.13722 -0.023739999
0.068135001 0.16881999 -0.026488001
0.068111002 0.16863 -0.025838001
0.068429001 0.17057 -0.024747999
0.064650998 0.17083 -0.024862999
0.063864 0.17027999 -0.023150999
0.063216001 0.17062999 -0.02369
0.061875999 0.17211001 -0.02283
0.060817 0.17324001 -0.023638999
0.060174 0.17443 -0.023221999
0.059071999 0.17477 -0.02351
0.057514999 0.17609 -0.022241
0.058421999 0.17702 -0.021194
0.057146002 0.17772 -0.021721
0.057240002 0.17925 -0.020764999
0.056506 0.18128 -0.021449
0.056170002 0.18287 -0.019416999
0.088074997 0.13293999 0.032510001
0.12161 0.12324 0.040638
0.12231 0.12223 0.041600998
0.090416998 0.13232 0.025362
0.081634 0.13312 0.02548
0.082341 0.13468 0.024961
0.055925999 0.21100999 -0.011807
0.079347 0.15689 -0.012676
0.057245001 0.21294001 -0.011767
0.054225001 0.2128 -0.011601
0.054322001 0.21246 -0.010676
0.052464999 0.21482 -0.010774
0.050934002 0.21432 -0.011674
0.050283 0.21461 -0.011363
0.048147999 0.21483999 -0.0098994002
0.048548002 0.21596 -0.0085648997
0.046978999 0.21781 -0.010526
0.046080001 0.21908 -0.0069332998
0.046229001 0.21969 -0.0084362999
0.084140003 0.13594 0.038855001
0.11169 0.12982 0.031052999
0.10917 0.12822001 0.03246
0.082653999 0.13043 0.055360001
0.089245997 0.13127001 0.067813002
0.055222001 0.17607 0.0041364999
0.082680002 0.12964 0.05435
0.077853002 0.16542999 -0.027736001
0.075528003 0.16395999 -0.026149999
0.070978001 0.16699 -0.027183
0.068467997 0.16705 -0.025946001
0.069280997 0.16692001 -0.026195001
0.066731997 0.16778 -0.024795
0.066201001 0.1688 -0.025044
0.065385997 0.16895001 -0.025048001
0.064342998 0.16983999 -0.024669001
0.063671999 0.17194 -0.023115
0.061939001 0.17286 -0.023903999
0.061776001 0.17354999 -0.023722
0.059799001 0.17414001 -0.021508999
0.058658 0.17568 -0.023109
0.059074 0.17712 -0.021658
0.056906998 0.1768 -0.019386001
0.056120001 0.17802 -0.020656999
0.056596 0.17791 -0.019495999
0.055675 0.17922001 -0.020167001
0.055403002 0.18184 -0.020071
0.053698 0.18088999 -0.019313
0.059161998 0.1362 -0.0097340997
0.092440002 0.13254 0.023582
0.099232003 0.13177 0.033422001
0.079861 0.13546 0.027284
0.087881997 0.13422 0.039494
0.092367999 0.13308001 0.036947001
0.095665 0.13225 0.036584999
0.096082002 0.13166 0.03528
0.061147001 0.13426 0.039948002
0.055775002 0.21177 -0.011614
0.055447999 0.2122 -0.010796
0.053831 0.21381 -0.010478
0.051835999 0.21345 -0.0099491002
0.050980002 0.21456 -0.0084998999
0.048503999 0.21466 -0.0093083996
0.047534999 0.21483 -0.0090982001
0.047729 0.21614 -0.0082965
0.045049999 0.21727 -0.0085774995
0.046546001 0.2186 -0.0076428
0.044973001 0.21977 -0.0064793001
0.082505003 0.13422 0.03277
0.073475003 0.13651 0.039515998
0.086312003 0.13187 0.037654001
0.08467 0.12804 0.053082999
0.077803999 0.16466001 -0.028035
0.074566998 0.16376001 -0.026629001
0.073302999 0.16395999 -0.026267
0.071497001 0.16543999 -0.02516
0.071336001 0.16553999 -0.025153
0.070772 0.1663 -0.025800001
0.068519004 0.16804001 -0.023967
0.06893 0.16793001 -0.023847001
0.065782003 0.1679 -0.022242
0.066970997 0.17035 -0.023331
0.063142002 0.17066 -0.022921
0.062123001 0.17173 -0.022879999
0.062510997 0.17177001 -0.021345001
0.061967999 0.17342 -0.021483
0.059962999 0.1725 -0.022476999
0.057810999 0.17527001 -0.020718999
0.057220001 0.17531 -0.020626999
0.058115002 0.17626999 -0.020966999
0.055588 0.17621 -0.020176001
0.055116002 0.17763001 -0.018428
0.054613002 0.18058001 -0.019244
0.053197999 0.18039 -0.017806999
0.052885 0.18121 -0.019044001
0.052935999 0.18325999 -0.017286001
0.11972 0.12907 0.023448
0.085565001 0.13336 0.025868
0.13077 0.12213 0.037563998
0.12939 0.1226 0.037691999
0.12744001 0.1218 0.038936999
0.055429999 0.21036001 -0.0091816997
0.055682 0.21156999 -0.010083
0.05381 0.21265 -0.0089710997
0.051731002 0.21312 -0.0088588996
0.051771 0.21328001 -0.0088577
0.050016999 0.2147 -0.0079011004
0.048836999 0.21562 -0.0074632
0.047425002 0.21624 -0.0072824
0.047626 0.21777 -0.0059447
0.046783 0.21841 -0.0070850002
0.046037 0.21863 -0.0064320001
0.091734998 0.13236 0.053732999
0.093222 0.13268 0.052987002
0.11027 0.12494 0.034712002
0.078133002 0.16367 -0.026139
0.077420004 0.16271 -0.026155001
0.075171001 0.16320001 -0.024792001
0.072956003 0.16463 -0.025211001
0.071111999 0.16475999 -0.024054
0.070237003 0.16603 -0.023298999
0.071085997 0.16743 -0.024215
0.067602001 0.16556001 -0.024967
0.066657998 0.16801 -0.021983
0.065504 0.16718 -0.022894001
0.063991003 0.16889 -0.021862
0.064244002 0.16941001 -0.02122
0.062990002 0.17134 -0.020184999
0.060789 0.17147 -0.020104
0.060100999 0.17286 -0.020777
0.058851998 0.17271 -0.020002
0.058888 0.17383 -0.01901
0.058713 0.1743 -0.01887
0.056648999 0.17400999 -0.018990999
0.057333 0.17728999 -0.018056
0.054930001 0.17759 -0.018852999
0.054751001 0.1798 -0.0175
0.054237999 0.17887001 -0.017213
0.052878 0.17957 -0.016719
0.054804999 0.18246999 -0.017790999
0.050909001 0.18301 -0.015755
0.099473 0.13134 0.020568
0.085169002 0.13383999 0.032393001
0.093377002 0.13185 0.052035999
0.096124001 0.12807 0.051460002
0.094449997 0.12884 0.051515002
0.12356 0.12253 0.03957
0.054411002 0.21219 -0.0075301998
0.052916002 0.21469 -0.0077649001
0.052818 0.21443 -0.0073102
0.051798999 0.21534 -0.0066534001
0.050816 0.21501 -0.0060208002
0.050285 0.21585 -0.0069021001
0.047873002 0.21599001 -0.0069133001
0.046002001 0.21886 -0.0058178999
0.044909 0.21802001 -0.0042670001
0.11656 0.13496999 0.082051001
0.096129999 0.12906 0.051318001
0.084742002 0.12815 0.060238998
0.080876999 0.16236 -0.024691001
0.077785999 0.16324 -0.024739999
0.075010002 0.16287 -0.02335
0.074708 0.16335 -0.023788
0.074051 0.16377001 -0.024704
0.071751997 0.16378 -0.02417
0.070684999 0.16469 -0.023260999
0.068705 0.16700999 -0.021988999
0.067521997 0.16638 -0.022368999
0.067387998 0.16684 -0.021488
0.065678999 0.16831 -0.022538999
0.065357998 0.16737001 -0.020688999
0.063358001 0.16874 -0.020656999
0.063346997 0.17093 -0.020074001
0.063833997 0.17054 -0.018988
0.060782 0.17055 -0.020388
0.058465 0.1719 -0.019936999
0.058733001 0.17276999 -0.019071
0.057939 0.17377 -0.017835001
0.058945999 0.17464 -0.018338
0.056169 0.17549001 -0.018137001
0.055346999 0.17597 -0.018073
0.054287001 0.17866001 -0.017694
0.053741999 0.17997999 -0.017806999
0.053707 0.17921001 -0.016225999
0.052026 0.1802 -0.015512
0.053652 0.17907999 -0.0125
0.096784003 0.12826 0.050530002
0.099128 0.12794 0.051986001
0.055791002 0.21362001 -0.0069736
0.051984999 0.21465001 -0.0082240999
0.052055001 0.2139 -0.0056546
0.050163999 0.2157 -0.0055443002
0.05006 0.21466 -0.0042963
0.047717001 0.21709 -0.0049733999
0.046895999 0.21765999 -0.0050689001
0.045699999 0.21896 -0.0047017001
0.044787999 0.21965 -0.0047531002
0.043784998 0.22018 -0.0030161
0.12205 0.12233 0.040828999
0.10113 0.12609001 0.050391998
0.099772997 0.1261 0.051612999
0.086204998 0.12897 0.060242999
0.080758996 0.16253 -0.025544999
0.078651004 0.16235 -0.024778999
0.078403004 0.16064 -0.025327001
0.076402001 0.16176 -0.024316
0.074081004 0.16388001 -0.024823001
0.071902998 0.16233 -0.023449
0.071486004 0.16302 -0.022174999
0.069486998 0.16381 -0.021163
0.069035001 0.16406 -0.021344
0.066725001 0.16565 -0.020641999
0.066942997 0.16605 -0.020763
0.064149 0.16665 -0.019917
0.065004997 0.16845 -0.019221
0.063515998 0.16870999 -0.019715
0.062586002 0.16968 -0.020044999
0.06157 0.17047 -0.019781999
0.060120001 0.17156 -0.018905999
0.057528999 0.17148 -0.018629
0.058626998 0.17273 -0.01816
0.058708999 0.17283 -0.017595001
0.057037 0.17464 -0.015795
0.055594999 0.17589 -0.01688
0.055222999 0.17772 -0.017135
0.054657999 0.17652 -0.016679
0.054717999 0.17947 -0.014874
0.053217001 0.17923 -0.015104
0.051881 0.18049 -0.015101
0.067870997 0.13764 0.029336
0.11996 0.12399 0.046969999
0.11938 0.12586001 0.047648001
0.12543 0.12862 0.082447998
0.056129001 0.21389 -0.0059337998
0.05401 0.21323 -0.0065826001
0.051775001 0.21375 -0.0051821
0.051904 0.21606 -0.0052610999
0.050744001 0.21607 -0.0045030001
0.048346002 0.21551 -0.0039170999
0.047456 0.21622001 -0.0036799
0.045632001 0.21715 -0.0034196
0.045857001 0.21855 -0.0049136002
0.044691999 0.22050001 -0.0016048
0.12446 0.13023999 0.080925003
0.073027 0.13406 -0.030681999
0.12224 0.13085 0.081437998
0.12687001 0.12458 0.060316
0.083402 0.16204 -0.022777
0.079865001 0.16067 -0.024378
0.080163002 0.16157 -0.023171
0.077822998 0.16091999 -0.023823
0.075088002 0.16196001 -0.022295
0.074144997 0.16287 -0.022634
0.072755001 0.16328 -0.022484999
0.071308002 0.16221 -0.021379
0.069609001 0.16288 -0.020634999
0.069190003 0.16506 -0.021209
0.066192001 0.16574 -0.01983
0.066869996 0.16481 -0.022227
0.065523997 0.16587999 -0.020130999
0.064778 0.16717 -0.019931
0.062955998 0.16802 -0.019029001
0.062808998 0.16913 -0.017589999
0.062251002 0.16949999 -0.017409001
0.060438 0.17105 -0.018598
0.058888 0.17098001 -0.017212
0.057948001 0.17326 -0.016483
0.057032 0.17305 -0.016752999
0.057378002 0.17376 -0.016114
0.055321001 0.17457999 -0.017193999
0.057248998 0.17577 -0.015660999
0.053805999 0.17519 -0.015196
0.054056998 0.17816 -0.014611
0.052935999 0.17952 -0.015026
0.089988999 0.13255 0.030044001
0.12366 0.12286 0.045177002
0.12155 0.12214 0.046085998
0.12535 0.12328 0.061365001
0.12127 0.12217 0.061237998
0.12162 0.12363 0.062011
0.055458002 0.21421 -0.0052558002
0.053929001 0.21492 -0.0042015999
0.052165002 0.21483999 -0.0040777
0.050175998 0.21381 -0.0038038001
0.050089002 0.21534 -0.0025478001
0.046886999 0.21742 -0.0023560999
0.046774 0.21851 -0.0023032001
0.046553001 0.21956 -0.0015143
0.047038 0.21842 -0.001471
0.067404002 0.13624001 -0.020109
0.11911 0.12256 0.062657997
0.068685003 0.13575 -0.023128999
0.077761002 0.13361 -0.03098
0.075590998 0.13307001 -0.029541001
0.075172 0.13444 -0.02981
0.071897 0.133 -0.028571
0.11675 0.12421 0.064296998
0.084014997 0.16026001 -0.023429999
0.082506001 0.16006 -0.022543
0.079542004 0.16121 -0.023810999
0.077624001 0.16099 -0.020981001
0.074945003 0.16212 -0.022197001
0.073921002 0.16056 -0.020540999
0.073155999 0.16177 -0.020838
0.071828 0.16095001 -0.020648001
0.069546998 0.16347 -0.020682
0.068167001 0.16416 -0.021319
0.067704998 0.16576999 -0.017879
0.064464003 0.1647 -0.018842001
0.064534999 0.16698 -0.018829999
0.06391 0.16844 -0.019141
0.062474001 0.16835999 -0.017764
0.062684998 0.16852 -0.018143
0.061501 0.16954 -0.015821001
0.060628999 0.17094 -0.016021
0.060068998 0.17078 -0.016898001
0.058763001 0.17196999 -0.017082
0.057238001 0.17267001 -0.015694
0.057122 0.17447001 -0.015719
0.055178002 0.1734 -0.015939999
0.054361999 0.17524999 -0.01381
0.054526001 0.17677 -0.014948
0.053991001 0.17758 -0.015075
0.051842 0.17964999 -0.014287
0.11127 0.13177 0.025111999
0.090264 0.13221 0.031828001
0.11598 0.12439 0.063812003
0.11498 0.12494 0.064009003
0.054770999 0.21371 -0.0041693999
0.053491998 0.21517 -0.0038761999
0.053302001 0.21433 -0.0030052001
0.049688999 0.21472 -0.0019729999
0.049786001 0.21595 -0.0031318001
0.047168002 0.21579 -0.0014608999
0.046424001 0.21718 -0.00086392002
0.047338001 0.21885 -0.0018056
0.045752 0.2194 -0.00032230001
0.11143 0.12485 0.062807001
0.079397 0.13226999 -0.029480999
0.076706998 0.13305999 -0.028427999
0.077745996 0.13344 -0.028140999
0.075898997 0.13354 -0.028711
0.074597999 0.13406999 -0.027148999
0.071488999 0.13506 -0.028558001
0.11078 0.12597001 0.064317003
0.11021 0.12657 0.066154003
0.10937 0.12748 0.065304004
0.08506 0.15882 -0.021993
0.081146002 0.16023 -0.020987
0.078615002 0.16029 -0.020628
0.077552997 0.15978999 -0.022329999
0.075684004 0.16018 -0.021745
0.073850997 0.16156 -0.021543
0.072598003 0.16204 -0.021538001
0.070130996 0.16102 -0.019990001
0.070869997 0.16289 -0.020706
0.067892 0.16347 -0.020076999
0.065805003 0.1628 -0.019424001
0.065279998 0.16457 -0.019153001
0.064579003 0.16565999 -0.018291
0.064744003 0.16651 -0.017565999
0.063115999 0.16752 -0.016783001
0.063421004 0.1681 -0.016878
0.062157001 0.16976 -0.016099
0.059714001 0.17019001 -0.016488999
0.060426999 0.17066 -0.015485
0.059308 0.17242999 -0.015649
0.057815999 0.17319 -0.01404
0.057530001 0.17316 -0.014237
0.05486 0.17385 -0.014076
0.055266 0.17508 -0.014431
0.053686999 0.1769 -0.012925
0.054141998 0.17748 -0.012496
0.053266998 0.17777 -0.012109
0.13131 0.12135 0.021555001
0.10686 0.12746 0.066776
0.1062 0.12758 0.065912999
0.055672999 0.21347 -0.0038385
0.054652002 0.21547 -0.0030141
0.053950001 0.21461 -0.0021257
0.051784001 0.21537 -0.0014761999
0.050147001 0.21658 -0.0023568
0.048126001 0.21766999 -0.0019825001
0.047497001 0.21704 -0.0011213
0.047019999 0.21877 -0.00033688001
0.10601 0.12888999 0.06549
0.082889996 0.13225 -0.028557001
0.080748998 0.13213 -0.029209999
0.079337001 0.13432001 -0.027951
0.076821998 0.13242 -0.027539
0.075948998 0.13469 -0.027586
0.073310003 0.13407999 -0.027098
0.071634002 0.13356 -0.027565001
0.069211997 0.13440999 -0.027464001
0.10233 0.12837 0.067387998
0.10172 0.12873 0.068655998
0.084508002 0.15975 -0.022629
0.082721002 0.15914001 -0.020899
0.082289003 0.15805 -0.02165
0.079838999 0.15971 -0.020525999
0.078171998 0.15952 -0.020300999
0.076656997 0.16057999 -0.019495999
0.072351001 0.16047999 -0.020459
0.072603002 0.16147 -0.01925
0.070905 0.16108 -0.020956
0.069784999 0.16132 -0.018948
0.069342002 0.16312 -0.019075001
0.066834003 0.16339999 -0.016807999
0.064880997 0.1648 -0.017287999
0.064439997 0.16541 -0.01739
0.064583004 0.167 -0.015961999
0.063749 0.16569 -0.015307
0.063502997 0.16737001 -0.016192
0.060920998 0.16914 -0.014986
0.060593002 0.16835999 -0.014665
0.059503999 0.17095999 -0.014645
0.058102999 0.17020001 -0.014895
0.057815999 0.17068 -0.014203
0.055588 0.17321 -0.014177
0.055193 0.17267001 -0.013728
0.055146001 0.17359 -0.013006
0.054211002 0.17574 -0.011726
0.052329 0.17588 -0.012023
0.054623999 0.21472999 -0.00046702
0.054997001 0.21597999 -0.0013973
0.048503999 0.21754999 0.0011013
0.047063999 0.21987 0.00024158999
0.082180999 0.13199 -0.029177001
0.081441998 0.13221 -0.027757
0.078974001 0.13232 -0.027832
0.076676004 0.1329 -0.028486
0.076218002 0.13259999 -0.027805001
0.072896004 0.13222 -0.025884001
0.072365001 0.13398001 -0.025868
0.072268002 0.13364001 -0.026465001
0.12687001 0.13107 0.080227003
0.084560998 0.15837 -0.021103
0.082695 0.15905 -0.020908
0.081661999 0.1601 -0.019122999
0.078645997 0.16069999 -0.020244
0.077119999 0.15992001 -0.019687001
0.076599002 0.16098 -0.01816
0.073146999 0.16099 -0.018711001
0.071820997 0.16157 -0.018030999
0.069293998 0.16122 -0.018759999
0.068761997 0.1617 -0.017624
0.068599999 0.16246 -0.018757001
0.066381998 0.16241001 -0.016798001
0.065301001 0.16226999 -0.016728001
0.064094 0.16391 -0.015644001
0.063481003 0.16410001 -0.016984999
0.063132003 0.16680001 -0.015066
0.061519001 0.16709 -0.015262
0.060515001 0.16858999 -0.013033
0.059292998 0.16956 -0.012571
0.059792001 0.16971 -0.014225
0.058456 0.17038999 -0.013506
0.057303 0.17186999 -0.012693
0.056389999 0.17172 -0.013386
0.055798002 0.17377 -0.011244
0.056320999 0.17429 -0.010699
0.052974999 0.17521 -0.010575
0.053536002 0.17643 -0.0099641001
0.053279001 0.17723 -0.011911
0.069866002 0.15987 -0.0080487998
0.099579997 0.13312 0.022670001
0.098564997 0.13211 0.021436
0.088220999 0.12852 0.058378
0.089948997 0.1295 0.058534
0.11826 0.12481 0.045619
0.11787 0.1319 0.080034003
0.097657003 0.13154 0.021583
0.084602997 0.13309 -0.027898001
0.082581997 0.13258 -0.026849
0.081179999 0.13083 -0.026520999
0.080269001 0.13270999 -0.026633
0.078449003 0.13248999 -0.026334001
0.075383998 0.13262001 -0.024964999
0.073847003 0.13434 -0.025533
0.072223999 0.13545001 -0.026046
0.070384003 0.13387001 -0.023094
0.069880001 0.13503 -0.025155
0.1187 0.13257 0.081096999
0.084627002 0.15786999 -0.02084
0.083107002 0.1577 -0.019262999
0.080605 0.15919 -0.019803001
0.079365 0.15900999 -0.018666999
0.077758998 0.15925001 -0.018131999
0.075127997 0.15790001 -0.019501001
0.073151 0.15952 -0.017402999
0.070740998 0.16018 -0.016311999
0.070698999 0.16196001 -0.018093999
0.067772999 0.16192 -0.015712
0.068728 0.16232 -0.016077001
0.066555001 0.16223 -0.017287999
0.066886999 0.16347 -0.01333
0.062808 0.16452 -0.015365
0.063368998 0.16632 -0.014581
0.063398004 0.16554999 -0.014338
0.061889 0.16677999 -0.014383
0.061377 0.16695 -0.012397
0.059967998 0.16763 -0.012426
0.058361001 0.16941001 -0.012028
0.057643998 0.17166001 -0.013231
0.057133999 0.17174 -0.011672
0.058724001 0.17162 -0.011914
0.055548001 0.17332999 -0.010758
0.05627 0.17515001 -0.011819
0.055523999 0.17434999 -0.0099226004
0.053433001 0.17715999 -0.010157
0.051964 0.17694999 -0.010218
0.052065 0.17812 -0.0090586999
0.079302996 0.13533001 0.026024001
0.080190003 0.13463999 0.026926
0.096403003 0.13121 0.020421
0.11385 0.12472 0.033914998
0.1131 0.12412 0.034458
0.086099997 0.13168 -0.026255
0.083878003 0.13078 -0.026905
0.080164 0.13214999 -0.025907001
0.079139002 0.13122 -0.024767
0.077148996 0.13252001 -0.024840999
0.075957999 0.13253 -0.024367001
0.074570999 0.13513 -0.023429999
0.075171001 0.13414 -0.024073999
0.072218001 0.1346 -0.023141
0.069514997 0.13569 -0.023269
0.11744 0.13256 0.081589997
0.083687998 0.15852 -0.019277999
0.083033003 0.15825 -0.018718001
0.080813996 0.15691 -0.018068001
0.079915002 0.15820999 -0.016225001
0.078157999 0.15703 -0.018506
0.076396003 0.15861 -0.017035
0.073215999 0.15999 -0.018704001
0.072584003 0.16 -0.015704
0.069490001 0.16031 -0.015694
0.068696 0.16169 -0.016077001
0.068043001 0.16237999 -0.014572
0.068731003 0.16359 -0.014621
0.066758998 0.16340999 -0.013304
0.064746 0.16436 -0.01479
0.065163001 0.16576 -0.013043
0.063574001 0.1648 -0.014163
0.061944999 0.16548 -0.014778
0.060915999 0.16649 -0.012844
0.060091 0.16828001 -0.012237
0.059257001 0.16965 -0.013177
0.058679 0.16872001 -0.01164
0.057440002 0.17188001 -0.010331
0.055312999 0.17207 -0.011587
0.056676 0.17224 -0.01017
0.055948 0.17288999 -0.010098
0.054418001 0.17377999 -0.010326
0.052990001 0.17557 -0.0081054997
0.052329998 0.17763001 -0.0089474004
0.050942 0.17784999 -0.0078793997
0.051662002 0.17964 -0.0089034997
0.074977003 0.13679001 0.030446
0.12975 0.12214 0.022647999
0.12845001 0.12102 0.019636
0.08698 0.13156 -0.025265001
0.084339 0.1312 -0.025834
0.082327999 0.13221 -0.026303999
0.081188001 0.13330001 -0.025137
0.079057001 0.13197 -0.024569999
0.078397997 0.13226999 -0.024533
0.075842001 0.13256 -0.023221999
0.076447003 0.13285001 -0.022615001
0.071953997 0.13383999 -0.023195
0.071786001 0.13283999 -0.021761
0.069196999 0.13466001 -0.022771001
0.068347998 0.13445 -0.023263
0.066554002 0.13526 -0.020602001
0.12800001 0.12355 0.063088998
0.057041001 0.13594 -0.0085348999
0.083604001 0.15716 -0.016829999
0.080407001 0.15967999 -0.017771
0.077229001 0.15817 -0.016426001
0.077290997 0.15866999 -0.015629999
0.075668998 0.15790001 -0.015584
0.072980002 0.16027001 -0.015556
0.072057001 0.15785 -0.014916
0.071190998 0.15928 -0.014953
0.070860997 0.15938 -0.014319
0.068250999 0.16058999 -0.013803
0.068401001 0.16147999 -0.015352
0.066781998 0.16294 -0.015189
0.066119 0.16358 -0.012712
0.063229002 0.16468 -0.013138
0.061595 0.16392 -0.013066
0.063399002 0.16619 -0.013483
0.062137999 0.16703001 -0.012319
0.060706999 0.16711999 -0.011881
0.059379999 0.16998 -0.012173
0.058099002 0.17038 -0.011473
0.058102001 0.1708 -0.0095191998
0.056788001 0.17192 -0.010319
0.054689001 0.17247 -0.0098885996
0.054570999 0.17358001 -0.0084782001
0.054363001 0.17512999 -0.0097658001
0.053789999 0.17574 -0.0078272996
0.052620001 0.17643 -0.0080271997
0.052533001 0.17714 -0.0073032998
0.051205002 0.17892 -0.0065343999
0.083800003 0.13383999 0.025966
0.12626 0.12417 0.062862001
0.12324 0.12293 0.062027998
0.075014003 0.13225999 0.055638
0.12022 0.12371 0.065719001
0.075971998 0.13077 0.054113001
0.1196 0.12388 0.064680003
0.11827 0.12392 0.065164
0.11514 0.12313 0.064112
0.11449 0.1246 0.065099001
0.11297 0.12503 0.064801998
0.1129 0.12605 0.065222003
0.1095 0.12621 0.066757001
0.089579999 0.13154 -0.024085
0.086439997 0.13157 -0.024672
0.085818999 0.13122 -0.024008
0.083502002 0.13180999 -0.025096999
0.082526997 0.13157 -0.023430999
0.079690002 0.13257 -0.023467001
0.078575999 0.13262001 -0.022939
0.076234996 0.1336 -0.023597
0.075383998 0.13164 -0.023526
0.073215999 0.13354 -0.022785001
0.069687001 0.13414 -0.021342
0.07198 0.13471 -0.020748001
0.068704002 0.13468 -0.021655001
0.066675998 0.13665 -0.019469
0.10895 0.12661 0.065788999
0.081009999 0.1586 -0.016962999
0.079205997 0.15802 -0.015282
0.077696003 0.15809 -0.015249
0.074876003 0.15965 -0.01452
0.074428998 0.15893 -0.013929
0.072485 0.15956999 -0.014086
0.070800997 0.16091999 -0.013961
0.069614001 0.16118 -0.014308
0.069390997 0.16265 -0.013229
0.067124002 0.16229001 -0.012672
0.066565 0.16147999 -0.013547
0.064255998 0.16381 -0.01136
0.064035997 0.16324 -0.011313
0.063672997 0.16484 -0.012294
0.061071001 0.16609 -0.0095931999
0.060249999 0.16642 -0.012402
0.060407002 0.16653 -0.012218
0.059572998 0.1679 -0.011575
0.058743 0.16902 -0.0083279004
0.058171999 0.1709 -0.0088366
0.056869999 0.17122 -0.0074026999
0.055810999 0.17287999 -0.0072086002
0.055245001 0.17392001 -0.0082625002
0.055447001 0.17400999 -0.0079648998
0.054605 0.17476 -0.0066761998
0.053118002 0.17738999 -0.0075837001
0.051713999 0.17707001 -0.0064543001
0.052994002 0.17907999 -0.0061323
0.052506998 0.17997999 -0.0059616999
0.066271 0.16151001 -0.0029498001
0.066444002 0.16260999 -0.0043576998
0.076801002 0.1305 0.053564999
0.078734003 0.13036001 0.053925
0.10816 0.12874 0.067481004
0.10624 0.12831999 0.066440001
0.079613 0.13122 0.052184001
0.10594 0.12734 0.067876004
0.10363 0.12953 0.066731997
0.083117001 0.13059001 0.053964999
0.092019998 0.13181999 0.053096
0.091150001 0.13334 0.052359
0.090346001 0.13102999 -0.023038
0.088664003 0.13090999 -0.023666
0.084697001 0.13022999 -0.023153
0.083398998 0.13079999 -0.023466
0.081932999 0.13233 -0.023197001
0.082502998 0.13221 -0.023094
0.076614998 0.13291 -0.023010001
0.078172997 0.13405 -0.022531001
0.076679997 0.13263001 -0.020997999
0.073476002 0.13358 -0.020896001
0.071076997 0.13299 -0.020597
0.070294 0.13523 -0.020871
0.070499003 0.13461 -0.020306
0.067556001 0.13598 -0.019795001
0.063680999 0.13274001 0.02235
0.078649998 0.15782 -0.015426
0.076996997 0.15708999 -0.013919
0.074766003 0.1584 -0.014367
0.074571997 0.15926 -0.014467
0.071653001 0.15875 -0.013929
0.071245998 0.15989999 -0.012917
0.069555998 0.1601 -0.014261
0.068613999 0.16019 -0.01307
0.06617 0.16168 -0.012529
0.066831999 0.16168 -0.01119
0.065481 0.16215999 -0.011057
0.066560999 0.16353001 -0.01085
0.063675001 0.16569 -0.011977
0.062103 0.16554999 -0.010251
0.061524 0.16621 -0.0093994997
0.061239 0.16673 -0.0087649003
0.058646999 0.16707 -0.0093002003
0.056983002 0.16877 -0.0089154001
0.057353999 0.17115 -0.0077562998
0.057709999 0.17 -0.0079464
0.056793999 0.17 -0.0065274001
0.055431001 0.17327 -0.0081225
0.053971 0.17382 -0.0063967998
0.053583 0.17659999 -0.0046005999
0.053298999 0.17637999 -0.0070480001
0.051566001 0.1781 -0.0063274
0.053043 0.1788 -0.0052469
0.052425001 0.17983 -0.0041044001
0.094681002 0.12872 0.051084001
0.094168 0.13258 0.050200999
0.096224003 0.13073 0.051151998
0.095918998 0.12830999 0.050654002
0.088831998 0.13277 0.053656999
0.088418998 0.13022 -0.02406
0.088533998 0.12924001 -0.023025
0.085316002 0.13052 -0.022322999
0.083782002 0.13158999 -0.022566
0.082520001 0.13106 -0.021698
0.081748001 0.13212 -0.021615
0.079773001 0.13293999 -0.02
0.076918997 0.13229001 -0.021601999
0.075912997 0.13259 -0.019672001
0.074653998 0.13392 -0.019258
0.072059996 0.13428999 -0.019610999
0.071119003 0.13274001 -0.017887
0.069633998 0.13436 -0.018614
0.067845002 0.13485999 -0.020049
0.077777997 0.15872 -0.013897
0.078339003 0.15731999 -0.012978
0.074579 0.15854999 -0.012988
0.073385999 0.1576 -0.012777
0.071978003 0.15862 -0.012744
0.071843997 0.15964 -0.012575
0.069913 0.16109 -0.011628
0.069349997 0.16185001 -0.011525
0.067339003 0.16215 -0.01292
0.066840999 0.16128001 -0.0096979998
0.065329999 0.16201 -0.0096431002
0.064290002 0.16337 -0.010584
0.064010002 0.16419999 -0.0099066002
0.062912002 0.16661 -0.010147
0.060787 0.16597 -0.0078052999
0.061726999 0.16712999 -0.0079413
0.060676999 0.16757999 -0.0086193001
0.058316 0.17001 -0.0085049998
0.057301998 0.16925 -0.0082358001
0.056712002 0.17072999 -0.0061599002
0.056534 0.17144001 -0.0071231001
0.055849001 0.17196999 -0.0065954998
0.054726001 0.17475 -0.0054969001
0.053725 0.17542 -0.0046402998
0.054517001 0.17589 -0.0052216998
0.053948998 0.17634 -0.0050583999
0.052182 0.17802 -0.0040127002
0.053376999 0.17987999 -0.0039222999
0.052969001 0.18111999 -0.0037513
0.098140001 0.12771 0.049911
0.096860997 0.12727 0.051791999
0.10291 0.12551001 0.036276001
0.10475 0.12469 0.036318999
0.11445 0.1231 0.034462001
0.098789997 0.12694 0.049761001
0.10192 0.12662999 0.049168002
0.11902 0.12554 0.047065999
0.11984 0.12441 0.045628998
0.092563003 0.13056999 -0.022194
0.089371003 0.13063 -0.021710999
0.088992 0.1301 -0.021757999
0.086280003 0.13203 -0.021818001
0.084385 0.13160001 -0.021477999
0.081974998 0.13127001 -0.022473
0.081425004 0.13378 -0.021381
0.080119997 0.13158 -0.020174
0.078180999 0.13157 -0.019938
0.07615 0.13323 -0.01908
0.074258 0.13243 -0.020003
0.072517 0.13339999 -0.018447001
0.072071999 0.13431001 -0.018031999
0.069448002 0.13343 -0.017486
0.067835003 0.13465001 -0.017205
0.12427 0.13133 0.081707999
0.077684 0.15631001 -0.012997
0.074124001 0.15761 -0.012661
0.073982999 0.15798 -0.01288
0.074096002 0.15955 -0.01216
0.071064003 0.15888 -0.011281
0.069218002 0.16026001 -0.011933
0.067969002 0.15964 -0.0092240004
0.067345999 0.15971 -0.010748
0.066422001 0.16134 -0.0089720003
0.065127999 0.16023999 -0.0097271996
0.063570999 0.16389 -0.010079
0.064580001 0.16597 -0.0075373002
0.062084999 0.16468 -0.0094250999
0.059718002 0.16528 -0.0078888005
0.060329001 0.16649 -0.0073691998
0.060740001 0.16853 -0.0084197
0.058820002 0.16886 -0.0055473
0.058068 0.16875 -0.0060140998
0.055888999 0.17015 -0.0057665999
0.056433 0.17062999 -0.0048990999
0.053840999 0.17219 -0.0054278001
0.054432999 0.17283 -0.0051803999
0.054724999 0.17442 -0.0039611999
0.054010998 0.1762 -0.0028202999
0.054637998 0.17742001 -0.0038332001
0.052903999 0.17957 -0.0031767001
0.053194001 0.18009999 -0.0023525001
0.052538 0.18091001 -0.0028580001
0.057169002 0.17403001 0.0047734999
0.12213 0.13174 0.082984
0.12198 0.13256 0.083471999
0.12275 0.12302 0.045559
0.12426 0.12237 0.043722
0.12582 0.12308 0.044558998
0.092537999 0.13055 -0.021515001
0.091760002 0.13067999 -0.022639001
0.087736003 0.13163 -0.019936001
0.087015003 0.13164 -0.021404
0.084599003 0.13086 -0.019944999
0.082653999 0.13106 -0.020354001
0.082047999 0.13155 -0.018885
0.081088997 0.13150001 -0.018902
0.078556001 0.13138001 -0.018638
0.077384003 0.13212 -0.018761
0.075888999 0.1331 -0.016421
0.073256001 0.13354 -0.018154001
0.071800001 0.13382 -0.018051
0.070602 0.13411 -0.016897
0.069554999 0.13511001 -0.01626
0.066443004 0.13535 -0.016085999
0.043547999 0.14009 0.0033694
0.075926997 0.15561 -0.011846
0.073996998 0.15725 -0.011603
0.072393 0.15797 -0.011627
0.071598999 0.15894 -0.01069
0.071053997 0.15999 -0.010033
0.067808002 0.1594 -0.0095132999
0.069003001 0.16088 -0.0082098003
0.066886999 0.16198 -0.0086046997
0.064792998 0.16197 -0.0098532997
0.066030003 0.16355 -0.0081081996
0.064259 0.16416 -0.0076795002
0.063708998 0.16545001 -0.0074837999
0.062526003 0.16398001 -0.0068379999
0.061388999 0.16644 -0.0058221999
0.060215998 0.16760001 -0.0054871002
0.059865002 0.16719 -0.0049025998
0.058022998 0.16913 -0.0071704998
0.057783999 0.17168 -0.0047106999
0.057165999 0.16966 -0.0044648
0.056336001 0.17203 -0.0044542998
0.055617999 0.17182 -0.0046330001
0.054370999 0.17419 -0.0040527
0.054157998 0.17463 -0.0033803
0.053690001 0.17698 -0.0029932
0.053208999 0.17728999 -0.0021633999
0.052336998 0.17912 -0.00093689997
0.051486999 0.18076999 -0.0025956
0.12902001 0.12412 0.063575998
0.12784 0.12369 0.064299002
0.12375 0.12347 0.062587
0.12887999 0.1215 0.038380999
0.12668 0.12308 0.040798001
0.12235 0.12401 0.064825997
0.092027001 0.13041 -0.020699
0.092216998 0.13123 -0.020819999
0.088729002 0.13139001 -0.020888001
0.088201001 0.13105001 -0.019176999
0.08433 0.12976 -0.019432999
0.084114 0.13057999 -0.019389
0.081595004 0.13211 -0.017421
0.081120998 0.132 -0.018367
0.077979997 0.13296001 -0.018913001
0.077018999 0.13448 -0.016378
0.075391002 0.13292 -0.016914999
0.073720001 0.13299 -0.017374
0.072806999 0.13359 -0.016454
0.071448997 0.13378 -0.016944
0.068317004 0.13373999 -0.014506
0.12176 0.12437 0.064645998
0.12022 0.12398 0.063927002
0.063653 0.16344 0.0011234001
0.07615 0.15626 -0.01025
0.074078001 0.15807 -0.010276
0.072017998 0.15735 -0.0091319
0.072007999 0.15913001 -0.010644
0.071978003 0.15904 -0.0089632999
0.068639003 0.15921 -0.0090351999
0.068333998 0.16057999 -0.0078440001
0.068025999 0.16215 -0.0080358004
0.066157997 0.16230001 -0.0082908999
0.065315001 0.16293 -0.0066332999
0.065003 0.1626 -0.0058367001
0.063323997 0.16602001 -0.0055626999
0.061951999 0.16662 -0.0057414002
0.061873 0.16655 -0.0048504998
0.060045 0.16726001 -0.0052355998
0.059441 0.16756 -0.0036422999
0.058052 0.16879 -0.0038212
0.056765001 0.17140999 -0.0035027999
0.056012999 0.1715 -0.0041661998
0.055645 0.17158 -0.0033088999
0.055744 0.17257001 -0.0022340999
0.054143999 0.17460001 -0.0025621001
0.05548 0.17468999 -0.00082079001
0.054063 0.17621 -0.0015532
0.052761 0.17702 -0.0025366
0.051769 0.17915 -1.0021e-05
0.11619 0.12489 0.064896002
0.11626 0.12582 0.066644996
0.11509 0.12526999 0.066618003
0.12361 0.12303 0.040600002
0.11148 0.12627999 0.067160003
0.11033 0.12638 0.067459002
0.096153997 0.1301 -0.019315001
0.093984999 0.13031 -0.020676
0.091748998 0.13042 -0.018965
0.089919001 0.13015001 -0.018781999
0.087357998 0.13061 -0.019625001
0.085666999 0.13116001 -0.018401001
0.084322996 0.13203 -0.018517001
0.083741002 0.13305999 -0.019543
0.081038997 0.13241 -0.016930001
0.078475997 0.13093001 -0.017343
0.077108003 0.13188 -0.016452
0.07525 0.1348 -0.015969999
0.074744001 0.13413 -0.016367
0.071594 0.13484 -0.014764
0.071474999 0.1321 -0.01502
0.069711 0.13395999 -0.013923
0.067478001 0.13514 -0.015173
0.10942 0.12743001 0.067636997
0.10991 0.12706999 0.066954002
0.10639 0.13009 0.067651004
0.076451004 0.15671 -0.0097407997
0.074768998 0.15834001 -0.0082775997
0.074105002 0.15816 -0.0096100997
0.071866997 0.15926 -0.0082953004
0.071033001 0.15818 -0.0078979004
0.070009999 0.15884 -0.0084955003
0.066354997 0.16237 -0.0068569998
0.064737 0.1627 -0.0075701
0.064772002 0.16498999 -0.0050539002
0.062033001 0.16553 -0.0065027
0.061852001 0.16477001 -0.0042408002
0.062380999 0.16412 -0.0036362
0.060867999 0.16709 -0.0031605
0.058547001 0.16831 -0.0043547
0.059257999 0.16959 -0.0040509999
0.057438999 0.16977 -0.0036189
0.058056001 0.17094 -0.0032005
0.055224001 0.17281 -0.0040622
0.055558 0.17288999 -0.0025642
0.054775 0.17298 -0.0015754
0.053762998 0.17526001 0.00020476
0.053630002 0.17735 -0.00054380001
0.053651001 0.17688 -0.00082995999
0.083903998 0.13407999 0.036844999
0.10543 0.12867001 0.068095997
0.10688 0.1295 0.066684
0.095331997 0.13011999 -0.019086
0.094112001 0.13054 -0.019355999
0.091779001 0.13034 -0.019321
0.091141999 0.13022 -0.019416999
0.087334 0.12943999 -0.018103
0.087081999 0.131 -0.016956
0.083247997 0.13168 -0.017325999
0.081965998 0.13308001 -0.017340001
0.081064001 0.13160001 -0.016201001
0.081193998 0.13086 -0.017003
0.078695998 0.13245 -0.014727
0.075078003 0.13301 -0.014966
0.074442998 0.13016 -0.014222
0.073498003 0.13410001 -0.014801
0.071506999 0.13372 -0.015109
0.068975002 0.1322 -0.01487
0.068738997 0.13355 -0.013467
0.072825 0.15772 -0.0076429001
0.070987999 0.15922 -0.0084953997
0.065112002 0.16248 -0.0057299002
0.063565999 0.16336 -0.0047979001
0.063594997 0.16495 -0.0055833999
0.063092999 0.16562 -0.0038842
0.060136002 0.16569 -0.0026034999
0.061554 0.16643 -0.0049556
0.059517998 0.16832 -0.0036150001
0.057785001 0.16919 -0.0022764001
0.057891998 0.169 -0.003152
0.058797002 0.17147 -0.0016435999
0.054949 0.17159 -0.0016177
0.054972 0.17216 0.00010781
0.054605 0.17389999 -0.0011338
0.054901998 0.17470001 -0.00098389003
0.053458001 0.17586 0.00097443
0.074298002 0.13574 0.027787
0.098466001 0.12921999 -0.018629
0.095746003 0.12903 -0.018368
0.094416998 0.12781 -0.018754
0.090579003 0.13132 -0.018301001
0.089158997 0.13068999 -0.016384
0.089613996 0.13234 -0.017588999
0.087229997 0.13070001 -0.016108001
0.085180998 0.13088 -0.015427
0.083888002 0.13091999 -0.015822001
0.081082001 0.13194001 -0.01493
0.078149997 0.13342001 -0.016577
0.078433998 0.13226999 -0.014315
0.075253002 0.13142 -0.014286
0.073613003 0.13258 -0.013166
0.071765997 0.13325 -0.013382
0.071199998 0.13345 -0.01484
0.06859 0.13353001 -0.013116
0.068495996 0.13440999 -0.011513
0.066509001 0.13601001 -0.011684
0.066046 0.13653 -0.011039
0.063061997 0.13586 -0.010683
0.060353 0.13689999 -0.011278
0.06459 0.1629 -0.0030767
0.062355999 0.16569 -0.0026507
0.062279999 0.16484 -0.0034280999
0.061306 0.16547 -0.0038660001
0.059941001 0.16587 -0.0018122999
0.059650999 0.16687 -0.0015926
0.060006998 0.16745999 -0.00095680001
0.059192002 0.16902 -0.0014548
0.057409 0.16942 0.00032838999
0.056598999 0.17151 0.00059047999
0.056088001 0.17165001 0.00070964999
0.056933001 0.17467 -2.1809999e-05
0.054875001 0.17338 -2.0478001e-05
0.054554 0.17534 0.00037885
0.070763998 0.13733 0.027086001
0.11306 0.12703 -0.021356
0.10972 0.12648 -0.019367
0.10834 0.12836 -0.020099999
0.10621 0.12849 -0.017508
0.10531 0.12819999 -0.019771
0.10296 0.12796 -0.018426999
0.10145 0.12656 -0.018707
0.099641003 0.13000999 -0.018756
0.099900998 0.12918 -0.015695
0.096877001 0.12927 -0.016735001
0.093943998 0.12941 -0.015352
0.092321999 0.13037001 -0.015083
0.091104001 0.13034999 -0.015224
0.088106997 0.12975 -0.015134
0.085836001 0.13072 -0.01456
0.085646003 0.13257 -0.015781
0.083163001 0.13124999 -0.01362
0.082797997 0.13242 -0.015977999
0.080224 0.13152 -0.014028
0.079841003 0.13218001 -0.013689
0.075951003 0.13144 -0.012937
0.074699998 0.13368 -0.013024
0.074036002 0.13346 -0.011783
0.072571002 0.13334 -0.012716
0.070046 0.13423 -0.012398
0.0678 0.13369 -0.012559
0.066541001 0.13557 -0.01228
0.065081999 0.13591 -0.010834
0.062254999 0.13377 -0.010425
0.062988997 0.13494 -0.010183
0.060318001 0.13579001 -0.0091623999
0.055061001 0.13684 -0.010471
0.053718001 0.13762 -0.0091193998
0.051961999 0.1384 -0.0099178003
0.049835999 0.13971999 -0.0081559001
0.062729999 0.16412 -0.0027314001
0.062374 0.16543999 -0.0018342
0.060596 0.16603 -0.001153
0.06024 0.16649 -0.0015329
0.059145998 0.16888 -0.00027521999
0.058341999 0.16828001 0.00018509
0.057466999 0.16982999 -0.00032285001
0.056235 0.17220999 0.0013303
0.055814002 0.17209999 0.00034575001
0.055186 0.17400999 0.00063755002
0.055748001 0.17287999 -0.00044321001
0.055006001 0.17597 0.0023143999
0.1146 0.12501 -0.019667
0.11161 0.1268 -0.020094
0.10935 0.12746 -0.018828999
0.10916 0.12709001 -0.018641001
0.1068 0.12623 -0.016818
0.10518 0.12704 -0.018611001
0.10333 0.12885 -0.01709
0.10195 0.12842 -0.017273
0.10015 0.12752999 -0.018386001
0.097607002 0.12876 -0.015266
0.096175998 0.12917 -0.016213
0.094584003 0.12918 -0.015011
0.093166001 0.13101 -0.015698001
0.090710998 0.13078 -0.014348
0.090421997 0.13036001 -0.015077
0.087436996 0.13034 -0.014536
0.086226001 0.13184001 -0.013943
0.082805 0.13102999 -0.01247
0.081635997 0.13068999 -0.012795
0.080783002 0.13206001 -0.012668
0.077577002 0.13162 -0.011924
0.077854998 0.13267 -0.013221
0.074988998 0.1344 -0.012659
0.074349001 0.13270999 -0.01176
0.073213004 0.13307001 -0.011239
0.069314003 0.13305999 -0.011213
0.067884997 0.13522001 -0.011093
0.067658998 0.13354 -0.010684
0.065448999 0.13422 -0.010502
0.064406 0.13511001 -0.007925
0.063414 0.13483 -0.010557
0.061301999 0.13613001 -0.0075313998
0.058669001 0.13606 -0.0083742999
0.057393 0.13608 -0.0087198997
0.055810001 0.13665999 -0.0063477
0.054779999 0.13745999 -0.0065715001
0.05325 0.13736001 -0.0069018002
0.051079001 0.13778 -0.0070078
0.049883999 0.13768999 -0.0060931998
0.062930003 0.16414 -0.0015411
0.062295001 0.16503 -0.0001889
0.061115 0.16512001 -0.00055409002
0.060387 0.16765 -0.00085944001
0.060293 0.16885 0.0012558
0.058182999 0.16827001 0.00089432002
0.057282999 0.17155001 0.00027639
0.057703 0.17166001 0.0013577
0.056301001 0.17194 0.0010338
0.057234999 0.17268001 0.0023622999
0.055054002 0.17470001 0.0036746
0.055372 0.17646 0.0025098
0.10289 0.13128 0.033587001
0.13086 0.12226 0.018371999
0.12913001 0.12079 0.031186
0.11567 0.1256 -0.017140999
0.11413 0.12677 -0.018519999
0.11051 0.12756 -0.017291
0.11063 0.12605 -0.017874001
0.10792 0.12859 -0.018833
0.10488 0.12696999 -0.016147001
0.10396 0.12762 -0.016354
0.10333 0.12841 -0.016564
0.10067 0.12756 -0.016797001
0.099381 0.12908 -0.015655
0.096534997 0.12846 -0.015516
0.095567003 0.12931 -0.01613
0.092639998 0.13000999 -0.015263
0.091941997 0.1295 -0.014189
0.090884 0.13066 -0.013027
0.087637998 0.13053 -0.014021
0.086510003 0.12883 -0.014685
0.083019003 0.13015001 -0.013678
0.082139 0.13084 -0.011658
0.081514001 0.13357 -0.013541
0.079526998 0.13203 -0.011607
0.077197 0.13109 -0.012003
0.07502 0.13206001 -0.012532
0.073582001 0.13357 -0.010714
0.070067003 0.13362999 -0.0091167996
0.070706002 0.13382 -0.010358
0.068328001 0.13528 -0.0090912003
0.068274997 0.13316 -0.0094975997
0.065192997 0.13485 -0.0097061004
0.064038001 0.1347 -0.010108
0.063631997 0.13556001 -0.0082922
0.061689001 0.13552999 -0.0084742
0.060284 0.13514 -0.0088911001
0.057385001 0.13541999 -0.0075810999
0.057673998 0.13681 -0.0074366
0.054379001 0.13691001 -0.0069192001
0.051656 0.138 -0.0068363999
0.049814001 0.13756 -0.0055033001
0.048599001 0.13734999 -0.0048517999
0.061528001 0.16430999 0.00069964002
0.060817 0.16525 0.0017223
0.061159998 0.16644999 -4.3775999e-05
0.061048999 0.1674 0.0026487
0.059620999 0.16936 0.0033591001
0.057751 0.16975001 0.0010976
0.057183001 0.17151 0.0026852
0.056290999 0.17305 0.0034922
0.057029001 0.17422 0.0033249001
0.057108 0.17409 0.0045707999
0.11577 0.12537 -0.018075
0.11418 0.12685999 -0.018967999
0.11201 0.12575001 -0.017681001
0.1102 0.12774999 -0.015338
0.10782 0.12738 -0.017578
0.10602 0.12876999 -0.015683999
0.10295 0.12718 -0.016125999
0.10298 0.12782 -0.014995
0.101 0.12785999 -0.015977001
0.10013 0.12894 -0.014461
0.098068997 0.12772 -0.015207
0.094448 0.1295 -0.014817
0.093471996 0.12970001 -0.01395
0.092868 0.12983 -0.012685
0.088941999 0.13102999 -0.013292
0.088128 0.13089 -0.011723
0.086547002 0.13105001 -0.011872
0.084082998 0.12981001 -0.012582
0.083837003 0.13123 -0.011733
0.081054002 0.13046999 -0.011331
0.079989001 0.13277 -0.010601
0.077995002 0.13102999 -0.010223
0.076416999 0.13242 -0.0099334996
0.073578998 0.13358 -0.0099461004
0.072936997 0.1339 -0.0089317001
0.070448004 0.13391 -0.0088841002
0.069182001 0.13378 -0.0093377996
0.066436999 0.1346 -0.010143
0.066151999 0.13417 -0.0083315996
0.063766003 0.13389 -0.0083192
0.064364001 0.13505 -0.0070229
0.061677001 0.13728 -0.0068279998
