# .PCD v0.7 - Point Cloud Data file format
VERSION 0.7
FIELDS x y z
SIZE 4 4 4
TYPE F F F
COUNT 1 1 1
WIDTH 1558
HEIGHT 1
VIEWPOINT 0 0 0 1 0 0 0
POINTS 1558
DATA ascii
0.055532001 0.12471 0.079395004
0.054366 0.13076 0.061317999
0.056830999 0.1137 0.10981
0.056761 0.11439 0.10884
0.054388002 0.13232 0.061379001
0.053211998 0.14376 0.027042
0.054960001 0.13187 0.061733998
0.055123001 0.12559 0.079387002
0.055516001 0.12664001 0.078327
0.054928999 0.13336 0.061765999
0.051334001 0.16137999 -0.018960999
0.056495 0.11602 0.10902
0.05658 0.11708 0.1099
0.056687001 0.11712 0.1084
0.054988001 0.12836 0.079092003
0.056627002 0.11789 0.1085
0.055311002 0.12741999 0.078057997
0.055661 0.12892 0.077768996
0.054683 0.13513 0.061593
0.053149 0.15273 0.013291
0.050450999 0.16466001 -0.018301999
0.052779999 0.15397 0.013655
0.056646999 0.12029 0.10852
0.052960999 0.14918999 0.027232001
0.055374999 0.13165 0.076203004
0.055481002 0.13247 0.076274
0.054067001 0.13926999 0.060954999
0.052882001 0.156 0.012904
0.050960001 0.16760001 -0.019367
0.053325001 0.15121999 0.026257001
0.053176001 0.1513 0.026575999
0.053392 0.1399 0.061313
0.055213001 0.13999 0.061788999
0.052659001 0.15729 0.012431
0.050900999 0.16852 -0.018637
0.051093001 0.16914999 -0.019307001
0.054372001 0.14099 0.061138999
0.054673001 0.14069 0.062178001
0.052845001 0.15227 0.026557
0.052747 0.15355 0.026619
0.05545 0.13582 0.074808002
0.055086002 0.13505 0.075217001
0.056267999 0.12530001 0.10736
0.052579999 0.15808 0.012408
0.052586 0.16075 0.012568
0.054288 0.142 0.061884999
0.054318 0.1416 0.060973
0.054363001 0.13841 0.072916999
0.055061001 0.13752 0.072626002
0.054455001 0.14292 0.061156001
0.050230999 0.17165001 -0.018371001
0.055815998 0.12685999 0.10591
0.055282999 0.13786 0.070848003
0.051105 0.17110001 -0.020099999
0.051031001 0.17202 -0.019021999
0.054894 0.14038 0.071727999
0.054974999 0.13905001 0.072153002
0.054207999 0.1437 0.06205
0.052829001 0.15686999 0.025327999
0.052864999 0.16054 0.01232
0.050827999 0.17535999 -0.026070001
0.050345998 0.17618001 -0.025683001
0.055773001 0.12799001 0.10619
0.055142 0.14094999 0.07124
0.055210002 0.14015 0.071135998
0.054628 0.14329 0.062267002
0.052875999 0.15756001 0.024898
0.050423998 0.17497 -0.025088999
0.050198 0.17601 -0.024442
0.054745998 0.14481001 0.062662996
0.054097001 0.14474 0.061719999
0.049823999 0.17660999 -0.02678
0.050535999 0.17671999 -0.027148001
0.050257999 0.17688 -0.027644999
0.054730002 0.14187001 0.071613997
0.050308999 0.17409 -0.019216999
0.050423 0.17798001 -0.028041
0.055307001 0.14244001 0.070600003
0.050845001 0.17637999 -0.022528
0.053874999 0.14262 0.069844
0.054676998 0.14261 0.069245003
0.054790001 0.14356001 0.068787001
0.051316001 0.17588 -0.023828
0.055202998 0.13046999 0.10542
0.055344 0.14447001 0.068471
0.050942998 0.17614 -0.019118
0.050368998 0.17914 -0.028134
0.050291002 0.1779 -0.028371001
0.053325001 0.16009 0.024429999
0.056653999 0.13151 0.10537
0.054892998 0.14514001 0.068677999
0.053606998 0.14653 0.063276999
0.052668002 0.16062 0.024052
0.049913 0.17922001 -0.027325001
0.050066002 0.18023001 -0.028192
0.055215001 0.14557 0.068506002
0.050262999 0.17702 -0.019335
0.050795998 0.17744 -0.019382
0.054845002 0.14589 0.068129003
0.054758001 0.14679 0.063235998
0.054257002 0.14796001 0.063455999
0.051008999 0.17644 -0.020796999
0.056573998 0.13248999 0.10536
0.055247001 0.14895999 0.063282996
0.052834999 0.16588999 0.015347
0.050574001 0.178 -0.01983
0.050709002 0.17772999 -0.019149
0.050848 0.17822 -0.019192999
0.054453999 0.14645 0.068596996
0.053456999 0.14894 0.062899001
0.052745 0.1646 0.022177
0.051001001 0.18206 -0.028661
0.056862999 0.13323 0.10525
0.056669001 0.13457 0.1043
0.053847 0.15008 0.062341001
0.050457001 0.18403 -0.028093001
0.054527 0.14793999 0.068185002
0.053817 0.15012001 0.068380997
0.054821 0.15203001 0.062651001
0.054715 0.14898001 0.069239996
0.054246001 0.15270001 0.062831998
0.050496001 0.18584 -0.029867999
0.051054999 0.18649 -0.029639
0.054280002 0.15184 0.068308003
0.054147001 0.15373001 0.063281
0.049979001 0.18437999 -0.018919
0.054740999 0.15404999 0.063240997
0.050037 0.18818 -0.029901
0.050413001 0.18779001 -0.030162999
0.056327999 0.14114 0.10228
0.050852999 0.18482 -0.019060001
0.050825 0.18579 -0.0184
0.054558001 0.1532 0.069187
0.050349001 0.18555 -0.018959999
0.055837002 0.14252999 0.10206
0.049353998 0.19019 -0.029495001
0.050034001 0.18960001 -0.029472001
0.049993001 0.19121 -0.029872
0.054676998 0.15440001 0.069286004
0.050159 0.18641999 -0.018217999
0.051119 0.18708 -0.017504999
0.054032002 0.15693 0.063584998
0.054023001 0.15682 0.063608997
0.053746 0.15699001 0.063495003
0.0546 0.15761 0.063066997
0.050744999 0.18858001 -0.017864
0.050951 0.18790001 -0.018195
0.054161999 0.15594 0.069099002
0.050810002 0.18753999 -0.016960001
0.050319001 0.18807 -0.01812
0.054193001 0.15609001 0.069732003
0.050629999 0.18905 -0.018285001
0.049998 0.19291 -0.030323001
0.053828999 0.15997 0.062396001
0.050418001 0.19317999 -0.029906999
0.056584999 0.14588 0.10058
0.049693 0.19504 -0.030134
0.049871001 0.19433001 -0.030647
0.050331 0.18956999 -0.015892001
0.050531 0.18977 -0.018166
0.055764001 0.14691 0.10017
0.050386999 0.19047999 -0.015916999
0.050563999 0.19092999 -0.016888
0.051141001 0.18983001 -0.017552
0.050149001 0.19467001 -0.029849
0.050122 0.19080999 -0.017516
0.050774001 0.19154 -0.017452
0.050206002 0.19565 -0.028966
0.0504 0.19119 -0.014913
0.050030999 0.19617 -0.028073
0.048648 0.19573 -0.027532
0.054435 0.15987 0.070545003
0.050810002 0.19191 -0.016517
0.049849 0.19283 -0.017364999
0.049784001 0.19611 -0.026159
0.053916 0.16429 0.061076999
0.054584999 0.16188 0.070615999
0.050365999 0.19371 -0.017890999
0.04984 0.19430999 -0.019068001
0.050758 0.19459 -0.019516001
0.049812999 0.19664 -0.023972999
0.049768001 0.19645 -0.025703
0.049741998 0.19678 -0.026371
0.050595999 0.19489001 -0.01825
0.050314002 0.19464999 -0.020615
0.053707998 0.16614 0.059873
0.054074999 0.16599 0.05968
0.050794002 0.1919 -0.014001
0.050565001 0.19475 -0.0184
0.050432 0.19577 -0.020847
0.049929 0.19609 -0.022515999
0.049906 0.19648001 -0.023080001
0.055039998 0.15227 0.099252
0.056311 0.14627001 0.11548
0.055491999 0.14685 0.11594
0.055918999 0.16339 0.070795
0.056398999 0.16287 0.070831999
0.054471001 0.16366 0.070862003
0.055826001 0.14724 0.11658
0.053571001 0.16635001 0.060104001
0.053603001 0.16680001 0.059443001
0.054067001 0.16745999 0.059594002
0.053707998 0.16768 0.059271999
0.056297 0.14735 0.11785
0.056607001 0.14827 0.11789
0.05618 0.14736 0.1173
0.055153999 0.15499 0.098967999
0.055727001 0.15448 0.099175997
0.054200999 0.16983999 0.058991
0.055962998 0.15065999 0.112
0.050623 0.19484 -0.010226
0.055865001 0.14836 0.11798
0.056256998 0.14893 0.11806
0.049828 0.1955 -0.010238
0.055969998 0.14958 0.1177
0.056678001 0.14914 0.11842
0.054102 0.17009 0.059436001
0.054246001 0.17093 0.057983998
0.053925 0.17095999 0.057312999
0.056497 0.15198 0.11129
0.056499999 0.15287 0.11037
0.057153001 0.15417001 0.11063
0.05297 0.17163 0.058660999
0.053647999 0.17197999 0.057234999
0.054485001 0.17156 0.056561999
0.056866001 0.15448 0.10884
0.054320998 0.17399 0.055638
0.053548999 0.17412999 0.056368999
0.054370001 0.17283 0.055617999
0.055734999 0.15274 0.11807
0.055897001 0.15530001 0.10849
0.056028001 0.15523 0.10881
0.055762 0.15733001 0.1013
0.056093 0.15726 0.10098
0.056701001 0.15661 0.10444
0.056260001 0.15538 0.1079
0.056288 0.15569 0.10696
0.056168001 0.15756001 0.10342
0.053392 0.17475 0.056198001
0.053672999 0.17542 0.055741001
0.053973999 0.17465 0.056007002
0.056623001 0.15369999 0.11793
0.054205 0.17086001 0.072508998
0.053507 0.17565 0.055624999
0.054981999 0.16903999 0.071999997
0.05305 0.17676 0.056085002
0.053357001 0.17688 0.054359999
0.053482998 0.17712 0.053769998
0.053504001 0.17764001 0.054140002
0.055509001 0.15477 0.11812
0.053913999 0.17685001 0.055916999
0.053307001 0.17758 0.055002999
0.052751999 0.17772999 0.052680999
0.055243 0.17182 0.072742999
0.056242 0.15583999 0.11823
0.054474 0.17263 0.072926998
0.051047001 0.19881999 -0.0028231
0.053674001 0.17876001 0.052854002
0.056692 0.15602 0.11892
0.051693998 0.19904 -0.0010868
0.050955001 0.19949 -0.0029539
0.050980002 0.2006 -0.0016369
0.053543001 0.18051 0.052260999
0.053824 0.17986999 0.051950999
0.054104999 0.17992 0.051126
0.050673001 0.20036 -0.0017677
0.050811999 0.20091 -0.0014081
0.056597002 0.1582 0.11717
0.056474 0.15843999 0.1168
0.056384999 0.15908 0.11673
0.052707002 0.18289 0.051490001
0.053151999 0.18302999 0.049417
0.056582998 0.15972 0.11587
0.055610999 0.17425001 0.073403001
0.055337001 0.17470001 0.073716998
0.052999999 0.18313999 0.051394999
0.055938002 0.16175 0.11373
0.056049999 0.16143 0.1137
0.053987999 0.18569 0.047759
0.053206 0.18434 0.048324
0.051525 0.20217 0.00085138
0.050877001 0.20119999 0.00032950001
0.050921001 0.20190001 -4.6803002e-06
0.055780999 0.16187 0.11359
0.053096 0.18532 0.048516002
0.050641 0.20190001 0.0036639001
0.054478001 0.17657 0.075285003
0.054710999 0.17653 0.075612001
0.051332001 0.20138 0.0058793998
0.051415998 0.20142999 0.0053266999
0.051332001 0.20171 0.0048552998
0.050832 0.20175 0.0063940999
0.056545001 0.16568001 0.10821
0.054731999 0.17728999 0.075231001
0.052850999 0.18697 0.047493
0.052999999 0.18785 0.047233999
0.052935001 0.18807 0.046154
0.050889 0.20290001 0.0070067002
0.056072999 0.16653 0.10761
0.053614002 0.18952 0.043101002
0.052843001 0.18715 0.046847999
0.051033001 0.20363 0.0066268998
0.056729 0.16346 0.11914
0.056306999 0.16367 0.11817
0.052645002 0.19045 0.042775001
0.051734 0.20122001 0.013452
0.051775001 0.20172 0.012972
0.051215 0.2025 0.012881
0.057071 0.16243 0.12201
0.051348999 0.20299999 0.0095344996
0.055978999 0.16474999 0.11675
0.052402999 0.19140001 0.042130999
0.052257001 0.19261999 0.041328002
0.052212 0.19261999 0.040105
0.052303001 0.19249 0.039641
0.051282 0.20257001 0.013359
0.050850999 0.20231 0.012041
0.051493 0.20363 0.0083954995
0.056074001 0.16527 0.11594
0.054621998 0.17941999 0.076985002
0.053683002 0.17975999 0.077830002
0.052545998 0.19368 0.03754
0.054970998 0.18073 0.078252003
0.053282 0.19397999 0.037211001
0.050657 0.20408 0.013531
0.051956002 0.19484 0.036917999
0.051855002 0.19599 0.033289
0.052556999 0.19604 0.033721
0.052907001 0.19611999 0.032469001
0.051727001 0.20110001 0.019429
0.051711001 0.20116 0.020688999
0.051532 0.20083 0.019947
0.051837999 0.20048 0.020102
0.051499002 0.20159 0.018243
0.052593999 0.20168 0.016628001
0.056536 0.16690999 0.11563
0.055261999 0.16809 0.10889
0.052501 0.19594 0.032081999
0.056065001 0.16784 0.11501
0.055137001 0.18127 0.078088
0.051821999 0.19956 0.025597
0.052327 0.20096 0.016821001
0.052007001 0.20209 0.016979
0.056287002 0.16291 0.12694
0.056024 0.16863 0.11346
0.052508 0.19781999 0.029549999
0.051918 0.19842 0.029399
0.052579999 0.1983 0.027992999
0.051786002 0.20031001 0.025048999
0.052102 0.20047 0.023618
0.051568002 0.20174 0.020955
0.056069002 0.16892 0.11141
0.056152999 0.16914 0.11029
0.052115001 0.19993 0.023491999
0.051860001 0.20015 0.022288
0.05178 0.20214 0.022635
0.051272001 0.2017 0.02189
0.051530998 0.20078 0.023424
0.056846 0.16212 0.12973
0.05187 0.20197999 0.022117
0.055165999 0.18274 0.079342
0.055484001 0.18207 0.078713998
0.054405998 0.18253 0.079387002
0.057201002 0.16406 0.13278
0.056045 0.16457 0.13184001
0.056389999 0.16495 0.13184001
0.056269001 0.1649 0.13135999
0.056481998 0.16519 0.13297001
0.056129001 0.16601001 0.13071001
0.056754999 0.16622999 0.12973
0.054944001 0.18301 0.079879001
0.054455999 0.18382999 0.080723003
0.056968 0.16807 0.12745
0.056166999 0.16893999 0.12781
0.056825999 0.17023 0.12521
0.056095 0.16982999 0.124
0.057130001 0.17019001 0.12396
0.055286001 0.1851 0.081795
0.057043999 0.16865 0.12910999
0.055385001 0.17248 0.12294
0.054242998 0.18775 0.083097003
0.054563999 0.18776999 0.084086999
0.056685999 0.17327 0.12395
0.056614999 0.1736 0.12527999
0.055798002 0.17454 0.12545
0.056024 0.1736 0.12536
0.056288 0.17567 0.12526999
0.054474998 0.19062001 0.086976998
0.054549001 0.18945 0.086415
0.055151001 0.19124 0.089106001
0.056627002 0.18037 0.1286
0.056310002 0.18110999 0.12677
0.056253999 0.18144 0.12644
0.053899001 0.19426 0.091677003
0.055886999 0.18316001 0.12467
0.056621 0.18362001 0.1246
0.056632999 0.18389 0.12415
0.056908 0.18363 0.12319
0.056031998 0.18511 0.12104
0.053865001 0.19693001 0.090713002
0.055909999 0.18627 0.11955
0.056678999 0.18747 0.11941
0.05381 0.19788 0.090352997
0.055422001 0.18797 0.11808
0.055581 0.18929 0.11595
0.055218998 0.19114999 0.11175
0.055183999 0.19114 0.11264
0.054922 0.19089 0.11237
0.054694999 0.19927999 0.090035997
0.054223001 0.19965 0.089654997
0.054816 0.19884001 0.089979
0.054777998 0.19374 0.10761
0.054942999 0.19392 0.10736
0.054577999 0.20178001 0.089286
0.054458 0.2018 0.090176001
0.055273999 0.19690999 0.10625
0.055457 0.19542 0.10625
0.05407 0.20257001 0.090692997
0.053617001 0.20362 0.090717003
0.054196998 0.2035 0.091606997
0.053745002 0.20296 0.092012003
0.055022001 0.19888 0.10594
0.054668002 0.19803999 0.10594
0.054453999 0.20314001 0.092941999
0.054462001 0.2024 0.092973001
0.054485999 0.20333999 0.095348999
0.054676 0.20375 0.10548
0.055284999 0.20552 0.1001
0.054600999 0.20589 0.10052
0.055062 0.20348001 0.10483
0.055009 0.20393001 0.10519
0.054598998 0.20581999 0.1048
0.054310001 0.20697001 0.10016
0.054552998 0.20593999 0.10399
0.05407 0.20721 0.10073
0.054922 0.20615 0.10413
0.055020999 0.20621 0.10452
0.055041 0.20682 0.10393
0.05452 0.20714 0.10134
0.054311 0.20840999 0.10212
0.054442 0.20784999 0.10329
0.055199001 0.20826 0.10176
0.054728001 0.20714 0.10228
0.053011999 0.099142 -0.0073469998
0.052627999 0.099646002 -0.0074275001
0.053737 0.099618003 -0.0084405001
0.055110998 0.099708997 -0.0086628003
0.055512998 0.10006 -0.0083815996
0.054364 0.099954002 -0.0073605999
0.052806001 0.10209 -0.0151
0.052402999 0.10275 -0.016488999
0.053346999 0.10149 -0.015805
0.052767999 0.10276 -0.015935
0.057548001 0.074088998 0.064349003
0.056349002 0.074010998 0.064006999
0.055829 0.074639 0.062436
0.055629 0.079126 0.051463
0.055567 0.078951001 0.05082
0.052689001 0.099003002 -0.0053025
0.052561 0.099258997 -0.0060919002
0.052678999 0.10379 -0.017537
0.052340999 0.10361 -0.017662
0.057438001 0.072595 0.068104997
0.055798002 0.077073999 0.055146001
0.055647999 0.081896 0.042518001
0.054935999 0.081216998 0.042971998
0.054837 0.083433002 0.040897001
0.052847002 0.10419 -0.018472999
0.056712002 0.072209999 0.069539003
0.055277001 0.082666002 0.041437
0.052329998 0.1044 -0.019822
0.052074 0.11356 -0.043003
0.056375999 0.072099999 0.072341003
0.052678999 0.098766997 -0.0035240001
0.053472999 0.10458 -0.020572999
0.052455999 0.10532 -0.020181
0.051925 0.10576 -0.021217
0.052570999 0.10584 -0.021245001
0.056129001 0.071748003 0.073035002
0.056768999 0.071624003 0.073730998
0.056754 0.071144 0.074137002
0.05686 0.071416996 0.075015001
0.053296 0.099330999 -0.0020210999
0.052017 0.10994 -0.032260001
0.052784 0.1105 -0.031961001
0.055025999 0.084022 0.039763
0.053004999 0.099459 -0.0011299
0.052119002 0.10719 -0.021330999
0.050829001 0.11475 -0.043437999
0.051132001 0.11488 -0.043960001
0.056759998 0.070597999 0.076433003
0.056984998 0.071250997 0.076940998
0.053383 0.099008001 -0.00024086
0.051844001 0.1076 -0.021989999
0.050478 0.11553 -0.042759001
0.051497001 0.11543 -0.043373
0.051254001 0.11562 -0.041747998
0.056938998 0.071102999 0.080517001
0.053130001 0.10035 0.0012651
0.053116001 0.10036 0.0015842
0.051972002 0.10952 -0.024342
0.051715001 0.11087 -0.026047001
0.052009001 0.11088 -0.026089
0.051341001 0.11656 -0.041157
0.057011001 0.072137997 0.082006998
0.056347001 0.072430998 0.082650997
0.056816999 0.072209001 0.081687003
0.052080002 0.11018 -0.024403
0.052416999 0.11099 -0.025121
0.054437 0.089298002 0.037011001
0.056747001 0.071509004 0.085198998
0.057145 0.072077997 0.086207002
0.051151 0.11723 -0.040716
0.057626002 0.071857996 0.085354999
0.056749001 0.070904002 0.092542
0.057149 0.070246004 0.092269003
0.057847001 0.070744999 0.092377
0.056460001 0.070790999 0.090403996
0.056495 0.071846999 0.089413002
0.057339001 0.071309999 0.088574998
0.057108 0.071667999 0.087587997
0.057300001 0.071981996 0.087479003
0.053851001 0.10154 0.0040946002
0.057606999 0.070858002 0.093612
0.057156999 0.071186997 0.090668999
0.057202 0.071236998 0.089569002
0.054774001 0.090512998 0.036582999
0.053847998 0.10219 0.0055948002
0.053787 0.10225 0.0056898999
0.056960002 0.069888003 0.095459998
0.057335 0.070157997 0.095128998
0.057401001 0.070880003 0.095059
0.057241 0.070266001 0.097111002
0.057259999 0.070156999 0.095969997
0.051210001 0.12014 -0.038892999
0.051915001 0.12017 -0.038725
0.053134002 0.10347 0.0074232002
0.057059001 0.071598001 0.096892998
0.051477998 0.12064 -0.038456999
0.054563999 0.093442 0.034579001
0.053920001 0.10415 0.0081032999
0.057126999 0.071653001 0.098549999
0.054816999 0.095128 0.034099001
0.054602001 0.09561 0.034405999
0.057581998 0.072636001 0.097823001
0.054586999 0.095221996 0.033631999
0.053734001 0.1048 0.0095485002
0.052005 0.12176 -0.037239999
0.056906 0.073772997 0.099285997
0.051904999 0.12148 -0.036014002
0.051607002 0.12265 -0.035943002
0.051192001 0.12157 -0.036169
0.057273999 0.073510997 0.098088004
0.057780001 0.072971001 0.097808003
0.051183999 0.12155 -0.035393
0.051793002 0.12282 -0.034479
0.053477999 0.10557 0.0096394997
0.057445999 0.075507998 0.096997999
0.054086 0.099211998 0.032474
0.054747 0.099293999 0.032581002
0.051904 0.12358 -0.032912999
0.051465999 0.12329 -0.033891
0.057551 0.075158998 0.096726
0.056846 0.076311998 0.097098
0.051447 0.12364 -0.032458998
0.054703001 0.10089 0.031796001
0.057583999 0.077862002 0.097681999
0.051568002 0.1241 -0.031787999
0.051539999 0.12415 -0.032687999
0.056926001 0.078488 0.097381003
0.050758 0.12504999 -0.030367
0.057482 0.078645997 0.097874001
0.054074001 0.10311 0.031663999
0.057549 0.078948997 0.098312996
0.056738999 0.079324998 0.097464003
0.054510001 0.10296 0.030551
0.054168999 0.10984 0.012754
0.053777002 0.11012 0.012815
0.057468001 0.079596996 0.098251998
0.053513002 0.12508 -0.029428
0.054749999 0.1055 0.030439001
0.057560999 0.082199998 0.1012
0.053890001 0.10741 0.029958
0.053181998 0.10743 0.030445
0.053093001 0.11241 0.014655
0.051389001 0.12705 -0.023898
0.053396001 0.11329 0.015127
0.053642999 0.11604 0.015197
0.054620001 0.11437 0.015569
0.053199999 0.1277 -0.022413
0.051908001 0.12788001 -0.022671999
0.057321999 0.083261997 0.10177
0.054937001 0.11114 0.029089
0.053603001 0.11742 0.015813001
0.055411998 0.11319 0.02894
0.052409999 0.1292 -0.018229
0.054671999 0.11271 0.02819
0.052352998 0.12953 -0.017317999
0.052345 0.13044 -0.015861001
0.051892001 0.13045999 -0.016465999
0.057303999 0.088071004 0.10454
0.053472001 0.11442 0.028562
0.052366 0.13053 -0.01517
0.053996 0.11529 0.028240999
0.054342002 0.11622 0.028616
0.052462999 0.13131 -0.014618
0.053762998 0.11681 0.028044
0.053923 0.11729 0.028239001
0.052632 0.13256 -0.013635
0.051532999 0.13313 -0.013875
0.053865001 0.11865 0.02863
0.053892002 0.11933 0.028419999
0.053183999 0.1228 0.016968001
0.052586999 0.13334 -0.013659
0.052053001 0.13549 -0.013069
0.053589001 0.12501 0.017588999
0.053911999 0.12121 0.02806
0.053258002 0.12739 0.017829999
0.056660999 0.094617002 0.10688
0.058331002 0.094226003 0.10836
0.053699002 0.12366 0.027682999
0.057477999 0.095880002 0.10812
0.055342998 0.10981 0.071795002
0.055783 0.10983 0.071216002
0.055334002 0.11022 0.069587998
0.056194 0.11079 0.069539003
0.052687 0.14105999 -0.012979
0.055849001 0.10978 0.075447001
0.05562 0.11137 0.068655998
0.055209 0.11198 0.067759998
0.051541999 0.14203 -0.012938
0.051424 0.14234 -0.013069
0.056577001 0.098334 0.10853
0.057748999 0.097310998 0.10842
0.056263998 0.10929 0.076815002
0.053876001 0.12838 0.026994999
0.055702001 0.11454 0.066164002
0.054733999 0.12841 0.026507
0.053380001 0.1329 0.017862
0.052333999 0.14372 -0.01443
0.052464001 0.1444 -0.013649
0.052887999 0.13124 0.017876999
0.057215001 0.099602997 0.10862
0.057245001 0.10124 0.10945
0.056076001 0.11146 0.079092003
0.055617999 0.11109 0.079438001
0.055615999 0.11558 0.065098003
0.055663999 0.11617 0.065545
0.054304 0.12987 0.026799999
0.053052999 0.13410001 0.016871
0.052455999 0.13447 0.017456001
0.053185999 0.13335 0.018246001
0.051674999 0.1469 -0.014487
0.051933002 0.14588 -0.014277
0.055679001 0.11247 0.080568001
0.057138 0.10224 0.10887
0.053323001 0.13717 0.017457999
0.053224001 0.14675 -0.014927
0.052234001 0.14764 -0.01475
0.052738 0.14857 -0.015615
0.053971998 0.13224 0.026709
0.051422 0.14793 -0.015069
0.052235 0.14844 -0.015421
0.055020001 0.12023 0.063767001
0.055826001 0.11985 0.063762002
0.056658 0.10433 0.10934
0.057633001 0.1039 0.1099
0.055101998 0.12087 0.063314997
0.053268 0.13882001 0.016590999
0.055946998 0.12193 0.063304
0.055466998 0.12241 0.062830001
0.055339001 0.12158 0.063556999
0.051902998 0.14975999 -0.015788
0.052028999 0.15048 -0.015918
0.056641001 0.10505 0.10963
0.052097 0.15036 -0.016279001
0.052301001 0.15154 -0.016192
0.052429002 0.15071 -0.015714001
0.055427998 0.12321 0.062870003
0.051263001 0.15293001 -0.016779
0.054671001 0.12344 0.062503003
0.055562001 0.12575001 0.062038999
0.055406 0.12394 0.062969998
0.051747002 0.15418001 -0.017315
0.056834001 0.10905 0.10926
0.055952001 0.11869 0.080944002
0.056389 0.11921 0.080560997
0.053603001 0.13858999 0.026949
0.053497002 0.13842 0.026520001
0.052620001 0.14224 0.015579
0.054995999 0.12684999 0.062155999
0.054696999 0.12659 0.061801001
0.055452999 0.11948 0.080794998
0.052987002 0.13992 0.027345
0.056506999 0.10989 0.10922
0.056159001 0.12024 0.080721997
0.055746999 0.12099 0.080379002
0.054655001 0.12783 0.062461
0.053893998 0.14061999 0.026768999
0.055706002 0.12086 0.080075003
0.054729 0.12876 0.061515
0.053245001 0.14534999 0.014952
0.055645 0.12898999 0.061473001
0.053192001 0.14172 0.026923999
0.057268001 0.11287 0.11014
0.053461999 0.14272 0.027055001
0.055330999 0.13053 0.061358001
0.054567002 0.13074 0.061202001
0.051809002 0.16021 -0.018231999
0.051447 0.15989999 -0.018637
0.057411999 0.11423 0.10954
0.052960001 0.1472 0.014128
0.051688001 0.16102 -0.018285001
0.055698998 0.12512 0.080077
0.053172 0.14548001 0.026888
0.053959001 0.14377999 0.027458999
0.053111002 0.14974999 0.013494
0.057766002 0.11473 0.10982
0.058038 0.11544 0.11062
0.05328 0.15062 0.013506
0.05328 0.14556 0.027043
0.051341999 0.16291 -0.019274
0.052497 0.16192999 -0.019033
0.051972002 0.15187 0.013343
0.057539999 0.11587 0.10996
0.057092 0.11622 0.10938
0.055121001 0.13394 0.061680999
0.053622 0.14692999 0.027058
0.054071002 0.13424 0.061593
0.057402 0.11785 0.10892
0.056968998 0.11794 0.10824
0.053754002 0.14687 0.026836
0.053447999 0.1485 0.027179999
0.054453 0.13573 0.060966
0.057232 0.11886 0.10896
0.055651002 0.12941 0.077203996
0.051539 0.16552 -0.018485
0.051961999 0.1646 -0.019249
0.055016 0.13553999 0.061764002
0.054777 0.13638 0.060986001
0.055450998 0.1305 0.076444998
0.054937001 0.13748001 0.060495
0.053571999 0.14895999 0.027867001
0.053619001 0.1485 0.027076
0.052196998 0.15433 0.013313
0.055254001 0.13066 0.077313997
0.052721001 0.15467 0.012985
0.050937001 0.16571 -0.018855
0.051339 0.16629 -0.019173
0.053215001 0.14947 0.026874
0.054799002 0.13786 0.060929
0.053078 0.15084 0.027415
0.055107001 0.13279 0.075257003
0.054535002 0.13420001 0.075554997
0.052726001 0.15647 0.012619
0.056724001 0.12065 0.10843
0.056738999 0.12212 0.10846
0.055342998 0.13409001 0.074961998
0.056953002 0.12273 0.1084
0.054639 0.13861001 0.060828999
0.056557 0.12325 0.10775
0.053378001 0.15266 0.026957
0.057002999 0.12443 0.10744
0.055534001 0.13514 0.074488997
0.052537002 0.15886 0.01242
0.051327001 0.16969 -0.018869
0.052402999 0.15335 0.026186001
0.054979 0.13638 0.073723003
0.054880999 0.13702001 0.073898003
0.055103 0.14165001 0.062771998
0.054722998 0.14166 0.062291998
0.055342 0.14049999 0.062004998
0.055032 0.13673 0.072902001
0.052719001 0.15528999 0.025854999
0.057052001 0.12543 0.10741
0.05263 0.1596 0.01219
0.056784999 0.12620001 0.10774
0.056260999 0.1259 0.107
0.053575002 0.15436 0.026258999
0.052214999 0.15501 0.025728
0.056097001 0.127 0.10678
0.054954 0.13932 0.070918001
0.054292999 0.14317 0.061666001
0.054334 0.14226 0.062330998
0.051424 0.17479999 -0.026306
0.051178001 0.17437001 -0.026327001
0.050779 0.17565 -0.025857
0.051265001 0.17310999 -0.020936999
0.051332999 0.17297 -0.020364
0.050990999 0.1743 -0.025175
0.050602 0.17653 -0.027636999
0.056092001 0.12836 0.10624
0.056600001 0.12797 0.10619
0.050563999 0.17759 -0.028224999
0.050795 0.17677 -0.028134
0.054816999 0.1417 0.07062
0.054196998 0.14554 0.062213998
0.051803 0.16152 0.012317
0.052721001 0.16285001 0.012728
0.050988998 0.17441 -0.020244
0.050792001 0.17363 -0.020027
0.05099 0.17494 -0.023212001
0.055103999 0.14217 0.069995999
0.054795999 0.14158 0.069991998
0.054432001 0.14532 0.062696002
0.050840002 0.17625999 -0.022024
0.056706 0.12983 0.10662
0.056846 0.12966999 0.10648
0.050958999 0.17546 -0.019845
0.050995 0.17595001 -0.021852
0.05497 0.14612 0.063014999
0.052226 0.16324 0.012625
0.052678999 0.16416 0.012901
0.050866 0.17639001 -0.019748
0.051169999 0.1793 -0.029175
0.051314998 0.17812 -0.020468
0.054694999 0.14572001 0.063075997
0.052228 0.16506 0.013968
0.056476001 0.13077 0.10553
0.056625001 0.1312 0.10568
0.050958999 0.17689 -0.020385001
0.050995 0.1758 -0.020314001
0.050878 0.17692 -0.020501001
0.050492 0.18064 -0.028632
0.053180002 0.16113 0.023490001
0.051994 0.16545001 0.014777
0.050344002 0.18039 -0.029201999
0.053128 0.16277 0.022965999
0.056541 0.13347 0.10541
0.055261999 0.14853001 0.06408
0.053057998 0.16309001 0.022879999
0.052584998 0.16549 0.016525
0.052815001 0.16507 0.016688
0.052347999 0.16561 0.017618001
0.054545999 0.14923 0.063472003
0.052855 0.16464999 0.021663001
0.053160001 0.16474 0.020181
0.054412 0.1503 0.062992997
0.054327 0.14760999 0.069046997
0.056573998 0.13548 0.10453
0.054691002 0.15138 0.062413
0.055036001 0.149 0.069792002
0.056728002 0.1367 0.10412
0.050450999 0.18424 -0.028958
0.056446999 0.13722 0.10385
0.056407001 0.13854 0.10322
0.054414 0.15008 0.069311
0.054744001 0.14924 0.069622003
0.054113999 0.15114 0.068230003
0.054402001 0.15221 0.062628001
0.049732 0.18659 -0.028849
0.050409 0.18562999 -0.028661
0.050310001 0.18725 -0.029902
0.056384999 0.13907 0.1027
0.054643001 0.15263 0.068728
0.054632001 0.15237001 0.069487996
0.054845002 0.15238 0.068920001
0.056019001 0.13975 0.10255
0.050069999 0.18745001 -0.028983001
0.056187999 0.14054 0.10225
0.051334001 0.18844999 -0.031114001
0.050135002 0.18862 -0.030192999
0.050659999 0.18474001 -0.018003
0.050138999 0.18928 -0.030539
0.057466 0.1401 0.10344
0.050554 0.18635 -0.018124999
0.049961999 0.19047999 -0.031160001
0.050455 0.18956 -0.030127
0.056269001 0.14217 0.10137
0.056442 0.14136 0.10184
0.055780999 0.14375 0.10143
0.054898001 0.15459999 0.070416003
0.054519001 0.15752999 0.062596001
0.054798 0.15836 0.062123999
0.053417001 0.15884 0.062293001
0.050140001 0.19237 -0.029958
0.055992 0.14463 0.10093
0.055943001 0.14428 0.10084
0.054719001 0.15621001 0.070592999
0.054724999 0.15886 0.061774999
0.051128 0.18925001 -0.018023999
0.050168 0.19312 -0.030555001
0.049697001 0.19287001 -0.030638
0.056256998 0.14557 0.10069
0.054595001 0.15672 0.070656002
0.055920999 0.14732 0.10058
0.054781001 0.15810999 0.070722997
0.055139001 0.16018 0.061847001
0.053955 0.16057 0.061767999
0.050459001 0.18942 -0.016425001
0.054680001 0.15798 0.070179999
0.054556001 0.16151001 0.061707001
0.056139998 0.14754 0.10078
0.054304998 0.15842 0.071313001
0.051006999 0.19057 -0.016395999
0.050322 0.19588999 -0.02981
0.054813001 0.16171999 0.061988998
0.050471 0.19031 -0.015741
0.054644 0.15959001 0.070400998
0.054177001 0.16268 0.061758999
0.051139001 0.1909 -0.014895
0.050055001 0.19625001 -0.029702
0.050243001 0.1965 -0.030631
0.050744999 0.19163001 -0.016659999
0.055992 0.14995 0.099642001
0.054696999 0.16405 0.060311001
0.054565001 0.16339999 0.060561001
0.054584 0.16066 0.070606999
0.054669999 0.16285001 0.061023001
0.054241002 0.16376001 0.061716001
0.054053001 0.1647 0.059889998
0.050524 0.19167 -0.014722
0.050326001 0.19701999 -0.02837
0.049841002 0.19701 -0.028119
0.050957002 0.19394 -0.016952001
0.055775002 0.14991 0.099482998
0.055202 0.1513 0.099693999
0.054155 0.16541 0.060307
0.050475001 0.19685 -0.026649
0.050342001 0.19627 -0.027817
0.053948998 0.16451 0.059002001
0.050427999 0.19471 -0.020005001
0.049931999 0.19615 -0.025002001
0.050028998 0.19689 -0.024733
0.051135998 0.19306999 -0.012568
0.050471 0.19463 -0.019440001
0.050195999 0.19642 -0.023816001
0.056097999 0.15248001 0.099840999
0.050763998 0.19492 -0.019331001
0.050815001 0.19584 -0.02001
0.050117001 0.19660001 -0.023825999
0.056132998 0.14698 0.11413
0.057103999 0.14673001 0.11469
0.056258 0.14745 0.11283
0.055063002 0.16253 0.070101999
0.050296001 0.19626001 -0.022236999
0.056205999 0.14641 0.11605
0.056384999 0.14644 0.11622
0.056747999 0.14756 0.11356
0.055918001 0.15350001 0.099666998
0.050937001 0.19349 -0.010814
0.050705999 0.19236 -0.011362
0.050361998 0.19652 -0.020424001
0.056752998 0.14689 0.11669
0.056682002 0.14845 0.11265
0.050556 0.19771001 -0.023774
0.050625999 0.19786 -0.022806
0.057016999 0.14912 0.11339
0.055948999 0.15435 0.099680997
0.050923001 0.19413 -0.01069
0.056690998 0.14995 0.11291
0.056731001 0.15385 0.099643998
0.05652 0.15322 0.099610999
0.056947999 0.15341 0.099593997
0.056522999 0.15012001 0.11233
0.056449998 0.15074 0.11184
0.051075999 0.19509 -0.010117
0.054646999 0.16522001 0.071387
0.054304998 0.16864 0.058687001
0.053865001 0.17039999 0.057739999
0.053157002 0.17136 0.05669
0.053532001 0.17061999 0.055996999
0.051318999 0.19577 -0.01009
0.056510001 0.14845 0.1186
0.055684999 0.15569 0.099068001
0.05057 0.19661 -0.010012
0.055904999 0.15381999 0.10992
0.055941001 0.15658 0.099645004
0.055776 0.16764 0.071845002
0.054462999 0.16755 0.071850002
0.054295 0.16765 0.071625002
0.053943001 0.1716 0.055955
0.050521001 0.19622999 -0.0087583
0.051777001 0.19693001 -0.0085528996
0.056563001 0.15110999 0.11845
0.051192999 0.19715001 -0.0071387002
0.057580002 0.15034001 0.11879
0.056588002 0.15424 0.10995
0.056274999 0.15572 0.10537
0.056563001 0.15512 0.10858
0.055737 0.15597001 0.10599
0.055135999 0.15783 0.1016
0.050595 0.19750001 -0.0062233
0.050285999 0.19718 -0.0064325002
0.050478999 0.19750001 -0.0064216
0.051706001 0.19814999 -0.0065736002
0.054187 0.16858999 0.071970001
0.056535002 0.15316001 0.11804
0.056152001 0.15436999 0.11792
0.053608999 0.17663001 0.053668998
0.053394999 0.17733 0.052948002
0.051477998 0.19879 -0.0056646001
0.054042 0.17611 0.054512002
0.053851001 0.1779 0.052344002
0.057100002 0.15459 0.119
0.056205001 0.15413 0.11775
0.050972998 0.19901 -0.0042657
0.051043 0.1989 -0.0038411999
0.051511001 0.19916999 -0.0033292
0.053426001 0.17892 0.052303001
0.051318001 0.19937 -0.0029442001
0.056635 0.1573 0.11831
0.051137 0.20028 -0.0012602
0.053185999 0.18215001 0.051594
0.053527001 0.18113001 0.051430002
0.051235002 0.20156001 -0.00055911002
0.053739998 0.18206 0.051289
0.053576 0.18266 0.049631
0.051681001 0.20205 -0.00018848
0.053902 0.17512 0.074295998
0.056439001 0.16022 0.1151
0.053314 0.18482 0.048641
0.050607 0.20137 0.0022312
0.051541001 0.20182 0.00087565999
0.050983001 0.20263 0.0014895
0.055918001 0.16125 0.11457
0.051486999 0.20195 0.0025809
0.051584002 0.20121001 0.0038174
0.055991001 0.16364001 0.10879
0.053050999 0.18573 0.047952
0.050884001 0.2014 0.0048125
0.051789001 0.20068 0.0058571999
0.053281002 0.18629999 0.046948999
0.056224 0.16481 0.1085
0.054522 0.17715 0.075367004
0.052960999 0.18697999 0.047223002
0.050636001 0.20203 0.0052696001
0.051667001 0.20128 0.0061303
0.051419999 0.2025 0.0060025002
0.053114001 0.18814 0.045263998
0.053851999 0.18866 0.045014001
0.052882999 0.18788999 0.043418001
0.056019001 0.16558 0.10762
0.053982001 0.17755 0.076458998
0.052988999 0.18965 0.043274999
0.053252 0.19075 0.042289
0.055945002 0.16686 0.10749
0.054288 0.17868 0.076971002
0.053426001 0.19106001 0.041951001
0.053252999 0.1913 0.041097999
0.052124001 0.20178001 0.013746
0.051899999 0.20097999 0.013173
0.051077999 0.20118999 0.012174
0.052088998 0.20192 0.010631
0.051419001 0.20218 0.010318
0.05235 0.20229 0.0091407001
0.051488001 0.20341 0.0077416999
0.051608 0.20342 0.0064856
0.050919998 0.20318 0.0073437998
0.056727 0.16265 0.1227
0.056377001 0.16410001 0.11738
0.053087 0.19123 0.040787999
0.051041 0.20371 0.0081377998
0.055996999 0.16176 0.12413
0.056942001 0.16195001 0.12455
0.056113001 0.16255 0.12333
0.053041998 0.19246 0.039857998
0.053275999 0.19232 0.039921999
0.052983001 0.19251999 0.038513999
0.053105999 0.19299001 0.038701002
0.051874999 0.20205 0.014337
0.051785 0.20237 0.013639
0.056974001 0.16199 0.12597001
0.056045 0.16537 0.11618
0.05635 0.16855 0.10817
0.051245 0.20337 0.01477
0.056993999 0.16222 0.12619001
0.052901998 0.19438 0.035992
0.052432001 0.20014 0.019141
0.056093998 0.16876 0.10859
0.052266002 0.19469 0.036207002
0.053277999 0.19472 0.035379998
0.052356999 0.19492 0.03548
0.052209999 0.19608 0.034635
0.053098999 0.19506 0.034205001
0.053160001 0.19558001 0.034065999
0.052637 0.19808 0.026077
0.051709998 0.20424999 0.014667
0.052457999 0.19722 0.030901
0.053433001 0.19689 0.030875999
0.052053001 0.19774 0.030555001
0.052234001 0.19805001 0.027586
0.052804001 0.1996 0.024409
0.051876001 0.20055 0.021036001
0.056134 0.16248 0.12707999
0.056467 0.16791999 0.11395
0.056079999 0.16913 0.10972
0.056237999 0.16312 0.1275
0.056035001 0.16933 0.10997
0.052595999 0.19789 0.028872
0.052235 0.20078 0.022461001
0.052025001 0.20152999 0.021229001
0.051424999 0.20303001 0.015375
0.056949999 0.16263001 0.12862
0.057037 0.16233 0.12926
0.056782 0.16237 0.12975
0.056767002 0.1626 0.13049001
0.057 0.16312 0.13093001
0.055041999 0.18097 0.078478999
0.056678999 0.16311 0.13149001
0.056947999 0.16302 0.13277
0.057140999 0.16519 0.13354
0.056834001 0.16582 0.13079999
0.056487001 0.16656999 0.12887
0.056478001 0.16735999 0.12962
0.056387998 0.16914999 0.12836
0.055937 0.17054 0.12373
0.056915 0.16968 0.12853999
0.056545999 0.16971999 0.12698001
0.056682002 0.17015 0.12614
0.057052001 0.16967 0.12696999
0.056768999 0.16951001 0.12823001
0.057273 0.16982999 0.12666
0.056503002 0.1715 0.12386
0.056333002 0.17136 0.12372
0.055691998 0.17227 0.12296
0.055939998 0.17254999 0.12325
0.056449998 0.17253 0.12417
0.056313001 0.17342 0.12499
0.055817999 0.18889999 0.085303999
0.054230999 0.18921 0.085400999
0.055907998 0.17555 0.12592
0.057117999 0.17455 0.12592
0.056251001 0.17612 0.12571999
0.056411002 0.17617001 0.12639
0.056423999 0.17681 0.12673
0.054405998 0.19123 0.087894998
0.054669 0.19042 0.08726
0.056540001 0.17707001 0.1279
0.056423001 0.17769 0.12830999
0.056363001 0.17821001 0.12936001
0.056598 0.17914 0.12944999
0.055075001 0.19266 0.090585999
0.056139 0.17925 0.1296
0.054838002 0.19303 0.092137001
0.056389999 0.18019 0.12935001
0.055890001 0.19324 0.092637002
0.055319998 0.19258 0.091590002
0.056373 0.18081 0.12823001
0.055084001 0.19485 0.092566997
0.056462001 0.18262 0.12599
0.056322999 0.18263 0.12537
0.055222001 0.19459 0.092326999
0.056272 0.18452001 0.12163
0.055146001 0.19558001 0.091707997
0.054426 0.19521999 0.091055997
0.056196999 0.18511 0.12066
0.054848999 0.19695 0.090931997
0.055619001 0.18719 0.11938
0.054522 0.19767 0.090350002
0.055254001 0.19791999 0.091403998
0.054970998 0.19886 0.091076002
0.054255001 0.19878 0.090966001
0.055730999 0.18955 0.1144
0.055622999 0.19171 0.11256
0.056471001 0.19133 0.11229
0.056079 0.19211 0.11152
0.055771001 0.19392 0.10691
0.055546001 0.19471 0.10668
0.054547999 0.20076001 0.090283997
0.053984001 0.2008 0.090221003
0.054621 0.2017 0.090650998
0.054694999 0.20224001 0.091686003
0.054467998 0.20314001 0.091813996
0.054590002 0.20254 0.092820004
0.055174001 0.20239 0.093911
0.054589 0.20326 0.094277002
0.055112999 0.20303001 0.094765
0.055225998 0.20028 0.10581
0.054590002 0.20354 0.096182004
0.054793 0.20297 0.097066
0.054953001 0.20321999 0.097783998
0.055599 0.20118999 0.1051
0.055388 0.20339 0.098389998
0.055206001 0.20373 0.099059001
0.055169001 0.20302001 0.098716997
0.054712001 0.20409 0.098999999
0.055374999 0.20223001 0.1049
0.054802999 0.20286 0.10538
0.055566002 0.20484 0.10465
0.054790001 0.20642 0.10054
0.055528 0.20714 0.10134
0.055213999 0.20615 0.10146
0.054882001 0.2077 0.10364
0.055606 0.20631 0.10328
0.052429002 0.10226 -0.013805
0.053544998 0.10122 -0.013837
0.053904999 0.10158 -0.01491
0.056435 0.074842997 0.061735
0.057946 0.074212998 0.062116999
0.058019999 0.074656002 0.062532999
0.057121001 0.075512998 0.060456999
0.056279 0.075645 0.058288999
0.057317 0.075965002 0.058614999
0.056235 0.076077998 0.057845999
0.056747001 0.076883003 0.057328999
0.055139001 0.078736998 0.049322002
0.055482 0.079287 0.048590999
0.055702999 0.079985999 0.047697
0.054161001 0.098858997 -0.0061053
0.053415999 0.10333 -0.018440999
0.057944 0.071965002 0.069030002
0.057441 0.072122 0.069118001
0.056423001 0.076530002 0.057069998
0.056272 0.077823997 0.055036001
0.056703001 0.077491 0.056155998
0.055999 0.077632003 0.054127
0.056127001 0.078959003 0.051849999
0.05596 0.078951001 0.049858
0.056848001 0.081854001 0.041995
0.055679001 0.082630001 0.042206999
0.054391 0.098939002 -0.0044594002
0.054000001 0.098975003 -0.0049001998
0.052232001 0.11246 -0.040532
0.054761998 0.11359 -0.042837001
0.056735002 0.070987999 0.071740001
0.056795001 0.071800999 0.072232999
0.057087 0.071621999 0.070414998
0.052271001 0.11365 -0.043170001
0.057239 0.070759997 0.075034998
0.056713998 0.071356997 0.073004998
0.055633999 0.083931997 0.039889
0.054814 0.083431996 0.040576998
0.053427 0.099285997 -0.003185
0.054623999 0.11006 -0.033399001
0.053426001 0.11054 -0.034141999
0.055238001 0.11059 -0.034965001
0.051782001 0.11379 -0.043350998
0.057654999 0.070928 0.076149002
0.057888001 0.071341 0.075828999
0.053975001 0.099574998 -0.0014146999
0.054193001 0.099237002 -0.0026426001
0.055980999 0.085176997 0.038849998
0.055686999 0.08512 0.038633
0.055592 0.085738003 0.037831999
0.052940998 0.099368997 0.000497
0.054248001 0.099776998 0.00071461999
0.058019001 0.070460998 0.079054996
0.055442002 0.085965 0.037916999
0.052561998 0.1082 -0.0228
0.051986001 0.11579 -0.042925
0.056798998 0.071470998 0.081381001
0.054802999 0.086672999 0.037875999
0.054104999 0.099473998 0.0013668
0.057085998 0.071578003 0.082696997
0.055284001 0.087402999 0.038143001
0.052873001 0.11125 -0.026565
0.050937999 0.11651 -0.042158999
0.058194 0.070496999 0.082997002
0.054005001 0.10075 0.0026555001
0.055868998 0.090053998 0.035898
0.055567998 0.091257997 0.035039999
0.053227 0.10299 0.0058209002
0.057542998 0.071013004 0.093869001
0.055932999 0.092917003 0.034825001
0.054322001 0.10213 0.0059202998
0.057505999 0.071074001 0.096354999
0.057946999 0.071213998 0.096010998
0.052019 0.12044 -0.038463
0.052104 0.1206 -0.038835999
0.057186998 0.071757004 0.097154997
0.057144001 0.072531 0.096502997
0.054001 0.10319 0.0067774002
0.054345001 0.10396 0.0080815004
0.055679999 0.095581003 0.034141
0.057698999 0.073178001 0.097397
0.056770999 0.073935002 0.097517997
0.055638 0.096533 0.032977
0.054127 0.10537 0.0085514998
0.051516 0.12267 -0.034735002
0.055024002 0.097901002 0.032825001
0.053918 0.10642 0.010328
0.053833 0.10729 0.010808
0.052397002 0.12514 -0.031966001
0.054611001 0.10838 0.012221
0.054065999 0.10814 0.011458
0.054772001 0.10216 0.031482998
0.052460998 0.125 -0.030464999
0.052251998 0.12477 -0.031149
0.05178 0.12544 -0.029704001
0.055284001 0.10333 0.030843999
0.054744001 0.1043 0.030785
0.055693001 0.10412 0.030766999
0.051642001 0.12574001 -0.028116999
0.058239002 0.079144999 0.098966002
0.051707 0.12650999 -0.026997
0.054885998 0.10567 0.029901
0.057064999 0.081499003 0.1005
0.054967001 0.10607 0.030121
0.058030002 0.081226997 0.10087
0.058444001 0.081220999 0.10129
0.051690001 0.12689 -0.025516
0.052859999 0.12718 -0.024449
0.054168999 0.11368 0.014806
0.054361999 0.10888 0.029307
0.053075999 0.12842 -0.020377001
0.056821998 0.084371001 0.10228
0.052547 0.1286 -0.019334
0.054028999 0.11215 0.029188
0.057147 0.085203998 0.10286
0.057358 0.086120002 0.10369
0.053798001 0.11762 0.015967
0.058049999 0.085809 0.1045
0.057810999 0.086043 0.10371
0.052710999 0.12918 -0.017095
0.052912999 0.12987 -0.016162001
0.052471001 0.13000999 -0.016373999
0.058377001 0.087732002 0.10527
0.054974999 0.11829 0.028549001
0.054489002 0.11893 0.028569
0.052877001 0.13347 -0.013627
0.052978002 0.13438 -0.01383
0.052809998 0.13514 -0.013161
0.057535999 0.090513997 0.10587
0.054648999 0.11993 0.028299
0.05847 0.091550998 0.10595
0.052087002 0.13734999 -0.013166
0.057201002 0.094249003 0.10722
0.054113001 0.12214 0.028112
0.052501999 0.13902 -0.013437
0.055238001 0.12431 0.026892001
0.054049 0.12506001 0.026966
0.054701999 0.12534 0.026961001
0.057514999 0.097120002 0.10868
0.058191001 0.096649997 0.11
0.057847999 0.095611997 0.10892
0.056260999 0.11079 0.070914999
0.053838 0.12555 0.027256999
0.056694001 0.11213 0.068374999
0.055824 0.11227 0.068171002
0.058081999 0.098232001 0.10909
0.055631001 0.10973 0.076350003
0.053342 0.12671 0.027528999
0.057953998 0.098350003 0.10869
0.053521998 0.13392 0.017035
0.057326 0.11058 0.077591002
0.056568 0.11532 0.065431997
0.056336001 0.11565 0.065945998
0.055266999 0.11552 0.065667003
0.056510001 0.11134 0.079254001
0.054494999 0.13078 0.026676999
0.055504002 0.11632 0.064763002
0.056554999 0.11598 0.065624997
0.056655001 0.11787 0.065016001
0.052673001 0.14528 -0.014473
0.051888 0.14693999 -0.014523
0.054903999 0.1189 0.064232998
0.053438 0.13573 0.017329
0.053382002 0.13648 0.017596999
0.056014001 0.11332 0.081009001
0.057507001 0.1026 0.10923
0.056085002 0.11493 0.080289997
0.053312998 0.13767 0.017073
0.053886 0.13777 0.016760999
0.056122001 0.12002 0.063993998
0.055886999 0.12068 0.063217998
0.054531999 0.13401 0.02641
0.057498999 0.10681 0.10975
0.057301 0.10627 0.11034
0.056444 0.11621 0.081139997
0.054391 0.13979 0.016185001
0.054193001 0.14 0.015691999
0.056768999 0.11757 0.080867
0.052133001 0.15306 -0.017147001
0.052083001 0.15433 -0.017561
0.051015001 0.15496001 -0.016997
0.053546 0.14122 0.015547
0.052893002 0.14181 0.016181
0.057693999 0.10882 0.11012
0.053401001 0.14306 0.01543
0.056843001 0.11983 0.080127001
0.057135999 0.11042 0.10962
0.055472001 0.12883 0.061944999
0.052092001 0.15659 -0.017476
0.052524 0.15691 -0.018079
0.053853001 0.14097001 0.026959
0.057356 0.11161 0.10954
0.055659 0.13003001 0.061871
0.055711001 0.12871 0.061900001
0.055847999 0.12341 0.079639003
0.051869001 0.15809999 -0.018325999
0.056024 0.12428 0.079365
0.057695001 0.11413 0.11006
0.055525001 0.13124999 0.061121002
0.055746 0.13124999 0.062206998
0.054065 0.14459001 0.02764
0.053183001 0.14905 0.014505
0.052296001 0.16092999 -0.018207001
0.056437001 0.12666 0.077881001
0.057519998 0.11618 0.10934
0.057983998 0.11719 0.11007
0.055521 0.12689 0.078038
0.052901 0.15176 0.013541
0.055907998 0.12800001 0.077160001
0.054944001 0.13467 0.062162001
0.057743002 0.11812 0.10949
0.054691002 0.13575999 0.062477998
0.054995999 0.13683 0.061802998
0.053559002 0.15255 0.0138
0.053672001 0.15344 0.013093
0.057103999 0.11997 0.10833
0.054072998 0.14957 0.026322
0.051945001 0.16628 -0.02036
0.056058999 0.13158999 0.07615
0.055544998 0.13372 0.074987002
0.055980999 0.13304999 0.074501
0.054846998 0.13807 0.060674001
0.053335 0.15557 0.012591
0.054919001 0.139 0.061572999
0.055792999 0.13423 0.073945999
0.055344 0.13457 0.074648999
0.057702001 0.12222 0.10869
0.055174999 0.13959999 0.062821001
0.052090999 0.16825999 -0.019912001
0.053707998 0.1521 0.026169
0.057808999 0.12398 0.10846
0.051943999 0.17034 -0.019564001
0.055780001 0.13654 0.072678
0.056000002 0.13741 0.07254
0.056726001 0.12566 0.10776
0.055537 0.13854 0.070505001
0.051298998 0.17212 -0.020535
0.051654 0.17421 -0.025560001
0.055126999 0.14207999 0.063389003
0.051173002 0.17422 -0.025899
0.051398002 0.17451 -0.026729001
0.051022999 0.17488 -0.027671
0.050912 0.17493001 -0.027453
0.054970998 0.14269 0.063683003
0.053213999 0.15575001 0.025767
0.051383998 0.17471001 -0.024929
0.057571001 0.12665001 0.10779
0.054889001 0.14397 0.062332999
0.051422998 0.17281 -0.021172
0.057792999 0.12703 0.10712
0.050946999 0.17569 -0.022359001
0.050453 0.1742 -0.023289001
0.050484002 0.17716999 -0.028147999
0.050689001 0.17699 -0.028925
0.056958999 0.12814 0.107
0.054889001 0.14081 0.070909001
0.055516999 0.14403 0.062909998
0.053160001 0.16187 0.012216
0.051077999 0.17415 -0.021268999
0.057714 0.12785999 0.10724
0.054664999 0.14499 0.06312
0.056122001 0.14252 0.069264002
0.050719999 0.17474 -0.021129999
0.051003002 0.17918 -0.028972
0.053463001 0.15942 0.024747999
0.053082 0.15899 0.024959
0.055587001 0.14613 0.063611001
0.057431001 0.13076 0.10672
0.055656001 0.14584 0.063124999
0.053713001 0.16188 0.024579
0.053215999 0.16121 0.024219001
0.053856999 0.16575 0.015211
0.053578999 0.16543999 0.014216
0.051298998 0.18100999 -0.028210999
0.053498998 0.16565999 0.017731
0.053344999 0.16585 0.017137
0.054715998 0.14884 0.063464001
0.053291 0.16516 0.020757001
0.051762 0.184 -0.028969999
0.056111 0.14851999 0.069234997
0.055379 0.15053999 0.062570997
0.051359002 0.18605 -0.030613
0.051885001 0.18495999 -0.029529
0.051415998 0.18531001 -0.030119
0.056407999 0.13714001 0.10424
0.055047002 0.14984 0.070061997
0.055241 0.14959 0.068774
0.05556 0.15332 0.062360998
0.055741999 0.15211999 0.062797002
0.056039002 0.15033001 0.070403002
0.055078998 0.15166 0.070184998
0.051794998 0.18722001 -0.030192999
0.055631001 0.15087 0.070317999
0.056669001 0.13944 0.10298
0.051677 0.18900999 -0.031257998
0.055075001 0.1532 0.070303001
0.057278 0.14315 0.10219
0.054409999 0.15703 0.062564
0.054884002 0.15746 0.061489999
0.056818001 0.14258 0.10212
0.054304998 0.15694 0.063271001
0.050165001 0.19152001 -0.030799
0.050995 0.191 -0.031068999
0.050577 0.1927 -0.031202
0.050636001 0.19249 -0.031454999
0.050877001 0.19291 -0.031287
0.056882001 0.14688 0.10062
0.050771002 0.19487999 -0.031184001
0.051224001 0.19393 -0.031950001
0.054813001 0.15828 0.070382997
0.050717998 0.19577999 -0.031067999
0.056834999 0.14745 0.10018
0.056997001 0.14843 0.10066
0.051328 0.19092 -0.015823999
0.057328001 0.14915 0.10052
0.056503002 0.14956 0.099807002
0.057066999 0.14974999 0.099757001
0.054586001 0.16447 0.058508001
0.050659999 0.19141001 -0.014095
0.052345 0.19241001 -0.015947999
0.050432999 0.19777 -0.029025
0.051794 0.1918 -0.013612
0.051436 0.19135 -0.01378
0.050593 0.19343001 -0.016361
0.050501 0.19717 -0.029115999
0.050797999 0.1973 -0.029634001
0.057325002 0.15045001 0.099568002
0.055052001 0.16586 0.058858
0.051621001 0.19423001 -0.01818
0.051374 0.1952 -0.017874001
0.051213 0.19583 -0.018345
0.050517999 0.19783001 -0.024666
0.054079 0.16663 0.059475001
0.054262999 0.16614 0.059193999
0.050586998 0.19813 -0.025085
0.057092998 0.14642 0.11634
0.056659002 0.1469 0.11454
0.056520998 0.15294001 0.099434003
0.054131001 0.16762 0.058364999
0.050420001 0.19674 -0.020145001
0.051328 0.1988 -0.024888
0.050416 0.19809 -0.024685999
0.050517999 0.19762 -0.020717001
0.057365 0.14658999 0.11753
0.056311999 0.14786001 0.11326
0.057126999 0.14885999 0.11432
0.050765999 0.19853 -0.022606
0.050849002 0.19367 -0.01123
0.054714002 0.16444001 0.071272001
0.056910999 0.14813 0.11935
0.057085 0.15027 0.11322
0.056770001 0.14737999 0.11834
0.056970999 0.14889 0.11834
0.054584 0.16576999 0.071330003
0.055583 0.16524 0.070937
0.055783998 0.16435 0.070796996
0.056418002 0.15137 0.11164
0.054820001 0.17191 0.055133998
0.052021001 0.19597 -0.0085385004
0.056439999 0.15705 0.10054
0.055613 0.1672 0.072028004
0.057006001 0.15358 0.11072
0.055752002 0.16919 0.072126001
0.052308999 0.19631 -0.0079094004
0.051835001 0.19643 -0.0066439002
0.056878 0.15623 0.10563
0.054361999 0.17391001 0.055356
0.056697998 0.15161 0.119
0.057015002 0.1574 0.10122
0.054327998 0.17470001 0.055236999
0.051500998 0.19697 -0.0066633001
0.057415001 0.15177999 0.11875
0.053617999 0.17675 0.052983999
