# .PCD v0.7 - Point Cloud Data file format
VERSION 0.7
FIELDS x y z
SIZE 4 4 4
TYPE F F F
COUNT 1 1 1
WIDTH 1532
HEIGHT 1
VIEWPOINT 0 0 0 1 0 0 0
POINTS 1532
DATA ascii
0.013433 -0.034605 0.13152
0.091440998 -0.059769001 0.14731
0.092307001 -0.060192 0.14835
0.094894998 -0.060798999 0.14830001
0.12501 -0.00099085004 0.12221
0.1238 -0.00079414999 0.12184
0.12571 -0.0016717 0.12264
0.17827 0.065853 0.075778998
0.17658 0.066927999 0.077636003
0.17675 0.066023998 0.076185003
0.10697 -0.010785 0.12258
0.10722 -0.011139 0.12202
0.079079002 -0.070903003 0.15093
0.16045 0.062148001 0.081018999
0.15810999 0.060710002 0.080747999
0.18325999 0.057689998 0.077950999
0.1811 0.056511 0.077403001
0.18212999 0.056279998 0.076784998
0.051412001 -0.05762 0.16295999
0.052313998 -0.059257999 0.16437
0.053552002 -0.059521001 0.16275001
0.099987999 -0.025868 0.12063
0.097517997 -0.026335999 0.11826
0.099453002 -0.026006 0.11903
0.061891001 -0.064883001 0.15945999
0.19216999 0.054313 0.098558001
0.19203 0.054515 0.097107001
0.079094999 -0.064461 0.14982
0.079558998 -0.064001001 0.14989001
0.080261998 -0.061928 0.15065999
0.013231 -0.024998 0.14599
0.013813 -0.024232 0.14573
0.058708001 -0.029735999 0.12146
0.057714999 -0.028825 0.12327
0.058975 -0.029011 0.12178
0.097042002 0.0046918001 0.10643
0.097625002 0.0047744 0.10617
0.11046 -0.0047243 0.080431998
0.10931 -0.0051054 0.078768
0.10999 -0.0042106002 0.081285
0.096431002 -0.074557997 0.13664
0.096559003 -0.075645 0.13581
0.094362997 -0.076522 0.13623001
0.19008 0.060679 0.092983
0.19104999 0.059951 0.089891002
0.1903 0.060961999 0.091297001
0.086949997 -0.073009998 0.1321
0.085330002 -0.073696002 0.13395999
0.05703 -0.021925 0.14083
0.15153 0.021576 0.083171003
0.14977001 0.021125 0.083504997
0.15350001 0.063243002 0.10133
0.15267 0.064544998 0.10139
0.05601 -0.032678999 0.11266
0.13085 0.025279 0.088164002
0.13021 0.026256001 0.090856001
0.12843999 0.026225001 0.089511
0.043179002 -0.015449 0.13248999
0.040536001 -0.013574 0.13237
0.042723 -0.013693 0.13166
0.066137999 -0.022460001 0.12079
0.14014 0.031091999 0.082507998
0.14037 0.031254001 0.082006
0.13979 0.030211 0.083492003
0.081316002 -0.040111002 0.13483
0.11967 0.018843999 0.10195
0.11848 0.018325999 0.10364
0.1182 0.01897 0.10467
0.094815999 -0.041094001 0.10417
0.093414001 -0.043691002 0.10472
0.0933 -0.042718001 0.10312
0.10965 0.0070493999 0.12068
0.10995 0.0074294 0.12154
0.10902 0.0066593001 0.12214
0.12014 0.0043652002 0.089111999
0.11889 0.0029378999 0.090467997
0.12684 -0.0020848 0.1244
0.12581 -0.0014033 0.12381
0.12615 -0.00026540001 0.12414
0.015599 -0.024467999 0.15424
0.14094 0.035110001 0.084020004
0.14026 0.03331 0.084135003
0.14005999 0.033302002 0.083916001
0.096069999 -0.061430998 0.13986
0.097641997 -0.062957004 0.13982999
0.096649997 -0.063928999 0.13832
0.041347001 -0.046381 0.1538
0.040476002 -0.046146002 0.15158001
0.039522 -0.047208998 0.15251
0.14303 0.044679999 0.10743
0.090598002 -0.083246998 0.14173999
0.091633998 -0.082764 0.14380001
0.090696 -0.084491 0.14247
0.058192998 -0.046351999 0.085685998
0.056992002 -0.047364999 0.086195998
0.057484001 -0.044831999 0.087935999
0.13834 0.024162 0.074193001
0.097914003 -0.00037058 0.11561
0.095190004 -0.00031584999 0.11544
0.074703999 -0.079719 0.11534
0.073714003 -0.081051998 0.11588
0.074033 -0.079584002 0.11523
0.15889999 0.056398999 0.097327001
0.16105001 0.058361001 0.098986998
0.14493001 0.012874 0.097423002
0.1451 0.013506 0.096271001
0.14575 0.014932 0.096855
0.11467 0.019664001 0.095647
0.11547 0.017423 0.093897998
0.12319 0.0072007999 0.088944003
0.12152 0.010757 0.089621998
0.037544999 -0.049369998 0.1479
0.036348 -0.049352001 0.14760999
0.037941001 -0.048548002 0.14707001
0.087337002 -0.069747001 0.15103
0.087366 -0.068232 0.15004
0.08794 -0.068746999 0.15042
0.12385 -0.0039463998 0.088257
0.12461 -0.001642 0.089423999
0.093134999 -0.048691001 0.11296
0.041299999 -0.041818 0.10869
0.04157 -0.041903 0.10723
0.041097 -0.040500998 0.10779
0.070981003 -0.030574 0.13214
0.072154999 -0.029594 0.13162
0.069945 -0.051929001 0.080412
0.069600001 -0.052244 0.079705998
0.092702001 -0.065338001 0.15546
0.093668997 -0.065327004 0.15402
0.078763001 -0.067465998 0.11319
0.078552999 -0.066991001 0.11427
0.077798001 -0.065727003 0.1134
0.15621001 0.041963998 0.10397
0.15626 0.041845001 0.10433
0.15753999 0.043387 0.10447
0.087710001 -0.087172002 0.14182
0.085979998 -0.086677998 0.14342
0.087178998 -0.085560001 0.14126
0.14131001 0.042856999 0.10796
0.14257 0.042215001 0.10742
0.074878 -0.081772 0.13297001
0.076013997 -0.079389997 0.13154
0.075243004 -0.080127001 0.13417999
0.1009 -0.032759 0.117
0.10071 -0.032352999 0.117
0.1021 -0.032676999 0.11765
0.094384998 -0.035700999 0.12846
0.094603002 -0.035406999 0.12895
0.093901001 -0.035783999 0.12701
0.076254003 -0.079842001 0.11632
0.075880997 -0.079795003 0.11527
0.18573 0.057707999 0.084023997
0.18720999 0.058444001 0.081978999
0.18527 0.056054998 0.082121998
0.058364999 -0.044454999 0.092136003
0.057305999 -0.043885998 0.093961999
0.058933001 -0.04315 0.092602
0.14481001 0.036662001 0.07626
0.14476 0.036141001 0.075010002
0.14535999 0.035264 0.075544998
0.15199 0.018293001 0.10868
0.15316001 0.01863 0.10935
0.041382 -0.070118003 0.066931002
0.039370999 -0.069032997 0.067587003
0.064825997 -0.048672002 0.14492001
0.065342002 -0.048133001 0.14519
0.063771002 -0.048 0.14521
0.091366 -0.050469998 0.13714001
0.092717998 -0.053642001 0.13765
0.14145 0.034194998 0.082771003
0.14357001 0.033401001 0.083916001
0.142 0.034139998 0.084445
0.1279 -0.020974001 0.11484
0.12557 -0.021237001 0.11442
0.1269 -0.020256 0.11437
0.062606998 -0.026788 0.10954
0.061250001 -0.026155001 0.10978
0.061785001 -0.025122 0.11063
0.087228999 -0.017294001 0.12746
0.086788997 -0.017828001 0.12815
0.086300001 -0.018425999 0.12851
0.13160001 -0.010988 0.097843997
0.13233 -0.011362 0.097340003
0.091353998 0.011676 0.11547
0.090603001 0.010708 0.11341
0.090961002 0.010013 0.11431
0.12283 0.024068 0.10124
0.12421 0.021622 0.10069
0.12328 0.023003001 0.10198
0.081834003 -0.083072998 0.14173
0.094511002 -0.017843001 0.10115
0.094429001 -0.019582 0.10169
0.093973003 -0.0189 0.10039
0.18153 0.055078998 0.073266998
0.18085 0.056164999 0.074608997
0.13610999 0.014397 0.11001
0.13522001 0.017108001 0.11159
0.12727 0.025806 0.089397997
0.12681 0.026217001 0.089231998
0.13045 0.025206 0.087010004
0.033978 -0.059531 0.093735002
0.033945002 -0.059673 0.093726002
0.034552999 -0.059627999 0.093051001
0.12271 0.013151 0.094104998
0.12471 0.013424 0.093643002
0.1541 0.046298001 0.075415
0.094431996 -0.061276 0.14455
0.095109999 -0.061326001 0.14487
0.096721999 -0.060369998 0.14417
0.087321997 -0.092655003 0.16348
0.085965 -0.093612999 0.163
0.088363998 -0.093069002 0.16394
0.18707 0.051311001 0.089723997
0.18796 0.051569 0.087884001
0.18835001 0.053202 0.088026002
0.16500001 0.041700002 0.070890002
0.16462 0.038950998 0.073343001
0.16345 0.041914999 0.072605997
0.13483 0.035009 0.10584
0.1348 0.035494 0.10683
0.13446 0.033677001 0.10469
0.12314 0.0053925999 0.090529002
0.12404 0.0059094001 0.091908999
0.12354 0.0080535002 0.092638999
0.084564 -0.010714 0.11139
0.085988998 -0.010734 0.11142
0.084256999 -0.0099932998 0.11185
0.084564999 -0.078603998 0.13699999
0.085738003 -0.078005999 0.13901
0.084187001 -0.079043999 0.13623001
0.070191003 -0.085560001 0.10667
0.069537997 -0.087325998 0.10489
0.069665998 -0.086176001 0.10455
0.15855999 0.031237001 0.076866999
0.15756001 0.030367 0.075910002
0.15691 0.031385001 0.074791998
0.08862 -0.066376999 0.15189999
0.088330001 -0.066276997 0.15075
0.087591998 -0.064672999 0.15030999
0.13416 0.040851999 0.1024
0.13484 0.041595001 0.10007
0.13466001 0.040562 0.10013
0.14087 0.054969002 0.097762004
0.14346001 0.054843999 0.095114999
0.14173999 0.05398 0.097255997
0.1244 -0.025519 0.12431
0.12346 -0.023776 0.12432
0.12314 -0.024379 0.12496
0.16590001 0.061976999 0.097525999
0.16599999 0.061071001 0.095452003
0.16410001 0.062981002 0.097150996
0.10323 -0.020053999 0.097571999
0.1015 -0.020274 0.096885003
0.16331001 0.058865 0.081194997
0.16392 0.060571998 0.082043998
0.10169 -0.034426 0.11731
0.10178 -0.034816001 0.11758
0.1022 -0.033429999 0.11733
0.12269 0.014421 0.11764
0.1215 0.013611 0.1165
0.12299 0.013573 0.1161
0.1664 0.075791001 0.076396003
0.16756 0.076070003 0.076188996
0.16993 0.075581998 0.076984003
0.084765002 0.0027594001 0.12118
0.085120998 0.0031719999 0.12332
0.13552 0.050480999 0.094182998
0.13647 0.050510999 0.092211999
0.13547 0.048599001 0.093564004
0.099188998 -0.031498998 0.11853
0.10118 -0.031987 0.11727
0.1665 0.067722 0.084129997
0.16667999 0.067134 0.083260998
0.16603 0.067662001 0.083338998
0.11843 0.014138 0.11566
0.11809 0.012895 0.1149
0.11882 0.012389 0.11454
0.16756 0.054095 0.074005999
0.16941001 0.053610001 0.073183998
0.16690999 0.054218002 0.075046003
0.18886 0.052331999 0.089129999
0.18803 0.052115001 0.088274002
0.18791001 0.054246999 0.086776003
0.091311 -0.092906997 0.15358
0.08941 -0.091591999 0.15383001
0.092798002 -0.079341002 0.13861001
0.091775 -0.079163998 0.13947999
0.091569997 -0.076679997 0.13767999
0.16395999 0.036672 0.088202998
0.16297001 0.035064999 0.088296004
0.030510999 -0.027674001 0.14627001
0.031335 -0.028134 0.14822
0.12128 0.020513 0.11059
0.12062 0.018398 0.11047
0.12212 0.018888 0.10915
0.087710001 -0.049676001 0.11153
0.073849 -0.030618001 0.13598999
0.072656997 -0.031764001 0.13462999
0.088699996 -0.098353997 0.15256999
0.089262001 -0.098315999 0.15154
0.14283 0.041845001 0.087541997
0.14248 0.042744 0.088069998
0.13161001 0.00013163 0.095202997
0.13084 -2.7599001e-05 0.096570998
0.13237 0.0012365 0.095877998
0.050292 -0.082002997 0.094260998
0.049483001 -0.083353996 0.095339
0.050351001 -0.083187997 0.093767002
0.027983001 -0.023313001 0.13902999
0.029170001 -0.022043999 0.13977
0.027171001 -0.023088001 0.13699999
0.087715 -0.028878 0.13188
0.087421998 -0.025966 0.13389
0.086981997 -0.02874 0.13189
0.040956002 -0.073628999 0.065996997
0.042068001 -0.075842001 0.065908
0.039813001 -0.075560004 0.067405
0.020498 -0.050758999 0.10066
0.064874999 -0.044553 0.096667998
0.11857 -0.0062545999 0.081471004
0.11737 -0.0065164999 0.080582999
0.11789 -0.0077128001 0.081416003
0.099349998 0.020543 0.11854
0.099482998 0.019161999 0.11857
0.069868997 -0.039638001 0.13925
0.069833003 -0.038835999 0.14077
0.070895001 -0.038642999 0.14097001
0.12673999 0.014952 0.092441998
0.12664001 0.01418 0.092119001
0.12397 0.012027 0.091845997
0.059411 -0.028232001 0.11193
0.061693002 -0.027326001 0.11047
0.060731001 -0.026852001 0.1103
0.11135 -0.020389 0.10829
0.11178 -0.019761 0.10612
0.11233 -0.020016 0.1078
0.10277 -0.017927 0.088237002
0.10251 -0.01847 0.087233
0.10444 -0.019797999 0.085421003
0.081395999 -0.076764002 0.15695
0.081315003 -0.075957 0.15685
0.085109003 -0.020718999 0.098045997
0.086135998 -0.022244999 0.098513998
0.084524997 -0.023334 0.098563001
0.10547 -0.0065867999 0.11794
0.10653 -0.0058217999 0.11713
0.10651 -0.0068403999 0.11679
0.16351999 0.032845002 0.10737
0.16339 0.030924 0.10798
0.16430999 0.030315001 0.10652
0.052143 -0.027690999 0.11098
0.052269999 -0.026069 0.11373
0.053613 -0.027937001 0.11244
0.11195 -0.016806001 0.10307
0.13879 0.036212999 0.10235
0.13816001 0.035280999 0.10321
0.1393 0.034290999 0.10157
0.16687 0.075793996 0.086878002
0.16914999 0.077151 0.085175
0.16854 0.074111998 0.085013002
0.1372 0.022526 0.10971
0.13661 0.024466 0.10985
0.1376 0.0231 0.11176
0.091057003 -0.021044999 0.12284
0.089649998 -0.022341 0.1235
0.091177002 -0.022731001 0.12228
0.14136 0.017312 0.092885002
0.14318 0.01571 0.090807997
0.14210001 0.015401 0.092335001
0.13463999 -0.0095765004 0.12258
0.13579001 -0.0088750999 0.12391
0.093919002 -0.060479 0.1267
0.094016999 -0.059602 0.12651999
0.092752002 -0.057909001 0.12665001
0.10795 0.021090999 0.10956
0.10851 0.021695999 0.11188
0.10904 0.02165 0.10986
0.17526001 0.056566998 0.067737997
0.17479999 0.055415999 0.066872001
0.17486 0.057126001 0.068319999
0.12704 -0.0092049995 0.12638
0.12883 -0.010488 0.12658
0.12853999 -0.0077026999 0.12656
0.092169002 -0.077289999 0.14419
0.090524003 -0.078783996 0.145
0.091467999 -0.079378001 0.14405
0.072988003 -0.065843999 0.088556997
0.07333 -0.065646999 0.086846001
0.073253997 -0.065220997 0.086879
0.099593997 -0.016697001 0.10122
0.098936997 -0.015481 0.10198
0.099666998 -0.016082 0.10098
0.069651 -0.057339001 0.078936003
0.069017 -0.056646001 0.079784997
0.13377 0.026392 0.088780001
0.13573 0.026768001 0.086631998
0.13389 0.025761999 0.08698
0.045079999 -0.016946999 0.13435
0.045359001 -0.015621 0.13436
0.13802999 0.0093470002 0.10215
0.1407 0.010551 0.10019
0.13950001 0.011301 0.10174
0.087895997 -0.0058542001 0.10703
0.087451003 -0.0081706997 0.10735
0.087164 -0.0073100999 0.10638
0.049408 -0.022554001 0.14122
0.050241001 -0.022694999 0.13884
0.048542999 -0.021836 0.13944
0.033539999 -0.028724 0.12907
0.032708999 -0.027557001 0.12903
0.033758 -0.028274 0.12847
0.075580999 -0.083062001 0.11674
0.074597001 -0.084044002 0.11804
0.073269002 -0.084282003 0.11541
0.10119 0.01166 0.094961002
0.10227 0.012059 0.093680002
0.096372001 -0.01706 0.090788998
0.095215 -0.017178999 0.089441001
0.093725003 -0.018340999 0.090976998
0.077175997 -0.012098 0.12125
0.077956997 -0.011312 0.12084
0.075868003 -0.010225 0.1203
0.18307 0.055751 0.082139999
0.18222 0.055585999 0.082275003
0.078318998 -0.01305 0.11922
0.077776998 -0.01272 0.11708
0.077702001 -0.012396 0.11907
0.16034999 0.030510001 0.088221997
0.15939 0.030497 0.086769998
0.16063 0.032237001 0.088193998
0.15196 0.059875999 0.10096
0.1516 0.058460999 0.10249
0.15245999 0.060536001 0.10178
0.096147001 -0.068189003 0.14534999
0.096585996 -0.069601998 0.14647
0.095509999 -0.069533996 0.14579
0.092477001 0.013829 0.11802
0.090535998 0.013449 0.11884
0.092621997 0.014147 0.12014
0.095110998 0.013714 0.12171
0.095948003 0.013416 0.12116
0.095679 0.01464 0.12031
0.1357 0.022193 0.085863002
0.13444 0.022919999 0.084982999
0.13423 0.022048 0.086589999
0.053638998 -0.055179998 0.074345
0.17106 0.070432998 0.091917999
0.1715 0.070515998 0.092417002
0.17312001 0.070919998 0.092918001
0.029217999 -0.030176001 0.14597
0.029558999 -0.029576 0.14697
0.035427999 -0.052310999 0.14358
0.034759 -0.051130999 0.14425001
0.035468999 -0.051344 0.14467999
0.12913001 0.033842999 0.10897
0.12954 0.035206001 0.10991
0.12909999 0.033787001 0.10924
0.14483 0.016154001 0.081606001
0.14332999 0.016527999 0.083571002
0.14363 0.016372999 0.079758003
0.10028 -0.018588001 0.089694001
0.10091 -0.019370001 0.088489003
0.10017 -0.01819 0.089308999
0.16581 0.065425001 0.080545999
0.16553 0.065072 0.079166003
0.16515 0.065732002 0.078441001
0.051307 -0.058727 0.076704003
0.051507 -0.059785001 0.077483997
0.050891001 -0.061374001 0.076132998
0.13072 0.0044902 0.095127001
0.13003001 0.0050766999 0.093212999
0.1294 0.0044149999 0.094256997
0.16464999 0.057002999 0.096557997
0.16376001 0.056534 0.096055999
0.16701999 0.056315999 0.095541999
0.11624 -0.011631 0.081629001
0.11685 -0.010953 0.082901999
0.11553 -0.012202 0.083586
0.16504 0.070153996 0.086478002
0.16786 0.071649998 0.086217999
0.067993999 -0.047162998 0.14383
0.069817998 -0.046464 0.14372
0.067587003 -0.048624001 0.14499
0.17443 0.039965998 0.10187
0.17425001 0.041808002 0.10229
0.1735 0.040915001 0.10302
0.085881002 -0.064910002 0.12028
0.086186998 -0.063946001 0.12151
0.015337 -0.025776001 0.14544
0.014817 -0.026017001 0.14659999
0.016111 -0.025583001 0.14583001
0.091609001 -0.076654002 0.13973001
0.092612997 -0.075360999 0.13952
0.090148002 -0.074148998 0.14101
0.10925 -0.017659999 0.1154
0.10858 -0.018271999 0.11546
0.10793 -0.017581999 0.11488
0.1582 0.071138002 0.094141997
0.15865999 0.072893001 0.093939997
0.079208001 -0.024633 0.095634997
0.077312 -0.023327 0.096587002
0.080211997 -0.023646999 0.095132001
0.063038997 -0.070325002 0.084184997
0.062821999 -0.071537003 0.085542001
0.063135996 -0.070712 0.086145997
0.09505 -0.056839 0.13773
0.095265999 -0.057613 0.13985001
0.067359999 -0.02468 0.10609
0.066350996 -0.026126999 0.10613
0.067737997 -0.024676999 0.10671
0.14123 0.019569 0.077235997
0.14121 0.018015999 0.079141997
0.13951001 0.017023999 0.077886999
0.12579 0.0033733 0.12336
0.12473 0.0018293 0.12173
0.12529001 0.0021279999 0.12431
0.096455 -0.0054583 0.11091
0.095795996 -0.0053661 0.11195
0.10487 -0.011524 0.12159
0.10596 -0.011092 0.12295
0.16503 0.065053999 0.083792999
0.16427 0.066138998 0.083807997
0.16599 0.066276997 0.084073
0.056373 -0.036194999 0.14246
0.057392001 -0.035328001 0.14205
0.097508997 0.0034369 0.096593
0.097909003 0.0027399999 0.096653998
0.096012004 0.0024842999 0.097769998
0.0071087 -0.023925999 0.13598999
0.0068905 -0.023033001 0.13657001
0.0082729999 -0.023528 0.13677999
0.14889 0.066202998 0.093764
0.14888 0.064893998 0.094699003
0.16923 0.067372002 0.077960998
0.16772 0.068735003 0.079255998
0.16715001 0.068651997 0.079060003
0.14156 0.014544 0.090035997
0.14189 0.01521 0.088637002
0.14174999 0.015388 0.088794
0.034019999 -0.047033999 0.1443
0.034967002 -0.049286 0.14458001
0.034855001 -0.048533 0.14574
0.0072936001 -0.029379999 0.13305999
0.0080447998 -0.029703001 0.13441999
0.0067991 -0.027922001 0.13443001
0.099114999 -0.020563999 0.098054998
0.10044 -0.022213001 0.096991003
0.018206 -0.035557002 0.12935001
0.01998 -0.035953 0.12951
0.020032 -0.038268998 0.12908
0.087748997 -0.025514999 0.13191999
0.087846003 -0.026807999 0.13293
0.14639001 0.017632 0.1027
0.14596 0.015567 0.10003
0.14809 0.016736999 0.1014
0.15982001 0.067713 0.092725001
0.15744001 0.066385999 0.09144
0.15846001 0.066155002 0.093754999
0.12924001 -0.0074236998 0.12665001
0.030973 -0.04493 0.10889
0.028178999 -0.043501999 0.10917
0.030427 -0.042955998 0.10894
0.13539 0.034293 0.10474
0.044204 -0.047003001 0.15696
0.043692 -0.047120001 0.15790001
0.043621 -0.047681998 0.15702
0.16046999 0.043129001 0.069445997
0.16001 0.042789001 0.069904998
0.16084 0.043802001 0.070548996
0.13931 0.018279999 0.087416999
0.14037 0.016029 0.085992999
0.14094 0.019512 0.087180004
0.17815 0.045095 0.099253997
0.17881 0.043241002 0.099512003
0.17792 0.042422999 0.098644003
0.074207999 -0.081851996 0.13368
0.073909 -0.081009999 0.13367
0.074093997 -0.082654998 0.13347
0.091677003 -0.048237 0.11116
0.090603001 -0.048243001 0.11147
0.092303999 -0.046424001 0.10961
0.11143 0.0084172003 0.087591998
0.11302 0.0091308001 0.087802
0.11249 0.0075115999 0.088518001
0.12564 -0.0095333001 0.12738
0.12292 -0.0097137997 0.12582999
0.13744999 0.014724 0.089668997
0.13589001 0.012962 0.090048999
0.13668001 0.013061 0.089550003
0.081469998 -0.048287001 0.13437
0.079269998 -0.048315998 0.13486999
0.080840997 -0.049626999 0.13321
0.15092 0.064084999 0.09702
0.15053 0.062693 0.096905999
0.099641003 -0.025539 0.12266
0.12972 -0.0063451999 0.092109002
0.13066 -0.0069875 0.092854999
0.12921999 -0.0078598997 0.091445997
0.049851999 -0.030742999 0.1452
0.047630001 -0.032308001 0.14447001
0.048680998 -0.031891 0.14328
0.17733 0.042275999 0.084794
0.17776 0.043226998 0.085190997
0.17611 0.043503001 0.084073998
0.1749 0.043361999 0.10367
0.1734 0.040612999 0.10423
0.17431 0.041598 0.10289
0.17714 0.059641 0.095279001
0.17649999 0.059220999 0.094461001
0.10238 -0.0096417004 0.095833004
0.10225 -0.0089504998 0.098103002
0.10216 -0.0095432997 0.096924998
0.15907 0.032938998 0.1086
0.15994 0.032876998 0.10993
0.16055 0.032632001 0.10993
0.072256997 -0.014486 0.11601
0.072930001 -0.01411 0.11417
0.071906999 -0.01578 0.11446
0.17596 0.069023997 0.081795998
0.17704999 0.069859996 0.083920002
0.1776 0.069239996 0.082303002
0.018436 -0.034412999 0.13078
0.020392001 -0.034240998 0.12827
0.020033 -0.036017001 0.12868001
0.1083 -0.029782999 0.12011
0.10959 -0.031823002 0.11973
0.11009 -0.031525001 0.11955
0.063385002 -0.042512 0.097612001
0.063294999 -0.043877002 0.097393997
0.063431002 -0.044034 0.097158998
0.15325999 0.014981 0.10908
0.15497001 0.015614 0.10908
0.051583 -0.048227999 0.091992997
0.054099001 -0.049720999 0.090387002
0.053941999 -0.048590001 0.088849001
0.15401 0.018327 0.1005
0.15462001 0.017787 0.10159
0.15352 0.017906999 0.10073
0.094759002 -0.0072801001 0.12616999
0.093842 -0.0070369998 0.12381
0.093512997 -0.0076100999 0.12551001
0.092620999 -0.022004999 0.13265
0.090995997 -0.020073 0.13434
0.092568003 -0.021907 0.13485999
0.11897 -0.021896999 0.11659
0.11998 -0.020455999 0.11481
0.12013 -0.023293 0.11379
0.092560001 -0.010589 0.095744997
0.092355996 -0.010644 0.096822001
0.075057998 -0.054781001 0.14707001
0.073818997 -0.053190999 0.14692999
0.073384002 -0.053684998 0.14699
0.10507 -0.031900998 0.11182
0.10243 -0.032182001 0.11286
0.10425 -0.031056 0.11131
0.1708 0.063097 0.097705998
0.16998 0.062743999 0.097971
0.17039999 0.061887 0.097874001
0.11988 -0.012944 0.094006002
0.11962 -0.012597 0.093397997
0.12073 -0.011658 0.093805
0.095925003 -0.038708001 0.12543
0.068181999 -0.031513002 0.13457
0.067537002 -0.033032 0.13462999
0.12371 0.016973 0.11297
0.12367 0.015204 0.11261
0.12242 0.015916999 0.11085
0.069564998 -0.034651998 0.13594
0.069234997 -0.032793 0.13671
0.069707997 -0.033009 0.1358
0.086698003 -0.095518 0.16121
0.086949997 -0.096340001 0.16156
0.086723 -0.095972002 0.16096
0.13552 0.023497 0.085330002
0.13511001 0.024606001 0.085813001
0.13376001 0.023778001 0.086699001
0.093107 -0.007214 0.10272
0.14184999 0.021608001 0.10949
0.14069 0.020284999 0.10756
0.12678 0.034123 0.10984
0.12620001 0.034641001 0.10883
0.12597001 0.033589002 0.10853
0.10555 0.0016182 0.089080997
0.10648 0.0037884 0.089470997
0.1087 0.0035161001 0.08935
0.055153999 -0.049651001 0.076191999
0.096022002 -0.00084664999 0.11243
0.096335001 7.7197998e-05 0.11217
0.15902001 0.040847 0.071888998
0.16012999 0.041604001 0.072029002
0.093567997 -0.002777 0.11025
0.094772004 -0.0055052 0.11094
0.095261 -0.0045594 0.11196
0.042530999 -0.067883 0.070113003
0.042592999 -0.066963002 0.071585998
0.042746 -0.068139002 0.070611
0.10194 -0.035602 0.12321
0.074712001 -0.016889 0.12057
0.074061997 -0.016754 0.12116
0.073765002 -0.017216001 0.12219
0.080219999 -0.047979999 0.1
0.019099001 -0.026182 0.15546
0.019035 -0.026254 0.15591
0.020773999 -0.026725 0.15656
0.045343999 -0.055394001 0.090182997
0.045527998 -0.056193002 0.089307003
0.046131998 -0.056139 0.090285003
0.046709999 -0.062858 0.086718999
0.046025999 -0.061923999 0.087802
0.046239 -0.061216 0.086499996
0.15161 0.024335001 0.085869998
0.15212999 0.023879999 0.084453002
0.12649 -0.017581001 0.1123
0.12903 -0.01843 0.11249
0.12763 -0.018477 0.1124
0.027285 -0.041103002 0.15328
0.083697997 -0.047803 0.14218999
0.084568001 -0.048776999 0.14341
0.11085 0.0095456997 0.091132
0.11335 0.011011 0.091130003
0.11372 0.0088617001 0.091415003
0.032311 -0.027703 0.14833
0.030342 -0.024298999 0.14676
0.030467 -0.026241999 0.1473
0.16233 0.039972998 0.10007
0.066653997 -0.041133001 0.098847002
0.069752 -0.042670999 0.099574
0.068043001 -0.043319002 0.099469997
0.16337 0.051644001 0.077448003
0.16404 0.051312 0.079218999
0.1636 0.051295001 0.077699997
0.075962 -0.053642001 0.10195
0.076026 -0.052320998 0.1023
0.042158999 -0.063923001 0.075424999
0.043466002 -0.064038001 0.076119997
0.042328 -0.063764997 0.074975997
0.095519997 -0.060887001 0.13139001
0.094541997 -0.061834998 0.13282999
0.095873997 -0.063031003 0.13155
0.094412997 -0.069431998 0.13067999
0.094961002 -0.069798999 0.13146
0.14804 0.022825001 0.076959997
0.04792 -0.020431001 0.12537
0.049277 -0.020190001 0.12676001
0.10786 -0.0027815001 0.11949
0.10708 -0.0021122999 0.12186
0.10637 -0.002257 0.1231
0.096937001 -0.00021863 0.098494001
0.097721003 -0.00078975997 0.098948002
0.096946999 0.0012371 0.097681999
0.13934 0.030381 0.10716
0.13787 0.029991001 0.1068
0.13808 0.029759999 0.10832
0.082368001 -0.062499002 0.10978
0.081051998 -0.061751999 0.10914
0.15051 0.036550999 0.10829
0.15083 0.035865001 0.10938
0.15221 0.036619999 0.10836
0.079620004 -0.016238 0.10788
0.079581 -0.014138 0.10818
0.079277001 -0.01615 0.10686
0.033654001 -0.026156999 0.12627999
0.031982001 -0.026996 0.12915
0.056713998 -0.081882998 0.1034
0.055305 -0.081796996 0.10251
0.055780001 -0.083509997 0.10259
0.1587 0.028609 0.095109001
0.11226 -0.014743 0.092900001
0.10992 -0.013956 0.093115002
0.10927 -0.014835 0.093246996
0.048110001 -0.077517003 0.068873003
0.047719002 -0.079544 0.067852996
0.046602 -0.078179002 0.067723997
0.10266 -0.0090599004 0.11807
0.10368 -0.010185 0.11879
0.10474 -0.0089956997 0.11833
0.12794 0.028158 0.097866997
0.12741999 0.027927 0.098724999
0.12751999 0.028550001 0.097842999
0.090101004 -0.057700999 0.14708
0.089539997 -0.058394 0.14448
0.091665998 -0.057232 0.14816
0.17174 0.063855 0.077219002
0.17036 0.063648999 0.077529997
0.16872001 0.064480998 0.076476999
0.13273001 -0.012971 0.1217
0.13350999 -0.011089 0.12093
0.13289 -0.01111 0.12269
0.053835999 -0.056421999 0.15236001
0.052198999 -0.055346999 0.15164
0.053178001 -0.056079999 0.15095
0.088077001 0.0074336999 0.12155
0.088160999 0.0066689998 0.1204
0.13089 0.0059533999 0.089971997
0.13046999 0.0096185999 0.091181003
0.13117 0.0076905 0.090795003
0.042560998 -0.064386003 0.079853997
0.041576002 -0.064741999 0.078602001
0.041825999 -0.063819997 0.079844996
0.10081 -0.010809 0.090217002
0.10241 -0.010613 0.092384003
0.10179 -0.011502 0.089077003
0.095273003 0.0015677999 0.1069
0.093539 0.0021122 0.10844
0.094535999 0.00058564998 0.10701
0.15718 0.040695999 0.072460003
0.15789001 0.042844001 0.072636999
0.16587999 0.053668998 0.097673997
0.16649 0.055300001 0.097430997
0.16703001 0.055819001 0.095380001
0.11457 -0.017785 0.10194
0.11531 -0.017301001 0.10191
0.11324 -0.016550999 0.10207
0.061461002 -0.042394999 0.086640999
0.062350001 -0.043171 0.084473997
0.061923999 -0.043869 0.085341997
0.073593996 -0.014329 0.1179
0.072926 -0.015622 0.11774
0.073019996 -0.014985 0.11718
0.072623 -0.035229001 0.099913001
0.073826998 -0.034747001 0.10014
0.071762003 -0.036233999 0.10102
0.093810998 0.014923 0.11301
0.092817001 0.013586 0.11317
0.094221003 0.013712 0.11316
0.17945001 0.051421002 0.084856004
0.17964999 0.052138001 0.087935001
0.078625001 -0.023767 0.13225999
0.076854996 -0.024016 0.13245
0.079044998 -0.024848999 0.13391
0.15648 0.037021998 0.071999997
0.15735 0.039317999 0.072623
0.15908 0.038141001 0.072056003
0.083264999 -0.066602997 0.15053
0.082819998 -0.066532999 0.15067001
0.13424 0.034949001 0.094337001
0.13565999 0.035565998 0.094015002
0.134 0.034954 0.091720998
0.14263 0.0096212998 0.094915003
0.14252999 0.0093128001 0.096518002
0.13974001 0.010871 0.095294997
0.084730998 -0.069091 0.12579
0.084941 -0.068377003 0.12689
0.085488997 -0.069868997 0.12726
0.03232 -0.050833002 0.14408
0.024375999 -0.047984999 0.12766001
0.02551 -0.049346 0.12826
0.14631 0.0088852001 0.10452
0.14723 0.010402 0.10604
0.14868 0.010585 0.1061
0.085597001 -0.0042893002 0.12426
0.086341001 -0.003551 0.12497
0.0854 -0.0038614001 0.12367
0.15888999 0.032308999 0.076624997
0.15921 0.031212 0.077370003
0.15821999 0.032352999 0.077659003
0.16481 0.023243001 0.098568
0.16396999 0.022372 0.098948002
0.15708999 0.042697001 0.075033002
0.15722001 0.044043999 0.074354999
0.15699001 0.044396002 0.073133998
0.036272999 -0.014589 0.13846999
0.035576001 -0.01559 0.13953
0.12997 0.026319999 0.10672
0.13031 0.028062001 0.10742
0.13031 0.027589001 0.10685
0.012069 -0.02617 0.15108
0.011132 -0.026672 0.15236001
0.086855002 -0.073926002 0.15351
0.085341997 -0.074527003 0.15338001
0.02121 -0.024426 0.15008999
0.022278 -0.025149001 0.15008999
0.11808 0.011047 0.12354
0.11888 0.0098158997 0.12327
0.11841 0.012286 0.12565
0.093618996 -0.056067001 0.1363
0.094017997 -0.055160001 0.13476001
0.094469003 -0.055589002 0.13613001
0.081024997 -0.026322 0.13402
0.078919001 -0.027337 0.13456
0.081436999 -0.028174 0.13476001
0.075579002 -0.01461 0.12133
0.074890003 -0.014401 0.12255
0.17422 0.066756003 0.075943999
0.17363 0.066426001 0.075343996
0.16351999 0.031133 0.091237999
0.16408999 0.034185998 0.093309
0.16332 0.032963999 0.093148001
0.049424 -0.077119 0.070194997
0.046597 -0.076274 0.070312001
0.048445001 -0.073751003 0.072012
0.070638999 -0.043855999 0.091802999
0.071850002 -0.045850001 0.089217
0.067254998 -0.068448998 0.14846
0.10637 -0.017091 0.097360998
0.10504 -0.016163999 0.098617002
0.1063 -0.016361 0.096198998
0.065862998 -0.045626 0.094359003
0.068066999 -0.044532001 0.092487998
0.066954002 -0.045272999 0.092664003
0.063660003 -0.030649999 0.10952
0.063528001 -0.031514999 0.10821
0.061864998 -0.03139 0.10853
0.084624 -0.040998999 0.13377
0.085097998 -0.040584002 0.13416
0.085657001 -0.04073 0.13536
0.034405999 -0.062343001 0.095310003
0.034056 -0.0601 0.094071001
0.035223 -0.061336 0.095007002
0.054350998 -0.047607001 0.15079001
0.053268999 -0.048647001 0.15101001
0.054149002 -0.049139 0.14982
0.13506 0.020246999 0.10827
0.13477001 0.020883 0.10865
0.13343 0.019024 0.10759
0.10309 0.017898999 0.10373
0.1028 0.016299 0.10295
0.10347 0.014758 0.10172
0.12175 0.022887001 0.10655
0.1195 0.022119001 0.10697
0.17048 0.052871 0.07209
0.16925 0.051722001 0.070826001
0.17026 0.051927999 0.070652001
0.087759003 -0.098463997 0.14727999
0.088835001 -0.099041998 0.14813
0.089414001 -0.099178001 0.14557999
0.14701 0.020718999 0.087451003
0.14887001 0.023507999 0.087311
0.14711 0.020291001 0.087263003
0.060143001 -0.029005 0.11916
0.057707001 -0.02716 0.11955
0.082556002 -0.01399 0.11466
0.081877999 -0.015184 0.11506
0.082574002 -0.015652001 0.11516
0.063395999 -0.070407003 0.1488
0.065067999 -0.070015997 0.15096
0.064067997 -0.068750001 0.15053
0.025435001 -0.060251001 0.090763003
0.17722 0.042029999 0.088012002
0.17835 0.043476999 0.088164002
0.17667 0.043318 0.088679001
0.061443001 -0.074167997 0.099296004
0.062137 -0.073192 0.09883
0.061561 -0.072916001 0.10083
0.059611 -0.075686999 0.077780001
0.058786001 -0.073495001 0.078271002
0.059519 -0.076421998 0.078268997
0.15233 0.015463 0.10782
0.040805001 -0.017074 0.14714
0.039473999 -0.016493 0.14885999
0.040479001 -0.017159 0.14668
0.15062 0.015463 0.091695003
0.15035 0.015323 0.091375001
0.15308 0.050365999 0.083664
0.15304001 0.050147001 0.085592002
0.13039 0.03064 0.10938
0.12749 0.031957 0.10955
0.12876 0.030669 0.10964
0.15963 0.021824 0.091489002
0.15701 0.021574 0.094058998
0.15839 0.021569001 0.093465
0.10545 0.018917 0.12425
0.10474 0.019104 0.12175
0.10517 0.019355001 0.12332
0.084492996 -0.082438 0.14148
0.084306002 -0.082002997 0.14131001
0.082826003 -0.081808999 0.14151999
0.17526001 0.070657 0.094106004
0.17296 0.070619002 0.094850004
0.17348 0.071796998 0.095284998
0.088679001 0.0059912 0.11313
0.087118 0.0070611001 0.11445
0.12279 0.0043253 0.091375999
0.12118 0.0029245999 0.09065
0.12043 0.0032102 0.090244003
0.099956997 -0.013038 0.082877003
0.10112 -0.01204 0.081352003
0.10267 -0.012654 0.081542
0.075502001 -0.049047001 0.092693999
0.086213998 -0.001066 0.12445
0.087369002 -0.0026203999 0.12503999
0.085607998 -0.0026638 0.12492
0.073785 -0.024505001 0.12966
0.070909001 -0.023266001 0.12987
0.073331997 -0.025095999 0.13101999
0.15983 0.031741999 0.082912996
0.15785 0.031824 0.085020997
0.15763 0.030772001 0.083112001
0.17975 0.064419001 0.097621001
0.17971 0.063405998 0.095403999
0.17946 0.061767001 0.094495997
0.17275 0.062988997 0.10224
0.11744 0.019332999 0.10481
0.11599 0.018935001 0.10552
0.11598 0.018993 0.10714
0.072410002 -0.01315 0.11645
0.071897998 -0.014573 0.1142
0.063561 -0.067727 0.082153998
0.062836997 -0.067560002 0.083002999
0.063773997 -0.068563998 0.081037998
0.028782999 -0.043249998 0.11883
0.030569 -0.043871999 0.12084
0.0308 -0.041553002 0.11937
0.052586999 -0.081022002 0.087525003
0.05443 -0.082460001 0.087187998
0.099431001 0.0083871996 0.095409997
0.099811003 0.0090202 0.095716
0.14453 0.043246001 0.10601
0.14305 0.041145999 0.10634
0.14409 0.04205 0.10494
0.094117999 -0.064392 0.12726
0.093175001 -0.062705003 0.12665001
0.094805002 -0.062682003 0.12564
0.14225 0.049541 0.10377
0.14178 0.049711999 0.10432
0.056834001 -0.021281 0.1383
0.057135999 -0.021709001 0.13932
0.12462 0.0142 0.11602
0.12646 0.014494 0.11671
0.12599 0.014903 0.11566
0.10922 -0.015947999 0.096313
0.10931 -0.015257 0.096409999
0.10858 -0.016031999 0.096112996
0.071338996 -0.086746 0.11302
0.069247 -0.084875003 0.11347
0.027321 -0.061110999 0.091358997
0.027493 -0.061360002 0.091141999
0.11091 -0.034347001 0.11362
0.11087 -0.034588002 0.11309
0.1087 -0.035748001 0.11337
0.055833001 -0.056731001 0.079147004
0.055454999 -0.057254001 0.079429001
0.05401 -0.056308001 0.078130998
0.16887 0.055125002 0.073200002
0.17367999 0.052154999 0.076931998
0.17456 0.051004 0.075963996
0.048778001 -0.022216 0.14027999
0.048319001 -0.024116 0.14013
0.048113 -0.021807 0.14125
0.073221996 -0.085482001 0.13175
0.072933003 -0.085098997 0.13484
0.090138003 0.0042797001 0.1234
0.091035999 0.0026338 0.12456
0.091877997 0.0035665 0.12244
0.068410002 -0.067028999 0.087416001
0.1825 0.061597001 0.071185
0.1822 0.059556 0.069996998
0.15173 0.040770002 0.10363
0.15103 0.039988 0.10515
0.15925001 0.028139999 0.11169
0.15831999 0.025514999 0.11106
0.15933999 0.025606999 0.11045
0.024320001 -0.047180001 0.10294
0.025588 -0.046557002 0.10343
0.024475001 -0.048806999 0.10254
0.13204999 0.024768 0.11008
0.13133 0.025588 0.10893
0.066876002 -0.078105003 0.10025
0.063767999 -0.078390002 0.10144
0.066298999 -0.079014003 0.10073
0.098394997 -0.039432 0.12381
0.09804 -0.037973002 0.12487
0.097964004 -0.039974 0.12372
0.073293999 -0.012044 0.10958
0.075511001 -0.013147 0.1086
0.075549997 -0.012837 0.10719
0.107 0.0026088001 0.12181
0.10614 0.0033189999 0.12083
0.10592 0.0030034999 0.12182
0.13330001 0.023484999 0.10913
0.13213 0.023964001 0.10947
0.13316999 0.02169 0.11036
0.13778 0.030146999 0.084913
0.13671 0.0283 0.084830999
0.13675 0.029449999 0.084748998
0.17574 0.043446001 0.09217
0.1769 0.044284999 0.092031002
0.13352001 -0.016339 0.11974
0.13271999 -0.017167 0.11821
0.13273001 -0.015407 0.12028
0.054935999 -0.080651999 0.084276997
0.055119 -0.080914997 0.083203003
0.056446999 -0.073599003 0.090530001
0.020894 -0.05435 0.097507998
0.077087998 -0.048289001 0.098484002
0.076995999 -0.049020998 0.10057
0.077551 -0.048668999 0.098720998
0.096395001 -0.0036176001 0.099032998
0.097726002 -0.0021758 0.099226996
0.097437002 -0.0026618999 0.097971998
0.17367999 0.075473003 0.090806998
0.17309999 0.074982002 0.092152998
0.17400999 0.074669003 0.090815999
0.092931002 0.00031872001 0.10621
0.09341 -0.001732 0.10409
0.092845999 -0.0022125 0.10594
0.032710001 -0.053440001 0.092390999
0.033982001 -0.054202002 0.093268998
0.084489003 -0.013762 0.10851
0.085552 -0.013729 0.10839
0.085035004 -0.014777 0.10765
0.14722 0.026458999 0.10813
0.11618 -0.014496 0.11916
0.11668 -0.016081 0.12015
0.11658 -0.014436 0.12201
0.11786 0.023514001 0.10534
0.11715 0.020953 0.10556
0.11713 0.022187 0.10575
0.15493999 0.016486 0.09646
0.15686999 0.018724 0.096013002
0.15408 0.016218999 0.097058997
0.085087001 -0.076412 0.15784
0.085004002 -0.074445002 0.15821999
0.034081999 -0.041993 0.14769
0.032632999 -0.040709998 0.14697
0.030913001 -0.042709 0.14766
0.093906 -0.017295999 0.099913001
0.094425999 -0.016702 0.099175997
0.093974002 -0.016488001 0.099693999
0.16842 0.071387 0.090040997
0.14461 0.028408 0.074775003
0.1443 0.028252 0.074381001
0.14403 0.027221 0.072779998
0.13876 0.0096076 0.109
0.13725001 0.0082561998 0.10976
0.13688999 0.0091449004 0.10804
0.16940001 0.072818004 0.077311002
0.17057 0.073253997 0.076604001
0.098995999 -0.0096503003 0.096652001
0.099182002 -0.0099446001 0.095700003
0.097979002 -0.0085255997 0.096478999
0.049210999 -0.034359001 0.10713
0.050926 -0.034712002 0.10662
0.050046001 -0.033677001 0.107
0.15189999 0.041570999 0.10448
0.15206 0.043055002 0.10344
0.15096 0.042188998 0.10535
0.13168 0.017282 0.087223001
0.13124 0.018934 0.085267
0.13053 0.018957 0.087104999
0.072818004 -0.030629 0.13352001
0.072713003 -0.031573001 0.13524
0.073614001 -0.031121001 0.13556001
0.020164 -0.030486001 0.13082001
0.018591 -0.030729 0.12973
0.14212 0.032721002 0.11049
0.071342997 -0.088101998 0.13868
0.069600001 -0.087228999 0.13894001
0.069571003 -0.087334 0.13953
0.1176 0.016897 0.094223998
0.11711 0.017899999 0.093927003
0.1179 0.019006001 0.094104998
0.1603 0.065067999 0.094462
0.16105001 0.063293003 0.095421001
0.13112 -0.0086013004 0.10518
0.13106 -0.0099708997 0.10578
0.13061 -0.010604 0.10573
0.12526999 0.024079001 0.11229
0.12429 0.023096001 0.11046
0.12545 0.023243999 0.11009
0.037622001 -0.058892 0.094724998
0.036788002 -0.059170999 0.094183996
0.035691999 -0.059408002 0.09471
0.085427999 -0.059469 0.11866
0.085785002 -0.058865 0.1197
0.084987 -0.059016999 0.12134
0.13491 0.010896 0.11045
0.13198 0.010789 0.11226
0.13164 0.010463 0.1104
0.070231996 -0.059937999 0.079896003
0.071267001 -0.059192002 0.080764003
0.098219 -0.063156001 0.14044
0.098883003 -0.064515002 0.13899
0.098182999 -0.062959999 0.13883001
0.087664999 -0.019247999 0.098821998
0.088561997 -0.019347999 0.099974997
0.087181002 -0.021411 0.099226996
0.085947998 -0.087070003 0.16545001
0.084863998 -0.086999997 0.16594
0.085872002 -0.087035 0.16619
0.16529 0.079037003 0.090604
0.16463 0.079441004 0.089440003
0.16285001 0.079741001 0.090324
0.16281 0.022686001 0.092983998
0.16264001 0.023887999 0.092639998
0.16121 0.026153 0.091867998
0.11413 -0.0043454999 0.12381
0.11615 -0.0055323001 0.12374
0.11539 -0.0036834001 0.12445
0.12055 0.0042758998 0.087286003
0.11895 0.0051841 0.088707998
0.12405 0.020148 0.10077
0.18962 0.057243999 0.088579997
0.10041 -0.025355 0.12021
0.096092999 -0.070548996 0.1349
0.094884999 -0.069054998 0.13403
0.095657997 -0.068908997 0.13346
0.052634999 -0.085845001 0.072411001
0.052416999 -0.086627997 0.071539
0.032198999 -0.024267999 0.12912001
0.030293999 -0.024900001 0.12849
0.030377001 -0.025242999 0.12876
0.017716 -0.025505999 0.14013
0.017635999 -0.024422999 0.14234
0.017659999 -0.026311001 0.14237
0.14027999 0.024013 0.083113998
0.13888 0.023544 0.082203001
0.13891 0.023201 0.082390003
0.059324 -0.044753 0.087035999
0.058552001 -0.046264999 0.085608996
0.059346002 -0.045883 0.086870998
0.090559997 -0.010483 0.12405
0.090874001 -0.010419 0.12605999
0.090075999 -0.010583 0.12374
0.16147999 0.079717003 0.091265999
0.16047999 0.078557998 0.090769999
0.16185001 0.080499001 0.092225
0.14292 0.052863002 0.10254
0.1417 0.050515 0.10298
0.14281 0.052267 0.10285
0.13494 0.042417001 0.092460997
0.13626 0.041783001 0.092331998
0.13556001 0.041131001 0.091959
0.14809 0.010619 0.10458
0.14853001 0.010122 0.10463
0.17252 0.040571999 0.10482
0.17351 0.042746998 0.10649
0.17146 0.042319998 0.10454
0.15362 0.026742 0.1122
0.15194 0.026133999 0.11152
0.15237001 0.024483999 0.11127
0.17820001 0.057656001 0.067217998
0.17795999 0.057852 0.067466997
0.17888001 0.057239 0.067360997
0.12714 0.037266001 0.10761
0.12777001 0.038036998 0.10773
0.17039999 0.034049999 0.084316999
0.16959 0.035082001 0.083329998
0.17081 0.036490999 0.083908997
0.024630001 -0.051470999 0.094080001
0.026901999 -0.049842 0.091885
0.026128 -0.051341001 0.091797002
0.038716 -0.012275 0.14076
0.039363001 -0.012344 0.13926999
0.018705999 -0.029309999 0.13098
0.048211999 -0.058045998 0.083149001
0.050035 -0.057124 0.084233999
0.049068999 -0.056414999 0.086805001
0.15478 0.032871 0.073034003
0.15484001 0.032910001 0.071716003
0.15363 0.033195999 0.073247001
0.13916001 0.012087 0.11419
0.14093 0.012753 0.11314
0.16453999 0.078222997 0.086902
0.16571 0.078817002 0.085450001
0.13503 0.025807999 0.087540001
0.11427 -0.030115999 0.11915
0.11319 -0.031142 0.11895
0.15467 0.030022001 0.085882999
0.15415999 0.027198 0.086345002
0.15439001 0.029988 0.084784999
0.12177 0.030727001 0.10334
0.091966003 -0.0060651 0.1176
0.092494003 -0.0055743 0.11855
0.092648998 -0.0075614001 0.11652
0.083962999 -0.044064999 0.1021
0.085372999 -0.045223001 0.10277
0.043570999 -0.062190998 0.087737001
0.043054 -0.063960999 0.088152997
0.13242 0.0051406999 0.11434
0.13276 0.0044975001 0.11343
0.13267 0.0063129002 0.11379
0.13844 0.0094571002 0.11013
0.13813999 0.0091672996 0.11033
0.12449 0.0043382002 0.12322
0.12479 0.0030755999 0.12256
0.12473 0.0035131001 0.12288
0.088109002 -0.071950004 0.14830001
0.087661996 -0.071811996 0.1485
0.086415999 -0.071878999 0.14820001
0.115 -0.019118 0.10115
0.11548 -0.018107999 0.10203
0.114 -0.018338 0.099674001
0.095864996 -0.059905 0.13383
0.094933003 -0.060809001 0.13274001
0.10144 -0.034621999 0.11139
0.10267 -0.035243001 0.11112
0.10188 -0.035898 0.1106
0.13815001 0.027826 0.075108998
0.13798 0.027310001 0.075028002
0.077835001 -0.078850001 0.15633
0.076920003 -0.078235999 0.15899
0.076338001 -0.078295998 0.15932
0.10373 -0.034378 0.11585
0.10269 -0.035812002 0.11566
0.047878999 -0.066494003 0.13807
0.047876999 -0.067330003 0.13698
0.048671 -0.066797003 0.13627
0.098310001 -0.040713001 0.11509
0.098843999 -0.039654002 0.11566
0.098339997 -0.042431999 0.11628
0.074027002 -0.012949 0.10363
0.072945997 -0.013844 0.10519
0.073694997 -0.012835 0.10688
0.073815003 -0.025847999 0.10101
0.074326001 -0.026732 0.10022
0.090581 -0.048448998 0.12132
0.091159999 -0.047566 0.12115
0.092977002 -0.048404999 0.12175
0.12469 0.030134 0.10582
0.12333 0.027164999 0.10467
0.12491 0.028712999 0.10594
0.17134 0.053502999 0.10347
0.17382 0.052625 0.10257
0.1714 0.052719001 0.10334
0.086975001 -0.081077002 0.13936999
0.087502003 -0.081471004 0.13872001
0.088211998 -0.082502 0.13918
0.070386 -0.039964002 0.14083
0.069968998 -0.040353999 0.13778999
0.070834003 -0.042048 0.13868
0.12799001 0.0080851996 0.089362003
0.073011003 -0.047001 0.088867001
0.071684003 -0.047375999 0.087949999
0.072488002 -0.046227001 0.089602999
0.068567999 -0.093232997 0.10183
0.067325003 -0.092491001 0.10309
0.067721002 -0.093167998 0.10299
0.088941999 -0.0067930999 0.12604
0.088595003 -0.0050765001 0.12598
0.18381999 0.060343999 0.067806996
0.18321 0.058703002 0.065745004
0.18296 0.059023999 0.065728001
0.084094003 -0.044543002 0.10185
0.085116997 -0.042344999 0.10087
0.053672999 -0.078945003 0.075181998
0.054586999 -0.079755999 0.076393001
0.053509001 -0.079513997 0.075929999
0.13364001 -0.0070707998 0.12552001
0.13135 -0.0054058 0.12693
0.13160001 -0.0068138 0.12615
0.099652998 -0.0021174999 0.099572003
0.098757997 -0.0016738001 0.099508002
0.099679001 -0.0018449 0.10039
0.059873 -0.074991003 0.14735
0.058835 -0.072651997 0.15356
0.050287999 -0.036212999 0.14233001
0.049550999 -0.035741001 0.14411999
0.049242999 -0.036432002 0.14312001
0.11928 -0.017809 0.097741999
0.11895 -0.018371999 0.098762996
0.11911 -0.017097 0.097395003
0.13537 -0.012174 0.11891
0.13484 -0.013246 0.12002
0.13327 -0.013098 0.11783
0.060366001 -0.028545 0.1219
0.050046001 -0.051180001 0.15338001
0.051612001 -0.049931001 0.15187
0.050184 -0.051578999 0.15211
0.14545999 0.01382 0.095850997
0.14651 0.016198 0.094255999
0.14449 0.015825 0.096270002
0.019012 -0.045839999 0.11829
0.019195 -0.044842999 0.11766
0.018944001 -0.045754001 0.11857
0.085079998 -0.069475003 0.15572
0.083541997 -0.068957999 0.15465
0.085504003 -0.069297999 0.15519001
0.14657 0.041299 0.10409
0.10365 -0.021391001 0.12339
0.1039 -0.021997999 0.12435
0.10303 -0.022293 0.12424
0.035294998 -0.058118001 0.094493002
0.035064999 -0.059514001 0.094434001
0.034795001 -0.055601001 0.092674002
0.11586 -0.0042893998 0.12244
0.053645998 -0.052893002 0.079089999
0.053032 -0.052553002 0.080544002
0.053048 -0.050669 0.079047002
0.13146999 0.019498 0.11188
0.13258 0.020331001 0.10918
0.13316999 0.021923 0.11061
0.10232 0.013697 0.098232001
0.1029 0.013709 0.10057
0.10449 0.015353 0.099587999
0.14899001 0.026041999 0.10619
0.14811 0.025591001 0.10417
0.15859 0.038833998 0.072573997
0.15994 0.040995002 0.072996996
0.091812 -0.053946 0.14179
0.098545998 -0.011962 0.096206002
0.097811997 -0.0095060999 0.096081004
0.050795998 -0.053392 0.15497001
0.049325 -0.051323 0.15564001
0.073394999 -0.054591 0.087079003
0.074051999 -0.054219998 0.087286003
0.073353 -0.064947002 0.094245002
0.073266 -0.064549997 0.091435999
0.035723999 -0.067474999 0.071915001
0.0339 -0.068418004 0.070995003
0.034400001 -0.067750998 0.071148999
0.12113 0.019941 0.10807
0.12093 0.019925 0.10738
0.14283 0.029332001 0.11255
0.14428 0.027704 0.11277
0.14291 0.029098 0.11324
0.16987 0.033992998 0.085561
0.16814999 0.032345999 0.085294001
0.1693 0.033128001 0.084331997
0.106 0.021788999 0.10475
0.049454 -0.090034999 0.070357002
0.050879002 -0.089943998 0.069757998
0.048363 -0.087383002 0.069609001
0.14327 0.027985999 0.11032
0.14315 0.028136 0.11304
0.088471003 -0.044946 0.13125999
0.089672998 -0.045386001 0.13016
0.088982999 -0.043806002 0.13044
0.10338 -0.066073 0.14061999
0.10206 -0.067220002 0.14205
0.11095 -0.019090001 0.086410999
0.11204 -0.017357999 0.085908003
0.11208 -0.017708 0.087867998
0.071317002 -0.081448004 0.11536
0.071981996 -0.081717998 0.11423
0.073492996 -0.079327002 0.11486
0.086777002 -0.078459002 0.13702001
0.084641002 -0.078109004 0.13528
0.086438 -0.079356998 0.13753
0.1292 -0.017595001 0.11258
0.079163998 -0.017480999 0.10573
0.079585999 -0.018425999 0.10445
0.079719 -0.018502999 0.10425
0.09392 0.0038208 0.10139
0.093723997 0.0024637 0.10116
0.094351001 0.0023169001 0.10192
0.070147 -0.092799 0.11403
0.070598997 -0.094490997 0.11371
0.047076002 -0.063844003 0.085524
0.11507 0.016874 0.10027
0.11551 0.015711 0.09945
0.11415 0.016903 0.099145003
0.077982999 -0.064753003 0.1496
0.079980001 -0.063672997 0.14985999
0.092078 -0.051325999 0.13591
0.092036001 -0.051098 0.13613001
0.063459001 -0.077990003 0.10144
0.082555003 -0.093047999 0.14203
0.082686 -0.091475002 0.14173999
0.083682001 -0.093934 0.14294
0.16319001 0.065954998 0.079625003
0.16238999 0.064862996 0.079706997
0.15961 0.035362002 0.078052998
0.16101 0.034619 0.078273997
0.15954 0.035572 0.078713998
0.16739 0.068223998 0.091473997
0.094655 -0.0045395 0.12179
0.093856998 -0.0046553998 0.12149
0.09448 -0.0056898999 0.12089
0.048487 -0.020032 0.13303
0.049752001 -0.021703999 0.13451999
0.048981 -0.020388 0.13203999
0.13147999 0.010323 0.11383
0.12896 0.0113 0.11685
0.1294 0.011924 0.11462
0.066587999 -0.073482998 0.10156
0.066138998 -0.074329004 0.10271
0.066284999 -0.072833002 0.10184
0.068772003 -0.066358998 0.082746997
0.066225998 -0.066188999 0.082957998
0.067864001 -0.066675 0.080914997
0.11835 -0.0020429001 0.080323003
0.11936 -0.0032046 0.082344003
0.11988 -0.0030497001 0.080980003
0.072319001 -0.062844999 0.14606
0.073955998 -0.064889997 0.14794999
0.073861003 -0.063197002 0.14849
0.059627 -0.031615 0.10508
0.061544999 -0.032444999 0.10677
0.059785999 -0.032923002 0.10641
0.10601 -0.023503 0.10787
0.10541 -0.023453999 0.10843
0.10729 -0.022774 0.10818
0.17633 0.039884999 0.089378998
0.17676 0.038690999 0.089079
0.17614 0.03985 0.089373
0.029878 -0.023430999 0.13970999
0.075200997 -0.071116 0.10995
0.075140998 -0.069799997 0.1097
0.075502999 -0.069842003 0.1116
0.050209999 -0.036497999 0.10508
0.050345998 -0.036614001 0.10498
0.050933 -0.037512999 0.10472
0.1174 -0.0020365 0.12427
0.11912 -0.0043716999 0.12177
0.11782 -0.0028138999 0.12366
0.041825999 -0.067469999 0.068930998
0.043104 -0.066581003 0.069968
0.041901 -0.068516001 0.069068998
0.058366001 -0.027930001 0.1338
0.057303 -0.025628 0.13493
0.056355 -0.025017999 0.13395999
0.090039998 -0.061452001 0.12215
0.090258002 -0.062199 0.1238
0.089074001 -0.061673 0.12176
0.052530002 -0.082714997 0.086995997
0.053351 -0.082024001 0.086374998
0.083774999 -0.058993999 0.14904
0.085446 -0.056848001 0.14974999
0.078726999 -0.056148998 0.095905997
0.078922004 -0.055514 0.097260997
0.078018002 -0.056109 0.096543998
0.086309001 -0.051683001 0.13822
0.087696001 -0.050494999 0.14059
0.087637 -0.051676001 0.13968
0.094278999 0.015165 0.11498
0.094137996 0.018155999 0.11479
0.092524 0.01663 0.11303
0.085845999 -0.017397 0.10589
0.082620002 -0.018885 0.1041
0.085620999 -0.017987 0.10576
0.11076 0.019886 0.1074
0.11195 0.019681999 0.10848
0.1112 0.020455001 0.1073
0.093521997 -0.0027327 0.10981
0.092459001 -0.0039185998 0.11118
0.093386002 -0.0052375998 0.11102
0.16921 0.064282998 0.098746002
0.17042001 0.067109004 0.10014
0.16899 0.067658 0.099068999
0.084785998 -0.093923002 0.14271
0.085236996 -0.094965003 0.14297
