# .PCD v0.7 - Point Cloud Data file format
VERSION 0.7
FIELDS x y z
SIZE 4 4 4
TYPE F F F
COUNT 1 1 1
WIDTH 1588
HEIGHT 1
VIEWPOINT 0 0 0 1 0 0 0
POINTS 1588
DATA ascii
0.0031528 0.10478 0.061058
0.016182 0.12914 0.073241003
0.01355 0.13042 0.076683998
-0.0046061999 0.10782 0.069774002
-0.0058653001 0.10702 0.069435999
0.011009 0.13294999 0.080764003
0.010147 0.13511001 0.081747003
-0.0094285998 0.10951 0.072563
-0.016852001 0.10697 0.076766998
-0.014356 0.11093 0.077950001
-0.018382 0.10596 0.076399997
-0.015701 0.1091 0.077033997
0.0040365998 0.13689999 0.088279001
-0.018885 0.10547 0.075948998
-0.016279001 0.1134 0.082082003
-0.021888999 0.10739 0.079466999
-8.2514001e-05 0.13812999 0.092564002
-0.020666 0.10905 0.080387004
-0.017018 0.11465 0.082716003
-0.0002479 0.13745999 0.091286004
-0.0021500001 0.13789 0.092977002
-0.021415001 0.11077 0.081891
-0.017035 0.11778 0.084853001
-0.0033465 0.13765 0.093744002
-0.020485001 0.11923 0.089084998
-0.022497 0.11857 0.088674001
-0.020792 0.11764 0.087702997
-0.0065490999 0.13887 0.096882001
-0.022781 0.11775 0.090139002
-0.0073982002 0.13989 0.099142998
-0.0094959 0.13875 0.098963998
-0.0092062 0.13899 0.10003
-0.01072 0.13921 0.098858997
-0.0253 0.1229 0.095847003
-0.015791001 0.13876 0.10238
-0.025899 0.12501 0.099242002
-0.027140999 0.12537 0.09928
-0.027814001 0.12646 0.1007
-0.028844999 0.12762 0.10112
-0.02124 0.13665 0.10578
-0.021524001 0.13819 0.1064
-0.029828001 0.12761 0.10288
-0.028956 0.1287 0.10249
-0.030277001 0.12957001 0.1033
-0.024022 0.13847999 0.10805
-0.031698 0.12754001 0.10438
-0.031502999 0.12936001 0.10436
-0.032864999 0.12912001 0.10458
-0.025435001 0.13953 0.11068
-0.027412999 0.14111 0.11174
-0.037314001 0.12808999 0.10765
-0.027611 0.14361 0.11485
-0.029098 0.14337 0.11487
-0.041609 0.12800001 0.11098
-0.027634 0.14881 0.11851
-0.023374001 0.15539999 0.12165
-0.022694999 0.15674999 0.12407
-0.044165999 0.12819 0.11237
-0.044633001 0.12741999 0.11258
-0.024406999 0.15373001 0.1227
-0.024293 0.15801001 0.12491
-0.029806999 0.14941999 0.12094
-0.027824 0.15085 0.12147
-0.028591 0.15166 0.12235
-0.046174001 0.12572999 0.11232
-0.054234002 0.11614 0.10993
-0.054545 0.11682 0.10976
-0.052692998 0.11937 0.11068
-0.027593 0.15425 0.12367
-0.025265999 0.1582 0.12578
-0.024952 0.15825 0.12619001
-0.025852 0.1592 0.12774
-0.055798002 0.11733 0.11107
-0.052094001 0.12028 0.11217
-0.028719001 0.15282001 0.12375
-0.053429 0.12296 0.11338
-0.050813999 0.12417 0.1134
-0.024716999 0.15936001 0.12839
-0.02654 0.15953 0.12785999
-0.056320999 0.11847 0.11166
-0.053592999 0.12245 0.11398
-0.028036 0.15863 0.12842
-0.052354001 0.12447 0.11417
-0.057704002 0.11792 0.11238
-0.044496 0.14025 0.12398
-0.029583 0.16126999 0.13151
-0.049350001 0.13563 0.12155
-0.049679 0.13651 0.12284
-0.042764999 0.14588 0.12811001
-0.051743001 0.13445 0.12302
-0.041025002 0.15008 0.12918
-0.053029001 0.13326 0.12258
-0.033326 0.16202 0.13352001
-0.034460001 0.16136 0.13541999
-0.06583 0.11771 0.11865
-0.066910997 0.11866 0.11952
-0.036628999 0.16123 0.13456
-0.058159001 0.13097 0.12435
-0.042711001 0.15344 0.13352001
-0.036770999 0.16236 0.13601001
-0.067716002 0.11991 0.12037
-0.068093002 0.11859 0.1217
-0.068504997 0.12131 0.12188
-0.06213 0.13082001 0.12582999
-0.044904001 0.15356 0.1348
-0.037803002 0.16259 0.13906001
-0.036579002 0.16316 0.13805
-0.070092998 0.12026 0.122
-0.043926999 0.15614 0.13472
-0.039133001 0.16142 0.1381
-0.044353001 0.15665001 0.13738
-0.070500001 0.12127 0.12476
-0.043216001 0.15965 0.13951001
-0.070253 0.12404 0.12471
-0.065834999 0.13025001 0.12754001
-0.046723001 0.15724 0.13877
-0.070211999 0.12506001 0.12614
-0.066697001 0.13139001 0.12912001
-0.065793999 0.13121 0.12983
-0.06944 0.12779 0.1279
-0.068314001 0.12864999 0.12831999
-0.083149001 0.12728 0.13713001
-0.085262999 0.12429 0.13673
-0.086915001 0.12556 0.13784
-0.085404001 0.13066 0.13976
0.041708 0.084363997 0.018134
0.033571001 0.073826998 0.014605
0.044404998 0.08867 0.021771999
0.043551002 0.087830998 0.021856001
0.049862001 0.096207 0.025655
0.030661 0.071714997 0.016387001
0.065787002 0.12433 0.037524998
0.027367 0.073262997 0.018352
0.064925 0.12427 0.039365001
0.025787 0.078890003 0.024834
0.035810001 0.10177 0.03717
0.037478 0.10218 0.036784001
0.032598 0.097314 0.035027001
0.043691002 0.11322 0.039886001
0.046333 0.11551 0.041666999
0.026586 0.097664997 0.038748
0.032458998 0.10391 0.044110999
0.028881 0.10267 0.043111
0.033473 0.11021 0.046195
0.015586 0.086865 0.039027002
0.016245 0.089951999 0.039953001
0.035978001 0.11729 0.052011002
0.014896 0.092414998 0.042580999
0.031583998 0.11927 0.055399999
0.028964 0.12131 0.059461001
0.028576 0.12186 0.061030999
0.026914001 0.1226 0.061409
0.026052 0.12282 0.062648997
0.025434 0.12404 0.065454997
0.0049063 0.10268 0.057849001
0.021801 0.12702 0.067741998
0.021194 0.12684 0.069486998
0.013232 0.1302 0.076730996
0.0124 0.13187 0.079212002
-0.0075746998 0.1086 0.070116997
-0.0082160002 0.10845 0.072320998
-0.0081115998 0.10728 0.071262002
-0.0095921 0.10738 0.072626002
-0.011408 0.10835 0.073849998
-0.012914 0.11127 0.077163003
0.0036146 0.13774 0.089783996
-0.020957001 0.10551 0.077841997
-0.021275001 0.1062 0.079007
-0.021190999 0.10822 0.080596998
-0.018507 0.11348 0.082782
-0.018526999 0.11382 0.083828002
-0.018588999 0.11639 0.085982002
-0.0037817 0.13722999 0.095959
-0.018972 0.1191 0.089372002
-0.0054775998 0.13756999 0.096029997
-0.023043999 0.11665 0.089760996
-0.022527 0.11613 0.088653997
-0.023731001 0.12018 0.092758998
-0.010214 0.1392 0.10027
-0.013177 0.13961001 0.1023
-0.024788 0.1232 0.097112998
-0.016009999 0.13926999 0.10401
-0.01891 0.13729 0.10407
-0.01675 0.13811 0.10544
-0.019653 0.13842 0.10467
-0.030161001 0.12831999 0.10318
-0.023150001 0.13862 0.10778
-0.033357002 0.12931 0.10723
-0.024106 0.13928001 0.1095
-0.02578 0.14086001 0.11168
-0.034823999 0.1278 0.10683
-0.037443999 0.12759 0.10886
-0.027762 0.14645 0.11699
-0.040252 0.12681 0.11038
-0.020097001 0.15556 0.12198
-0.021017 0.15556 0.12073
-0.022017 0.15561999 0.12153
-0.02131 0.15547 0.12239
-0.023026001 0.15367 0.1207
-0.020759 0.15618999 0.12269
-0.028256999 0.14924 0.12031
-0.024490001 0.15361001 0.12235
-0.052034002 0.118 0.1079
-0.05232 0.11569 0.10663
-0.052412 0.11708 0.10737
-0.044039 0.12571999 0.11084
-0.045272999 0.12640999 0.11219
-0.028488999 0.15199 0.12361
-0.047444001 0.12537999 0.11412
-0.048847001 0.1248 0.11161
-0.048971001 0.12487 0.11307
-0.024055 0.15879001 0.1268
-0.048976999 0.12661999 0.11436
-0.050101001 0.12449 0.11282
-0.052944999 0.12113 0.11295
-0.051991001 0.12414 0.11388
-0.057300001 0.1167 0.11185
-0.060642 0.11639 0.11275
-0.041565999 0.15082 0.13091999
-0.033574998 0.16188 0.13492
-0.041627001 0.15277 0.13225999
-0.070272997 0.12238 0.12558
-0.071441002 0.12425 0.12640999
-0.070095003 0.12638 0.12887
-0.071823001 0.12548 0.12824
-0.083544001 0.12619001 0.13468
-0.085482001 0.12515999 0.13672
-0.082998998 0.12921 0.1392
-0.056164 0.16889 0.15441
-0.053911 0.16886 0.15329
-0.055484999 0.16816001 0.15392999
-0.055109002 0.16807 0.15436
-0.083342001 0.13115001 0.13957
0.042654 0.080490001 0.014865
0.038745999 0.075949997 0.014712
0.040378001 0.076826997 0.015348
0.036874998 0.074914001 0.013889
0.041827001 0.08433 0.019253001
0.056779001 0.10638 0.029615
0.042319998 0.086222 0.02152
0.050241999 0.096014 0.026856
0.031998999 0.071759999 0.017030001
0.062965997 0.12481 0.040587999
0.038617998 0.1034 0.037503
0.024757 0.083679996 0.030514
0.040514998 0.10758 0.039879002
0.027097 0.088780001 0.032368999
0.024126999 0.091291003 0.037668001
0.025598999 0.091631003 0.038766
0.032655001 0.104 0.042404
0.036058001 0.11691 0.052420001
0.015024 0.091334 0.042146999
0.037138 0.12244 0.05539
0.013483 0.092573002 0.044509999
0.035123002 0.12039 0.055009998
0.039092001 0.12635 0.057413001
0.033234999 0.12048 0.056473002
0.01277 0.093333997 0.046913002
0.034022 0.12445 0.059540998
0.012287 0.094774999 0.046707999
0.034177002 0.12574001 0.060008999
0.030089 0.12037 0.058095999
0.033468999 0.12548 0.060453001
0.029846 0.12051 0.059266999
0.010635 0.095112003 0.048448998
0.0083764996 0.095964998 0.050407
0.0077030999 0.094924003 0.050822001
0.0025450999 0.10284 0.061234999
0.0024573 0.10281 0.061999001
0.018230001 0.12942 0.073725998
0.013742 0.13097 0.077656999
-0.0069741001 0.10623 0.069931999
0.0091859996 0.1338 0.083531
-0.020264 0.11028 0.082930997
-0.0012326 0.13723999 0.093819998
-0.018890999 0.11763 0.087681003
-0.020702001 0.11674 0.087704003
-0.0051585999 0.14029001 0.097204998
-0.0056886999 0.13997 0.097516
-0.023033001 0.11725 0.090527996
-0.0079186 0.14065 0.10012
-0.025072001 0.12021 0.091986001
-0.026309 0.12134 0.095223002
-0.025355 0.12045 0.095030002
-0.015345 0.13992 0.10377
-0.026598999 0.1237 0.097438999
-0.027694 0.1238 0.099422
-0.018509001 0.13867 0.10598
-0.029172 0.12616 0.10132
-0.020364 0.13802999 0.1061
-0.019696999 0.13903999 0.10719
-0.030498 0.12671 0.10245
-0.02984 0.12656 0.10345
-0.023381 0.13869999 0.10958
-0.03407 0.12728 0.10461
-0.014035 0.15308 0.11572
-0.01537 0.15296 0.11691
-0.01495 0.15502 0.116
-0.016263001 0.15336999 0.11608
-0.015262 0.15446 0.11738
-0.018397 0.15404999 0.11808
-0.016852001 0.15532 0.11883
-0.037184998 0.12774 0.10804
-0.025744 0.1429 0.11352
-0.018038999 0.15588 0.11903
-0.019275 0.15449999 0.11842
-0.019493001 0.15436 0.12005
-0.018223001 0.15601 0.11985
-0.027388999 0.14475 0.11586
-0.039441999 0.1269 0.11011
-0.025669999 0.14583001 0.11672
-0.021828 0.15425999 0.12066
-0.050468002 0.11597 0.10697
-0.051426001 0.11573 0.10596
-0.050260998 0.11711 0.10734
-0.044429999 0.12657 0.11115
-0.04293 0.12509 0.10956
-0.027407 0.14946 0.1203
-0.050661001 0.11826 0.10932
-0.056380998 0.1162 0.11111
-0.051707 0.12314 0.11358
-0.058414999 0.13115001 0.12444
-0.045012999 0.15442 0.13576999
-0.071562 0.12372 0.1276
-0.084085003 0.1244 0.13508999
-0.082250997 0.12715 0.13663
-0.053567 0.16802 0.15296
-0.056178 0.16666999 0.15442
-0.056793999 0.16707 0.15387
-0.057356998 0.16486999 0.15433
-0.058056999 0.16667999 0.15521
-0.057278 0.16721 0.1558
-0.056805 0.16767 0.15594
-0.083203003 0.1314 0.14133
0.044041 0.081845999 0.017089
0.042837001 0.082386002 0.017502001
0.065325998 0.11182 0.02916
0.041223999 0.085303001 0.020097001
0.058589999 0.10894 0.030222001
0.041892 0.084228002 0.022241
0.041170999 0.084572002 0.021376999
0.042993002 0.084978998 0.023274999
0.055697002 0.10382 0.029224999
0.055969 0.10576 0.029154999
0.067385003 0.12272 0.037539002
0.027114 0.072558999 0.020035001
0.057884 0.12217 0.041544002
0.024869001 0.086052001 0.031107999
0.042656999 0.1101 0.040816002
0.042160001 0.10885 0.040587999
0.044828001 0.11112 0.040957998
0.049493998 0.11903 0.044537
0.025597 0.087479003 0.032028001
0.030235 0.094371997 0.035103001
0.025567001 0.092931002 0.038483001
0.021867 0.090035997 0.037186999
0.015007 0.091315001 0.043694001
0.031626001 0.12006 0.056984
0.032171 0.1215 0.057824001
0.035838999 0.12679 0.059316002
0.033487 0.12540001 0.061090998
0.032088999 0.12564 0.06123
0.0045921002 0.089397997 0.046502002
0.0091032004 0.095788002 0.049991
0.0041427999 0.088996999 0.048083998
0.0027443999 0.08963 0.049630001
0.0069141001 0.095987 0.051635999
0.025847999 0.12458 0.064208001
0.0064932001 0.099149004 0.054784998
0.023574 0.12612 0.068008997
0.0232 0.12720001 0.068989001
0.021610999 0.12630001 0.069554999
0.021218 0.12808999 0.071292996
0.019047 0.12839 0.071199
0.00076904002 0.10408 0.062739
0.018229 0.1293 0.072435997
0.018453 0.12992001 0.074735001
0.019609001 0.12942 0.073266
0.00043993999 0.10454 0.064101003
-0.0016681 0.10448 0.064409003
0.017834 0.13014001 0.074649997
-0.0020179001 0.10579 0.065133996
0.017293001 0.13107 0.076485001
0.015317 0.13095 0.076509997
-0.0026010999 0.10575 0.066495001
0.013762 0.132 0.079498
0.013505 0.13338999 0.080674
-0.006664 0.10606 0.069710001
-0.007801 0.10625 0.070603997
0.010616 0.13387001 0.082866997
-0.010863 0.10856 0.075301997
-0.011353 0.10895 0.075349003
-0.013548 0.10934 0.076554
-0.018921999 0.10429 0.075248003
-0.014262 0.10965 0.077990003
-0.019369001 0.10346 0.075107999
-0.020416999 0.10811 0.081583999
-0.0173 0.11465 0.084605001
-0.018291 0.117 0.086337
-0.02008 0.11803 0.087687999
-0.0052268999 0.13837001 0.097107999
-0.020887 0.11619 0.087433003
-0.0040086 0.13959999 0.097427003
-0.021415001 0.11505 0.087834001
-0.021787001 0.11496 0.088395998
-0.0070773 0.14081 0.099304996
-0.023391999 0.11872 0.091748998
-0.025301 0.12042 0.094172001
-0.011948 0.13854 0.10216
-0.014437 0.13942 0.1034
-0.0051107998 0.15164 0.10816
-0.0039539002 0.15048 0.10616
-0.0055143 0.15180001 0.10839
-0.026839999 0.12277 0.096515
-0.0060398998 0.15116 0.10892
-0.0086767003 0.15216 0.10979
-0.016937001 0.13973001 0.10406
-0.029223001 0.12514 0.099770002
-0.011208 0.15431 0.11411
-0.011687 0.15379 0.11364
-0.012768 0.15395001 0.11516
-0.032163002 0.12634 0.10474
-0.013246 0.15302999 0.11377
-0.013361 0.15397 0.11545
-0.034563001 0.12740999 0.10709
-0.021707 0.14067 0.11137
-0.023758 0.14008 0.11141
-0.013712 0.15452 0.11661
-0.024556 0.14139 0.11091
-0.024898 0.14562 0.11566
-0.025231 0.14478 0.11581
-0.048301 0.11499 0.10418
-0.050437 0.11383 0.10552
-0.049571 0.11432 0.10517
-0.049486 0.1133 0.10379
-0.019797999 0.15474001 0.1197
-0.026952 0.14725 0.1182
-0.050974 0.11579 0.10611
-0.048682999 0.11594 0.10557
-0.04287 0.12561999 0.11026
-0.023325 0.15421 0.12224
-0.050241001 0.11768 0.10837
-0.026351999 0.14971 0.12035
-0.050469998 0.11908 0.1101
-0.02715 0.15231 0.12263
-0.052078001 0.11966 0.11048
-0.048544999 0.12346 0.11206
-0.047532 0.12626 0.11211
-0.022553001 0.15889999 0.12604
-0.056774002 0.11495 0.10986
-0.055783998 0.11569 0.10932
-0.056666002 0.11437 0.10949
-0.052124999 0.12136 0.11288
-0.058658998 0.11655 0.11179
-0.041985001 0.14490999 0.12685999
-0.042459 0.14725 0.12859
-0.065127999 0.1177 0.11883
-0.054691002 0.13327 0.12404
-0.055768002 0.13299 0.12431
-0.035783 0.16124 0.13574
-0.067226999 0.11945 0.12097
-0.043085001 0.15197 0.13372
-0.035631001 0.1626 0.13775
-0.0592 0.13112 0.12535
-0.037547 0.16303 0.13884
-0.045435 0.15515999 0.13707
-0.070967004 0.12193 0.12654001
-0.067906998 0.13135999 0.13028
-0.068999 0.12782 0.12958001
-0.072182 0.12642001 0.12888999
-0.073320001 0.12479 0.12811001
-0.072940998 0.12611 0.12999
-0.081733003 0.12630001 0.13535
-0.081813 0.12535 0.13508999
-0.052699 0.1689 0.15346999
-0.05209 0.16669001 0.15260001
-0.053380001 0.16669001 0.15251
-0.086373001 0.12414 0.13749
-0.054028001 0.16543999 0.15276
-0.054465 0.16622999 0.15249
-0.052912001 0.1698 0.15463001
-0.086378001 0.12457 0.13770001
-0.054329999 0.16966 0.15618999
-0.056111 0.16861001 0.15693
-0.087178998 0.12581 0.13903999
-0.086329997 0.12842 0.14053001
-0.085718997 0.12929 0.14143001
-0.085272998 0.12958001 0.14257
0.042043 0.079581 0.015663
0.040800001 0.075929999 0.016603
0.041125 0.077716999 0.015241
0.042119 0.077211 0.016666001
0.036222 0.074143 0.014643
0.066699997 0.11468 0.03263
0.066069998 0.11582 0.030710001
0.061907999 0.11166 0.03145
0.063401997 0.11163 0.030486999
0.047164999 0.089674003 0.026056999
0.048733 0.091939002 0.026232
0.048624001 0.093373001 0.026768001
0.049518999 0.093198001 0.025539
0.052409001 0.098665997 0.027674999
0.067901999 0.12231 0.036644001
0.068838999 0.12235 0.036804002
0.068787001 0.12394 0.037914999
0.028236 0.072995998 0.017053001
0.027642 0.072296999 0.018893
0.064188004 0.12515999 0.041026
0.061751001 0.12428 0.042971
0.060224999 0.12336 0.042392001
0.058088001 0.12124 0.04273
0.026110999 0.076103002 0.024937
0.024734 0.076686002 0.025656
0.023083 0.077358 0.027586
0.021422001 0.079901002 0.029828001
0.046934001 0.11584 0.042603999
0.03672 0.10769 0.044174999
0.034876 0.10683 0.044826999
0.020477001 0.087329999 0.036626998
0.021261999 0.086877003 0.036394998
0.030422 0.10333 0.042757001
0.035503998 0.11064 0.046672001
0.036368001 0.1106 0.047485001
0.038993999 0.11582 0.049587
0.037698999 0.11487 0.048953
0.036759999 0.1123 0.049316999
0.015706001 0.083653003 0.035955999
0.016478 0.084825002 0.038109001
0.028093999 0.10014 0.043945
0.028205 0.10112 0.044643998
0.036389999 0.11352 0.049407002
0.034554001 0.1128 0.050425999
0.040649001 0.12307 0.054589
0.041358002 0.12387 0.054545999
0.035360001 0.11782 0.053690001
0.014264 0.090356 0.043531999
0.041060999 0.12659 0.058320001
0.039606001 0.12628999 0.059085
0.041705001 0.12789001 0.058800001
0.036106002 0.12174 0.055387001
0.033599999 0.12067 0.057174999
0.038295001 0.12657 0.058899999
0.036837999 0.1257 0.059420001
0.010232 0.089666001 0.044833999
0.036065999 0.12287 0.057528
0.035027999 0.12411 0.059351001
0.034976002 0.12693 0.060835
0.032864999 0.12497 0.060892999
0.034356002 0.12384 0.0603
0.030126 0.12069 0.059152
0.032359999 0.12592 0.061391
0.029913999 0.12166 0.060656
0.0074839001 0.096322 0.052064002
0.0057847002 0.096382998 0.054347999
0.0056121 0.099789001 0.057592999
0.024767 0.12608001 0.067647003
0.016047001 0.13132 0.077203996
0.01584 0.13191999 0.076798998
-0.0057577998 0.10652 0.069641002
-0.0070110001 0.10537 0.070894003
0.011345 0.13344 0.081712
0.011133 0.1337 0.082249001
-0.0099068005 0.10706 0.072999999
-0.011827 0.10709 0.075489998
-0.013491 0.10857 0.076710001
-0.016672 0.10418 0.076545998
0.0067353998 0.13636 0.089887999
0.0054227002 0.13647 0.090283997
0.0055217999 0.13719 0.092095003
-0.018657001 0.11541 0.086317003
-0.0020339999 0.13767 0.094425
-0.0016999 0.13902999 0.094852
-0.02025 0.11634 0.086961001
-0.0039626998 0.13957 0.098897003
-0.0052991002 0.14071999 0.098793
-0.024034999 0.11625 0.090346001
0.0012245 0.14944001 0.10238
0.0017791 0.1481 0.1008
-0.00082031998 0.14929 0.10254
-0.00092674 0.1494 0.10378
-0.0010999 0.15004 0.10545
-0.024511 0.11839 0.092881002
-0.0088374997 0.13880999 0.10076
-0.0035432 0.1504 0.10631
-0.0028339 0.15022001 0.10531
-0.0018232 0.14887001 0.10604
-0.0049109999 0.14847 0.10691
-0.0035999999 0.15079001 0.10822
-0.027604001 0.12273 0.097456001
-0.014532 0.13916001 0.10373
-0.0071983999 0.15129 0.1098
-0.0084258998 0.15253 0.11052
-0.017659999 0.13954 0.10499
-0.02909 0.12494 0.10169
-0.017694 0.14008 0.10702
-0.010655 0.15312 0.1119
-0.0091569005 0.1531 0.11371
-0.0095172999 0.15313999 0.11104
-0.02049 0.13763 0.10616
-0.020475 0.13958 0.10796
-0.0095205 0.15127 0.11123
-0.011234 0.15153 0.11362
-0.011713 0.15132 0.1142
-0.019772001 0.13992 0.10834
-0.021248 0.13896 0.10884
-0.020106999 0.14035 0.10881
-0.030029999 0.12561999 0.10301
-0.02146 0.14179 0.11038
-0.035082001 0.12747 0.1074
-0.048253 0.11293 0.10292
-0.048237 0.11296 0.10305
-0.046996001 0.11314 0.10224
-0.024335001 0.14395 0.11363
-0.024284 0.14408 0.11493
-0.037558001 0.12710001 0.10869
-0.048168998 0.11388 0.10386
-0.018908 0.15321 0.11848
-0.017594 0.15511 0.12002
-0.017995 0.15537 0.12007
-0.049376 0.11611 0.10591
-0.018823 0.15594999 0.12257
-0.020919999 0.15584999 0.12284
-0.041785002 0.12624 0.11023
-0.02375 0.1534 0.12184
-0.049109999 0.118 0.10707
-0.025381001 0.14979 0.12034
-0.026606999 0.14910001 0.11953
-0.052464999 0.11591 0.10746
-0.025563 0.15135001 0.12174
-0.021850999 0.15786 0.12496
-0.04679 0.12419 0.11132
-0.047541998 0.12343 0.11138
-0.046514999 0.12563001 0.11181
-0.045462999 0.12434 0.11193
-0.02603 0.15301 0.12284
-0.024881 0.15225001 0.12248
-0.049651999 0.12292 0.11282
-0.051433999 0.12058 0.11242
-0.051084001 0.12218 0.11331
-0.051780999 0.12247 0.11238
-0.024352999 0.15893 0.12955999
-0.028183 0.16005 0.131
-0.025900001 0.15868001 0.13066
-0.045568999 0.13835 0.12524
-0.046877 0.13835999 0.12409
-0.042034999 0.14444 0.12797
-0.048999999 0.13545001 0.12487
-0.048397001 0.13643999 0.12413
-0.030418999 0.16103999 0.13484
-0.052057002 0.13503 0.12363
-0.034437001 0.16125 0.13594
-0.067004003 0.11817 0.11991
-0.067842998 0.11831 0.12145
-0.044036999 0.15239 0.1347
-0.060885001 0.13105001 0.126
-0.044509999 0.15374 0.13496
-0.045164 0.15357 0.13713001
-0.045083001 0.15496001 0.13877
-0.065044001 0.13036001 0.12983
-0.063777998 0.13062 0.12978999
-0.072852001 0.12318 0.12796
-0.068186 0.12869 0.13019
-0.074197002 0.12392 0.12806
-0.074496999 0.12441 0.13023999
-0.073316999 0.12546 0.12992001
-0.074882999 0.12448 0.1294
-0.082497001 0.12461 0.13615
-0.081133999 0.12749 0.13624001
-0.081124 0.12717 0.13641
-0.051146999 0.16986001 0.15425
-0.051282998 0.16808 0.15275
-0.051585998 0.16813999 0.15244
-0.052067999 0.16729 0.15244
-0.085463002 0.12316 0.13743
-0.08501 0.12426 0.13691001
-0.086459003 0.12362 0.13795
-0.081944004 0.13099 0.14123
-0.084903002 0.13062 0.14189
0.044470999 0.081177004 0.016194001
0.044408999 0.083251998 0.016018
0.043256 0.080202997 0.015943
0.044116002 0.081914 0.016860999
0.043962002 0.080812 0.017467
0.038463 0.075309999 0.015287
0.037358001 0.074518003 0.015268
0.064331003 0.11094 0.030122999
0.064392999 0.11207 0.029302999
0.041216001 0.081909999 0.019273
0.042629998 0.082083002 0.017353
0.035388 0.074221 0.015317
0.067778997 0.11786 0.033403002
0.068585999 0.11827 0.032781001
0.034292001 0.072613999 0.016131001
0.068682998 0.12074 0.034329001
0.060355 0.11093 0.031067001
0.060183 0.10935 0.029624
0.041517001 0.084244996 0.02004
0.042279001 0.083488002 0.022878001
0.068779998 0.12268 0.035202
0.054651 0.10229 0.028274
0.029936999 0.071432002 0.017006001
0.029030999 0.071544997 0.017721999
0.028295999 0.071216002 0.018066
0.066405997 0.12447 0.038952
0.067038 0.12459 0.037921
0.065039001 0.12454 0.039889
0.026427999 0.071510002 0.019128
0.025882 0.073007002 0.019485001
0.025992 0.072581001 0.021258
0.026165999 0.073067002 0.020953
0.026426001 0.074242003 0.022505
0.061206002 0.12455 0.042534001
0.025309 0.075438 0.023933001
0.025549 0.075897001 0.023665
0.057323001 0.12257 0.043527
0.057131 0.12352 0.042948
0.025374001 0.079007 0.025459001
0.024848999 0.078364 0.025606999
0.056035999 0.1238 0.043765001
0.056784 0.12453 0.046574999
0.020950999 0.078280002 0.029101999
0.037299 0.10133 0.037771001
0.039795 0.10367 0.038477998
0.021715 0.080812998 0.030241
0.052747 0.1216 0.045318
0.053952001 0.12435 0.046599001
0.053084999 0.12285 0.045938998
0.024023 0.081687003 0.030667
0.023908 0.082649998 0.031184001
0.051063001 0.11865 0.045228001
0.050473999 0.12055 0.045410998
0.026667001 0.094047002 0.038502999
0.027184 0.095902003 0.040144999
0.035666998 0.10784 0.044649001
0.028973 0.099621996 0.042373002
0.021519 0.088238001 0.037136
0.035750002 0.10851 0.045219999
0.017612001 0.084247001 0.035510998
0.018696999 0.083884001 0.036065001
0.022164 0.089726001 0.037652999
0.017043 0.083325997 0.035735998
0.033454999 0.10577 0.044721998
0.019262001 0.085954003 0.036584001
0.031918 0.10336 0.04428
0.033057 0.10494 0.044146001
0.035473999 0.1087 0.046128999
0.028455 0.10076 0.043951999
0.037324 0.11484 0.050446998
0.03782 0.11538 0.050149001
0.016113 0.086305 0.039239999
0.015747 0.086987004 0.039322
0.015406 0.087821998 0.041990001
0.036431 0.11564 0.051116999
0.035016 0.11408 0.050349999
0.043584999 0.12642001 0.056239001
0.043444999 0.12544 0.055484999
0.036649998 0.11835 0.052924
0.044659 0.12757 0.055631999
0.036867 0.11868 0.053580001
0.039898999 0.12312 0.054694001
0.038384002 0.11972 0.054536
0.038844999 0.12064 0.053626999
0.01533 0.088587999 0.042810999
0.038201999 0.11858 0.052379999
0.043035001 0.12764999 0.057383001
0.042608 0.12682 0.057475001
0.035009 0.11658 0.052960999
0.035592001 0.11545 0.052492
0.014031 0.090420999 0.044530999
0.036049001 0.12206 0.056635998
0.035962999 0.12256 0.055712
0.012357 0.090508997 0.045006
0.012102 0.089985996 0.044516001
0.0083662998 0.089025997 0.045286
0.0072678998 0.087462999 0.045318998
0.033555001 0.12548 0.060523
0.0060912999 0.086732 0.046811
0.031036001 0.1216 0.059383001
0.034141 0.12669 0.062382001
0.0047277999 0.087699004 0.047717001
0.032669 0.1261 0.062277
0.029286001 0.12136 0.060520999
0.032093 0.12438 0.061884001
0.031184999 0.12478 0.063110001
0.031856999 0.12543 0.062366001
0.0043106 0.088100001 0.048631001
0.031052999 0.12705 0.064577997
0.03032 0.12552001 0.063244998
0.0027960001 0.088547997 0.050275002
0.032055002 0.12688001 0.062847003
0.0075098998 0.096438996 0.051667001
0.0063498002 0.095073998 0.051964
0.02854 0.12254 0.061912
0.027721999 0.12297 0.062114
0.027844001 0.12354 0.062999003
0.029363999 0.1275 0.065461002
0.0025452001 0.089351997 0.050795998
0.0055625001 0.093107 0.052227002
0.0068402002 0.095679 0.052113
0.027409 0.12347 0.064057
0.028935 0.1261 0.064341001
0.0027254 0.090026997 0.051096
0.0031570999 0.091911003 0.051242001
0.0035840999 0.093479998 0.051341001
0.027807999 0.126 0.065550998
0.029073 0.12789001 0.066422001
0.0070846002 0.097451001 0.055153001
0.0067711002 0.099137999 0.055830002
0.0077506001 0.098204002 0.055783
0.026828 0.1278 0.066739
0.027194999 0.12609001 0.067332
0.0061317999 0.099913999 0.056515001
0.026396001 0.12588 0.066876002
0.025835 0.12535 0.06583
0.026412001 0.12795 0.067546003
0.025858 0.12764999 0.068933003
0.0048667998 0.10045 0.057684001
0.0056480002 0.10156 0.059779
0.025981 0.12835 0.068443999
0.024014 0.12888999 0.070197999
0.026314 0.12954 0.070639998
0.022902999 0.12752999 0.070009999
0.0035004001 0.10236 0.060026001
0.025381001 0.1301 0.071258999
0.023150999 0.12929 0.071684003
0.024196001 0.12962 0.071469001
0.023133 0.1295 0.073004
0.0035806999 0.1028 0.060961001
0.0015587 0.10266 0.062118001
0.021621 0.12836 0.071455002
0.021922 0.13094001 0.073412001
0.024534 0.13056 0.072059996
0.021683 0.13005 0.072507001
0.021431001 0.13211 0.074213997
0.021303 0.12903 0.073489003
0.019845 0.13083 0.074047998
0.0013568 0.10423 0.063212998
0.019447001 0.13169 0.074887
0.020607 0.13275 0.074997999
-0.0014286001 0.10296 0.065099001
-0.00013366999 0.10319 0.064572997
0.019036001 0.13053 0.074458003
0.018484 0.13152 0.076067999
0.018384 0.12973 0.07542
0.019429 0.13194001 0.076125003
-0.0016386 0.10396 0.066067003
-0.0027087999 0.10491 0.067312002
0.017957 0.13152 0.075943001
-0.0029189 0.10512 0.067253999
-0.0030356999 0.1055 0.068138003
0.015968001 0.13240001 0.078234002
0.015344 0.13278 0.078659996
0.016972 0.13239001 0.078111
-0.0043596998 0.10704 0.068657003
0.015262 0.13313 0.079558998
-0.0044582998 0.10652 0.068933003
-0.0062878001 0.10485 0.069891997
-0.0061081001 0.10519 0.069206998
0.014696 0.13349 0.079962999
0.0143 0.13416 0.080857001
0.012215 0.13316999 0.081707999
0.013939 0.13499001 0.082263999
-0.0079835998 0.106 0.071984001
0.011842 0.13507 0.084620997
0.012552 0.13522001 0.083967999
0.01185 0.13391 0.082618997
0.011208 0.13477001 0.084187999
0.010935 0.13590001 0.084941
0.0099392002 0.13545001 0.085205004
0.0088138003 0.13474 0.085969001
0.0086319996 0.13541 0.085496001
-0.011619 0.10782 0.075369999
0.0075669 0.1358 0.087430999
0.0075285002 0.13636 0.086906001
0.0079236999 0.13661 0.088763997
-0.014482 0.10911 0.077169001
0.0057696998 0.13620999 0.088794999
-0.015719 0.1045 0.077187002
-0.015048 0.10589 0.077418998
-0.017013 0.10311 0.075897999
-0.019082 0.10187 0.076199003
-0.014507 0.10838 0.078039996
-0.020025 0.10223 0.076765999
-0.020142 0.10353 0.077762999
-0.021287 0.10386 0.078525998
-0.021042001 0.10412 0.077832997
0.0037587001 0.13839 0.092405997
-0.020585001 0.10538 0.079526
-0.020986 0.10756 0.080424003
-0.020956 0.10573 0.080890998
-0.019763 0.1076 0.081437998
-0.020391 0.10931 0.083341002
0.0018134 0.13821 0.093740001
0.0014963 0.13748001 0.093546003
-0.018083001 0.11234 0.083107002
-0.018103 0.11319 0.083149001
-0.019716 0.11147 0.082806997
-0.020176001 0.10925 0.083163999
-0.020531001 0.10916 0.083645001
-0.020508001 0.11071 0.082327999
-0.020065 0.1109 0.084464997
-0.018738 0.11354 0.084436998
-0.018679 0.11494 0.085170999
-0.018716 0.11453 0.085455
-0.019754 0.11533 0.086772002
-0.019566 0.11681 0.087742001
-0.01842 0.11582 0.086824998
-0.0043406999 0.13883001 0.095729999
-0.0039839 0.13772 0.096980996
-0.0039901002 0.13944 0.097354002
-0.0026358 0.13968 0.096603997
-0.0028256001 0.14057 0.098243997
0.0028492999 0.14868 0.10078
0.0019212 0.14792 0.10015
-0.021939 0.11425 0.087688997
-0.022735 0.1153 0.088290997
0.0022592 0.14746 0.10205
-0.02496 0.11566 0.090448998
-0.0045381002 0.14086001 0.099845
0.0014259 0.14867 0.10271
-0.0053956001 0.14084999 0.099335
-0.022697 0.11672 0.090828001
-8.7606997e-05 0.14797001 0.10314
0.0010509 0.14892 0.10415
-0.0071338001 0.14049999 0.10075
-0.0071609998 0.14046 0.10106
-0.0019543001 0.15039 0.10566
-0.0096535003 0.13918 0.101
-0.010137 0.14045 0.10244
-0.0018841 0.15076999 0.10654
-0.024646999 0.11962 0.094379
-0.02596 0.11934 0.095482998
-0.0040166001 0.14963 0.10673
-0.01235 0.14001 0.10265
-0.0047630998 0.15131 0.10881
-0.013693 0.13919 0.10356
-0.027241999 0.12144 0.097171001
-0.027426001 0.12269 0.096938998
-0.028289 0.12146 0.097658999
-0.0050082002 0.15229 0.10912
-0.0059918002 0.14927 0.10773
-0.0063756001 0.15003 0.11014
-0.0076351999 0.15202001 0.11045
-0.027991001 0.12333 0.098892003
-0.028488001 0.12342 0.099570997
-0.0084891003 0.14997 0.11038
-0.0075722001 0.15286 0.11146
-0.0098794 0.15162 0.11093
-0.017557001 0.14007001 0.1056
-0.0087881004 0.15318 0.11318
-0.019270999 0.13991 0.10771
-0.010155 0.15128 0.11188
-0.030440999 0.1256 0.10159
-0.029848 0.12515 0.1015
-0.019195 0.14048 0.10792
-0.010185 0.15141 0.11342
-0.021043001 0.13789999 0.10725
-0.01052 0.1532 0.11321
-0.030143 0.12556 0.10263
-0.020178 0.13851 0.10831
-0.022296 0.13954 0.10837
-0.012289 0.15215001 0.11378
-0.022165 0.13804001 0.10952
-0.020551 0.14075001 0.10954
-0.021880999 0.13979 0.11034
-0.018813999 0.14086001 0.10892
-0.019409999 0.14219999 0.11036
-0.020878 0.14199001 0.1106
-0.021562001 0.14035 0.10996
-0.013718 0.15114 0.11476
-0.023964999 0.13958 0.11092
-0.023178 0.1389 0.11007
-0.044652998 0.10992 0.099688001
-0.044339001 0.11093 0.098653004
-0.043079998 0.1099 0.098504998
-0.032106999 0.12572999 0.10454
-0.032765001 0.12688001 0.10592
-0.022449 0.14140999 0.11103
-0.022453001 0.14132001 0.11187
-0.021524999 0.14247 0.11113
-0.020073 0.14138 0.11052
-0.014783 0.15202001 0.11533
-0.011107 0.15245 0.11609
-0.012588 0.15345 0.11588
-0.013431 0.15342 0.11845
-0.015884001 0.15290999 0.1161
-0.046009 0.11039 0.1008
-0.045279998 0.11097 0.10082
-0.033643 0.12682 0.10654
-0.023581 0.14214 0.11248
-0.022360001 0.14150999 0.11141
-0.02145 0.14305 0.11174
-0.045766 0.11123 0.10021
-0.023089999 0.14287999 0.11321
-0.046386 0.11199 0.10072
-0.046376001 0.1115 0.10188
-0.035429999 0.12657 0.10671
-0.024669001 0.14124 0.11262
-0.023150001 0.14266001 0.11238
-0.024288001 0.14275999 0.11374
-0.022933001 0.14318 0.11357
-0.046296999 0.11215 0.1021
-0.022825001 0.14415 0.11324
-0.046709999 0.11234 0.10204
-0.022454999 0.14474 0.11383
-0.016665 0.15279999 0.11785
-0.023405001 0.14409 0.11517
-0.047499001 0.11172 0.10268
-0.037096001 0.12747 0.10778
-0.025041001 0.14284 0.11377
-0.025667001 0.14382 0.1141
-0.046893001 0.11461 0.10344
-0.036903001 0.12625 0.10814
-0.026085 0.14301001 0.11495
-0.024656 0.145 0.11608
-0.038766999 0.12525 0.10881
-0.026017999 0.14356001 0.11484
-0.0491 0.1131 0.10478
-0.039427001 0.12588 0.10934
-0.025376 0.14577 0.11681
-0.025388001 0.14569999 0.11738
-0.040939 0.12472 0.10853
-0.040748999 0.12504999 0.10866
-0.04315 0.12455 0.1089
-0.042227 0.12540001 0.10973
-0.039955001 0.12668 0.11068
-0.049412001 0.11377 0.10582
-0.051355001 0.11339 0.10657
-0.0241 0.14827999 0.11904
-0.043368001 0.12465 0.11009
-0.025211001 0.14712 0.11822
-0.026965 0.14868 0.12019
-0.026621001 0.15016 0.12056
-0.021408999 0.15729 0.12434
-0.051660001 0.1144 0.10773
-0.045288 0.12495 0.11096
-0.048920002 0.11746 0.1088
-0.043531001 0.1238 0.11067
-0.050267 0.11882 0.10931
-0.045322001 0.12403 0.11138
-0.024979001 0.15178999 0.12144
-0.051791001 0.11459 0.1079
-0.045766 0.12311 0.10976
-0.047834001 0.12201 0.11171
-0.022555999 0.15786999 0.12405
-0.021777 0.15729 0.12552001
-0.055087999 0.11418 0.10807
-0.054391 0.11379 0.10784
-0.025991 0.1514 0.12249
-0.054958999 0.11472 0.10978
-0.055153999 0.11418 0.10885
-0.053692002 0.11566 0.10967
-0.023111001 0.15812001 0.12605
-0.046454001 0.12454 0.11319
-0.050815001 0.11979 0.11077
-0.055296998 0.11482 0.11007
-0.049842 0.12013 0.11172
-0.023238 0.15848 0.12775999
-0.050882999 0.12243 0.11239
-0.049592 0.12225 0.11176
-0.02399 0.15898 0.12856001
-0.058106001 0.11577 0.11247
-0.05895 0.11553 0.11233
-0.029599 0.16009 0.13346
-0.028069001 0.16003001 0.13212
-0.044817001 0.13891999 0.12532
-0.044468999 0.14103 0.12540001
-0.043478999 0.14187001 0.12655
-0.043138001 0.14236 0.12655
-0.064115003 0.11716 0.11698
-0.042247999 0.14496 0.12859
-0.042583 0.14679 0.12949
-0.050820999 0.13376001 0.12486
-0.042335998 0.14792 0.12953
-0.063285999 0.11737 0.11844
-0.053528 0.13366 0.12471
-0.051743001 0.13491 0.12372
-0.041917998 0.14832 0.13075
-0.040757 0.14898001 0.13104001
-0.032754999 0.16295999 0.13612001
-0.053975001 0.13327999 0.12529001
-0.041467 0.14941999 0.13184001
-0.066563003 0.1183 0.11906
-0.054742001 0.13214 0.12568
-0.033679001 0.16176 0.13654
-0.042343002 0.15110999 0.13107
-0.034426 0.16255 0.13871001
-0.042474002 0.1513 0.13305999
-0.056846 0.13106 0.12549999
-0.059057999 0.13082001 0.12628999
-0.043186001 0.15249 0.13339999
-0.035439 0.16301 0.13861001
-0.060109999 0.13149001 0.12679
-0.068627998 0.11969 0.12257
-0.044640001 0.1517 0.13607
-0.037023 0.16146 0.13926999
-0.069196999 0.11934 0.12222
-0.044287 0.15246999 0.13608
-0.038263001 0.16161001 0.13896
-0.069425002 0.11989 0.12407
-0.060991 0.13122 0.12779
-0.039129999 0.16096 0.13935
-0.061852999 0.13057999 0.12824
-0.062563002 0.13101999 0.13007
-0.040807001 0.16158 0.14012
-0.070773996 0.12009 0.12557
-0.045552999 0.15511 0.13737001
-0.041035 0.16105001 0.14057
-0.063134998 0.13074 0.12972
-0.042417999 0.15984 0.1411
-0.045414999 0.15549 0.13969
-0.043834999 0.15899 0.1408
-0.044911999 0.15745001 0.1399
-0.071960002 0.12174 0.12587
-0.045456 0.15696 0.13996001
-0.065494001 0.13039 0.13064
-0.066950999 0.13064 0.1314
-0.073921002 0.12115 0.1274
-0.072269998 0.1216 0.12625
-0.070202999 0.12694 0.13044
-0.072691001 0.12268 0.12882
-0.068442002 0.12974 0.13144
-0.073443003 0.12227 0.12848
-0.074611001 0.1221 0.12947001
-0.071199998 0.12667 0.13037001
-0.072687998 0.12695999 0.13116001
-0.074369997 0.12621 0.13158
-0.075343996 0.12446 0.12986
-0.075404003 0.12215 0.12976
-0.076003 0.12503999 0.13057999
-0.075350001 0.12546 0.13129
-0.073585004 0.12673999 0.13242
-0.075413004 0.12503 0.13118
-0.075707003 0.12612 0.13252001
-0.081083998 0.12445 0.13431001
-0.081979997 0.12509 0.1344
-0.080049001 0.12568 0.13519
-0.081110999 0.12568 0.13484
-0.082313001 0.12329 0.13613001
-0.080903001 0.12626 0.13697
-0.083947003 0.12363 0.13584
-0.080739997 0.12673 0.13616
-0.084605999 0.12234 0.13626
-0.049942002 0.16788 0.15184
-0.051261999 0.17007001 0.15527999
-0.053721 0.16522001 0.15366
-0.081827 0.12769 0.13895001
-0.082604997 0.12774999 0.13744
-0.081933998 0.12879001 0.13991
-0.054508999 0.16531999 0.15343
-0.056212001 0.16362999 0.15363
-0.081827 0.13094001 0.14030001
-0.051835001 0.17024 0.15595999
-0.05429 0.16982999 0.15663999
-0.087093003 0.12348 0.13855
-0.057583999 0.16500001 0.15391999
-0.057909999 0.1645 0.15404999
-0.080908999 0.13141 0.14293
-0.053800002 0.16896001 0.15685999
-0.086662002 0.12673999 0.13970999
-0.082911998 0.13288 0.14315
-0.058524001 0.16491 0.15447
-0.059161998 0.16385999 0.15465
-0.055516999 0.16850001 0.15695
-0.056968998 0.16706 0.15672
-0.058006998 0.16718 0.15661
-0.059682999 0.16446 0.15553001
-0.086009003 0.12745 0.14184999
-0.084161997 0.131 0.14318
-0.059356 0.16584 0.15563001
-0.05968 0.16579001 0.15689
-0.086437002 0.12890001 0.14148
-0.085501999 0.12965 0.14283
-0.058302999 0.16664 0.15707
0.067428 0.11574 0.032602999
0.068544999 0.12165 0.034887001
0.039901 0.082434997 0.019991999
0.052189 0.095706001 0.029048
0.050356001 0.095872 0.027472001
0.054032002 0.099958003 0.028475
0.054853 0.10206 0.029510001
0.024602 0.078397997 0.026185
0.057479002 0.12251 0.043173
0.021935999 0.078152001 0.027894
0.035721999 0.098089002 0.037005
0.034182001 0.097767003 0.036548
0.040380999 0.10455 0.040008001
0.024108 0.08343 0.031074001
0.041115001 0.10627 0.040468
0.044277001 0.10939 0.041489001
0.045269001 0.11221 0.041818999
0.046103999 0.11384 0.043529999
0.051072001 0.12025 0.046186
0.02844 0.089392997 0.034302998
0.029439 0.092078 0.034297001
0.031523999 0.093906 0.035893999
0.021802999 0.089124002 0.038036
0.022608999 0.090594999 0.037877001
0.028198 0.096732996 0.040045001
0.028402001 0.098203003 0.041333999
0.029069001 0.099436998 0.042486999
0.029438 0.10192 0.043026
0.028891001 0.10167 0.043419998
0.038385998 0.11637 0.050042
0.027533 0.098421998 0.043997999
0.028992999 0.10309 0.045101002
0.039004002 0.11711 0.049885999
0.035918999 0.11326 0.048439
0.029789999 0.10308 0.045035001
0.028405 0.10223 0.044557001
0.016264001 0.085717 0.038931999
0.035211001 0.11043 0.048377998
0.033927999 0.11214 0.050076999
0.035339002 0.12094 0.055794001
0.034302 0.12106 0.057254001
0.038213 0.12627 0.059655
0.0094895 0.088303 0.045161001
0.033865001 0.12677 0.061776999
0.028932 0.12193 0.060897999
0.0058736 0.094383001 0.053564001
0.025965 0.12411 0.065581001
0.027647 0.12922999 0.068671003
0.025064001 0.12735 0.06904
0.024152 0.12653001 0.067725003
0.0043310001 0.10117 0.059682
0.023313001 0.12746 0.069628999
0.0031161001 0.10134 0.060442999
0.022822 0.12879001 0.070809998
0.0028216999 0.10197 0.061631002
0.001367 0.10199 0.061976001
0.019838 0.12910999 0.072545998
-0.00015199 0.10286 0.063676998
-0.00096366002 0.10295 0.064176001
-0.001212 0.10341 0.064818002
0.018503999 0.13249999 0.076967999
0.021397 0.13269 0.076732002
0.015978999 0.13357 0.079103999
0.015864 0.13328999 0.080183998
0.017756 0.13471 0.079888999
-0.0034682001 0.10545 0.068701997
0.016757 0.13485 0.081037998
-0.0048596002 0.10409 0.068149
0.01505 0.13437 0.081380002
0.014396 0.13591 0.083219998
-0.010088 0.10732 0.074592002
0.0010247 0.13767 0.095127001
-0.0012965 0.13783 0.094497003
-0.018838 0.11452 0.086475
-0.0027664001 0.13926999 0.097278997
-0.02021 0.11376 0.086388998
-0.021330999 0.11263 0.087352999
-0.021927999 0.11287 0.087764002
0.0020033999 0.14751001 0.10245
0.0012001999 0.14714999 0.10166
-0.0062076999 0.14083999 0.10171
-0.0056825001 0.14102 0.10017
-0.023786999 0.11661 0.091978997
-0.024027999 0.11841 0.092658997
-0.0018224 0.14837 0.10438
-0.025969001 0.11874 0.094196998
-0.011375 0.13973001 0.10206
-0.027125999 0.12145 0.096492
-0.0057278001 0.15149 0.11074
-0.015749 0.13991 0.10631
-0.029967999 0.12408 0.10008
-0.029821999 0.12262 0.10032
-0.030154999 0.12353 0.101
-0.031143 0.12401 0.10177
-0.031107999 0.12513 0.10248
-0.04276 0.10956 0.096883997
-0.041547999 0.11053 0.097327001
-0.042079002 0.10877 0.096033998
-0.043382999 0.11018 0.099004999
-0.016745999 0.15228 0.11805
-0.014306 0.15406001 0.11759
-0.014882 0.15476 0.11928
-0.044962 0.11328 0.10219
-0.016982 0.15286 0.11897
-0.022853 0.14537001 0.11602
-0.02311 0.14625999 0.11723
-0.039918002 0.12515 0.10822
-0.018536 0.15294001 0.1203
-0.046542998 0.11552 0.10519
-0.02052 0.1529 0.11999
-0.020349 0.15365 0.1206
-0.025836 0.14684001 0.11801
-0.02502 0.14753 0.11922
-0.024435 0.14776 0.11874
-0.024006 0.15267999 0.12202
-0.024664 0.15192001 0.12217
-0.052921001 0.11283 0.10718
-0.048654001 0.11814 0.10887
-0.045984 0.12104 0.11152
-0.020221001 0.15747 0.12415
-0.023339 0.15083 0.12161
-0.056816999 0.11418 0.11157
-0.059895001 0.11568 0.1142
-0.061154999 0.11612 0.1152
-0.062359001 0.11582 0.11608
-0.032224 0.1609 0.13452999
-0.056701001 0.13199 0.12576
-0.039836001 0.16184001 0.14098001
-0.071854003 0.12175 0.12633
-0.042959001 0.15989999 0.14123
-0.076569997 0.12238 0.12985
-0.076727003 0.12268 0.1319
-0.077109002 0.12482 0.13288
-0.078001 0.12489 0.13345
-0.078714997 0.12334 0.13248
-0.076968998 0.12533 0.13427
-0.078220002 0.12514 0.13398001
-0.079062 0.12389 0.13379
-0.080766 0.12258 0.13432001
-0.050298002 0.16993999 0.15374
-0.087173998 0.12526 0.13902
-0.082066998 0.13246 0.14351
0.06983 0.11847 0.035822999
0.033154 0.072453 0.01609
0.032937001 0.071393996 0.017122
0.05948 0.10759 0.031073
0.060727 0.10948 0.032028999
0.056529 0.10397 0.030370999
0.058364 0.10542 0.030412
0.024962001 0.074072003 0.023306999
0.037813 0.10067 0.037905
0.035645001 0.099518999 0.037703998
0.045786999 0.11312 0.043138999
0.048572998 0.11597 0.044087
0.048425999 0.11743 0.044216
0.025525 0.085115999 0.031629998
0.025320999 0.086274996 0.032788999
0.028969999 0.091145001 0.034318
0.02014 0.086324997 0.037016999
0.039196 0.12177 0.054302
0.035964001 0.12188 0.057470001
0.033771999 0.12101 0.058931999
0.033160001 0.12709001 0.062259
0.031606998 0.12183 0.06112
0.031835999 0.12215 0.060318001
0.0059377002 0.094299003 0.05339
0.0024035999 0.090751 0.052331999
0.0030380001 0.090108 0.052143998
0.029836001 0.12771 0.065927997
0.027765 0.12499 0.065295003
0.023409 0.1274 0.069780998
0.021877 0.13225999 0.076139003
0.019614 0.13286 0.077691004
0.019014001 0.13266 0.077992
0.013712 0.13602 0.084004
0.012517 0.13569 0.084790997
-0.0095034 0.10632 0.073469996
0.013497 0.13653 0.086501002
0.0092152003 0.13654 0.08828
-0.012467 0.10629 0.076141998
-0.013926 0.10696 0.077468
-0.015194 0.10536 0.078218997
-0.0013154 0.13908 0.096625999
0.0033952 0.14809 0.10065
0.004069 0.14704999 0.10032
-0.0013894 0.1418 0.098410003
-0.024394 0.11605 0.091006003
-0.0022563001 0.14918 0.10706
-0.011432 0.14014 0.1038
-0.035679001 0.10666 0.090667002
-0.036656 0.10516 0.090195999
-0.038026001 0.10482 0.091261998
-0.037108 0.10688 0.091301002
-0.038529001 0.10644 0.092425004
-0.037914999 0.10817 0.092743002
-0.013957 0.14033 0.10446
-0.038467001 0.10805 0.093140997
-0.039682001 0.10744 0.092726998
-0.028788 0.12134 0.098433003
-0.0063299998 0.1515 0.11044
-0.0075492002 0.15119 0.11182
-0.040171001 0.10831 0.093938001
-0.040305998 0.10773 0.093818001
-0.040555 0.10862 0.095233001
-0.040015999 0.10933 0.096213996
-0.017346 0.14095999 0.10735
-0.032272 0.12329 0.10361
-0.034395002 0.12537 0.1065
-0.034198001 0.12572999 0.10616
-0.043512002 0.11195 0.10104
-0.021356 0.14368001 0.11351
-0.044957999 0.11415 0.10334
-0.038763002 0.12387 0.10694
-0.038481001 0.12357 0.10758
-0.039501999 0.12345 0.10799
-0.046656001 0.11519 0.10369
-0.020351 0.15222 0.12021
-0.021655999 0.15279999 0.12141
-0.022844 0.1488 0.1188
-0.046971001 0.11691 0.10687
-0.02423 0.14973 0.12102
-0.052382 0.1134 0.10642
-0.044922002 0.12236 0.10909
-0.047793999 0.12161 0.11219
-0.031198001 0.15985 0.13485999
-0.063785002 0.11752 0.12003
-0.057967 0.13093001 0.12668
-0.037806999 0.16187 0.14009
-0.045148 0.15445 0.13864
-0.042202 0.16013999 0.14218
-0.041063 0.16249999 0.1417
-0.046666998 0.15669 0.14111
-0.070247002 0.12723 0.13145
-0.074807003 0.12492 0.13277
-0.079057999 0.12182 0.13221
-0.077715002 0.12640999 0.13465001
-0.079797 0.12331 0.13343
-0.079213999 0.12587 0.13576999
-0.050482001 0.16652 0.15241
-0.053679001 0.16537 0.15248001
-0.056503002 0.1684 0.15674999
-0.060803 0.16399001 0.15528999
-0.060105 0.16313 0.15579
0.042952999 0.079984002 0.016499
0.042057998 0.081150003 0.018347001
0.065944999 0.11446 0.030698
0.068966001 0.12034 0.035657998
0.040980998 0.083191 0.021090001
0.061843999 0.10918 0.032623999
0.062959999 0.11097 0.032320999
0.031042 0.070635997 0.016403999
0.067336999 0.12473 0.040148001
0.065338001 0.1247 0.040444002
0.063166 0.12486 0.041575
0.057184 0.12349 0.045968
0.058109 0.12374 0.046383001
0.021485001 0.076664001 0.028229
0.021535 0.077266 0.028955
0.033316001 0.096320003 0.036587998
0.038814001 0.10283 0.038582001
0.042465001 0.10822 0.042010002
0.044155002 0.10998 0.041749001
0.032382 0.095078997 0.036959
0.030518999 0.093216002 0.035597999
0.025367999 0.090807997 0.039469
0.029301999 0.098043002 0.041138001
0.017808 0.082456 0.035661001
0.016749 0.083378002 0.035705999
0.030053999 0.10109 0.045239002
0.040465001 0.12331 0.054822002
0.0141 0.089395002 0.043157
0.010021 0.088657998 0.045221001
0.032997001 0.122 0.059595998
0.029765001 0.12422 0.063281998
0.0038496 0.092128001 0.052877001
0.027372999 0.12526 0.065920003
0.029278999 0.12904 0.067671001
0.023995001 0.13107 0.072899997
0.021886 0.13194001 0.076466002
-0.0036211 0.10318 0.067445002
-0.0051834998 0.10244 0.068861999
-0.0050373999 0.10335 0.068602003
0.014103 0.13610999 0.084468
0.014714 0.13542999 0.082881004
0.012612 0.13706 0.086361997
0.011803 0.13725001 0.085225999
0.011611 0.13726 0.086863004
0.010437 0.13684 0.087674998
-0.010111 0.1068 0.074656002
-0.011311 0.10603 0.075612999
-0.020103 0.10168 0.076201998
-0.018893 0.11186 0.084724002
0.0056721 0.14776 0.098711997
0.0050198999 0.14681 0.099565998
0.0062718 0.14624 0.098301999
-0.020361001 0.11224 0.085438997
-0.021036999 0.11169 0.086575001
-0.020688999 0.11147 0.084408
-0.0012947 0.13824999 0.095531002
0.0041684001 0.14788 0.10038
-0.00021863999 0.14068 0.097682998
0.0018848 0.14623 0.10138
-0.0027308001 0.14122 0.099266998
-0.0032536001 0.14081 0.10055
-0.023556 0.11419 0.089368999
-0.0083897002 0.14026 0.10149
-0.024396 0.11695 0.093668997
-0.026262 0.11824 0.096536003
-0.035468001 0.10524 0.088916004
-0.027551999 0.12035 0.097037002
-0.0045642001 0.15152 0.11004
-0.015794 0.1398 0.10794
-0.040561002 0.10757 0.094888002
-0.0085981004 0.15267999 0.11303
-0.032354001 0.12221 0.1017
-0.0089488998 0.15007 0.11248
-0.040392999 0.11082 0.097148001
-0.0096979002 0.15200999 0.11496
-0.033610001 0.12425 0.10336
-0.033004999 0.12504999 0.10519
-0.033876002 0.12217 0.10374
-0.033071 0.12282 0.10242
-0.018044 0.14306 0.11122
-0.018803 0.14297 0.11144
-0.02 0.14329 0.11291
-0.041949 0.11121 0.1003
-0.043761998 0.11195 0.10104
-0.015660999 0.15137 0.11649
-0.014986 0.15142 0.11659
-0.034603 0.12281 0.10466
-0.035967998 0.12311 0.10583
-0.035399999 0.12426 0.1067
-0.033753 0.12446 0.10546
-0.036325999 0.12488 0.10673
-0.014935 0.15172 0.11776
-0.016457001 0.15204 0.11714
-0.037429001 0.12436 0.1063
-0.046633001 0.11194 0.10242
-0.019306 0.15154 0.11998
-0.022311 0.14662001 0.1173
-0.020978 0.14803 0.11922
-0.046889 0.11553 0.10583
-0.042188 0.1229 0.10938
-0.022934999 0.15023001 0.12069
-0.043341 0.12187 0.10946
-0.019843001 0.15622 0.12452
-0.048115 0.11772 0.10851
-0.046739001 0.12017 0.11049
-0.047118001 0.12059 0.11119
-0.044149999 0.12089 0.10974
-0.048902001 0.1195 0.11156
-0.047855999 0.13699999 0.12476
-0.042578001 0.14629 0.12931
-0.053514 0.13302 0.12527999
-0.068132997 0.11819 0.12274
-0.038755 0.16204999 0.14117
-0.046213001 0.15536 0.13964
-0.043120999 0.16145 0.14207
-0.044408001 0.1601 0.14258
-0.075447999 0.12053 0.12842999
-0.073214002 0.1266 0.13219
-0.077315003 0.12163 0.13001999
-0.077802002 0.12224 0.13112
-0.075988002 0.12559 0.13417
-0.082225002 0.12162 0.13501
-0.051734 0.16539 0.15245999
-0.048517998 0.16821 0.15316001
-0.080518 0.12739 0.13821
-0.055796999 0.16536 0.15237001
-0.057438001 0.16403 0.15403
-0.057119999 0.16250999 0.15487
-0.086923003 0.12519 0.14038
-0.082231998 0.13268 0.14387999
-0.082258999 0.13288 0.14475
0.039648 0.074034996 0.015969001
0.040054001 0.075428002 0.016223
0.068994001 0.11708 0.033126999
0.065003999 0.11131 0.032116
0.063017003 0.11163 0.030689999
0.058231998 0.10655 0.029913999
0.042072002 0.082208 0.022583
0.041055001 0.081832998 0.021491
0.046032999 0.088271998 0.024319001
0.050452001 0.097786002 0.026815001
0.055927999 0.10274 0.029790999
0.031962998 0.069445997 0.016581999
0.032437999 0.070448004 0.016621999
0.068593003 0.12257 0.040243
0.063919 0.12451 0.043147001
0.024826 0.073945999 0.024003999
0.059627 0.1226 0.043343
0.061055999 0.12295 0.044849001
0.021201 0.075167999 0.028697999
0.055491 0.12478 0.048094999
0.020881999 0.077744 0.029972
0.05477 0.123 0.048797999
0.055518001 0.12426 0.048147
0.022612 0.079852 0.031573001
0.025353 0.084613003 0.032499
0.026495 0.087552004 0.033578001
0.033326 0.10319 0.044335999
0.033562999 0.10346 0.044817999
0.031445999 0.10258 0.043308001
0.016762 0.084490001 0.039106999
0.038431998 0.12106 0.055645999
0.036904 0.11844 0.055055
0.042722002 0.12666 0.059413999
0.015364 0.087962002 0.044394001
0.014755 0.088748001 0.044376999
0.014812 0.090066999 0.045391001
0.041299999 0.12695 0.059416
0.034357 0.12271 0.059526
0.0095918002 0.087413996 0.046432
0.010261 0.086795002 0.045281
