# .PCD v0.7 - Point Cloud Data file format
VERSION 0.7
FIELDS x y z
SIZE 4 4 4
TYPE F F F
COUNT 1 1 1
WIDTH 1537
HEIGHT 1
VIEWPOINT 0 0 0 1 0 0 0
POINTS 1537
DATA ascii
0.11291 0.089088 0.050748002
0.16312 0.10939 0.036651999
0.10802 0.088559002 0.066247001
0.10786 0.088973999 0.066022001
0.074455 0.035514001 0.059526999
0.074974999 0.035558999 0.060079001
0.075185999 0.034134001 0.060274001
0.15396 0.067656003 0.0088887
0.15278 0.068815 0.0082205003
0.15256999 0.068423003 0.0081631001
0.15683 0.097675003 0.0024939999
0.093797997 0.091976002 0.064153001
0.11083 0.096313 0.020234
0.16500001 0.13095 -0.013693
0.16656999 0.13119 -0.013142
0.15524 0.11926 0.036637999
0.1627 0.1266 0.017609
0.13271999 0.077610001 0.063385002
0.12713 0.081380002 0.067929998
0.12569 0.079611003 0.070564002
0.11637 0.056701999 0.051534999
0.14684001 0.046590999 -0.0049776998
0.12566 0.089799002 0.014382
0.072702996 0.063309997 0.12748
0.073242001 0.061446 0.12817
0.14669 0.050689001 -0.00055676
0.11831 0.072190002 0.070298001
0.047777999 0.081335001 0.062442001
0.082464002 0.042975001 0.051773001
0.099611998 0.081187002 0.075225003
0.1006 0.083299004 0.076044001
0.098250002 0.083540998 0.076011002
0.029558999 0.079782002 0.056230001
0.19126999 0.14161 0.018135
0.12266 0.084994003 0.050957002
0.11955 0.084817998 0.049727
0.18804 0.13287 0.016918
0.18713 0.13112 0.016286001
0.17948 0.13862 0.032777
0.17924 0.13812 0.033070002
0.149 0.10988 0.036412001
0.14797001 0.046939999 -0.0061402
0.099040002 0.091358997 0.012222
0.098431997 0.090637997 0.010143
0.081901997 0.047614001 0.060557999
0.095512003 0.091273002 0.056929
0.11504 0.095733002 -0.0029758001
0.17801 0.13260999 0.026466001
0.076350003 0.046038002 0.05875
0.073735997 0.045811001 0.058006
0.075531997 0.046514001 0.057027001
0.17219999 0.12298 0.0086110001
0.17253999 0.12226 0.0085388003
0.15667 0.051052999 -0.0033362
0.15744001 0.050034001 -0.0029998999
0.064778 0.083067 0.059393
0.070198998 0.054079 0.070674002
0.069412999 0.053791001 0.070634998
0.14955001 0.072639003 0.0068148002
0.14813 0.07254 0.0065922998
0.052262001 0.070719004 0.066978998
0.079180002 0.089997001 0.058515999
0.059053 0.079928003 0.059287999
0.092445001 0.090928003 0.064829998
0.13292 0.056713 0.031961001
0.089984998 0.091393001 0.061455999
0.078234002 0.049543001 0.056469999
0.077469997 0.052088 0.055298999
0.060679 0.0513 0.069734
0.060747001 0.05057 0.069509
0.15395001 0.095293 0.033450998
0.055741999 0.056402002 0.082304999
0.10747 0.11226 -0.0087168003
0.10643 0.11262 -0.0093529997
0.15872 0.086176001 0.021312
0.1587 0.086171001 0.020852
0.066264004 0.071249001 0.071349002
0.066861004 0.072306998 0.072567001
0.15958001 0.083931997 0.015273
0.16539 0.12857001 0.00077535002
0.16407 0.1296 -0.0019469
0.11602 0.08952 0.030277001
0.1168 0.089038998 0.029835001
0.11745 0.094525002 0.021589
0.11884 0.094848998 0.024010001
0.17786001 0.12668 0.033217002
0.17704999 0.12542 0.034680001
0.082796998 0.079372004 0.048289999
0.13323 0.063796997 0.014602
0.085231997 0.090145998 0.061988998
0.1838 0.13305999 0.021274
0.068405002 0.050939001 0.086436003
0.067732997 0.050581999 0.085363001
0.13789999 0.083292998 0.034347001
0.13557 0.086474001 0.0028321999
0.15748 0.059957001 0.018463001
0.15764999 0.060761999 0.019323001
0.1814 0.097349003 0.043733001
0.053858999 0.057390001 0.067411996
0.12196 0.059424002 0.061243001
0.12284 0.061145999 0.062431
0.077214003 0.089515001 0.058830999
0.063828997 0.055466998 0.11051
0.062714003 0.055640001 0.11028
0.062499002 0.080512002 0.055865999
0.063823 0.079622999 0.057213001
0.064324997 0.080936 0.057041001
0.12274 0.10335 -0.0079859998
0.13153 0.080884002 0.046192002
0.075661004 0.063658997 0.052971002
0.070001997 0.052131001 0.1244
0.10328 0.089092001 0.082267001
0.14466 0.075273 0.034395002
0.10233 0.070821002 0.049892001
0.10252 0.069358997 0.051723
0.17795999 0.10538 0.037299
0.1769 0.10546 0.036601
0.1771 0.10698 0.038518999
0.10633 0.073054001 0.072628997
0.10841 0.073031999 0.073918998
0.15775 0.12295 0.028399
0.15855999 0.12251 0.029224001
0.16084 0.12232 0.029107001
0.097847998 0.087909997 0.0081722997
0.097579002 0.088225 0.0084996996
0.16819 0.12788001 0.016898001
0.11711 0.094720997 0.027141999
0.11638 0.093750998 0.028657001
0.11255 0.084053002 0.077486001
0.11618 0.074683003 0.0294
0.11619 0.075492002 0.028169001
0.13731 0.058182999 0.024114
0.13789999 0.059119001 0.025954001
0.17283 0.13696 0.016671
0.1548 0.068320997 0.017339
0.15481 0.068305001 0.015431
0.15603 0.070086002 0.016847
0.16807 0.13537 0.020757999
0.13846 0.089038998 0.0034926001
0.056827001 0.078029998 0.059496999
0.13855 0.070683002 0.050999001
0.087330997 0.064902999 0.061174002
0.087503999 0.065133996 0.060189001
0.088691004 0.045375999 0.046696998
0.12967999 0.056040999 0.029306
0.072072998 0.056260999 0.11111
0.17745 0.13191999 0.028286001
0.17439 0.12729999 0.012581
0.066745996 0.035652 0.054364
0.12354 0.088246003 0.014661
0.12299 0.088923 0.016217999
0.079874001 0.034483999 0.045232002
0.081364997 0.034157999 0.043134999
0.053146001 0.054590002 0.078409001
0.12683 0.056531999 0.035803001
0.12771 0.055813 0.035108998
0.17844 0.14177001 0.030032
0.17959 0.1427 0.029075
0.13392 0.10295 0.013159
0.13423 0.097554997 0.013031
0.10706 0.10571 0.0017407
0.10801 0.10357 0.00091422
0.14823 0.044220999 0.0092786001
0.14894 0.042854 0.0086466996
0.067861997 0.067890003 0.079961002
0.18483 0.13679001 0.010019
0.18495999 0.13658001 0.0099531999
0.19230001 0.13044 0.027726
0.1583 0.069957003 -0.018493
0.15806 0.071695 -0.017727001
0.079919003 0.049922999 0.071001999
0.076008998 0.087047003 0.065335996
0.075184003 0.085955001 0.065912999
0.11945 0.058596 0.037749
0.11777 0.058635 0.038086001
0.11417 0.089183003 0.00074463
0.11293 0.090410002 0.0015722
0.11258 0.089731999 0.00075317
0.16707 0.089171 0.017494
0.16884001 0.091286004 0.016597001
0.16951001 0.092090003 0.016605999
0.186 0.12067 0.028777
0.099783003 0.085772 0.077514999
0.1001 0.085362002 0.078653999
0.17832001 0.11029 0.032428
0.17896999 0.10694 0.034825999
0.12926 0.083521999 0.039606001
0.096621998 0.084406003 0.077620998
0.10489 0.071872003 0.071900003
0.10575 0.070660003 0.071203999
0.16522001 0.11293 0.040236
0.16331001 0.13105001 0.022657
0.16367 0.13057999 0.022543
0.14419 0.11122 0.040263999
0.072029002 0.055652 0.111
0.071837999 0.054830998 0.11276
0.17346001 0.11814 0.040509
0.11393 0.074501999 0.073406003
0.11146 0.075787 0.072906002
0.17371 0.10526 0.020160999
0.18186 0.14117 0.027726
0.092156999 0.086337999 0.01459
0.12077 0.086122997 0.049725998
0.080224 0.045820002 0.060242999
0.10199 0.087985002 0.017958
0.10229 0.088578001 0.017669
0.10183 0.090625003 0.019711999
0.060268998 0.064925998 0.078763001
0.060198002 0.063707002 0.079049997
0.17049 0.099912003 0.017573001
0.17114 0.10107 0.015854999
0.091427997 0.051082 0.036922
0.092358001 0.052191 0.034841999
0.13853 0.10369 0.020878
0.1382 0.10345 0.022172
0.13872001 0.10398 0.020056
0.15288 0.12047 0.022314999
0.16254 0.10656 0.036100999
0.086864002 0.047975 0.043584999
0.086916 0.049010001 0.041999999
0.11449 0.096267998 -0.0052324999
0.11413 0.097322002 -0.0042454
0.13233 0.096496999 0.012787
0.11134 0.088423997 0.049598001
0.10928 0.094293997 0.01402
0.18763 0.12552001 0.025919
0.18881001 0.1251 0.027039001
0.14709 0.091360003 0.0019904
0.14568999 0.090659998 0.00010229
0.14545 0.090701997 0.0027445001
0.045474 0.092533 0.047001999
0.042952999 0.091995001 0.047582999
0.082281999 0.042925999 0.069265001
0.083003998 0.040245 0.068085998
0.15098 0.085132003 0.028361
0.13557 0.084953003 0.034201998
0.15671 0.050154999 0.0064980998
0.14952999 0.10193 0.030506
0.082905002 0.081647001 0.047905002
0.082579002 0.081196003 0.048471
0.096793003 0.043101002 0.034625001
0.142 0.080637999 0.040780999
0.089243002 0.034348998 0.041529
0.047754001 0.094136998 0.046572
0.1174 0.081579998 0.042013999
0.11848 0.081403002 0.040483002
0.082367003 0.040380001 0.055217002
0.080802999 0.040520001 0.056061
0.17038999 0.1293 0.0025728
0.16879 0.13053 0.0019131
0.12421 0.072283998 0.067488
0.12393 0.072618999 0.067291997
0.13818 0.081187002 0.048416998
0.13702001 0.080615997 0.049570002
0.18521 0.12378 0.030618001
0.057301 0.090655997 0.044576999
0.16744 0.064638004 -0.021623001
0.16075 0.11619 0.048542
0.068455003 0.030617001 0.054816
0.10063 0.090227 0.068651997
0.15741 0.085184999 0.0061161998
0.13637 0.084498003 0.033167999
0.13410001 0.083264001 0.035372999
0.17668 0.1049 0.038504999
0.11155 0.060332 0.053649999
0.11284 0.059813999 0.054471001
0.11152 0.061864 0.054494999
0.14613999 0.052322 0.013671
0.17979001 0.11843 0.024367999
0.1804 0.11886 0.024349
0.12725 0.055886 0.039958
0.17374 0.10573 0.038603
0.047476001 0.073916003 0.072270997
0.042194001 0.072324999 0.066578999
0.13134 0.061082002 0.018695001
0.13185 0.062839001 0.016121
0.19208001 0.13865 0.017727001
0.19117001 0.13862 0.019727999
0.067603 0.060415 0.11741
0.17861 0.12526 0.019556999
0.17815 0.092666999 0.043187
0.18061 0.092081003 0.043051999
0.15154999 0.063097 0.0065319999
0.15102001 0.063369997 0.0056544002
0.13456 0.090939 0.032327
0.13567001 0.090122998 0.02971
0.16883001 0.10203 0.011196
0.034949999 0.084844999 0.052072
0.035363 0.085495003 0.052390002
0.074845001 0.068619996 0.10216
0.10419 0.085855998 0.017034
0.062849 0.058115002 0.10035
0.16203 0.093016997 0.022847001
0.15965 0.092556 0.025315
0.072626002 0.05748 0.055326998
0.12713 0.071462996 0.065516002
0.12089 0.09048 0.016184
0.11984 0.090267003 0.016790001
0.11968 0.091638997 0.016979
0.083048001 0.066785 0.12343
0.077861004 0.062348001 0.11738
0.095283002 0.048043001 0.033583
0.095945001 0.048471998 0.032958999
0.14985999 0.097847998 0.031686999
0.068264 0.051259998 0.12671
0.048152 0.093510002 0.037974998
0.15228 0.074326999 0.022542
0.12048 0.10834 -0.013763
0.12023 0.11006 -0.013933
0.12011 0.10955 -0.013605
0.19009 0.14142001 0.019104
0.15951 0.091397002 0.0057403999
0.15945999 0.092154004 0.0053817001
0.15916 0.093616001 0.0050893999
0.14300001 0.086282 0.033266
0.14202 0.086318001 0.031897001
0.14274999 0.086549997 0.033852
0.11007 0.094830997 0.025291
0.087853998 0.088583 0.050871
0.14658 0.045612 -0.0032784999
0.1612 0.084761001 0.013881
0.15932 0.085084997 0.013452
0.16135 0.087178998 0.012092
0.043940999 0.077743001 0.050501999
0.043288 0.078745998 0.049807001
0.041990999 0.078170002 0.050748002
0.086071998 0.072539002 0.12287
0.11549 0.059092 0.047981001
0.07023 0.066047996 0.085345
0.069216996 0.065729998 0.084656
0.077772997 0.060885999 0.12007
0.078028999 0.062604003 0.12076
0.14567 0.080323003 0.047626998
0.14572001 0.081412002 0.047214001
0.14606 0.082579002 0.047722001
0.1137 0.097612999 0.0059984
0.15384001 0.066564001 0.011773
0.11771 0.10479 -0.0036722
0.083333999 0.044023 0.073925003
0.18728 0.14121 0.0065102
0.1627 0.11934 0.047513999
0.16332 0.11943 0.046347
0.17016 0.095650002 0.019757999
0.11871 0.083378002 0.029790999
0.11774 0.084518 0.029556001
0.13177 0.064268999 0.012673
0.13150001 0.065329999 0.012745
0.087889999 0.079452999 0.076348998
0.087820999 0.081867002 0.074481003
0.085570998 0.082029998 0.075709999
0.14557999 0.051454 0.0022183999
0.15281001 0.047657002 -0.0023582
0.1866 0.14353 0.027888
0.18808 0.14549001 0.026552999
0.18759 0.14473 0.026411001
0.075087003 0.036431 0.063358001
0.093686998 0.071610004 0.070110001
0.050898001 0.098806001 0.039976001
0.050875999 0.098890997 0.041437998
0.089883 0.065444998 0.060520999
0.089911997 0.066042997 0.058883
0.091637 0.066633999 0.060550999
0.19102 0.13954 0.01914
0.1429 0.10093 0.027942
0.038865998 0.077473998 0.058345001
0.036362998 0.079106003 0.056437001
0.15200999 0.11631 0.050400998
0.15360001 0.11702 0.052081998
0.10846 0.085888997 0.0078635002
0.1071 0.087332003 0.0072311
0.11026 0.087199003 0.0074570999
0.12479 0.075907998 0.0099128
0.11133 0.084803998 0.0704
0.11136 0.085483998 0.069058999
0.18944 0.13707 0.023945
0.081362002 0.046684001 0.067094997
0.053950001 0.061889 0.062542997
0.061151002 0.062245 0.087282002
0.16275001 0.12813 -0.011075
0.16373 0.12746 -0.011396
0.10277 0.091192998 0.0027637
0.10282 0.092582002 0.0041145999
0.064398997 0.067786999 0.078567997
0.13270999 0.064975999 0.059002001
0.13083 0.078479998 0.064919002
0.14314 0.05855 0.011143
0.1436 0.060733002 0.010319
0.10598 0.090811998 0.05266
0.15164 0.050115 0.014928
0.14993 0.049162999 0.014708
0.14881 0.094025999 0.030711001
0.14839999 0.095192999 0.031196
0.16632 0.062337 -0.022697
0.14924 0.045101002 0.0052634999
0.14638001 0.045933999 0.0051744999
0.098228 0.067071997 0.053013999
0.079213001 0.073119 0.047917999
0.16043 0.11103 0.0073505999
0.13895001 0.062660001 0.01416
0.13011 0.061448 0.053456999
0.13992 0.10525 0.01298
0.14026999 0.10664 0.012634
0.14582001 0.075932004 0.031156
0.14538001 0.075363003 0.032652002
0.12893 0.083299004 0.0073430999
0.072558999 0.045224998 0.059356
0.11871 0.094351001 0.02352
0.065246001 0.080261998 0.053296
0.056697 0.099063002 0.033902001
0.056037001 0.10023 0.032288998
0.055893 0.099991001 0.033217002
0.087379001 0.088345997 0.070003003
0.16709 0.12802 0.016851
0.12893 0.057898 0.028113
0.090891004 0.092715003 0.061407
0.079668999 0.075340003 0.047541998
0.082629003 0.038401 0.042126
0.12242 0.092246003 0.017170001
0.12142 0.089299001 0.015108
0.1212 0.088376001 0.016883999
0.11511 0.09471 0.016026
0.18308 0.13481 0.0094913002
0.047463998 0.078665003 0.069721997
0.068019003 0.063132003 0.10881
0.14803 0.10798 0.028138001
0.14906 0.10736 0.029028
0.19016001 0.14113 0.0098406002
0.19035999 0.13876 0.0092500998
0.1903 0.14083 0.0084009003
0.11916 0.080292001 0.016138
0.11784 0.080748998 0.018451
0.15907 0.11772 0.057635002
0.17640001 0.052166 -0.024360999
0.15918 0.10039 0.033659
0.1706 0.098719999 0.035606999
0.17012 0.099278003 0.036646001
0.16965 0.099973001 0.035282001
0.0605 0.080595002 0.063248999
0.061092 0.079075001 0.063285999
0.079935998 0.047798999 0.059891999
0.080821 0.049219999 0.059005
0.066155002 0.048117001 0.072392002
0.066638999 0.050188001 0.074562997
0.065525003 0.049116999 0.073132001
0.15346 0.064891003 0.0080589
0.15360001 0.063170999 0.0074280999
0.15293001 0.063975997 0.0069166999
0.12009 0.10128 -0.011281
0.12021 0.10295 -0.010963
0.11611 0.078019999 0.029591
0.11726 0.078557 0.030886
0.18980999 0.13996001 0.028144
0.098228 0.090971999 0.0071727
0.080649003 0.06549 0.052880999
0.079177 0.067374997 0.052754
0.080453001 0.066647001 0.052869
0.16046 0.12661 0.013334
0.12973 0.057746999 0.024180001
0.16647001 0.10255 0.0098682996
0.16629 0.1031 0.0087497002
0.14924 0.10991 0.034548
0.090581 0.050889 0.032788001
0.091540001 0.048452999 0.032111
0.11629 0.059218999 0.057498999
0.13763 0.10747 0.016773
0.067624003 0.050631002 0.086107001
0.098797001 0.088591002 0.069792002
0.069706999 0.059021998 0.096562997
0.070087999 0.059526999 0.095128
0.053973 0.073628001 0.053247999
0.1127 0.073220998 0.041214
0.11176 0.074804001 0.042286001
0.11212 0.075528003 0.040821001
0.15622 0.057633001 -0.0031566001
0.15606999 0.059966002 -0.0034930001
0.13576999 0.072075002 0.054912999
0.13591 0.071023002 0.055868
0.18357 0.14947 0.017848
0.15545 0.073950998 0.015239
0.15575001 0.072483003 0.01567
0.14308 0.060348999 0.011801
0.14242999 0.061276998 0.012511
0.14587 0.081206001 0.002783
0.074372001 0.059877999 0.10567
0.076452002 0.044753999 0.058134999
0.075805999 0.042955998 0.057980999
0.18218 0.12535 0.020602999
0.18266 0.1259 0.01929
0.080913998 0.085231997 0.051490001
0.079556003 0.086147003 0.051205002
0.10729 0.10612 -0.0051222001
0.1075 0.10492 -0.0052820998
0.17749999 0.13132 0.017553
0.13795 0.098222002 0.032143001
0.074224003 0.070757002 0.078512996
0.073164001 0.070308 0.079701997
0.072667003 0.069471002 0.078812003
0.064235002 0.079636998 0.065848
0.063932002 0.079089001 0.064801
0.152 0.12028 0.015585
0.15146001 0.12098 0.015663
0.15879001 0.10672 0.0056461999
0.15685 0.10776 0.0071031
0.061884999 0.070548996 0.071157001
0.062263001 0.072747 0.070572004
0.15553001 0.11577 0.060888
0.16299 0.10326 0.0064328001
0.18144 0.1226 0.018818
0.18322 0.12331 0.018425999
0.18216 0.12201 0.019083999
0.15497001 0.087397002 0.033169001
0.15101001 0.10903 0.028968999
0.14929999 0.10911 0.02899
0.097432002 0.089299999 0.0081057996
0.083332002 0.068016 0.123
0.085068002 0.067541003 0.1228
0.084577002 0.067762002 0.1247
0.10357 0.095187999 0.0016396
0.099421002 0.087823004 0.0092916004
0.065798998 0.066664003 0.078782998
0.18018 0.13397001 0.023567
0.18091001 0.1367 0.022559
0.068485998 0.058805 0.098958999
0.17698 0.12557 0.036465
0.17549001 0.12593 0.035781998
0.17426001 0.096842997 0.033482
0.17544 0.097433001 0.034977
0.13618 0.058449998 0.034207001
0.040720999 0.078276999 0.066495001
0.13277 0.080142997 0.063755997
0.12769 0.077055998 0.065706998
0.13562 0.057333 0.037349001
0.12879001 0.059254002 0.053219002
0.15775 0.088735998 0.023624999
0.12961 0.094838001 0.019458
0.12943999 0.09437 0.021457
0.098057002 0.091357 0.0081713004
0.034015998 0.079911001 0.056637999
0.032522 0.080399998 0.057989001
0.17114 0.13118 0.028023001
0.14967 0.060687002 0.017712999
0.056727 0.086664997 0.038105998
0.12071 0.081251003 0.033746
0.11934 0.083127998 0.032832999
0.12702 0.074675001 0.0073714
0.17137 0.10107 0.040605001
0.17196 0.10057 0.039726
0.17203 0.098217003 0.040267002
0.057634 0.072117999 0.068728998
0.070711002 0.059200998 0.085272998
0.071185999 0.060332999 0.087590002
0.078107998 0.066878997 0.052852001
0.17725 0.11773 0.021489
0.17935 0.11766 0.022476999
0.11413 0.064703003 0.066628002
0.063074 0.053467002 0.10005
0.087222002 0.084794 0.050522
0.15583999 0.052932002 0.019929999
0.099858001 0.077684 0.049307
0.17188001 0.12988999 0.040231001
0.17089 0.13014001 0.042332999
0.17122 0.1309 0.042318001
0.075962 0.081266999 0.071799003
0.13147999 0.056938998 0.038945001
0.12503 0.092074998 0.019192999
0.16015001 0.10555 0.032598
0.16173001 0.1056 0.032678999
0.1619 0.10521 0.03359
0.068348996 0.04865 0.092694998
0.066188999 0.047711998 0.091236003
0.063253999 0.080078997 0.055452999
0.093267001 0.039739002 0.033057
0.075668998 0.063885003 0.10895
0.075212002 0.064340003 0.10925
0.17491999 0.14354999 0.018788001
0.17569999 0.1433 0.019947
0.1762 0.14467999 0.018839
0.15696999 0.10817 0.036031999
0.14535999 0.082771003 0.046787001
0.14494 0.083890997 0.047740001
0.11677 0.060322002 0.039480001
0.17523 0.092827 0.041772999
0.16768999 0.059436999 -0.014853
0.11951 0.083752997 0.068931997
0.11031 0.095256001 0.0095477998
0.11186 0.092817999 0.0089066001
0.11216 0.094782002 0.0083355997
0.11159 0.069091 0.041250002
0.14323001 0.046411 0.0010010001
0.14192 0.046723001 0.00046996001
0.034704 0.077565998 0.055654
0.033101998 0.077386998 0.056200001
0.11698 0.076791003 0.032814998
0.11601 0.078189 0.036494002
0.065600999 0.048918001 0.071046002
0.065711997 0.048666 0.070840999
0.066024996 0.049017001 0.069302998
0.13569 0.096345998 0.030126
0.13496999 0.094553001 0.030920999
0.13603 0.095109001 0.031677999
0.063236997 0.053964 0.10158
0.12543 0.059377 0.056375999
0.12557 0.059149999 0.055994
0.089562997 0.069688 0.069306999
0.089359999 0.069977 0.067607
0.18626 0.13752 0.028918
0.17798001 0.093275003 0.041267999
0.070188999 0.052668002 0.12471
0.093238004 0.069441997 0.067451
0.092579 0.069672003 0.066909
0.080684997 0.065959997 0.1257
0.15298 0.063235 0.0062071998
0.074153997 0.086515002 0.063371003
0.074693002 0.086630002 0.063928001
0.17838 0.10708 0.034008
0.15571 0.059730999 0.01014
0.16107 0.054278001 -0.0075233998
0.17262 0.052344002 -0.019441999
0.15046 0.069439001 0.0061277999
0.10953 0.11174 -0.0036446
0.042858999 0.090357997 0.048694
0.16291 0.12892 -0.010803
0.14838 0.10679 0.030572001
0.15008 0.081437998 0.031231999
0.15097 0.083430998 0.030404
0.16958 0.096974 0.026554
0.053204998 0.066174999 0.065964997
0.053706001 0.067014001 0.066546001
0.080357 0.039857998 0.042052999
0.057388 0.051989 0.071924001
0.058104001 0.049764998 0.071676999
0.16892999 0.11796 -0.0016011
0.16897 0.11521 -0.0015181
0.15697999 0.065067999 -0.013577
0.15891001 0.087885998 0.0095699998
0.12074 0.082566999 0.033101998
0.04583 0.081225999 0.047115002
0.044895999 0.082098998 0.045476001
0.045017999 0.083191 0.044287
0.11171 0.093349002 0.0089079002
0.1125 0.093254 0.010892
0.13851 0.064351998 0.010113
0.14319 0.073366001 0.040341001
0.13268 0.084417999 0.0047197002
0.095703997 0.041182999 0.031941
0.14318 0.099441998 0.027812
0.15446 0.056705002 0.010241
0.15329 0.089020997 0.0039021999
0.1635 0.12871 0.014005
0.16255 0.12829 0.015338
0.11115 0.088794 0.014608
0.1098 0.086705998 0.014491
0.11176 0.089197002 0.013137
0.17682999 0.14414001 0.014578
0.077871002 0.062661 0.11238
0.076535001 0.060378999 0.11285
0.14469001 0.11373 0.015026
0.1037 0.096254997 0.012714
0.10264 0.096257001 0.011255
0.13389 0.065863997 0.056561001
0.13344 0.068067998 0.055969
0.080986999 0.051916 0.057821002
0.15778001 0.10249 0.0052709002
0.15082 0.088898003 0.0020987
0.15244 0.115 0.052871
0.13468 0.10575 0.016295999
0.15301 0.044920001 0.0064551998
0.15422 0.046254002 0.0058208001
0.063611999 0.058265999 0.11319
0.062808998 0.059629999 0.11138
0.060922999 0.058997001 0.11137
0.095976003 0.085211001 0.049295001
0.093639001 0.085454002 0.048007999
0.15638 0.049102999 -0.012115
0.076493002 0.057751 0.12473
0.076635003 0.057688002 0.12684999
0.16279 0.11118 0.037117001
0.16258 0.10979 0.036242001
0.063726 0.035580002 0.056008
0.088500999 0.091000997 0.054784
0.090572 0.090829 0.052418001
0.16181999 0.091164 0.01037
0.15684 0.085063003 0.0057839002
0.15853 0.084592 0.0079554003
0.079209 0.088771001 0.065182
0.12952 0.081537001 0.040800001
0.13129 0.082258999 0.040406998
0.10053 0.090493001 0.011835
0.15267999 0.10319 0.032772001
0.080900997 0.059611 0.057285
0.094907001 0.093259998 0.060233001
0.095109999 0.093539 0.059953
0.070422001 0.051291 0.078231998
0.070984997 0.053031001 0.079581
0.069397002 0.050818 0.078212999
0.15866999 0.095154002 0.0037585001
0.15824001 0.094530001 0.0037847001
0.12608001 0.091609001 0.014657
0.1277 0.092952996 0.013534
0.066419996 0.081119999 0.058361001
0.098573998 0.090090998 0.053688999
0.15949 0.12587 -0.0037449
0.15448999 0.12227 0.026262
0.053828001 0.063979998 0.071330003
0.084495001 0.083158001 0.077420004
0.1035 0.086507998 0.072779998
0.10392 0.087196 0.073573001
0.12616999 0.082060002 0.067197002
0.16212 0.063265003 -0.0084948996
0.16204 0.061058 -0.0095472001
0.15379 0.089055002 0.027212
0.15433 0.090333 0.028043
0.16626 0.099058002 0.028326999
0.16608 0.1193 0.045963001
0.11984 0.075172 0.016340001
0.090829998 0.077504002 0.073370002
0.056457002 0.075461999 0.055112999
0.056765001 0.10194 0.031953
0.092991002 0.066840999 0.063170999
0.094869003 0.066858999 0.064264998
0.15967 0.12591 0.0014363
0.11289 0.087800004 0.049394999
0.13507 0.086882003 0.031723998
0.070427001 0.047811002 0.058382001
0.077133998 0.077435002 0.074827999
0.15449999 0.056699 0.020048
0.15497001 0.057946999 0.018886
0.15401 0.057294998 0.019366
0.062038999 0.061815999 0.086106002
0.13764 0.088149004 0.03115
0.096616998 0.088892996 0.068291999
0.096686997 0.089906 0.069003001
0.13495 0.072287001 0.056387
0.081804998 0.048556998 0.061760001
0.15354 0.11937 0.020137001
0.087991998 0.072612002 0.069789
0.14455 0.066841997 0.033378001
0.14474 0.068494998 0.032093
0.14529 0.077913001 0.034173001
0.17468999 0.097263999 0.030033
0.17351 0.099734999 0.032350998
0.14501999 0.10241 0.036502
0.14521 0.10233 0.035393
0.14670999 0.10355 0.036454
0.16838001 0.090891004 0.018015999
0.14541 0.10443 0.034899
0.14572001 0.048565 0.0079266997
0.13494 0.093768001 0.024009001
0.17814 0.10319 0.033163998
0.14944001 0.10675 0.0055811
0.13907 0.10934 0.023165001
0.061820999 0.053714 0.10376
0.061586998 0.053413998 0.10252
0.061758999 0.053688001 0.10531
0.13818 0.080422997 0.045423001
0.13617 0.10648 0.021051999
0.13617 0.10824 0.021483
0.16627 0.098274 0.023746001
0.09313 0.041235 0.044950001
0.063063003 0.087398 0.033659
0.061494999 0.088253997 0.033179
0.18114001 0.13610999 0.024104999
0.073105 0.031014999 0.052108999
0.072866 0.033171002 0.053746998
0.11432 0.062762 0.042996
0.075887002 0.034177002 0.04817
0.076291002 0.032830998 0.047834001
0.074603997 0.033828001 0.047958001
0.16937999 0.10693 0.012953
0.16879 0.095573999 0.024007
0.13485 0.082648002 0.036788002
0.15895 0.12067 0.05288
0.054745998 0.066408999 0.069239996
0.054200001 0.065591 0.069952004
0.054184999 0.066032998 0.070212997
0.1261 0.080893002 0.067511
0.18313999 0.14881 0.018515
0.15354 0.079016 0.0069873999
0.1077 0.11438 -0.0075768
0.18976 0.13706 0.015176
0.14183 0.067357004 0.041012999
0.079103 0.090947002 0.060277998
0.062366001 0.049931999 0.070704997
0.14544 0.10788 0.0086585004
0.14624 0.10767 0.0083574001
0.17883 0.12602 0.024250999
0.17936 0.12718 0.025343001
0.16468 0.053098999 -0.020316999
0.16562 0.051509 -0.018521
0.16501001 0.053346001 -0.019036001
0.076401003 0.066510998 0.11566
0.077528998 0.067803003 0.11578
0.12448 0.084513001 0.054822002
0.12464 0.0854 0.056465998
0.086066 0.076719999 0.074606001
0.084103003 0.076637 0.071739003
0.154 0.057771999 0.0047627999
0.14771 0.044128001 0.0082930997
0.16084 0.094292 0.0077211
0.052406002 0.098990001 0.038686998
0.052678 0.099850997 0.038113002
0.081165001 0.066541001 0.051592998
0.079406999 0.065123998 0.053001001
0.035312999 0.085372999 0.055589002
0.11453 0.062297001 0.036623001
0.11373 0.063216001 0.038302001
0.16281 0.13963 -0.010269
0.16982 0.11472 0.0049248999
0.13784 0.10087 0.021938
0.13941 0.10218 0.022544
0.13891999 0.10198 0.022377999
0.092621997 0.075142004 0.072196998
0.059160002 0.061292998 0.086018004
0.10805 0.08506 0.013686
0.10471 0.086007997 0.01417
0.17478999 0.095684998 0.046310998
0.17392001 0.096014 0.045649
0.048416 0.10003 0.035427999
0.048397999 0.10128 0.035271998
0.048021 0.10365 0.034152001
0.15349001 0.090278 0.030905001
0.17837 0.15095 0.0061618001
0.033944 0.084004998 0.054120999
0.15751 0.12954 -0.00021641
0.15764 0.13045999 0.0011793
0.11133 0.10442 -0.0068009999
0.11097 0.1026 -0.0050046998
0.11117 0.10316 -0.0073203002
0.16203 0.086707003 0.010322
0.16237999 0.12835 0.019293999
0.066889003 0.053268 0.10307
0.17686 0.1103 0.024057999
0.12982 0.070139997 0.062554002
0.13062 0.072645999 0.062095001
0.12998 0.071139999 0.062902004
0.15625 0.11841 0.045299001
0.15742999 0.11949 0.044323999
0.17723 0.12401 0.035843
0.14732 0.10521 0.03514
0.14453 0.10363 0.036157999
0.10533 0.084849 0.020443
0.16958 0.13119 0.019115999
0.15464 0.11863 0.051279999
0.10488 0.086828999 0.025121
0.16993 0.11385 0.0068398002
0.17123 0.11352 0.007367
0.15924001 0.12442 0.0078474004
0.16842 0.12756 0.015196
0.046551999 0.087730996 0.054729
0.045412 0.088062003 0.054306
0.077339999 0.077785 0.047874998
0.076645002 0.078748003 0.047414001
0.076880999 0.077982999 0.047885001
0.14518 0.091127999 0.032379001
0.14485 0.088581003 0.033263002
0.12191 0.056208 0.034747001
0.17513999 0.14326 0.020005999
0.17473 0.14375 0.021338001
0.17986999 0.13753 0.030689999
0.11487 0.062192999 0.036938
0.055271 0.072122 0.055429
0.083497003 0.045651 0.039356001
0.057494 0.10153 0.03311
0.073946998 0.063382998 0.099703997
0.074065998 0.063988999 0.099221997
0.088095002 0.086662002 0.076321997
0.087017998 0.086098999 0.075851001
0.067873001 0.063345 0.094339997
0.069721997 0.063530996 0.093498997
0.16146 0.11158 0.039273001
0.080826998 0.03441 0.052813999
0.081832998 0.037007 0.052459002
0.15038 0.11859 0.024868
0.17201 0.13440999 0.025574001
0.14943001 0.062701002 0.0049828002
0.15678 0.062647998 0.016062999
0.10075 0.088316999 0.049587
0.10143 0.086929999 0.049956001
0.13695 0.095436998 0.033466
0.13714001 0.094994001 0.032168999
0.12977999 0.095889002 0.018378999
0.040658999 0.087831996 0.045821
0.080730997 0.066909 0.051653001
0.081781998 0.054046001 0.062957004
0.081093997 0.054988999 0.063211001
0.18466 0.14113 0.011479
0.18493 0.14307 0.0092086
0.16004001 0.092887998 0.032522999
0.15762 0.091128998 0.033332001
0.14875001 0.044379 0.00087718997
0.17143001 0.12730999 0.0036561
0.10976 0.096192002 0.01105
0.10974 0.066427 0.047440998
0.10987 0.064282998 0.046078999
0.1205 0.098661996 -0.011028
0.12055 0.099621996 -0.01154
0.13369 0.097148001 0.011261
0.14524999 0.052653 0.0035445001
0.14517 0.051111002 0.0061432002
0.17157 0.13438 0.038082
0.076314002 0.041108001 0.048277002
0.11856 0.10137 -0.010359
0.11718 0.10206 -0.010678
0.13085 0.081988998 0.040651999
0.12852 0.081817999 0.042516001
0.12484 0.10248 -0.01481
0.12589 0.10129 -0.013647
0.11476 0.065872997 0.068614997
0.098144002 0.083614998 0.013508
0.16629 0.13045 0.019177999
0.17534 0.098607004 0.043590002
0.17624 0.097135998 0.044564001
0.15174 0.10736 0.0051512001
0.070739999 0.066458002 0.080375999
0.071621001 0.066174001 0.081895001
0.11809 0.057627 0.058279999
0.11257 0.089841999 0.061593
0.15971 0.11756 0.0099318
0.16473 0.12684 0.032942999
0.13975 0.075433999 0.0046561002
0.070776001 0.076305002 0.071078002
0.070533998 0.077559002 0.069766
0.070488997 0.076840997 0.07045
0.15463001 0.11364 0.038334001
0.11014 0.068397 0.071128003
0.051732998 0.094893001 0.046284001
0.051984999 0.09629 0.046372999
0.051662002 0.095821001 0.046650998
0.15886 0.054081999 0.018291
0.18003 0.1242 0.024265001
0.17982 0.12524 0.02417
0.162 0.094871998 0.026746999
0.13636 0.091127999 0.031371001
0.13527 0.092053004 0.031058
0.12868001 0.074810997 0.064111002
0.16304 0.12408 -0.010789
0.13575999 0.10236 0.021128999
0.084844999 0.06611 0.055610999
0.065007001 0.075782999 0.070361003
0.1877 0.14432 0.026642
0.11061 0.089821003 0.064723998
0.11149 0.090349004 0.064638004
0.11138 0.090042002 0.064239003
0.067593001 0.070455 0.049729999
0.050932001 0.080715001 0.058979999
0.18548 0.14661001 0.0079407999
0.18561 0.14482 0.0092553999
0.078193001 0.042319998 0.072535999
0.079657003 0.042378999 0.073027
0.068626001 0.054652002 0.10259
0.17934 0.10074 0.038031001
0.18087 0.10074 0.037422001
0.070468001 0.036591999 0.055112999
0.18505999 0.13790999 0.0095854998
0.11381 0.10296 -0.0079768002
0.13818 0.091678001 0.031013999
0.16523001 0.13065 0.024893001
0.08264 0.062726997 0.056157
0.081644997 0.063014001 0.057861
0.17671999 0.1355 0.035907
0.077023998 0.060922001 0.11577
0.16028 0.085614003 0.016551999
0.11422 0.091903999 0.00033268001
0.15581 0.056692999 -0.0027862999
0.083168 0.046645001 0.066826999
0.098670997 0.086489998 0.051332999
0.053741999 0.065325998 0.067939997
0.054545 0.064782999 0.068108
0.17249 0.10143 0.019174
0.17278001 0.10102 0.018491
0.12305 0.066413999 0.068184003
0.17839 0.099657997 0.041462999
0.1779 0.098375 0.041191
0.17948 0.098164 0.041629001
0.055307999 0.080697 0.059588999
0.053996 0.080176003 0.061138
0.11927 0.098089002 -0.0052744001
0.11829 0.097701997 -0.0056729
0.052503999 0.084076002 0.041405998
0.051575001 0.085468002 0.041141
0.052581999 0.085432999 0.041907001
0.14436001 0.079139002 0.0039423001
0.15707999 0.055527002 -0.016071999
0.14945 0.11255 0.037053999
0.17817 0.11046 0.031463001
0.037576001 0.073172003 0.058313999
0.039122999 0.073876999 0.057512
0.12891001 0.082612999 0.048870001
0.12596001 0.083463997 0.048827
0.086337 0.068855003 0.067051999
0.12271 0.085520998 0.057390001
0.064744003 0.051785 0.063417003
0.14384 0.084395997 0.0025193
0.096835002 0.087364003 0.013956
0.17030001 0.1012 0.028379001
0.14004 0.083594002 0.0021559999
0.13884 0.083628997 0.0020991
0.066706002 0.072058998 0.071309
0.082208 0.038624998 0.042987999
0.070165001 0.054322999 0.11878
0.070923001 0.054538999 0.12106
0.12763 0.068715997 0.064606003
0.12555 0.090590999 0.013716
0.11908 0.078754 0.072219998
0.11805 0.078391001 0.071923003
0.14553 0.1014 0.028581999
0.1463 0.10082 0.028236
0.14684001 0.10262 0.028023001
0.078648001 0.068148002 0.050949998
0.15794 0.10173 0.0034347
0.15849 0.099927999 0.0048877001
0.085185997 0.048889998 0.03971
0.081174999 0.040233001 0.055516001
0.16113 0.074724004 -0.018813999
0.16174001 0.074089997 -0.018563
0.076631002 0.085514002 0.068855003
0.077486001 0.084570996 0.067634001
0.051973999 0.089538001 0.051530998
0.12777001 0.066882998 0.012466
0.12792 0.068313003 0.012831
0.12782 0.069078997 0.011502
0.14182 0.043900002 0.0012974
0.078791 0.060520001 0.1232
0.13777 0.061854001 0.015364
0.1375 0.091907002 0.0050383001
0.072931997 0.064296998 0.11368
0.053146001 0.097052 0.045124002
0.10732 0.069527999 0.047587
0.1077 0.071199 0.046257999
0.17591 0.11897 0.013347
0.053585999 0.057207 0.081286997
0.054496001 0.0592 0.082074001
0.10802 0.090214998 0.004061
0.17058 0.10394 0.013755
0.16998 0.10254 0.013803
0.14596 0.11322 0.031254001
0.082349002 0.041386999 0.075278997
0.16858 0.12057 0.041510001
0.17076001 0.10118 0.031679001
0.17035 0.10185 0.031897001
0.1662 0.11786 -2.2390001e-05
0.17983 0.14627001 0.009629
0.17461 0.092643999 0.045375001
0.17547999 0.094871998 0.045651998
0.16575 0.1197 0.00034463999
0.16455001 0.12109 0.0010373
0.11616 0.058906998 0.047184002
0.070267998 0.062245 0.051994
0.069532998 0.063896999 0.053952001
0.17781 0.1506 0.0093302
0.12640999 0.055431001 0.043687999
0.12863 0.056662001 0.044316001
0.11528 0.069894999 0.069369003
0.16119 0.1092 0.0065040002
0.16256 0.10871 0.0076239002
0.10988 0.10795 0.00025248999
0.11519 0.083028004 0.024475001
0.10204 0.065182 0.060419001
0.13523 0.10697 0.018474
0.13693 0.10772 0.019537
0.090902001 0.070290998 0.051091999
0.090464003 0.070790999 0.052253
0.14159 0.067088 0.043558002
0.14189 0.066482 0.043327998
0.057865001 0.064781003 0.077776998
0.058116 0.066310003 0.078753002
0.13507 0.098246999 0.01029
0.10215 0.090172 0.014765
0.10154 0.088959001 0.017167
0.17551 0.13093001 0.031366002
0.17948 0.11403 0.027634
0.17939 0.11486 0.028398
0.030193999 0.080118001 0.059358999
0.11032 0.10099 0.032345999
0.15319 0.11931 0.050818998
0.15478 0.11839 0.049192
0.1529 0.11785 0.049403001
0.075127997 0.088921003 0.057268001
0.15209 0.079557002 0.025164001
0.15193 0.077958003 0.022732999
0.17894 0.098266996 0.044107001
0.15586001 0.1122 0.049290001
0.063409999 0.080664001 0.062070999
0.16049001 0.12364 -0.011136
0.15941 0.12435 -0.012118
0.1596 0.088651001 0.021005001
0.083210997 0.064643003 0.067676999
0.083129004 0.064552002 0.065995999
0.080229998 0.063745998 0.055323001
0.079420999 0.061292998 0.057326
0.12483 0.057594001 0.051325999
0.16215 0.13077 0.01881
0.16356 0.13071001 0.020034
0.16951001 0.13158 -0.011002
0.15668 0.082401 0.009726
0.11217 0.090864003 0.0072117001
0.11157 0.089491002 0.0082248002
0.16610999 0.12609001 -0.011901
0.15628999 0.12169 0.019257
0.15573999 0.12276 0.020839
0.15714 0.12312 0.020222001
0.12702 0.056488 0.029142
0.1269 0.057466999 0.029519999
0.098540001 0.047407001 0.028933
0.12446 0.087306999 0.010797
0.070846997 0.056837 0.079664998
0.12137 0.092200004 0.018929999
0.12248 0.090637997 0.017067
0.1226 0.067041002 0.017676
0.12192 0.068585999 0.017251
0.12188 0.067335002 0.016319999
0.042982999 0.090025999 0.049045999
0.066794001 0.074570999 0.072251998
0.067533001 0.074993998 0.071616001
0.065381996 0.075611003 0.069813997
0.081202 0.057748001 0.14036
0.076995999 0.063359998 0.10803
0.068607002 0.052575 0.12659
0.069132 0.051231001 0.12717
0.081441998 0.043873001 0.062654004
0.17358001 0.13021 0.0092970999
0.040810999 0.077959999 0.052269001
0.11042 0.084315002 0.025059
0.16632999 0.12603 -0.011168
0.16564 0.12489 -0.011007
0.16486999 0.12563001 -0.010204
0.12253 0.065163001 0.066211998
0.15256999 0.11363 0.039903
0.15208 0.11368 0.039253999
0.081505999 0.039430998 0.066147998
0.072081998 0.039648999 0.057165999
0.1717 0.12954 -0.012725
0.18043999 0.14318 0.023698
0.16369 0.065816998 -0.013717
0.16387001 0.064938001 -0.013162
0.13948999 0.10026 0.024344999
0.079976 0.063626997 0.11279
0.15719999 0.080821998 0.015973
0.15854999 0.081193998 0.016499
0.15072 0.1139 0.039035998
0.15515 0.065154999 0.0125
0.078528002 0.064170003 0.11666
0.17207 0.13138001 0.031314
0.17257001 0.13008 0.03076
0.17343 0.13139001 0.030309999
0.17 0.096414 0.030607
0.080987997 0.058125 0.14345001
0.082249001 0.058290001 0.14304
0.13761 0.10943 0.020175001
0.13728 0.10855 0.018157
0.13542999 0.10787 0.017692
0.072958998 0.057289999 0.11257
0.074318998 0.058690999 0.11288
0.073798999 0.057179 0.113
0.17986 0.1463 0.011505
0.090925001 0.065752 0.058696002
0.092606001 0.066069998 0.059413001
0.090883002 0.066469997 0.059108
0.13169999 0.081524998 0.0048229001
0.092557997 0.082305998 0.049667001
0.040323999 0.080743998 0.063543998
0.139 0.059073001 0.023131
0.073591001 0.082244001 0.071243003
0.063841 0.030212 0.058309998
0.046286002 0.098571002 0.039542999
0.045090999 0.098401003 0.040548999
0.15473001 0.12383 0.014534
0.051173002 0.080263004 0.066466004
0.049617998 0.080642998 0.066142
0.1708 0.12377 0.0066868998
0.081770003 0.046751 0.065334998
0.062679 0.047968999 0.084328003
0.15533 0.075770997 0.014707
0.098283 0.083874002 0.076837003
0.12530001 0.067737997 0.066178001
0.068750001 0.085138001 0.059613999
0.13294999 0.10635 0.016613999
0.078140996 0.034963999 0.059043001
0.078327999 0.035548002 0.060191002
0.13682 0.10557 0.015568
0.13768999 0.10743 0.017287999
0.086700998 0.066867001 0.062192
0.11512 0.11011 -0.0097005004
0.11441 0.11031 -0.0093825003
0.1356 0.062755004 0.051557001
0.15151 0.11406 0.039335001
0.04654 0.075089999 0.074593998
0.16999 0.11362 0.0063450001
0.18406001 0.11787 0.031853002
0.091567002 0.087659001 0.051463999
0.17196999 0.10689 0.035990998
0.17114 0.10755 0.035633001
0.1608 0.12687001 -0.011573
0.16108 0.12625 -0.012107
0.18685 0.14663 0.021988999
0.18544 0.14656 0.022097999
0.057916999 0.063193001 0.081831001
0.084352002 0.087484002 0.070042998
0.083131999 0.086969003 0.070138
0.17854001 0.10103 0.034371
0.1777 0.10009 0.034396
0.16901 0.13258 0.024702
0.13215999 0.069215 0.061085001
0.087764002 0.090029001 0.053068999
0.080917999 0.082321003 0.074735999
0.14925 0.083063997 0.028650999
0.1743 0.10933 0.036396001
0.1735 0.11074 0.035055999
0.16767 0.11479 0.0023027
0.16617 0.11502 0.00052980997
0.16663 0.11563 0.0012807
0.066326998 0.082639001 0.056997001
0.10528 0.091192 0.025496
0.10497 0.089060999 0.025478
0.10558 0.091124997 0.026215
0.14325 0.079402998 0.0042722002
0.099728003 0.035712998 0.037542999
0.098681003 0.036173999 0.036660001
0.10478 0.090957001 0.024804
0.10464 0.090322003 0.023022
0.10369 0.089876004 0.024909001
0.14939 0.10653 0.036694001
0.15502 0.11864 -0.0079546999
0.1564 0.12126 -0.0074963002
0.11301 0.081638999 0.022883
0.11391 0.082971998 0.021351
0.055165999 0.071043 0.069008
0.14548001 0.072181001 0.031344
0.15516999 0.091987997 0.0041780998
0.18748 0.11982 0.033619002
0.16140001 0.11655 0.043352
0.16204999 0.11679 0.044484999
0.16216999 0.11645 0.045554999
0.086967997 0.091495 0.064366996
0.084674001 0.092372999 0.062783003
0.086103998 0.091734 0.062590003
0.073137 0.039659999 0.059549998
0.070446998 0.040314998 0.061170001
0.15412 0.061307002 -0.0091955001
0.053408999 0.093152002 0.045524999
0.063507996 0.082222998 0.062339999
0.16302 0.10665 0.0063347002
0.1693 0.11782 0.039652999
0.11767 0.084972002 0.063936003
0.054733001 0.070105001 0.055086002
0.12454 0.091135003 0.021125
0.16964 0.11683 0.0029668
0.13087 0.090643004 0.0089020003
0.16676 0.12815 0.01103
0.16608 0.12733001 0.011433
0.15725 0.12213 0.029137
0.16766 0.056000002 -0.014432
0.15324999 0.11988 -0.014581
0.16543999 0.13144 -0.013051
0.069297001 0.056228001 0.084091999
0.072554998 0.055190999 0.084406003
0.1338 0.057673 0.043198001
0.15936001 0.086374998 0.0096731
0.15968999 0.087714002 0.0087626996
0.091537997 0.069989003 0.068649001
0.16062 0.11692 0.062258001
0.16175 0.11805 0.059886001
0.16177 0.11753 0.060789
0.17263 0.13221 0.048126001
0.17912 0.1233 0.013853
0.040433001 0.082771003 0.058710001
0.039905 0.083181001 0.057753999
0.15852 0.12176 0.030081
0.083988003 0.084671997 0.049307998
0.16907001 0.056846999 -0.016324
0.14834 0.044698998 0.0098729003
0.14892 0.047719002 0.012195
0.18088 0.14796001 0.021188
0.083838001 0.066997997 0.12122
0.083388999 0.067776002 0.12279
0.084302999 0.067124002 0.12267
0.062675998 0.048716001 0.072972998
0.15177 0.083431996 0.024972999
0.15115 0.082442999 0.025815001
0.15812001 0.092491999 0.026255
0.074133001 0.075043 0.046477001
0.076211996 0.075358003 0.048138
0.10182 0.088854 0.048253
0.10252 0.087329999 0.050009001
0.15523 0.072325997 0.011486
0.15496001 0.071627997 0.012033
0.11924 0.070390999 0.069774002
0.17840999 0.13718 0.031858999
0.17727 0.13759001 0.031089
0.18095 0.13506 0.012257
0.058697999 0.079755001 0.061094999
0.082656004 0.056230001 0.064029001
0.14889 0.044408001 0.0037
0.14983 0.045552 0.0025472001
0.16816001 0.12763 -0.0048389002
0.16879 0.12751999 -0.0046430002
0.16877 0.12725 -0.002909
0.079102002 0.054659002 0.069495998
0.067565002 0.049382001 0.13575
0.10911 0.092251003 0.025334001
0.14480001 0.068207003 0.031897999
0.13582 0.094594002 0.030941
0.16418 0.095844999 0.029011
0.16343001 0.095957004 0.029329
0.14068 0.060640998 0.033571001
0.17248 0.12155 0.00065250997
0.053252 0.083940998 0.042346001
0.18216 0.12664001 0.030234
0.18472999 0.12616 0.029062999
0.11182 0.094838999 0.0084940996
0.11297 0.096095003 0.0069582001
0.11158 0.087223001 0.048927002
0.12023 0.078594998 0.017053001
0.11899 0.077558003 0.017359
0.052811 0.079116002 0.064896002
0.053978998 0.078863002 0.064681001
0.10991 0.089318998 0.012069
0.11422 0.11062 -0.0091265999
0.15593 0.078593001 0.019994
0.167 0.12937 0.0050014001
0.16743 0.12888999 0.0046462002
0.16181 0.070398003 -0.019907
0.080909997 0.079571001 0.047897
0.080729999 0.079311997 0.049052
0.1508 0.11466 0.038074002
0.084535003 0.044174001 0.073159002
0.11286 0.090814002 0.057787001
0.069701001 0.032637998 0.053433001
0.18618999 0.14559001 0.022360001
0.1366 0.089235 0.02981
0.090671003 0.043887999 0.043166999
0.092958003 0.044507999 0.043320999
0.052749999 0.070316002 0.056049
0.051498 0.069787003 0.056366
0.051704999 0.071617 0.055365998
0.058385 0.049651999 0.077252999
0.058876 0.050558999 0.077532001
0.056053001 0.050579 0.076778002
0.041664001 0.078188002 0.065646999
0.040438998 0.079529002 0.066119
0.14471 0.11154 0.016926
0.11312 0.085355997 0.075448997
0.11238 0.085173003 0.074257001
0.10171 0.084757 0.079700999
0.102 0.086667001 0.080835998
0.16034 0.13068999 0.019796001
0.16108 0.13036001 0.021807
0.070156001 0.051426001 0.062465999
0.069371998 0.050607 0.061794002
0.15256999 0.11475 0.031821001
0.10006 0.079513997 0.048664998
0.099281996 0.077651002 0.050142001
0.14421 0.11349 0.024118001
0.14405 0.11493 0.026667999
0.16607 0.12872 0.026180999
0.10743 0.078809999 0.045568999
0.16317999 0.054141 -0.0087523004
0.13710999 0.060527001 0.044132002
0.13614 0.060587 0.043845002
0.13402 0.063790001 0.056047
0.13389 0.064618997 0.055987999
0.13249999 0.064305 0.056125998
0.14409 0.055337999 0.01554
0.14632 0.054506 0.016551999
0.15606999 0.1224 0.018425999
0.17789 0.097925998 0.045756001
0.11248 0.1103 -0.0073911999
0.16023999 0.049068 -0.013495
0.15696999 0.12617999 0.0097944001
0.1567 0.12526 0.011905
0.15825 0.12797 0.011492
0.089424998 0.065576002 0.061443999
0.088794 0.064842999 0.059463002
0.075686999 0.033746999 0.055712
0.13445 0.067180999 0.012074
0.16474999 0.087219998 0.016674999
0.16049001 0.12625 0.024056001
0.16084 0.12556 0.023389
0.16101 0.1266 0.023933001
0.19004001 0.14098001 0.026644001
0.11456 0.080563001 0.045134
0.096078999 0.037932999 0.036008
0.097910002 0.036883 0.036982
0.092096999 0.065536998 0.055686001
0.093154997 0.065508001 0.055249002
0.084028997 0.039838001 0.074869998
0.18023001 0.10786 0.038724001
0.16135 0.11422 0.041884001
0.16045 0.11554 0.042378001
0.15941 0.1141 0.045012999
0.073841996 0.066597 0.073537
0.079972997 0.058662001 0.14311001
0.15998 0.091775 0.035080999
0.12082 0.077223003 0.016222
0.16148999 0.11557 0.048767
0.16004001 0.11566 0.049166001
0.061760001 0.053470999 0.063350998
0.077165999 0.072388999 0.073963001
0.077404998 0.071929999 0.073619999
0.16749001 0.097865 0.013851
0.17708001 0.14511999 0.017751001
0.17806 0.14672001 0.018297
0.14528 0.082722999 0.031252
0.14484 0.081873998 0.031541999
0.10803 0.064203002 0.050857
0.10842 0.064816996 0.050342999
0.10876 0.064464003 0.051302999
0.11315 0.069822997 0.071901001
0.1759 0.11174 0.03754
0.041694 0.072521001 0.064369999
0.074500002 0.059629999 0.11264
0.075139999 0.079357997 0.073812
0.12319 0.10062 -0.0085185003
0.1228 0.10145 -0.0085260998
0.13993999 0.10455 0.0097968997
0.093719997 0.091753997 0.066150002
0.069707997 0.062171001 0.091793001
0.15437999 0.11902 0.047490999
0.055475 0.061976001 0.075121999
0.054880001 0.06134 0.074257001
0.061352 0.048996001 0.074289002
0.15487 0.046769999 0.0054369001
0.12799001 0.062762 0.061331999
0.12887 0.062932 0.060934
0.12257 0.090020999 0.016847
0.15838 0.056417 -0.0039634001
0.15627 0.058169 -0.0024075999
0.082888 0.0669 0.12693
0.082167 0.069678001 0.12639999
0.089063004 0.035199001 0.044587001
0.15462001 0.053633001 0.01278
0.11808 0.079356 0.040514998
0.11861 0.080577999 0.041164
0.15816 0.12191 0.0085118003
0.1567 0.12356 0.0098614004
0.17254999 0.12947001 0.010249
0.1724 0.12963 0.01289
0.175 0.12898999 0.011086
0.061087001 0.030397 0.058419
0.15119 0.04383 0.0049621998
0.15091 0.044284001 0.0064423
0.14944001 0.044470999 0.0055403998
0.17952999 0.13883001 0.021624001
0.11752 0.058164999 0.049254999
0.087373003 0.090613 0.066549003
0.073242001 0.071455002 0.076787002
0.11041 0.087347999 0.01332
0.15592 0.089043997 0.030882001
0.081932999 0.039609998 0.054818999
0.050505001 0.097476996 0.037560001
0.049073 0.098738 0.035324998
0.17812 0.10329 0.031411
0.095717996 0.084703997 0.011658
0.17899001 0.13919 0.033273
0.14765 0.10301 0.035964999
0.16508 0.11952 0.0088261999
0.16497 0.1206 0.0091757998
0.16350999 0.12157 0.0089544002
0.0638 0.052453 0.065481998
0.098477997 0.091080002 0.0055562002
0.1654 0.12941 0.011243
0.065796003 0.049047999 0.083819002
0.068584003 0.050161 0.083391003
0.10197 0.064617001 0.056756001
0.10584 0.09341 0.00103
0.16441 0.054405 -0.010209
0.079673 0.042801999 0.072916999
0.081946999 0.041469999 0.073868997
0.081533998 0.041071001 0.074083999
0.16038001 0.11635 0.062389001
0.16006 0.11601 0.060603
0.049090002 0.082043 0.062442999
0.14365 0.095027998 0.0042006001
0.14436001 0.094031997 0.0028812999
0.11049 0.095513001 0.031638999
0.16804001 0.092704996 0.021451
0.12922999 0.082272001 0.053102002
0.12984 0.081404999 0.054025002
0.12988999 0.082374997 0.054152999
0.15796 0.13207 -0.0020017
0.062776998 0.057902999 0.10183
0.063330002 0.058279 0.10298
0.07282 0.056417 0.10909
0.1001 0.083182998 0.047816999
0.17393 0.12725 0.0059103998
0.15193 0.088289 0.032382
0.15167999 0.086346999 0.030223999
0.15128 0.087242998 0.031314999
0.043444 0.076087996 0.068878002
0.14699 0.10675 0.034497999
0.10288 0.086306997 0.018031999
0.10312 0.087278001 0.018162999
0.10218 0.087337002 0.016174
0.044690002 0.079011001 0.072682001
0.041301999 0.076830998 0.070184
0.042493001 0.075035997 0.072908998
0.042392999 0.077106997 0.072604001
0.15335 0.072154 0.021132
0.18946999 0.14263999 0.0070445002
0.073562004 0.036180001 0.053869002
0.16418 0.11674 0.050144002
0.077427998 0.073383003 0.047387999
0.1578 0.12826 -0.0021406999
0.15717 0.12881 -0.00036902999
0.156 0.1292 -0.0021508001
0.15112001 0.092425004 0.031141
0.15301999 0.094293997 0.029623
0.048131999 0.071102999 0.066463999
0.15256999 0.11854 0.048762001
0.06972 0.055574998 0.088982001
0.070496 0.051447999 0.088716999
0.15521 0.063020997 -0.0084774001
0.087640002 0.076504998 0.047954999
0.14218999 0.084661998 0.046177998
0.15509 0.12265 -0.010556
0.14675 0.092574 0.031567998
0.11379 0.10219 0.0046704002
0.070938997 0.060995001 0.079375997
0.070155002 0.060118999 0.077044003
0.071997002 0.061353002 0.078635998
0.061434001 0.079882003 0.062229
0.16384999 0.12203 -0.00096132001
0.16364001 0.12265 0.00057126
0.13423 0.075819999 0.060665
0.076823004 0.068236001 0.11699
0.082739003 0.035174001 0.052044
0.081959002 0.034697998 0.051454
0.14769 0.074107997 0.028436
0.14901 0.076553002 0.028008001
0.11739 0.083725996 0.072797999
0.19137 0.13304 0.028343
0.18195 0.14040001 0.030843001
0.18085 0.12582999 0.020423001
0.064785004 0.034639001 0.055881001
0.066859998 0.035308 0.056915998
0.056460001 0.093560003 0.032991
0.10201 0.092275001 0.05971
