# .PCD v0.7 - Point Cloud Data file format
VERSION 0.7
FIELDS x y z
SIZE 4 4 4
TYPE F F F
COUNT 1 1 1
WIDTH 1525
HEIGHT 1
VIEWPOINT 0 0 0 1 0 0 0
POINTS 1525
DATA ascii
0.094531998 0.11637 0.13717
0.094135001 0.11548 0.13784
0.094619997 0.11531 0.13685
0.048944 0.081338003 0.075613998
0.049284 0.082597002 0.075046003
0.031647 0.18697 0.064006001
0.03128 0.18618 0.063580997
0.039464999 0.076278001 0.074810997
0.039875001 0.075433999 0.075373001
0.040899001 0.075974002 0.075534001
0.072947003 0.17504001 0.097836003
0.072223999 0.17497 0.099114999
0.072296001 0.17587 0.098700002
0.051741999 0.18835001 0.066458002
0.051511999 0.18806 0.065729
0.043246001 0.20291001 0.081768997
0.043829001 0.20294 0.083067
0.086421996 0.097553 0.112
0.086831003 0.097809002 0.11116
0.087627001 0.097691 0.11094
0.053849 0.075176999 0.071780004
0.027763 0.11941 0.054489002
0.027524 0.11994 0.053916998
0.092410997 0.097602002 0.1169
0.071710996 0.1072 0.071303003
0.070595004 0.10678 0.070903003
0.071341999 0.10686 0.069895998
0.080526002 0.15782 0.098568998
0.080071002 0.15836 0.097967997
0.045540001 0.19444001 0.064581998
0.078593001 0.10849 0.12082
0.079062998 0.10922 0.12141
0.086579002 0.099298999 0.10722
0.086318001 0.098196998 0.10883
0.085882999 0.098773003 0.10791
0.085743003 0.11021 0.055636
0.086795002 0.11053 0.056480002
0.080715999 0.11322 0.045738999
0.080969997 0.11301 0.046101
0.080681004 0.11258 0.046528
0.078198001 0.16463999 0.080068998
0.078400001 0.16403 0.080844
0.068494 0.1383 0.10274
0.069174998 0.13874 0.10343
0.073766001 0.17204 0.090309002
0.072839998 0.17239 0.090176001
0.094451003 0.15956999 0.063885003
0.094246998 0.16015001 0.063115999
0.074762002 0.18252 0.098383002
0.074078999 0.18244 0.098637
0.050949998 0.15364 0.10402
0.051897999 0.15324999 0.10477
0.051479999 0.15375 0.10327
0.10492 0.13767999 0.066930003
0.047308002 0.15195 0.1147
0.048087001 0.15161 0.11381
0.046633001 0.15212999 0.11429
0.092808001 0.1076 0.091193996
0.092720002 0.10784 0.092279002
0.08749 0.1248 0.042073999
0.043653999 0.12066 0.072545998
0.044009998 0.12153 0.07401
0.079189003 0.10296 0.095714003
0.078883 0.10325 0.096808001
0.078483999 0.10379 0.095468998
0.10413 0.13731 0.057027999
0.1042 0.13774 0.057953998
0.071024001 0.16083001 0.051764
0.069486 0.16068999 0.051964998
0.079705998 0.16429 0.077524997
0.080315001 0.16413 0.077822998
0.080812 0.16405 0.078077003
0.036332 0.16811 0.065435998
0.036532 0.16799 0.066417001
-0.024939001 0.091816001 0.031475
-0.023120999 0.091388002 0.030983999
-0.024196999 0.092781998 0.031442001
0.079971999 0.14606 0.10215
0.035732001 0.10639 0.065651998
0.035861999 0.10706 0.066372998
0.072893001 0.11107 0.083774
0.072333001 0.11114 0.083144002
0.087162003 0.15093 0.10248
0.0867 0.15003 0.10224
0.061678 0.11318 0.083699003
0.063345999 0.11209 0.083245002
0.062912002 0.11297 0.083802
0.040693 0.16395 0.063277997
0.040323 0.16245 0.062853001
0.038366999 0.20085 0.091333002
0.038869999 0.20061 0.090342
0.033112999 0.1921 0.075273998
0.033466 0.19093999 0.075822003
0.035307001 0.20047 0.073339999
0.032136999 0.060203999 0.046264999
0.031156 0.061110999 0.046232
0.056508001 0.15861 0.072274998
0.057457998 0.1594 0.072765
0.057622001 0.15990999 0.071346
-0.023296 0.091279998 0.023352999
0.038155001 0.090259001 0.055169001
0.037866 0.089075997 0.054446999
0.079921998 0.11053 0.1375
0.080453001 0.11109 0.13606
0.05302 0.097565003 0.041903999
0.054122001 0.097902998 0.041956998
0.056772999 0.12499 0.088193998
0.056210998 0.12594 0.087632999
0.056008998 0.12558 0.087497003
0.030641999 0.069513001 0.067006998
0.031237001 0.069865003 0.068062998
0.030863 0.069775 0.067229003
0.031778999 0.12645 0.034717001
0.032212999 0.1268 0.035399001
0.033011999 0.12636 0.035574999
0.042782001 0.12823001 0.066324003
0.062682003 0.13926999 0.10083
0.062221002 0.13932 0.10047
0.061586998 0.1393 0.099890001
0.069816001 0.14921001 0.10683
0.071009003 0.14828999 0.10636
0.071676999 0.14879 0.10654
-0.024692001 0.093062997 0.031520002
0.072053 0.14030001 0.10398
0.072713003 0.13995001 0.10344
0.073298998 0.14086001 0.10361
0.081938997 0.16122 0.052480999
0.082088999 0.16182999 0.053596001
0.082663 0.16181999 0.052705999
0.039049 0.10651 0.036750998
0.083232999 0.11025 0.052815001
0.083575003 0.10944 0.054416999
-0.024250001 0.091532998 0.022227
0.017844001 0.10647 0.029615
0.047083002 0.18729 0.054625001
0.047222 0.18626 0.054510001
0.046668001 0.1866 0.053799
0.10357 0.1399 0.075134002
0.086319 0.14399 0.092885002
0.086583003 0.14455 0.092592001
0.034162998 0.19859999 0.071930997
0.035867002 0.19909 0.071200997
0.034729999 0.19794001 0.07141
0.060706999 0.13592 0.086510003
0.059916999 0.13671 0.086231999
0.060667999 0.13501 0.085927002
0.042091999 0.099659003 0.034855001
0.042617001 0.099381998 0.033792
0.042287 0.098959997 0.033799998
0.10044 0.15175 0.056689002
0.099661 0.15246999 0.056350999
0.10036 0.15200999 0.057206001
0.056977 0.076779999 0.055089999
0.086282 0.11841 0.13641
0.048335001 0.18187 0.072011001
0.047474001 0.18302999 0.072361998
0.047405999 0.18195 0.071598001
0.080765001 0.10039 0.099533997
0.084280998 0.15594 0.096863002
0.083805002 0.15614 0.097497001
0.039044999 0.19887 0.071029998
0.039496999 0.19860999 0.070684001
0.038842998 0.19775 0.070032999
0.044670999 0.18578 0.074020997
0.045402002 0.18535 0.073485002
0.043244001 0.16051 0.063600004
0.084082 0.15974 0.049874999
0.082883 0.15965 0.049454
0.083130002 0.16023999 0.050260998
0.017509 0.12823001 0.039963
0.017421 0.12808 0.041444
0.018456001 0.12845001 0.040243
0.070658997 0.10944 0.079395004
0.061331999 0.15866999 0.080606997
0.058364999 0.076130003 0.061755002
0.058600999 0.076206997 0.060449999
0.02524 0.068738997 0.053158998
0.090926997 0.11154 0.063826002
0.090222001 0.11084 0.063693002
0.0096073002 0.10768 0.045596998
0.0088905999 0.10768 0.045012999
0.063709997 0.13595 0.091096997
0.051677 0.088427 0.045846
0.053208999 0.088018999 0.046510998
0.031167001 0.18249001 0.061806001
0.031018 0.18190999 0.062196001
0.031254001 0.18292999 0.062881
0.057576999 0.16722 0.052085001
0.049295001 0.19148999 0.064387999
0.049346 0.19227 0.065995999
0.050108999 0.19095001 0.064926997
0.011656 0.042874001 0.040722001
0.012216 0.042637002 0.039505001
0.041792002 0.15658 0.057884
0.041712001 0.15699001 0.056061
-0.0069275 0.086429 0.026632
0.094728999 0.14207999 0.085446
0.095806003 0.14099 0.084885001
0.095319003 0.14202 0.084666997
0.073339999 0.15682 0.10227
0.025021 0.049017001 0.043225002
0.025609 0.049098998 0.043116
0.025707999 0.048307002 0.043919999
0.061306 0.093285002 0.051437002
0.061268002 0.092456996 0.051952001
0.073141001 0.16271999 0.055465002
0.073477 0.16249999 0.055248
0.038001999 0.087494999 0.069462001
0.037188001 0.086648002 0.068924002
0.038460001 0.098472998 0.057393
0.038194999 0.098894 0.058157001
0.037907001 0.099854 0.056644998
0.077558003 0.10362 0.14246
0.076531999 0.10421 0.14262
0.037175 0.11571 0.066593997
0.036956999 0.11693 0.065848999
0.039673001 0.091139004 0.050535001
0.039214998 0.090232 0.051132001
0.039167002 0.091375001 0.051158
0.028876999 0.10611 0.034745999
0.028209001 0.10543 0.03551
0.079844996 0.13709 0.037262999
0.078418002 0.13723999 0.036770001
0.0021472001 0.099154003 0.039073002
0.0010604 0.098739997 0.038288999
0.0015798 0.098235004 0.038587999
-0.011505 0.091205001 0.017253
-0.011742 0.090085 0.016217999
0.018871 0.1288 0.039175
0.094921 0.15762 0.077921003
0.094076999 0.1585 0.077425003
0.078980997 0.16474999 0.078174002
0.078266002 0.16486999 0.078446999
0.044686999 0.16362 0.048505999
0.044468001 0.163 0.048803002
0.010886 0.040902998 0.066133998
0.04665 0.090570003 0.07254
0.047717001 0.090940997 0.072658002
0.046202999 0.091572002 0.072108001
0.029147999 0.12924001 0.040663
0.030117 0.1293 0.041126002
0.029555 0.12944999 0.040279001
0.091856003 0.11668 0.12962
0.091472 0.11598 0.12910999
0.018309001 0.028334999 0.061498001
0.090852998 0.11156 0.079609998
0.091101997 0.11048 0.080485001
0.033941999 0.075570002 0.069781996
0.034591001 0.076167002 0.070303001
0.034003001 0.077163003 0.069719002
0.090359002 0.14963999 0.10998
0.089311004 0.14918999 0.10941
0.090010002 0.14985 0.1093
0.088969998 0.16026001 0.083619997
0.088895001 0.16097 0.084788002
0.0081904996 0.10537 0.019299001
0.0068517001 0.10523 0.019137001
0.0076738 0.10594 0.019683
0.052308999 0.14413001 0.079263002
0.051662002 0.14509 0.078598
0.024003001 0.12569 0.032106999
0.02458 0.12603 0.032283001
0.024704 0.12560999 0.031927001
0.049755 0.084034003 0.018169001
0.048774999 0.084692001 0.018007001
0.050124001 0.083682001 0.017325001
0.091716997 0.097285002 0.1201
0.092662998 0.097815998 0.12052
0.073172003 0.12455 0.039607
0.061489999 0.080775 0.058375001
0.061159 0.079993002 0.05773
0.061556999 0.081552997 0.057983
0.092877999 0.10523 0.1052
0.086447999 0.10308 0.13202
0.046209998 0.1463 0.10705
0.046806 0.14586 0.10784
0.046177998 0.14701 0.10827
0.088432997 0.16337 0.066439003
0.088183999 0.16322 0.066106997
0.087554 0.16328 0.067295
0.091254003 0.1543 0.11903
0.091987997 0.15473001 0.11908
0.090549998 0.15487 0.11859
0.063160002 0.12969001 0.038550001
0.064900003 0.096593998 0.055114001
0.064746998 0.096418001 0.056253999
0.093078002 0.11649 0.093344003
0.070736997 0.12508 0.039354999
0.042335 0.12845001 0.062213
0.089879997 0.11047 0.079452001
0.0902 0.10979 0.080013998
0.042181998 0.13421001 0.067140996
0.042461999 0.13493 0.066312999
0.042470001 0.13401 0.066123001
0.076003 0.10847 0.083084002
0.075687997 0.10931 0.082540996
0.052071001 0.19683 0.075502001
0.051442001 0.19771001 0.074294999
0.051716 0.19761001 0.074685
0.034448002 0.17214 0.068925001
0.057969 0.090250999 0.067437999
0.090724997 0.14873999 0.092974998
0.081303 0.13172001 0.095913
0.081647001 0.13339999 0.095242999
0.081145003 0.13273001 0.09561
0.048955999 0.20039 0.083630003
0.047835 0.14806999 0.062389001
0.054506999 0.15623 0.071521997
0.054508001 0.15685999 0.071088001
-0.0053598001 0.079300001 0.024843
0.043588001 0.1321 0.062058002
0.043387 0.13265 0.062817
0.083075002 0.11367 0.13541
0.045322001 0.098445997 0.069527999
0.044220999 0.098399997 0.068654999
0.044594999 0.097810999 0.069210999
0.025539 0.10443 0.035374001
0.026281999 0.10463 0.035402
0.043595001 0.067033999 0.075051002
0.051063001 0.17866001 0.068623997
0.051688999 0.18024001 0.068498999
0.05153 0.17946 0.068774998
0.075997002 0.13849001 0.036860999
0.076393999 0.13736001 0.036752999
0.077087998 0.16419999 0.090614997
0.020582 0.12768 0.045929
0.021989999 0.12730999 0.046765
0.021388 0.12813 0.045642
0.088574998 0.11162 0.076471001
0.089202002 0.11241 0.075686999
0.089472003 0.11205 0.076394998
0.048836999 0.1496 0.071385004
0.042971 0.13031 0.056476999
0.042296998 0.12899999 0.056246001
0.042723 0.12959 0.056868002
0.040339001 0.12644 0.041159999
0.039484002 0.12605999 0.040844001
0.012209 0.10677 0.025286
0.012794 0.10588 0.025645999
0.044399999 0.15507001 0.052804999
0.044955999 0.15408 0.053211998
0.0090068001 0.11638 0.048087999
0.0084352996 0.11676 0.048142001
0.078094997 0.10371 0.095008001
0.079164997 0.10269 0.094774
-0.0056123999 0.083341002 0.011996
-0.0051394999 0.082526997 0.011927
-0.0035417001 0.089755997 0.030037001
-0.0027592001 0.089340001 0.030644
-0.0030685 0.09065 0.030855
0.0233 0.11585 0.053851001
0.060407002 0.14102 0.10361
0.060070999 0.13989 0.10306
0.061549 0.14084999 0.10356
-0.014264 0.086230002 0.033275001
0.080651 0.16365001 0.072424002
0.083972998 0.10033 0.10132
0.084591001 0.10031 0.10047
0.086181 0.1006 0.1013
0.059323002 0.09482 0.067252003
0.057018001 0.14144 0.089203
-0.004214 0.072245002 0.016523
0.020096 0.038717002 0.044668
0.020833001 0.039000001 0.046310998
0.078010999 0.10559 0.13489
0.078004003 0.10591 0.13485999
0.10462 0.13674 0.058552001
0.088987999 0.13053 0.041871
0.087967001 0.1069 0.080254003
0.089270003 0.10685 0.081294999
0.055222001 0.15813001 0.045869
0.0050185001 0.10704 0.043030001
0.060332999 0.14497 0.042863999
0.060428999 0.14442 0.042098999
0.062043998 0.11435 0.085845001
0.062743001 0.114 0.085194997
0.062661998 0.11475 0.086126
0.061260998 0.11295 0.038022
0.061466999 0.11146 0.038571998
0.060238 0.11256 0.037973002
0.076476 0.15843999 0.047435001
0.077919997 0.15879001 0.047433998
0.077156 0.15868001 0.047162998
0.092107996 0.11842 0.092543997
0.092478998 0.11773 0.092991002
0.086272001 0.10491 0.13850001
0.085000001 0.10431 0.13903999
0.076027997 0.16049001 0.097903997
0.076821998 0.15996 0.098601997
0.076931998 0.15978 0.098362997
0.019787 0.12233 0.030507
0.054223999 0.081646003 0.072511002
0.043795001 0.19501001 0.064935997
0.035262 0.081597 0.055787999
0.059813999 0.14021 0.1032
0.059307002 0.13922 0.10294
0.031785 0.20197 0.087807
0.013252 0.10262 0.022593001
0.013647 0.10193 0.023220999
0.013031 0.10188 0.022445001
0.080259003 0.099492997 0.10906
0.073262997 0.10922 0.079875
0.073780999 0.10945 0.080370001
0.039336 0.16394 0.062540002
0.098865002 0.12809999 0.080586001
0.098480999 0.12861 0.08089
0.080182999 0.1062 0.067129999
0.053943999 0.13854 0.098525003
0.054244999 0.13887 0.097829998
0.055378001 0.13874 0.097966999
0.0084536998 0.087577999 0.028244
0.0073774001 0.086860999 0.027714999
0.027798001 0.070299998 0.062990002
0.029451 0.070364997 0.063781001
0.0033141 0.11477 0.043818001
0.090117 0.1374 0.092326999
0.088253997 0.13739 0.092104003
0.089249 0.13677999 0.092265002
0.027380001 0.12957001 0.037673
0.027099 0.12918 0.036871001
0.046087999 0.19963001 0.085376002
0.046342999 0.20018999 0.086622
0.094995998 0.10639 0.12657
0.095766 0.10649 0.12571
0.095463999 0.10701 0.12644
0.043086998 0.15637 0.053146001
0.043455999 0.15751 0.052545998
0.044185001 0.15656 0.052326001
0.034862 0.16983999 0.066569999
0.017618001 0.1083 0.029194999
0.017295999 0.10727 0.028804
0.016793 0.10863 0.028447
0.017995 0.042254999 0.060938001
0.018743001 0.041878 0.060263999
0.033436 0.051109001 0.060343001
0.033921 0.050887998 0.059482999
0.035096001 0.051504999 0.059941001
0.057812002 0.12673 0.037678
0.057757001 0.12784 0.037857
0.058447 0.12749 0.037663002
0.0018861 0.089321002 0.033406999
0.022074001 0.035259001 0.056545999
0.049205001 0.17814 0.070919998
0.047510002 0.17821001 0.070041001
0.034198001 0.078056 0.062624
0.034469999 0.078249 0.063790999
0.074868999 0.11604 0.094171003
0.074294001 0.11527 0.093565002
0.034304 0.20082 0.074378997
0.036217999 0.20081 0.073982999
0.0047748 0.094975002 0.015098
0.0062226001 0.095206998 0.015707999
0.094456002 0.099384002 0.11193
0.094916999 0.099896997 0.11348
0.094135001 0.098764002 0.11306
0.057573002 0.075127997 0.064831004
0.057771001 0.075507 0.065583996
0.056961998 0.074263997 0.065494001
0.01551 0.045708001 0.035647001
0.016154001 0.046542 0.035833001
0.025062 0.053587999 0.063419998
0.047042001 0.20125 0.092078999
0.047828 0.20155001 0.092390001
0.046797 0.20141 0.092961997
0.032402001 0.17165001 0.064999998
0.031998999 0.17237 0.064269997
0.064003997 0.096097 0.058589999
0.065049 0.096854001 0.058056001
0.064802997 0.096818 0.059046999
-0.013365 0.084431998 0.013507
-0.01418 0.083370999 0.013681
0.037305001 0.069438003 0.075785004
0.037795 0.068396002 0.076436996
0.038495 0.069016002 0.076674998
0.042114999 0.10007 0.045336999
0.041602999 0.10102 0.044939999
0.041846 0.10061 0.043970998
0.053296 0.17058 0.058306001
0.053686999 0.16994999 0.058904
0.045809999 0.10129 0.032226998
0.045051999 0.10121 0.032499999
0.071355999 0.16298001 0.057539001
0.031785 0.11826 0.029145001
0.088788003 0.15968999 0.05266
0.086217001 0.15673 0.090837002
0.086612001 0.15700001 0.090475
0.062857002 0.095110998 0.060031999
0.063297004 0.094986998 0.058476999
0.063359998 0.095669001 0.059266001
0.055946 0.1451 0.1117
0.057188001 0.1437 0.11117
0.056924 0.14500999 0.11119
0.058747999 0.13876 0.10152
0.059142001 0.13872001 0.099996999
0.051100001 0.14921001 0.051245999
0.051490001 0.15041 0.049757
0.044300999 0.10856 0.069530003
0.044002999 0.109 0.069913998
0.044080999 0.10793 0.069130003
0.042516999 0.20206 0.083903998
0.042755 0.2024 0.083097003
0.081795998 0.13659 0.095742002
0.081832998 0.13575 0.095660999
0.079526 0.10775 0.12830999
0.079461999 0.10815 0.12718
0.055860002 0.10103 0.069007002
0.055178002 0.10021 0.069296002
0.056782 0.10074 0.068689004
0.050340999 0.19965 0.074075997
0.050273001 0.20024 0.075516
0.034938 0.075709999 0.071148001
0.035971999 0.075561002 0.072442003
0.035546001 0.076631002 0.071865
0.019871 0.12495 0.032526001
0.020680999 0.12549999 0.032804001
0.077169999 0.10696 0.11788
0.077790998 0.10725 0.11658
0.076233 0.10686 0.11712
0.081322998 0.11195 0.12609001
0.081444003 0.11233 0.12515999
0.081418999 0.11237 0.12473
0.066918999 0.10049 0.053155001
0.066958003 0.10002 0.054088999
0.066303998 0.099606 0.053865999
0.070018001 0.12628999 0.091242999
0.069757998 0.12487 0.091948003
0.070413001 0.12552001 0.091751002
0.083819002 0.13055 0.038426999
0.041508 0.20304 0.077734999
0.041972999 0.20280001 0.078386001
0.055503 0.15246999 0.046856999
0.034396 0.17889 0.056095
0.095622003 0.11459 0.071041003
0.095385998 0.11455 0.072099
0.044064 0.18939 0.075519003
0.044674002 0.18895 0.075189002
0.045104001 0.19009 0.076090001
0.031284001 0.058584001 0.069963001
0.030781001 0.058947001 0.069379002
0.029955 0.058598001 0.068961002
0.10497 0.13832 0.070584998
0.038508002 0.097625002 0.054967999
0.038451001 0.098624997 0.054508999
0.038706999 0.098563999 0.05376
0.044443998 0.088499002 0.029214
0.045083001 0.088449001 0.028210999
0.045726001 0.088489003 0.02874
0.10258 0.14947 0.073857002
0.10297 0.14883 0.072552003
0.10259 0.15015 0.072498001
-0.01929 0.088693 0.015153
-0.019369001 0.087954998 0.016507
-0.020219 0.088794 0.015876999
0.032731999 0.071402997 0.057289999
0.077592999 0.16355 0.057689998
0.078383997 0.16336 0.056582998
0.071024999 0.13984001 0.10371
0.090538003 0.16215 0.072748996
0.091292001 0.16219001 0.072183996
0.090379998 0.16247 0.071649998
0.054088 0.10092 0.069426998
0.054510001 0.10231 0.069895998
0.053971998 0.10176 0.069875002
0.038550999 0.076609001 0.07401
0.039198998 0.077175997 0.074286997
0.038093999 0.077289999 0.073477998
-0.019227 0.093993999 0.023347
0.031404 0.1813 0.072122999
0.031337999 0.18268999 0.072499998
0.031020001 0.18244 0.071486004
0.057904001 0.075906001 0.066111997
0.084921002 0.11781 0.12389
0.059446 0.076995 0.061742999
0.059845999 0.077597998 0.063451998
0.059301998 0.076416001 0.062919997
0.098674998 0.11839 0.070541002
0.097917996 0.11846 0.071483999
0.0032681001 0.096366003 0.015252
0.0023785001 0.096239001 0.014779
0.088007003 0.10392 0.13135999
0.093060002 0.15198 0.11355
0.093539 0.15362 0.11311
0.093843997 0.15297 0.11403
0.068844996 0.1215 0.092442997
0.069673002 0.12084 0.092283003
0.044585999 0.086699001 0.074074
0.064511999 0.11155 0.082431003
0.0026356999 0.11757 0.036442999
0.072894 0.16401 0.074738003
0.073657997 0.164 0.074913003
0.019072 0.039480001 0.041471999
0.077001996 0.16271 0.070658997
0.076388001 0.16353001 0.071904004
0.077110998 0.16344 0.072224997
0.046108 0.20276 0.076629996
0.045740001 0.20311999 0.077427
0.045869 0.16107 0.048919
0.045124002 0.16088 0.049194001
0.046243001 0.16163 0.048429001
0.095536001 0.11254 0.11202
0.095357999 0.11313 0.11329
0.095455997 0.11217 0.11342
0.011487 0.090586998 0.025350001
0.012176 0.090971999 0.026281999
0.011634 0.090550996 0.026354
0.071815997 0.12364 0.092693001
0.071236998 0.12354 0.092462003
0.0058725001 0.11596 0.045217
0.0062437998 0.11503 0.045867
0.0063649998 0.1167 0.046055
0.047963001 0.12737 0.076229997
0.047281001 0.12784 0.075345002
0.046519 0.12710001 0.075149
0.077707 0.1051 0.086430997
0.087612003 0.11566 0.047444999
0.086277001 0.11472 0.047501002
0.086276002 0.11485 0.047320001
0.070494004 0.16094001 0.079692997
0.071741998 0.16061001 0.079829
0.072614998 0.16067 0.079461999
0.018332001 0.1284 0.041577999
0.018542999 0.12867001 0.040798999
0.099689998 0.12325 0.055668
0.10021 0.12431 0.055217002
0.096789002 0.13553999 0.082970001
0.096198998 0.13473 0.083902001
0.053484999 0.11792 0.083183996
0.054664001 0.11851 0.084066004
0.093754999 0.099091001 0.12268
0.083504997 0.16325 0.085041001
0.082891002 0.16313 0.08495
0.086193003 0.10026 0.12754001
0.022027001 0.12021 0.052848
0.021741999 0.11925 0.053302001
0.05624 0.12399 0.087402001
0.055497002 0.12491 0.087035
0.054595999 0.12413 0.086434998
0.0011662 0.080250002 0.017843001
0.0006196 0.079832003 0.01761
0.1 0.13108 0.079287
0.10012 0.13048001 0.079319999
0.05522 0.13914999 0.080750003
0.054846998 0.13828 0.080998003
0.041831002 0.099716999 0.040178001
0.042417999 0.099266998 0.040748
0.041871998 0.10023 0.041469999
0.029801 0.070937999 0.063281
0.073348001 0.1489 0.10676
0.072389998 0.14972 0.10702
0.076284997 0.18012001 0.097442999
0.076453 0.17916 0.097690001
0.076981001 0.17896999 0.096777998
0.070501 0.12800001 0.092407003
0.062192 0.1565 0.078685001
0.061404001 0.15651999 0.078134
0.085899003 0.13868 0.039009999
0.085960001 0.13917001 0.038823001
0.042249002 0.092449002 0.032419998
0.043311998 0.091875002 0.033337001
0.076792002 0.11666 0.14922
0.024389001 0.12673999 0.033330999
0.051105998 0.11484 0.075378001
0.030725 0.048549999 0.047619998
0.054365002 0.14331 0.079719
0.00080753001 0.099606 0.037967
0.10032 0.12394 0.075286999
0.10026 0.12495 0.076738
0.099808 0.12361 0.076775998
0.090456001 0.10586 0.13304999
0.089431003 0.10534 0.13344
0.060623001 0.11706 0.088032
0.060605001 0.11789 0.088402003
0.059843 0.11775 0.087745003
0.056806002 0.14399 0.088362001
0.057789002 0.14356001 0.087461002
0.10228 0.12651999 0.067519002
0.10388 0.13217001 0.061944
0.079512998 0.15279999 0.10976
0.090809003 0.11393 0.14137
0.090034001 0.11497 0.14211001
0.089783996 0.1137 0.14244001
0.023700001 0.041533999 0.053011999
0.023161 0.041361 0.054060001
0.023279 0.040249001 0.053149998
0.030227 0.06154 0.070180997
0.029335 0.062100999 0.069742002
0.029076001 0.061438002 0.069444001
0.050400998 0.090838 0.023943
0.050647002 0.090198003 0.024769001
0.080342002 0.10978 0.13403
0.075792998 0.178 0.099031001
0.022808 0.10476 0.043056
0.077068001 0.16746999 0.093014002
0.076843999 0.16723 0.093904004
0.076931998 0.16643 0.093070999
0.04733 0.14714999 0.063451998
0.047959 0.14794999 0.063606001
-0.0035158 0.10675 0.032136001
-0.0033269001 0.10742 0.033163998
-0.003235 0.10787 0.031732
0.082488999 0.11569 0.14145
0.082814999 0.11541 0.14049
0.076033004 0.12876 0.096547998
0.075544 0.12845001 0.096139997
0.041150998 0.1699 0.070261002
0.040366001 0.1693 0.069532998
0.093841001 0.15356 0.11762
0.010474 0.048261002 0.043671999
0.092389002 0.15035 0.11688
0.092234001 0.15026 0.11639
0.093111001 0.15076999 0.11672
0.0131 0.099457003 0.034965999
0.012638 0.098557003 0.035464
0.013149 0.098301001 0.035106
0.0024561 0.11382 0.033229001
0.0014910999 0.11291 0.033142999
0.0018768 0.11437 0.034242
0.025017999 0.070175998 0.059402
0.051022001 0.090094 0.021906
0.051642999 0.089622997 0.020951999
0.078357004 0.10383 0.10269
0.048967 0.090686001 0.029956
0.094368003 0.11368 0.12723
0.094906002 0.11357 0.12640999
0.088601001 0.14779 0.11066
0.088319004 0.14799 0.10944
0.042996 0.059181999 0.057558
0.042750999 0.058178 0.057009999
0.044691999 0.17451 0.05367
0.045559999 0.1752 0.05381
0.051120002 0.19410001 0.074536003
0.050928 0.19485 0.073875003
0.051516 0.19578999 0.074537002
0.039872002 0.11597 0.033859
0.039181001 0.11641 0.033496998
0.037654001 0.20338 0.081142001
0.038589001 0.20367 0.080985002
0.073244996 0.17878 0.097606003
0.083058998 0.11339 0.13095
0.082719997 0.11283 0.12904
0.082413003 0.11252 0.13045999
0.063732997 0.097851001 0.051821999
0.097126998 0.12189 0.080884002
0.084841996 0.16314 0.085349001
0.084213004 0.16364001 0.084680997
0.057459 0.15482 0.10187
0.057185002 0.15426999 0.1025
0.029036 0.063212998 0.046774
0.028945001 0.064791001 0.047570001
0.036708999 0.10141 0.060970999
0.035698 0.10132 0.060989998
0.035220001 0.10173 0.060210999
0.016347 0.031663999 0.055218998
0.088307001 0.097003996 0.11147
0.088509999 0.096623003 0.11318
0.087426998 0.097092003 0.11236
0.055778999 0.15388 0.046498001
0.056382999 0.15466 0.046094999
0.056228001 0.15304001 0.046838999
0.0065433001 0.086994 0.029778
0.043223001 0.062642999 0.063239999
0.042745002 0.061003 0.063679002
0.052824002 0.13866 0.046737999
0.053475998 0.1397 0.045586001
0.053254999 0.13856 0.045604002
0.078654997 0.16358 0.059540998
0.080224 0.16351999 0.059108
0.079325996 0.16369 0.058350999
0.025101 0.067791 0.063964002
0.025016 0.066515997 0.064232998
0.025564 0.066878997 0.064694002
0.022033 0.1243 0.050864
0.031192999 0.067621 0.069734
0.052166 0.084825002 0.018533001
0.051279001 0.083866 0.017887
0.048760001 0.072786003 0.053279001
0.092743002 0.13038 0.088738002
0.092331998 0.12953 0.089555003
0.092699997 0.12901001 0.088936001
0.020873001 0.11102 0.028452
0.068926997 0.16395999 0.060371999
0.067502998 0.16339 0.059785001
0.068337001 0.16401 0.061631002
0.099981003 0.15192001 0.078364
-0.024971001 0.093336999 0.018792
-0.024116 0.092977002 0.018213
0.04721 0.15302999 0.10566
0.046856999 0.15219 0.10522
0.046523001 0.15270001 0.10618
0.020512 0.04462 0.040498
0.020446001 0.045350999 0.039740998
0.038851 0.16159999 0.057548001
0.038906999 0.16097 0.057698
0.0018574001 0.11201 0.030692
0.0031109001 0.11226 0.030073
0.0021984 0.11191 0.029702
0.062622003 0.11368 0.037781999
0.066777997 0.11491 0.040610999
0.066033997 0.11593 0.039967999
0.066933997 0.11612 0.040277999
0.07367 0.15239 0.105
0.072894 0.15279 0.10544
0.046138 0.094915003 0.038056001
0.044651002 0.095587 0.038546
0.044927999 0.095280997 0.037519
0.043756999 0.13154 0.056256998
0.052638002 0.14762001 0.050561
0.052289002 0.14857 0.050785001
0.0077272998 0.11523 0.032033
0.061554998 0.085360996 0.055920001
0.061266001 0.084619001 0.054816999
0.061398 0.086240001 0.055247001
0.030924 0.19693001 0.080053002
0.031367999 0.19588 0.080972999
0.011807 0.047835 0.054531001
0.010856 0.046827 0.054914001
0.011795 0.047079001 0.055342998
0.033220999 0.17066 0.065381996
0.033427998 0.17053001 0.064480998
0.034092002 0.16965 0.065039001
0.041115999 0.12177 0.069536999
0.040867001 0.12197 0.068907999
0.064517997 0.16105001 0.072191998
0.065305002 0.16098 0.072511002
0.065747 0.16128001 0.071677998
0.10031 0.12287 0.073949002
0.054797001 0.083980002 0.047945
0.055314001 0.083306998 0.048948001
0.044039 0.094511002 0.069536
0.045058001 0.095370002 0.070054002
0.043545 0.095333003 0.068925001
0.045563001 0.13526 0.077010997
0.044932999 0.13438 0.075769998
0.045203999 0.13437 0.076641001
0.021364 0.058513001 0.061921
0.020646 0.059158001 0.061257001
0.080605999 0.10177 0.13849001
0.081243001 0.1022 0.13936999
0.087972999 0.10257 0.091123
0.089098997 0.1026 0.091813996
0.088206001 0.10242 0.091966003
0.038454 0.066714004 0.052588001
0.038699001 0.066958003 0.053202
0.039585002 0.066379003 0.053571001
0.086180001 0.14374 0.039599001
0.086576 0.14463 0.040137999
0.087215997 0.14352 0.040561002
0.023499999 0.048344001 0.059459999
0.040351 0.063170001 0.052273002
0.040888999 0.062841997 0.052723002
0.040851001 0.061930001 0.052405
0.036754999 0.20054001 0.073018998
0.035673 0.19991 0.072573997
0.014769 0.041221999 0.063092999
0.049497001 0.10078 0.033842001
0.049405999 0.10127 0.034150001
0.079020999 0.11128 0.1122
0.079925999 0.11215 0.1124
0.037531 0.20046 0.072980002
0.039441999 0.067059003 0.054590002
0.040348999 0.065970004 0.054692
0.080734998 0.10358 0.13008
0.081570998 0.1036 0.12924001
0.032274999 0.19009 0.071200997
0.032350998 0.19038001 0.070418
0.03198 0.18948001 0.069943003
0.096831001 0.12045 0.079051003
0.096352004 0.11955 0.078681998
0.097397998 0.12079 0.078411996
0.068879001 0.10697 0.044844002
0.052581001 0.11484 0.035769999
0.030144 0.065413997 0.069796003
0.084265001 0.11978 0.14331999
0.043076001 0.1293 0.048723001
0.047555 0.067515999 0.059268001
0.046844002 0.067446001 0.059335001
0.073896997 0.18347 0.095311999
0.073960997 0.18416999 0.096461996
0.0744 0.18367 0.095866002
0.049155999 0.14959 0.10125
0.048020002 0.15049 0.1018
0.049090002 0.15057001 0.10126
0.038474001 0.088863 0.069104999
0.038277 0.089580998 0.068324998
0.033052001 0.12806 0.040514998
0.034093 0.12727 0.040089998
0.033537 0.12766001 0.039476
0.063786998 0.13202 0.037136
0.062706001 0.13203999 0.037774999
0.062931001 0.13269 0.037262999
0.088954002 0.13807 0.092119001
0.049961999 0.14332999 0.052097
0.034118 0.1822 0.055640999
0.034867998 0.18177 0.054474998
0.034706 0.18099 0.054815002
0.039728999 0.16505 0.063551001
0.038286 0.16553 0.063176997
-0.0012094 0.078749001 0.020555001
-0.0018045 0.078093 0.02186
0.064576998 0.15473001 0.10328
0.065228999 0.15383001 0.10375
0.065938003 0.15437999 0.10425
0.086278997 0.12131 0.095489003
0.086213998 0.12173 0.093938999
0.044670001 0.13913999 0.063417003
0.044693999 0.14008 0.063483
0.092781 0.14149 0.088958003
0.093653999 0.14123 0.088127002
0.093406998 0.14185999 0.087651998
0.090281002 0.10892 0.080816001
0.089399002 0.10798 0.080725998
0.050170001 0.089965999 0.045832001
0.049058001 0.091260001 0.045795001
0.049903002 0.091003999 0.04575
0.084651999 0.10869 0.059271
0.083150998 0.10776 0.059785001
0.014431 0.031599998 0.062426001
0.1053 0.13924 0.065989003
0.0024490999 0.089841001 0.012865
0.095862001 0.10768 0.12572999
0.095578998 0.10781 0.12672
0.095850997 0.10725 0.12564
0.014409 0.10267 0.039884999
0.013505 0.10322 0.041039001
0.013469 0.10232 0.039478999
0.079319 0.13046999 0.037432998
0.078484997 0.13138001 0.037367001
0.032166999 0.19057 0.066036999
0.032561 0.19063 0.064787999
0.096766002 0.15696999 0.075029001
0.097372003 0.15642001 0.075787
0.098121002 0.15662 0.074550003
0.087093003 0.16181999 0.057576001
0.086987004 0.16237999 0.057236001
0.082482003 0.16143 0.085133001
0.082989998 0.16092999 0.085752003
0.020273 0.053769 0.042706002
0.019475 0.053888999 0.043388002
0.053091001 0.070733003 0.068492003
0.052042 0.069775 0.067915
0.053484 0.070759997 0.066944003
0.032237001 0.19446 0.080135003
0.031964 0.19489001 0.080306001
0.031099999 0.19485 0.079558998
0.022396 0.12341 0.051654
0.087499999 0.096493997 0.11406
0.089033 0.096244 0.11364
0.094132997 0.12574001 0.087503001
0.057599999 0.095301002 0.045288
0.057578001 0.096138 0.045012999
0.057964999 0.095385 0.045258999
0.029634001 0.071772002 0.058513001
0.030193999 0.071759 0.057572
0.028728999 0.071745999 0.057989001
0.025147 0.044511002 0.055700999
0.025222 0.044323999 0.054928001
0.042240001 0.12657 0.065132
0.021017 0.10754 0.030084001
0.036210999 0.12244 0.035647999
0.036589 0.12278 0.036607001
0.092800997 0.11076 0.083766997
0.092762999 0.11059 0.082786001
0.075236998 0.16675 0.097604997
0.075289004 0.13817 0.10022
0.085626997 0.15772 0.10656
0.069168001 0.16265 0.088229999
0.069972999 0.16225 0.087251998
0.073138997 0.16301 0.057957999
0.073625997 0.16324 0.056848999
0.017594 0.044516001 0.03703
0.017239001 0.043244999 0.036958002
0.093269996 0.11316 0.099783003
0.093220003 0.11327 0.10016
0.029115999 0.11105 0.029931
0.078930996 0.10644 0.13237999
0.079255998 0.10557 0.13160001
0.033996999 0.18116 0.055904999
0.033677999 0.18095 0.056703001
0.067659996 0.16404 0.066900998
0.067019001 0.16353001 0.065908998
0.066959001 0.16312 0.066615999
0.023282999 0.10769 0.030363001
0.024584001 0.10748 0.030707
-0.028852999 0.093052 0.030978
-0.02777 0.093199998 0.031833999
0.075136997 0.11833 0.092991002
0.075204 0.11736 0.093788996
0.095303997 0.1123 0.1109
0.095141999 0.1129 0.11052
0.010877 0.047037002 0.054219
-0.001762 0.074608997 0.017697001
-0.00095392001 0.074562997 0.016377
-0.0081682 0.080456004 0.011713
0.050696 0.091282003 0.021407999
0.050872002 0.091011003 0.022964999
0.055351999 0.15389 0.094430998
0.055273 0.15346999 0.094734997
0.1025 0.14559001 0.077138998
0.10297 0.14511 0.076012
0.10252 0.14614999 0.075508997
0.096041001 0.1476 0.085334003
0.096635997 0.14725 0.083991997
0.096171997 0.14817999 0.085065998
0.022390001 0.036761001 0.055920999
0.049817 0.16784 0.065064996
0.049352001 0.16874 0.064967997
0.065869004 0.15716 0.048611999
0.033282001 0.19212 0.071912996
-0.0043895999 0.087049 0.027291
-0.0046874001 0.087224998 0.027042
0.04036 0.12331 0.063276999
0.040119998 0.12366 0.061702002
0.040158998 0.12365 0.062569998
0.054673001 0.14855 0.048174001
0.054795001 0.14969 0.048252001
0.055464 0.14926 0.048137002
0.036520001 0.12720001 0.053606
0.058483001 0.14527 0.084090002
0.058873001 0.14624999 0.083274998
0.064583004 0.16231 0.052956998
0.063730001 0.1628 0.052584
0.063244998 0.16345 0.053713001
0.0043811002 0.083594002 0.016783999
0.0042309999 0.084169 0.016153
0.0051632002 0.084876999 0.016586
0.043726999 0.087508 0.022597
0.047332 0.13775 0.054203
0.084073998 0.16293 0.074887
0.0098623997 0.045522001 0.038918
0.0096596004 0.046317998 0.039046999
0.010031 0.047086999 0.038681
-0.019733001 0.086694002 0.022057001
0.042149998 0.10305 0.036809999
0.021598 0.043968 0.041310001
0.016012 0.054848 0.052078001
0.072818004 0.11595 0.091366
0.072861999 0.11535 0.091049001
0.073311999 0.11508 0.091195002
0.067864001 0.10405 0.064479999
0.067763001 0.10501 0.065701
0.066974998 0.1044 0.065369003
0.064204 0.14869 0.043892998
0.063331999 0.14793 0.043692999
0.062794998 0.14805999 0.044473
0.067314997 0.16313 0.067478999
0.082869999 0.10058 0.10095
0.083448999 0.10058 0.10282
0.082229003 0.10098 0.10203
0.072093002 0.17856 0.099935003
0.053557999 0.14952999 0.11191
0.097589999 0.12164 0.079957999
0.097026996 0.12114 0.079977997
0.038484 0.10311 0.064597003
0.039248999 0.10239 0.064828001
0.048152 0.089032002 0.046239
0.048448998 0.088219002 0.046429001
0.047442 0.088371001 0.046464
0.089509003 0.13444 0.040523
0.088758998 0.13472 0.040107001
0.080077 0.12252 0.094531998
0.079728998 0.12328 0.094766997
0.0788 0.12232 0.094462
0.047361001 0.095673002 0.02537
0.087918997 0.15706 0.11488
0.086920999 0.15730999 0.11408
0.038275 0.1699 0.055048
0.037900001 0.16909 0.055266999
0.037172001 0.16959 0.056138001
0.094723001 0.15005 0.087692
0.094888002 0.14896999 0.086886004
0.095173001 0.14997 0.086795002
0.049162 0.14329 0.098857
0.048689999 0.14358 0.099959999
0.049419999 0.1444 0.10046
0.012881 0.093590997 0.030772001
0.067651004 0.16427 0.066110998
0.065583996 0.14501999 0.10656
0.063901 0.1454 0.10665
0.064167999 0.14477 0.10593
0.068655998 0.16061001 0.051833
0.066990003 0.1604 0.051752001
0.067492001 0.16069999 0.052703001
0.033521999 0.10849 0.060302999
0.033659 0.11003 0.060532998
0.033916 0.10931 0.060089
0.077266 0.15673999 0.046188999
0.083003998 0.1517 0.10668
0.08405 0.15153 0.10677
0.041620001 0.20326 0.084716998
0.041692998 0.20288999 0.083328001
0.041336 0.2035 0.083077997
0.077202998 0.14194 0.037593
0.076904997 0.14261 0.037767999
0.077463001 0.14345001 0.037452001
0.10521 0.13755 0.065931998
0.10428 0.14040001 0.056705002
0.050767999 0.18968 0.066579998
0.050585002 0.19013999 0.066496998
0.048790999 0.067083001 0.066523001
0.066615999 0.15968999 0.050554
0.067528002 0.15996 0.051249001
0.067570999 0.1594 0.050618
0.030586001 0.070524 0.064778998
0.043901 0.19097 0.076604001
0.043643001 0.19 0.075966999
0.044247001 0.1901 0.076165996
0.031789001 0.047285002 0.054393001
0.095021002 0.10834 0.12724
0.096006997 0.10865 0.12632
0.039450999 0.091886997 0.067753002
0.038672999 0.091105998 0.067189999
0.037012 0.10265 0.047756001
0.038447998 0.10294 0.047177002
0.038093999 0.10311 0.048211999
0.085882999 0.11841 0.10122
0.085470997 0.11883 0.10081
0.085322 0.11833 0.10174
0.041878 0.067139998 0.076970004
0.040897999 0.066446997 0.076995999
0.085937001 0.11626 0.12928
0.049392 0.14925 0.052795999
0.091822997 0.11518 0.078691997
0.091551997 0.11499 0.077515997
0.092482999 0.11565 0.078258
0.058984 0.16599999 0.059912998
0.059827 0.16546001 0.060561001
0.055916 0.15432 0.099097997
0.056582998 0.1547 0.099344999
0.055594001 0.15454 0.098595999
0.073725 0.18155 0.099319004
0.033874001 0.19167 0.061917
0.034435 0.19207001 0.061501998
0.00011884 0.087041996 0.030586001
-0.00017099 0.087104 0.030421
0.036166001 0.16809 0.062437002
0.036711 0.16727 0.062925003
0.036444001 0.16808 0.063024998
0.050179999 0.1242 0.077822
0.050363 0.12541001 0.077939004
0.049741998 0.1245 0.077466004
0.059365999 0.10714 0.071333997
0.059326001 0.10652 0.069964997
0.047136001 0.15333 0.10936
0.047215998 0.15356 0.10866
-0.0021837 0.094016999 0.033753999
-0.0016372 0.093185 0.033649001
-0.0013962 0.0942 0.034919001
0.022224 0.033860002 0.060343999
0.022669001 0.0341 0.059308
0.007894 0.097218998 0.038902
0.10307 0.14424001 0.076467
0.082837 0.11366 0.046507999
0.082433 0.11443 0.045758002
0.083821997 0.11466 0.046618
0.033162002 0.10556 0.053564999
0.033211999 0.10497 0.054205999
0.045272999 0.13958 0.061078999
0.045439001 0.13939001 0.060047999
0.044858001 0.13854 0.060989
0.048498999 0.067787997 0.060988002
0.047765002 0.067184001 0.060727
0.076586999 0.1159 0.097473003
0.076024003 0.11528 0.097314999
0.076802 0.11543 0.098413996
0.076536 0.17761 0.098091997
0.076498002 0.17862999 0.098536998
0.079099 0.10124 0.12325
0.076986998 0.16602001 0.094187997
0.034060001 0.10226 0.060883
0.03492 0.1018 0.061361998
0.028385 0.1244 0.052235998
0.070660003 0.10622 0.064451002
0.070479997 0.10572 0.063198999
0.070982002 0.10592 0.063493997
-0.021996999 0.095137 0.028208001
-0.021523001 0.095337003 0.028783999
0.013776 0.10378 0.024667
0.013444 0.10307 0.023491001
0.034085002 0.10335 0.056207001
0.034239002 0.10289 0.056848001
0.033744 0.10323 0.057365
0.085458003 0.13544001 0.092784002
0.070555001 0.10509 0.050012
0.070219003 0.10521 0.049389001
0.071199 0.10597 0.0495
-0.00097825006 0.11466 0.039804999
-0.00098929997 0.11536 0.038993001
0.028472001 0.12917 0.045458
0.027663 0.12890001 0.045221999
0.056304999 0.15297 0.074761003
0.055496 0.15188 0.074019
0.090622999 0.11023 0.13959999
0.091986999 0.11068 0.13880999
0.047807999 0.17073999 0.049681999
0.048119999 0.17027 0.048725002
0.046666998 0.16978 0.049337
0.048783001 0.090891004 0.017697999
0.073579997 0.16346 0.066996999
0.077445999 0.1621 0.053539999
0.078111 0.16197 0.053704999
0.010788 0.037071001 0.059122998
0.010491 0.037643 0.058178999
0.011149 0.036901999 0.058701999
0.037368 0.2023 0.087159999
0.037471 0.20129 0.087842003
0.037322 0.20282 0.088051997
0.048921999 0.13936999 0.052386999
0.049582999 0.13913 0.051173002
0.059535 0.078313999 0.065222003
0.059464999 0.078152001 0.065862
0.049392998 0.19027001 0.072880998
0.049364001 0.19106001 0.071585
0.081505999 0.11589 0.10751
0.082336001 0.11673 0.10774
0.083053 0.11614 0.10691
0.085963003 0.15542001 0.046371002
0.084306002 0.15589 0.045832999
0.08529 0.15620001 0.04597
0.016376 0.10567 0.044527002
0.01588 0.10609 0.045053001
0.015246 0.1066 0.045483999
0.044553999 0.16125999 0.064731002
0.044349 0.16032 0.064349003
0.011694 0.038791999 0.064641997
0.10297 0.14585 0.074587002
0.10299 0.14493001 0.075254001
0.093018003 0.14914 0.04558
0.092606999 0.14975999 0.045384001
0.092863999 0.14984 0.046117
0.040578999 0.10207 0.045531999
0.075136997 0.17296 0.091155
0.076256998 0.17258 0.092008002
0.037939999 0.12739 0.042428002
0.038279001 0.12703 0.042148001
0.10313 0.1481 0.071479999
0.095904998 0.15453 0.053323999
0.095083997 0.15497001 0.053130999
0.021746 0.066128001 0.060444999
0.021508001 0.065769002 0.060128
0.021746 0.065615997 0.061140001
0.035324 0.11335 0.064598002
0.035579 0.11379 0.065113999
0.035358001 0.11436 0.064113997
0.070998996 0.14157 0.037397001
0.071617998 0.14128 0.037105002
0.070827 0.14035 0.037193
0.069366001 0.1084 0.076554
0.068567999 0.10849 0.076981999
0.068756998 0.10823 0.076300003
0.021488 0.1207 0.052464001
0.022051999 0.12164 0.052359998
0.020772001 0.12117 0.052407
0.064254999 0.13646001 0.038267002
0.063639 0.13755 0.03864
0.044594001 0.12620001 0.073737003
0.04538 0.12712 0.074018002
-0.0039287 0.10276 0.034502
-0.003704 0.10451 0.034673002
-0.0041081998 0.10363 0.034193002
0.089226 0.097245 0.11174
0.088726997 0.096901 0.11266
0.051927 0.18185 0.062711999
0.052407 0.18100999 0.063560002
0.051911999 0.18042 0.063115001
0.087004997 0.15222999 0.11062
0.086883999 0.15191001 0.11019
0.0063732001 0.041227002 0.067731
0.086085998 0.14560001 0.093640998
0.085750997 0.14489 0.093437001
0.035484001 0.079504997 0.058850002
0.059751 0.078364 0.056414001
0.048811 0.19276001 0.06566
0.048227999 0.19329999 0.066829003
0.093811996 0.13173001 0.086240999
0.093832999 0.13088 0.085055001
0.094226003 0.13156 0.085105002
0.032120999 0.20205 0.082364
0.045782998 0.13003001 0.073400997
0.051300999 0.18007 0.059385002
0.037877999 0.089579001 0.056187
0.038332999 0.090451002 0.056285001
0.038135 0.089235999 0.055210002
0.091240004 0.11441 0.052700002
0.090400003 0.1139 0.052738
0.033358999 0.11827 0.029448001
0.032483 0.11878 0.029376
0.078787997 0.15928 0.048652999
0.078079 0.15996 0.049077999
0.062757 0.095337003 0.051268999
0.062521003 0.095282003 0.052258998
0.037643 0.10053 0.061466001
0.092960998 0.15276 0.12024
0.085743003 0.1582 0.048567001
0.085345 0.15854 0.049091
0.045983002 0.13108 0.076550998
0.046661999 0.13036001 0.076880001
0.046519998 0.13150001 0.077237003
0.0068279002 0.11202 0.028658999
0.072582997 0.11912 0.041207999
0.021919001 0.066987 0.054111999
0.021036001 0.065830998 0.054212999
0.02122 0.066808 0.054630999
0.091734 0.1024 0.10695
0.092616998 0.10348 0.10693
0.035746999 0.1009 0.059323002
0.065912999 0.14625999 0.040286999
0.065430999 0.14548001 0.040018
0.064598002 0.14588 0.040594
0.030696001 0.047959998 0.056809999
0.030864 0.048142999 0.056919999
0.041184001 0.056095999 0.053502001
0.041730002 0.057014 0.053112
0.041735001 0.057190999 0.053932998
0.090152003 0.11063 0.068756998
0.089176998 0.11015 0.068516999
0.089620002 0.11017 0.067679003
0.0087237004 0.09262 0.036350001
0.0077648 0.092097998 0.036173001
0.053909998 0.13018 0.081871003
0.053957999 0.131 0.081248
0.099633999 0.12367 0.055020999
0.02572 0.068466999 0.064829998
0.025249001 0.067933999 0.064686
0.026267 0.067966998 0.065017
0.011358 0.038164001 0.064805001
0.078378998 0.10912 0.13703001
0.036389999 0.069410004 0.074900001
0.042412002 0.074823998 0.051906999
0.035897002 0.18329 0.053805999
0.094309002 0.11506 0.11518
0.078541003 0.10983 0.14361
0.078538999 0.11036 0.14228
0.077496 0.10998 0.14196
-0.014311 0.093051001 0.019650999
-0.014224 0.092407003 0.018402999
-0.014526 0.093015999 0.018526999
0.019845 0.046239 0.039209001
0.019370999 0.045453001 0.038493998
0.018720999 0.046494 0.038079999
0.10022 0.14685 0.051800001
0.10028 0.14634 0.050965998
0.099435002 0.14724 0.050627001
0.083846003 0.1432 0.038594
0.085165001 0.14296 0.039014999
0.084453002 0.14229999 0.038637001
0.079673998 0.10628 0.14388999
0.078705996 0.10746 0.1443
0.076545 0.16137999 0.084191002
0.084476002 0.11589 0.045593001
0.084716 0.11582 0.046294998
0.084844001 0.11493 0.046790998
0.035679001 0.12065 0.033027001
0.035298001 0.12208 0.033587001
0.057735998 0.13967 0.088463001
0.058329999 0.13883001 0.089313999
0.049541999 0.18826 0.073730998
0.050291002 0.18786 0.072865002
0.050331 0.18842 0.072746001
0.057441998 0.1398 0.089589998
0.058024 0.13901 0.089901999
0.047644001 0.14503001 0.10553
0.047290001 0.14531 0.10667
0.046285 0.14585 0.10586
0.084757999 0.13158999 0.094003998
0.084095001 0.13135999 0.094575003
0.0065985001 0.040816002 0.070367001
0.0060828999 0.039884001 0.070739001
0.043391999 0.17993 0.052048001
0.044406001 0.18077999 0.052021001
0.047582 0.14542 0.10415
0.097577997 0.13336 0.081298001
0.096860997 0.13361999 0.082313001
0.042192001 0.11893 0.035309002
0.042142 0.11986 0.035661001
0.042718001 0.11925 0.03531
0.038391002 0.11461 0.068125002
0.038265001 0.11325 0.068056002
0.038977999 0.11362 0.068655998
0.086553 0.15478 0.046475001
0.053773999 0.090737 0.070616998
0.017351 0.12526999 0.047541998
0.017339 0.12486 0.048351999
0.018537 0.12572999 0.047873002
0.091739997 0.098678 0.11118
0.050090998 0.19289 0.076824002
0.049293 0.19309001 0.077926002
0.072667003 0.16336 0.058859002
0.041494999 0.10706 0.068315998
0.098366 0.14903 0.049828
0.097819999 0.14760999 0.048647001
0.097585998 0.14819001 0.049148001
0.025549 0.054273002 0.064016998
0.024886999 0.054901 0.063405998
0.010301 0.11651 0.031810999
0.080936 0.10706 0.055059001
0.020686001 0.040282998 0.043595001
0.064084001 0.15530001 0.080041997
0.063626997 0.15488 0.079736002
0.063676 0.15435 0.080523998
0.082414001 0.11431 0.12159
0.083511002 0.11519 0.1211
0.10108 0.15370999 0.071695
0.086691998 0.14948 0.1037
0.086709 0.14929999 0.1028
0.043129001 0.13747001 0.065778002
0.053068999 0.12735 0.083439
0.053585999 0.1266 0.084593996
0.098044001 0.11943 0.057213001
0.052767999 0.14792 0.093974002
-0.0067910999 0.077895999 0.0099948002
-0.0076508 0.078479998 0.010586
0.036456998 0.184 0.074003004
0.037067998 0.18513 0.074577004
0.035865001 0.18469 0.074827
0.055252999 0.095345996 0.043749999
0.054251 0.096012004 0.043157
0.061710998 0.087302998 0.061956
0.061896 0.086641997 0.062368002
0.061742 0.087279998 0.060947999
0.072293997 0.17946 0.1004
0.092759997 0.10571 0.095725
0.012639 0.037048999 0.054439999
0.013165 0.036765002 0.053676002
0.058717001 0.16522001 0.061356999
0.058695 0.16444001 0.062307999
0.059312999 0.16466001 0.062029
-0.0059147002 0.078892 0.010296
0.053571999 0.14095999 0.10578
0.058120001 0.077592999 0.066735998
0.058947999 0.078284003 0.066767
0.10321 0.14662001 0.074401997
0.049155999 0.1533 0.10806
0.082983002 0.14252999 0.038196001
0.082446001 0.14320999 0.038274001
0.082722999 0.14385 0.038123999
0.026756 0.044865001 0.05009
0.025970999 0.0436 0.050898999
0.026132001 0.044140998 0.049713999
0.034662999 0.10154 0.058458
0.034115002 0.10244 0.058072999
0.072582997 0.10804 0.14589
0.073209003 0.1079 0.14495
0.024754001 0.058309 0.063800998
0.047364 0.092395 0.035351999
0.020081 0.038109001 0.045502
0.019162999 0.037583999 0.046011999
0.0088111004 0.12027 0.046700999
0.073760003 0.10537 0.146
0.073576003 0.1058 0.14458001
-0.0073886998 0.093227997 0.019064
-0.0082353 0.092105001 0.017743001
-0.0085121002 0.092350997 0.018901
0.025428001 0.046208002 0.045820002
0.024764 0.045497 0.045488
0.024445999 0.046500001 0.044472001
0.021072 0.050012998 0.059645999
0.020663001 0.049663998 0.059769001
0.10266 0.13248 0.055101998
0.10229 0.13154 0.055544
0.046381999 0.093148999 0.036219999
0.045814998 0.092373997 0.035496
0.046535 0.091895998 0.034931
0.084427997 0.10825 0.077113003
0.085190997 0.10865 0.076780997
0.085745998 0.10833 0.077491999
0.081235997 0.11321 0.11418
0.056584999 0.087894 0.070206001
0.055711001 0.087656997 0.070735
0.067096002 0.101 0.060743999
0.067717999 0.14571001 0.10676
0.083396003 0.11742 0.044078
0.084100001 0.11767 0.044128999
0.062712997 0.14595 0.10641
0.062793002 0.14455 0.106
0.084023997 0.154 0.1136
0.084719002 0.15387 0.1123
0.090745002 0.13805 0.092099003
0.090318002 0.13883001 0.092037998
0.089653 0.13835999 0.092201002
0.071236998 0.17121001 0.092729002
0.071892999 0.17215 0.093822002
0.071525 0.17222001 0.093002997
0.034115002 0.20093 0.087550998
0.034336999 0.20072 0.086676002
0.034876 0.20104 0.086430997
0.052368 0.14706001 0.094297998
0.071794003 0.16369 0.074821003
0.072617002 0.1064 0.062601
0.071796 0.10604 0.062693
0.080003001 0.11175 0.11696
0.079236001 0.1109 0.11688
0.0068577998 0.038495 0.072301
0.075979002 0.15374 0.10471
0.077347003 0.15418001 0.1041
0.046190001 0.10083 0.031408999
0.045536999 0.10046 0.031082001
0.046087999 0.12142 0.076113999
0.044925999 0.12158 0.075331002
0.058701999 0.12569 0.037071001
0.059032999 0.12479 0.037106998
0.058146998 0.12575001 0.037280999
0.042396002 0.20302001 0.08117
0.043196999 0.20326 0.080167003
0.042098001 0.20291001 0.079622
0.088053003 0.11911 0.098137997
0.087612003 0.1192 0.098769002
0.087944001 0.11859 0.099413
0.05161 0.19482 0.077441998
0.050367001 0.19396 0.078254998
0.046684001 0.088220999 0.046448998
0.047451999 0.087232001 0.046891
0.081773996 0.10147 0.13664
0.081188999 0.10146 0.13755
0.081602 0.11318 0.14718001
0.082002997 0.11352 0.14601
0.081033997 0.11387 0.14698
0.085624002 0.10052 0.12823001
0.086957999 0.10105 0.12809999
0.098168999 0.13199 0.048036002
0.097383 0.1312 0.047509
0.097172 0.13305999 0.047276001
0.035851002 0.078440003 0.055578999
0.035094 0.078291997 0.056116
0.035569001 0.079273999 0.055174999
0.018138999 0.059641 0.055328999
