# .PCD v0.7 - Point Cloud Data file format
VERSION 0.7
FIELDS x y z
SIZE 4 4 4
TYPE F F F
COUNT 1 1 1
WIDTH 1522
HEIGHT 1
VIEWPOINT 0 0 0 1 0 0 0
POINTS 1522
DATA ascii
0.13646001 0.046840999 0.10014
0.081772 -0.018751999 0.13146999
0.079976 -0.018895 0.13121
0.081036001 -0.019165 0.13214999
0.15094 0.050670002 0.097230002
0.15073 0.051459 0.097634003
0.078796998 -0.068425998 0.11556
0.078504004 -0.068896003 0.11708
0.078041002 -0.068162002 0.11574
0.066125996 -0.024331 0.12109
0.14261 0.033243001 0.083026998
0.14242999 0.032814998 0.083590999
0.036649998 -0.067675002 0.093979999
0.050717 -0.068970002 0.13793001
0.075488999 -0.067635998 0.14957
0.074646004 -0.067290001 0.14925
0.074229002 -0.068334997 0.149
0.072090998 -0.066243999 0.097972997
0.071671002 -0.066336997 0.098479003
0.071682997 -0.067276001 0.099261999
0.082332999 -0.080022 0.14916
0.083833002 -0.079433002 0.14802
0.083259001 -0.079268999 0.14914
0.048439998 -0.034763999 0.10997
0.048014998 -0.035666998 0.11061
0.048590999 -0.034669999 0.11073
0.17027 0.065994002 0.077086002
0.16960999 0.064929999 0.078006998
0.16902 0.065916002 0.078217
0.018498 -0.04569 0.10856
0.018344 -0.045566 0.10926
0.15900999 0.048462 0.10089
0.15804 0.049309999 0.10148
0.15790001 0.049346998 0.10077
0.18051 0.051165 0.099656001
0.18073 0.049958002 0.098126002
0.18100999 0.050677001 0.09905
0.068213999 -0.045729998 0.090180002
0.069609001 -0.045634001 0.089293003
0.068818003 -0.045779001 0.089170001
0.17832001 0.043251999 0.086258002
0.17811 0.043494001 0.087091997
0.071598001 -0.095904 0.11479
0.093309 -0.057023998 0.13918
0.093616001 -0.057153001 0.13981
0.093797997 -0.057526 0.13958
0.047517002 -0.080216996 0.068475999
0.035273001 -0.040008001 0.12155
0.034858 -0.039322998 0.12252
0.079713002 -0.046810001 0.098604001
0.027615 -0.044938002 0.12752999
0.028809 -0.045145001 0.12704
0.028192 -0.045598999 0.12712
0.17237 0.035661001 0.1016
0.17234001 0.035305001 0.099861003
0.17283 0.036086001 0.099751003
0.053482 -0.079379 0.073394999
0.05384 -0.080565996 0.074488997
0.053438 -0.080663003 0.073380999
0.12783 -0.0037994001 0.12525
0.064002 -0.049984999 0.085529
0.064960003 -0.050041001 0.086153001
0.081125997 -0.074092001 0.12883
0.082512997 -0.073501997 0.12971
0.081752002 -0.074469 0.12998
0.16192 0.074337997 0.095605001
0.16140001 0.074591003 0.094837002
0.16064 0.074003004 0.095530003
0.17660999 0.038203001 0.099895
0.17603999 0.037700001 0.098911002
0.17721 0.037746999 0.099152997
0.12077 0.019962 0.10139
0.12104 0.020343 0.10266
0.1222 0.019433999 0.10212
0.099163003 -0.018153001 0.083443001
0.15717 0.066202 0.088363998
0.12334 0.023559 0.10084
0.12385 0.024476999 0.10053
0.16035999 0.048388001 0.070960999
0.070828997 -0.093805999 0.10983
0.070332997 -0.093226999 0.10941
0.12698001 0.024325 0.092921004
0.12649 0.023277 0.093045004
0.050751999 -0.072200999 0.080292001
0.050115999 -0.072691001 0.079139002
0.049382001 -0.072460003 0.079655997
0.059361 -0.072835997 0.095844999
0.061361 -0.072618999 0.096225001
0.060040999 -0.073137999 0.096798003
0.040991999 -0.039608002 0.10974
0.040036 -0.040192999 0.10933
0.040167999 -0.039267 0.11036
0.10649 -0.022449 0.10265
0.10713 -0.021877 0.10172
0.10742 -0.02172 0.10265
0.080893002 -0.065264001 0.11787
0.17885 0.055643 0.076243997
0.17842001 0.053853001 0.076035999
0.17921001 0.054916002 0.075199999
0.14642 0.025598999 0.10568
0.14717001 0.026327999 0.10603
0.14582001 0.025914 0.10635
0.077127002 -0.018017 0.09815
0.078305997 -0.018230001 0.099188
0.078400001 -0.01894 0.097538002
0.043754 -0.042509001 0.14388999
0.043687999 -0.043876 0.14480001
0.094065003 -0.011055 0.12379
0.092922002 -0.012493 0.12398
0.094186001 -0.013117 0.12356
0.091858 -0.084729001 0.14065
0.091192998 -0.083972 0.14004
0.090713002 -0.083982997 0.13979
0.087307997 -0.048390999 0.10929
0.088118002 -0.047917001 0.10896
0.064177997 -0.069605 0.079475999
0.064999998 -0.068994999 0.079274997
0.064019002 -0.069339 0.080418997
0.065208003 -0.066490002 0.15093
0.065383002 -0.066729002 0.15029
0.066377997 -0.066159002 0.15006
0.15746 0.034947 0.10597
0.15786999 0.034986999 0.10677
0.15896 0.035493001 0.10633
0.042591002 -0.046528999 0.15181001
0.043347999 -0.046510998 0.15187
0.074097998 -0.089286998 0.11587
0.074385002 -0.088675 0.11576
0.046916001 -0.050873 0.16094001
0.046847001 -0.051289 0.16153
0.047419999 -0.051722001 0.16016001
0.098168001 0.0017436 0.11682
0.097447999 0.0026072001 0.11752
0.097593002 0.0011059 0.11665
0.15279999 0.052476 0.090795003
0.15256999 0.054375 0.089745
0.15323 0.053475 0.089084998
0.092385001 0.0051016002 0.12418
0.093133003 0.0049782 0.12296
0.093460001 0.0052076001 0.12351
0.15202001 0.017229 0.088385999
0.15290999 0.016461 0.089694001
0.15132999 0.016121 0.088932
0.080445997 -0.049892001 0.13589001
0.032148998 -0.069894999 0.072798997
0.033053 -0.069806002 0.070964999
0.12662999 0.0057885 0.11743
0.12756 0.0058558001 0.11875
0.1274 0.0045552002 0.11889
0.05607 -0.044463001 0.14398
0.056310002 -0.044626001 0.14459001
0.057091001 -0.045088999 0.14382
0.17023 0.059493002 0.097727001
0.17118999 0.05883 0.098270997
0.17054 0.059717 0.098718002
0.099032 -0.040564001 0.11919
0.098434001 -0.041753002 0.11995
0.099535003 -0.041583002 0.1187
0.087949999 -0.043478001 0.13350999
0.087165996 -0.044466 0.13349
0.088545002 -0.044380002 0.13252001
0.11981 -0.018325999 0.10067
0.12078 -0.019214001 0.10111
0.11917 -0.018993 0.10128
0.071957998 -0.025789 0.10006
0.072897002 -0.025096999 0.099745996
0.092347004 -0.0090971002 0.10228
0.092110999 -0.010442 0.10348
0.060366001 -0.032855999 0.13998
0.059546001 -0.032054 0.14043
0.058657002 -0.032988001 0.14045
0.13066 0.017975001 0.089244001
0.13105001 0.018053001 0.087663002
0.10956 0.013035 0.094425
0.1107 0.013736 0.094453
0.11008 0.012319 0.093686998
0.1186 -0.018663 0.10071
0.11803 -0.018452 0.10178
0.11776 -0.017878 0.10131
0.098612003 -0.030510999 0.11019
0.10002 -0.031558 0.11016
0.099358998 -0.031296 0.11036
0.11835 -0.019888001 0.11482
0.1193 -0.020383 0.11433
0.11809 -0.020884 0.11599
0.18076999 0.063675001 0.074575
0.18196 0.063075997 0.075365998
0.18186 0.062806003 0.074147999
0.17481001 0.058993001 0.096887998
0.1758 0.057854999 0.096869998
0.17573 0.058625001 0.096974999
0.053861 -0.042314 0.14289001
0.052584998 -0.041395999 0.14213
0.052407999 -0.041937001 0.14365999
0.036207002 -0.021574 0.12482
0.035576999 -0.021962 0.12427
0.03514 -0.021756001 0.12443
0.052221999 -0.060862999 0.16344
0.050675001 -0.060369998 0.16417
0.051251002 -0.061507002 0.16325
0.15882 0.021137999 0.098008998
0.15744001 0.021643 0.097756997
0.15922999 0.022077 0.097496003
0.017341999 -0.046973001 0.10696
0.018423 -0.047924001 0.10674
0.060791999 -0.026474001 0.12906
0.060469002 -0.027348001 0.13029
0.061333999 -0.028062999 0.12898
0.16903999 0.054756999 0.072028004
0.168 0.054393999 0.072705001
0.16808 0.054760002 0.073735997
0.13368 0.032680001 0.10444
0.13274001 0.031266998 0.10495
0.13416 0.032102998 0.10526
0.10457 -0.024405001 0.10252
0.10358 -0.025203999 0.10289
0.10356 -0.025551001 0.10156
0.16636001 0.043497 0.073710002
0.16497999 0.043256 0.072801001
0.16565 0.043827999 0.072961003
0.11735 0.012621 0.093428999
0.11736 0.011797 0.093289003
0.083493002 -0.010606 0.11169
0.082378998 -0.011005 0.11242
0.0836 -0.011178 0.11275
0.061827999 -0.055647001 0.15268999
0.063073002 -0.056496002 0.1533
0.062730998 -0.055486999 0.15270001
0.080603004 -0.083158001 0.14957
0.080954999 -0.081738003 0.14974999
0.080559999 -0.082363002 0.14955001
0.11763 -0.019159 0.10256
0.092670999 -0.030582 0.098135002
0.091802001 -0.029826 0.098608002
0.1521 0.022191999 0.082144
0.12996 -0.010973 0.12619001
0.13032 -0.011216 0.12519
0.13080999 -0.010791 0.12537
0.1135 -0.026005 0.1233
0.1131 -0.026159 0.12259
0.11209 -0.026852001 0.12277
0.066503003 -0.038809001 0.14031
0.066060998 -0.037719 0.14038
0.11798 0.014178 0.12416
0.11905 0.013191 0.12486
0.13347 -0.0039041 0.12522
0.13283999 -0.0050279 0.12574001
0.13681 -0.012906 0.11237
0.13744 -0.011899 0.11251
0.13697 -0.01274 0.11318
0.032182999 -0.026985999 0.12929
0.032837 -0.026931001 0.12931
0.091946997 -0.011888 0.092339002
0.090492003 -0.011975 0.094122998
0.091195002 -0.010917 0.093708999
0.13101999 0.030924 0.091399997
0.13061 0.031215999 0.091948003
0.13129 0.032129999 0.090792999
0.083622001 -0.053075999 0.14658
0.084464997 -0.052154999 0.14629
0.11632 0.014042 0.091155998
0.11618 0.014814 0.091412999
0.11695 0.014868 0.092514999
0.022290001 -0.028314 0.13459
0.023305999 -0.028456001 0.13420001
0.023194 -0.028057 0.13347
0.095703997 0.0018423999 0.10108
0.095834002 0.0026547001 0.099873997
0.096386001 0.0022670999 0.10048
0.14046 0.010803 0.10271
0.13968 0.010215 0.10285
0.1445 0.038070001 0.081174999
0.14553 0.038973 0.080417998
0.14623 0.037776999 0.081092
0.083892003 -0.044751 0.13503
0.084964 -0.043735001 0.13491
0.084247001 -0.042792998 0.13503
0.15052 0.045499999 0.077621996
0.15019 0.044555001 0.077735998
0.15016 0.045949999 0.078652002
0.069486998 -0.053846002 0.072311997
0.069853999 -0.055881999 0.073205002
0.069234997 -0.05559 0.072630003
0.069020003 -0.051662002 0.14648999
0.068354003 -0.051702999 0.14594001
0.068829 -0.052436002 0.14546999
0.052517999 -0.076002002 0.075960003
0.080504999 -0.040536001 0.097222999
0.079768002 -0.041388001 0.097407997
0.078511998 -0.040693 0.097269997
0.058515999 -0.027265999 0.14042
0.059388001 -0.028154001 0.14008
0.059661999 -0.027388999 0.13944
0.088711999 -0.061664999 0.15263
0.08941 -0.062431999 0.1534
0.16872001 0.053459998 0.074340001
0.16841 0.053870998 0.074848004
0.10253 -0.012787 0.081433997
0.10241 -0.014504 0.081207998
0.1012 -0.013565 0.081756003
0.10708 0.021575 0.12087
0.10824 0.021067999 0.12081
0.095294997 -0.063726999 0.13783
0.096272998 -0.063602999 0.13853
0.035989001 -0.036835998 0.14467999
0.086695999 -0.051949002 0.11546
0.086274996 -0.052108001 0.115
0.086443 -0.052880999 0.11538
0.14515001 0.043086 0.088936001
0.14443 0.042002998 0.089111
0.14461 0.042529002 0.090170003
0.1092 0.014739 0.098030999
0.1288 -0.0069483002 0.096262001
0.048448 -0.019331001 0.12048
0.047589 -0.019477 0.11961
0.073867001 -0.072171003 0.10735
0.073426001 -0.071222 0.10742
0.16422001 0.058678001 0.080752
0.16548 0.058449 0.079485998
0.16774 0.035629999 0.081244998
0.16756999 0.035517 0.080697
0.16829 0.036490999 0.080797002
0.071154997 -0.069553003 0.1486
0.071962997 -0.068319 0.14838
0.071124002 -0.067772001 0.14837
0.046052001 -0.046179999 0.1008
0.045550998 -0.045843001 0.10127
0.096401997 -0.075484999 0.13574
0.051725999 -0.058325998 0.083238997
0.051362 -0.058169 0.082110003
0.050942998 -0.058561001 0.083420001
0.071319997 -0.094241001 0.11374
0.099275999 -0.012174 0.085633002
0.099133 -0.011235 0.085542001
0.099577002 -0.010586 0.085713997
0.028328 -0.057739999 0.090250999
0.029505 -0.057450999 0.090485997
0.090746 -0.045931 0.12872
0.091528997 -0.045189001 0.12825
0.090916999 -0.045488998 0.12957001
0.1026 -0.039687 0.11657
0.10184 -0.040569 0.11678
0.10178 -0.040585 0.11573
0.098188996 -0.029655 0.11008
0.098866001 -0.029093999 0.11019
0.16721 0.036451001 0.082957998
0.16861001 0.037064001 0.083462
0.16789 0.036881998 0.083627
0.096539997 -0.031849001 0.10652
0.097044997 -0.031323999 0.10767
0.096506 -0.032993998 0.10803
0.16945 0.042826999 0.082142003
0.16957 0.042922001 0.081588
0.16912 0.043674 0.082730003
0.12981001 -0.011252 0.094713002
0.13027 -0.011835 0.094967
0.12879001 -0.01269 0.095223002
0.048220001 -0.048868001 0.15601
0.049858999 -0.049419999 0.15679
0.096794002 -0.071254 0.13448
0.097589999 -0.070031002 0.13593
0.098003998 -0.071024001 0.1355
0.031835999 -0.024687 0.14625999
0.096046999 -0.046110999 0.11566
0.075300999 -0.056825001 0.085965998
0.020895001 -0.043561 0.11739
0.020027 -0.042853002 0.11706
0.059852 -0.068301 0.16276
0.060619999 -0.067593999 0.16176
0.060610998 -0.067138001 0.16248
0.053583 -0.055661999 0.15673999
0.054398999 -0.055466 0.15772
0.054606002 -0.055897001 0.15615
0.10275 -0.0062766001 0.086144
0.10196 -0.0072988002 0.086512998
0.077542 -0.020961 0.097379997
0.078767002 -0.021088 0.096919999
0.045511998 -0.024313999 0.1441
0.046216 -0.025034999 0.14286
0.045605998 -0.023715001 0.1429
0.065541998 -0.053699002 0.072270997
0.066196002 -0.052653 0.072099
0.066134997 -0.054584999 0.072011001
0.060412999 -0.048420999 0.14410999
0.061349999 -0.049107 0.14447001
0.061992001 -0.048044 0.14371
0.062570997 -0.067166001 0.086560003
0.063147999 -0.068217002 0.087554999
0.13556001 -0.010638 0.10933
0.091962002 -0.053213999 0.1393
0.070963003 -0.023188001 0.10655
0.070018999 -0.023398001 0.10616
0.17169 0.069342002 0.076798998
0.17375 0.069571003 0.076038003
0.13077 0.017116001 0.10937
0.13145 0.017805001 0.10892
0.13163 0.018248999 0.1094
0.16925 0.030699 0.097822003
0.1684 0.030975999 0.096899003
0.16967 0.032182001 0.097917996
0.085965 -0.064327002 0.12232
0.085786 -0.063359998 0.12258
0.085822999 -0.064218998 0.12271
0.02822 -0.050825 0.094563998
0.030258 -0.050866 0.094769999
0.11779 -0.019621 0.10794
0.11761 -0.019796999 0.10677
0.11875 -0.018616 0.10777
0.054662999 -0.077752002 0.093116999
0.053803001 -0.078977004 0.092110001
0.053934999 -0.078133002 0.091681004
0.092113003 -0.033264 0.095555998
0.093084 -0.072287001 0.13174
0.092511997 -0.073000997 0.1323
0.091948003 -0.072826996 0.13214999
0.11561 -0.019383 0.11666
0.11709 -0.019711001 0.11533
0.11696 -0.020205 0.11612
0.17301001 0.071811996 0.081086002
0.17235 0.072005004 0.079654999
0.17265999 0.072669998 0.081537999
0.16237 0.064676002 0.083696999
0.16230001 0.064548999 0.084656999
0.16303 0.066174999 0.084696002
0.065601997 -0.05167 0.079065003
0.065798998 -0.051956002 0.077650003
0.065082997 -0.051915001 0.077734001
0.091927998 -0.065953001 0.15312
0.10917 0.021824 0.11432
0.10931 0.021144999 0.11289
0.16387001 0.056991 0.080222003
0.16282 0.056163002 0.080521002
0.16328999 0.057909999 0.080991998
0.030791 -0.045247 0.10695
0.073473997 -0.056529 0.14651
0.074230999 -0.055385001 0.14731
0.073269002 -0.05508 0.1472
0.090498999 -0.023630001 0.10238
0.092188999 -0.022914 0.10266
0.091127999 -0.0241 0.10328
0.14523 0.021459 0.1058
0.14580999 0.021284999 0.10622
0.14544 0.022922 0.10593
0.0052045998 -0.024217 0.13705
0.0065413001 -0.023604 0.13755
0.006234 -0.023623001 0.13694
0.096591003 -0.041939002 0.11902
0.097243004 -0.041639999 0.11738
0.16857 0.073021002 0.081812002
0.16991 0.073003002 0.081579998
0.16914 0.073183 0.081279002
0.12917 0.034626 0.089786001
0.12935001 0.034421001 0.089162998
0.059521001 -0.058765002 0.15538999
0.060139 -0.058913998 0.15493
0.16769999 0.072619997 0.090887003
0.16811 0.072648004 0.089854002
0.14458001 0.041878998 0.087562002
0.14374 0.042647999 0.088101998
0.10551 0.018623 0.1016
0.10501 0.018719001 0.1016
0.10448 0.018485 0.10229
0.086297996 -0.087904997 0.16414
0.087223001 -0.088004 0.16305
0.087204002 -0.087352999 0.16313
0.15305001 0.045540001 0.081302002
0.15264 0.045685999 0.08202
0.15299 0.046353001 0.081904002
0.032159999 -0.015972 0.13197
0.031420998 -0.015224 0.13112999
0.17148 0.036830999 0.097138003
0.17228 0.037377 0.096871004
0.097471997 0.0085260002 0.10756
0.098468997 0.0097847003 0.10687
0.098054998 0.0089149997 0.10697
0.079986997 -0.094320998 0.14205
0.078934997 -0.094007999 0.14212
0.078211002 -0.093625002 0.14203
0.050808001 -0.02368 0.11907
0.050797999 -0.022710999 0.12044
0.051178999 -0.023931 0.1201
0.1472 0.015775001 0.10934
0.14839999 0.016204 0.11002
0.14764 0.01554 0.11043
0.081730001 -0.068278 0.12225
0.082215004 -0.068792 0.12224
0.068967 -0.038387999 0.13733999
0.069816001 -0.037774999 0.13715
0.067943998 -0.037222002 0.13711999
0.1014 -0.012256 0.091761
0.10143 -0.013041 0.092216998
0.098235004 -0.041012 0.12047
0.098872997 -0.040063001 0.12026
0.094061002 -0.066000998 0.1337
0.094332002 -0.065815002 0.13302
0.094368003 -0.065104999 0.13308001
0.14901 0.020018 0.10011
0.14836 0.018894 0.10062
0.14752001 0.019094 0.099335
0.046548001 -0.056249999 0.086268999
0.046730999 -0.055934001 0.087058
0.047685001 -0.055785999 0.087457001
0.075514004 -0.055667002 0.087160997
0.074623004 -0.056008 0.086883999
0.075052001 -0.055948999 0.087344997
0.065861002 -0.071221001 0.098908
0.065282002 -0.071641997 0.1002
0.064894997 -0.072036996 0.099182002
0.1276 0.021501999 0.10842
0.12846 0.02251 0.1082
0.12729 0.021859 0.10871
0.063155003 -0.027193001 0.12779
0.062371001 -0.027999001 0.12846
0.063150004 -0.027949 0.12937
0.072210997 -0.014923 0.10723
0.072071999 -0.014387 0.10841
0.072186999 -0.014573 0.10777
0.11854 -0.028469 0.12051
0.1179 -0.029672001 0.12089
0.11697 -0.029154999 0.11984
0.072896004 -0.096580997 0.11793
0.073683999 -0.096019998 0.11749
0.072958 -0.095868997 0.11745
0.10874 0.011835 0.089189999
0.10933 0.010916 0.088720001
0.10896 0.010613 0.088877
0.11979 -0.010969 0.12405
0.027110999 -0.029100001 0.14689
0.026342001 -0.029048 0.14555
0.095990002 -0.065939002 0.14993
0.095489003 -0.065592997 0.15181001
0.096114002 -0.066381998 0.15106
0.084045999 -0.077849999 0.14918999
0.085383996 -0.077306002 0.14938
0.083916001 -0.077487998 0.15031999
0.16805001 0.032660998 0.084514
0.16858999 0.033534002 0.083094999
0.16898 0.033792 0.084154002
0.050705001 -0.081832998 0.097088002
0.050315 -0.081649996 0.097604997
0.050627001 -0.082052 0.096081004
0.092964001 -0.057799999 0.1312
0.093907997 -0.057916 0.13044
0.092767999 -0.057737999 0.13004
0.15319 0.020203 0.10016
0.15369 0.020694001 0.099535003
0.069650002 -0.024645999 0.12637
0.069044001 -0.024332 0.12537
0.069062002 -0.02562 0.12677
0.081464998 -0.028175 0.096024998
0.12196 -0.0093906997 0.089093998
0.12247 -0.0096963001 0.090175003
0.1218 -0.010638 0.090874001
0.043945 -0.068867996 0.069945998
0.045001 -0.070173003 0.070478
0.044433001 -0.070344999 0.069222003
0.10701 0.01425 0.091378003
0.10798 0.013734 0.091195002
0.10716 0.013483 0.090071
0.079530999 -0.039444 0.13579001
0.080003001 -0.039023999 0.13518
0.078263 -0.038816001 0.13591
0.028623 -0.027396999 0.13764
0.17034 0.041756 0.093111999
0.17023 0.041889001 0.092606999
0.17101 0.042879999 0.092331998
0.16046 0.031447999 0.091123
0.15916 0.030391 0.091224998
0.16018 0.029602 0.090845004
0.17102 0.04163 0.086046003
0.17252 0.041462 0.086081997
0.17132001 0.040538002 0.085320003
0.12517001 0.024854001 0.094342001
0.12423 0.025009001 0.094410002
0.12882 0.017064 0.086211003
0.073862001 -0.077753998 0.10922
0.073853999 -0.078763001 0.10939
0.13651 -0.0063967998 0.11544
0.13581 -0.0055163 0.11569
0.068866 -0.092867002 0.10918
0.069013 -0.092524 0.10771
0.015232 -0.032026999 0.1309
0.015861001 -0.032561999 0.13061
0.014942 -0.03373 0.13090999
0.11166 -0.016277 0.098782003
0.080254003 -0.049139999 0.10217
0.080591999 -0.048002999 0.10238
0.079986997 -0.048581 0.10254
0.094715998 -0.0069464999 0.094581001
0.17208999 0.064611003 0.1013
0.17262 0.063547999 0.10127
0.094931997 -0.074063003 0.14222001
0.093742996 -0.073458999 0.14271
0.093932003 -0.074150003 0.141
0.14738999 0.013305 0.10325
0.14647999 0.014329 0.10342
0.14756 0.015351 0.1038
0.083054997 -0.06247 0.11396
0.082094997 -0.063491002 0.11463
0.082326002 -0.062362999 0.11338
0.094737999 -0.067411996 0.13332
0.094498001 -0.066938996 0.13361
0.098488003 0.0037098001 0.09832
0.097909003 0.0038906001 0.098398
0.097306997 0.0045857001 0.098127
0.063726 -0.058200002 0.15402
0.062383998 -0.057774 0.15389
0.062373001 -0.057142001 0.15369999
0.060145002 -0.042523999 0.086258002
0.061214 -0.042904999 0.086572997
0.061037999 -0.043251 0.085403003
0.053403001 -0.052405 0.073477
0.053826001 -0.051430002 0.074013002
0.053884 -0.051327001 0.073155001
0.14580999 0.028584 0.10921
0.14528 0.029030999 0.10977
0.077876002 -0.045139998 0.098284997
0.078620002 -0.045373999 0.098095998
0.078291997 -0.046241999 0.098180003
0.16554999 0.050553001 0.099850997
0.16658001 0.051527001 0.09973
0.16625001 0.051006999 0.098282002
0.12567 0.0068281 0.11978
0.12477 0.0074796998 0.12004
0.12502 0.0061896001 0.12047
0.14689 0.014166 0.092327997
0.14656 0.015955999 0.090963997
0.14752001 0.015072 0.091684997
0.14032 0.054014001 0.09708
0.14032 0.054258 0.098362997
0.14255001 0.040826999 0.089561999
0.14206 0.040913001 0.088223003
0.14139999 0.041313998 0.088616997
0.11319 -0.020292001 0.11368
0.11282 -0.020732 0.11354
0.11383 -0.021194 0.11343
0.053390998 -0.075871997 0.079720996
0.053257 -0.074895002 0.080132
0.053799 -0.074827999 0.080574997
0.036343001 -0.050306 0.096221
0.036759 -0.050918002 0.09527
0.035252001 -0.051162999 0.096389003
0.092299998 -0.054786999 0.14105999
0.092864998 -0.055167999 0.14150999
0.091922998 -0.055341002 0.14025
0.022554999 -0.026982 0.1461
0.023505 -0.026977999 0.14699
0.023468999 -0.026938001 0.14631
0.18945999 0.052972998 0.099972002
0.18944 0.05257 0.098402001
0.19021 0.053451002 0.098385997
0.11748 -0.016651999 0.12576
0.065133996 -0.03118 0.13734999
0.065742999 -0.032340001 0.13753
0.064877003 -0.031847998 0.13687
0.063164003 -0.064733997 0.15523
0.062844999 -0.064179003 0.15637
0.062902004 -0.064934999 0.15628
0.078282997 -0.063878998 0.10252
0.077458002 -0.064816996 0.10233
0.080291003 -0.057774998 0.097528003
0.079846002 -0.056906998 0.097263999
0.092909001 0.012089 0.12131
0.092322998 0.011374 0.12152
0.092850998 0.010682 0.12192
0.14754 0.013948 0.093367003
0.1479 0.014035 0.094300002
0.14654 0.013162 0.093509004
0.13795 0.024445999 0.078215003
0.098249003 -0.039620999 0.10331
0.099219002 -0.038766 0.10284
0.099742003 -0.039081 0.10403
0.10511 0.014449 0.12326
0.10636 0.014219 0.12267
0.18814 0.052820001 0.096032999
0.18781 0.051649999 0.097768001
0.18712001 0.051647 0.096389003
0.14993 0.020237001 0.082543001
0.15019999 0.020323001 0.081556998
0.069712996 -0.050625 0.082566001
0.068475001 -0.050933 0.082882002
0.14399999 0.019447001 0.10594
0.14456999 0.020222001 0.1061
0.1434 0.021462001 0.10577
0.13654999 0.019597 0.081130996
0.13702001 0.019964 0.082122996
0.13734999 0.020052999 0.080563001
0.051141001 -0.021834999 0.1418
0.050877001 -0.022851 0.14273
0.051697001 -0.022600001 0.14228
0.077555999 -0.090488002 0.12932999
0.076880001 -0.091177002 0.12989999
0.078033999 -0.091463998 0.12898
0.099340998 -0.068379 0.14613
0.1003 -0.067391999 0.14624
0.099634998 -0.066760004 0.14673001
0.066329002 -0.092422999 0.10143
0.065425001 -0.093287997 0.10146
0.12243 0.00061500998 0.12247
0.12152 0.00079722999 0.12253
0.12157 -0.00015732 0.12285
0.029550999 -0.018666999 0.13031
0.028318999 -0.018018 0.12928
0.028489999 -0.018908 0.12963
0.080410004 -0.014528 0.10791
0.081355996 -0.015014 0.10756
0.12953 -0.020589 0.11734
0.081332996 -0.020302 0.10156
0.081796996 -0.020951999 0.10056
0.080596 -0.020414 0.1004
0.041333001 -0.063755997 0.089907996
0.040835999 -0.063873 0.090618998
0.059774 -0.051800001 0.14857
0.060316999 -0.051885001 0.1485
0.074818 -0.068811998 0.1086
0.074034996 -0.069686003 0.10908
0.073885001 -0.068899997 0.10753
0.062484998 -0.041483998 0.14127
0.062029999 -0.043251 0.1419
0.063130997 -0.042055 0.14127
0.051720999 -0.021857001 0.13681
0.051189002 -0.021403 0.13796
0.052288 -0.020610999 0.13875
0.07942 -0.017449999 0.10575
0.080257997 -0.017535999 0.10717
0.11542 0.010869 0.12243
0.11703 0.011262 0.12313
0.11213 -0.019365 0.099927999
0.11202 -0.019161001 0.10064
0.11224 -0.019221 0.10003
0.046495002 -0.032607 0.14511
0.045359001 -0.033087999 0.14534
0.065692998 -0.057236999 0.15217
0.064981997 -0.057583001 0.15298
0.065681003 -0.057847999 0.15276
0.099352002 -0.0071848002 0.095802002
0.098301001 -0.0067810998 0.096359
0.098867998 -0.0059385002 0.096272998
0.13371 -0.0086123003 0.1049
0.13299 -0.0095546003 0.10498
0.13319001 -0.0085129999 0.10377
0.094292 -0.0098825004 0.12399
0.093589999 -0.0099948999 0.12522
0.036495999 -0.029658001 0.12328
0.036649 -0.030277999 0.12282
0.10304 -0.039202001 0.11258
0.10186 -0.040334001 0.11228
0.098664001 -0.025832999 0.12675001
0.099596001 -0.026593 0.12593
0.098998003 -0.024517 0.12603
0.080095999 -0.057433002 0.10392
0.078206003 -0.056642 0.10299
0.10214 0.01119 0.12284
0.10204 0.0091027003 0.12264
0.10338 0.010072 0.12236
0.1355 -0.0081729004 0.12269
0.083122998 -0.036400001 0.13517
0.084408 -0.035765 0.13548
0.083717003 -0.035337999 0.13507999
0.11035 0.014627 0.095930003
0.11048 0.014373 0.095036998
0.046510998 -0.078878999 0.067101002
0.1194 0.019007999 0.097846001
0.1196 0.019058 0.096501999
0.11841 0.019779 0.097075999
0.1417 0.0079849996 0.10757
0.13353001 0.012563 0.092577003
0.1329 0.01264 0.091655001
0.052535001 -0.051189002 0.080182999
0.17808001 0.0482 0.090176001
0.17743 0.047237001 0.090465002
0.089945003 -0.048025999 0.11456
0.15027 0.058405001 0.10134
0.041877002 -0.062783003 0.091430999
0.041641001 -0.062769003 0.090556003
0.060734 -0.072950996 0.092441
0.060934 -0.073080003 0.091541
0.061898001 -0.072577998 0.091775998
0.12366 0.027121 0.10806
0.12418 0.026118999 0.10652
0.12387 0.025816999 0.10735
0.05545 -0.057705 0.079775997
0.054786999 -0.058823999 0.079980999
0.067424998 -0.087531999 0.10188
0.068640999 -0.087167002 0.10203
0.068167001 -0.088455997 0.10196
0.090170003 -0.092708997 0.14884
0.090921 -0.092777997 0.14989001
0.090956002 -0.093883999 0.14968
0.15061 0.063801996 0.090481997
0.15091 0.064811997 0.091104001
0.15152 0.064361997 0.090576999
0.16031 0.025946001 0.090120003
0.16118 0.026551001 0.091242
0.16187 0.025657 0.090400003
0.10806 -0.020787001 0.10745
0.15765999 0.051158 0.081175998
0.16685 0.068369001 0.080633
0.1661 0.067488998 0.080716997
0.16574 0.067791998 0.082047999
0.098148003 0.017891999 0.12035
0.097078003 0.016933 0.11972
0.097327001 0.016969999 0.12106
0.035167001 -0.067828998 0.067316003
0.035719998 -0.067530997 0.068414003
0.036881 -0.067245997 0.067906998
0.16601001 0.059865002 0.10094
0.16526 0.059427001 0.10057
0.15034001 0.015425 0.094857998
0.14910001 0.016037 0.095089003
0.14887001 0.01536 0.095064998
0.098884001 -0.062204 0.14038999
0.10009 -0.063266002 0.14101
0.10102 -0.062825002 0.14134
0.029011 -0.058297999 0.090953
0.029033 -0.058958001 0.091493003
0.068719998 -0.057204999 0.15012001
0.069091998 -0.058347002 0.15000001
0.069068 -0.057425998 0.14936
0.10597 -0.014697 0.080899999
0.1055 -0.015902 0.081876002
0.10498 -0.015112 0.081038997
0.035909999 -0.069426 0.093525998
0.036293998 -0.068971001 0.094572999
0.13412 0.034655001 0.095262997
0.1349 0.035418 0.095256999
0.076243997 -0.061872002 0.099021003
0.076081 -0.060811002 0.099386998
0.076656997 -0.060984001 0.10069
0.1249 0.0077936002 0.12445
0.12386 0.0079864999 0.12426
0.12338 0.0081893001 0.12533
0.062190998 -0.061282001 0.074510001
0.061795998 -0.060307 0.075349003
0.061432 -0.059638999 0.074304998
0.068623997 -0.038757998 0.14120001
0.068305001 -0.040077001 0.14165001
0.069017999 -0.039122 0.14149
0.12935001 -0.010161 0.12678
0.12828 -0.011262 0.12681
0.12919 -0.011887 0.12637
0.051642999 -0.051670998 0.082948998
0.052025001 -0.050958 0.081932001
0.052276 -0.050749 0.081776999
0.12996 0.024075 0.090120003
0.12922999 0.023166999 0.090282999
0.12887 0.024172001 0.091199003
0.086039998 -0.0063322 0.12328
0.086016998 -0.0061337999 0.12434
0.086052999 -0.0070384 0.12274
0.070744999 -0.024326 0.10198
0.071046002 -0.025199 0.10133
0.069862999 -0.025521001 0.1022
0.16672 0.073073998 0.078769997
0.16520999 0.072531 0.077832997
0.16611999 0.072206996 0.078904003
0.11056 -0.0052743 0.12549999
0.10974 -0.0060713999 0.12515999
0.11141 -0.0060041002 0.12503
0.051916 -0.02878 0.1105
0.053263001 -0.02981 0.11113
0.052687 -0.029834 0.10985
0.12317 -0.025457 0.12175
0.099852003 -0.064668998 0.14673001
0.099460997 -0.064934999 0.14625999
0.10064 -0.065848 0.14650001
0.068800002 -0.046799999 0.14445999
0.046006002 -0.032575998 0.11512
0.045910999 -0.034102 0.11501
0.045345001 -0.033349 0.11563
0.053977001 -0.047743 0.090258002
0.12966999 0.040743999 0.10158
0.12949 0.041761 0.10037
0.12871 0.041411001 0.10066
0.15194 0.051711999 0.091268003
0.15218 0.053532999 0.090871997
0.10099 -0.024411 0.12077
0.10075 -0.024491001 0.11982
0.10258 -0.025331 0.10427
0.10341 -0.024937 0.10422
0.10307 -0.023592999 0.10481
0.14918999 0.021523001 0.11249
0.15015 0.022212001 0.11246
0.14985999 0.022861 0.11191
0.10137 -0.068899997 0.1399
0.10065 -0.069517002 0.14018001
0.038344 -0.074745998 0.065549001
0.037156999 -0.074736997 0.065990001
0.076715998 -0.072434001 0.15006
0.12308 -0.0097284 0.091378003
0.12234 -0.010561 0.091868997
0.14526001 0.055566002 0.093473002
0.14567 0.057071 0.093914002
0.14602999 0.056035999 0.093335003
0.11537 0.003394 0.12661999
0.11497 0.0023556999 0.12654001
0.1152 0.0019273 0.12636
0.040498 -0.042311002 0.10738
0.039709002 -0.041407999 0.10775
0.16139001 0.03373 0.089206003
0.16075 0.033337999 0.088281997
0.10218 0.023529001 0.11106
0.10322 0.023712 0.11044
0.18057001 0.064736001 0.076142997
0.17869 0.065136001 0.075552002
0.17986 0.065265 0.076692
0.14021 0.031118 0.1091
0.11932 -0.010932 0.088717997
0.096187003 0.0059329998 0.10381
0.14223 0.012096 0.11093
0.14183 0.011404 0.11216
0.14136 0.011335 0.11123
0.15644 0.063620001 0.089198999
0.15696 0.063349001 0.088993996
0.15804 0.062945999 0.088757001
0.053606998 -0.056299001 0.078492001
0.052468002 -0.057436001 0.077512003
0.050007999 -0.056161001 0.074947998
0.049288999 -0.056767002 0.076066002
0.050152998 -0.055899002 0.075730003
0.089809 -0.023521001 0.13483
0.090614997 -0.023987001 0.13485
0.091357999 -0.023189999 0.13420001
0.092566997 -0.0072193001 0.12088
0.091903999 -0.0084595 0.12
0.091742001 -0.0081719002 0.12136
0.086026996 -0.092928998 0.16493
0.086856999 -0.091994002 0.16487999
0.086006001 -0.092031002 0.16575
0.031969 -0.019197 0.13727
0.032327998 -0.019456999 0.13854
0.033583999 -0.018441999 0.13821
0.13508999 -0.013452 0.11826
0.13568 -0.013404 0.11812
0.082190998 -0.094209 0.14216
0.14045 0.049819998 0.089872003
0.14048 0.048115 0.089332998
0.13936 0.049035002 0.089704998
0.11724 -0.027658001 0.11934
0.11753 -0.025932999 0.1201
0.11829 -0.026338 0.11972
0.099119 -0.0055424999 0.095973
0.067500003 -0.084004998 0.10282
0.17041001 0.066041 0.096662998
0.17134 0.065228 0.095195003
0.17102 0.065094002 0.096000999
0.18398 0.049403001 0.10124
0.056642 -0.066518001 0.075406
0.057526998 -0.065779001 0.075608999
0.057744 -0.06656 0.076287001
0.14736 0.038833998 0.1067
0.14827999 0.038770001 0.10807
0.031675 -0.023925001 0.14395
0.030365 -0.024424 0.14424001
0.023603 -0.041561998 0.10955
0.023434 -0.040890001 0.11112
0.024426 -0.041243002 0.11046
0.063288003 -0.043267999 0.098338999
0.062527001 -0.041744001 0.097773001
0.062616996 -0.042514 0.098875999
0.11522 -0.020775 0.11797
0.1147 -0.019546 0.1183
0.11498 -0.019235 0.11778
0.067772999 -0.035406999 0.14007001
0.067296997 -0.034844998 0.14013
0.16174001 0.075875998 0.094021998
0.1603 0.074928001 0.094377004
0.1189 0.0088905999 0.1257
0.1183 0.0075825001 0.12605999
0.083339997 -0.085289001 0.14207999
0.084582001 -0.086032003 0.14215
0.084060997 -0.085954003 0.14223
0.055675998 -0.061243001 0.078230999
0.055151001 -0.060993001 0.078330003
0.056446001 -0.061439 0.078805
0.043850999 -0.081464998 0.066427
0.044695001 -0.081968002 0.067675002
0.043900002 -0.082985997 0.067786001
0.013113 -0.026182 0.15379
0.013872 -0.025226999 0.15366
0.10304 -0.024622999 0.10794
0.1028 -0.024804 0.10745
0.10375 -0.023913 0.10689
0.090870999 -0.058890998 0.12257
0.090423003 -0.059882 0.12098
0.10813 -0.0034087 0.11824
0.10811 -0.0048981998 0.11739
0.10895 -0.0039605 0.11775
0.030683 -0.023266001 0.13158999
0.032113001 -0.022983 0.13134
0.031454001 -0.022022 0.13156
0.057429999 -0.079469003 0.10226
0.058476999 -0.080192998 0.10209
0.056731001 -0.080457002 0.10244
0.042516001 -0.050315 0.1626
0.042197 -0.049603 0.16181
0.041809998 -0.049382001 0.1619
0.12566 -0.013478 0.12603
0.12624 -0.012775 0.12640999
0.12504999 -0.012404 0.12611
0.16595 0.066073 0.092099003
0.16496 0.064795002 0.093464002
0.072881997 -0.022575 0.10448
0.073106997 -0.022740001 0.10365
0.072398998 -0.023335001 0.10373
0.077399999 -0.088597 0.12623
0.077816002 -0.089775003 0.12503999
0.076784998 -0.088657998 0.12556
0.078735001 -0.057406001 0.095803
0.078355998 -0.058738999 0.095986001
0.17351 0.057985 0.074335001
0.17264999 0.057264999 0.074552
0.1734 0.057342 0.075741999
0.042780001 -0.019125 0.13048001
0.041735001 -0.019126 0.13029
0.041414 -0.018282 0.13077
0.1314 0.018586 0.089065999
0.13184001 0.018438 0.088215999
0.16136999 0.025859 0.10524
0.16197 0.025157001 0.10498
0.16236 0.025513001 0.10535
0.069558002 -0.038945001 0.13849001
0.088742003 -0.090884998 0.14681
0.088466004 -0.089860998 0.1473
0.088955998 -0.090709999 0.14786001
0.085225999 -0.037409 0.13438
0.084849998 -0.036605999 0.13516
0.084808998 -0.038472001 0.13519999
0.094742998 -0.0036972 0.10418
0.094319999 -0.0031232999 0.10428
0.095592998 -0.0026636999 0.10387
0.12427 -0.00010128 0.092358001
0.12421 7.8502999e-05 0.09144
0.12398 0.00075617997 0.091505997
0.075121999 -0.032715999 0.13446
0.075551003 -0.033365 0.13484
0.11599 -0.0064563998 0.080816001
0.099807002 -0.069449998 0.13914999
0.099523999 -0.070280001 0.13955
0.10016 -0.071253002 0.13884
0.085359998 -0.016648 0.12985
0.086069003 -0.016819 0.13112999
0.086101003 -0.017469 0.12949
0.096280999 -0.017043 0.089051001
0.096449003 -0.015996 0.087777004
0.096060999 -0.016238 0.088335
0.035494 -0.025268 0.14421999
0.16082001 0.078639001 0.089285001
0.083769999 -0.042916998 0.099936001
0.083172999 -0.044677 0.099839002
0.083467998 -0.043609999 0.10029
0.16229001 0.023653001 0.093838997
0.1611 0.022778001 0.094577
0.16085 0.022662001 0.093534999
0.051945001 -0.042436998 0.14663
0.051617 -0.043480001 0.14808001
0.052152 -0.043054 0.14737999
0.18903001 0.052836999 0.099357001
0.054055002 -0.079355001 0.077592999
0.05449 -0.079882003 0.076947004
0.11764 -0.0045957998 0.080678001
0.11719 -0.0035007 0.080279
0.11782 -0.0028055999 0.080443002
0.080250002 -0.048347998 0.10357
0.080663003 -0.048193 0.10353
0.05734 -0.044470999 0.089691997
0.057890002 -0.044149 0.090359002
0.058263998 -0.043325 0.089266002
0.079149 -0.087246001 0.13968
0.077891 -0.087217003 0.13958
0.078454003 -0.086589001 0.13919
0.072205998 -0.079884 0.15815
0.073131002 -0.078826003 0.15805
0.072892003 -0.078754999 0.15744001
0.10942 0.019592 0.1026
0.11052 0.018526999 0.10269
0.11004 0.018825 0.10215
0.16695 0.044991001 0.074254997
0.16745 0.043937001 0.073972002
0.16621 0.044767998 0.073578
0.071436003 -0.040031999 0.099748001
0.072838001 -0.039476 0.099707998
0.072006002 -0.040447 0.099854
0.14935 0.032145999 0.1119
0.15029 0.031493999 0.11095
0.15049 0.033002999 0.11163
0.10878 -0.0083328001 0.080384001
0.10945 -0.0088125998 0.080160998
0.10976 -0.0093577001 0.080725998
0.14949 0.032145999 0.11133
0.1499 0.030990001 0.11079
0.13147999 0.026086999 0.1072
0.094091997 -0.0052320999 0.12016
0.094719999 -0.0041131 0.12072
0.094821997 -0.0044092 0.11988
0.13635001 0.020388 0.074670002
0.13689999 0.021156 0.074472003
0.13677 0.020370999 0.074478999
0.16677 0.074166 0.092960998
0.16687 0.075222999 0.091715999
0.084702 0.0013529001 0.11992
0.085074998 -0.00030054001 0.1197
0.12366 0.0089392001 0.1198
0.12291 0.0096936002 0.1195
0.12208 0.0091644004 0.12023
0.15786999 0.043465 0.069881998
0.15843999 0.042753998 0.070965998
0.15736 0.043976001 0.071590997
0.034678999 -0.038786002 0.11119
0.034630999 -0.037592001 0.11346
0.035735 -0.038003001 0.11165
0.074568003 -0.027656 0.13225999
0.073757 -0.027411999 0.13153
0.073903002 -0.028235 0.13206001
0.17818999 0.052375998 0.074631996
0.17767 0.052807 0.076375
0.044263002 -0.045175999 0.14994
0.045444999 -0.044824999 0.14938
0.044156998 -0.045109 0.14864001
0.19299001 0.056359999 0.098067001
0.19349 0.057558998 0.097843997
0.095968999 -0.06005 0.13262001
0.16503 0.033562999 0.090285003
0.1656 0.033052001 0.090227
0.16469 0.032409001 0.090333998
0.021612 -0.053048 0.094648004
0.022503 -0.051840998 0.094448
0.044776 -0.022949999 0.14325
0.044684 -0.022941001 0.14371
0.15354 0.047192998 0.075236
0.15219 0.047233 0.076305002
0.032650001 -0.021916 0.12648
0.031872999 -0.020922 0.12714
0.031759001 -0.0206 0.12643
0.099591002 -0.028472001 0.10831
0.086925 -0.055123001 0.1177
0.086148001 -0.055691998 0.11769
0.092395 -0.072566003 0.1424
0.092905 -0.073357001 0.14156
0.032848999 -0.046332002 0.10616
0.033369999 -0.046165999 0.10631
0.034063999 -0.046921998 0.10565
0.11926 -0.0071752002 0.12249
0.11835 -0.0079717003 0.12244
0.11995 -0.0076595 0.12306
0.051022999 -0.086254999 0.083152004
0.050517 -0.085919 0.083875
0.14117 0.038089 0.088128
0.14067 0.038343001 0.087559
0.056322999 -0.043912001 0.094626002
0.057760999 -0.042645998 0.095655002
0.057317 -0.042617001 0.094158001
0.1363 0.0042933002 0.097447999
0.13619 0.0045818998 0.098379001
0.065279998 -0.071199 0.096201003
0.066054001 -0.070378996 0.095615998
0.066609003 -0.070294 0.096873999
0.094590999 0.011202 0.12224
0.093757004 0.010287 0.1224
0.13951001 0.033675998 0.085470997
0.035133999 -0.02531 0.14929
0.034694999 -0.026133999 0.14977001
0.034800999 -0.026208 0.15024
0.094263002 -0.026637999 0.099071003
0.093588002 -0.025341 0.10052
0.12598 0.033048 0.10696
0.12585001 0.032325 0.10686
0.12551001 0.032187998 0.10776
0.16987 0.043749999 0.080473997
0.17105 0.043403 0.079411
0.17037 0.044356 0.080385998
0.093024999 -0.016070001 0.088558003
0.092587002 -0.015092 0.089749999
0.092958003 -0.015347 0.088964999
0.1822 0.049245 0.088803001
0.18115 0.048386998 0.08929
0.18021999 0.049387001 0.089332998
0.090544999 -0.058577001 0.12544
0.089950003 -0.058782998 0.12422
0.089649998 -0.058485001 0.1258
0.028594 -0.048861999 0.096258998
0.026753999 -0.049306002 0.095496997
0.036331002 -0.03019 0.12091
0.036474999 -0.030030999 0.12198
0.035744999 -0.028891001 0.12158
0.073177002 -0.073717996 0.10457
0.072952002 -0.072872996 0.1049
0.043159999 -0.060807001 0.091790996
0.044323001 -0.059785001 0.090488002
0.043490998 -0.061016001 0.090783998
0.13461 0.027480001 0.10845
0.13483 0.028380999 0.10708
0.13465001 0.028063999 0.10768
0.11894 -0.0070040999 0.081520997
0.016114 -0.023591001 0.14275999
0.01532 -0.022949001 0.1433
0.016732 -0.023943 0.14404
0.13699 0.0079980996 0.11117
0.13609999 0.0074601001 0.1117
0.089381002 -0.072733998 0.14181
0.089492999 -0.072939001 0.14121
0.11227 -0.021091999 0.11422
0.11087 -0.021167001 0.11498
0.11143 -0.022048 0.11455
0.14043 0.021780999 0.11014
0.13981 0.021252001 0.11011
0.14030001 0.020129999 0.10949
0.094942003 -0.044015002 0.11964
0.095720999 -0.044186998 0.12097
0.095017999 -0.043875001 0.12076
0.14686 0.042863 0.10263
0.094664 -0.065034002 0.153
0.094387002 -0.064799003 0.15415999
0.19199 0.056588002 0.090742998
0.19211 0.056843001 0.092032999
0.076187 -0.057245001 0.085979
0.076081 -0.057865001 0.085799001
0.095637001 -0.018111 0.10091
0.095476002 -0.01901 0.10182
0.088017002 -0.036586002 0.098707996
0.087222002 -0.037808999 0.099183001
0.087396003 -0.036281001 0.098128997
0.036524002 -0.041825 0.10742
0.037597999 -0.041384999 0.10788
0.099722996 0.00098828995 0.1172
0.098867998 0.00010818 0.11736
0.099729002 -0.00011871 0.1187
0.095109001 -0.072842002 0.14384
0.039310999 -0.035321001 0.11919
0.040049002 -0.036371998 0.11827
0.039799001 -0.036249001 0.11863
0.17075001 0.056189999 0.076416001
0.17138 0.055475 0.076087996
0.17061 0.05542 0.076224998
0.045906998 -0.066142999 0.077765003
0.046000998 -0.066255003 0.077151
0.046571001 -0.067437001 0.077304997
0.14128 0.055063002 0.098172002
0.055399999 -0.079554997 0.085377
0.055613 -0.080130003 0.084836997
0.057611 -0.037278999 0.14001
0.058981001 -0.037627 0.14024
0.058442 -0.036872 0.14053001
0.18007 0.046402998 0.090391003
0.18016 0.047497001 0.089772001
0.18062 0.047003001 0.090180002
0.13648 0.047412001 0.091399997
0.13699999 0.045997001 0.090605997
0.13562 0.046077002 0.091577999
0.086332001 -0.054784 0.11513
0.1213 0.021678001 0.10206
0.12002 0.021298001 0.10225
0.16644999 0.037958 0.087352
0.16514 0.03796 0.086612001
0.16583 0.038516998 0.086878002
0.092891999 -0.058789998 0.14068
0.092156 -0.058589 0.14049
0.091935001 -0.059119999 0.14091
0.13971999 0.036509 0.083113
0.14015999 0.037050001 0.082801998
0.14033 0.035673998 0.083205998
0.1564 0.016558001 0.092975996
0.15632001 0.017409001 0.092239998
0.15702 0.017139999 0.093339004
0.035204999 -0.022360001 0.14103
0.036311999 -0.023618 0.14174999
0.035553001 -0.022492001 0.14216
0.056214999 -0.049699999 0.073774002
0.055723999 -0.050184 0.073049001
0.055009998 -0.050050002 0.073921002
0.091540001 -0.044403002 0.12898
0.091008 -0.044186 0.12951
0.036493 -0.040107001 0.14551
0.035227999 -0.039335001 0.14562
0.036192 -0.040428001 0.14566
0.090356 -0.068962 0.14572001
0.090962999 -0.068696998 0.14635
0.090000004 -0.067979001 0.14714
0.095431 -0.0080375001 0.10494
0.095094003 -0.0079265004 0.10408
0.054465 -0.047049001 0.088145003
0.054662 -0.047059 0.089160003
0.055647999 -0.046840999 0.088866003
0.094319001 -0.068700001 0.14816
0.093365997 -0.068810001 0.1485
0.093587004 -0.069518998 0.14827999
0.094163999 -0.01546 0.089111
0.093079999 -0.014921 0.089842997
0.093564004 -0.014879 0.090393998
0.065297998 -0.063767001 0.074754
0.067093 -0.063353002 0.074727997
0.066161998 -0.064374 0.075218
0.077505998 -0.042121001 0.13625
0.077822998 -0.042199999 0.13584
0.12082 0.0063183 0.091921002
0.12129 0.0054147001 0.092463002
0.12111 0.0047509 0.091874003
0.015457 -0.025047 0.13527
0.014197 -0.024745001 0.13537
0.014553 -0.024583001 0.13637
0.15793 0.028774001 0.11108
0.15616 0.029205 0.11087
0.15752 0.027935 0.11136
0.047616001 -0.044620998 0.14995
0.046946999 -0.043915 0.14916
0.045967001 -0.044525001 0.14972
0.10182 -0.010767 0.098355003
0.10105 -0.011742 0.098918997
0.10138 -0.01019 0.097854003
0.14407 0.040654998 0.083094001
0.14523 0.040114 0.083719999
0.14583001 0.040589001 0.083469003
0.079746999 -0.036642998 0.13472
0.080738999 -0.036770999 0.13451
0.080609001 -0.035739999 0.13436
0.022654001 -0.027970999 0.13612001
0.021985 -0.027534001 0.13676
0.022646001 -0.027634 0.1376
0.17918999 0.055100001 0.080259003
0.17992 0.054143 0.080964997
0.1788 0.054481 0.079356
0.083548002 -0.030002 0.096026003
0.082791999 -0.029534999 0.096189
0.13726 0.021373 0.074359
0.13704 0.022294 0.075607002
0.13771001 0.02224 0.073967002
0.067340001 -0.035167001 0.10303
0.066914998 -0.036076002 0.10327
0.065972999 -0.035959002 0.10244
0.044204999 -0.021096 0.13951001
0.044087999 -0.020483 0.14122
0.044312 -0.021638 0.14078
0.12116 0.014112 0.11632
0.12128 0.013835 0.11576
0.12219 0.015209 0.11541
0.09228 -0.030156 0.13134
0.090744004 -0.030685 0.13138001
0.079099 -0.081491999 0.12227
0.079056002 -0.080463998 0.12178
0.079033002 -0.081595004 0.12301
0.11543 0.013976 0.12151
0.11479 0.013241 0.12139
0.11868 0.019269999 0.094939999
0.11953 0.018305 0.094554998
0.18672 0.055020001 0.092992
0.18713 0.053734999 0.093657002
0.13428 0.039085999 0.10915
0.13502 0.039748002 0.10893
0.13414 0.040509999 0.10899
0.10647 -0.011961 0.080334999
0.050735999 -0.074578002 0.073922001
0.051449001 -0.075926997 0.073596001
0.050074998 -0.074882001 0.072979003
0.014214 -0.031183001 0.13153
0.013364 -0.032251 0.13135999
0.012676 -0.030672999 0.13164
0.050586998 -0.048013002 0.097148001
0.049929999 -0.048889 0.098292999
0.050170999 -0.048041001 0.0986
0.10525 -0.0076591 0.11764
0.10423 -0.0084832003 0.11781
0.10468 -0.0092658 0.11768
0.088558003 -0.053320002 0.1226
0.088198997 -0.053773001 0.12368
0.087930001 -0.053906001 0.123
0.14793999 0.020693 0.084636003
0.14917 0.020946 0.084536999
0.13686 0.039386 0.10853
0.13734999 0.038651001 0.1076
0.13717 0.039997999 0.10862
0.027837999 -0.023124 0.13575
0.029197 -0.022931 0.13663
0.029026 -0.022492001 0.13519999
0.050845999 -0.085294999 0.0845
0.05187 -0.084959999 0.084633
0.051183999 -0.084841996 0.085248999
0.085749 -0.017499 0.10451
0.063516997 -0.065981999 0.077838004
0.063294999 -0.067723997 0.077776998
0.062622003 -0.066845 0.078515999
0.073503003 -0.075861998 0.10685
0.074014999 -0.075992003 0.10781
0.073790997 -0.076797001 0.10786
0.096418001 -0.077444002 0.13749
0.097933002 -0.077054001 0.13731
0.097869001 -0.076766998 0.13788
0.079643004 -0.079072997 0.12179
0.079168998 -0.078364998 0.12058
0.14985 0.016094999 0.10782
0.15041 0.017061001 0.10752
0.14936 0.016935 0.10721
0.087800004 -0.024800999 0.13204999
0.088788003 -0.024575001 0.13276
0.10198 -0.0017241 0.092938997
0.10341 -0.0014368 0.092542
0.030750999 -0.042870998 0.10975
0.16306999 0.037919 0.10347
0.16294999 0.037981998 0.10215
0.16182999 0.038070999 0.10226
0.16382 0.036201 0.077391997
0.16456001 0.036697 0.076293997
0.16462 0.036876999 0.077091001
0.083480999 -0.061714001 0.14895
0.083063997 -0.062357001 0.14825
0.083394997 -0.062677003 0.14895
0.12794 -0.0055781999 0.12599
0.12794 -0.0062928 0.1261
0.12794 -0.0074129999 0.12630001
0.087572999 -0.092047997 0.14443
0.086678997 -0.092896998 0.14328
0.096533 -0.00077081 0.097732
0.096785001 -0.0020216999 0.097566001
0.16215999 0.058768 0.081216
0.16185001 0.059478 0.082105003
0.12296 0.027207 0.10527
0.12225 0.027480001 0.10521
0.12156 0.026604 0.10541
0.14524999 0.042849999 0.087137997
0.14580999 0.043821 0.087352999
0.14611 0.043703001 0.086934999
0.1287 0.01186 0.11597
0.13512 0.024177 0.11049
0.13446 0.026139 0.10957
0.1339 0.02478 0.10966
0.13305999 0.025984 0.088027999
0.13362999 0.026962001 0.088528
0.060614001 -0.028306 0.12994
0.12459 0.026664 0.091136999
0.12476 0.025743 0.091550998
0.12412 0.026825 0.091407001
0.13131 0.0013183 0.11337
0.13150001 0.001946 0.11461
0.13166 0.0012910001 0.11425
0.095748998 -0.039542001 0.12465
0.095314004 -0.039035998 0.12519
0.094250001 -0.039746001 0.12558
0.073702 -0.064764 0.095821001
0.074042998 -0.063362002 0.095707998
0.10364 0.013964 0.096228004
0.10309 0.013461 0.095706001
0.10305 0.013241 0.096643001
0.042187002 -0.059673 0.096718997
0.041308001 -0.060299002 0.096784003
0.040786002 -0.060068998 0.096148998
0.16184001 0.044468001 0.069735996
0.16085 0.043246999 0.069201998
0.16098 0.045031 0.068608999
0.12720001 0.0037992999 0.12442
0.12571999 0.0046613999 0.12385
0.12661 0.0039647999 0.1227
0.13698 -0.010144 0.10996
0.13659 -0.0094624003 0.10975
0.13737001 -0.0096803 0.11035
0.045579001 -0.040539 0.14363
0.045102 -0.039673999 0.14407
0.11425 0.016861999 0.098472998
0.086923003 -0.067666002 0.15119
0.085605003 -0.067544997 0.15037
0.085640997 -0.067823 0.15101001
0.075871997 -0.081983998 0.11689
0.076889999 -0.081069 0.11719
0.076668002 -0.082239002 0.11755
0.062433999 -0.072549 0.094563
0.063249998 -0.07175 0.093998998
0.063867003 -0.071672998 0.095216997
0.12829 0.022724001 0.090635002
0.12804 0.023133 0.091531001
0.07536 -0.016341001 0.12526999
0.075626001 -0.016311999 0.12548999
0.075934 -0.015402 0.12519
0.061078001 -0.052590001 0.14912
0.061601002 -0.053157002 0.15027
0.062616996 -0.053141002 0.15011001
0.15096 0.020784 0.079755999
0.14917 0.020021001 0.078911997
0.15013 0.021132 0.078566
0.053583998 -0.079553999 0.090425998
0.077293999 -0.09149 0.12167
0.077639997 -0.092372999 0.12247
0.076633997 -0.092058003 0.12123
0.037147999 -0.048792001 0.15975
0.087835997 -0.013267 0.12264
0.088137999 -0.013297 0.12317
0.089313 -0.012203 0.12308
0.068278 -0.044799 0.092936002
0.068602003 -0.044156998 0.094607003
0.068416998 -0.044383001 0.093714997
0.071721002 -0.027175 0.13076
0.070785999 -0.027527999 0.13224
0.070996001 -0.028111 0.13195001
0.041963 -0.024728 0.12063
0.041795999 -0.025065999 0.12099
0.041482002 -0.024013 0.12112
0.1444 0.017339 0.1004
0.14509 0.018144 0.10019
0.14590999 0.017422 0.10027
0.15954 0.075953998 0.088858999
0.15944 0.076977 0.089812003
0.15956999 0.076075003 0.088287003
0.12442 0.030687001 0.098808996
0.11369 -0.027206 0.11035
0.11381 -0.02757 0.11131
0.11393 -0.027827 0.11067
0.11584 0.0098443003 0.09093
0.11541 0.0093336003 0.090199001
0.11464 0.0088635003 0.090558
0.14102 0.017848 0.1083
0.14150999 0.017254001 0.10922
0.065660998 -0.052384999 0.083167002
0.064366996 -0.052203 0.083058
0.064021997 -0.052324001 0.083815999
0.092491999 -0.037744001 0.097693004
0.093299001 -0.036828998 0.097525999
0.093043 -0.038497999 0.098586999
0.066951998 -0.053408001 0.14755
0.066340998 -0.053229 0.14766
0.065678 -0.053093001 0.14815
0.12154 0.0047193998 0.092468001
0.048181001 -0.038337 0.14336
0.047171999 -0.038883001 0.14377999
0.049024999 -0.039044 0.14289001
0.071492001 -0.023384999 0.13011999
