# .PCD v0.7 - Point Cloud Data file format
VERSION 0.7
FIELDS x y z
SIZE 4 4 4
TYPE F F F
COUNT 1 1 1
WIDTH 1513
HEIGHT 1
VIEWPOINT 0 0 0 1 0 0 0
POINTS 1513
DATA ascii
0.096865997 -0.019076001 0.073709004
0.097149 -0.018572001 0.073941998
0.095872 -0.018564001 0.074602
0.044007 0.0072594001 0.085334003
0.043880001 0.0061921999 0.085225999
0.042835999 0.0074012 0.085984997
-0.0091864998 0.017906999 0.11121
0.025113 -0.00025784 0.12445
0.026213 -0.00014049 0.12404
0.026802 -0.00018915 0.12497
0.0015718 -0.0038731 0.13971999
0.0026142001 -0.0038349 0.13939001
0.12382 0.017975001 0.091412999
0.12324 0.017956 0.093052
0.1245 0.018172 0.092716001
0.10348 0.017591 0.042872999
0.10379 0.017065 0.043714002
0.016122 0.013738 0.10541
0.014713 0.015126 0.10569
-0.026479 -0.0057623 0.13731
-0.026535001 -0.0064542 0.13694
0.14016999 -0.040552001 0.074649997
0.13936 -0.040888999 0.074920997
0.13961001 -0.040732 0.075543001
0.089455999 0.017024999 0.049463
0.088725999 0.018322 0.049720999
0.089529999 0.018282 0.049295999
0.0095576998 0.0032840001 0.10538
0.10442 -0.0093494002 0.047974002
-0.015644999 -0.0071759 0.13529
0.13919 0.0055828001 0.11011
-0.0032883 0.0091406005 0.14346001
-0.0039670002 0.0094828997 0.14322001
0.043908 0.013692 0.12106
0.15922999 0.0037958999 0.11566
0.052246001 0.012365 0.084156998
0.052368 0.011581 0.084560998
0.050942998 0.01175 0.083515003
0.11855 -0.022924 0.077559002
0.1181 -0.024382999 0.076586999
0.11895 -0.024196999 0.077601999
-0.024654999 0.0077805002 0.1429
-0.023367999 0.0077449 0.14331999
0.13884 -0.013554 0.090696998
0.13984001 -0.014088 0.090439998
0.11872 -0.044955 0.057055999
0.092859998 0.022567 0.049601
0.092531003 0.022088001 0.051107001
0.11857 0.027197 0.057229999
0.11896 0.026946999 0.057836
0.11961 0.026877999 0.056701001
-0.020883 0.020238999 0.1221
-0.019114999 0.019764001 0.1227
-0.019479999 0.02012 0.12126
0.10137 -0.015578 0.084494002
0.10109 -0.015322 0.083780997
0.10177 -0.016226999 0.084381998
0.025552999 0.0042046001 0.093331002
0.02678 0.0047122999 0.092883997
0.026609 0.0034129999 0.092456996
0.042831 0.011668 0.080610998
0.042256001 0.011399 0.081031002
0.042619001 0.012773 0.079907998
-0.0083986996 -0.012717 0.11318
-0.0083199004 -0.013622 0.1134
-0.0091837998 -0.012737 0.11344
0.013335 -0.00076089997 0.10595
0.094297998 0.029967999 0.041173998
-0.046971999 0.013455 0.12878001
-0.046905998 0.013995 0.12983
-0.046578001 0.014164 0.13016
-0.0022874 0.011672 0.10459
-0.0013474 0.01205 0.10408
-0.00097269 0.011105 0.10484
0.10222 0.0076184999 0.047336999
0.10322 0.0075042001 0.04792
0.13497999 -0.038151 0.072261997
0.10419 0.012462 0.091642
0.10356 0.012455 0.091854997
0.056111999 -0.0023803001 0.084307998
0.057360999 -0.0020844 0.083761998
0.11249 0.033744 0.040787999
0.063812003 0.0038469001 0.11011
0.063069001 0.0041454001 0.10975
-0.046572 -0.0011447 0.13507999
-0.046062998 -0.00094177999 0.13605
-0.046934001 0.00019221001 0.13491
0.14772999 0.019739 0.10584
0.14695001 0.019645 0.10502
0.069343001 -0.0038715999 0.069866002
0.069151998 -0.0026328 0.069709003
0.069665 -0.0027369 0.068907
0.078061998 -0.013939 0.089298002
0.078029998 -0.014928 0.089538001
0.078346997 -0.013257 0.090728
0.014757 0.0088504003 0.13522001
0.01486 0.0080364998 0.13461
0.015992999 0.0081235003 0.13441999
0.0057641999 -0.010609 0.11616
0.0055974 -0.011673 0.11656
-0.038894001 0.021934001 0.12774999
-0.037696 0.021242 0.12707999
0.038339999 0.018425999 0.079485998
0.038718998 0.019531 0.079695001
0.039315999 0.019613 0.079631999
0.059172001 -0.0081228996 0.093741998
0.059021998 -0.0075389999 0.093433999
0.066467002 0.014186 0.085427999
0.065154001 0.012656 0.085681997
0.065205 0.013514 0.085487999
0.089748003 -0.0021531 0.063628003
0.090290003 -0.00098242005 0.062756002
0.090093002 -0.0022543999 0.063065
0.021503 0.00096203003 0.12302
0.10641 -0.041017 0.049920999
0.10748 -0.041095998 0.049366001
-0.025013 -0.013522 0.11924
-0.024892 -0.013818 0.12054
-0.025798 -0.013345 0.11988
0.097057 0.029515 0.067743003
0.098191001 0.030239999 0.066942997
0.097231001 0.029819001 0.067357004
-0.00020245 0.012472 0.12905
0.00049501 0.012447 0.12893
0.00029098999 0.013165 0.12808
0.062084999 0.014245 0.11711
0.06318 0.014177 0.116
0.061893001 0.014152 0.11639
0.11655 -0.0084582996 0.099882998
0.1172 -0.0085944999 0.098034002
0.11776 -0.0085415002 0.099375002
0.072236001 0.0095884996 0.082589
0.072327003 0.010277 0.082744002
0.073421001 0.0091650998 0.082115002
-0.042801999 0.016638 0.13805
-0.041992001 0.015879 0.13851
0.0055757002 0.015109 0.12932
0.0039904998 0.015321 0.12925
0.0043815998 0.014412 0.12872
0.11583 -0.039740998 0.043864001
0.11606 -0.038996 0.044836
0.044266999 0.018137001 0.11471
0.042892002 0.017983999 0.11512
0.050537001 0.017085001 0.075369
0.049697001 0.016996 0.075084001
0.14669 -0.014483 0.089411996
0.14812 -0.015209 0.089543
-0.021155 -0.0029637001 0.11611
-0.021067001 -0.0042253002 0.1153
-0.021345999 -0.0034396001 0.11591
0.096997 -0.017638 0.053704001
0.09668 -0.017465999 0.05522
0.097126 -0.017294999 0.054398
0.0021448999 -0.0040412 0.13478
0.091052003 -0.015022 0.073120996
0.092317 -0.015045 0.072751999
0.089548998 0.014597 0.052437998
0.034037001 -0.0098738 0.10116
0.033714 -0.010049 0.1021
0.033365 -0.0087646004 0.10166
0.14069 0.016237 0.094207004
0.035149999 -0.010617 0.088348001
0.034309 -0.010074 0.088772997
0.088747002 0.019441999 0.054924
0.088936999 0.018177999 0.055371001
0.089468002 0.018673999 0.055702999
-0.01308 -0.0043565002 0.11814
-0.014517 -0.0031087 0.11817
-0.01379 -0.0031904001 0.11785
0.092252001 -0.040576998 0.064078003
0.092145003 -0.04194 0.064672999
0.092882998 -0.041377001 0.064822003
0.092307001 -0.0077236001 0.095426999
0.0094402004 -0.012483 0.10633
0.0088988002 -0.012654 0.10522
0.0095961997 -0.012157 0.10475
0.042215001 0.017579 0.11248
0.012021 -0.0057997 0.10617
0.013278 -0.0056011002 0.10576
0.013091 -0.0063088001 0.10498
0.018014999 0.0072034001 0.13316
0.018259 0.0077462001 0.13352001
0.01509 0.0045205001 0.10365
0.01461 0.0044399002 0.10336
0.10416 0.010082 0.092931002
0.11077 0.022186 0.078973003
0.10954 0.022111 0.079015002
0.13559 -0.010171 0.089818999
0.13537 -0.0090245996 0.089423999
0.1345 -0.0087836003 0.089966998
0.077633999 0.021933001 0.079686001
0.076586999 0.02062 0.079134002
0.076665998 0.021528 0.080297999
0.073574997 0.010117 0.10907
0.072892003 0.010457 0.11048
0.07333 0.010745 0.10982
0.10264 0.025986999 0.069096997
0.10193 0.027054001 0.068875998
0.10271 0.026098 0.069917999
0.13563 0.035271 0.072159998
0.13722 0.035744 0.071767002
0.046569001 0.0037815999 0.12741999
0.045430999 0.0049366001 0.1267
0.045864999 0.0036064 0.1269
0.059767999 0.012905 0.1007
0.061122 0.012687 0.10023
0.059758998 0.011984 0.099792004
-0.0046227998 0.0027054001 0.10973
-0.0039523998 0.001804 0.10992
-0.0043951999 0.0023886999 0.11061
-0.037165001 0.01874 0.13462
-0.037684001 0.020276001 0.13327
-0.038644999 0.019296 0.13462
0.016609 -0.011596 0.11233
0.014919 -0.010845 0.11204
0.015031 -0.011996 0.1124
0.097980998 0.032623999 0.066096
0.099338003 0.031175001 0.066046998
0.099003002 0.032607999 0.065640002
0.11542 -0.024388 0.076636001
0.11554 -0.023297001 0.076678999
0.11506 -0.023956001 0.077739999
0.10932 -0.018529 0.088117003
0.072508998 0.0045230002 0.10101
0.074626997 0.012356 0.099462003
0.074047998 0.013195 0.097769998
-0.0040421998 0.00021437 0.10511
0.061046999 -0.0077677001 0.089031003
-0.0034525001 0.012498 0.13199
-0.0018233 0.012352 0.13191
-0.0022577001 0.012636 0.13129
0.014829 0.014266 0.10065
0.015091 0.013351 0.10028
0.11136 -0.044794001 0.060651999
0.11172 -0.045070998 0.058664002
0.11191 -0.045216002 0.059769999
0.10787 -0.0065942002 0.040568002
0.10746 -0.0057097999 0.041189
0.10628 0.011186 0.092638999
0.10611 0.012246 0.091999002
0.10587 0.012013 0.092813
0.060213 -0.022803999 0.089868002
0.071745999 0.0031993 0.068014003
0.072240002 0.0028667999 0.067679003
0.071791001 0.0022658 0.067510001
0.11334 0.035688002 0.033769999
0.11242 0.033987001 0.034189999
0.11305 0.034476001 0.034389
0.013869 -0.0090055997 0.12408
0.013173 -0.0086716004 0.12560999
0.012875 -0.0094902003 0.12537
0.13406999 -0.013751 0.092165999
0.013157 0.0081163002 0.12572999
0.013714 0.0086452998 0.12427
0.012577 0.0084993001 0.12467
0.070568003 0.010037 0.094001003
0.071695998 0.0099401996 0.093331002
0.12223 0.041898001 0.043853998
0.12333 0.041873999 0.042831998
0.12326 0.042895999 0.042766999
0.023096999 0.0090969 0.13214
0.022727 0.0078656003 0.13115001
0.023074999 0.0086134002 0.13147999
0.13293 0.027287001 0.077917002
0.13178 0.026265001 0.078667
-0.0063967002 0.017735999 0.12576
0.067065001 -0.0010637 0.10709
0.066151001 -0.0010396 0.10743
0.066941001 -0.0023107 0.10737
-0.027419001 -0.0026396001 0.14629
0.075297996 0.0075468998 0.10737
0.076052003 0.0076196999 0.10855
0.075057 0.0075019002 0.10858
0.012996 -0.00042242001 0.13756
0.011797 -0.00054969999 0.13773
0.01271 -0.0013708 0.13699
0.093961999 -0.041762002 0.058150999
0.042374998 0.014071 0.11588
0.042229 0.014116 0.11497
0.041637 0.014176 0.11507
0.10583 -0.032570999 0.053716999
0.1063 -0.032297 0.053610999
0.10115 0.011475 0.047924001
0.10067 0.011759 0.047763001
0.021474 0.010605 0.12518001
0.020811999 0.010688 0.12732001
0.11575 0.025150999 0.073642999
0.1146 0.024064001 0.074523002
0.042103998 0.0093770996 0.084027
0.015930001 4.7141998e-06 0.1266
0.01534 -0.00072461 0.12533
0.015327 -0.0015377 0.12543
0.093561999 0.017252 0.048374001
0.093969002 0.016161 0.049112
0.12993 -0.032501001 0.077380002
0.13015001 -0.033341002 0.077659003
0.13033 -0.033487 0.078918003
-0.018022001 -0.0056310999 0.1198
0.11466 -0.0043287999 0.10623
0.11477 -0.0035544001 0.10682
0.036777999 0.022675 0.1023
0.036070999 0.022691 0.10107
0.036040999 0.021272 0.10158
0.050025001 -0.015019 0.085343003
0.049148001 -0.014674 0.085212
0.049658 -0.014172 0.086023003
0.068283997 0.0075999 0.10406
0.067244001 0.0077469 0.10447
0.068214998 0.0061439001 0.10368
-0.032458 -0.0074529001 0.13316999
0.024940001 -0.0027127999 0.10119
0.025502 -0.0030846 0.10175
0.012478 -0.011844 0.12762
0.011693 -0.011445 0.12808
0.011828 -0.011873 0.12643
0.035707001 0.026013 0.096029997
0.034694999 0.026543999 0.095209002
0.033799998 0.025418 0.096245997
0.11819 -0.019057 0.047612999
0.11787 -0.018688001 0.046927001
0.11932 -0.018541001 0.047196001
0.017144 0.0020606001 0.10218
0.017735999 0.0022171 0.10154
0.018282 0.002562 0.10151
-0.0074217999 -0.016553 0.1212
-0.0078266002 -0.016421 0.12285
-0.020674 -0.016101001 0.12917
-0.021748999 -0.01646 0.12935001
-0.0055752001 -0.014523 0.11366
-0.0057064998 -0.013262 0.11273
-0.0052634999 -0.013403 0.11374
0.088891 0.014885 0.064461999
0.088177003 0.014177 0.063721001
0.087010004 0.014355 0.063986003
0.041152999 -0.0045703002 0.08546
0.040895 -0.0036509 0.084486
0.042034 -0.0037426001 0.084103003
0.062130999 -0.021748999 0.088587999
0.063064002 -0.020434 0.087995
0.062913999 -0.021058001 0.088505
0.11762 0.027845001 0.060665
0.11866 0.027931999 0.059918001
0.11752 0.027439 0.059555002
0.0060097999 -0.011831 0.1054
0.046043999 -0.0050050002 0.12146
0.044450998 -0.0053670998 0.12077
0.086144 0.0070113 0.062553003
0.085626997 0.0060679 0.062224999
0.12135 0.039049 0.045104999
0.1213 0.040605001 0.044160999
0.12027 0.039384 0.045196999
0.098108001 0.0075449999 0.097402997
0.098526001 0.0073299999 0.096404999
0.086874999 0.032873999 0.051573999
0.087357 0.031922001 0.051543001
0.087828003 0.032051999 0.052262001
0.053229 0.015103 0.087707996
0.053467002 0.014992 0.087227002
-0.044341002 0.0047201002 0.13112
-0.043223001 0.0062417998 0.13116001
0.10965 -0.043660998 0.053500999
0.10848 -0.042342 0.054088999
0.10901 -0.042645998 0.053567
0.10189 -0.0025116 0.049426001
0.079586998 -0.015449 0.093029
0.080204003 -0.015409 0.094231002
-0.015632 -0.00054912001 0.13925
-0.014155 -5.1024999e-05 0.13932
-0.01497 -0.00059049 0.14004
0.11715 -0.010459 0.027944
0.085026003 -0.0003062 0.10294
0.084501997 -0.0019973 0.10226
0.085412003 -0.0014024 0.10334
-0.021841001 0.015108 0.13424
0.11245 -0.045813002 0.060509998
0.11299 -0.046204999 0.061014999
0.093826003 0.030807 0.063091002
0.094241001 0.031065 0.064019002
0.094134003 0.031649001 0.062578
0.060763001 0.016875001 0.073224001
0.060276002 0.017636999 0.073553003
0.061170999 0.01785 0.074456997
0.076431997 -0.0041295001 0.10088
0.074770004 -0.0044105998 0.10032
0.074932002 -0.015208 0.082470998
0.13091999 -0.02221 0.083223
0.12916 -0.022307999 0.082130998
0.13034 -0.022343 0.082129002
0.036153 0.017661 0.0801
0.035055 0.017186999 0.080999002
0.034933001 0.018727001 0.081134997
0.047757 -0.0015651 0.12405
0.047396 -0.00091459998 0.12413
0.046957999 -0.0019657 0.12326
-0.025518 0.016251 0.14112
-0.026105 0.015499 0.14038
0.10085 -0.0093422001 0.049137998
0.10003 -0.0092594 0.049543001
-0.026791999 0.012195 0.11883
-0.027341001 0.011769 0.11968
0.011177 -0.011239 0.12515
0.012042 -0.011406 0.1239
0.012552 -0.011234 0.12464
0.10227 -0.017483 0.078533001
0.10309 -0.017588999 0.077896997
0.10371 -0.017436 0.079253003
0.0093328999 0.017526001 0.12696999
0.064519003 0.0070296 0.12229
0.063616998 0.0070221 0.12263
0.029732 -0.0046424 0.11639
0.028911 -0.0041649998 0.11663
0.028377 -0.0047360999 0.11686
0.078401998 0.0076237 0.066854
0.078147002 0.0068585998 0.066722997
0.12801 0.025870999 0.073377997
0.12838 0.025955001 0.074603997
0.12927 0.026143 0.073053002
0.090273999 0.028697001 0.052202001
0.020896999 -0.013679 0.10829
-0.024847001 0.0074254 0.14912
-0.025149999 0.0079079997 0.14948
-0.025131 0.0075384998 0.14954001
0.11243 0.024132 0.075643003
0.11772 0.021309 0.080840997
0.11926 0.020598 0.081326
0.1185 0.021300999 0.080113001
0.025578 -0.0071282 0.11421
0.025219999 -0.0072027999 0.11358
0.026369 -0.0070239999 0.11297
0.060219001 -0.0079020998 0.092771001
0.060816001 -0.0071736998 0.091782004
0.061356001 -0.0077991998 0.092453003
0.11829 0.048999 0.027739
0.11841 0.048161998 0.027857
0.043712001 -0.0059961001 0.11716
0.027887 0.00056369998 0.12148
0.028525 0.0003177 0.12301
0.027081 0.00055121997 0.12287
0.068077996 -0.0033296 0.10658
0.068340003 -0.0021011 0.10698
-0.046289001 0.0041080001 0.13529
-0.046544999 0.0052482998 0.13492
-0.047040999 0.0038894 0.13433
0.11922 0.051669002 0.036088999
0.11969 0.052242 0.035163
0.11944 0.051293999 0.034536
0.015688 0.011739 0.12183
0.016762 0.012014 0.12171
-0.0010927001 0.011766 0.1389
-0.00031688 0.011974 0.13860001
0.12859 -0.020912001 0.085294001
0.064960003 0.0023121 0.081405997
0.13618 0.017928001 0.10155
0.13643 0.017011 0.10174
0.13526 0.017278999 0.10065
0.11702 0.021929 0.079122998
0.11668 0.02224 0.078148998
0.11705 0.021369999 0.079850003
0.086158998 -0.016442001 0.091640003
0.085891001 -0.016519999 0.090641998
0.13438 0.0061267 0.10791
0.13338999 0.0059122001 0.10859
0.13393 0.0046321 0.10669
0.13386001 -0.031279001 0.060986999
0.13548 -0.01017 0.063656002
0.13415 -0.031028001 0.062036
0.028524 0.0058142999 0.087379001
0.029247999 0.0065870001 0.088349
0.084352002 -0.014774 0.097277001
0.11475 0.026632 0.025583999
0.073475003 -0.011817 0.088462003
0.074336998 -0.012225 0.087494999
0.074755996 -0.012878 0.088127002
0.0080773998 0.018297 0.11218
0.0092634996 0.018248999 0.11181
0.0081802998 0.01905 0.11207
0.11176 -0.036223002 0.072679996
0.11138 -0.037636999 0.071739003
0.11158 -0.036228001 0.070882
-0.0042947 0.0057660001 0.10437
-0.0041792002 0.0062485998 0.1057
0.020904001 -0.0098090004 0.10703
0.020191999 -0.011215 0.10714
0.0095164999 -0.010606 0.12175
0.077666998 0.012644 0.070491001
0.078473002 0.012401 0.069900997
0.078286 0.011963 0.068755001
0.087242 0.036389001 0.049066
0.088728003 0.037459001 0.049445
0.087757997 0.036623001 0.048328999
0.046822 0.022078 0.093698002
0.12548999 0.029568 0.071442999
0.12632 0.029882999 0.070970997
0.12661999 0.030288 0.070290998
0.12017 -0.042583 0.037767999
0.11879 -0.043283001 0.037726998
0.018602001 -0.0066085998 0.11923
0.025405999 0.0085215 0.099510998
0.024412001 0.0082272999 0.099858999
0.11401 -0.039928999 0.045378
0.11458 -0.040414002 0.043752
0.11356 -0.040360998 0.044438999
0.046788 -0.001133 0.084330998
0.047414001 -0.00085776002 0.085259996
0.11332 0.042374998 0.023752
0.11338 0.041149002 0.023219001
0.11284 0.041322 0.023881
-0.020462001 0.016162001 0.13392
-0.021046 0.015609 0.1339
0.092574999 -0.0079629999 0.054285001
0.092368998 -0.0088600004 0.055077001
0.11369 -0.0030046999 0.10272
0.12958001 0.025864 0.080752
-0.024124 0.015521 0.14445999
-0.023804 0.01419 0.14478
0.11586 -0.045400999 0.040778998
0.11599 -0.045434002 0.041565001
0.013295 0.0016988 0.13764
0.014249 0.0030114001 0.13685
0.01324 0.0031369999 0.13733999
0.091277003 0.026957 0.046314999
0.091985002 0.025761001 0.046167001
0.091948003 0.02595 0.046411999
0.075181998 0.0056036999 0.069238998
0.076619998 0.0052494002 0.068623997
0.076508999 0.0038054001 0.068726003
0.054462001 0.015830001 0.085688002
0.054977998 0.015900001 0.085110001
0.054255001 0.015319 0.083962999
0.13606 -0.017890999 0.089884996
-0.044587001 0.020951999 0.12825
-0.043983001 0.022361999 0.12848
-0.043993 0.021181 0.12837
0.034835 -0.019427 0.092441998
0.03466 -0.020026 0.093131997
0.10173 -0.0093607996 0.092731997
0.10112 -0.0092634996 0.091201
0.10147 -0.0094200997 0.091603003
0.016039001 -0.015453 0.11219
0.016872 -0.016116001 0.11115
0.017419999 -0.015386 0.11147
0.042463999 0.018611999 0.078938
0.041168999 0.018774001 0.078975998
0.041019998 0.020221001 0.079508997
0.12403 0.018203 0.094527997
0.12284 0.017736999 0.095004998
0.033895001 -0.013871 0.10033
0.033769 -0.012571 0.10026
0.033443999 -0.012931 0.098990001
0.081864998 -0.017384 0.088198997
0.081312999 -0.018686 0.087668002
0.14619 0.014857 0.086248003
0.14569999 0.014925 0.08636
0.14503001 0.015298 0.086119004
-0.0097377002 -0.0019539001 0.13653
-0.0094900001 -0.00078474003 0.13657001
0.12019 -0.050519001 0.058922999
0.04654 -0.0099416999 0.087334
0.046099 -0.010575 0.08715
0.058444001 0.013455 0.11241
0.13332 -0.035989001 0.076808996
0.13237 -0.036940001 0.076131001
0.12074 0.052067999 0.032334
0.12226 0.052822001 0.035172999
0.11958 0.029465999 0.060881
0.118 0.028681999 0.061787002
0.093910001 -0.015499 0.087944001
0.093592003 -0.014617 0.087369002
0.094957002 -0.015398 0.086993001
0.031241 0.011463 0.085042
0.10738 0.040555999 0.04944
0.10658 0.039299 0.049462002
0.028859001 0.00091693999 0.085074998
0.029611999 0.00090667 0.084697001
0.029318999 9.3684001e-05 0.084482998
0.046069998 -0.0015792 0.082126997
0.04668 -0.0022597001 0.081556
0.038371999 0.014703 0.11376
0.14397 -0.0015651 0.10495
0.14442 -0.0016979 0.10608
0.14308999 -0.0014601999 0.10566
-0.00036445999 -0.0010229 0.1119
-0.001851 -0.00043352999 0.11189
0.017316001 0.0096060997 0.1227
0.017612001 0.010348 0.12242
-0.038118001 -0.0077773002 0.14839999
0.036874998 0.010701 0.11396
0.037000999 0.011499 0.11432
0.035349 0.012038 0.11442
0.10276 0.013628 0.089211002
0.11768 -0.044716999 0.038107
0.078101002 -0.013153 0.092095003
0.079069003 -0.012798 0.091463
0.089405999 0.024544001 0.060841002
0.089287996 0.024116 0.061136
0.089651003 0.024157001 0.061999999
-0.007431 -0.0071506002 0.1117
-0.0088769002 -0.0073658 0.11254
-0.0075099999 -0.0062416 0.11211
0.091182001 -0.015302 0.090507001
0.12183 -0.046397999 0.035808999
0.13609999 -0.023076 0.087998003
0.13585 -0.023719 0.086744003
0.13676 -0.023535 0.087569997
0.090598002 0.011373 0.096955001
0.09127 0.010678 0.096533999
0.091154002 0.011901 0.095495
0.087958999 -0.017069999 0.075354002
0.089041002 -0.016597999 0.074629001
0.088747002 -0.017335 0.075740002
0.11098 0.029092001 0.063810997
0.1114 0.028262001 0.064051002
0.0012828 -0.0091557 0.10649
0.0011891 -0.0083923005 0.10699
0.14153001 0.031691 0.083313003
-0.030924 -8.8686e-05 0.14839999
-0.030719999 0.0002979 0.14774001
0.12476 -0.059657 0.050563
0.12356 -0.059523001 0.050838001
0.12495 0.0042936001 0.1171
0.12554 0.0035343999 0.11681
0.12639999 0.0031997999 0.11716
0.12243 -0.054124001 0.059838999
0.12219 -0.055925999 0.058889002
0.12275 -0.055542 0.060082
-0.041122001 -0.0068842 0.14411999
-0.0023163001 0.013175 0.13163
-0.0032474 0.013295 0.13169999
0.079388998 -0.0052470001 0.066008002
0.078524999 -0.0048914002 0.067082003
0.10868 0.0033710999 0.036246002
0.10988 0.0018 0.036056999
0.10878 0.0020558999 0.036878001
0.12651999 -0.0078608999 0.093822002
0.12683 -0.0081979996 0.093268998
-0.028289 0.017007001 0.14451
-0.029198 0.017204 0.14462
-0.028024999 0.016257999 0.14462
0.11544 -0.0064793001 0.027557001
0.13969 -0.031436 0.084137999
0.14032 -0.032209001 0.084457003
0.068457 0.01352 0.11634
0.10278 -0.038609002 0.070638999
0.10282 -0.039329998 0.070037
0.1028 -0.040034998 0.070437998
-0.0073540001 -0.0065653999 0.13022
0.038006999 0.023959 0.10146
0.10143 0.027386 0.070254996
0.10089 0.027416 0.069522999
0.099955998 0.027577 0.069803998
0.060897999 -0.014623 0.097857997
0.060656998 -0.014066 0.097410999
-0.041790001 0.016008999 0.12805
-0.041453999 0.014931 0.12848
-0.042004999 0.015642 0.12819
0.025210001 0.0067015002 0.12463
0.026350001 0.0056750998 0.12353
0.037696 0.013536 0.080894999
0.036454 0.01374 0.081058003
0.036821 0.014823 0.081070997
0.081547998 -0.017091 0.085378997
0.094590001 0.0197 0.074409999
0.090492003 0.026085 0.058338001
0.029075 0.0033507 0.090984002
0.028522 0.0031965 0.091444001
0.046078999 0.00036938 0.081124
0.047965001 0.00059657998 0.081947997
0.070837997 -0.0062849 0.085676
0.069169 -0.00655 0.085764997
0.070028 -0.0076763998 0.084510997
0.055165 -0.012324 0.10575
0.056180999 -0.012269 0.10522
0.056540001 -0.011756 0.1063
0.095195003 -0.011126 0.060322002
0.095334001 -0.0097839003 0.061301
-0.025872 0.0066597001 0.15786999
0.11299 0.025473 0.031273998
0.051183 0.023402 0.079472996
0.051599 0.023673 0.080421999
0.052801002 0.023283999 0.080277003
0.031314999 0.0019147 0.088225
0.030959001 0.0012519 0.087219998
-0.033357002 -0.0079857996 0.14866
0.11332 -0.024495 0.077706002
0.11378 -0.024133001 0.078667998
0.1132 -0.023215 0.078892998
0.031422 0.0029720999 0.12461
0.032196 0.0031144 0.124
0.030568 0.0034435999 0.12524
0.029306 0.0085802004 0.088248
0.029069999 0.0089111999 0.088421002
0.029291 0.0085025998 0.089018002
0.043427002 0.022290001 0.10944
0.025217 -0.0034401999 0.11856
0.025889 -0.0045400001 0.11858
0.025791001 -0.0037857001 0.11841
0.030892 0.021892 0.088365003
0.030874001 0.022434 0.089550003
0.021167001 -0.0069717998 0.10209
0.02091 -0.0082152998 0.10182
0.021173 -0.0075563998 0.10166
0.087884001 0.016713001 0.050673999
0.088777997 0.017192001 0.050133001
0.065925002 -0.0086425999 0.090425998
0.066927999 -0.0085714003 0.090031996
-0.019122001 -0.0035912001 0.14636
0.067721002 0.0097035002 0.12006
0.067869999 0.0093571004 0.11989
-0.030732 0.0071331998 0.15299
-0.031275999 0.0067616999 0.15233999
-0.001196 -0.015562 0.1226
-0.001679 -0.016035 0.12229
-0.0028224001 -0.012023 0.10869
-0.045269001 -0.0031481001 0.13788
-0.044915002 -0.0017662999 0.13879
0.070781 -0.00023207 0.073081002
0.071144998 -0.00017009 0.073954001
0.070819996 0.00064594002 0.072376996
0.12304 -0.027852001 0.044048
0.1222 -0.027305 0.044675
0.12329 -0.026969001 0.044176999
0.14071 0.015373 0.099683002
-0.04549 0.016101001 0.13765
-0.044326998 0.016286001 0.1374
-0.045596 0.017429 0.13703001
0.12973 -0.0042853998 0.10664
0.12928 -0.0042206999 0.10784
0.12891001 -0.0042689 0.10719
0.090199001 0.019804999 0.078819998
0.088711999 0.019966999 0.079590999
0.089048997 0.020577 0.080100998
0.040743999 -0.015053 0.086579002
0.041304 -0.014874 0.086514004
-0.043407001 -0.0076318998 0.13446
0.061934002 -0.010083 0.093929
0.060706999 -0.010114 0.094456002
0.061459001 -0.0092729004 0.092946
0.095693 -0.021654001 0.073572002
0.095115997 -0.022019999 0.073562004
0.094195001 -0.021710999 0.073403001
0.094306998 -0.018112 0.073730998
0.093636997 -0.017555 0.075488999
-0.038747001 -0.010991 0.13506
-0.038183998 -0.010125 0.13538
0.051736999 0.0092970999 0.12726
0.051647998 0.01077 0.12709001
0.050384 0.010634 0.12694
0.13685 0.010116 0.10875
0.12297 -0.055357002 0.038582001
0.12173 -0.047414001 0.035574999
0.11221 -0.0066505 0.098369002
0.11126 -0.0079819998 0.098109998
0.11228 -0.0080452999 0.098991998
-0.046222001 0.0080441004 0.13581
-0.046516001 0.0068609999 0.13482
-0.046085 0.0068625002 0.13564999
0.0047725998 -0.020273 0.112
0.10726 -0.041083999 0.054453
0.1072 -0.040755 0.054961
0.10687 -0.039801002 0.054276999
0.12572999 -0.052450001 0.061205
0.12717 -0.051998001 0.061344001
0.12634 -0.052182 0.061409
0.12484 -0.0066359998 0.10383
0.11975 -0.047196001 0.05821
0.12008 -0.048193999 0.058389999
0.12058 -0.048262998 0.059615001
0.062091 0.0023653 0.10616
0.11315 0.010921 0.028186999
0.1132 0.0097016999 0.027814999
0.13477001 0.031325001 0.078762002
0.13551 0.031725999 0.077316999
0.13449 0.031238999 0.077578001
0.12571999 -0.031982999 0.076467998
0.11562 0.041078001 0.021837
-0.023922 -0.016186999 0.12772
-0.023807 -0.015893999 0.12867001
-0.00084345997 0.021028999 0.11136
-0.00044537001 0.02189 0.11183
0.00077750999 0.021908 0.1114
-0.038160998 -0.0027091 0.15049
-0.039124001 -0.0042327 0.14930999
-0.038573001 -0.0040799999 0.15095
0.11494 0.023234 0.031429
0.11567 0.023491001 0.030805999
0.11638 0.022686001 0.032010999
-0.042112999 -0.011127 0.12782
-0.040762998 -0.0098416004 0.12710001
-0.040743001 -0.011092 0.12701
-0.027162001 -0.0069948998 0.14398
-0.028361 -0.0063670999 0.14427
-0.028613999 -0.0061683999 0.14372
-0.044202 -0.0013458 0.13976
-0.04383 -0.0012352 0.14075001
-0.043963 0.00027223999 0.14071999
0.055977002 -0.0026905001 0.083543003
0.11029 -0.017348001 0.043173999
0.10985 0.031693999 0.028690999
0.043712001 -0.0082270997 0.12017
0.043497 -0.006935 0.11888
0.043703001 -0.0083272001 0.11933
0.091176003 0.017627001 0.058375999
0.090549 0.018363999 0.058010999
0.091233999 0.017618001 0.057158999
0.093171999 0.033675998 0.053886
0.094118997 0.033659 0.054044001
-0.0083731003 0.0096717998 0.13632999
-0.0093528004 0.010203 0.13716
0.10444 -0.0098035 0.091939002
0.10307 -0.010781 0.092042997
0.058832999 0.0027892001 0.081008002
0.059450999 0.0024536001 0.081972003
-0.02049 0.0013355 0.11919
0.00032776 0.0099075995 0.14211001
0.13465001 -0.0065151998 0.093006
0.13273001 -0.0066649001 0.093258001
0.134 -0.0063159 0.092271999
0.0032156 -0.015032 0.10854
0.0031945 -0.013948 0.10802
0.0041181999 -0.014074 0.10755
0.12587 -0.00016169 0.10819
0.12522 -0.00060445 0.10704
0.12609001 -0.0011033 0.10799
0.10736 -0.040050998 0.061071999
-0.044879001 -0.0010731 0.13243
-0.044689 -0.0018249 0.13191
-0.045407001 -0.0020063999 0.13228001
0.10564 0.010689 0.041820999
0.10506 0.010146 0.042312998
0.028138001 -0.0078365998 0.10169
0.028481999 -0.0080436002 0.10355
0.027796 -0.0083836 0.10232
0.1006 -0.040045001 0.049943998
0.099100001 -0.040403001 0.049740002
0.099675 -0.039473001 0.050306
0.094136 -0.043772999 0.05993
0.093942001 -0.042824998 0.059431002
0.13145 0.017207 0.086607002
0.13135999 0.018296 0.086287998
0.14077 -0.0039177998 0.10887
0.10436 -0.023700001 0.080480002
0.064016998 -0.0096188998 0.083610997
0.063518003 -0.0094109001 0.085323997
0.063121997 -0.0094673 0.084347002
0.048397999 0.01169 0.081500001
0.048053999 0.010617 0.082344003
0.098861001 0.024548 0.070422001
0.098159 0.025489001 0.070234999
0.098357998 0.024224 0.069551997
0.025242001 0.00016453001 0.12231
-0.034382999 0.011902 0.14627001
-0.034924001 0.012145 0.14526001
-0.035748001 0.012186 0.14659999
-0.0050563999 0.0077050999 0.10852
-0.0054571 0.0074308999 0.10746
-0.0060426998 0.0081888996 0.10867
0.096293002 0.028045001 0.036594
0.096248999 0.026938001 0.036851
0.011576 -0.012406 0.11122
0.011712 -0.011353 0.11121
0.02856 0.010156 0.12319
0.028976001 0.0093791997 0.12365
0.029318999 0.010126 0.12258
0.010731 -0.0012743 0.10844
0.0097781997 -0.0015383 0.10787
0.077377997 0.0034372001 0.096672997
0.078194 0.0029008 0.096105002
0.077643998 0.0031283 0.096616998
0.11826 -0.032953002 0.045357998
0.10688 0.029627999 0.037678
0.1071 0.030191001 0.038375001
0.10793 0.029593 0.037510999
0.10802 0.031941 0.057376999
0.10667 0.032191001 0.057758
0.053428002 0.013847 0.10103
0.053615 0.013146 0.10016
-0.019334 0.0097867996 0.13969
-0.01966 0.0096046003 0.13833
-0.019002 0.0094804997 0.13879
0.10448 0.039294999 0.050420001
0.10315 0.040197 0.050696
0.0047081001 0.017100001 0.11917
0.0034335 0.018043 0.11946
0.0046969 0.017717 0.11944
0.042281002 -0.011661 0.11485
0.041824002 -0.012079 0.11466
0.041067999 -0.012055 0.11405
0.13979 0.0044995002 0.10993
0.13999 0.0042912001 0.10834
0.14018001 0.0036903 0.10905
0.11356 -0.0039295 0.032444999
0.11455 -0.0041709999 0.031350002
0.11472 -0.0047499002 0.03162
0.10646 0.014562 0.043340001
0.094552003 0.019458 0.067970999
0.093921997 0.019820999 0.067468002
0.092892997 0.019408001 0.067213997
-0.044964999 -0.0041544 0.1332
-0.046432 -0.0043357001 0.13259999
-0.045354001 -0.0040452001 0.13233
0.054838002 0.019487999 0.10469
0.054003 0.019982001 0.10489
0.054928999 0.019098001 0.10546
-0.0057735001 0.0098045999 0.14422999
-0.0063624 0.0099964002 0.14328
-0.042849999 0.010518 0.12594
0.11542 -0.0013934 0.10458
0.054331999 -0.015812 0.089495003
0.053490002 -0.015857 0.088601001
0.088345997 -0.0011 0.063851997
0.094403997 0.019698 0.069467001
0.094236001 0.01949 0.070234999
0.055287 0.013751 0.10301
0.054839998 0.014433 0.10353
0.071280003 0.011558 0.091828004
0.071277 0.011472 0.092133
0.12176 -0.047396999 0.061574001
0.050843999 -0.020718001 0.096979998
0.050009999 -0.020295 0.097834997
0.13663 0.018642999 0.084987998
0.13642 0.019746 0.084856004
0.13529 0.020005001 0.085141003
0.075143002 0.014468 0.088936999
0.075437002 0.012928 0.088767998
0.11305 0.017136 0.1001
0.11373 0.018004 0.099471003
0.058116999 0.00041278001 0.085216001
0.058053002 -0.00030347001 0.085367002
0.056905001 -0.00021999 0.085899003
0.081404001 0.015701 0.093898997
0.081860997 0.016084 0.094834998
0.081276998 0.017162999 0.093741
-0.023339 0.0072444002 0.12217
-0.022232 0.0074991998 0.12179
0.096245997 0.0037612999 0.051743999
0.096481003 0.0025178001 0.052122001
0.0063367998 0.01856 0.10226
0.077422 0.016341001 0.075346
0.067538999 0.0011924 0.10254
0.068191998 0.00092721003 0.10349
0.068770997 0.0013878 0.10191
-0.033163 -0.0017916 0.14994
0.12084 0.032083001 0.049297001
0.0053146002 0.020920999 0.12276
0.0056575001 0.021258 0.12356
0.057393 -0.0098711997 0.095868997
0.058825999 -0.01004 0.095523
0.057484999 -0.0104 0.096446998
0.031300001 -0.010804 0.097015001
0.031075999 -0.0098313 0.096695997
0.031411 -0.01049 0.095919997
0.029447 -0.0041661998 0.099197
0.030718001 -0.0038578 0.098451003
0.030343 -0.0043183998 0.10017
0.057062 0.010602 0.087752998
0.057512999 0.010712 0.088572003
-0.041141 0.0078056999 0.14642
-0.040429998 0.0079632001 0.14736
0.071236998 -0.00080515997 0.077841997
0.069932997 -0.0013243 0.078359
0.070041999 -0.00082341 0.078601003
0.072391003 0.0059095998 0.1151
0.073498003 0.0062886002 0.11449
0.072587997 0.0066566002 0.11625
0.069990002 -0.0062365001 0.071424998
0.070193 -0.0072547002 0.071551003
0.070381999 -0.0060144998 0.072555996
0.10804 0.011752 0.038626999
0.10865 0.012361 0.038681
0.10964 0.012624 0.038125999
0.10866 -0.038598999 0.045614999
0.10993 -0.037306 0.046365
0.020329 -0.0048853001 0.12085
0.020048 -0.0052224002 0.11953
0.019366 -0.0050658002 0.12082
0.12762 0.026554 0.077343002
0.14458001 0.016642001 0.10467
0.14431 0.017650999 0.10507
0.12148 0.046583001 0.041306999
0.11979 0.047568001 0.040761001
0.12031 0.046479002 0.041689999
-0.036998998 0.0011441 0.15746
-0.037108 0.0010637 0.15595999
-0.036566999 0.00054167002 0.15644
0.077209003 0.0053722002 0.067942999
0.076825 0.0044479002 0.067693003
0.066988997 0.011153 0.093261003
0.068150997 0.0109 0.094091997
0.051185001 0.016613999 0.11707
0.049679998 0.017147001 0.1175
0.049984001 0.016845001 0.11805
0.056940001 0.019850001 0.074936002
0.055858001 0.020258 0.075231001
0.12053 0.017583 0.10106
0.12066 0.018312 0.099832997
0.077128001 -0.014275 0.077340998
-0.016453 0.012795 0.13682
-0.016752001 0.01332 0.13625
0.11897 -0.050999001 0.050535001
0.11909 -0.050724 0.051422
0.030084001 -0.0079450002 0.10092
0.031160001 -0.0078091002 0.099742003
0.030838 -0.0085444003 0.10107
0.10272 0.015371 0.088505
0.10278 0.016394001 0.088180996
0.0065668998 -0.0030284999 0.13860001
0.092609003 0.030165 0.060658
0.055537999 0.01864 0.10009
0.055210002 0.019440999 0.10065
0.054873001 0.018852999 0.10073
0.13826001 -0.040580001 0.075958997
0.13775 -0.040768001 0.075560004
-0.003706 0.016845001 0.10508
-0.0025726999 0.016829001 0.10434
0.1017 -0.043577 0.056093
0.10243 -0.042845 0.056460001
-0.044652 0.014232 0.13936999
-0.044791002 0.015093 0.13928001
-0.045745 0.015069 0.13809
-0.0016923 0.016580001 0.10909
-0.0027670001 0.016450001 0.11031
-0.0014599001 0.016628999 0.10988
0.0097518004 0.015006 0.10735
0.010987 0.014618 0.1062
0.0099676 0.015458 0.10602
0.13262001 -0.023636 0.081352003
0.13342001 -0.022992 0.082231998
0.13225999 -0.02279 0.082168996
-0.0010407 0.013139 0.12852
-0.0017899 0.012959 0.13006
-0.00064650999 0.012844 0.12944999
0.033307001 -0.015389 0.099872001
0.033146001 -0.014868 0.099375002
0.032572001 -0.014564 0.098399997
0.098451003 -0.034508999 0.051208001
0.097492002 -0.034885999 0.051757999
0.098890997 -0.033488002 0.051096
0.10529 0.019254999 0.078942999
0.10418 0.019298 0.078570999
0.10445 0.019082 0.079294004
0.11169 -0.027547 0.048277002
0.11362 0.043745 0.030461
0.11477 0.044941001 0.03094
0.114 0.045258 0.029996
0.1003 -0.021389 0.051986001
0.10031 -0.02049 0.052110001
-0.019637 -0.0067232 0.11895
0.067240998 0.011598 0.092280999
0.099546999 0.034173999 0.046624999
0.10025 0.034258999 0.047603
0.081736997 0.014128 0.071125001
0.087279998 0.0063252999 0.061519999
0.088159002 0.0062619001 0.060919002
0.018931 0.0070048999 0.10291
-0.0025962 -0.01179 0.12789001
-0.012585 -0.0066324999 0.11637
-0.012374 -0.0057713999 0.11661
-0.012703 -0.0068970001 0.11571
0.11866 0.017408 0.087137997
0.1181 0.016992999 0.087500997
0.1189 0.017053001 0.087820001
0.11332 0.025753001 0.027582999
0.11398 0.025354 0.027534001
0.11359 0.025072001 0.028661
0.0070309001 -0.0012283 0.12819
0.0079918997 -0.001059 0.12826
0.0077403001 -0.0016143 0.12926
0.10179 0.023944 0.042548001
0.10181 0.024133001 0.042126
0.10233 0.023085 0.042167
-0.027116001 0.0011705999 0.1182
0.11862 -0.041274998 0.052891001
0.11785 -0.040610999 0.053548999
0.11804 -0.041168999 0.051833
0.11776 0.022949001 0.076127
0.11717 0.023629 0.076591
0.034421001 0.01306 0.11421
0.035176001 0.01302 0.11422
0.034963999 0.014799 0.11403
0.11824 0.017878 0.088702999
0.11892 0.017084001 0.088464998
0.11571 0.011868 0.028217001
0.1167 0.011624 0.026162
0.11532 0.011243 0.026457001
0.10548 -0.034853 0.053571999
0.10525 -0.033797 0.053277999
0.064970002 -0.0077279001 0.079374999
0.064978004 -0.0062227999 0.079077996
0.065996997 -0.006244 0.078671001
0.11439 -0.048025001 0.063885003
0.11549 -0.048271 0.062762
0.11443 -0.048889 0.06408
-0.024366001 0.0095154 0.14662001
-0.024069 0.0097784996 0.14760999
-0.02286 0.0095793996 0.14701
0.031583 -0.013756 0.096097
0.016804 -0.013991 0.10709
0.016176 -0.015453 0.10727
0.016096 -0.014542 0.10702
0.1152 -0.046358999 0.065549999
0.11422 -0.045970999 0.065733999
0.11489 -0.046441 0.065499
0.029439 0.0093299001 0.088907003
0.029104 0.010633 0.088661999
0.029457999 0.0090461001 0.087379999
0.10236 -0.036324002 0.071176998
0.10155 -0.035567001 0.070632003
0.10206 -0.036026999 0.069650002
0.053119 0.016449001 0.10329
0.05319 0.017656 0.10302
0.053780001 0.018002 0.10374
0.096249998 0.040778998 0.052531
0.096033998 0.040151 0.052444998
0.096648999 0.041097 0.053413998
0.13968 -0.026779 0.087274
0.14069 -0.026323 0.087034002
0.13989 -0.025643 0.087162003
0.1035 -0.034332 0.051360998
0.10275 -0.035879001 0.050918002
0.10304 -0.034557998 0.050976001
0.12008 0.027755 0.054866001
0.027333001 -0.0047579999 0.10035
-0.016469 0.018015999 0.12197
-0.016445 0.018004 0.12275
-0.015859 0.017664 0.12264
0.10148 0.040693998 0.052412
0.10102 0.040801998 0.054140002
0.10149 0.040332999 0.053752001
0.073632002 0.014835 0.071842998
0.073729999 0.014352 0.070822001
0.072471999 0.013557 0.070974
0.11286 0.012858 0.035948999
0.11126 0.012396 0.035675999
0.079025 0.01381 0.071092002
0.077606998 0.01387 0.070702001
0.031711999 0.0087714 0.12028
0.13627 -0.0060200999 0.097002
0.13568 -0.0060879001 0.098745003
0.13511001 -0.0066811 0.097769
0.15403999 0.022817001 0.11062
0.15561 0.023522001 0.11071
0.15447 0.023332 0.11018
0.0091241002 -0.0037614999 0.12643
0.0079327999 -0.0034199001 0.12699001
0.056752 0.018004 0.096663997
0.057613 0.01866 0.096883997
0.039225999 0.027133999 0.092370003
0.038568001 0.027389999 0.091642998
0.013468 -0.01046 0.12994
0.014066 -0.0096509 0.13059001
0.012512 -0.0097853998 0.13017
-0.016338 0.004164 0.14918999
-0.016989 0.0032983001 0.14911
-0.015818 0.0027495001 0.14966001
0.017182 0.0089782001 0.10177
0.016535001 0.0084418999 0.1029
0.11955 -0.044560999 0.051704001
0.11946 -0.045522999 0.052048001
0.11921 -0.045743998 0.052657001
0.10153 -0.034889001 0.069802999
0.11309 0.046227001 0.033753999
0.11423 0.047217 0.033464
-0.030505 0.014695 0.14226
-0.031155 0.013412 0.14177001
0.14634 0.010304 0.10566
-0.016548 0.020101 0.11846
-0.015729999 0.020242 0.11803
-0.016174 0.019912999 0.11673
0.14313 0.015326 0.088854
0.14246 0.015101 0.087251
0.12497 -0.050112002 0.061776999
0.12418 -0.051502999 0.061606001
0.12398 -0.050367001 0.061522
0.04724 0.016806001 0.12116
0.048392002 0.017023999 0.11969
0.069568999 -0.0051237 0.070350997
0.069989003 -0.0061368002 0.070517004
0.12185 -0.02015 0.037875
0.12142 -0.019368 0.039473999
0.12084 -0.019834001 0.038396001
0.037696 -0.019502001 0.090255
0.037216999 -0.019187 0.090669997
-0.004733 0.013046 0.13163
-0.0020330001 -0.001878 0.10806
-0.00085089001 -0.0026378001 0.10911
-0.0017465 -0.0018151 0.10945
0.11207 -0.01218 0.033904999
0.071869999 -0.0077304002 0.069866002
0.072178997 -0.0086172996 0.071084999
0.071762003 -0.0077291001 0.070642002
-0.02039 0.0087217996 0.11996
-0.019881999 0.0097134998 0.12065
-0.01897 0.0096333995 0.11943
0.086891003 0.017751001 0.096089996
0.086406998 0.018948 0.095968999
0.039969001 0.0081783999 0.085235998
0.03813 0.0077396999 0.084923998
0.039292999 0.0080191996 0.084526002
0.13616 -0.038807001 0.076802999
0.1372 -0.039173 0.076727003
0.13772 -0.039090998 0.078024998
-0.038306002 0.017478 0.13524
-0.039177001 0.017605999 0.13603
-0.039252002 0.016589999 0.13637
0.067065999 0.0053237998 0.11039
0.066777997 0.0057601999 0.10997
0.1038 -0.02232 0.081982002
0.10357 -0.021211 0.080072999
0.1027 -0.022371 0.080727004
0.023769001 0.01103 0.11299
0.02375 0.012115 0.11296
0.0032329001 0.014686 0.10197
-0.047297001 0.021353001 0.13063
0.029062999 -0.0078558996 0.10148
0.029754 -0.0083991997 0.10159
0.037893001 -0.010935 0.11092
0.12231 0.049894001 0.037751
0.12226 0.049642999 0.038449999
-0.00050954998 -0.011143 0.12621
-0.0010066 -0.010711 0.12572999
0.00017508 -0.010464 0.12589
0.013931 0.0050150999 0.13323
0.015838999 0.0048692999 0.13378
0.13403 -0.0067832 0.098286003
0.056116 -0.0060967999 0.10506
0.056396 -0.0049259998 0.10512
0.019397 0.013096 0.10147
0.018340001 0.013628 0.1018
0.14390001 -0.0039948002 0.098416001
0.12868001 -0.059694 0.049936
0.12814 -0.058428999 0.048255999
0.12916 -0.059539001 0.050755002
-0.018952999 0.018843999 0.11709
-0.018545 0.019397 0.11793
-0.018416001 0.019109 0.11747
0.058371998 0.014992 0.074646004
0.14455999 -0.0036563 0.095633999
0.14529 -0.0042687999 0.094944999
0.14455999 -0.0040597999 0.096653998
0.011681 -0.018694 0.1075
0.011491 -0.019734999 0.10844
0.010958 -0.018385001 0.10713
0.062999003 0.012746 0.10481
0.063748002 0.011615 0.10593
0.064043 0.011917 0.10538
0.13356 0.017673001 0.09719
0.13454001 0.017841 0.096422002
0.11186 0.002075 0.035050001
0.11102 0.0031649999 0.035273001
0.11208 0.0031148 0.034671001
0.020841001 0.010172 0.12592
0.019598 0.0099999998 0.12751
0.12357 -0.0058359001 0.10182
0.12428 -0.0070775002 0.10173
0.12394 -0.0060055 0.10273
0.044190001 -0.0035945 0.083143003
0.04518 -0.0032809 0.082778998
0.044934001 -0.0044306 0.084035002
0.12164 0.020819999 0.034242999
0.12631001 0.035689 0.043775
-0.012414 0.0086575998 0.13727
0.11619 -0.0039586001 0.02593
-0.013943 -0.0054568001 0.11912
-0.014428 -0.0049141999 0.11976
-0.013945 -0.0043515 0.11948
0.05804 0.0023056001 0.082349002
0.058293 0.0023099999 0.082909003
0.083786003 0.0087195002 0.099794999
0.084324002 0.0083194999 0.10023
0.13451 0.023584001 0.084338002
0.13482 0.023305999 0.084623002
0.083042003 -0.016511001 0.078974999
0.083261997 -0.016114 0.077317998
0.083956003 -0.016685 0.078474998
0.12088 -0.019556999 0.048156001
0.12118 -0.02073 0.048083998
0.014206 -0.015012 0.11234
0.019424999 -0.0086591002 0.12247
0.021368001 -0.0079950001 0.12258
0.054942999 -0.020213 0.085219003
-0.037930999 -0.0041919998 0.13022999
-0.039035998 -0.0038556 0.13080999
0.0097017996 0.016759999 0.10093
0.0099953003 0.017438 0.10177
0.029882999 -0.00036566 0.084495001
-0.022422001 -0.00077738002 0.11958
-0.023506001 0.00016749 0.11973
-0.022232 -0.00094141002 0.11919
0.094385996 -0.0081112003 0.057161
0.12796 -0.052554 0.060180001
0.12692 -0.052845001 0.060653999
0.12785999 -0.053830002 0.060256001
0.013938 -0.0091928001 0.12795
0.14791 -0.0037487 0.092091002
0.14708 -0.0042832 0.092958003
0.14711 -0.0043159998 0.092367001
0.093147002 0.020057 0.043846
0.093405001 0.019086 0.044645999
0.0060693999 -0.019315001 0.11411
0.0069638998 -0.018886 0.11325
0.0063319998 -0.018727001 0.11509
0.14287999 0.016936 0.10144
-0.021554001 0.0063256999 0.15009999
-0.020718999 0.0063212998 0.14894
-0.020734999 0.0063932999 0.14893
0.011067 0.0034173001 0.10092
0.011236 0.0041343002 0.10171
0.012324 0.0034018001 0.10134
0.045299001 -0.022554001 0.088768996
-0.032600999 0.014143 0.13668001
0.00067828002 -0.018817 0.11497
0.0012504 -0.018505 0.116
-0.00031085001 -0.017913001 0.11644
-0.03057 0.012091 0.12249
-0.029712001 0.013182 0.12109
0.098162003 -0.017894 0.073867001
0.097074002 -0.018267 0.074001998
0.10362 -0.033465002 0.07553
0.10369 -0.032983001 0.076761998
0.10271 -0.033231001 0.077290997
0.099094003 0.033406001 0.062717997
0.10077 0.033344001 0.063367002
0.099970996 0.032809999 0.062279001
-0.015148 -0.012551 0.11653
-0.01487 -0.01362 0.117
0.11692 -0.038766 0.041836999
0.12185 -0.027557001 0.044663999
0.14 0.011132 0.10546
0.13978 0.010976 0.10442
0.029944001 0.0034425 0.090433002
0.029727999 0.0045885001 0.090350002
0.029772 0.0032076 0.090471998
-0.043545 0.011782 0.14213
-0.043986998 0.011717 0.14067
-0.043446999 0.010582 0.14227
0.073527001 0.011409 0.094190001
0.074236996 0.010235 0.093013003
0.073227003 0.010246 0.093666002
0.0032734999 0.014938 0.11662
0.0022859999 0.015343 0.11765
0.025114 0.014268 0.10189
0.14658 -0.013137 0.088907003
0.14614999 -0.012855 0.088597998
0.14584 -0.012549 0.087889001
0.14215 -0.012412 0.088913001
0.1407 -0.011263 0.088744998
0.14098001 -0.012467 0.089171
0.13689999 0.015498 0.10781
0.13314 0.0063005998 0.11389
0.12051 -0.029428 0.075537004
0.1196 -0.028663 0.074349999
0.12023 -0.029502001 0.074183002
0.085276999 0.019982001 0.081095003
0.085814998 0.020227 0.082001999
-0.0012803 0.01811 0.12465
0.13575999 -0.017885 0.089955002
0.13592 -0.018623 0.088896997
-0.016322 0.011831 0.13880999
0.090544999 0.011517 0.053884
0.090613 0.010349 0.054132
0.090333 0.011417 0.053585
-0.034058001 -0.014163 0.12924001
0.14545999 0.025722001 0.084002003
0.14564 0.024354 0.083996996
0.1455 0.023290001 0.083738998
0.016649 -0.0049557001 0.10719
0.017008999 -0.0045818998 0.10768
0.0060350001 -0.019888001 0.11144
-0.033904999 0.01413 0.13880999
0.10618 -0.039338 0.072947003
0.106 -0.038605999 0.074084997
0.10543 -0.037590999 0.074529998
0.094080999 0.038355999 0.049247
0.092474997 0.038040999 0.049114998
0.027834 0.0034987 0.12718
0.026357999 0.0047542001 0.12716
0.11816 0.0074163 0.10678
0.11882 0.0084279999 0.10625
0.050406002 0.016535999 0.11603
0.051027 0.01747 0.1142
0.11078 -0.0087583996 0.095489003
0.11125 -0.0077662002 0.095636003
0.11079 -0.0085423002 0.094773002
-0.014904 0.013258 0.12323
-0.015447 0.013752 0.12397
0.14390001 0.019089 0.10317
0.14535999 0.019801 0.10357
0.10349 0.036446001 0.042505998
0.1041 0.036077999 0.040871002
-0.0051195999 -0.012274 0.12906
-0.0055751 -0.01202 0.12784
0.11574 0.045829002 0.030347001
0.12603 0.030133 0.048110999
0.12605999 0.029098 0.049066
0.12627999 0.029615 0.048372999
0.024045 -0.0063529001 0.1176
0.024172001 -0.0065523 0.11906
0.02431 -0.0063856998 0.11873
-0.0081724003 0.020759 0.11885
-0.0090915998 0.020781999 0.11772
-0.0094301999 0.020465 0.11923
-0.02953 3.6566002e-05 0.14763001
-0.029788001 0.00083752 0.14696001
-0.034235999 0.014781 0.13233
-0.032811001 0.014888 0.13158999
-0.033059999 0.016388999 0.13129
0.068723001 0.0045292 0.073507003
0.044247001 0.02146 0.096821003
0.045079999 0.021072 0.096202001
0.044886 0.02196 0.095432997
-0.037345 0.00091407 0.15346999
-0.037441999 0.0020051 0.15443
-0.037588999 0.0018121999 0.15321
0.14799 0.019614 0.095352001
0.14462 -0.0042134002 0.088643998
0.1136 0.043345999 0.034802999
0.11317 0.043627001 0.035122
0.1132 0.043543998 0.035997
-0.0059881001 0.020977 0.11722
-0.0046444 0.021119 0.11786
-0.004826 0.021148 0.11728
0.0087561999 0.0055539999 0.1085
0.0099935001 0.0057484 0.1076
0.10893 -0.027001999 0.076164998
0.11034 -0.027073 0.07581
0.11058 -0.026829001 0.076245002
0.050576001 -0.012555 0.088063002
0.050161999 -0.011761 0.088490002
0.049492002 -0.011395 0.087917998
0.046404999 0.0013967 0.081247002
0.047323 0.0011712 0.080787003
0.101 -0.044048999 0.056529999
0.062743001 -0.0088149998 0.10127
0.097044997 -0.014946 0.082130998
0.096240997 -0.01506 0.080972999
0.097350001 -0.015071 0.080389
0.027690001 -0.0081831999 0.10374
0.028140999 -0.0073656999 0.10479
0.026450001 -0.0076096999 0.10465
-0.020343 -0.0042229001 0.13846999
-0.020308999 -0.0047869999 0.13794
0.075124003 0.01094 0.091296002
0.074545003 0.011761 0.090682
0.073967002 0.010888 0.091652997
0.038052998 -0.0033608 0.11915
0.037971001 -0.0029037001 0.11912
0.11105 0.021348 0.041016001
0.10997 0.02122 0.041979
0.10971 0.022341 0.041537002
-0.043453999 -0.0063375998 0.13361999
-0.042828001 -0.0063097002 0.13416
-0.027169 0.0023535001 0.12372
-0.028862 0.0019958001 0.12253
-0.027448 0.0021744999 0.12235
0.11213 0.0047316998 0.029591
0.11118 0.0049152998 0.030376
0.11191 0.0059445999 0.028987
0.10306 -0.010893 0.089492001
0.10295 -0.010916 0.091200002
0.011609 -0.011417 0.12637
0.012801 -0.010686 0.12606999
0.01296 -0.010881 0.12709001
0.055155002 -0.012884 0.10305
0.055998001 -0.012612 0.10299
0.055592 -0.012559 0.10418
0.0086172 0.012051 0.10407
0.065041997 0.010953 0.075649001
0.065404996 0.0096731996 0.075471997
0.064990997 0.010737 0.075011
0.090898 0.0037364 0.060081001
0.1135 -0.01156 0.093528003
0.11405 -0.012909 0.091931999
0.11461 -0.011939 0.092840001
-0.025838001 0.015178 0.117
-0.025679 0.013796 0.11728
-0.027192 0.013978 0.11745
-0.014801 -0.0094477003 0.12627999
-0.014224 -0.0088555003 0.12705
0.012565 -0.0016215 0.1305
0.012989 -0.0020910001 0.13104001
0.10913 -0.016648 0.085280001
0.10861 -0.016228 0.083832003
0.1086 -0.017074 0.084158003
0.026619 0.011171 0.12132
0.027837001 0.010801 0.12119
0.12710001 -0.059409 0.058745999
0.12788001 -0.060072999 0.058230001
0.12838 -0.059555002 0.058389001
0.14793 -0.019233 0.092528999
0.14899001 -0.017786 0.091756001
0.14783999 -0.017473999 0.092349999
0.059889 -0.0067309001 0.092542
0.058874 -0.0067918999 0.093068004
0.095164999 -0.026686 0.072058998
0.061083 -0.015579 0.098591998
0.062313002 -0.014713 0.097530998
0.11821 -0.0050973999 0.027477
0.12202 0.015636001 0.035668001
-0.040718 0.016527999 0.13864
-0.039466999 0.015805 0.13779999
-0.041264001 0.015678 0.13823
0.14196 0.014409 0.085382998
0.11431 0.031613 0.052813999
0.1139 0.032168999 0.052599002
0.11344 0.03198 0.053642999
0.096014 0.02468 0.064850003
0.096928 0.024617 0.065652996
0.031649001 -0.0075131999 0.10349
0.030491 -0.0079370001 0.1033
0.059822001 0.01242 0.10648
0.060137998 0.013292 0.10653
0.13846999 -0.0078087002 0.086894996
0.13901 -0.0070381002 0.085400999
