# .PCD v0.7 - Point Cloud Data file format
VERSION 0.7
FIELDS x y z
SIZE 4 4 4
TYPE F F F
COUNT 1 1 1
WIDTH 1535
HEIGHT 1
VIEWPOINT 0 0 0 1 0 0 0
POINTS 1535
DATA ascii
0.083818004 0.074336998 0.15222999
0.10567 0.088329002 0.14489999
0.021315999 0.035224002 0.17211001
0.021444 0.035801999 0.17263
0.092531003 0.080342002 0.14997
0.0039084 0.024870001 0.17895
0.045694001 0.051417001 0.16543999
0.065050997 0.063121997 0.15949
0.085311003 0.074236996 0.15381999
0.083789997 0.074167997 0.15339001
0.10598 0.087762997 0.14631
-0.026408 0.0057048998 0.18923999
-0.026354 0.0061526 0.18931
0.084051996 0.075181998 0.15324999
-0.025578 0.0060187001 0.18957999
0.0039742002 0.024799 0.17971
0.046909999 0.051346999 0.16647001
0.093405999 0.080587998 0.15046
0.094425 0.079759002 0.15187
0.10632 0.087704003 0.14844
0.10673 0.088036001 0.14747
-0.025489001 0.0063858 0.19076
0.023551 0.037347998 0.17454
-0.025013 0.006699 0.19129001
0.0059719002 0.025891 0.18131
0.066978 0.063620999 0.16117001
0.0066518001 0.026296001 0.18227001
0.067339003 0.063211001 0.16215999
0.087096997 0.076604001 0.15532
0.047582 0.051933002 0.16914
0.047182001 0.052774001 0.16925
-0.023653001 0.0079162996 0.19330999
0.088017002 0.076513 0.15889999
0.088081002 0.075522996 0.15778001
0.08788 0.076411001 0.15696
-0.023188001 0.0072595002 0.1928
0.068037003 0.064635001 0.16441999
0.068264998 0.063952997 0.16269
0.088436998 0.077404 0.15821999
0.0083397003 0.027886 0.18334
0.095141999 0.081202 0.15617999
0.069355004 0.064193003 0.16448
0.095136002 0.081629999 0.15677001
0.0096015995 0.028298 0.18524
0.026913 0.038757 0.17997
0.095784999 0.082076997 0.15757
-0.020605 0.0089934999 0.19487999
0.0272 0.039161 0.18031
0.10496 0.087342001 0.15463001
0.096110001 0.081835002 0.15751
0.10495 0.086736001 0.15541001
0.027926 0.039377 0.18042
-0.017678 0.010826 0.19777
0.028192 0.039214998 0.18043
0.029104 0.039756 0.18118
0.1047 0.086652003 0.15673999
-0.018818 0.010617 0.19709
0.07034 0.066115998 0.16851
0.089506 0.078561001 0.16101
0.012133 0.030187 0.18853
0.013144 0.029642001 0.18851
0.070565999 0.065027997 0.16764
0.071484998 0.065917999 0.16855
-0.017844001 0.011925 0.19814999
0.029672001 0.040431999 0.18189
0.070773996 0.066480003 0.16888
0.10384 0.085514002 0.15786999
0.097277999 0.082661003 0.15929
0.089961 0.077721 0.16349
0.052487999 0.055388998 0.17614
0.089872003 0.078506 0.16389
0.030614 0.040316999 0.18325999
0.10003 0.082928002 0.16073
0.099694997 0.083066002 0.16024999
0.053909 0.055904001 0.17733
0.090527996 0.077540003 0.16538
0.012997 0.030227 0.18871
0.10272 0.085004002 0.1605
0.031808998 0.041630998 0.18453
0.071419999 0.066931002 0.17163
0.090754002 0.078238003 0.16628
0.090846002 0.078015 0.16577999
0.053915001 0.054783002 0.17769
0.072088003 0.066670999 0.17089
0.032683 0.041253999 0.18508001
0.071740001 0.066200003 0.17145
0.071753003 0.066667996 0.17216
0.055091001 0.056352999 0.17839
0.090889998 0.078380004 0.16703001
0.055651002 0.055654999 0.17905
0.015675999 0.03176 0.19237
0.091655999 0.078474 0.16839001
-0.01155 0.014023 0.20100001
-0.011504 0.01495 0.20096
0.072279997 0.066125996 0.1754
0.033904999 0.042668 0.18762
-0.0097641004 0.015608 0.20185
-0.010443 0.015588 0.20171
0.017045001 0.033004999 0.19323
0.034522999 0.042720001 0.18772
0.057987001 0.057259999 0.18037
0.091204002 0.077867001 0.16948999
0.071461998 0.066041999 0.17849
0.071990997 0.065718003 0.17859
0.035941999 0.043678001 0.18972
0.071214996 0.065769002 0.17858
0.070739001 0.064962 0.17971
0.071552999 0.065448999 0.18014
0.062898003 0.060623001 0.18213999
0.067018002 0.064142004 0.1812
0.01977 0.034770001 0.19807
0.037932999 0.045901999 0.19153
-0.001881 0.019857001 0.20542
-0.0037096001 0.018627999 0.20585001
-0.0028816001 0.019117 0.20630001
0.019029999 0.034139998 0.19835
-0.00091329002 0.020257 0.20649
0.039110001 0.046360999 0.19292
0.092156999 0.079074003 0.1769
0.021365 0.034428 0.1997
0.0014821 0.022025 0.20838
0.042987999 0.047878001 0.19574
0.090755999 0.077652 0.18026
-0.033094998 0.0014022 0.22166
0.090516999 0.076650999 0.18186
0.11165 0.090329997 0.17575
0.11209 0.091338001 0.17623
0.11567 0.093024001 0.17470001
-0.034242 0.0010026 0.22344001
-0.031303 0.0022938999 0.22274999
-0.030648001 0.0029414999 0.22231001
-0.030125 0.0032409001 0.22165
-0.025642 0.0049564 0.22152001
-0.026081 0.0052887001 0.22071999
-0.024876 0.0064953002 0.22031
-0.023029 0.0065016001 0.21999
0.0032951999 0.024545999 0.21164
0.0047064 0.023886001 0.21074
0.044759002 0.049070001 0.19743
0.11628 0.093469001 0.17367999
0.11708 0.094318002 0.17380001
-0.024007 0.0061280001 0.22012
-0.023693001 0.0065873 0.22012
0.022252001 0.034979999 0.20444
0.045157 0.048810001 0.19622
0.11258 0.091205999 0.17578
0.11505 0.092949003 0.17445999
-0.032760002 0.0012296 0.22413
-0.032965001 0.0012312999 0.22458
-0.019455001 0.0078742001 0.21901999
0.090250999 0.076693997 0.18302999
0.090434 0.077101998 0.18267
0.11147 0.090609998 0.17681
0.11466 0.092336997 0.17599
0.11555 0.092308 0.17588
-0.030967999 0.0022612 0.2238
-0.031419002 0.0022134001 0.22411001
-0.016949 0.0094636995 0.21897
-0.016452 0.0097845001 0.21946999
-0.016105 0.0092201997 0.21871001
0.11223 0.091219999 0.17653
-0.030548001 0.0031792 0.22386999
0.11316 0.091300003 0.17719001
0.11365 0.091674 0.17674001
-0.015259 0.011828 0.21924999
0.12037 0.096307002 0.17422
-0.030926 0.0021752999 0.22490001
-0.029813999 0.0025957001 0.22529
0.0059517999 0.024619 0.21324
0.024048001 0.036421999 0.2075
0.089739002 0.076866999 0.1855
0.0064641 0.02472 0.21326999
0.048462 0.050760999 0.19948
-0.028972 0.0034082001 0.2256
-0.0061806999 0.016693 0.21781
0.12223 0.096955001 0.17602
0.050138999 0.051759999 0.19915
0.089165002 0.076332003 0.18555
0.11152 0.090543002 0.1793
0.11265 0.091164999 0.17836
0.11281 0.091582 0.17914
0.12278 0.097034 0.17535
0.089479998 0.075862996 0.18630999
0.11152 0.091103002 0.17822
-0.028976001 0.0031934001 0.22679999
0.088831 0.076050997 0.18731999
-0.0042360998 0.017585 0.21866
0.11347 0.091220997 0.17991
0.0032200001 0.02355 0.21667001
0.0041168998 0.023561999 0.21664999
0.0041004 0.023359001 0.21714
0.051415 0.052643999 0.20073999
0.11254 0.090703003 0.18102001
0.028268 0.036603998 0.20996
0.11369 0.091577999 0.18102001
0.11548 0.092115 0.18092
0.12499 0.097796001 0.17763001
0.12396 0.097203001 0.17636
0.12474 0.098011002 0.17722
0.1126 0.090866998 0.1824
0.11331 0.091225997 0.18253
0.11331 0.091683999 0.18235999
0.11446 0.091945998 0.18145999
0.11397 0.091297999 0.18099
0.1155 0.092687003 0.18172
0.11871 0.094048999 0.17964999
0.12012 0.094309002 0.1802
0.11876 0.093805999 0.17935
-0.026262 0.0057203998 0.22803
-0.026055999 0.0050802999 0.22786
0.053514 0.053902999 0.20067
0.087581001 0.074663997 0.18923
0.087279998 0.075061001 0.19056
-0.025905 0.0052272002 0.22914
0.054403 0.053730998 0.20046
0.11484 0.092097998 0.18223999
0.030463999 0.040215999 0.21061
0.056400999 0.055162001 0.20126
0.085592002 0.074573003 0.19223
0.11567 0.092685997 0.1824
0.12642001 0.098894 0.17873999
-0.024227001 0.0061726002 0.22955
-0.015223 0.011077 0.22663
0.057606999 0.057195 0.20218
0.1138 0.09183 0.18392999
0.12744001 0.098646998 0.1794
0.085253999 0.073623002 0.19261
0.1144 0.092275999 0.18437
-0.019383 0.0097839003 0.22822
-0.018227 0.0091335997 0.22756
-0.013905 0.012906 0.22601999
0.058717001 0.056846999 0.20152999
0.12530001 0.097525001 0.18144999
0.060408 0.058566 0.2025
0.12625 0.097866997 0.18082
0.061682999 0.059133001 0.20231
0.081697002 0.071269996 0.19584
0.082367003 0.071630999 0.19563
0.082428001 0.072025001 0.19523001
0.11504 0.092735998 0.18457
-0.012581 0.013766 0.22656
0.034219 0.042110998 0.21196
0.034844 0.042998999 0.2122
0.082643002 0.071167 0.19407
0.082952999 0.071818002 0.19464999
0.082456 0.070938997 0.19531
-0.019293999 0.0095862001 0.23040999
-0.011744 0.014259 0.22775
0.034313999 0.041979998 0.21329001
0.034988001 0.042876001 0.21303
0.081739999 0.071583003 0.19647001
-0.018993 0.0098812999 0.23006
0.036934 0.043968 0.21252
-0.020618999 0.0086375996 0.23114
-0.010776 0.01395 0.22822
-0.0101 0.013869 0.22814
-0.010519 0.014191 0.22803999
0.036539 0.043717999 0.21275
0.065866001 0.061151002 0.20241
0.079793997 0.070317999 0.19824
0.079953998 0.070183001 0.19768
-0.019595999 0.0082532996 0.23035
0.068099998 0.063057996 0.2027
0.067851998 0.062474001 0.20242
0.067018002 0.062587999 0.20132001
0.079189003 0.069793001 0.1983
0.036261 0.042918 0.21437
0.073504001 0.066081002 0.20063999
0.073524997 0.066937 0.20147
0.074858002 0.067851998 0.20045
-0.00099480001 0.019127 0.22821
-0.0015517001 0.020510999 0.22827999
0.00049646001 0.021818001 0.22811
4.9971e-05 0.021215999 0.22878
0.0010403 0.021156 0.22831
0.035707001 0.042642999 0.21800999
0.0067881998 0.025163 0.22837
0.037779 0.042996 0.22046
0.0079383003 0.025043 0.22969
0.0083210999 0.025169 0.22968
0.0089456998 0.025043 0.23059
0.039182 0.045375999 0.22035
0.0074008 0.025736 0.2298
-0.016882 0.010348 0.24009
0.0072752 0.023456 0.23287
0.0055283001 0.023815 0.23402999
0.0084023001 0.024861 0.23203
-0.015111 0.01172 0.24176
0.038484 0.045116998 0.22352999
0.039338 0.044868 0.22266001
0.039841998 0.045173001 0.22319999
-0.015921 0.010945 0.24116001
0.00061832002 0.021144001 0.23548999
-0.00026586 0.020207999 0.23726
0.040332999 0.044714 0.22471
-0.0063274 0.017484 0.23891
-0.0031260999 0.019138999 0.23714
-0.0024840999 0.019626999 0.23706
-0.0056881001 0.016759999 0.2394
-0.0040393998 0.017563 0.23865999
-0.0099897003 0.013415 0.24104001
-0.021684 0.0059660999 0.24726
0.039275002 0.044833001 0.22639
0.039101001 0.043567002 0.22585
0.039735001 0.044489 0.22559001
-0.022803999 0.0057866001 0.24835999
0.036885999 0.043393999 0.22928999
0.036564 0.042746998 0.22988001
0.036671001 0.043381002 0.22961
0.037059002 0.041942999 0.22919001
0.040996 0.045729998 0.23263
-0.026779 0.0034626999 0.25431001
-0.020382 0.0079268003 0.25310001
-0.010485 0.013726 0.24984001
-0.0098545998 0.013901 0.24984001
0.042144001 0.045088999 0.23291001
-0.018621 0.0090180999 0.25319001
-0.018440999 0.0079309996 0.25330999
-0.0098361997 0.013738 0.25062001
-0.010441 0.013277 0.25026
-0.0085127 0.014317 0.24984001
-0.0076946998 0.014282 0.25042999
-0.026466001 0.0040332 0.25565001
-0.021334 0.0073313001 0.25443
-0.013578 0.0114 0.25271001
-0.012476 0.012373 0.25257
0.037795998 0.043244001 0.23496
0.038637001 0.042973001 0.23489
0.039689999 0.044797 0.23457
0.040989 0.045033 0.23412
0.040762998 0.044814002 0.23317
0.039891999 0.044764001 0.23342
-0.014536 0.010993 0.25318
-0.012355 0.012669 0.25297001
-0.0048487 0.01613 0.24995001
-0.0041672001 0.016747 0.24976
0.037895001 0.043706998 0.23565
-0.022608999 0.0060001998 0.25621
-0.024568999 0.0036901 0.25757
-0.023693999 0.0042494 0.25799
0.037870001 0.042622 0.23575
0.037787002 0.043455999 0.23675001
0.031249 0.038470998 0.23905
0.033259001 0.039809 0.23886999
0.034674998 0.040290002 0.23884
0.035507999 0.041379001 0.23839
0.037298001 0.042571999 0.23825
0.036770999 0.042403001 0.23759
-0.0028798 0.018580999 0.25334999
-0.0026854 0.018193001 0.25296
0.028529 0.038261 0.24322
0.019583 0.031303 0.24632999
0.020087 0.032538999 0.24682
-0.0011436 0.018909 0.25360999
0.017922999 0.031217 0.24722999
0.029957 0.037386999 0.24236999
0.029702 0.037757002 0.24437
-0.0011101 0.018968999 0.25391001
0.016356001 0.029255001 0.24833
0.016690001 0.029196 0.24828
0.024125 0.035057999 0.24574
0.0031876001 0.021145999 0.25307
0.029002 0.037811998 0.24415
0.014587 0.027652999 0.24931
0.014115 0.028337 0.24931
0.0068045999 0.023331 0.25277001
0.0056596999 0.022768 0.25308999
0.012722 0.02692 0.25101
0.025208 0.035169002 0.24641
0.0091608996 0.024411 0.25178999
0.030831 0.039071001 0.24471
0.030154999 0.038213 0.24372
0.03015 0.03816 0.24530999
0.027408 0.037177 0.24709
0.028498 0.036910001 0.24704
0.032692999 0.039503999 0.24481
0.032148998 0.039218001 0.24512
0.029673999 0.037714999 0.24626
0.029429 0.037687998 0.2472
0.031397998 0.038929999 0.24693
0.030743999 0.038989998 0.24736001
0.031971999 0.039965998 0.24699
0.032122999 0.039071999 0.24715
0.032687001 0.039648 0.24857
0.033751 0.040327001 0.24794
0.032710999 0.039310999 0.24823
0.033822 0.040281001 0.24899
0.033907998 0.040523 0.24905001
0.034947 0.041556999 0.24854
0.069718003 0.067731 0.098973997
0.0039563999 0.026581001 0.12091
0.047176 0.053094 0.10599
0.048250001 0.054311998 0.10652
-0.021605 0.010675 0.13023999
0.0081126001 0.029443 0.11955
0.044082999 0.052359 0.10839
0.044764999 0.052115999 0.10736
0.070564002 0.068465002 0.099143997
0.083648004 0.076103002 0.095113002
-0.029324001 0.0065124999 0.13252001
0.0023993 0.026974 0.12293
0.0017746 0.026618 0.1222
0.063869998 0.064985998 0.10157
0.071180999 0.068662003 0.099055
0.076270998 0.071437001 0.098433003
-0.030033 0.0056665 0.13316999
0.0025177 0.025789 0.12255
0.063837998 0.063658997 0.1029
0.064724997 0.064574003 0.10208
0.073634997 0.071193002 0.098765999
0.073555999 0.069723003 0.099281996
0.074390002 0.069977999 0.099005997
0.074437998 0.070188001 0.099178001
0.073918 0.069714002 0.098704003
-0.032058001 0.0050051999 0.13483
-0.031218 0.0055856002 0.13350999
0.0019137 0.025575001 0.12331
0.084945999 0.077304997 0.095216997
-0.032492999 0.0049413 0.13546
0.00015751 0.024967 0.12445
0.01133 0.032255001 0.12042
0.010983 0.031369001 0.12023
0.051731002 0.056458 0.10756
0.058894999 0.060362998 0.10489
0.058217999 0.060493 0.10536
0.057448 0.059884999 0.10529
0.062568001 0.062364001 0.10445
0.063736998 0.063433997 0.10301
-0.018026 0.012652 0.13038
-0.00072354998 0.023871001 0.12465
-3.8605001e-05 0.024687 0.12454
0.052719001 0.056710999 0.10694
0.052923001 0.055521 0.10681
0.054871999 0.057608001 0.10707
0.060203999 0.061613001 0.10471
0.060727999 0.061921 0.10433
-0.010043 0.018347001 0.12819999
-0.0010148 0.024083 0.12558
-0.010961 0.016999001 0.1294
0.043311998 0.051227 0.1119
-0.033739001 0.0040193 0.13699999
-0.03396 0.0033589001 0.13672
-0.0088165002 0.018985 0.12819999
0.013475 0.032793 0.12151
0.013228 0.032827001 0.1215
0.042789999 0.050588999 0.11213
0.059115 0.060224999 0.10582
0.059452001 0.061864998 0.106
0.087259002 0.077918999 0.096885003
0.087536998 0.078295998 0.098154001
-0.012102 0.016466999 0.12947001
0.014639 0.032604001 0.12171
0.056467999 0.059004001 0.10836
0.056864001 0.060341999 0.10779
-0.036144 0.0031777001 0.13906001
0.088430002 0.078964002 0.098780997
0.060444999 0.061631002 0.10727
0.057921998 0.060155999 0.1097
0.015583 0.034017 0.12233
0.06109 0.061822999 0.1075
0.088757999 0.078842998 0.099529997
0.042403001 0.05057 0.11473
0.016395999 0.034634002 0.12333
0.059602 0.061703 0.11041
0.061471999 0.062917002 0.10825
0.062254 0.062995002 0.10884
0.042277999 0.051107001 0.11532
0.088523999 0.078823 0.10021
0.017476 0.035480998 0.12453
0.042224001 0.050032999 0.11665
0.059996001 0.060419999 0.11026
0.088821001 0.079099998 0.10103
0.088976003 0.078137003 0.10142
-0.037172001 0.00090052001 0.14306
-0.037477002 0.00090381003 0.14427
-0.036564998 0.0018314 0.14252999
0.060426001 0.061923001 0.11063
0.061491001 0.06261 0.11045
0.061556999 0.063180998 0.11088
0.062392 0.063028 0.11064
0.063414998 0.062997997 0.11037
-0.038770001 0.0018037 0.14461
-0.037388999 -0.00019835999 0.14399
0.063392997 0.062861003 0.11153
0.063616998 0.063500002 0.11159
0.042823002 0.050710998 0.12002
0.021266 0.037138999 0.12743001
0.042185999 0.050464999 0.12022
-0.038447 0.0010288 0.14658999
0.041965 0.050655 0.12078
0.087762997 0.078538001 0.10625
0.041561 0.050402999 0.1218
0.089155003 0.078120999 0.10604
-0.038307 0.00027615999 0.14848
-0.038509998 0.00017973001 0.14838
0.087513998 0.077978 0.10675
0.042282999 0.050000999 0.12393
0.043184001 0.049857002 0.12317
0.087857999 0.078438997 0.10786
-0.039138 5.2683001e-05 0.14895
0.023091 0.038550999 0.12875
-0.039191999 -0.00018775 0.14982
0.088414997 0.078388996 0.10834
0.023972999 0.038508002 0.12962
0.024676999 0.038419999 0.13027
0.087687999 0.077855997 0.10942
0.087780997 0.077767 0.10935
0.041919999 0.051126 0.12409
0.042188998 0.050868001 0.12395
-0.039349001 -0.00085847999 0.15151
-0.039138999 0.00013828999 0.15044001
0.025121 0.038534001 0.13093001
0.025598001 0.038495999 0.13093001
0.041590001 0.050771002 0.12455
0.079163 0.072861999 0.11265
0.078679003 0.071900003 0.11239
0.078941002 0.073136002 0.11188
0.043512002 0.050062999 0.125
0.043237999 0.050919 0.1257
0.077976003 0.072310999 0.11256
0.026062001 0.040047999 0.13158999
0.025199 0.039537001 0.13082001
0.077467002 0.071590997 0.11474
0.087220997 0.078059003 0.11091
0.042916998 0.050453998 0.12676001
0.086724997 0.078298002 0.11228
0.087081999 0.077592 0.11212
0.086963996 0.077616997 0.11129
0.043285999 0.050248001 0.12735
0.077724002 0.071405001 0.11522
0.076605 0.071238004 0.11564
0.026846001 0.039427001 0.13232
0.043451 0.050259002 0.12728
0.081812002 0.074702002 0.11391
0.088211998 0.077734999 0.11163
0.07632 0.071004003 0.11628
0.076594003 0.070799001 0.11662
0.082593001 0.074795999 0.11378
0.027585 0.039604999 0.13345
0.087194003 0.077919997 0.11372
0.085135996 0.075809002 0.11515
0.084325001 0.075769 0.11466
0.043969002 0.050882 0.12818
0.074982002 0.070073999 0.11871
-0.039053999 0.00021755 0.1552
0.043963 0.050602999 0.12891001
0.074537002 0.069453999 0.12005
0.074326001 0.069655001 0.11925
0.043899 0.050774001 0.12958001
-0.039563999 -0.00092205999 0.15895
-0.039331999 -0.0011572 0.15810999
0.073224999 0.069154002 0.12132
0.029696999 0.042160999 0.13702001
0.044560999 0.051077999 0.13209
0.072841004 0.068217002 0.12296
0.072764002 0.069541998 0.12226
-0.039473001 -0.0011918 0.15909
0.030339999 0.042652 0.13662
0.045433 0.051091999 0.13226999
0.072435997 0.069159999 0.12365
0.030865001 0.042335998 0.13788
0.072839998 0.068701997 0.12338
0.045355 0.052666001 0.13316
0.045790002 0.051647 0.13268
0.046257 0.051775001 0.13323
0.073004998 0.068772003 0.12423
0.046162002 0.051229998 0.13420001
-0.03932 -0.00025509999 0.16108
0.030974001 0.042755 0.13782001
0.071976997 0.068533003 0.12587
0.072090998 0.067801997 0.12656
-0.038508002 -0.00048941001 0.16399001
0.032134999 0.043669999 0.14092
0.071670003 0.068053998 0.12714
0.072002001 0.067608997 0.12789001
0.047240999 0.052538998 0.13605
0.047483999 0.051851999 0.13463999
0.072122999 0.068115003 0.12797999
0.033459999 0.043655999 0.14253999
0.047363002 0.053142 0.13663
0.068186 0.065673999 0.12972
0.068977997 0.066101 0.12926
0.069353998 0.066614002 0.12989999
0.070970997 0.067566998 0.1293
0.071206003 0.067501001 0.12883
0.070022002 0.067061 0.12972
0.070262998 0.067083001 0.12994
0.048392002 0.053773999 0.13721
0.049608 0.053506002 0.13775
0.033624999 0.044374 0.14278001
0.033851001 0.044411 0.14364
0.049472999 0.054209001 0.13857
0.067258999 0.065348998 0.13221
0.06859 0.064808004 0.13361
0.034508001 0.044443 0.14404
0.049479999 0.053808998 0.13950001
0.036184002 0.044413999 0.14628001
0.034653999 0.044479001 0.14546999
0.034689002 0.044672001 0.14495
0.050462 0.054249998 0.13981
-0.036917999 0.00015035 0.16886
0.035838999 0.044695999 0.14542
0.06893 0.066510998 0.13542999
0.068834998 0.065589003 0.13502
0.06893 0.066087998 0.13601001
0.052359 0.055486001 0.14229
0.051564999 0.055620998 0.14187001
-0.036517002 0.00043702 0.17117999
-0.036175001 0.00037277001 0.17208
0.052524 0.055406999 0.14217
-0.036460999 0.00054842001 0.17219999
0.037678 0.046004001 0.14844
0.053649999 0.057055999 0.14401001
0.071097001 0.067008004 0.13891999
0.054437999 0.057124998 0.14441
0.054972 0.056692 0.14429
0.038086001 0.046799 0.14962
0.072178997 0.067983001 0.13956
0.03878 0.046971001 0.1507
0.055613 0.057158999 0.14556
0.039276998 0.047460999 0.15154
0.072572999 0.068178996 0.14024
0.039014 0.045800999 0.15127
0.039322998 0.045738 0.15286
0.039620001 0.044465002 0.15302999
0.072299004 0.066970997 0.14075001
-0.034977 0.0013237 0.17648999
0.056531999 0.058153 0.14591999
-0.034378 0.0020738 0.17722
0.0035142 0.024783 0.16422001
0.0075686001 0.027004 0.16282
0.0088133998 0.028553 0.16250999
0.073613003 0.068561003 0.14158
0.073413998 0.068388999 0.14139999
0.0099735996 0.029720999 0.16299
0.01135 0.029358 0.16275001
0.0025118 0.024448 0.16542
0.0027687 0.024398001 0.16564
0.057684001 0.058389001 0.14732
0.097180001 0.083237 0.13404
0.097819999 0.083291002 0.13265
0.098963 0.083507001 0.13309
0.098803997 0.084155001 0.13383999
0.099788003 0.084918 0.13358
0.0025269 0.024015 0.16595
0.040451001 0.048487999 0.15366
0.096896999 0.081900001 0.13427
0.096473001 0.083082996 0.13500001
0.10025 0.084732004 0.13384999
0.10027 0.085516997 0.13414
0.0021546001 0.024092 0.16633999
0.058155 0.058740001 0.14779
0.096578002 0.082599998 0.13512
0.012171 0.030999999 0.16315
0.012829 0.030243 0.16320001
0.095583998 0.082075 0.13601001
0.095224999 0.081945002 0.13674
0.10176 0.085487001 0.13461
0.01339 0.031102 0.16434
0.040630002 0.047502 0.15385
0.075705998 0.068914004 0.14442
-0.033282999 0.0015815001 0.17883
0.0012965 0.023383001 0.16818
0.001563 0.022967 0.16607
0.074162997 0.068562001 0.14269
0.074575 0.069311 0.14264999
0.059769999 0.060272001 0.1489
0.074750997 0.069027998 0.14374
0.075401001 0.070152 0.14448
0.094916999 0.081169002 0.13806
0.10291 0.086297996 0.13547
0.10214 0.08568 0.13471
0.094821997 0.081472002 0.13755
0.059948001 0.058913998 0.14954001
-0.033330999 0.0025263 0.18034001
-0.032249998 0.0023717999 0.1807
-0.032442 0.0024681999 0.1816
0.076113001 0.070078999 0.14486
0.094515003 0.081347004 0.13866
0.00079875998 0.023827 0.17095999
0.0011788 0.022855001 0.16954
0.041366 0.048606999 0.15647
0.093897 0.081439003 0.13902999
0.014506 0.031199001 0.16542
0.042206001 0.048503999 0.15776999
0.060444999 0.060109001 0.15132999
0.060449999 0.060570002 0.15136001
0.077739999 0.070529997 0.14703999
0.077480003 0.070482001 0.14561
-0.031739 0.0027689999 0.18239
0.090666004 0.079705 0.14326
0.091174997 0.080277003 0.14239
0.091410004 0.078596003 0.14314
0.091569997 0.079155996 0.14235
0.092246003 0.079772003 0.14166
0.092625998 0.079815 0.14154001
0.016767999 0.033312 0.16696
0.078978002 0.071597002 0.14742
0.0010495 0.023272 0.17267001
0.061974 0.060915999 0.15358
0.061872002 0.060555 0.15217
0.079074003 0.071558997 0.14751001
0.090581 0.078506 0.14346001
0.090636998 0.078556001 0.14388999
0.10425 0.087503001 0.13936
0.079641998 0.072581999 0.14811
0.090460002 0.078469999 0.14496
0.042899001 0.049070999 0.15967999
0.043166999 0.048815001 0.16099
0.080312997 0.071838997 0.14903
0.10496 0.087265 0.1402
0.018807 0.033555999 0.16846
0.018827001 0.034600001 0.16952001
0.018223001 0.033640999 0.16814999
0.080769002 0.071984999 0.14872999
0.090425 0.078461997 0.14587
-0.030026 0.0039436999 0.18531001
-0.030137001 0.0049256999 0.18516999
0.001815 0.024013 0.17546999
0.019648001 0.034591001 0.17025
0.081605002 0.072576001 0.15059
0.081799001 0.072616003 0.15013
0.091357999 0.078330003 0.14646
0.0021352 0.023765 0.17652
0.0024661 0.023983 0.17725
0.044555999 0.050207 0.16327
0.082858004 0.073818997 0.15024
-0.028263001 0.0046891002 0.1873
0.020436 0.034789 0.17062999
0.082795002 0.073467001 0.15142
-0.028488001 0.0050650002 0.18763
0.0034978001 0.024742 0.17877001
0.044989999 0.049828999 0.16395999
0.091591001 0.078996003 0.1473
0.045405999 0.049970001 0.16475999
-0.028138001 0.0052753999 0.1881
-0.02705 0.0064921998 0.18852
0.045729 0.050932001 0.16553
0.065254003 0.062530003 0.15880001
0.093607001 0.079984002 0.15020999
0.093018003 0.079530999 0.14940999
0.046356 0.050448 0.16636001
0.10609 0.087733999 0.14573
0.10624 0.087710001 0.14623
0.022606 0.036006 0.17428
0.066073999 0.063092001 0.15979999
0.085758999 0.074730001 0.15454
0.085303001 0.074937999 0.15469
0.023855999 0.036671001 0.17402001
0.046718001 0.050972998 0.1673
-0.024805 0.0065493998 0.19193
0.046647001 0.051189002 0.16802
0.10651 0.087646 0.14929
-0.02368 0.0068584001 0.19249
0.024308 0.037046 0.17618001
0.024458 0.037604999 0.17676
0.047318999 0.050845999 0.16872001
0.047488 0.052002002 0.16899
0.047819 0.051171999 0.16908
0.086571999 0.075907998 0.15627
0.086273 0.075689003 0.15547
0.0070062 0.025730999 0.18245
0.025303001 0.037014998 0.17687
0.067570001 0.063688003 0.16204
0.10642 0.087622002 0.14934
0.0079301996 0.026860001 0.18350001
0.048441999 0.051775001 0.17044
0.068480998 0.064825997 0.16379
-0.023043999 0.0076740999 0.19375999
-0.022046 0.0085231001 0.19396999
0.049013 0.052692998 0.17086001
0.068360999 0.064815 0.16384
0.10606 0.086804003 0.1522
0.070297003 0.064588003 0.16542
0.070064001 0.063905999 0.16395999
0.095958002 0.080658004 0.15665001
-0.021335 0.0098564001 0.19435
-0.021563999 0.0084650004 0.19478001
0.049191002 0.052255001 0.17203
0.095250003 0.081428997 0.15549
0.026926 0.038391002 0.17871
0.069352001 0.064842999 0.1653
0.069780998 0.065319002 0.16703001
0.0099887 0.028011 0.18559
0.049743999 0.052683 0.17251
0.10563 0.086585999 0.15470999
0.10581 0.087021001 0.15439001
0.050388999 0.052951001 0.17251
0.070238002 0.064783998 0.16619
0.09629 0.081549004 0.15805
-0.019966001 0.0098048998 0.19642
0.010774 0.027401 0.18634
0.011425 0.028364999 0.1866
0.010468 0.028410999 0.18592
0.097554997 0.081739999 0.15880001
0.10498 0.086502001 0.15616
0.089624003 0.077023998 0.16157
0.097424001 0.081919998 0.15841
0.097583003 0.082281999 0.15933
0.050696999 0.053621002 0.17428
0.051348999 0.053553 0.1749
0.090111002 0.076917998 0.16299
-0.016796 0.01176 0.19826999
-0.015592 0.011381 0.19864
0.013008 0.029382 0.18762
0.051736001 0.054582998 0.17581999
0.052319001 0.054053999 0.17568
0.10362 0.086341001 0.15862
0.071276002 0.066284001 0.16937999
0.030441999 0.040401001 0.18283001
0.029258 0.040431 0.18317001
0.10314 0.085744001 0.15907
-0.014973 0.012469 0.19909
-0.015257 0.01263 0.19926
0.031059001 0.040415999 0.18442
0.10008 0.083816998 0.16080999
0.10161 0.084388003 0.16031
0.031372 0.040566001 0.18409
0.014385 0.030176001 0.18988
0.052953001 0.054731 0.17637999
0.053516999 0.053978 0.17794
-0.01494 0.012891 0.19934
0.032453999 0.040945999 0.18437999
0.071314 0.066483997 0.17016
-0.014444 0.013127 0.20047
-0.012839 0.013378 0.20036
0.014291 0.030741001 0.19092999
0.015171 0.030932 0.1929
0.090306997 0.077596001 0.16669001
-0.0118 0.014079 0.20153999
-0.012275 0.013524 0.20051999
0.072274998 0.066110998 0.1727
0.016905 0.031707 0.19429
0.033776 0.042419001 0.18742
0.057456002 0.056758001 0.18019
0.072522998 0.065463997 0.17377999
0.090550996 0.077344 0.16744
0.057696 0.056535002 0.18095
0.090852 0.078445002 0.16883001
0.017310999 0.032907002 0.19478001
0.034628998 0.042259999 0.18732999
0.035422999 0.042886999 0.18761
0.072097003 0.066260003 0.17612
-0.0084563997 0.016309001 0.20296
0.017565999 0.031911999 0.19456001
0.035390001 0.043363001 0.18914001
0.091523997 0.077206999 0.17061999
-0.0078619001 0.016474999 0.2035
-0.0074465 0.016229 0.20362
0.017754 0.032212 0.19517
0.018216001 0.032568999 0.1954
0.035147998 0.043187998 0.18917
0.036853001 0.043629002 0.18937001
-0.0068085999 0.017244 0.20446
-0.0056897998 0.017029 0.20434999
0.017929001 0.033454999 0.19584
0.059126001 0.058476999 0.18212
0.059941001 0.059192002 0.18246
0.061423 0.059331998 0.18261001
0.061508 0.058628 0.18294001
0.071393996 0.065940998 0.17905
-0.0052645002 0.018208999 0.2036
-0.0048773 0.018727001 0.20446
0.01866 0.032407001 0.19712
0.037161998 0.044043001 0.19008
0.03706 0.044091001 0.19014999
0.062033001 0.059482001 0.18232
0.062038999 0.060407002 0.18244
0.071658 0.065504998 0.17994
0.091435 0.07722 0.17257001
0.091738001 0.078163996 0.17256001
-0.0046156002 0.01867 0.20522
0.063423999 0.059835002 0.18340001
0.062834002 0.059744 0.18324
0.063390002 0.060508002 0.18267
0.07017 0.065315001 0.18065
-0.0037091 0.019515 0.20595001
0.066013001 0.061457999 0.18262
0.067777999 0.06284 0.18187
0.068906002 0.063717999 0.1812
0.070432 0.064413004 0.18099
-0.0031318001 0.018389 0.20519
0.020275 0.033417001 0.19824
0.019315001 0.033521 0.19894999
0.038828 0.045593001 0.19208001
1.1989e-05 0.021282 0.20692
0.00063035998 0.020973001 0.20711
0.04025 0.046037 0.19303
0.091522001 0.078120999 0.17576
-0.00040218999 0.020853 0.20675001
0.020555999 0.034378 0.19943
0.091291003 0.077289 0.17628001
0.041037999 0.046505 0.19389001
0.041666001 0.046633001 0.19426
0.091528997 0.077676997 0.17674001
0.021203 0.034113001 0.2009
0.09161 0.078047 0.17763001
0.091012999 0.076994002 0.17684001
0.091022 0.077907003 0.17784999
0.0015682 0.021447999 0.20742001
0.00056555 0.021454001 0.20776001
0.021679001 0.034791 0.20183
0.042555999 0.046895999 0.19395
0.042309999 0.047065001 0.19464
0.0029094 0.021957001 0.20929
0.043322001 0.047591001 0.19467001
0.090807997 0.077329002 0.17963
0.091155998 0.077558003 0.1804
0.04391 0.047982 0.19543
0.0040151998 0.022663999 0.2097
0.043729998 0.048052002 0.19607
0.090871997 0.077477001 0.18055999
-0.033395998 -3.1182e-05 0.22148
-0.032297 0.00045158001 0.22126
-0.032302 0.0010599 0.22126
-0.031614002 0.0017082 0.22124
0.022089999 0.035443 0.20329
-0.031067999 0.0023526 0.22130001
0.04414 0.047782 0.19592001
-0.034012999 0.00036382 0.22274999
-0.030036001 0.0017497001 0.22181
-0.029753 0.0025416 0.22171
-0.033890001 -0.00022320999 0.22404
-0.028493 0.0028657001 0.22102
-0.028696001 0.0040167002 0.22143
-0.027881 0.0045284 0.22115
-0.027255001 0.0054342002 0.22045
-0.026555 0.0050534001 0.22041
0.0044243 0.024289999 0.21046001
0.023042001 0.03517 0.20554
-0.024764 0.0057263002 0.2208
0.046307001 0.049398001 0.19724999
0.045607999 0.049538001 0.19785
0.023011999 0.035011999 0.20688
0.024356 0.035546001 0.2075
0.022980001 0.034901999 0.20634
0.11702 0.093355998 0.17485
0.11642 0.093111001 0.17586
0.11765 0.094097003 0.17389999
-0.033698 -0.00013825 0.22465
-0.033257 0.00068976003 0.22490001
0.11737 0.093979999 0.17475
0.1185 0.094113 0.17494
0.11948 0.095067002 0.17416
-0.032846 0.00068544998 0.22499999
-0.01627 0.011573 0.21856999
0.046748001 0.050731 0.19808
0.090278998 0.076463997 0.18336
0.12003 0.095376 0.17493001
-0.031744 0.00053843 0.22532
-0.015023 0.011446 0.21871001
0.0061508999 0.024039 0.21213
0.048046 0.050599001 0.19821
0.089555003 0.075776003 0.18465
0.11456 0.091982998 0.17625
0.11501 0.092321001 0.17673001
0.11543 0.092797004 0.17606001
-0.031934001 0.0016672 0.22397
-0.031066 0.0022314 0.22522999
0.11388 0.091335997 0.17744
0.11494 0.092425004 0.17632
0.11467 0.091751002 0.17703
0.11662 0.092988998 0.17632
0.1164 0.092715003 0.17641
0.11954 0.094954997 0.17536999
0.12081 0.095642999 0.17454
-0.010612 0.014597 0.21848001
0.08918 0.076412998 0.18495999
0.089120001 0.076007001 0.18505999
-0.031109 0.0017706 0.22615001
-0.031045999 0.0028119001 0.22480001
-0.0090599004 0.015046 0.21864
0.048953 0.051605999 0.19937
0.11381 0.091826998 0.17765
0.11375 0.091283001 0.17766
0.11444 0.091691002 0.17806
0.1152 0.092113003 0.17772
0.11515 0.091918997 0.17743
0.11556 0.092868 0.17739999
0.12173 0.095884003 0.17518
0.12213 0.095752999 0.17533
0.11328 0.091119997 0.17856
0.11488 0.092281997 0.17876001
0.11561 0.092151999 0.17802
0.11702 0.093088999 0.17693999
-0.030533001 0.0023077 0.22553
-0.029371001 0.002999 0.22627001
-0.0084742997 0.015252 0.2183
0.023794999 0.035172001 0.2085
0.023404 0.035014 0.20762999
0.11611 0.092283003 0.17834
0.12226 0.096905001 0.17599
0.12288 0.096894003 0.17607
-0.0061897002 0.017448001 0.21777999
0.0065115001 0.024577999 0.21308
0.024149001 0.035549 0.20847
-0.02894 0.0029551999 0.22595
0.0067139999 0.025208 0.21439999
0.025373001 0.036362998 0.20835
0.088785999 0.076223001 0.18728
0.11343 0.091683999 0.17984
0.11489 0.091894001 0.17962
0.0070019001 0.023652 0.2148
0.0059197 0.024483001 0.21495999
0.025543001 0.036345001 0.20891
0.050167002 0.051702999 0.19975001
0.088950999 0.076259002 0.18799999
0.11617 0.093244001 0.17912
-0.0036066 0.018807 0.21831
-0.0034204 0.0178 0.21833
0.026064999 0.036667001 0.20884
0.087881997 0.075553 0.18829
0.11763 0.092830002 0.17881
0.11595 0.093295999 0.17959
-0.027613999 0.0037062999 0.22724999
-0.001448 0.019257 0.21831
-0.0019747999 0.019632 0.21789999
0.0055191 0.023941001 0.21627
0.051536001 0.052838001 0.20035
0.053072002 0.052999999 0.19975001
0.11481 0.092015997 0.18073
0.1146 0.092542998 0.18085
0.11577 0.091936 0.17927
0.1177 0.093602002 0.17966001
-0.0012765001 0.01967 0.21856
0.00086297002 0.021255 0.21773
0.0020419999 0.021926999 0.21758001
0.0024808999 0.022319 0.21757001
0.087555997 0.07559 0.18858001
0.11558 0.092274003 0.17964999
0.11804 0.093842998 0.17928
-0.00091808999 0.020826001 0.21865
0.0025175 0.022705 0.21719
0.087631002 0.074943997 0.18970001
0.11545 0.092716001 0.18032999
0.028442999 0.03796 0.2101
0.12547 0.098204002 0.17758
0.055100001 0.054712001 0.20105
0.12599 0.098583996 0.17842001
0.086413004 0.074545003 0.19024999
0.12019 0.094535999 0.17982
-0.026068 0.0044009001 0.22854
-0.026520999 0.0044610999 0.22875001
0.028777 0.039324999 0.20965999
0.029832 0.038293999 0.2106
0.057092 0.055994999 0.20047
0.086411998 0.074450999 0.19065
0.12116 0.095314004 0.18048
0.12039 0.095700003 0.18076999
0.12626 0.098673999 0.17817
0.030346001 0.039267 0.20992
0.031072 0.039762001 0.21042
0.056981999 0.055429999 0.20018999
0.058299001 0.056251999 0.20138
0.085213996 0.073526002 0.19243
0.085463002 0.072973996 0.19053
0.085536003 0.073677003 0.19177
0.031598002 0.040406998 0.20992
0.1211 0.095311001 0.18054999
-0.017378001 0.0092304004 0.22680999
-0.016620001 0.010719 0.22627001
0.059000999 0.056968998 0.20152999
0.084542997 0.073002003 0.19317999
0.085382 0.073011003 0.19241001
0.12212 0.095758997 0.18079001
0.12362 0.095021002 0.18018
0.1233 0.096855 0.18134999
0.12213 0.095982 0.18082
-0.024276 0.0059019001 0.22984999
-0.024481 0.0057712998 0.22883999
-0.014579 0.01103 0.22657
0.032046001 0.040752001 0.21077
0.032747999 0.040123001 0.21128
0.059431002 0.057131 0.20164999
0.083851002 0.072493002 0.19362999
-0.024116 0.0058022998 0.22999001
-0.018557999 0.0087983003 0.22824
-0.014797 0.011564 0.22658999
-0.013358 0.012592 0.22645999
0.032623 0.040709 0.21115001
0.060208999 0.057691999 0.20123
0.060290001 0.058520999 0.20141
0.061728001 0.058637999 0.20185
0.12408 0.097244002 0.18020999
0.12637 0.098627999 0.18021999
0.061903 0.058214001 0.20096999
0.061618 0.058660001 0.20135
0.082896002 0.071469001 0.19442999
-0.023652 0.0059513999 0.23028
0.12638 0.098958999 0.17995
-0.023344001 0.0063026999 0.23098999
0.033284999 0.040474001 0.21191999
0.062412001 0.059427001 0.20118
0.033626001 0.042373002 0.21166
0.063135996 0.059937999 0.20203
0.063611001 0.060362 0.20220999
0.08117 0.071204998 0.19627
-0.023217 0.0059727002 0.23127
-0.012088 0.012683 0.22778
-0.011717 0.012308 0.22779
0.064273 0.060120001 0.20223001
0.080833003 0.070505001 0.19600999
0.081494004 0.070404999 0.19521999
-0.022574 0.0064114998 0.23128
0.080735996 0.070479997 0.19716001
-0.011798 0.013699 0.22776
0.065760002 0.060681999 0.20183
0.066129997 0.061062999 0.20201001
0.077596001 0.068641998 0.19795001
0.078226 0.069091998 0.19889
-0.022104001 0.0070496998 0.23173
-0.018881001 0.0089122998 0.23035
0.035716999 0.042729001 0.21325
0.066188 0.061411001 0.20204
0.076801002 0.067771003 0.19866
-0.020226 0.0080220001 0.23106
-0.019881999 0.0084496001 0.23068
-0.0096648997 0.014482 0.22815999
0.068914004 0.063336 0.20124
0.075975001 0.068365999 0.19981
0.075754002 0.067628004 0.20028
0.069526002 0.063639998 0.20192
0.069770001 0.062863 0.20213
0.072866999 0.065168001 0.20152999
0.072210997 0.064433999 0.20077001
0.074322 0.066717997 0.20049
0.075061999 0.066903003 0.19988
0.075966999 0.067960002 0.20017
-0.020163 0.0079381 0.23207
-0.0067635002 0.016147001 0.22808
-0.0073330998 0.015830999 0.22781
0.034974001 0.041880999 0.21322
0.036348999 0.043311998 0.21427999
0.070808001 0.064267002 0.20148
0.071186997 0.064162999 0.20214
0.071376003 0.064756997 0.20155001
0.072902001 0.065843999 0.20125
-0.020803001 0.0076708999 0.23237
-0.0063148998 0.0165 0.22819
-0.0054858001 0.016829999 0.22821
-0.0034515001 0.018439 0.22829001
-0.0042837001 0.017557001 0.22814
-0.0041181999 0.018539 0.22807001
0.035075001 0.041820001 0.21387
0.035580002 0.042637002 0.21520001
-0.003216 0.018632 0.22773001
-0.0021667001 0.018766999 0.22858
0.036552999 0.043067999 0.21516
0.035973001 0.04287 0.21528
0.035693999 0.042544 0.21539
0.035955999 0.042660002 0.21676999
0.0024182999 0.020649999 0.22841001
0.0020097001 0.021971 0.22869
0.035177998 0.042433001 0.21706
0.0028792999 0.021744 0.22865
0.0037467999 0.022699 0.22872999
0.035388999 0.042219002 0.21802001
0.0043703001 0.022576001 0.22801
0.0052605998 0.023533 0.22835
0.035576999 0.042227998 0.21985
0.0061670998 0.02421 0.22837999
0.0063340999 0.024591001 0.22835
0.036235001 0.042162001 0.21988
0.0074236998 0.02502 0.22888
0.036589 0.043086998 0.22014999
-0.019169999 0.0081393002 0.23862
-0.019636 0.0083705997 0.23908
0.038339 0.044185001 0.21986
0.039000001 0.044025999 0.22059
-0.019799 0.0079019004 0.23982
-0.017676 0.0097770002 0.23898999
-0.017659999 0.0090410002 0.2396
0.039475001 0.043593001 0.22086
0.039391998 0.045265999 0.22055
-0.017142 0.0094360001 0.24039
0.0083010001 0.025447 0.23179001
0.0088114999 0.025276 0.23149
0.04053 0.045395002 0.22098
0.040247999 0.04465 0.22112
-0.019212 0.0077527999 0.24027
-0.017193999 0.0091290995 0.2404
0.039749 0.045566998 0.22157
0.039145 0.044975001 0.22179
-0.016515 0.010171 0.24111
-0.014725 0.010822 0.24186
-0.016725 0.010193 0.24053
0.0075734002 0.024325 0.23284
0.039336 0.043993998 0.22160999
-0.016340001 0.0091637 0.24119
0.039462999 0.043807 0.22147
0.039937999 0.043954 0.22194999
0.037893001 0.043807 0.22284
-0.019765999 0.0073678 0.24282999
-0.020857001 0.0063244002 0.24298
-0.019836999 0.007464 0.24213
0.00036862001 0.019955 0.23626
0.0012492 0.0207 0.23573001
0.038945001 0.043818001 0.22372
-0.021847 0.0066220001 0.24321
-0.015264 0.011019 0.24187
-0.0013678001 0.018067 0.23720001
-0.0016642 0.018371001 0.23703
-0.00082575 0.018247001 0.23705
0.038952999 0.044649001 0.22420999
-0.014167 0.011511 0.24174
-0.014889 0.010919 0.24226999
-0.014157 0.011567 0.24234
-0.0077284998 0.015045 0.2395
-0.0067290999 0.016030001 0.23998
-0.0061928001 0.015679 0.23969001
0.039586999 0.044365 0.22439
0.040520001 0.044937 0.22424001
-0.013447 0.011144 0.24308001
-0.013409 0.011808 0.24146
-0.01269 0.011896 0.24222
-0.012316 0.011855 0.24191
-0.010163 0.01289 0.24146
-0.0097610997 0.014527 0.24122
-0.0092395004 0.014142 0.24086
-0.022598 0.0059304 0.24581
-0.022093 0.0066689998 0.24619
-0.021877 0.0062577999 0.24658
0.039073002 0.044358 0.22682001
0.038081001 0.043381002 0.22734
-0.022483001 0.0058089001 0.24789999
-0.022647999 0.0052319998 0.24845999
0.036749002 0.042335998 0.22882
-0.022541 0.0056854999 0.24917001
-0.023176 0.0056592999 0.24898
-0.024121 0.0049585002 0.24931
-0.024528001 0.0046398998 0.25026
-0.025632 0.0037090001 0.25174001
-0.025256 0.0042253002 0.25005001
-0.024295 0.0037777999 0.25134999
0.037002001 0.042061999 0.23029999
0.037898999 0.043554001 0.23084
-0.026082 0.0034670001 0.25227001
0.038408 0.043621 0.23100001
-0.026159 0.0032645001 0.25312999
0.039377999 0.043478999 0.23203
0.039671 0.044752002 0.23118
-0.026674001 0.0033322 0.25417
-0.026471 0.0037272 0.25426
0.039875999 0.044314001 0.23138
0.040504999 0.044410001 0.23221999
-0.026409 0.0029851 0.25476
-0.019165 0.0079964995 0.25328001
-0.0090611996 0.014048 0.25015
-0.018395999 0.0069825999 0.25255001
-0.019763 0.0074688001 0.25345001
-0.0096882004 0.013418 0.24955
0.040994 0.046195999 0.23318
-0.0090154996 0.013487 0.25047001
-0.025746999 0.0031467001 0.25641999
-0.019923 0.0064971 0.2543
-0.0067910999 0.015416 0.25037
-0.0065841 0.015441 0.24956
-0.0061657 0.016073 0.24967
-0.0055029001 0.016023999 0.24948999
-0.017256999 0.0080829002 0.25363001
-0.010317 0.013495 0.25068
-0.010423 0.012948 0.25178999
0.037140001 0.043074001 0.23508
-0.026061 0.0033851 0.25723001
-0.022173 0.0060314001 0.25601
-0.021222999 0.0057307999 0.25597
-0.016310999 0.0098208999 0.25319001
-0.016086999 0.0095234001 0.25395
-0.016574999 0.010265 0.25358
-0.016057 0.010551 0.25373
-0.02492 0.0034207001 0.25727001
-0.015681 0.01032 0.25411999
-0.015494 0.01078 0.25485
-0.012981 0.011707 0.25319001
-0.01134 0.012953 0.25207999
-0.022544 0.0058823 0.25576001
-0.015885999 0.0099362005 0.25477999
-0.015395 0.01053 0.25367001
-0.014585 0.01078 0.25374001
-0.0041065002 0.017191 0.25064
0.038380999 0.042948999 0.23699
-0.022151999 0.0061269002 0.25678
-0.015148 0.010789 0.25444999
-0.013878 0.011661 0.25415
-0.012411 0.011897 0.25422001
-0.0031145001 0.017341999 0.25029999
0.031984001 0.039390001 0.23890001
0.033969998 0.039593 0.23863
-0.023909001 0.0051632999 0.25729001
-0.022171 0.0060439999 0.25698
-0.015545 0.0097406004 0.25459
-0.015539 0.010093 0.25615999
-0.014262 0.010784 0.25443
-0.01365 0.011967 0.25409001
0.028581999 0.037122998 0.24101
0.037455998 0.041926999 0.23806
-0.015928 0.0096071996 0.25540999
0.029324999 0.037526999 0.24094
0.036200002 0.041939002 0.23849
-0.0031051 0.0175 0.25187999
0.027558999 0.037106998 0.24172001
-0.0022724001 0.018035 0.25238001
-0.0014286001 0.018035 0.25308001
0.020795001 0.031734999 0.2462
0.02011 0.031907 0.24632999
0.020680999 0.032024998 0.24619
0.021816 0.032683998 0.24591
0.029108001 0.038479999 0.24337
-0.0014001 0.018283 0.25325999
-0.00072365999 0.018440001 0.25371999
0.018057 0.030375 0.24707
0.018030999 0.030887 0.24663
0.023019001 0.03269 0.24589001
0.017596001 0.030396 0.24811
0.022581 0.033472002 0.24601001
0.00055984 0.018743001 0.25332999
0.023341 0.033957999 0.24606
0.029632 0.038206998 0.24456
0.004342 0.021434 0.25319001
0.0038499001 0.021237001 0.25294
0.024754999 0.034439001 0.24648
0.031528998 0.038915001 0.24392
0.0044856002 0.022600999 0.25255999
0.0099646002 0.025483999 0.25136
0.011746 0.026873 0.25088999
0.025874 0.035314001 0.24705
0.031266 0.038819 0.24358
0.032533001 0.039021 0.24350999
0.033101 0.039848998 0.24440999
0.033535998 0.039827 0.24438
0.0077581001 0.024804 0.25233001
0.010351 0.025496 0.25167999
0.026219999 0.035264 0.24727
0.025882 0.035718001 0.24671
0.026969001 0.036396999 0.24719
0.026745001 0.036222 0.24645001
0.03407 0.039957002 0.24499001
0.027939999 0.036231 0.24753
0.027962999 0.036485001 0.24717
0.029011 0.036598999 0.24733999
0.034398001 0.040860999 0.24495
0.034224 0.040274002 0.24482
0.034460001 0.040417001 0.24593
0.029655 0.037537001 0.24756999
0.029656 0.037574001 0.24776
0.03029 0.037825 0.24834
0.031346001 0.038407002 0.24816
0.03492 0.040176999 0.24639
0.031638 0.038543999 0.24823999
0.035271 0.040608 0.24799
0.031858999 0.039004002 0.24883001
0.033886999 0.040460002 0.24857999
0.035569001 0.041467998 0.2481
0.034398001 0.039981999 0.2492
0.034526002 0.040955 0.24925999
0.034763001 0.040350001 0.2491
0.046767998 0.051971 0.10659
0.068444997 0.065724999 0.099316001
0.070214003 0.067152001 0.09843
0.0046472 0.026877999 0.1205
0.0061520999 0.027937001 0.1201
-0.026893999 0.0069144 0.13207
-0.025452999 0.0072478 0.13063
-0.022577999 0.0092312004 0.12974
-0.022626 0.010152 0.12944999
0.044727001 0.052591 0.10726
0.071909003 0.068371996 0.098672003
0.082654998 0.074428 0.095202997
-0.027473999 0.0057156999 0.13177
0.049403001 0.054629002 0.10676
0.080687001 0.073351003 0.096151002
-0.030102 0.0046358001 0.13313
-0.028981 0.004652 0.13245
-0.021069 0.011364 0.13077
0.074957997 0.070153996 0.098667003
0.075851001 0.070968002 0.098575003
0.076741003 0.070715003 0.097809002
0.076030999 0.070212997 0.098811001
-0.01675 0.0099333003 0.1301
-0.015093 0.012398 0.13011
-0.016031001 0.011141 0.12933999
0.00057536998 0.024214 0.12417
0.053291 0.057248 0.10684
0.061103001 0.061696999 0.10448
-0.032348 0.0030791 0.13636
-0.032063 0.0038208 0.13545001
-0.014925 0.014366 0.12970001
-0.0099082999 0.017676 0.1284
-0.0092439996 0.018437 0.12774999
0.012712 0.032143001 0.12134
0.012224 0.031868 0.12088
-0.012419 0.016641 0.12933999
0.054887999 0.058155999 0.10707
0.059064001 0.060499001 0.10595
-0.033778999 0.0028377001 0.13759001
-0.0016401 0.022950999 0.12650999
-0.0018385 0.023117 0.12673999
0.059744 0.060683001 0.10692
-0.035227999 0.0025785 0.13845
0.061213002 0.062247001 0.10788
0.042686999 0.049485002 0.11515
0.061450999 0.061590001 0.10919
0.089892 0.077742003 0.10104
0.089746997 0.078723997 0.10112
0.089487001 0.078148 0.10141
0.058561999 0.060453001 0.10987
0.059896 0.060254 0.11126
0.018587001 0.034993 0.1248
0.018820001 0.036180999 0.12536
0.042738002 0.049711999 0.11824
0.061705001 0.061935 0.11138
0.062275 0.062523998 0.11206
0.063968003 0.062885001 0.1118
0.064268 0.064475998 0.11102
0.061703 0.061826002 0.11246
0.063685998 0.062786996 0.11273
0.065017998 0.063986003 0.11207
0.088956997 0.078685001 0.1034
0.087993003 0.078405999 0.10532
0.022332 0.03816 0.12828
0.022639999 0.038031999 0.12824
0.088283002 0.078474 0.10682
0.024018999 0.037560999 0.12939
0.088059001 0.078005999 0.11058
0.088160001 0.07801 0.10945
-0.038996 -0.00035479999 0.15260001
0.025413999 0.039561 0.13068999
0.078473002 0.071797997 0.1145
0.025761999 0.038417 0.13059001
0.081380002 0.073772997 0.11392
0.026612001 0.040068001 0.13289
0.082323 0.074515998 0.11442
0.076072 0.071015 0.11715
-0.039032999 -0.00095477002 0.15548
0.028763 0.041338 0.13503
0.029819001 0.041662 0.13612001
0.073811002 0.068929002 0.12182
0.029428 0.041005 0.13545001
0.073781997 0.068278998 0.12352
-0.039678998 -0.00074321002 0.1601
0.072423004 0.068047002 0.1251
0.046542 0.051403001 0.13368
-0.038387999 -0.0010574 0.16387001
-0.038027 -0.00064024999 0.16435
0.068823002 0.065696999 0.12829
0.068223 0.064577997 0.12931
0.067672998 0.064655997 0.1292
0.068341002 0.065356001 0.12867001
0.048216 0.052951001 0.13694
0.067938 0.065263003 0.12987
0.069530003 0.066283002 0.12909999
0.071005002 0.066931002 0.12909999
0.034242999 0.043026999 0.14345001
0.035252001 0.043168999 0.14432
-0.037372001 -0.00060108001 0.16734999
-0.037914 -0.0010504 0.16635001
0.067737997 0.064681999 0.13173001
0.067976996 0.064878002 0.13204999
-0.037246 7.4557996e-05 0.16809
0.051182002 0.054106001 0.13962001
0.068184003 0.065739997 0.13461
-0.036641002 1.2565e-05 0.16983999
0.051908001 0.054742001 0.14142001
0.053250998 0.056058999 0.14241999
0.069673002 0.065907001 0.13704
0.054419 0.056433 0.14308999
0.070876002 0.066615 0.13809
0.055006001 0.056949001 0.14388999
0.037383001 0.045472998 0.14907999
0.038089 0.045722 0.15023001
0.055500001 0.057101 0.14439
-0.034995001 0.0012769999 0.17614999
0.056288 0.05675 0.14481001
0.071897998 0.066674002 0.14003
0.072231002 0.067163996 0.14033
0.0065322998 0.026629999 0.16301
0.098741002 0.083749004 0.1323
0.10015 0.084064998 0.13276
0.010529 0.029302999 0.16274001
0.057466999 0.057976 0.14658
0.097198002 0.082731999 0.13304
0.098449998 0.082433999 0.13293999
0.039836001 0.047345001 0.15347999
0.073578 0.068311997 0.14173
0.10038 0.084868997 0.13267
0.10083 0.084587999 0.13304
0.058153 0.058892 0.14792
0.097446002 0.082484998 0.13358
-0.033797 0.0010063 0.17738
-0.032917 0.0013188 0.17834
0.011675 0.028881 0.16275001
0.011327 0.029026 0.16338
0.096386001 0.082782999 0.1348
0.040585998 0.047352999 0.15374
0.095242999 0.081409 0.13639
0.094864003 0.080885001 0.13661
0.10244 0.085906997 0.13444
0.00081235002 0.023088999 0.16811
0.040527001 0.047880001 0.15473001
0.041138999 0.047364 0.15627
0.10363 0.086153001 0.13524
0.1037 0.086989 0.13575
0.094320998 0.080233 0.13916001
0.094465002 0.079742 0.13835999
0.076462999 0.069441997 0.14605001
0.014587 0.030972 0.16565
0.061622001 0.06019 0.15075
0.061066002 0.059948999 0.14963
0.093254 0.079508997 0.14059
-0.031964999 0.0032752 0.18219
0.00047053999 0.022236999 0.17086001
0.015902 0.032179002 0.16671
0.016364999 0.032173 0.16613001
0.090929002 0.078635 0.142
0.042824 0.048691001 0.15955999
0.078977004 0.070964001 0.14801
0.062939003 0.060671002 0.1521
-0.029676 0.0033166001 0.18443
0.0015956 0.022014 0.17461
0.080266997 0.071510002 0.14975999
0.043492001 0.048916999 0.161
0.079704002 0.071460001 0.14902
0.063450001 0.061177 0.15505999
0.044374999 0.048746999 0.1622
0.080636002 0.071951002 0.15015
0.10585 0.087072 0.14291
0.063961998 0.062449001 0.15700001
0.065127999 0.062385999 0.15747
0.09262 0.079392001 0.14848
0.0031989 0.024558 0.17834
0.020987 0.035409998 0.17129999
0.0036090999 0.023056 0.17867
0.0041183 0.023670999 0.17846
0.083347999 0.073036 0.15176
0.093526997 0.079319 0.1489
