# .PCD v0.7 - Point Cloud Data file format
VERSION 0.7
FIELDS x y z
SIZE 4 4 4
TYPE F F F
COUNT 1 1 1
WIDTH 1528
HEIGHT 1
VIEWPOINT 0 0 0 1 0 0 0
POINTS 1528
DATA ascii
0.035287 0.041988999 0.22050001
0.028152 0.046185002 0.22138
0.072737999 0.017789001 0.21325
0.072397999 0.017472001 0.21436
0.059284002 0.027236 0.21559
0.071970001 0.016952001 0.21441001
0.057711001 0.027339 0.21520001
0.042806 0.036660999 0.2189
0.043657001 0.036116 0.21885
0.036059 0.041694999 0.22189
0.046229001 0.034596 0.22014
0.070147 0.017436 0.21594
0.070490003 0.018609 0.21679001
0.048965 0.032997999 0.22011
0.029262001 0.045841999 0.22310001
0.039237998 0.038729001 0.22221
0.036561999 0.041758999 0.22295
0.029163999 0.044737998 0.22432999
0.030342 0.045674998 0.22513001
0.069196001 0.019735999 0.21985
0.065899 0.020202 0.22392
0.028944001 0.045088001 0.22923
0.065499 0.020803999 0.22607
0.029013 0.045072 0.23225001
0.028124999 0.045375001 0.23314001
0.018565999 0.051814001 0.23415001
0.016003 0.052829001 0.23492999
0.027663 0.045469999 0.23446999
0.016741 0.051810998 0.23627999
0.026874 0.046549 0.23346999
0.065163001 0.020458 0.22785001
0.066119 0.019850999 0.22946
0.01678 0.053300999 0.23718999
0.024549 0.047571 0.23560999
0.015176 0.053013001 0.23693
0.065265 0.020777 0.23038
0.015541 0.053399 0.23792
0.016965 0.051045999 0.23847
0.018638 0.051633 0.24004
0.019203 0.050066002 0.23963
0.019894 0.050737001 0.24081001
0.065701 0.020155 0.23576
0.065531 0.019013001 0.23701
0.065931 0.018494001 0.23773
0.021260999 0.049385 0.24273001
0.070345998 0.016225999 0.23677
0.069642998 0.015709 0.23789001
0.066476002 0.017371999 0.23797999
0.068104997 0.016773 0.23732001
0.071627997 0.01513 0.23842999
0.065091997 0.018680001 0.23899999
0.066125996 0.017690999 0.23929
0.071231999 0.015672 0.23998
0.070749998 0.014783 0.23989999
0.070639998 0.015141 0.24119
0.069624998 0.015229 0.24251001
0.067612998 0.017385 0.24284001
0.06402 0.019035 0.24553999
0.021302 0.047731001 0.25604999
0.063147999 0.01764 0.24726
0.021539999 0.047419999 0.25444999
0.020974999 0.046789002 0.26017001
0.063840002 0.018161001 0.25248
0.064574003 0.018092001 0.257
0.063706003 0.018172 0.25817001
0.019357 0.048083 0.26449999
0.063190997 0.018138001 0.25955001
0.063437998 0.017468 0.26159999
0.071250997 0.012968 0.26065999
0.069715001 0.013888 0.26172999
0.071000002 0.012571 0.26317999
0.066371001 0.015334 0.26219001
0.065201998 0.016122 0.26298001
0.019441999 0.047168002 0.27559999
0.070335999 0.012773 0.26868999
0.01805 0.04696 0.27658001
0.016884999 0.047446001 0.27945
0.016973 0.045981001 0.27739
0.069885999 0.012105 0.26980999
0.070175998 0.012418 0.27182999
0.0162 0.047846001 0.27985001
0.015057 0.048018001 0.28123999
0.015857 0.047660999 0.28237
0.068392999 0.013738 0.27493
0.014939 0.048346002 0.28244001
0.068732999 0.013045 0.27355999
0.069710001 0.011905 0.27524999
0.017242 0.046767998 0.28362
0.070033997 0.012873 0.27638999
0.017979 0.046569999 0.28349
0.018106 0.045733001 0.28424999
0.070698 0.011401 0.27814001
0.019657999 0.045051999 0.28703001
0.019068999 0.044865999 0.28569001
0.069610998 0.011387 0.27904999
0.019164 0.044605002 0.28771001
0.069215 0.011797 0.27968001
0.067465 0.01186 0.28033999
0.065167002 0.014614 0.28152001
0.064456999 0.014544 0.28116
0.066407003 0.013069 0.28095999
0.020678001 0.044007 0.29003
0.064533003 0.013977 0.28308001
0.020864001 0.042599 0.29159001
0.021586001 0.04259 0.29265001
0.063513003 0.014816 0.28771001
0.063497998 0.0147 0.28485999
0.021369001 0.042176001 0.29506999
0.021574 0.042985 0.29277
0.022638001 0.042052999 0.29622
0.02318 0.043724 0.29745999
0.062148001 0.015473 0.29062
0.061097998 0.015830001 0.29045999
0.061377998 0.0156 0.29341999
0.059764002 0.016567999 0.29402
0.023908 0.039958999 0.30263001
0.023910999 0.039609 0.30416
0.02383 0.039671998 0.30316001
0.057918001 0.016713001 0.29817
0.023739999 0.039142001 0.30634999
0.058883 0.016163999 0.30208001
0.059631001 0.016739 0.30406001
0.059209999 0.014639 0.30533999
0.023 0.040004998 0.31022999
0.022818999 0.038628001 0.31123
0.02248 0.039124999 0.31145
0.060217999 0.015352 0.30577001
0.060093001 0.014692 0.30592
0.021817001 0.040511999 0.31389001
0.060440999 0.014489 0.30722001
0.021849001 0.039981 0.31557
0.062155999 0.012683 0.30946001
0.062376998 0.013352 0.30954999
0.062675998 0.012612 0.31110001
0.021597 0.039896 0.31669
0.067910001 0.009536 0.31047001
0.019192001 0.040552001 0.31823999
0.020362999 0.040351 0.31718001
0.067953996 0.0086458996 0.31187001
0.018962 0.041010998 0.31865999
0.019905999 0.039942998 0.31955999
0.069642998 0.0079851998 0.31172001
0.069718003 0.0076076002 0.31288001
0.019305 0.040878002 0.32141
0.018426999 0.041053001 0.32168001
0.018866001 0.039994001 0.32346001
0.019494999 0.040013 0.32416001
0.068612002 0.0082703 0.31474999
0.020133 0.039864998 0.32519999
0.066527002 0.0082039004 0.32012001
0.067975 0.0081297997 0.32369
0.020780001 0.037949 0.34000999
0.067996003 0.0071064001 0.33265999
0.067163996 0.0058233002 0.33396
0.068260998 0.0057386002 0.33614001
0.021237999 0.037027001 0.34452
0.052723002 0.015588 0.33860999
0.052407 0.016248001 0.33853
0.054058999 0.01505 0.33950999
0.020895001 0.036706999 0.34496999
0.067979001 0.005963 0.33695
0.050629999 0.016941 0.34116
0.055762 0.013283 0.34022
0.051943999 0.015853999 0.34158
0.019959999 0.038047001 0.3457
0.020524999 0.037225001 0.34711999
0.069604002 0.0047994 0.34075999
0.068402998 0.0051032002 0.34028
0.020992 0.037601002 0.34856001
0.033670999 0.027569 0.34703001
0.032807 0.029372999 0.34643
0.069808997 0.0034981 0.34196001
0.069852002 0.0037916 0.34110999
0.035078 0.027727 0.34762001
0.021238999 0.036984 0.35003
0.032485999 0.029224999 0.34830001
0.057073001 0.012999 0.34397
0.035789002 0.026887 0.34801
0.057052001 0.011707 0.34558001
0.048117999 0.019087 0.34694999
0.021195 0.035735998 0.35091001
0.020795999 0.036373999 0.35054001
0.069638997 0.0038544999 0.34298
0.036905002 0.025970999 0.34894001
0.069241002 0.0044340999 0.34411001
0.068154998 0.0043155998 0.34498999
0.067704 0.0060252999 0.34569001
0.057874002 0.011743 0.34615999
0.030654 0.029168 0.35123
0.022103 0.034786999 0.35256001
0.045697 0.019385001 0.34898001
0.038391002 0.024744 0.35027999
0.038777001 0.024414999 0.35066
0.059811 0.0099504003 0.34808001
0.044746 0.019493001 0.34990001
0.039094999 0.022983 0.35084999
0.029130001 0.031237001 0.35238999
0.028867999 0.030291 0.35323
0.044036999 0.020377001 0.34973001
0.043178 0.021199999 0.35167
0.059519 0.0097725 0.34915999
0.041909002 0.022313001 0.35302001
0.041002002 0.022128999 0.35106
0.028619001 0.031445 0.35455
0.067815997 0.0050579999 0.34865999
0.021915 0.035190001 0.35611001
0.061299 0.010054 0.34972
0.060791999 0.0092019998 0.34933001
0.061964002 0.0071172998 0.35005
0.063516997 0.0070850998 0.35126001
0.028022001 0.03159 0.35620001
0.067684002 0.0045161 0.34979999
0.067066997 0.0040509999 0.35146001
0.026298 0.031332999 0.35714999
0.066119999 0.0047164001 0.35150999
0.064758003 0.0061826999 0.35260999
0.027744999 0.030714 0.35795999
0.042557001 0.020628 0.35552999
0.043021001 0.019392001 0.35633999
0.065955997 0.0053796 0.35102999
0.042112999 0.021984 0.35732999
0.022033 0.034651998 0.35964
0.021659 0.034281 0.36105001
0.041756 0.021122999 0.35991001
0.024625 0.031575002 0.36241001
0.042172998 0.021733001 0.36048001
0.044539999 0.018012 0.36001
0.044289 0.018988 0.35901999
0.025248 0.031996999 0.3637
0.02117 0.035693999 0.36412999
0.025239 0.032127 0.36553001
0.020715 0.035085998 0.36658001
0.045584001 0.017991999 0.36188999
0.024936 0.031594999 0.3662
0.041689001 0.020424999 0.36335999
0.045630999 0.017127 0.36309001
0.042300001 0.020358 0.36647999
0.049428999 0.015756 0.36489001
0.041777998 0.020855 0.36625001
0.068371996 0.0021766999 0.36469001
0.066754997 0.0037040999 0.36434001
0.067149997 0.0024516 0.36423001
0.049844 0.014896 0.36587
0.041678999 0.020205 0.36835
0.027293 0.030079 0.37011001
0.050384 0.014186 0.36695999
0.039352 0.020451 0.36932999
0.019890999 0.034271002 0.37288001
0.020261001 0.033403002 0.37178999
0.029658999 0.027951 0.37164
0.02039 0.032740001 0.37242001
0.068626001 0.0019188999 0.36489999
0.062858999 0.0051899999 0.36612999
0.052434001 0.013235 0.36928001
0.069394998 0.00095093 0.36649999
0.030784 0.027089 0.37259001
0.068317004 0.0015593 0.36640999
0.022431999 0.032473002 0.37254
0.020928999 0.032494999 0.37417001
0.052375998 0.012127 0.36948001
0.023584001 0.031158 0.37397
0.022569001 0.032605998 0.37275001
0.021834999 0.032409001 0.37351
0.031587999 0.026393 0.37266999
0.067858003 0.0026693 0.36715001
0.067326002 0.0020113999 0.36761001
0.033078 0.025485 0.37382999
0.026624 0.029642999 0.37417999
0.053378999 0.012629 0.3712
0.027504999 0.028294001 0.373
0.027132999 0.028620999 0.37465999
0.022330999 0.031953 0.37566
0.022526 0.032175999 0.37525001
0.066808999 0.0029962 0.36866
0.030068001 0.027992001 0.37472001
0.065606996 0.0030413 0.37018001
0.035392001 0.023779999 0.37362
0.031339999 0.027163001 0.37555
0.030494001 0.026737999 0.37529999
0.024157999 0.031242 0.37700999
0.022274001 0.032203 0.37658
0.058609001 0.0087420996 0.37132001
0.038072001 0.021020001 0.37366
0.036646999 0.022209 0.37402999
0.035390999 0.023286 0.37395999
0.038651001 0.021624999 0.37470001
0.032579999 0.027031999 0.37503001
0.064685002 0.0038270999 0.36987001
0.054903999 0.011072 0.37204999
0.051210999 0.013395 0.37386
0.02468 0.030329 0.37698999
0.063193999 0.0049009002 0.37103
0.063469999 0.0042019999 0.37154999
0.062410001 0.0064075999 0.37105
0.052432999 0.011915 0.37200001
0.032839 0.025425 0.37623999
0.025535 0.030787 0.37786999
0.050726 0.013218 0.37345999
0.036513001 0.022476001 0.37606001
0.032974001 0.024739999 0.37654999
0.059482001 0.0072925999 0.37257001
0.055567 0.010839 0.37321001
0.023381 0.030423 0.37790999
0.025804 0.030655 0.37739
0.035096001 0.022847001 0.37645
0.027871 0.029018 0.37843999
0.025429999 0.029158 0.37818
0.026862999 0.028129 0.37836999
0.034820002 0.024879999 0.37761
0.02606 0.029313 0.37924999
0.055294 0.010569 0.37579
0.033149 0.024054 0.37825999
0.058403999 0.0086351996 0.37355
0.057151999 0.0089127002 0.37566999
0.056501999 0.0092626 0.37446001
0.043134999 0.017622 0.37788001
0.045697998 0.017224001 0.37665999
0.017558999 0.056669999 0.18961
0.015776999 0.059255999 0.19008
0.070099004 0.021921 0.18460999
0.075034 0.019159 0.18799999
0.043850001 0.041577999 0.19226
0.028441001 0.051575001 0.19472
0.055055 0.035950001 0.19035999
0.053877 0.034428 0.19039001
0.052972998 0.036984999 0.19035
0.010548 0.061671 0.20006999
0.075383998 0.017866001 0.1925
0.011042 0.060901999 0.20345999
0.075531997 0.017812001 0.19406
0.071889997 0.018477 0.20184
0.022661 0.050485 0.214
0.063713998 0.024161 0.20734
0.06239 0.025488 0.20730001
0.036109999 0.042546999 0.21256
0.069118001 0.020528 0.20630001
0.060217001 0.027618 0.20762999
0.058106001 0.027375 0.20889001
0.057374001 0.027628999 0.20907
0.042135999 0.038036998 0.21093
0.015461 0.055879999 0.21456
0.015644001 0.055948999 0.2154
0.054455001 0.030339999 0.21238001
0.065912999 0.023244999 0.21358
0.065256998 0.022143001 0.21263
0.070146002 0.018661 0.21357
0.056010999 0.028365999 0.21493
0.071332 0.019631 0.21856
0.065522 0.019886 0.23244999
0.069931999 0.01637 0.23586001
0.068379 0.016372999 0.23563001
0.066799998 0.018238001 0.23609
0.068177998 0.017574999 0.23565
0.064745001 0.018733 0.24854
0.019742999 0.047444999 0.26179999
0.019466 0.047116999 0.26388001
0.064746 0.017805001 0.26074001
0.020264 0.046932001 0.26708001
0.064203002 0.017084001 0.26104
0.069536 0.01426 0.2604
0.070010997 0.014131 0.26039001
0.018987 0.047502998 0.26999
0.019012 0.047364999 0.27340001
0.019788001 0.046806999 0.27636001
0.063621998 0.015235 0.28913999
0.023234 0.041696001 0.29762
0.023397001 0.041142002 0.29909
0.057934999 0.015822999 0.29960001
0.065003999 0.011369 0.31059
0.021859 0.042468999 0.31707001
0.067575 0.0093745003 0.31527001
0.019405 0.039822999 0.32826999
0.049635999 0.017359 0.3436
0.056729998 0.012959 0.34266001
0.022523001 0.03545 0.35299999
0.067769997 0.0062020998 0.34654999
0.066863 0.0057521998 0.34897
0.065826997 0.0065885 0.35036999
0.063564003 0.0061359 0.35067001
0.042011999 0.021291001 0.35578001
0.046167001 0.01825 0.36359
0.048599001 0.016361 0.36511001
0.047814999 0.017211 0.36471
0.020855 0.033372998 0.37121001
0.049970001 0.01474 0.36715001
0.020728 0.033218998 0.37081
0.061946999 0.007768 0.36737001
0.039267998 0.021942001 0.3723
0.060217999 0.0069686002 0.36875999
0.043862998 0.016678 0.37810001
0.019486999 0.056359999 0.18975
0.013261 0.060254999 0.19162001
0.012508 0.060554001 0.19158
0.029598 0.050436001 0.19478001
0.029177001 0.050462998 0.19439
0.024556 0.055982001 0.19549
0.023517 0.055041999 0.19565
0.058713999 0.031817 0.19043
0.047268 0.040100001 0.19188
0.048234999 0.040792 0.1925
0.074913003 0.017975001 0.18897
0.062568001 0.024474001 0.20706999
0.058871001 0.027613999 0.20836
0.041462 0.038879 0.21071
0.034991998 0.043368001 0.21365
0.050811999 0.034143001 0.21144
0.026686 0.049107 0.21710999
0.062689997 0.023786999 0.21435
0.048751 0.032958001 0.21464001
0.060442001 0.026264001 0.21403
0.047472 0.036047999 0.2181
0.047873002 0.032460999 0.22218999
0.066577002 0.021221999 0.22285999
0.067644998 0.020987 0.22381
0.023643 0.048563998 0.23755001
0.024521001 0.047354002 0.23688
0.016279999 0.052723002 0.23972
0.016973 0.052464001 0.24044999
0.065696999 0.020118 0.23469999
0.020501001 0.049803998 0.24232
0.069900997 0.016845999 0.23343
0.071611002 0.016464001 0.23677
0.070472002 0.01657 0.24270999
0.020377999 0.047387999 0.25687
0.064902999 0.018443 0.25292999
0.066013001 0.017476 0.25227001
0.067061998 0.017109999 0.25334001
0.064695999 0.018244 0.25365999
0.067955002 0.017052 0.25193
0.069259003 0.015969001 0.25229999
0.067481004 0.016052 0.25352001
0.068185002 0.014931 0.25303999
0.066165 0.017873 0.25617999
0.068948001 0.015312 0.25488001
0.067417003 0.015644001 0.25441
0.065985002 0.016934 0.25514999
0.065641999 0.017596001 0.25734001
0.067091003 0.015729999 0.26111001
0.068213001 0.014608 0.26067999
0.019928999 0.048962001 0.26774999
0.065943003 0.016402001 0.26199001
0.065632999 0.016620001 0.26119
0.016728001 0.047885999 0.27770999
0.067946002 0.012965 0.27932
0.066604003 0.014166 0.27952999
0.065935001 0.014571 0.28027001
0.020346001 0.043740001 0.29115
0.024284 0.042714 0.29925001
0.060626999 0.016412999 0.29286999
0.060777001 0.017229 0.29473001
0.023664 0.040876001 0.29975
0.062985003 0.014076 0.31016001
0.066137001 0.010204 0.31066
0.066996999 0.0093428995 0.31099999
0.068549998 0.0078467997 0.31145
0.020202 0.041179001 0.32006001
0.021358 0.040849999 0.33045
0.06797 0.0083187995 0.32519999
0.067808002 0.0070580002 0.32674
0.068402 0.0083518 0.32936001
0.067731999 0.0063258 0.33636999
0.067530997 0.0067095999 0.33629999
0.050042 0.018053001 0.34529999
0.031438001 0.030060999 0.34920001
0.058899999 0.012207 0.34603
0.046902999 0.019671001 0.34773001
0.037746001 0.025784001 0.34968001
0.059448998 0.010704 0.34722
0.043478999 0.021585001 0.35064
0.022143999 0.035932999 0.35383001
0.043331999 0.022167999 0.35269001
0.021997999 0.035347998 0.35515001
0.063061997 0.0078301998 0.34928
0.021583 0.035271 0.35672
0.044222001 0.020373 0.35490999
0.026001001 0.032883 0.36070001
0.045267999 0.019738 0.36151001
0.021799 0.033132002 0.37048
0.067543998 0.0026137 0.36561999
0.066151001 0.0047872001 0.36500001
0.062512003 0.0081585003 0.368
0.059292 0.0081978003 0.36965999
0.027597999 0.029821999 0.37430999
0.053566001 0.010979 0.37193999
0.065739997 0.0036283 0.36965999
0.035519999 0.0241 0.37455001
0.039962001 0.020445 0.37404999
0.041448001 0.020083001 0.37507999
0.060970001 0.0065726 0.37112001
0.051327001 0.014085 0.37479001
0.066494003 0.027519999 0.18485001
0.045244999 0.040104002 0.19230001
0.044002 0.040649999 0.19211
0.038224 0.045623001 0.19287001
0.038065001 0.046514001 0.19289
0.037078001 0.045591999 0.19391
0.034332 0.048021 0.19408999
0.034972001 0.047733001 0.19394
0.033386 0.049438 0.1939
0.010865 0.061425999 0.19802
0.077336997 0.018927 0.19517
0.015268 0.059735 0.20846
0.014478 0.058844 0.21005
0.035820998 0.04439 0.21201
0.036382999 0.043694999 0.21235
0.070830002 0.019792 0.20626
0.044964001 0.037103001 0.20987999
0.017302001 0.054761998 0.21492
0.015123 0.058014002 0.21438
0.026719 0.049141999 0.21792001
0.054467998 0.030337 0.21393
0.060973998 0.026876001 0.21419001
0.041563001 0.037097 0.22114
0.043705001 0.039195001 0.21934
0.070777997 0.017336 0.23461001
0.066313997 0.019719001 0.23571999
0.071961001 0.014444 0.24151
0.022786999 0.048849002 0.25206
0.021877 0.049550999 0.25531
0.064448997 0.018608 0.24784
0.069214001 0.017240999 0.25139999
0.067321002 0.016659001 0.25163999
0.066330999 0.017514 0.2509
0.065628998 0.018184001 0.25086001
0.069742002 0.014972 0.25213
0.070280001 0.014999 0.25286001
0.021891 0.049757998 0.26005
0.069279999 0.014832 0.25529999
0.068324998 0.016177 0.25628
0.019207001 0.048250001 0.27081001
0.018959001 0.047168002 0.27377
0.015607 0.048627 0.28205001
0.059544001 0.017183 0.29951999
0.064349003 0.011163 0.31162
0.068603002 0.0085343998 0.31373
0.067515001 0.0099772997 0.31228
0.067372002 0.0093387002 0.31347999
0.020058 0.041545 0.32411999
0.067633003 0.01008 0.32170001
0.021609999 0.038323998 0.33572
0.021065 0.038479 0.33758
0.022288 0.038598999 0.34079
0.021105999 0.038158 0.33987999
0.052182999 0.018572001 0.34305
0.036442 0.028011 0.34804001
0.048395 0.019251 0.34799001
0.021950999 0.035828002 0.35234001
0.031195 0.030053001 0.35132
0.064540997 0.0067901998 0.34937999
0.042815 0.02125 0.35404
0.041999999 0.022054 0.35273001
0.049130999 0.017167 0.36552
0.042242002 0.021923 0.36774001
0.067376003 0.0037589001 0.36576
0.024008 0.033243999 0.37143001
0.052000999 0.014283 0.36849999
0.040050998 0.021338999 0.37073001
0.042033002 0.021079 0.37369999
0.042325001 0.021315999 0.37393999
0.047306001 0.017793 0.37792999
0.048709001 0.016525 0.37643
0.018231001 0.059292 0.19038001
0.014836 0.061182 0.19246
0.069920003 0.024473 0.18467
0.070550002 0.023835 0.18493
0.014442 0.060995001 0.19428
0.066444002 0.026536999 0.18657
0.012205 0.061833002 0.19642
0.013533 0.061531 0.19571
0.042711999 0.042706002 0.19187
0.032809999 0.048657998 0.19391
0.048379999 0.040874001 0.19216999
0.012408 0.062748998 0.1979
0.012776 0.060559001 0.20677
0.075839996 0.018902 0.19850001
0.073563002 0.019990001 0.20148
0.074304 0.019377001 0.20175
0.074375004 0.019241 0.20387
0.075136997 0.019261001 0.20386
0.022755999 0.052037001 0.21259999
0.057792999 0.028789001 0.20814
0.056129999 0.029439 0.20857
0.057576999 0.030332999 0.20836
0.025875 0.050632998 0.21340001
0.067878999 0.021852 0.20682
0.018686 0.054963 0.21417999
0.026789 0.050151002 0.21731
0.035765 0.043446001 0.21472
0.0352 0.043995999 0.21583
0.051061001 0.033992 0.21539
0.072081998 0.019337 0.21270999
0.073379003 0.017782999 0.21202999
0.071092002 0.019966999 0.21314999
0.059209999 0.02894 0.21572
0.056689002 0.029645 0.21543001
0.073968001 0.017692 0.21392
0.043744002 0.038330998 0.21877
0.048528001 0.034051001 0.21911
0.035783999 0.04239 0.22317
0.071390003 0.019785 0.21751
0.029281 0.047256999 0.22701
0.030151 0.046672001 0.23193
0.022437001 0.048717 0.23536
0.024584001 0.047832999 0.23559999
0.067460999 0.021113001 0.23399
0.068098001 0.018124999 0.23468
0.021446001 0.048712999 0.24392
0.0231 0.049132001 0.24786
0.021745 0.048802 0.24979
0.022112001 0.049213 0.25095999
0.073008001 0.016295999 0.24105
0.069954 0.017414 0.24266
0.069206998 0.017643001 0.24243
0.066569 0.019540001 0.24334
0.022182001 0.048870001 0.25545001
0.068113998 0.0178 0.25001001
0.066849999 0.019130001 0.25014001
0.069918998 0.016804 0.2511
0.021071 0.049084 0.26278001
0.069562003 0.015085 0.25632
0.070165001 0.014532 0.25602999
0.067445002 0.016652999 0.2561
0.066013001 0.017715 0.25780001
0.066680998 0.018118 0.26093999
0.067783996 0.016649 0.26021999
0.019605 0.048292 0.26989999
0.070987001 0.01294 0.26519999
0.019012 0.047456 0.27462
0.019871 0.047876 0.27531999
0.071479 0.014303 0.26837999
0.072276004 0.013537 0.27009001
0.069849998 0.013998 0.27526
0.064627998 0.016728001 0.28187001
0.064263001 0.015975 0.28557
0.064441003 0.016439 0.28962001
0.022211 0.044475 0.29521
0.023622001 0.041799001 0.30037999
0.059680998 0.017322 0.29881001
0.060031001 0.017859001 0.29899999
0.024722001 0.041106001 0.30822
0.059126001 0.016464001 0.30215001
0.060780998 0.016457001 0.30478001
0.022596 0.040727999 0.31334999
0.063276 0.014895 0.30851001
0.063793004 0.012439 0.31200001
0.066083997 0.010747 0.31263
0.020838 0.041795 0.31953001
0.022181001 0.041981 0.31792
0.067056999 0.0098427003 0.31625
0.067841001 0.0091235004 0.32269001
0.067608997 0.0093154004 0.32341999
0.020684 0.039857998 0.33377999
0.021907 0.039455 0.33559
0.068035997 0.0070666 0.33129999
0.021481 0.039074 0.33809999
0.021462999 0.037868001 0.34169999
0.069091998 0.0083962996 0.33605999
0.022139 0.037813 0.34391001
0.02218 0.037482999 0.34575999
0.056564 0.013963 0.34193
0.021519 0.037712 0.34643999
0.050838001 0.018142 0.34454
0.033652999 0.028648 0.34810999
0.021437 0.037415002 0.35047001
0.036068 0.027199 0.34966001
0.059379 0.011952 0.34567001
0.047649 0.020119 0.34863001
0.037232 0.026673 0.35014001
0.02987 0.031936999 0.35303
0.028542999 0.032602999 0.35556
0.023549 0.036582999 0.35420001
0.022337999 0.036410999 0.35580999
0.028365999 0.032244999 0.35644001
0.065153003 0.0074704001 0.34928
0.022298001 0.035881002 0.35776001
0.044071 0.021646 0.35277
0.025343001 0.031649999 0.36390999
0.025008 0.033534002 0.36283001
0.021338001 0.036642998 0.36364001
0.020013001 0.035666998 0.366
0.021507001 0.035312999 0.36668
0.019747 0.037174001 0.36728999
0.046670999 0.018650001 0.36287001
0.048441 0.017965 0.3642
0.024164001 0.033468999 0.37178001
0.040155999 0.022715 0.37002999
0.040068001 0.022652 0.36973
0.052905999 0.01417 0.37
0.033215001 0.027826 0.37208
0.039190002 0.023883 0.37149999
0.038362 0.021752 0.37255001
0.068008997 0.0036589 0.36765
0.030407 0.028866 0.37485999
0.030954 0.028519999 0.37461001
0.058283001 0.0084368996 0.37038001
0.060104001 0.0093659004 0.37000999
0.059379999 0.0092762997 0.3696
0.037588999 0.023821 0.37423
0.036488999 0.025041999 0.37448999
0.059266001 0.0097858002 0.37147
0.040617 0.022317 0.37467
0.065173 0.0063819 0.36906001
0.03909 0.02241 0.37628999
0.057285 0.010544 0.37277001
0.053213 0.01453 0.37257999
0.054258 0.012253 0.37351
0.039074998 0.022953 0.37682
0.05204 0.013606 0.37246001
0.051621001 0.015351 0.37468001
0.060965002 0.0083713001 0.37278
0.055836 0.012049 0.37426999
0.056327 0.010582 0.37630999
0.045274001 0.018732 0.3777
0.045625001 0.017965 0.3779
0.021253999 0.056926999 0.18975
0.020453 0.057107002 0.19063
0.014749 0.060725 0.19119
0.019974999 0.057027999 0.19168
0.013768 0.061650999 0.19247
0.014645 0.061958 0.19163001
0.068067998 0.025792001 0.18409
0.072906002 0.022941001 0.18524
0.074440002 0.020974001 0.18584
0.020439001 0.056651998 0.19475999
0.020927999 0.055752002 0.19643
0.021059001 0.055303998 0.19519
0.075117998 0.019780001 0.18854
0.066756003 0.027097 0.18869001
0.041175 0.043343998 0.19267
0.040293999 0.044445999 0.19295
0.058775 0.032912999 0.19081999
0.057496998 0.033321001 0.19007
0.075911 0.018456001 0.18972
0.011286 0.061999999 0.20166001
0.076788001 0.017969999 0.19228999
0.012639 0.061462998 0.20473
0.01304 0.062197 0.20592999
0.012709 0.060497001 0.20723
0.076467998 0.017759001 0.1962
0.01499 0.058582999 0.20818999
0.014286 0.059507001 0.20723
0.074367002 0.019876 0.19929001
0.014317 0.058726002 0.21148001
0.023915 0.052683 0.21383999
0.050101999 0.035114001 0.21047001
0.049791001 0.035828002 0.21019
0.035629001 0.043930002 0.21178
0.021799 0.054556999 0.21334
0.073785998 0.019393999 0.2062
0.073472001 0.019793 0.20592
0.024628 0.050799001 0.21414
0.050882999 0.034740001 0.21049
0.055822 0.030055 0.21046001
0.056816999 0.030543 0.21161
0.051325999 0.034150001 0.21494
0.063698001 0.025486 0.21285
0.067785002 0.022488 0.21314999
0.055303998 0.030137001 0.21525
0.048969999 0.033900999 0.21578
0.034821 0.044636998 0.21653999
0.062706001 0.027706999 0.21393999
0.061340999 0.027536999 0.21462999
0.048999 0.032639001 0.21825001
0.036224999 0.043951001 0.21878999
0.028851001 0.047704998 0.22089
0.046769999 0.035866 0.21795
0.044654999 0.037714999 0.21865
0.029112 0.047711998 0.22272
0.048957001 0.034123 0.21928
0.047467001 0.035459001 0.22045
0.046372 0.036472 0.22037999
0.046135001 0.036161002 0.22045
0.073117003 0.018663 0.21683
0.042043999 0.040146999 0.22126
0.071419001 0.019175 0.21732999
0.050827 0.032508001 0.21856
0.050124001 0.033870999 0.22116999
0.050934002 0.033686999 0.21967
0.042266998 0.039078999 0.2225
0.047137 0.036033001 0.2219
0.069582999 0.020671001 0.21924999
0.069775999 0.020004001 0.22002
0.030051 0.046732001 0.22678
0.066867001 0.02101 0.22584
0.019787 0.051369 0.23409
0.020066001 0.052216999 0.23398
0.022368001 0.051507998 0.23481999
0.018262999 0.054115001 0.23525
0.019491 0.051732998 0.23435999
0.02856 0.045998 0.23348001
0.029412 0.046746001 0.23232999
0.022446999 0.050659999 0.23547
0.02726 0.047059 0.23447999
0.026304999 0.047171 0.23435999
0.016542001 0.053927999 0.2375
0.016604999 0.053032 0.23522
0.022712 0.049798999 0.23515999
0.065779999 0.022101 0.22936
0.066838004 0.021453001 0.23030999
0.024023 0.049738001 0.23713
0.022794001 0.048817001 0.23627999
0.017175 0.053714 0.23820999
0.016344 0.055179 0.23908
0.016135 0.054724 0.24002001
0.066497996 0.020529 0.23226
0.067584999 0.020523001 0.23284
0.016486 0.052937001 0.2392
0.019433999 0.051743001 0.24147999
0.019811001 0.051081002 0.24101999
0.021249 0.050811 0.24303
0.071382001 0.016998 0.23477
0.069596 0.018335 0.23468
0.068069004 0.018359 0.23409
0.071153 0.016763 0.23452
0.072337002 0.016852001 0.23556
0.071915999 0.016015001 0.23627999
0.023308 0.049357001 0.24556001
0.072678998 0.016837999 0.24045999
0.072215997 0.015476 0.23897
0.070979998 0.016106 0.24242
0.068382002 0.018732 0.24304999
0.066763997 0.020057 0.25023001
0.064262003 0.019661 0.24814001
0.064484999 0.019540001 0.25007999
0.064401999 0.018719001 0.25055999
0.065224998 0.019091999 0.25060001
0.070795 0.016015001 0.25171
0.021194 0.048480999 0.25838
0.021996001 0.048434 0.25999999
0.071644999 0.016167 0.25317001
0.070799001 0.01464 0.25490999
0.020346001 0.049036 0.26460001
0.070500001 0.013826 0.25549999
0.070561998 0.015346 0.25733
0.068460003 0.015706001 0.25904
0.066450998 0.017155999 0.25865
0.065907001 0.017441999 0.25977001
0.066202 0.016817 0.25973001
0.020388 0.048884001 0.26745
0.069891997 0.01422 0.25984001
0.071681 0.014425 0.25979999
0.069366999 0.014003 0.25983
0.071010001 0.014572 0.26093
0.069427997 0.016453 0.26188001
0.071510002 0.013948 0.26203001
0.070772 0.013282 0.26267001
0.068052001 0.015637999 0.26344001
0.068912998 0.015454 0.26151001
0.068131998 0.016039001 0.26357001
0.071152002 0.014457 0.26666999
0.070924997 0.013954 0.26625001
0.019295 0.047798 0.27649
0.071323 0.014434 0.26934999
0.018824 0.048498999 0.27794999
0.017755 0.048074 0.27900001
0.016406 0.049327999 0.28025001
0.016936 0.048535001 0.27954999
0.071160004 0.012016 0.27092001
0.071501002 0.013727 0.27261001
0.069637999 0.01358 0.27326
0.069677003 0.014091 0.27539
0.017338 0.048877001 0.28200001
0.017685 0.048074 0.28367001
0.017875999 0.048960999 0.28286001
0.019122001 0.047566 0.28470001
0.070950001 0.013078 0.27814999
0.070891 0.013383 0.27608001
0.018998999 0.046652 0.28608
0.069711998 0.011862 0.27823001
0.066352002 0.014172 0.2798
0.065771997 0.015686 0.27866
0.019893 0.046410002 0.28709999
0.069494002 0.012583 0.27857
0.067061 0.013887 0.27976
0.06594 0.016542999 0.27954
0.020386999 0.046108998 0.28933001
0.065084003 0.015345 0.28292999
0.021829 0.045107 0.29120001
0.021576 0.044101998 0.29227
0.064608999 0.016587 0.28802001
0.064336002 0.016624 0.28957999
0.062909 0.016277 0.29115999
0.061884999 0.015624 0.2929
0.062461998 0.016697999 0.29347
0.061423 0.016373999 0.29372001
0.061423998 0.017638 0.29545999
0.025123 0.040803999 0.30243
0.023946 0.040736001 0.30291
0.024986999 0.040146001 0.30373001
0.059767 0.017423 0.30129999
0.025563 0.040321 0.30693999
0.059721 0.017136 0.30160001
0.060444999 0.015722999 0.30588999
0.062222 0.016318999 0.30732
0.023417 0.040801998 0.31329
0.022505 0.042378001 0.31283
0.062233001 0.015599 0.30805999
0.022495 0.041218001 0.31536999
0.062383998 0.014367 0.31086999
0.063966997 0.013386 0.31264001
0.065517999 0.011679 0.3127
0.066193998 0.011654 0.31422001
0.067133002 0.010689 0.31391001
0.020393001 0.041508 0.32122001
0.067202002 0.0096060997 0.31615001
0.067613997 0.010079 0.31744
0.066978 0.0096266 0.31834999
0.067587003 0.010445 0.31793001
0.067956001 0.0092334999 0.31979999
0.020854 0.041684002 0.32622999
0.021273 0.040996999 0.32894999
0.020765999 0.040222999 0.33285001
0.068056002 0.0078974999 0.33287999
0.067478001 0.0074284999 0.33361
0.022536 0.038547002 0.34211001
0.021393999 0.037946999 0.34406
0.068057001 0.0075090998 0.3371
0.053932 0.017889 0.33895999
0.056102999 0.015509 0.34006
0.055351 0.016495001 0.33982
0.068530001 0.0074012 0.33906999
0.052453 0.017681999 0.34042999
0.021074999 0.038405001 0.3452
0.056588002 0.014227 0.34209001
0.057682998 0.0145 0.34178999
0.021921 0.037289999 0.34797001
0.067602001 0.0069698002 0.34106001
0.068943001 0.0073634 0.34163001
0.070289001 0.0066126999 0.34202
0.057705998 0.013959 0.34281999
0.069771998 0.0067481999 0.34189001
0.050567999 0.018266 0.34389001
0.034132998 0.030208999 0.34803
0.034635998 0.028867001 0.34797999
0.033084001 0.029680001 0.34825999
0.050365999 0.018967001 0.34518999
0.036479 0.028696001 0.34924999
0.021783 0.037326001 0.35117999
0.069293 0.0059369998 0.34408
0.048549 0.019540999 0.34764001
0.022724999 0.036575001 0.35168001
0.032207999 0.030897999 0.34970999
0.069168001 0.0048417002 0.34507999
0.068595998 0.0062843999 0.34524
0.047166999 0.019866999 0.34924001
0.022651 0.036593001 0.35244
0.046953 0.020776 0.35095999
0.039834 0.025665 0.35137001
0.039074 0.025985001 0.3513
0.030941 0.030894 0.35098001
0.029813999 0.031033 0.35205001
0.040833998 0.024027999 0.35211
0.060798999 0.011188 0.34738001
0.045478001 0.021658 0.35077
0.041274 0.023653001 0.35299999
0.029085999 0.032866001 0.35479
0.044978999 0.021893 0.35192001
0.065416001 0.0072317999 0.34825
0.041701 0.023781 0.35326999
0.062831998 0.0093053998 0.34862
0.064501002 0.0094732 0.34939
0.045255002 0.020969 0.35541001
0.044445999 0.021461001 0.35381001
0.042334002 0.023057001 0.35536
0.041825999 0.022825999 0.35394999
0.027803 0.03207 0.35725001
0.044211999 0.021437 0.35576999
0.042087998 0.022104001 0.35690999
0.027259 0.032951999 0.35832
0.026908999 0.032393999 0.35861999
0.045513999 0.020251 0.35800001
0.025519 0.033932999 0.36093
0.043129999 0.022368999 0.35811999
0.045579001 0.020469001 0.35995001
0.046778001 0.020119 0.36072001
0.043225002 0.022249 0.36039001
0.043191999 0.020911001 0.36315
0.042498998 0.022101 0.36118001
0.025443001 0.033085 0.36477
0.019709 0.036040001 0.36660001
0.046700001 0.019157 0.36245999
0.026332 0.031599998 0.36570001
0.021973999 0.036056001 0.36943999
0.050856002 0.015698999 0.36528999
0.026965 0.031431001 0.36941001
0.02263 0.034267999 0.36930001
0.022829 0.033776999 0.36963001
0.042994 0.022368001 0.36759999
0.051212002 0.016325001 0.36693001
0.023910999 0.033388998 0.37132999
0.041306 0.021686999 0.36912
0.065434001 0.0055435998 0.36634001
0.065199003 0.0058611999 0.36655
0.052046001 0.014508 0.368
0.064026996 0.0063637001 0.36735001
0.064297996 0.0068603 0.36792001
0.031307999 0.028543999 0.37261
0.025358999 0.031585 0.37378001
0.025753999 0.032795001 0.37142
0.067382 0.0044884002 0.36739999
0.062647998 0.0083499998 0.36849001
0.054839998 0.013154 0.37063
0.02857 0.029061999 0.37316999
0.027104 0.030624 0.37436
0.026812 0.03114 0.3748
0.034081999 0.026745001 0.37278
0.026574001 0.031113001 0.37423
0.038821001 0.024232 0.37318999
0.035443999 0.025660999 0.37428001
0.066088997 0.0047427998 0.36989
0.066051997 0.0048158001 0.36930001
0.057976998 0.010137 0.37239999
0.033252001 0.026752001 0.37608001
0.051741 0.0147 0.3725
0.062141001 0.0072984998 0.37141001
0.062205002 0.0067745 0.37158
0.062270999 0.0085586002 0.37180999
0.035066001 0.026066 0.37695
0.042247001 0.021706 0.37507001
0.053785 0.01221 0.37323001
0.035985 0.024846001 0.37759
0.037863001 0.025403 0.37663001
0.034977999 0.026306 0.37799001
0.043230001 0.019075001 0.37647
0.050923999 0.014789 0.37547001
0.036076002 0.024669001 0.37828001
0.059962999 0.008711 0.37474
0.043531999 0.019960999 0.37784001
0.048338 0.015546 0.37681001
0.050303001 0.015954001 0.37670001
0.016449001 0.059629001 0.19013
0.016077001 0.059425 0.191
0.015742 0.060155001 0.19098
0.020417999 0.057960998 0.19333
0.075287998 0.019941 0.18652
0.011741 0.062252998 0.19667999
0.041644 0.044156 0.19288
0.040275998 0.044549 0.19238
0.041795 0.046530001 0.19343001
0.050680999 0.038362 0.19193
0.047123 0.040792 0.19220001
0.076462999 0.019854 0.18985
0.076898001 0.018228 0.19069
0.077514 0.018423 0.19272999
0.01098 0.062329002 0.20152
0.073129997 0.019802 0.2005
0.014823 0.058336001 0.2111
0.07384 0.017766999 0.20522
0.059783999 0.028199 0.20846
0.040757 0.041560002 0.21042
0.024654999 0.051647998 0.21411
0.071703002 0.020540001 0.20599
0.042557001 0.038524002 0.21128
0.020555999 0.055273 0.21461999
0.015424 0.058743998 0.21434
0.068415001 0.022961 0.20702
0.039482001 0.041792002 0.21106
0.038323 0.042420998 0.21185
0.025078001 0.051166002 0.21662
0.055853002 0.029704999 0.21267
0.055050999 0.031011 0.21430001
0.026813 0.050216999 0.2183
0.063998997 0.023965999 0.21312
0.066087998 0.023409 0.21325999
0.069296002 0.021555999 0.21343
0.062662996 0.025332 0.21465001
0.058231998 0.028976001 0.21616
0.035436001 0.044454001 0.22043
0.050182 0.033895999 0.21775
0.035760999 0.042920999 0.22208001
0.029596001 0.047798999 0.22337
0.049242001 0.034246001 0.2218
0.040477999 0.040755998 0.22259
0.037025999 0.041056 0.22378001
0.035514999 0.042004 0.22307
0.036169998 0.042679999 0.223
0.030189 0.046673 0.22522999
0.070961997 0.021321001 0.21985
0.067707002 0.02056 0.22233
0.029585 0.045853 0.22957
0.066965997 0.021891 0.22872999
0.066209003 0.021121001 0.22905999
0.02691 0.047667999 0.23540001
0.025664 0.048315998 0.23722
0.026423 0.048882999 0.23954
0.018417001 0.052983001 0.24102999
0.017285001 0.054295 0.24090999
0.016328 0.054281 0.2423
0.067363001 0.020338999 0.2344
0.021841999 0.051228002 0.24339999
0.072316997 0.016754 0.23736
0.065925002 0.020209 0.24463999
0.065844998 0.020184999 0.24549
0.064760998 0.020640001 0.2472
0.021869 0.048877001 0.25602999
0.067501001 0.017175 0.25760001
0.071030997 0.013806 0.25735
0.067313001 0.017182 0.25804999
0.065701 0.018766001 0.25882
0.068778001 0.015685 0.25988999
0.067111999 0.016578 0.26061001
0.070129 0.014992 0.25887001
0.067360997 0.016705001 0.26231
0.069706 0.014926 0.26365
0.070055999 0.015115 0.26214001
0.067584999 0.01637 0.26383001
0.070354998 0.01461 0.26355001
0.068706997 0.016869999 0.26396999
0.016760999 0.049499001 0.28101999
0.069977999 0.013487 0.2723
0.069539003 0.012771 0.27513
0.018448999 0.046905998 0.28503999
0.063096002 0.015435 0.29089999
0.02341 0.042879999 0.29752001
0.061485 0.01884 0.29653001
0.060546 0.017097 0.29729
0.060031999 0.017857 0.29828
0.023513 0.040382002 0.30473
0.024072001 0.041122001 0.31038001
0.024382001 0.041195001 0.31106001
0.062290002 0.014943 0.30983999
0.065416001 0.012852 0.31351
0.065173998 0.011878 0.31411001
0.065548003 0.010857 0.31474999
0.021408999 0.040941 0.32273
0.066505998 0.01072 0.3152
0.020598 0.042128999 0.32530001
0.022557 0.041065 0.32600001
0.067942999 0.010096 0.32141
0.068085998 0.0085242996 0.32637
0.06904 0.0082122004 0.32736
0.067814998 0.0083355 0.32857999
0.068395004 0.0073533002 0.32968
0.021903001 0.039308 0.33715001
0.022905 0.038035002 0.34259
0.055328999 0.016244 0.33899
0.058752 0.013276 0.34411001
0.059431002 0.013325 0.34501001
0.060439002 0.011684 0.34656
0.060075 0.012148 0.34588
0.067575 0.0068672998 0.34632999
0.022057001 0.037895001 0.35420999
0.039393 0.026272999 0.35156
0.066495001 0.0080118999 0.34810999
0.065127999 0.0077064 0.34788001
0.062336002 0.0095817996 0.34872001
0.022833001 0.036063999 0.35842001
0.022516999 0.036481999 0.35962999
0.021255 0.035817999 0.36206999
0.021663001 0.03599 0.36197999
0.021514 0.034986999 0.36267
0.020644 0.037257001 0.3642
0.025776001 0.033573002 0.36601001
0.025491999 0.033394001 0.36418
0.042884 0.021071 0.36353999
0.026126999 0.031812999 0.36798999
0.043033998 0.021844 0.36574
0.02734 0.032299001 0.36945999
0.042493001 0.020992 0.36697
0.023562999 0.033514 0.36963001
0.030629 0.02977 0.37176001
0.030711999 0.028475 0.37142
0.028587 0.029854 0.37439999
0.055516999 0.011657 0.37389001
0.037767999 0.02352 0.37619999
0.059264999 0.010311 0.37478
0.017809 0.058058999 0.18978
0.066991001 0.02595 0.18388
0.066463999 0.026533 0.18607999
0.071767002 0.023034999 0.18494
0.071056999 0.022752 0.18481
0.0134 0.061974999 0.19453
0.074294999 0.021670001 0.1859
0.033714999 0.051143002 0.19426
0.033402 0.051608998 0.19491
0.032494999 0.051008999 0.19451
0.030329 0.052836999 0.19483
0.062542997 0.031378001 0.19001999
0.061060999 0.031427 0.19056
0.075986996 0.019825 0.18894
0.010661 0.062461 0.19982
0.076977998 0.017859001 0.19580001
0.075479001 0.019665999 0.19695
0.075457998 0.020187 0.19885001
0.013617 0.059119001 0.21373001
0.020632001 0.053153001 0.21436
0.048232 0.036857001 0.20996
0.040642999 0.040130999 0.21074
0.046861 0.036812 0.21037
0.042686999 0.041296002 0.21134
0.057905 0.029749 0.20787001
0.056983002 0.030892 0.20968001
0.036222 0.045054 0.21270999
0.025517 0.049472999 0.21724001
0.051369999 0.034042001 0.21344
0.056724001 0.030517001 0.21234
0.035289001 0.044188999 0.21623001
0.034382999 0.045021001 0.21481
0.069983996 0.020977 0.21241
0.028139999 0.048703998 0.22022
0.029374 0.048811 0.22176
0.042084999 0.038603 0.22013
0.073632002 0.018781001 0.21572
0.073103003 0.018286999 0.21624
0.036819998 0.043409999 0.22371
0.047371 0.034336999 0.22160999
0.049106002 0.035696 0.22052
0.030941 0.047743 0.22797
0.067755997 0.021483 0.22490001
0.067350999 0.020819999 0.22471
0.017608 0.054118998 0.23514
0.026186001 0.049178999 0.23693
0.024662999 0.048824999 0.23886999
0.070226997 0.018046999 0.23321
0.068699002 0.019400001 0.23424999
0.022567 0.049743 0.24713001
0.023355 0.050634999 0.24680001
0.072310999 0.017841 0.24192999
0.072339997 0.016379001 0.24185
0.071514003 0.01616 0.25356999
0.072264999 0.014688 0.25413999
0.072200999 0.014853 0.25547001
0.066707 0.017793 0.26278999
0.066399001 0.017123999 0.26394999
0.070037 0.015527 0.26414001
0.070569001 0.014336 0.26449999
0.066495001 0.01729 0.26519001
0.01977 0.048057001 0.27296001
0.020466 0.048893001 0.27414
0.068131 0.015429 0.27901
0.065963 0.015512 0.27961001
0.020253001 0.046567 0.28810999
0.020578001 0.045561999 0.28837001
0.064860001 0.016756 0.28424001
0.064804003 0.015895 0.2859
0.022422001 0.044537999 0.29381999
0.025490999 0.041992001 0.30346
0.025257001 0.039882999 0.30504
0.025041001 0.041016001 0.30630001
0.060313001 0.016922001 0.30434999
0.05968 0.016776999 0.30239999
0.023621 0.041492 0.30926001
0.022053 0.041303001 0.31614
0.021307999 0.041168999 0.32111999
0.064602003 0.011108 0.31637001
0.067411996 0.011528 0.31663001
0.067296997 0.010744 0.3224
0.067593001 0.0098229004 0.32459
0.068287 0.0091281999 0.32688999
0.068968996 0.0095923999 0.32532999
0.068034999 0.0095972996 0.32872999
0.068531998 0.0081941998 0.33002999
0.068144999 0.0077506001 0.33147001
0.068264998 0.0087818 0.33052
0.022011001 0.039074998 0.34129
0.054141998 0.017744999 0.34004
0.020695999 0.038671002 0.3479
0.05906 0.012365 0.34215999
0.032049 0.03064 0.34994
0.021326 0.037397999 0.35350001
0.061544001 0.011098 0.34753001
0.068567 0.0068402002 0.34630001
0.065204002 0.0086594997 0.34845001
0.02579 0.032977998 0.35968
0.021839 0.036823001 0.36017999
0.020203 0.036653999 0.36120999
0.047256 0.020886 0.36017001
0.024682 0.033627 0.36285999
0.047641002 0.018292001 0.36443001
0.028093001 0.031822 0.37110999
0.051966 0.016315 0.36745
0.029386001 0.029937999 0.37079999
0.026025999 0.032648999 0.37096
0.066180997 0.0045852 0.36745
0.065713003 0.0065144999 0.36818999
0.034887999 0.025798 0.37334999
0.036834002 0.024367001 0.37413999
0.036212999 0.025672 0.37455001
0.031953 0.027790001 0.37531999
0.064585999 0.0066471002 0.37165999
0.033039 0.026573 0.37630001
0.041005999 0.046234999 0.19239999
0.010706 0.061983 0.20385
0.066365004 0.024731999 0.20811
0.066271998 0.024762001 0.20648
0.036692999 0.045044001 0.21194001
0.071608998 0.019861 0.20679
0.018385001 0.055048 0.21503
0.026938999 0.049986999 0.21898
0.059416 0.028318999 0.21494
0.039427999 0.041857999 0.2229
0.069580004 0.020816 0.22226
0.019578001 0.051690001 0.2427
0.067712002 0.019576 0.24969
0.068561003 0.019774999 0.25029001
0.022531001 0.049872 0.25663
0.022916 0.049467999 0.25889999
0.070569001 0.01688 0.25055
0.071819998 0.014442 0.25709
0.021183001 0.048436001 0.26567999
0.0176 0.049245998 0.28083
0.068968996 0.01445 0.27856001
0.021740001 0.044195 0.29227999
0.026613001 0.042079002 0.30482
0.063245997 0.013908 0.31233001
0.065530002 0.012526 0.31489
0.066418998 0.011177 0.31878999
0.066652 0.011859 0.31927001
0.066977002 0.0085928002 0.34090999
0.058207002 0.014406 0.34175
0.049975999 0.018416001 0.34647
0.069159001 0.0059604002 0.34439
0.061728001 0.012273 0.34676
0.063372999 0.010937 0.3475
0.025023 0.033675 0.36142999
0.021126 0.037121002 0.36513001
0.026378 0.033321001 0.36643001
0.05412 0.013451 0.36921999
0.040339999 0.022902999 0.37224999
0.056051001 0.012012 0.37185001
0.058602002 0.0098628998 0.37551999
0.017563 0.061476 0.19023
0.016814001 0.060534 0.19019
0.036973 0.046937998 0.19343001
0.030195 0.052960001 0.19543
0.029325999 0.053771999 0.19504
0.029030001 0.054726999 0.19531
0.069537997 0.029309001 0.18979
0.068071999 0.029240999 0.18847001
0.067111 0.030324001 0.18944
0.059716001 0.032600999 0.19069999
0.059469 0.033576999 0.19050001
0.056049 0.037755001 0.1913
0.054682001 0.037448999 0.19126
0.073778003 0.021073001 0.20017
0.064249001 0.026412001 0.20814
0.059494998 0.029177001 0.20848
0.04628 0.037751 0.20968001
0.044619001 0.038304001 0.21021
0.025021 0.051470999 0.21543001
0.026368 0.050705999 0.21732
0.066623002 0.025717 0.21348999
0.066195004 0.026113 0.21268
0.07491 0.019021999 0.2131
0.030117 0.046638001 0.23525
0.018944001 0.052880999 0.24247
0.017936001 0.053477999 0.24213
0.023852 0.050376002 0.24981
0.071861997 0.015509 0.25832
0.071236998 0.013929 0.26723
0.021776 0.04496 0.29372001
0.025192 0.041758001 0.30306
0.067276999 0.01085 0.32190999
0.053718001 0.018216999 0.34077001
0.052955002 0.017631 0.34266999
0.063263997 0.010439 0.34674999
0.047641002 0.02086 0.35014999
0.025572 0.036029998 0.35705999
0.024284 0.036541 0.35804999
0.023326 0.034605 0.35824001
0.021515001 0.037041001 0.35837999
0.021667 0.037163999 0.35914999
0.02531 0.034669999 0.35910001
0.023861 0.036364999 0.36039001
0.026365999 0.034584999 0.35778001
0.023965999 0.03517 0.36155999
0.024579 0.035197999 0.36285001
0.020591 0.037393 0.36386001
0.025334001 0.034159001 0.37009999
0.050825998 0.01556 0.37196001
0.020422 0.057007998 0.19148999
0.072407 0.024773 0.18556
0.072108999 0.025026999 0.18448
0.022061 0.057048999 0.19564
0.050414 0.039097998 0.19124
0.053320002 0.040259 0.19215
0.051925998 0.038957 0.19179
0.052138001 0.04016 0.19123
0.077065997 0.019839 0.18844
0.012165 0.063718997 0.20378999
0.010942 0.064020999 0.20226
0.011317 0.062995002 0.20426001
0.078129001 0.019423001 0.19392
0.012459 0.062068999 0.20668
0.076234996 0.020498 0.19745
0.074510001 0.021033 0.20003
0.075772002 0.020483 0.19944
0.015819 0.059544999 0.21089999
0.014848 0.060350999 0.21344
0.075034 0.018447001 0.20495
0.022245999 0.053899001 0.21303999
0.064516999 0.024917999 0.20689
0.067841999 0.023700001 0.20723
0.058600999 0.029821999 0.20953
0.025013 0.052634999 0.21421
0.017114 0.056538999 0.21574
0.070579 0.021852 0.20732
0.056997001 0.031029999 0.21119
0.072952002 0.021109 0.21279
0.070781 0.021822 0.21340001
0.063536003 0.027613999 0.2145
0.028024999 0.05029 0.21973
0.050629001 0.033783998 0.21757001
0.029943001 0.049543001 0.2211
0.043985002 0.038869999 0.22054
0.073917001 0.018549999 0.21725
0.044456001 0.038585 0.22014999
0.044516001 0.039292999 0.22084001
0.042851999 0.039484002 0.2221
0.051132001 0.035330001 0.22225
0.072577998 0.019567 0.21815
0.073380999 0.020056 0.21825001
0.038129002 0.041682001 0.22265001
0.030741001 0.048099998 0.22539
0.047635999 0.036552001 0.22202
0.020190001 0.052203 0.23537
0.017721999 0.054880001 0.23503999
0.02888 0.047947001 0.23469
0.022717999 0.051406998 0.23639999
0.067906998 0.021993 0.23058
0.068066999 0.022505 0.22993
0.024227001 0.050691001 0.23751999
0.067391001 0.021447999 0.23122001
0.069963001 0.022151999 0.23261
0.071167998 0.018164 0.23401
0.016643001 0.054147001 0.24240001
0.071514003 0.017328 0.23553
0.074759997 0.016995 0.24014001
0.073942997 0.016426999 0.23901001
0.073941 0.015694 0.24065
0.022975 0.050088 0.25251001
0.021475 0.050083999 0.26741001
0.021965999 0.049734998 0.26749
0.071171999 0.015553 0.26241001
0.020819001 0.048808999 0.27531999
0.071863003 0.014609 0.26999
0.019504 0.048000999 0.28626001
0.070794001 0.013822 0.27772999
0.023483001 0.045460999 0.29416999
0.062461998 0.017736999 0.29394999
0.06182 0.016801 0.3075
0.064332001 0.013425 0.31290999
0.020667 0.042925999 0.32168001
0.064594001 0.012592 0.31595999
0.021209 0.042815 0.32420999
0.021836 0.043044999 0.32569
0.067244001 0.010918 0.32117999
0.020071 0.041437 0.33249
0.019794 0.042254999 0.33197999
0.021097001 0.041306 0.33535999
0.067605004 0.0074872999 0.33901
0.057062998 0.014613 0.34101999
0.057900999 0.015014 0.34153
0.069394998 0.0075186999 0.34347001
0.022755001 0.038883999 0.34966999
0.050829001 0.019073 0.34650999
0.050165001 0.019545 0.34812999
0.050227001 0.02028 0.34739
0.037186999 0.028805999 0.34972
0.045492999 0.021832 0.35170999
0.024553001 0.035840999 0.35427001
0.023344999 0.036697999 0.35587999
0.063902996 0.0093067996 0.34897
0.024803 0.036042001 0.35494
0.026110999 0.035333 0.35611999
0.025908999 0.034970999 0.35529
0.02145 0.037092999 0.35596001
0.027507 0.033696 0.35657999
0.025264001 0.034706 0.35867
0.020562001 0.038061999 0.36232999
0.025249001 0.035301998 0.36410001
0.042975001 0.023460001 0.36223999
0.026095999 0.034802999 0.36678001
0.02641 0.033643 0.36877
0.025448 0.033534002 0.37007001
0.024986999 0.034876 0.36934
0.026626 0.032388002 0.37125
0.029399 0.030747 0.37173
0.030901 0.030037001 0.37277001
0.026662 0.032460999 0.37202001
0.066432998 0.0061146002 0.36963001
0.061806999 0.0089266002 0.36987999
0.052227002 0.015328 0.37211999
0.036242999 0.025365001 0.37461999
0.052730002 0.014185 0.37235999
0.061698001 0.0098714 0.37292001
0.062374 0.0097008999 0.37200999
0.049470998 0.018568 0.37761
0.045575 0.018607 0.37808999
0.01905 0.060012002 0.18966
0.013787 0.063634999 0.19146
0.021111 0.059501 0.19158
0.070657998 0.025814001 0.18357
0.014481 0.062904999 0.19482
0.014674 0.062611997 0.19325
0.074187003 0.023406001 0.18546
0.067628004 0.026528999 0.18545
0.02197 0.058015 0.1952
0.077371001 0.020547001 0.18741
0.076217003 0.021732001 0.18643001
0.045639001 0.041475002 0.19239999
0.047788002 0.041414998 0.19287001
0.047747001 0.041457001 0.19224
0.036835 0.049120001 0.19377001
0.053987 0.038396001 0.19101
0.011812 0.064524002 0.20028
0.011305 0.061926998 0.20553
0.077505998 0.020236 0.19583
0.014294 0.061957002 0.20748
0.014787 0.060936999 0.20878001
0.074639998 0.021392999 0.20142999
0.062545002 0.027412999 0.20709001
0.035133 0.046367999 0.21219
0.03796 0.044985 0.2121
0.024955001 0.052909002 0.21422
0.035078999 0.045570999 0.21471
0.025161 0.051073998 0.21685
0.034664001 0.045761999 0.21586999
0.056896001 0.030763 0.2141
0.058063 0.030369001 0.21387
0.069642998 0.023492999 0.21382999
0.068134002 0.024628 0.21297
0.060279999 0.029663 0.21596999
0.046218 0.036657002 0.21844
0.028847 0.050588999 0.22086
0.044822998 0.038662001 0.21901999
0.051311001 0.034401 0.22065
0.031060999 0.049361002 0.22473
