# .PCD v0.7 - Point Cloud Data file format
VERSION 0.7
FIELDS x y z
SIZE 4 4 4
TYPE F F F
COUNT 1 1 1
WIDTH 1571
HEIGHT 1
VIEWPOINT 0 0 0 1 0 0 0
POINTS 1571
DATA ascii
-0.002539 0.044897001 0.10588
-0.0033249999 0.045166999 0.1052
-0.022694999 0.10434 0.12194
-0.023187 0.10329 0.1208
-0.0062366999 -0.00018119 0.1063
0.020225 0.068007998 0.13184001
0.021118 0.067233004 0.13208
0.021098001 0.068494 0.13207
-0.0075526 0.13102999 0.11269
0.018538 0.061280001 0.11502
0.018108999 0.060479999 0.11507
0.018684 0.061634999 0.11376
0.058683001 0.13478 0.092828996
0.058952 0.13405 0.093202002
0.016053 0.10262 0.091366
0.017022001 0.10186 0.090683997
0.034871999 0.072040997 0.12645
-0.002819 0.13563 0.10036
-0.002627 0.1356 0.099270001
-0.0034783999 0.13491 0.099398002
0.0046405001 0.12271 0.060846999
-0.011452 0.057126001 0.12495
-0.012175 0.055732001 0.124
-0.011657 0.055534001 0.12486
-0.010746 0.062261999 0.12508
-0.010298 0.063233003 0.12527999
0.054770999 0.10978 0.095031001
0.054173999 0.11012 0.093974002
0.054545999 0.11071 0.094013996
-0.050804 0.12599 0.069799997
-0.052420001 0.12699001 0.069948003
-0.051491 0.12649 0.06921
0.0036613001 0.072166003 0.12908
0.0039426 0.070896998 0.12974
0.0041676001 0.072068997 0.12925
0.022009 0.086314999 0.13675
0.020873999 0.085290998 0.13732
-0.052772 0.11052 0.076972
-0.053061001 0.11009 0.077068999
0.0046688998 0.092202999 0.096095003
0.0033718001 0.093176 0.095752999
0.0042588999 0.093117997 0.095279001
0.018982001 0.13462 0.14099
0.019571001 0.13530999 0.14011
0.018378001 0.13529 0.14045
-0.0067791999 0.12828 0.102
0.059700999 0.11546 0.090865999
0.060327999 0.11602 0.090971
0.060589999 0.11644 0.092225
0.015705001 0.13759001 0.082471997
0.046165999 0.019285001 0.11803
-0.025056001 0.11032 0.12046
-0.025439 0.11144 0.11971
0.02909 0.054411002 0.13018
0.029129 0.053303 0.13101
0.028059 0.052754998 0.13112999
0.055534001 0.062228002 0.11168
0.055578999 0.062817 0.11073
0.055114999 0.062684 0.11238
-0.0048264 0.1129 0.14019001
-0.0056834999 0.11397 0.13925
-0.0055728001 0.11278 0.13944
0.0019268 0.10641 0.094056003
0.0029813999 0.10656 0.094048999
-0.0069367001 0.14906 0.086493
-0.0066084 0.14957 0.086815
-0.0064043999 0.14969 0.087275997
-0.048007999 0.1319 0.077565998
-0.048401002 0.13229001 0.077317998
-0.0092334999 0.013401 0.12036
-0.0086922003 0.012595 0.1198
0.0060781999 0.093410999 0.13941
0.0048938999 0.094178997 0.13985001
0.063864999 0.12352 0.094674997
0.045504998 0.049329001 0.11461
0.039586 0.12736 0.127
0.039384 0.12803 0.12716
-0.0047791 0.015644999 0.10891
-0.0049493001 0.016426001 0.10865
0.059491001 0.11639 0.10185
0.059020001 0.1156 0.101
0.042544998 0.060897999 0.12143
0.013033 0.14619 0.11107
0.013626 0.1459 0.11188
-0.022434 0.10063 0.10364
-0.022299999 0.10015 0.104
0.043037001 0.11712 0.12079
0.042892002 0.058603 0.12025
0.041802 0.057980999 0.12025
0.055659 0.11919 0.077122003
0.056263 0.1186 0.077338003
0.016588001 0.14586 0.092276998
0.016788 0.14480001 0.092578001
0.018051 0.14482 0.092107996
0.014445 0.14561 0.11434
-0.0093930997 0.040736999 0.10454
-0.0081254002 0.039792001 0.1047
-0.0095745996 0.039753001 0.10453
0.013888 0.11642 0.086815998
0.013023 0.1156 0.086765997
0.038950998 0.051075999 0.099297002
0.038065001 0.051732998 0.10039
-0.0018659 0.11124 0.097829998
0.055333 0.13721 0.090471998
0.057622001 0.1532 0.067535996
0.014627 0.13302 0.080034003
0.013727 0.13369 0.080369003
0.015209 0.13291 0.080830999
-0.035326 0.10185 0.098628998
-0.034419 0.10157 0.099455997
-0.035301998 0.10186 0.099627003
-0.0033553999 0.05632 0.13006
-0.004226 0.055987999 0.12978999
0.013129 0.061517 0.10908
-0.0064395 0.11909 0.098715998
-0.011519 0.04755 0.10466
0.063795999 0.11821 0.083301
0.065164 0.11913 0.082851
0.064701997 0.11848 0.083618
0.0096333995 0.079264 0.13399
0.0090798996 0.080332004 0.13421001
0.0084961997 0.080075003 0.13366
0.054798 0.12088 0.075744003
0.054954998 0.12008 0.076067001
0.060936999 0.029533001 0.1089
0.060492001 0.028301001 0.10889
0.059999999 0.02843 0.10771
-0.0028408 0.14685 0.090602003
0.025711 0.064006999 0.1042
0.025885001 0.064634003 0.10373
-0.014293 0.028948 0.10924
-0.014543 0.029145001 0.10992
0.0024287 0.01492 0.10985
0.0031059 0.014488 0.10985
0.0065485002 0.055330001 0.10769
0.0067352001 0.05655 0.10734
0.065996997 0.14268 0.073776998
0.066129997 0.14297 0.073136002
0.067783996 0.13025001 0.093194
0.067837 0.13147999 0.093268998
-0.0070520998 0.15081 0.090637997
-0.0073799998 0.15090001 0.089850999
-0.016682999 0.099105 0.10823
-0.016364001 0.098805003 0.10924
0.0085632997 0.14266001 0.093304999
0.031481002 0.13548 0.11328
0.031474002 0.13621999 0.11398
0.031785 0.13564999 0.11421
0.00076637999 0.14427 0.10549
0.0015761 0.14438 0.10462
-0.0090487003 0.099573001 0.10659
-0.0086623002 0.099009998 0.10558
-0.0086177001 0.098932996 0.10662
-0.013515 0.14363 0.091030002
0.0047257999 -0.00053152 0.11441
0.054147001 0.059176002 0.095220998
0.053778999 0.060401998 0.095266998
0.0060604 0.086933002 0.1331
0.0062396 0.088584997 0.13323
0.0055469 0.088440001 0.13211
-0.011852 0.12011 0.12921
-0.012182 0.12026 0.12835
0.029151 0.062114 0.12463
0.028175 0.060570002 0.12489
0.027757 0.061313 0.12378
0.041956 0.060346 0.093688004
0.040994 0.061023001 0.093989998
0.041641999 0.061636001 0.094058998
0.051757 0.046941001 0.090981998
0.050615001 0.047851 0.091504999
0.065226004 0.1201 0.080930002
0.065512002 0.12114 0.080734
0.065776996 0.12074 0.081537001
0.0018575001 0.11444 0.094980001
0.0015247 0.11595 0.093811996
0.0022307001 0.11512 0.094163999
0.067758001 0.13659 0.088917002
0.067603998 0.13703001 0.089395002
-0.0025722 0.090869002 0.12192
-0.0020218 0.090609998 0.12215
0.0066220998 0.1142 0.090772003
0.0067717 0.11366 0.091315001
0.0058670002 0.11422 0.090636998
0.045825001 0.040656 0.097447
0.045699999 0.039519999 0.097314
0.044794001 0.039411001 0.098007001
0.015344 0.15029 0.088206001
0.014441 0.14985 0.087269999
0.014922 0.14945 0.088725001
0.060315002 0.039925002 0.10989
0.059762999 0.040578999 0.11017
0.059245002 0.040918998 0.11129
0.022011001 0.096660003 0.13948999
0.010302 0.079245001 0.13443001
0.012501 0.099963002 0.094351999
0.051764 0.0074115 0.10763
-0.037664 0.10205 0.094145
-0.037170999 0.10194 0.094997004
-0.037431002 0.10176 0.095381998
-0.019130001 0.11826 0.11284
-0.019373 0.11806 0.11433
-0.018224999 0.11827 0.11407
-0.0013831001 0.13931 0.098168001
0.011858 0.064753003 0.10544
-0.034761 0.12273 0.091109999
-0.034407999 0.12205 0.090722002
-0.015166 -0.00068240002 0.10339
-0.014899 -0.0011012 0.10427
0.01041 0.13837001 0.13607
0.0091399997 0.13811 0.13589001
0.020492001 0.080678001 0.097654998
0.0217 0.080707997 0.098112002
0.021268999 0.080417 0.097811997
0.034848001 0.086517997 0.13033
0.033410002 0.087311998 0.13161001
-0.012204 0.021206001 0.1191
-0.011551 0.020127 0.11981
0.050117999 0.063781001 0.095040001
0.050445002 0.062619999 0.094387002
-0.0016705 0.1288 0.078844003
-0.0020146 0.12874 0.079668999
0.010449 0.10027 0.14356001
0.017047999 0.14094 0.10147
0.01684 0.14208999 0.10176
0.030665999 0.057911001 0.13101999
0.030962 0.057909999 0.13224
-0.0038407999 0.12784 0.084266998
-0.0033593001 0.12768 0.083406001
0.021667 0.14594001 0.089699998
0.022253999 0.14582001 0.089373
0.037572 0.13297001 0.11994
-0.011592 0.0044816001 0.10062
-0.012429 0.0040540001 0.099753
0.0026634999 0.11567 0.075947002
0.0015447 0.11639 0.075978003
0.0021553 0.11636 0.075727001
0.022087 0.14921001 0.089031003
0.021402 0.14929 0.089486003
-0.0055908002 0.11161 0.13932
0.037772 0.11528 0.13619
0.038065001 0.052801002 0.11465
0.039250001 0.052271999 0.11513
0.019414 0.14346001 0.10372
0.018251 0.14382 0.10394
-0.01019 0.0068942001 0.1045
0.036439002 0.093910001 0.10938
0.036881998 0.095395997 0.10917
-0.0013866 0.14149 0.11145
-0.0019612999 0.14081 0.11035
0.030889001 0.041423 0.15415999
0.030995 0.041035999 0.15515
0.029972 0.041023001 0.1543
0.042188 0.099270999 0.12026
0.042342 0.099087998 0.11928
-0.0024111001 0.031246999 0.12566
0.049005002 0.060343999 0.092653997
0.049201999 0.059230998 0.092515998
-0.0096393004 0.10517 0.12988999
-0.0096762003 0.10626 0.13011
-0.010287 0.10519 0.12891001
0.021292999 0.14217 0.089708999
0.021314999 0.14094 0.089272998
0.033459 0.10526 0.13839
0.034467999 0.10654 0.13784
0.033670999 0.10626 0.1389
0.01835 0.14443 0.086227
0.018068001 0.1435 0.086713001
0.0013651 0.077826001 0.12630001
0.00074981002 0.078206003 0.12526999
0.053907 0.013351 0.088578999
0.054389 0.012483 0.089478999
0.061884999 0.14135 0.084367
0.058352999 0.035034001 0.11589
-0.0066104 0.014338 0.12356
-0.0062731002 0.013305 0.12296
0.037101999 0.13039 0.10693
0.023646999 0.15821999 0.084073
0.022600999 0.15825 0.084003001
-0.019129001 0.0017367 0.10906
-0.020262999 0.0026081 0.10985
-0.019438 0.0025526001 0.10976
0.071528003 0.12806 0.085928999
0.071635999 0.12913001 0.086332001
0.071038999 0.12905 0.087305002
0.015305 0.064005002 0.10414
-0.056827001 0.11369 0.078147002
-0.056492001 0.11471 0.079329997
-0.056830999 0.11477 0.078165002
0.022535 0.057534002 0.13413
0.022287 0.058802001 0.13406999
0.053415 0.063474 0.097534001
0.02654 0.070818 0.10034
0.026094999 0.071866997 0.10081
0.051651001 0.10971 0.092113003
0.052618001 0.11014 0.092324004
0.0070308 0.05319 0.10862
0.042240001 0.10837 0.096316002
0.043072999 0.10865 0.095546998
0.043241002 0.10832 0.096150003
-0.037834998 0.11575 0.1089
-0.038121998 0.11672 0.10845
-0.017609 0.0045816 0.1127
-0.017702 0.0040946002 0.1115
-0.017978 0.0042003002 0.11225
-0.016302999 0.053061001 0.11094
-0.016323 0.052801002 0.11185
-0.016511001 0.053142998 0.11243
0.0037493999 0.0079840003 0.11141
0.0038252999 0.0091385003 0.11221
0.025420999 0.061383002 0.11397
-0.051757999 0.1101 0.092003003
0.057953 0.03393 0.11708
0.058541998 0.033259001 0.11622
0.056543998 0.061668001 0.10915
0.056076001 0.062537 0.10917
0.049341999 0.042112 0.11592
0.018947 0.061094001 0.11874
0.019440999 0.061647002 0.11838
0.025555 0.068899997 0.10123
0.025105 0.070321001 0.10123
0.062524997 0.13347 0.069557004
0.063440003 0.13337 0.069265999
-0.048808999 0.10814 0.10341
-0.048464 0.10919 0.10431
0.059767 0.016962999 0.10454
-0.037512999 0.1212 0.10427
-0.036369 0.12173 0.10283
-0.037064001 0.12154 0.10287
0.03269 0.096164003 0.13508999
0.032832999 0.097171001 0.13574
0.031810999 0.096084997 0.13529
0.054719001 0.11037 0.10194
0.054983001 0.11062 0.10235
0.0058331001 0.11135 0.14593001
-0.055084001 0.11775 0.085330002
0.0012267 0.037113 0.11898
0.0016723 0.0359 0.12002
0.0018613 0.036449999 0.11907
0.013702 0.14177001 0.082782999
-0.013927 0.10187 0.12347
-0.014805 0.10199 0.12335
0.0073961001 0.11715 0.065534003
0.0069996002 0.11784 0.064658999
-0.029903 0.10472 0.096527003
0.018781999 0.1514 0.089520998
0.019987 0.15165 0.089267999
0.048397001 0.054219998 0.091725998
0.049727 0.054333001 0.092036001
-0.023147 0.11165 0.12163
-0.023035999 0.11079 0.12194
-0.02231 0.11117 0.12216
-0.0080151996 0.097905003 0.10496
-0.0079289004 0.098241001 0.10403
0.054407999 0.14621 0.079412997
0.019815 0.12054 0.092725001
0.010992 0.11815 0.066072002
0.010921 0.11821 0.065117002
0.011192 0.11869 0.06583
-0.0031228 0.094414003 0.10026
-0.0032019999 0.093884997 0.10108
-0.0041752001 0.094719 0.10072
0.035431001 0.10342 0.13587999
-0.013696 0.11575 0.12205
-0.00066602998 0.017727001 0.10741
-0.00074654998 0.018669 0.10733
0.040320002 0.12609001 0.12575001
0.027253 0.13471 0.13749
0.028484 0.13465001 0.13696
0.054708 0.051343001 0.093546003
0.055298999 0.051697999 0.094108
0.043474 0.12377 0.096534997
0.044473 0.12394 0.096715003
0.044472001 0.12345 0.09595
0.017529 0.13936 0.097347997
0.017224999 0.13964 0.098607004
0.016037 0.14358 0.080645002
0.015951 0.1446 0.080882996
0.038155999 0.098159 0.13084
0.037849002 0.097430997 0.13072
0.038199998 0.097769998 0.13029
-0.014713 0.1199 0.10968
-0.013915 0.12112 0.10968
-0.013933 0.12016 0.10851
-0.0032273 0.090792 0.11074
-0.0044861999 0.091416001 0.11107
0.066352002 0.13759001 0.077330001
0.013574 0.1285 0.1437
0.013261 0.12980001 0.14379001
0.012017 0.14071 0.087263003
0.010647 0.14 0.087270997
0.010493 0.1406 0.087787002
0.034871999 0.073334001 0.12601
0.035990998 0.072942004 0.12605
0.068727002 0.13444 0.090563998
0.068590999 0.13386001 0.091504999
-0.0142 0.0065639 0.11355
-0.01322 0.0071820002 0.11346
0.0151 0.12103 0.073807999
0.015258 0.12234 0.075323999
0.015231 0.12113 0.074986003
0.061446998 0.13697 0.090678997
0.061503999 0.13616 0.091187999
0.038596999 0.095803998 0.11386
0.039253 0.097373001 0.11383
0.038791001 0.096534997 0.11494
0.037780002 0.10148 0.10399
-0.017914999 0.10171 0.10333
-0.017735999 0.10103 0.10392
-0.018694 0.10099 0.10413
0.016215 0.093226999 0.13925999
-0.0028415001 0.12273 0.094293997
0.020672999 0.14300001 0.090686001
0.019769 0.14267001 0.091067001
0.037772998 0.093131997 0.11509
0.0067048999 0.025929 0.11056
0.0064710998 0.026017999 0.10992
-0.013585 0.0068939002 0.10757
-0.013073 0.0072070998 0.10724
0.047676999 0.00978 0.10318
0.047504 0.0094811004 0.10306
0.047430001 0.0089237997 0.10389
-0.0042212 0.13901 0.095948003
0.041611001 0.099721 0.12294
0.041537002 0.098587997 0.12381
0.060795002 0.14835 0.079309002
0.041104998 0.10274 0.12688001
0.040506002 0.038901001 0.10587
0.040169999 0.038194999 0.10562
0.0011519 0.11831 0.092009999
0.024859 0.14106999 0.12942
0.032210998 0.050735001 0.14541
0.032426 0.049456 0.14548001
0.032295 0.049624 0.14403
0.026178 0.14150999 0.12394
0.02626 0.14139 0.12457
0.027969999 0.060187999 0.11422
0.0042697 0.022626 0.10861
0.052455001 0.0098077999 0.089662999
0.051185999 0.0099063003 0.090062
0.051266 0.010276 0.088895001
0.010267 0.11579 0.073170997
0.01118 0.11579 0.074129999
0.0015693 0.14349 0.11468
0.0028752 0.14399 0.11545
0.036990002 0.12015 0.096701004
0.036823999 0.12025 0.096979
0.023737 0.11776 0.093355998
0.032437999 0.13405 0.13184001
0.032012999 0.13455001 0.13194001
0.017419999 0.058832999 0.11716
0.033512 0.099458002 0.097461
0.010598 0.051651999 0.11343
0.010708 0.050581999 0.11354
0.0064542 0.00080361997 0.11407
0.0066140001 0.0011258 0.11453
0.0076946001 0.13355 0.079130001
0.0068040001 0.13337 0.079255998
0.045864999 0.049321 0.093877003
0.047022 0.050117001 0.092950001
0.053091999 0.058201 0.094104998
0.05249 0.057268001 0.093181998
0.051639002 0.058019001 0.093093
-0.004214 0.10769 0.096221998
-0.003518 0.13829 0.095689997
-0.050057001 0.12568 0.072737999
-0.04958 0.12653001 0.074423
0.042130999 0.037349001 0.1015
0.058318999 0.032710999 0.10132
0.057824001 0.032540001 0.10076
0.057638001 0.033526 0.10049
-0.021710999 -0.0022058999 0.11094
-0.020595999 -0.0022215999 0.11063
0.019694 0.15233999 0.088976003
0.0015014 0.085831001 0.12709001
0.0010930001 0.086001001 0.12560999
0.012947 0.081836998 0.13558
0.011988 0.082387 0.13541999
0.011672 0.081725001 0.13512
0.015299 0.12976 0.079764999
0.015149 0.12966999 0.080746002
0.015075 0.12879001 0.079162002
0.029244 0.060456999 0.11851
0.014192 0.13094001 0.077160999
0.01445 0.13074 0.078382999
0.014382 0.13004 0.077279001
0.054726999 0.02043 0.12074
0.055651002 0.020594999 0.12046
0.054708999 0.021492001 0.12106
-0.014635 -0.00062980998 0.094968997
0.01086 0.13754 0.13819
-0.0086594997 0.098214999 0.10751
-0.0073632998 0.0093978997 0.10993
0.0058537 0.048914999 0.11076
-0.0099042999 -0.0012193 0.11197
-0.010017 -0.00087261002 0.11061
0.053126998 0.15423 0.063114002
0.053506002 0.15413 0.063587002
0.024630001 0.13885 0.10199
0.061652001 0.012736 0.096043997
0.043519001 0.1079 0.11497
0.043109 0.10718 0.11472
0.012722 0.14358 0.088413
0.045779999 0.067266002 0.095665999
0.012339 0.14590999 0.11738
0.013363 0.14612 0.117
0.030579999 0.062329002 0.1219
0.031191999 0.062068 0.1218
0.041703999 0.12477 0.10062
0.040325999 0.12449 0.099687003
-0.018849 -0.00034698 0.10669
0.045310002 0.019556001 0.11647
0.045412999 0.018342 0.11603
-0.0011724 0.12754001 0.13838001
0.0039202999 0.054892998 0.13011
0.0027333 0.055636998 0.13095
0.0019329 0.091298997 0.13119
0.0088547003 0.14325 0.12747
0.0089437999 0.14295 0.12805
0.0097270003 0.14335001 0.1283
-0.0056882999 0.067028001 0.12714
-0.0056803999 0.025951 0.1063
0.0087163001 0.082979001 0.10132
-0.024419 0.11763 0.11281
-0.025317 0.11714 0.11314
-0.02416 0.1174 0.11426
0.057165999 0.057266001 0.10665
0.057355002 0.056324001 0.10647
0.057363998 0.057294 0.10601
-0.010292 0.014711 0.11589
-0.010744 0.016274 0.11479
0.020028001 0.069136001 0.13209
0.024282999 0.073569 0.13248
0.025025001 0.074744001 0.13281
0.063115999 0.12143 0.093377002
0.062052999 0.12002 0.094098002
0.029402001 0.079487003 0.13305999
0.00075285003 0.069716997 0.1074
0.00060193002 0.070798002 0.10793
-0.0044685998 0.13335 0.12560999
0.067349002 0.010962 0.096997999
0.044808 0.027969999 0.10182
0.045212001 0.027045 0.10209
0.030789999 0.095968001 0.13555001
0.046851002 0.010257 0.12054
0.047017001 0.011152 0.12038
0.048312001 0.051107999 0.092638999
0.049176998 0.050912999 0.092722997
0.047973 0.050847001 0.092712998
0.056047998 0.12003 0.076286003
0.057845 0.11929 0.076407999
0.056708999 0.11919 0.076626003
-0.028476 0.11754 0.097131997
-0.027634 0.11629 0.09685
0.0049874 0.14438 0.12201
0.020762 0.1091 0.090798996
0.021919999 0.10953 0.091149002
-0.049849998 0.12375 0.092790999
-0.049605001 0.12371 0.091981001
-0.0062886998 0.12375 0.13586
-0.052884001 0.11796 0.07164
-0.054423001 0.11829 0.071183003
-0.053204 0.11794 0.070726998
0.04984 0.053518999 0.091985002
-0.048735 0.10681 0.10322
0.041055001 0.068452001 0.096147001
-0.0014484 0.13426 0.082546003
0.046025001 0.061236002 0.12063
0.047253001 0.061214998 0.12048
0.045752 0.062436 0.12107
-0.0021799 0.13946 0.1049
-0.0013254 0.13942 0.10474
-0.0011447 0.13842 0.1048
0.017286001 0.061764002 0.12368
0.0219 0.060176 0.13327
0.022217 0.060630001 0.13289
0.040075999 0.12808999 0.12582
-0.0077065001 0.1184 0.13555001
-0.0080461996 0.11777 0.13561
-0.011195 0.062985003 0.11224
-0.011526 0.062112998 0.11211
0.023626 0.11612 0.14580999
0.050218001 0.0059301001 0.11599
0.041205999 0.062812001 0.12214
0.035549998 0.052745 0.11026
0.035456002 0.053498998 0.11011
0.020225 0.067082003 0.13150001
0.034910999 0.11685 0.13962001
0.042016 0.040502001 0.11155
0.042314 0.039292999 0.11278
0.042415999 0.040491998 0.11222
0.018076001 0.11512 0.14643
0.018431 0.11377 0.14658999
0.0036619001 0.14397 0.12011
0.0039126002 0.14395 0.12113
-0.029607 0.099510998 0.1089
-0.029608 0.099529997 0.10775
-0.028271001 0.099758998 0.10872
0.067185 0.12751 0.076237999
0.014584 0.1196 0.083277002
-0.052508999 0.11225 0.090476997
-0.052308001 0.11155 0.091192
-0.052533001 0.11255 0.091234997
-0.054694001 0.12659 0.082341
0.0030050999 0.079153001 0.12739
0.043823998 0.12498 0.098912001
0.043694001 0.12488 0.098371997
0.042247001 0.12417 0.098843999
-0.0047561 0.13521001 0.089996003
-0.0052242 0.13545001 0.091279
-0.0054953001 0.13567001 0.090626001
-0.026704 0.099794 0.10455
0.055121001 0.018128 0.10292
0.05418 0.018677 0.10391
0.055206999 0.01864 0.10418
-0.0093999999 0.10117 0.12606999
0.066930003 0.13008 0.094483003
0.067598999 0.12898 0.093487002
-0.039613999 0.10193 0.1006
-0.04008 0.1021 0.10074
-0.040088002 0.10196 0.099330001
0.041554 0.10619 0.12812001
-0.0061913002 0.11997 0.13655999
-0.0053130998 0.12023 0.13739
-0.022961 0.1175 0.11379
-0.022740999 0.11779 0.11485
-0.021708 0.1177 0.11415
0.054648999 0.12117 0.10541
0.050395001 0.11903 0.081212997
0.050941002 0.11929 0.080568999
0.030025 0.072672002 0.12964
0.030555001 0.072748996 0.12948
-0.0013261 0.12499 0.080443002
0.068497002 0.13642 0.080464996
0.068024002 0.1364 0.078886002
0.0070536002 0.11102 0.077014998
0.0071219001 0.11066 0.076853
0.033861 0.056511998 0.10162
0.061282001 0.14174999 0.083544001
0.061815999 0.14151999 0.083315998
0.051794 0.024653001 0.12097
0.051858 0.023523999 0.1211
0.052847002 0.02485 0.12079
0.056956001 0.048884001 0.096919999
0.056991 0.047768999 0.096640997
0.00016893 0.092510998 0.097984999
0.00019970001 0.093171 0.097386003
0.052368999 0.058685001 0.093808003
-0.011833 0.12108 0.12935001
-0.011732 0.12117 0.12854999
-0.0063751 0.068905003 0.12322
-0.0052533001 0.069291003 0.12308
0.033160999 0.056214001 0.10767
0.027709 0.070675999 0.13083
0.02678 0.071110003 0.1314
0.026753001 0.070405997 0.13091999
0.041191 0.039891001 0.10702
0.041469 0.040229999 0.10659
0.040959999 0.039834 0.10578
-0.017961999 0.0044244002 0.10571
-0.017617 0.0034944001 0.10679
-0.017166 0.0043588001 0.10635
-0.00033005999 0.0071978001 0.12359
-0.0016161 0.0066831 0.12374
-0.00097199 0.0055487999 0.12436
-0.0011904 0.11235 0.097318001
0.020307999 0.063569002 0.13061
0.020911001 0.064498998 0.13141
0.020171 0.064608 0.13086
-0.011322 0.024893999 0.10852
-0.010945 0.023828 0.10832
-0.011666 0.023677001 0.10893
0.038442001 0.091494001 0.12092
0.033967 0.096353002 0.13387001
0.033877 0.095523998 0.13341001
-0.0052195 0.1018 0.13522001
-0.0042897002 0.10172 0.13561
0.054044999 0.1267 0.099237002
0.053971 0.12717 0.097964004
-0.0046391999 0.12255 0.13722
0.042764999 0.10758 0.11635
0.043340001 0.10791 0.11576
0.043595999 0.109 0.11646
0.056327 0.12769 0.071015
0.056545999 0.12650999 0.071466997
0.049573999 0.050728999 0.11427
0.049789999 0.050097 0.11395
0.050811999 0.050232001 0.11363
0.058741 0.11551 0.099480003
0.058618002 0.11504 0.098462
0.058881 0.11569 0.097994998
-0.0055669998 0.013855 0.10971
0.047410998 0.10703 0.10954
0.026222 0.048376001 0.14775001
0.026772 0.047704998 0.14654
0.027144 0.048025999 0.14729001
0.058329001 0.016045 0.095242999
0.057273 0.015636001 0.093952999
0.057229999 0.015859 0.095268004
0.0032259 0.1236 0.066269003
0.0041479999 0.12393 0.065839998
0.0038173001 0.12375 0.065100998
0.014539 0.12982 0.078074999
-0.046856999 0.10538 0.10246
-0.046847999 0.10554 0.1039
0.056641001 0.046532001 0.099339001
0.056657001 0.047469001 0.10068
0.05697 0.046397001 0.10035
-0.0046286001 0.070568003 0.12095
-0.0047249999 0.070614003 0.11981
-0.010662 0.1268 0.11026
0.024054 0.11708 0.09409
0.017402001 0.15096 0.089555003
-0.051374 0.11857 0.072218001
-0.052262001 0.11854 0.071829997
0.0050472999 0.088891998 0.10164
0.0051442999 0.088267997 0.10272
0.051293999 0.014788 0.094022997
0.051089 0.014149 0.092845
0.051268999 0.014655 0.093474999
0.021079 0.068218999 0.10056
0.021937 0.068609998 0.10078
-0.024882 0.11598 0.10226
-0.025965 0.11621 0.10217
-0.025395 0.11652 0.10269
0.055854 0.015126 0.11715
0.048200998 0.12286 0.084513001
0.047646001 0.12281 0.085882001
0.019455001 0.14262 0.10203
0.019504 0.14171 0.10162
0.0081829 0.079374 0.13291
0.0075035999 0.078993 0.13246
0.0077304998 0.078186996 0.13214
0.0083047003 0.14369 0.10215
0.0072931 0.14365999 0.1024
0.0070671001 0.14443 0.10259
0.058982 0.016446 0.11048
0.0055395002 0.14292 0.093483999
0.0067925001 0.14329 0.094095998
0.0065282001 0.14283 0.092869997
-0.013794 0.10061 0.10687
-0.013529 0.10116 0.10613
0.054092001 0.15436999 0.071157001
-0.0080778003 0.10702 0.13443001
0.036791001 0.068631999 0.097565003
0.03576 0.068438999 0.098223999
0.036557 0.069632001 0.098327003
-0.0021498001 0.042369001 0.10714
-0.0014843 0.042987999 0.1075
-0.0014112 0.042429999 0.10755
0.023196001 0.11948 0.14555
0.0031491001 0.14497 0.11298
0.0030767 0.14489 0.11186
0.029744999 0.12514 0.14094
0.025099 0.13412 0.10156
-0.015962999 0.054414 0.11251
-0.016431 0.054184999 0.11369
-0.015928 0.054306 0.11308
0.031991001 0.072508998 0.12887999
0.057220001 0.062238999 0.10438
0.056811001 0.063395001 0.10443
0.019546 0.14325 0.10441
0.019289 0.14289001 0.10575
-0.0086872 0.064943999 0.12491
-0.0087152999 0.064323001 0.12632
-0.0083256997 0.064540997 0.12561999
0.021802999 0.14959 0.085995004
0.022967 0.15102001 0.085712999
0.023074999 0.15000001 0.086139001
0.015779 0.14275999 0.080426
0.014653 0.14347 0.080949001
0.025474001 0.13313 0.10122
0.042172998 0.1001 0.11558
0.041730002 0.099587001 0.11572
0.042176999 0.10099 0.11575
-0.042443998 0.12581 0.092712998
0.024692999 0.087617002 0.098151997
0.034570001 0.11478 0.13991
0.035776 0.11587 0.13902999
0.034293 0.11579 0.13970999
-0.0081441998 0.053273998 0.12749
0.069178998 0.1344 0.079931997
-0.014866 0.033626001 0.10848
-0.014835 0.033739999 0.10801
0.027094999 0.1304 0.098021001
0.055893 0.12864999 0.074858002
0.055475999 0.12837 0.075920001
0.057025 0.043607999 0.11127
0.056265 0.043543 0.11177
0.057521999 0.042456001 0.11171
0.033399999 0.056887001 0.11377
0.034074999 0.056782 0.11449
0.033479001 0.057944 0.11503
-0.0073744999 0.12277 0.096701004
-0.0079824999 0.12202 0.097193003
-0.0021212001 0.068000004 0.12737
-0.0015057001 0.067993999 0.12797999
-0.0010354 0.14041001 0.11453
-0.0019223 0.13976 0.1135
0.032026 0.046505999 0.15098
0.032315001 0.045379002 0.15232
0.031163 0.045198001 0.15127
0.041937999 0.032979999 0.10147
0.043069001 0.031551 0.10121
0.068415999 0.12876 0.077251002
0.023220999 0.13163 0.091959998
0.00072449999 0.14327 0.10435
0.010684 0.083416998 0.1349
0.011312 0.082863003 0.13519
0.011336 0.084012002 0.13515
0.035236999 0.090001002 0.13038
0.034476999 0.089360997 0.13141
0.066955999 0.12025 0.087609999
0.066919997 0.12037 0.088693
0.038772002 0.089134999 0.11307
0.038839001 0.088090003 0.11314
0.038693 0.088088997 0.11222
-0.014456 0.052565999 0.10708
-0.014322 0.051786002 0.10692
-0.014958 0.052492 0.10758
-0.047447 0.11924 0.10358
-0.046475999 0.11924 0.10396
-0.046496999 0.1194 0.10344
0.010746 0.11268 0.078757003
0.010886 0.11299 0.080011003
-0.010621 0.0045628999 0.099109001
-0.0088453004 0.019494001 0.10971
0.055328 0.0083529996 0.10314
0.054246001 0.0082117002 0.10335
0.054668002 0.066271998 0.10048
0.024627 0.067777999 0.10207
0.024582 0.068718001 0.10167
0.058483001 0.0076549002 0.11323
0.058446001 0.0093965996 0.11321
0.045634001 0.024207 0.1039
0.046227999 0.023829 0.1041
0.044705998 0.024239 0.10485
-0.027185 0.10339 0.099670999
-0.028184 0.10327 0.099646002
0.018169999 0.094224997 0.095521003
0.041946001 0.10533 0.11756
0.041777 0.10439 0.11617
0.042135 0.10538 0.11617
0.025188001 0.11091 0.091288
0.024005 0.11189 0.091605999
0.024876 0.11183 0.091518998
0.058316 0.016635999 0.096543998
0.0070147002 0.020237001 0.11855
0.0073776999 0.020447999 0.11736
0.040773001 0.10868 0.096669003
0.040837001 0.10808 0.097363003
0.039987002 0.10854 0.097217999
0.0075830002 0.10552 0.14538001
0.0079487003 0.10439 0.14522
0.0087104002 0.10431 0.14538001
0.032097001 0.062775001 0.099908002
0.032014001 0.058903001 0.11422
0.032387 0.059106998 0.11528
0.031759001 0.059245002 0.11509
0.061478 0.14524999 0.061337002
0.059850998 0.14486 0.060516
0.060191002 0.14454 0.061432999
0.031837001 0.061836999 0.10074
-0.013859 0.059376001 0.11125
-0.013073 0.059925001 0.11132
0.033576999 0.06594 0.098837003
0.035021 0.066163003 0.098098002
0.034373 0.065499999 0.098486997
-0.048705 0.11147 0.10472
-0.048323002 0.11034 0.10436
-0.048092 0.11152 0.10533
-0.0049526999 0.13285001 0.099445
-0.0046116998 0.13316 0.097972997
-0.0052049002 0.13198 0.098049
-0.026242999 0.10225 0.11677
0.048092999 0.012957 0.099303998
0.047217999 0.011731 0.098361
-0.011311 0.10011 0.12279
0.017997 0.082359001 0.096550003
0.019066 0.081762999 0.096917003
0.035638999 0.13361999 0.11666
0.036208 0.13316999 0.11752
-0.038908999 0.1238 0.098935001
-0.039188001 0.12447 0.098054998
0.0097869998 0.11191 0.091650002
0.011132 0.1114 0.092878997
0.00042057 0.12014 0.089405
0.030583 0.050818 0.15099999
0.029655 0.051649999 0.15058
0.00068686 0.050299 0.12811001
-0.011703 0.10905 0.12713
-0.01141 0.10798 0.12706
-0.0093031004 0.0047423998 0.099918999
0.048532002 0.012261 0.093928002
0.048498999 0.011052 0.093689002
0.0094036004 0.090873003 0.13636
0.0058384002 0.021174001 0.12089
0.0060419999 0.019816 0.1206
0.0062640999 0.021144001 0.12014
-0.0088074999 0.12826 0.12155
-0.0091765998 0.1274 0.12034
-0.0091808997 0.12800001 0.12103
-0.0028949999 0.065787002 0.12888999
0.013112 0.13313 0.077661
0.01198 0.13296001 0.078097001
0.013284 0.13327 0.078740999
0.038364999 0.12373 0.13260999
0.038609002 0.12389 0.13184001
-0.0016111 0.024103999 0.12603
-0.0013623 0.024308 0.12586001
-0.0024168999 0.024123 0.12630001
0.070216998 0.12777001 0.088365003
0.070800997 0.12791 0.08777
0.031328999 0.097254001 0.096400999
-0.034192 0.12162 0.10226
-0.034276001 0.12118 0.10308
0.031383 0.13765 0.11817
0.031610001 0.13699999 0.11772
0.036823999 0.10951 0.13620999
0.036231 0.10939 0.13704
-0.0072106998 0.12002 0.13535
-0.0078167999 0.12112 0.13485
-0.0076426999 0.12016 0.13518
0.054567002 0.022706 0.12115
0.0030129999 0.11571 0.066596001
0.0024398 0.11557 0.066955
0.0018563 0.11637 0.066852003
0.046682 0.010353 0.11967
0.015364 0.067599997 0.13124
0.014902 0.068581 0.13113999
0.014507 0.067980997 0.13124999
0.045991998 0.016914999 0.11071
0.045768 0.018096 0.11085
0.046310998 0.016971 0.11014
0.037962999 0.087816998 0.12163
0.038178999 0.086947002 0.12177
0.036159001 0.1265 0.10155
0.035416 0.12691 0.1021
0.051727999 0.15361001 0.073854998
0.051872998 0.1525 0.073549002
0.040908001 0.045019001 0.10402
0.022413 0.12205 0.094370998
0.02201 0.12097 0.094195001
0.021563999 0.12191 0.094278
0.022287 0.058782 0.12819
0.034910999 0.066941999 0.098062001
0.035255 0.067996003 0.098393999
0.051628001 0.0083074998 0.097025
0.0054958998 0.073435001 0.13049001
0.0044196998 0.073409997 0.12975
0.025203999 0.12057 0.14473
0.025262 0.12112 0.14443
0.024227001 0.051215999 0.13684
0.036099002 0.079570003 0.10232
0.036897998 0.079295002 0.10262
0.043040998 0.057296999 0.11989
0.055824999 0.012605 0.092552997
0.055172 0.012593 0.092772998
0.056170002 0.013386 0.092921004
0.047628999 0.014453 0.10435
-0.011823 0.033296999 0.10556
-0.01158 0.033642001 0.10516
-0.013211 0.00019157999 0.11778
0.022469001 0.14082 0.10253
0.021695999 0.14079 0.10181
0.052894998 0.028386001 0.099781998
-0.046477001 0.12978999 0.079798996
0.052988 0.15678 0.071327001
0.044454999 0.041377999 0.098792002
0.044086002 0.04239 0.098916002
0.044213001 0.042651001 0.098378003
0.022244001 0.12295 0.094792999
0.0060688001 0.13458 0.13898
0.0069161002 0.13383 0.1398
-0.051481999 0.11044 0.083664
0.037785999 0.070901997 0.098545
0.036453001 0.070864998 0.099255003
0.036254998 0.071919002 0.099386998
0.037239 0.1058 0.099845
0.036936998 0.10442 0.099574998
0.036993001 0.10513 0.099537
0.030872 0.11834 0.14185999
0.030843001 0.11929 0.14169
-0.033031002 0.10374 0.0933
-0.033530001 0.10358 0.093218997
0.059315 0.13537 0.092078
0.011722 0.1323 0.076373003
-0.036679 0.10295 0.10458
-0.035243001 0.10279 0.10481
0.029688001 0.097975999 0.094259001
0.030254999 0.098449998 0.094525002
0.016198 0.11187 0.092984997
0.017247999 0.11313 0.092837997
0.017275 0.11232 0.092826001
0.0079637002 0.13271999 0.079328999
0.0077149998 0.13207 0.079439998
-0.051879 0.11301 0.088639997
-0.051566001 0.11172 0.089119002
-0.051773001 0.11321 0.088868
-0.015073 0.10091 0.10573
-0.018354001 0.11695 0.1187
-0.017591 0.11643 0.11918
0.036309 0.097716004 0.10477
0.036277998 0.097883999 0.10397
-0.011822 0.02179 0.11582
-0.012622 0.023017 0.11996
-0.012612 0.022283001 0.11988
0.010269 0.071726002 0.10321
0.010608 0.070274003 0.10324
0.046712 0.075318001 0.10429
-0.00076894998 0.11882 0.078272998
-0.00091268 0.11965 0.079544999
-0.0011242999 0.11909 0.078845002
-0.053764001 0.11694 0.072795004
0.036509998 0.052118 0.11128
0.037278999 0.051739998 0.11149
0.055934999 0.052482001 0.097713001
0.056660999 0.053466 0.099027
0.048307002 0.0079990998 0.12187
0.048014998 0.0092080999 0.1218
0.047532 0.0088817999 0.12141
-0.0037740001 -0.00046775001 0.10814
0.053633001 0.15564001 0.070790999
0.061979 0.14916 0.071304999
0.062212002 0.14926 0.072076999
-0.0062334999 0.017281 0.10926
-0.0050332001 0.017237 0.10853
0.025117001 0.11432 0.092597
0.026946999 0.048149999 0.13953
0.026548 0.049447998 0.13817
0.027348001 0.048556998 0.13846999
0.033652 0.12921 0.10456
0.033964001 0.12986 0.10437
0.058910999 0.040387001 0.10144
0.058472 0.040458001 0.10197
0.017255999 0.067957997 0.10014
0.017960999 0.068618998 0.099284999
-0.0023721 0.035216998 0.12368
-0.0087446999 0.14945 0.085234001
-0.0090162 0.14802 0.084265001
-0.0092791002 0.149 0.084835999
0.033622 0.12658 0.13698
0.033298999 0.12582999 0.13761
0.033943001 0.12523 0.13768999
-0.015292 0.037701 0.11547
-0.016109001 0.036210999 0.11539
0.0092529999 0.12471 0.14512999
0.057989001 0.11812 0.077618003
0.058123 0.11761 0.078050002
0.0042311 0.11549 0.14512999
-0.027828 0.11312 0.094864003
-0.026760001 0.11419 0.11677
-0.027248999 0.11429 0.11634
-0.027787 0.11376 0.11676
0.0070843999 0.088817999 0.1001
0.032876998 0.083585002 0.13203999
0.032963 0.084163003 0.13244
-0.054476 0.12091 0.086599
-0.054556001 0.12189 0.086332999
-0.0046624001 0.018135 0.1082
0.012243 0.14639001 0.11129
0.014504 0.099960998 0.093450002
0.038284 0.10635 0.13409001
0.037611999 0.10708 0.13483
0.037865002 0.10636 0.13481
-0.031198001 0.11871 0.093703002
-0.00067416002 -0.00057586998 0.1156
0.018797001 0.10674 0.090901002
0.018641001 0.1078 0.091246001
0.055160001 0.1256 0.077278003
0.055075999 0.12492 0.077068001
0.054722998 0.12484 0.077670999
0.043138999 0.11734 0.11947
0.042918999 0.11822 0.11971
0.027047001 0.060339998 0.11531
0.027208 0.060469002 0.11426
0.027895 0.060292002 0.11494
0.025684001 0.057374999 0.12807
-0.021323999 0.10174 0.10209
0.019935001 0.15370999 0.082172997
0.020234 0.15452 0.080545001
0.020701 0.15436 0.081813999
0.020788999 0.14132001 0.13153
0.0036168001 0.11958 0.061836001
0.0050058002 0.11967 0.061342001
0.0039972998 0.1193 0.062189002
-0.045288999 0.10454 0.098754004
-0.04623 0.10527 0.099999003
-0.046611998 0.10549 0.099032
0.050321002 0.13177 0.090814002
0.059556 0.11523 0.083687
0.058231 0.11507 0.082928002
0.059728 0.11529 0.082438998
-0.0080679003 0.0099435998 0.11217
-0.0072464002 0.010527 0.11184
-0.020275 0.0031043 0.10356
0.0054779998 -0.00037416001 0.11801
0.0042963 -0.00029172 0.11851
-0.013871 0.00025392999 0.099682003
-0.00016229 0.079461001 0.12093
0.00029631 0.079489 0.12185
0.00033405999 0.080750003 0.12165
0.055466998 0.11556 0.10672
0.055470001 0.11579 0.10613
0.055659998 0.11642 0.10606
0.056345001 0.12317 0.073734
-0.049734 0.11506 0.10445
-0.050190002 0.11494 0.10386
-0.049716 0.12632 0.069429003
-0.049766999 0.1268 0.068791002
-0.049084 0.12713 0.069265999
0.056309 0.11499 0.082906
-0.001341 0.12985 0.13641
-0.0021901 0.12963 0.13625
-0.00046288001 0.039161999 0.11926
-0.0014831 0.039808001 0.12017
-0.0012553 0.039156001 0.12
0.047747001 0.066940002 0.12081
0.047435001 0.067529 0.12021
0.021839 0.13864 0.13563
0.063979 0.12711 0.09589
0.062573999 0.12786999 0.096589997
0.062720999 0.12711 0.096538
0.0012203 0.12622 0.076278999
0.00095234998 0.12723 0.076476
0.0022109 0.022352001 0.12446
0.0028258001 0.023817001 0.12438
0.0017033 0.023475001 0.12449
-0.014804 0.027561 0.11328
-0.014342 0.026234001 0.11258
-0.014403 0.026240001 0.11313
0.055512 0.14465 0.080861002
0.038644999 0.081969999 0.12136
0.029285001 0.14056 0.12107
0.025316 0.060954001 0.1123
0.024603 0.061551001 0.11375
0.010118 0.072852999 0.10303
0.011107 0.071861997 0.10254
0.023791 0.097976997 0.091436997
0.024287 0.097393997 0.091661997
-0.0057097999 0.13289 0.1184
0.040017001 0.052496001 0.11589
0.040966 0.053091001 0.11629
-0.0021093001 0.098747998 0.13609999
0.042043 0.1133 0.12777001
-0.0090420004 0.026759 0.12514
0.063152999 0.13412 0.068178996
0.031228 0.056683 0.13568
0.03176 0.056372002 0.13524
0.031583 0.056820001 0.13437
-0.0094771003 0.10265 0.10272
-0.026817 0.10673 0.11911
0.029593 0.077698 0.10028
0.029996 0.076559998 0.099623002
0.018329 0.098228 0.14208999
0.031314999 0.091375999 0.13428999
0.029991999 0.090752997 0.13547
0.031030999 0.091077998 0.13493
-0.01185 0.027341001 0.10721
-0.012421 0.027158 0.10819
-0.012023 0.028131999 0.10747
0.064503998 0.14336 0.065007001
-0.047405999 0.11818 0.078805
-0.047428999 0.11707 0.078764997
0.061832 0.13051 0.095504999
0.0075984998 0.14486 0.12437
0.064242996 0.14681 0.06684
0.063743003 0.14724 0.068079002
0.031975999 0.043536 0.15324
0.066042997 0.11973 0.088991001
0.064815 0.11903 0.088757999
0.044551998 0.10931 0.11417
0.045430001 0.10911 0.1134
-0.030919001 0.11129 0.1161
-0.031074001 0.11217 0.11581
0.068003997 0.12394 0.091776997
0.067445002 0.12347 0.092395999
0.051580001 0.031929001 0.11975
0.051966 0.030709 0.11987
0.05514 0.047564998 0.10892
0.013597 0.12762 0.077036999
0.013021 0.127 0.076906003
0.042681001 0.11329 0.1197
0.026262 0.1314 0.098535001
0.026889 0.13056 0.098601997
0.028399 0.092037 0.097920999
0.028284 0.092519 0.097116001
-0.0017076 0.090801999 0.10533
-0.001605 0.090448 0.10653
0.031117 0.097737998 0.1375
0.050324 0.012925 0.091858998
0.050345 0.012667 0.090531997
0.050338998 0.063152 0.11927
0.050833002 0.064101003 0.11829
0.050067998 0.064352997 0.1191
0.042165998 0.026280001 0.10606
0.049247 0.12239 0.11186
0.048730001 0.12282 0.11164
0.024932001 0.088675998 0.097795002
0.025133001 0.088446997 0.098430999
0.0021577 0.0022958 0.10975
0.003088 0.0025513 0.1104
0.0029247999 0.0018422999 0.11045
0.043402001 0.033163 0.11639
0.043795999 0.034619 0.11645
0.042994 0.034658998 0.11586
-0.012468 0.10228 0.12397
0.032412998 0.050584 0.1443
0.032354001 0.050673999 0.14305
-0.011916 0.11311 0.10169
-0.012132 0.11398 0.10189
-0.011671 0.1144 0.10091
0.056258999 0.14714999 0.067117997
0.041988999 0.044558998 0.10956
0.042114999 0.043588001 0.10835
0.042204 0.043469999 0.1094
0.045297999 0.071125999 0.11872
0.056758001 0.14645 0.063504003
0.056212001 0.14765 0.063739002
0.056540001 0.14658 0.062537
0.029217999 0.13321 0.10224
0.029127 0.13477001 0.10243
-0.041427001 0.10474 0.089239001
0.0039726999 0.11175 0.095197
0.0044280002 0.11258 0.094443999
0.0070680999 0.057968002 0.10651
0.0073128999 0.057709001 0.10747
0.0038570999 0.11246 0.077036001
0.0034763999 0.1132 0.076894
0.055025 0.14925 0.066981003
0.054141 0.15008999 0.067557
0.033103 0.064609997 0.12442
0.033441 0.065017998 0.12484
-0.0036029001 0.12901001 0.084665999
0.057 0.12406 0.10168
0.056341 0.12349 0.10249
0.057684999 0.12299 0.1027
0.070687003 0.13283999 0.084453002
-0.010092 0.11392 0.13445
0.062933996 0.11701 0.089382
0.062986001 0.11728 0.088281997
0.051082 0.13263001 0.084228002
0.051341999 0.13146 0.084448002
-0.0071244002 0.13067 0.12569
-0.0068835001 0.13034999 0.12682
-0.038550999 0.10672 0.087692998
-0.038047001 0.10751 0.088811003
-0.038020998 0.10654 0.088118002
0.020847 0.12727 0.087182999
0.020153999 0.12666 0.087748997
0.020772999 0.12734 0.086351
0.033766001 0.13337 0.10902
0.034665 0.13244 0.10991
0.034308001 0.13236 0.10879
0.00073581998 0.056697998 0.13106
-0.0075682001 0.022902999 0.10777
-0.040704001 0.12031 0.10462
-0.040941998 0.12091 0.10368
0.0031095999 0.048996001 0.12702
0.0043287999 0.049146999 0.1267
0.016664 0.12332 0.080868997
0.055918001 0.048099 0.10658
0.055484999 0.048824999 0.10697
-0.0039901999 0.12414 0.083408996
-0.0040282002 0.12329 0.083531998
-0.0038631 0.13383999 0.1029
0.023181999 0.087407 0.097088002
0.059726998 0.1429 0.082391001
0.061108001 0.14226 0.082308002
0.034894001 0.076159999 0.10026
0.034554001 0.076860003 0.1004
0.013276 0.11651 0.083452001
0.013811 0.11699 0.084446996
0.020899 0.069454998 0.099294998
0.021612 0.070019998 0.099766999
0.039291002 0.10352 0.1305
0.039533 0.10344 0.13022999
-0.041317001 0.11437 0.10839
-0.041368999 0.11536 0.10828
-0.042668998 0.11825 0.084835999
0.058883 0.038247 0.10402
0.070688002 0.12898999 0.088668004
0.047596999 0.11754 0.090355001
-0.0094582001 -0.0016666 0.11389
-0.0079397 -0.0015151 0.11498
-0.0052958 0.12392 0.087043002
-0.0050062998 0.12288 0.087090001
-0.051364999 0.11234 0.073371001
-0.051777001 0.11242 0.072182
-0.0087588001 0.067737997 0.12181
-0.0089985998 0.067051999 0.12022
-0.0093628997 0.066924997 0.12158
0.039106 0.084431 0.11489
0.039191 0.084440999 0.11369
0.038648002 0.085464001 0.11389
-0.015407 0.15131 0.090774998
0.0056964001 0.065029003 0.10534
0.0045308 0.064773999 0.10552
0.0045548999 0.065713003 0.10539
-0.0024258001 0.05962 0.13109
0.022627 0.10737 0.14471
0.023809999 0.1082 0.14475
0.022386 0.10877 0.14498
0.014711 0.13085 0.079599999
0.014548 0.13219 0.078639001
0.042603001 0.047502 0.11233
0.046397001 0.12185 0.092078999
-0.014983 0.035684001 0.11717
-0.00056235999 0.11901 0.083146997
0.00018144 0.11816 0.082716003
0.055016 0.025061 0.12041
0.059976 0.015011 0.095880002
0.059946001 0.015288 0.094754003
0.059284002 0.015964 0.094994001
0.019156 0.062243 0.11154
0.020315001 0.062405001 0.11102
0.020436 0.062794998 0.11248
0.032834999 0.094094999 0.10312
0.033333 0.095628001 0.1019
0.053622998 0.01349 0.089544997
0.052765001 0.014285 0.088863999
0.052863002 0.014364 0.090012997
0.056954 0.14954001 0.064650998
0.063529 0.13654999 0.090736002
0.064676002 0.14015 0.081667997
0.064176999 0.14059 0.082745001
0.064951003 0.1402 0.082607999
0.037900001 0.079640999 0.12293
0.038104001 0.080287002 0.1225
0.0012183 0.10067 0.14021
0.0017691 0.099754997 0.13989
0.045302998 0.048760001 0.11446
0.046863001 0.049465999 0.11439
0.0014251 0.12435 0.14049999
0.0019404 0.12556 0.14042
0.0010182 0.12485 0.14046
0.021 0.13488001 0.14036
0.019995 0.13485 0.14057
0.020101 0.13426 0.14111
0.050397001 0.071447998 0.10165
0.051335 0.071232997 0.10176
0.070726 0.13207 0.080706
0.011612 0.10022 0.14373
0.012462 0.10021 0.14439
0.012894 0.10054 0.1443
0.03221 0.102 0.094705999
0.030337 0.055597998 0.13098
0.030668 0.056977 0.13090999
0.030735999 0.055909999 0.13132
0.053546 0.12311 0.079378001
0.05336 0.12428 0.080367997
-0.012991 0.1234 0.1205
-0.012101 0.12398 0.12109
0.051332001 0.062229998 0.11825
0.012833 0.068631999 0.10253
0.012775 0.068227999 0.10329
-0.014425 0.040188 0.10394
-0.014399 0.041359 0.10395
0.020160001 0.13897 0.088276997
0.020243 0.13903999 0.089386001
0.0072919 0.061748002 0.10602
0.0070874002 0.062702999 0.10574
0.0088991998 0.062573001 0.10622
0.024769001 0.090530001 0.13604
0.025683001 0.090712003 0.13571
-0.040277001 0.10246 0.093707003
-0.0066323001 0.068570003 0.12384
0.0045118001 0.089144997 0.13160001
0.025566 0.14255001 0.11757
0.025730001 0.14218999 0.11835
-0.014002 0.14822 0.088812001
-0.014854 0.14803 0.088894002
0.015634 0.14579 0.1105
0.055606 0.064910002 0.10151
0.0091861002 0.11531 0.071601003
0.041218001 0.097436003 0.12383
0.041613001 0.098811001 0.12454
-0.0063566999 0.13219 0.12367
-0.0057202 0.13316999 0.12336
-0.0061575002 0.13225999 0.12227
-0.0019773999 0.063280001 0.13060001
0.0088489996 0.10593 0.14566
0.010187 0.10496 0.1452
0.032365002 0.046882 0.14922
0.054710999 0.033776999 0.097865999
-0.042746998 0.10541 0.10487
-0.043538999 0.10544 0.10466
-0.020671999 0.10721 0.12343
-0.021932 0.10664 0.12307
-0.022038 0.10557 0.12285
0.023848001 0.12763 0.09217
0.042415999 0.11243 0.12122
-0.0011365 0.015776001 0.12511
-0.0012859 0.014926 0.12507001
-0.0010914 0.015128 0.12524
0.018672001 0.13648 0.13943
0.018485 0.13602 0.13992
0.019466 0.13597 0.13947999
0.01139 0.14282 0.098204002
0.010902 0.14275999 0.098412
0.012346 0.14232001 0.097930998
-0.0056453999 0.14023 0.095591001
-0.047221001 0.12527999 0.079558
-0.047116999 0.12435 0.078562997
-0.047582 0.12503 0.078576997
0.019198 0.061609998 0.11516
0.056761 0.1216 0.1037
0.00050791999 0.11144 0.097441003
0.054616001 0.023413001 0.10314
0.055284001 0.024661999 0.10344
0.055124 0.023615999 0.10383
-0.011316 0.01952 0.11535
0.022950999 0.12179 0.14465
0.02256 0.12268 0.14470001
-0.013316 0.12223 0.10979
-0.00040218999 0.10579 0.14147
0.02696 0.049398001 0.15245
-0.0087401001 0.11264 0.099812999
-0.0071704001 0.11188 0.099313997
-0.0084562004 0.11145 0.099877
0.061808001 0.13948999 0.088109002
0.061693002 0.13892999 0.088845998
0.044920001 0.069623999 0.12007
0.044482999 0.070316002 0.11964
0.044814002 0.069035999 0.12083
-0.056349002 0.1207 0.078626998
-0.056021001 0.12088 0.077303
-0.056169 0.12048 0.077708997
0.038598999 0.1172 0.13431001
0.038943999 0.11689 0.13386001
0.010428 0.11305 0.083683997
0.010818 0.11314 0.08247
-0.0067408001 0.026001999 0.12604
-0.0067786002 0.026528999 0.12622
0.058030002 0.11303 0.10253
0.057726 0.11242 0.10215
0.058782 0.11327 0.10215
0.025807999 0.13157 0.097793996
0.025247 0.13169999 0.098586999
0.036878999 0.060904998 0.12059
0.036196001 0.060924001 0.11998
0.036463 0.060061999 0.11965
-0.021033 0.11815 0.11084
-0.020417999 0.11802 0.10973
-0.0089087002 0.14545999 0.088705003
0.0054608001 -0.0014638 0.12262
0.0043043001 -0.0015259 0.1228
0.056198999 0.049734998 0.10203
0.030516 0.13179 0.13734999
-0.0062726 0.13156 0.1244
0.022872999 0.13325 0.094621003
0.023948001 0.13268 0.094486997
0.018701 0.14336 0.10591
-0.0093214 0.033686001 0.12443
0.0048107998 0.011499 0.11354
0.023305001 0.064695001 0.13298
0.023503 0.063772 0.13303
0.012807 0.054063998 0.11438
0.036439002 0.13339999 0.11831
0.03607 0.13403 0.11766
-0.020577 0.10474 0.12315
-0.019978 0.10512 0.12337
0.055737998 0.15325999 0.064498998
0.054967999 0.15199 0.064893
0.054864999 0.15290999 0.064203002
-0.014945 0.05359 0.12015
-0.046331 0.12532 0.080613002
-0.00099438999 0.14003 0.10469
0.052372001 0.15363 0.074628003
0.034634002 0.093248002 0.10639
-0.013214 0.11524 0.10299
-0.013154 0.11618 0.10341
0.036373999 0.088104002 0.11011
0.036262002 0.089046001 0.11024
0.037427001 0.089107998 0.11125
-0.049888998 0.12786999 0.074708998
-0.049052 0.12755001 0.075456001
-0.04665 0.12524 0.094981998
0.010788 0.13257 0.077252999
0.015333 0.12745 0.079529002
-0.0013996999 0.10573 0.094224997
0.026214 0.10984 0.091098003
0.025478 0.10994 0.090876997
-0.00020723999 0.075820997 0.12275
0.00046169001 0.075750001 0.12384
-3.11e-05 0.076165996 0.12282
-0.027284 0.099817999 0.10833
-0.027589999 0.099642001 0.10742
0.0057882001 0.053768001 0.1077
0.0053963 0.052779999 0.10776
0.0013557 0.040683001 0.11805
0.0020663999 0.041205 0.11789
0.0014583 0.04109 0.1187
0.054965001 0.012179 0.085616
0.054768998 0.011954 0.084711999
0.054028999 0.012783 0.084781997
-0.016585 0.10054 0.12152
-0.0164 0.1017 0.12252
-0.016926 0.10131 0.12199
-0.0022398999 -0.00058768003 0.10885
0.041448001 0.12465 0.12071
0.052942 0.0098058004 0.12098
0.051770002 0.01076 0.12158
0.052021999 0.0095073003 0.12159
0.068686001 0.010152 0.093437999
0.0050478 0.0081965998 0.12275
0.0047641001 0.0092163002 0.12265
0.0039261999 0.0088846004 0.12331
0.020623 0.10119 0.090187997
0.021679999 0.1017 0.089909002
0.055764001 0.11791 0.078125
0.057112999 0.11733 0.078420997
0.014457 0.14676 0.081289001
0.063173003 0.0084049003 0.10616
0.062982999 0.0081703998 0.10523
-0.054506 0.12569 0.073983997
-2.7341001e-05 0.032581002 0.1049
0.00059890997 0.032412998 0.10502
0.013952 0.12862 0.076862
0.014103 0.12992001 0.077354997
-0.0034322001 0.13031 0.13468
-0.0037078999 0.12971 0.13456
-0.0093342997 0.15088999 0.085965998
-0.0088304998 0.15116 0.086997002
0.018606 0.12399 0.089923002
0.018379999 0.12446 0.088753998
0.018998001 0.12488 0.090040997
0.051688999 0.13943 0.083240002
-0.0086124996 0.10297 0.13189
-0.0084209004 0.10185 0.13086
-0.0079081003 0.10178 0.13142
0.019107999 0.061753999 0.1222
0.020223999 0.062031001 0.12152
0.020261001 0.061652001 0.12278
0.023783 0.11019 0.1451
0.023698 0.11097 0.14533
0.028144 0.044546999 0.15544
0.028844001 0.043919001 0.15597001
0.0058749001 0.096753001 0.14078
0.032875001 0.092196003 0.13133
0.032515999 0.093217999 0.13143
0.031936999 0.092193998 0.13285001
0.021054 0.10281 0.14448
0.019904001 0.10307 0.14432
0.020974001 0.10185 0.14397
0.018920001 0.13721 0.089824997
0.017457001 0.062882997 0.12612
0.051598001 0.032809999 0.097204
-0.011387 0.0030813001 0.11842
0.042245001 0.025584999 0.11381
0.042270999 0.024367001 0.11337
-0.0016309 0.029827001 0.12560999
-0.0020721999 0.029875999 0.12572999
-0.00099908002 0.028943 0.12571
-0.0019152 0.13832 0.10483
0.040704001 0.1008 0.12575001
0.041124001 0.099668004 0.12437
0.0064997999 0.11478 0.14621
0.059055999 0.12246 0.074115999
0.059911001 0.12264 0.074483998
0.015117 0.11673 0.08997
0.015652001 0.11716 0.090122998
0.016235 0.11668 0.091116004
-0.0095162997 0.10268 0.10215
0.024829 0.10191 0.14237
0.025263 0.10135 0.14223
-0.0061526 0.00045486999 0.10142
-0.0072404998 0.00045136001 0.10111
-0.016488001 0.0050412999 0.11156
0.0052338 0.087373003 0.10259
0.0052107 0.086097002 0.10275
0.0049405 0.086783998 0.10324
