# .PCD v0.7 - Point Cloud Data file format
VERSION 0.7
FIELDS x y z
SIZE 4 4 4
TYPE F F F
COUNT 1 1 1
WIDTH 1493
HEIGHT 1
VIEWPOINT 0 0 0 1 0 0 0
POINTS 1493
DATA ascii
0.019778 -0.0014841 0.069765002
0.020780999 -0.00073411001 0.070660003
0.020998999 -0.0018088 0.069714002
0.029565001 0.11414 0.1177
0.028911 0.010684 0.083283998
0.028783999 0.0095635997 0.083729997
0.040888 0.014402 0.050053
0.021322001 0.072993003 0.097580999
0.022436 0.072757997 0.098002002
0.022807 0.074427001 0.097280003
0.084027 -0.017064 0.089142002
0.01629 0.067628004 0.087007001
0.016412999 0.068708003 0.087506004
0.046055999 0.017723 0.048693001
0.045136999 0.017206 0.050202999
0.046041001 0.016620001 0.050088
0.015168 0.12284 0.1027
0.014737 0.12429 0.10193
0.015281 0.12367 0.10226
0.0048592999 9.1214002e-05 0.090393998
0.0036607999 -0.00071443 0.092390999
0.0047562998 -0.0010294 0.091540001
0.045956001 0.018855 0.097778998
0.0126 0.096380003 0.10017
0.011947 0.096221998 0.099042997
0.011242 0.09561 0.09883
0.052545998 0.078001 0.091851003
0.018464001 0.095687002 0.096511997
0.019237 0.094439998 0.096210003
0.018575 0.094272003 0.096013002
0.044234 0.10317 0.1127
0.044539999 0.10281 0.11218
0.026278 0.094685003 0.089418001
0.025891 0.095652997 0.088781998
0.063717999 0.013263 0.086685002
0.068905003 0.0059317001 0.070061997
0.067679003 0.0072460999 0.069462001
0.058589 -0.022361999 0.099219002
0.059425998 -0.021562001 0.098513998
0.059944998 -0.020519 0.098479003
0.054288998 0.036713999 0.066605002
0.053114001 0.035725001 0.066875003
0.054370001 0.036731999 0.067217
0.05768 0.045001999 0.096545003
0.058451999 0.046941001 0.097837999
0.058451999 0.046328999 0.097266003
0.063192002 0.010765 0.058625001
0.063317999 0.012211 0.057983
0.063983001 0.011788 0.059427999
0.085465997 -0.015397 0.059273999
0.08664 -0.015768001 0.058603
0.050719999 0.073781997 0.11223
0.050025001 0.075003996 0.11133
0.049442999 0.074258998 0.11198
0.049966998 0.056768 0.087177999
0.050765 0.055094 0.087158002
0.049934998 0.055867001 0.086640999
0.020005999 0.11416 0.092933998
0.019881001 0.11372 0.093823999
0.020064 0.11385 0.094038002
0.030354001 0.15547 0.10075
0.030685 0.15719 0.098862
0.029553 0.15724 0.10097
0.018914999 0.092451997 0.10521
0.018864 0.093509004 0.10434
0.017982 0.093005002 0.1055
0.065171003 0.016773 0.052124999
0.064781003 0.014201 0.052478999
0.064925998 0.015519 0.051741
0.033119 -0.011451 0.094121002
0.034092002 -0.012435 0.093786001
0.033053 -0.011661 0.095082
0.039765999 -0.0013147 0.10036
0.049286 0.042854 0.093742996
0.055629998 0.041976999 0.087829001
0.055612002 0.042718999 0.085496999
0.016499 0.11122 0.090181001
0.02909 0.045232002 0.089147002
0.038626999 0.12367 0.10608
0.039386 0.122 0.10612
0.03932 0.12228 0.10501
0.031950999 0.097562 0.081496999
0.031783 0.09736 0.081702001
0.0080498997 -0.019858999 0.092935003
0.0069380999 -0.020819999 0.090871997
0.0071172998 -0.020989999 0.091877997
0.02699 -0.012343 0.053989001
0.027257999 -0.011198 0.054033
0.064251997 0.011545 0.086655997
0.065190002 0.011301 0.085495003
0.065063998 0.012186 0.086544
0.017821001 0.042312 0.097805999
0.031706002 0.03246 0.067694001
0.032214001 0.031792 0.067176998
0.031436998 0.031576 0.067367002
0.058731001 -0.0063201999 0.0254
0.056767002 -0.0064548999 0.026327999
0.057544 -0.0068701999 0.0265
0.025883 0.098693997 0.11345
0.025798 0.10003 0.11457
0.025226999 0.10014 0.1144
0.056566 -0.021396 0.10289
0.039356001 0.10456 0.10495
0.038468 0.10397 0.1039
0.038490999 0.10557 0.10396
0.049366001 0.043421 0.084596999
0.049626999 0.041910999 0.083737001
0.071478002 -0.0098000001 0.031698
0.071663998 -0.011161 0.030014001
0.072736003 -0.010503 0.029818
0.047091 0.098165996 0.1111
0.045421001 0.097884998 0.11048
0.045219999 0.097923003 0.11113
0.081354998 -0.012718 0.068377003
0.079773001 -0.01209 0.069527999
0.038371999 0.12525 0.097438
0.045265999 0.047653999 0.10109
0.045766 0.049400002 0.10086
0.044264 0.046916001 0.10152
0.023699 0.14477 0.12307
0.055204 0.042219002 0.097189002
0.056320999 0.042133 0.098348998
0.056685001 0.043536 0.097759001
0.037599999 0.10643 0.1197
0.037087001 0.10766 0.11911
0.03655 0.1057 0.1192
0.0022569001 -0.0045500002 0.086548001
0.051874999 0.076693997 0.096414
0.050671 0.076434001 0.09589
0.050353002 0.077733003 0.096279003
0.011729 -0.014179 0.079273
0.011378 -0.014185 0.079324
0.041292999 0.0020172 0.048866
0.040780999 0.0020572999 0.048710998
0.044303 0.098226003 0.10357
0.044819001 0.099540003 0.10581
0.070404999 0.00092825998 0.063786
0.068554997 0.0018306 0.065563001
0.032233 0.065637 0.072968997
0.033923998 0.10066 0.1111
0.032981001 0.099809997 0.10935
0.031819001 0.10044 0.11078
0.042764001 0.010488 0.044801999
0.042874001 0.0089803999 0.046167001
0.033735 -0.027675999 0.10131
0.032903001 -0.027294001 0.10207
0.033222999 -0.028015001 0.10343
0.01237 0.1267 0.10442
0.061866 0.0040165 0.10766
0.062668003 0.0035563 0.10772
0.048884999 0.080242001 0.080238998
0.048062 0.080819003 0.078671001
0.047196999 0.080453001 0.080477998
0.017426999 0.052028999 0.088927999
0.017371999 0.053311002 0.088919997
0.017641 0.053169001 0.089227997
0.051096 0.048087001 0.094371997
0.051169001 0.049663998 0.094269
0.050209001 0.047697999 0.094273999
0.011138 0.14543 0.11543
0.023909001 0.083838001 0.092658997
0.024335001 0.082739003 0.092018001
0.024356 0.1001 0.11736
0.024386 0.10139 0.11795
0.023251001 0.10037 0.11632
0.048673999 0.079571001 0.072654001
0.047401 0.081022002 0.071934
0.046932001 0.081793003 0.073538996
0.024801999 -0.023441 0.067708999
0.024635 -0.022511 0.067252003
0.02526 -0.022968 0.067524001
0.024541 0.092012003 0.089727998
0.024696 0.091127001 0.088592999
0.025385 0.091196999 0.088932998
0.0091784997 0.11492 0.11273
0.010497 0.11571 0.11409
0.0070398999 0.12903 0.11762
0.0071363999 0.13073 0.11806
0.0075070001 0.11143 0.10564
0.0088758003 0.11198 0.10385
0.0086693997 0.11236 0.10572
0.047518 0.018531 0.059149001
0.045395002 0.018864 0.059176002
0.045398001 0.02059 0.058913
0.021934999 0.062981002 0.082676001
0.022031 0.063758999 0.080996998
0.022311 0.061891001 0.080792002
0.018172 0.040070001 0.096643001
0.020155 0.039379001 0.095299996
0.019645 0.039570998 0.096313998
0.066956997 -0.0046472 0.052308999
0.067130998 -0.0059096999 0.051465999
0.066604003 -0.0039141998 0.051638
0.011258 0.098169997 0.098934002
0.040908001 0.070312001 0.11214
0.039492 0.071158998 0.11166
0.038686 0.018428 0.062422
0.036897998 0.018185999 0.062766999
0.070166998 -0.010419 0.033991002
0.071093999 -0.0092011001 0.031374
0.070072003 -0.0081160003 0.033780001
0.060385 0.01919 0.092046
0.059877001 0.018007999 0.090631001
0.053309999 0.022107 0.038966998
0.052937999 0.021236001 0.038775999
0.054219 0.021186 0.039632998
0.043756001 0.058555 0.073872998
0.043170001 0.058899 0.073839001
0.015076 0.15755001 0.10501
0.016857 0.15775 0.10467
0.0052886 -0.020067999 0.085137002
0.0060542002 -0.018119 0.085364997
0.0047817999 -0.019919001 0.085023999
0.031672999 -0.0024592001 0.058100998
0.032430999 0.027375 0.098647997
0.033654999 0.026915999 0.099809997
0.026156999 0.13282999 0.11806
0.027217001 0.13215999 0.11759
0.02722 0.13255 0.11886
0.022048 -0.025702 0.046750002
0.051458001 0.030073 0.098802
0.049977001 0.029669 0.099518001
0.051679999 0.030076001 0.10007
0.033967 0.1418 0.10441
0.0072721001 -0.021575 0.093359999
0.0079437001 -0.022097001 0.093092002
0.060573999 0.019464999 0.050372001
0.061032999 0.018688001 0.051022001
0.060989998 0.018924 0.049107999
0.040419001 0.047676001 0.062302999
0.040972002 0.048234999 0.062268998
0.042629998 0.048048999 0.062910996
0.043377001 0.036842 0.098830998
0.042482998 0.037548002 0.098304003
0.026210001 0.028746 0.089469001
0.044741999 -0.023693001 0.1006
0.043276001 -0.022396 0.099023998
0.043671999 -0.022955 0.099881999
0.034536999 0.072682999 0.064511001
0.034035999 0.073310003 0.065471001
0.034345999 0.074189 0.064860001
0.045230001 0.070294 0.11301
0.045998 0.070344999 0.11235
0.044199001 0.070878997 0.11268
0.036417998 0.14758 0.10897
0.035532001 0.14692 0.10811
0.025774 -0.004313 0.061829999
0.025532 -0.0033201 0.061932001
0.021565 0.13913 0.092573002
0.022304 0.14065 0.092946999
0.022848001 0.10077 0.11501
0.022573 0.099163003 0.11431
0.023376999 0.099462003 0.11465
0.034091 0.0021790001 0.090543002
0.033379 0.00090165 0.090253003
0.034756001 0.00073651999 0.091603003
0.045278002 0.11145 0.10064
0.057845999 0.056859002 0.10857
0.058267001 0.058010001 0.10818
0.031911999 0.083811 0.10641
0.031341001 0.083770998 0.10576
0.031035 0.084821999 0.10661
0.037491001 0.02636 0.064111002
0.036862999 0.026533 0.064705998
0.076109 -0.010603 0.064906001
0.076511003 -0.010648 0.065852001
0.076670997 -0.011204 0.064971
0.051948 0.018364999 0.041576002
0.017322 0.085672997 0.10382
0.033193 0.1464 0.12102
0.034201998 0.14701 0.12051
0.034290001 0.14687 0.12073
0.069201998 0.0047785998 0.066237003
0.071601003 0.00041822999 0.072648004
0.072503999 -0.0018632 0.074161999
0.070981003 -0.00083060999 0.071813002
0.026997 0.086291 0.10521
0.026405999 0.084882997 0.10519
0.026923999 0.084273003 0.10466
0.030944001 0.047026999 0.091669999
0.030920001 0.045637 0.090392999
0.031025 0.046572998 0.092276998
0.067739002 -0.0096827997 0.013531
0.068029001 -0.0098599996 0.014232
0.036455002 0.070910998 0.10947
0.037576001 0.087353997 0.1067
0.038245998 0.087598003 0.1088
0.037763 0.089272 0.10882
0.043674 0.045892 0.10095
0.045272 0.046139002 0.10156
0.015636001 0.16033 0.10847
0.016245 0.16057999 0.10725
0.014924 0.16092999 0.10779
0.074665003 -0.0069496999 0.019389
0.075391002 -0.0070151999 0.017357999
0.073893003 -0.0078458004 0.018092999
0.041179001 0.10258 0.099781998
0.041356999 0.10159 0.099554002
0.042084001 0.12287 0.11235
0.042415999 0.12198 0.11201
0.045118999 -0.020134 0.10127
0.035587002 0.041995 0.077005997
0.086923003 -0.010307 0.093162
0.085630998 -0.010945 0.094003998
0.085182004 -0.011047 0.092923999
0.070497997 -0.00024471001 0.070352003
0.070589997 0.00058704999 0.069283001
0.070748001 0.0010432 0.071723998
0.034485999 0.020375 0.098627999
0.034047 0.02062 0.09826
0.079186998 -0.010318 0.10484
0.079375997 -0.010118 0.10566
0.077297002 -0.011247 0.10442
0.027532 -0.036162999 0.088316001
0.046425 -0.030885 0.077706002
0.027981 -0.036256999 0.088826999
0.025665 0.077761002 0.076618999
0.027107 0.077996001 0.077200003
0.038176 0.024865 0.10238
0.047967002 -0.01324 0.024462
0.03142 0.032811999 0.092528
0.030765001 0.031404998 0.091646001
0.030708 0.031115999 0.092731997
0.038327001 0.10779 0.086997002
0.038782999 0.10685 0.087619998
0.039521001 0.1076 0.086837001
0.020733001 -0.014309 0.097615004
0.019297 -0.013862 0.097120002
0.019078 -0.014111 0.095941998
0.01929 0.11321 0.086608998
0.020746 0.11345 0.088674001
0.019679001 0.087003 0.10037
0.017581001 0.087056004 0.10146
0.020927999 0.10148 0.11178
0.043366998 0.031086 0.064487003
0.043210998 0.029379001 0.063992999
0.042222001 0.028991001 0.062963001
0.056175999 0.021956 0.034660999
0.057390999 0.021288 0.034127999
0.054997999 0.020994 0.033697002
0.048498001 0.068411998 0.074817002
0.076628 -0.0074097998 0.061232001
0.076824002 -0.0084675997 0.060540002
0.077699997 -0.0093433 0.059617002
0.0025398 -0.033534002 0.073481999
0.0014298999 -0.033310998 0.073316
0.027518 0.093630999 0.10802
0.031146999 0.085587002 0.084711
0.031438999 0.085901998 0.084524997
0.0062766001 -0.025769001 0.077800997
0.0052211001 -0.027223 0.076500997
0.0050265002 -0.025397001 0.077073
0.025659001 0.057982001 0.080209002
0.026838999 0.05779 0.080658004
0.059110999 -0.0071096998 0.013478
0.056963999 -0.0089101996 0.0141
0.058171999 -0.0078803999 0.014024
0.035402 0.13973001 0.10351
0.034566998 0.14048 0.10334
0.025988 0.0057375999 0.064167999
0.025715999 0.0056578 0.064560004
0.060952999 0.0036536001 0.10338
0.080064997 -0.0086009996 0.071470998
0.037519 0.14688 0.11208
0.037097 0.14591999 0.11293
-4.8300999e-06 -0.029823 0.076797001
0.0011168 -0.030284001 0.076980002
0.039841998 0.10674 0.11832
0.040782999 0.10614 0.11698
0.040970001 0.10726 0.11723
0.048691001 0.014469 0.038079001
0.047880001 0.013781 0.039009999
0.048044 0.013841 0.038628999
0.035448 0.030344 0.067542002
0.036276001 0.028085001 0.066605002
0.035112001 0.027140001 0.067557
0.043391 0.057087999 0.072378002
0.043308999 0.056480002 0.072094001
0.04149 0.056147002 0.071174003
0.052164 -0.025253 0.10416
0.026177 0.16166 0.093618996
0.027888 0.16168 0.092505001
0.026693 0.16112 0.093543999
0.011204 0.066845998 0.095468998
0.010231 0.066532999 0.096121997
0.046537001 0.0096129002 0.097622998
0.045253001 0.0091800001 0.095862001
0.045880999 0.0094664004 0.096730001
0.015145 0.090893 0.10775
0.014488 0.090232 0.10764
0.016037 0.090076998 0.10678
0.037227001 0.06617 0.064363003
0.036977999 0.067647003 0.063284002
0.037195001 0.068772003 0.063922003
0.078225002 -0.0017489 0.086381003
0.077540003 -0.0012826 0.086464003
0.018694 0.071938001 0.098200001
0.018905999 0.072329998 0.097998001
0.018739 0.072345003 0.096772
0.030084999 0.023961 0.096066996
0.029172 0.022888999 0.096243002
0.080463 -0.026149999 0.084440999
0.080976002 -0.025489001 0.084195003
0.080473997 -0.024692001 0.082999997
0.026860001 0.12633 0.11751
0.028119 0.12673 0.11646
0.0056930999 -0.029522 0.095565997
0.020321 0.057273999 0.087159
0.020271 0.057248998 0.087495998
0.055488002 0.061443001 0.095590003
0.031860001 -0.031099999 0.10371
0.030332999 -0.032290999 0.10273
0.073394999 -0.0094291 0.015885999
0.076324999 -0.0094515001 0.018255999
0.069940001 -0.0056314999 0.051291998
0.068559997 -0.0040700999 0.053095002
0.036463998 0.012912 0.096487001
0.036949001 0.013349 0.09544
0.036272999 0.01227 0.095508002
0.029571 0.076875001 0.072141998
0.06741 0.0049700001 0.034637999
0.065800004 0.0058037001 0.035385001
0.020750999 0.076095 0.077114999
0.020788001 0.074901998 0.077377997
0.019564999 0.074487999 0.077659003
0.024611 0.058249 0.078253999
0.024691001 0.057241999 0.078216001
0.049419001 0.080099002 0.094607003
0.075813003 -0.022348 0.10786
0.076513998 -0.022523999 0.10924
0.075990997 -0.021746 0.10864
0.019859999 0.11061 0.097352996
0.019855 0.11224 0.096418001
0.040621001 0.10082 0.10223
0.040986001 0.10056 0.10154
0.015634 0.15375 0.12706999
0.045173999 0.080338001 0.096219003
0.046388999 0.080645002 0.096712999
0.046110999 0.082687996 0.096089996
0.063346997 0.014605 0.082313001
0.00067929999 -0.032446001 0.073876001
0.034058999 0.029472001 0.096918002
0.034297999 0.029181 0.096020997
0.052928999 0.019950001 0.051236
0.052779999 0.020943001 0.051791001
0.053351998 0.020218 0.051826
0.012469 0.11492 0.099914998
0.011258 0.11595 0.10065
0.012352 0.1156 0.099752001
0.037020002 0.016410001 0.098025002
-0.00068274001 -0.038093999 0.073850997
0.04786 -0.026649 0.10535
0.047325 -0.027186999 0.10434
0.047494002 -0.027031001 0.10513
0.060192 0.027362 0.088538997
0.059482001 0.025467001 0.088588998
0.060153 0.026378 0.086327001
0.026714001 0.014235 0.086308002
0.026938999 0.013261 0.085424997
0.027127 0.013166 0.086740002
0.066721 0.0023709 0.053638
0.066413 0.0024445001 0.054085001
0.012234 0.10429 0.097361997
0.012534 0.10467 0.097545996
0.091196001 -0.017277 0.071143001
0.024945 0.14912 0.12323
0.024855001 0.14911 0.12234
-0.002382 -0.038872998 0.094345003
-0.002813 -0.03788 0.093838997
0.078532003 -0.00011024 0.11236
0.077941999 -0.0010954 0.11239
0.078506999 -0.001365 0.11394
0.0049780002 -0.032506999 0.098016001
0.0032327999 -0.033622999 0.098081
0.0042106002 -0.033240002 0.099825002
0.013688 0.15538 0.12301
0.039136998 0.12214 0.10547
0.038648002 0.12291 0.10504
0.027744001 0.021702999 0.070872001
0.028298 0.024069 0.072186001
0.032520998 -0.010897 0.044666
0.032359 -0.013075 0.045894999
0.032065999 -0.011821 0.046526
0.059299 -0.01106 0.1003
0.058340002 -0.012256 0.10041
0.037039999 0.15023001 0.11088
0.036835998 0.15191001 0.11027
0.037145998 0.15003 0.11099
0.023925999 -0.022593999 0.043813001
0.041455999 -0.033553001 0.10709
0.040663 -0.035344999 0.10843
0.061317001 0.053529002 0.10067
0.013887 -0.0070588998 0.096717
0.013489 -0.007526 0.095903002
0.012307 -0.0081808995 0.096979
0.020718001 0.12055 0.11465
0.050156999 0.079072997 0.078877002
0.064314999 0.01338 0.058758002
0.064433999 0.013218 0.057799
0.064335003 0.015063 0.057891998
0.027814999 0.046974 0.10003
0.028317999 0.046725001 0.099416003
0.023185 0.15752999 0.096495003
0.022546999 0.15725 0.097658001
0.022321999 0.15782 0.096504003
0.042275 0.093745999 0.10628
0.042358998 0.091693997 0.10609
0.032076001 0.069975004 0.067915998
0.031789999 0.071616001 0.067519002
0.033420999 0.071878999 0.067947
0.029069999 0.023096999 0.093829997
0.057709001 0.017657001 0.065876998
0.052916002 0.018471001 0.048390999
0.025262 0.077592999 0.080940999
0.024955999 0.078608997 0.081344999
0.024917001 0.058929 0.076103002
0.026946001 0.056584999 0.077251002
0.033091001 0.036435999 0.087315999
0.031608 0.037227001 0.086508997
0.030935001 0.035732001 0.086195998
0.03139 0.054359 0.10449
0.031429 0.053463001 0.10432
0.031776 0.054033998 0.10525
0.027323 0.0051532001 0.071376003
0.028898001 0.0055932002 0.071318999
0.036819998 0.15022001 0.12763999
0.049614001 -0.010297 0.028886
0.044695001 0.060299002 0.062729001
0.045602001 0.060093001 0.063193999
0.045862 0.058527999 0.064075999
0.023248 0.075273 0.079922996
0.023267001 0.075033002 0.079020001
0.018394999 0.14935 0.12772
0.033183999 -0.010417 0.095122002
0.033907 -0.010406 0.095572002
0.034258001 -0.0097265001 0.09522
0.042176999 0.087127998 0.10897
0.042571001 0.086282998 0.10831
0.041531 0.087215997 0.10965
0.028735001 0.078106999 0.075703003
0.027809 0.079714999 0.076081
0.028156999 0.078381002 0.076572999
0.054850999 0.076901004 0.087159999
0.032099001 0.088892996 0.10693
0.030131999 0.087387003 0.1078
0.031369999 0.088031001 0.10721
0.039737001 0.081165999 0.068761997
0.039845999 0.081615999 0.069491997
0.019262001 0.085497998 0.095183998
0.018331001 0.085965998 0.095650002
0.019184001 0.085587002 0.094999999
0.041400999 0.015752999 0.04713
0.041439999 0.015594 0.046627998
0.030827999 0.040741999 0.091389
0.031730998 0.040105 0.091050997
0.026435001 0.1372 0.12533
0.059953999 0.054873999 0.10545
0.060394999 0.054423001 0.10578
0.033325002 0.15266 0.12256
0.031601999 0.15297 0.12291
0.013102 0.10947 0.11449
0.012999 0.1106 0.11434
0.0084923003 0.1083 0.10054
0.01182 0.15836 0.11475
0.013269 0.15798 0.11493
0.031136001 0.033755999 0.073485002
0.031631 0.033470001 0.074254997
0.032173 0.03404 0.071937002
0.018088 -0.030776 0.070859
0.018952001 -0.029887 0.070216
0.018281 -0.030224999 0.070609003
0.085681997 -0.015831999 0.093305998
0.026086001 0.16382 0.10377
0.026992001 0.16278 0.10355
0.026382999 0.16435 0.10276
0.068641998 -0.0097767999 0.10922
0.069218002 -0.0097615002 0.10964
0.069035001 -0.0086936001 0.10951
0.058626998 0.023886999 0.068536997
0.057408001 0.02558 0.069131002
0.058449998 0.025572 0.069338001
0.013852 0.060532998 0.088540003
0.014402 0.060580999 0.088913001
0.0074335001 0.15437999 0.11486
0.030123999 0.045777 0.094871998
0.029467 0.046994001 0.095228001
0.029816 0.045545999 0.092991002
0.025895 0.0050483998 0.087863997
0.025281001 0.0055756001 0.088210002
0.024705 0.0067690001 0.088146001
0.027607 0.0073091001 0.086042002
0.028597999 0.0088146999 0.086965002
0.0065025999 0.14842001 0.11713
0.0076575 0.14913 0.11767
0.056864001 0.070707999 0.10973
0.057750002 0.071754999 0.10912
0.056954 0.072651997 0.10866
0.084670998 -0.011573 0.10356
-0.0057998998 -0.041154001 0.081565998
-0.0013947 -0.037857998 0.074354999
0.055858999 0.0021065001 0.10132
0.053810999 0.0030276 0.10276
0.055316001 0.0017155 0.10326
0.018746 0.16159 0.10698
0.017721999 0.16213 0.10653
0.017821999 0.16123 0.10683
0.0067528002 0.099498004 0.10889
0.0064448998 -0.016534001 0.084491998
0.006728 -0.016688 0.084950998
0.0066022002 -0.016295001 0.084048003
0.0087612998 -0.034290001 0.098439001
0.0092540001 -0.035401002 0.099032
0.0094397999 -0.035119999 0.098635003
0.063653 -0.0070473999 0.10741
0.0087046996 -0.028517 0.092278004
0.0082031004 -0.028728999 0.09347
0.0083726002 -0.029787 0.094980001
0.045341 0.052815001 0.097659998
0.036564 -0.015818 0.034451999
0.036052 -0.01681 0.034398999
0.085353002 -0.013558 0.066528
0.085170999 -0.013869 0.065737002
0.085253 -0.01322 0.065808997
0.031222999 -0.024152 0.10011
0.058134001 -0.010949 0.013124
0.0056524002 0.13180999 0.1164
0.0061356998 0.13213 0.11637
0.036010001 0.11652 0.085019998
0.037214 0.11704 0.084360003
0.037806001 0.11626 0.084154002
0.021203 0.15613 0.12591
0.018441999 0.15535 0.12538999
0.019745 0.15618999 0.12744001
0.048629999 -0.013359 0.030353
0.048261002 -0.013488 0.029943001
0.048508 -0.013747 0.031249
0.0018511 0.14978001 0.11161
0.0035349999 0.14917 0.1098
0.0024560001 0.1489 0.1109
0.018931 0.14233001 0.1244
0.019199001 0.14472 0.12398
0.018797001 0.14357001 0.1223
0.014816 0.15848 0.11526
0.015276 0.15792 0.11571
0.015662 0.15915 0.11561
0.028677 0.050453998 0.080728002
0.020934001 -0.016315 0.062614001
0.051486 -0.0066205999 0.022368999
0.036444999 0.070295997 0.11232
0.036201 0.071259998 0.11113
0.036249001 0.070533998 0.11245
0.046562001 0.015813001 0.053247001
0.04628 0.016323 0.052556999
0.046360999 0.01511 0.052400999
0.057526 0.017086999 0.040743001
0.058192998 0.016372999 0.040750999
0.036477 0.12867001 0.11037
0.036855001 0.12976 0.11083
0.047173999 0.0070765 0.097886004
0.045694001 0.0072738999 0.097613998
0.033123001 0.048012 0.076626003
0.033939 0.047811002 0.077563003
0.016488999 0.13150001 0.099403001
0.042330999 0.12213 0.11591
0.063092999 -0.019843001 0.099320002
0.061832 -0.017581001 0.10039
0.062417001 -0.018924 0.099170998
0.0086492002 0.10145 0.10272
0.0095787998 0.10224 0.10168
0.0093088001 0.10025 0.10156
0.071677998 -0.0049457001 0.10838
0.070170999 -0.0047289999 0.10708
0.070442997 -0.0053695999 0.10842
0.01014 -0.014864 0.089674003
0.010705 0.15671 0.1091
0.0098812003 0.15623 0.10902
0.010404 0.15606999 0.10948
0.039937001 -0.0041312999 0.045355
0.039324999 -0.0040564002 0.045816999
0.021114999 0.079550996 0.096061997
0.021880999 0.079278998 0.097870998
0.020881999 0.079230003 0.096225001
0.0022119 -0.01273 0.079977997
0.0011088999 -0.011131 0.079584002
0.0024069999 -0.01041 0.079621002
0.0011726 -0.0045878999 0.089212999
0.0014498 -0.0039164 0.088574
0.076568998 -0.011703 0.081197999
0.077362001 -0.011875 0.079873003
0.075056002 -0.018540001 0.11239
0.030771 -0.00079138001 0.096290998
0.026265001 0.040592 0.085908003
0.027522 0.041914001 0.087287001
0.026885999 0.042234 0.086759001
0.035558 0.059966002 0.070381001
0.034632001 0.059243999 0.071897
0.061170001 0.014832 0.060001999
0.061616 0.015286 0.058752
0.060228001 0.014383 0.05982
0.036024 0.091389 0.10827
0.031319 0.15538 0.11451
0.031238001 0.15550999 0.11354
0.031640001 0.15693 0.11438
0.022491001 0.11496 0.089059003
0.021826999 0.11579 0.088225
0.022748999 0.11736 0.088910997
0.046828002 0.0074768001 0.029836999
0.045852002 0.0070072999 0.031189
0.015612 0.095888004 0.10431
0.016550999 0.095919997 0.10369
0.045784999 0.090259999 0.10317
0.045871999 0.090444997 0.10438
0.045914002 0.090095997 0.10283
0.022848999 0.099021003 0.095597997
0.021589 0.099435002 0.095198996
0.047935002 0.036242999 0.091021001
0.048075002 0.034993999 0.090585001
0.049045999 0.035622999 0.091220997
0.013257 -0.027441001 0.073417999
0.052770998 -0.0018301 0.031109
0.054375999 -0.0012688 0.031744
0.053327002 -0.0027681999 0.030925
0.065346003 0.0044574002 0.046087001
0.063877001 0.0056059002 0.046418998
0.048473999 0.062765002 0.08636
0.047802001 0.061980002 0.085603997
0.033583999 0.13935 0.11203
0.032752 0.13944 0.11052
0.032990001 0.13866 0.11139
0.065539002 0.0077073998 0.035999998
0.065590002 0.0084688002 0.035576001
0.039501 0.11356 0.093950003
0.039767001 0.11484 0.092630997
0.040385 0.11321 0.093413003
0.030665999 0.069031 0.11007
0.030567 0.069519997 0.10996
0.029322 0.070150003 0.10979
0.081468001 -0.014798 0.10822
0.080839001 -0.015683001 0.1068
0.081252001 -0.016782001 0.10752
0.027541 -0.019618999 0.046154998
0.02695 -0.020621 0.045696001
0.027084 -0.020748001 0.046275999
0.043843001 -0.0041838 0.043968
0.054280002 0.016341999 0.060543999
0.054212999 0.01701 0.059817001
0.053406999 0.017904 0.059271
0.0082142996 0.15607999 0.11165
0.0080564003 0.15706 0.11044
0.0086343 0.15586001 0.11025
0.055282999 0.063800998 0.086425997
0.055656001 0.064966001 0.085386001
0.055369001 0.063458003 0.087107003
0.041616999 0.12859 0.11734
0.040849999 0.12851 0.11592
0.017235 0.15617 0.097364999
0.064851999 0.0037183999 0.10431
0.020443 0.049337 0.093060002
0.019564999 0.049844 0.092445001
0.034286998 0.014669 0.068057999
0.055381 0.017302001 0.061269
0.055165999 0.017302001 0.061866999
0.050170999 0.061455999 0.087949999
0.050850999 0.062197 0.087807
0.050011002 0.043134999 0.082180001
0.050278999 0.042676002 0.081983
0.010607 -0.028909 0.095409997
0.018545 0.053773999 0.10183
0.019107001 0.054370001 0.10198
0.079974003 -0.016392 0.079695001
0.080403 -0.016385 0.078575
0.079695001 -0.014537 0.078841001
0.052271999 0.039184999 0.078813002
0.051872998 0.038373999 0.078344002
0.075368002 0.0095691001 0.090221003
0.075622998 0.0084212003 0.089341998
0.033119999 0.048921999 0.080862001
0.031989001 0.049369998 0.081785001
0.031890001 0.050623 0.081772998
0.058228001 0.035124 0.082013004
0.059074 0.035399001 0.082502
0.058990002 0.036467001 0.081533998
0.021933001 0.13600001 0.097998999
0.022053 0.13531999 0.098352998
0.035138 0.0051237 0.056076001
0.034906 0.0040421998 0.056644
0.033654001 0.10666 0.078980997
0.048268002 0.033638 0.066013999
0.045154002 0.046287999 0.095954999
0.045949001 0.046266999 0.096529998
0.045626 0.045577001 0.095301002
0.023287 0.15163 0.12548
0.066857003 -0.0097537003 0.041195001
0.044259999 0.11448 0.094531
0.045166999 0.11486 0.095163003
0.029296 0.049848001 0.095028996
0.029875999 0.04916 0.095513001
0.029038999 0.049839001 0.096249998
0.018331001 0.074399002 0.094501004
0.018516 0.074096002 0.093373999
0.018719001 0.074428998 0.092881002
0.023545999 0.077765003 0.091780998
0.024183 0.076982997 0.090654001
0.024689 0.077771001 0.093029
0.041554999 0.054186001 0.077119
0.041951999 0.053286001 0.078337997
0.026218001 0.16034 0.11617
0.027040999 0.15968999 0.11689
0.033904999 0.034627002 0.077237003
0.032846 0.035879999 0.078128003
0.033606 0.035650998 0.077939004
0.056795001 0.048062 0.10423
0.057397 0.046601001 0.10381
0.057479002 0.048082002 0.10533
0.026155001 0.032028001 0.074894004
0.025638999 0.032318 0.075415999
0.026614999 0.031860001 0.075618997
0.039696001 -0.0075399 0.042412002
0.040858999 -0.0077851 0.041793
0.041497 -0.0081933998 0.041701999
0.0042238999 -0.020351 0.076104
0.0067364001 -0.020686001 0.076022997
0.029594 0.092687003 0.1091
0.028519999 0.093195997 0.10808
0.029235 0.093837 0.10929
0.078403004 -0.0077235 0.067516997
0.090332001 -0.018288 0.097209997
0.09138 -0.017609 0.097240001
0.074161001 -0.0085532004 0.026183
0.074219003 -0.0070453999 0.024966
0.073648997 -0.0075916001 0.026536001
0.027703 0.1587 0.12938
0.026892999 0.15818 0.12806
0.02706 0.15775 0.12907
0.036380999 0.027755 0.066241004
0.035112001 0.027484 0.066159002
0.047375001 0.047548 0.083035998
0.049495999 0.046291001 0.083284996
0.057663999 0.070481002 0.097332001
0.05737 0.071462996 0.097093001
0.057519 0.072062999 0.098367997
0.042826999 0.052026998 0.061484002
0.042365 0.053624 0.061733998
0.079695001 0.0026378001 0.091605
0.079433002 0.0026191 0.089892
0.024989 0.025172001 0.085134
0.035475999 0.13626 0.10769
0.035677001 0.13725001 0.10747
0.0010179 -0.031319998 0.088156
0.0026866 -0.031312 0.088739999
0.021469001 0.076793 0.095844999
0.022442 0.075608 0.093874
0.022023 0.076104 0.096256003
0.064421996 0.015055 0.080764003
0.065277003 0.014229 0.079636
0.033677001 0.11135 0.12098
0.058407001 0.019265 0.048213001
0.053015999 0.061480001 0.082990997
0.053527001 0.062378 0.082565002
0.053242002 0.063491002 0.083058998
0.029557001 -0.038006999 0.10537
0.030348999 -0.037565 0.10475
0.028310001 0.11591 0.081537999
0.029162999 0.11466 0.080608003
0.0026344 -0.012167 0.086773001
0.0038129 -0.012672 0.086592004
0.026489999 0.1639 0.1063
0.027248999 0.16320001 0.1058
0.025541 0.16395999 0.1047
0.031762 0.11474 0.084481001
0.030839 0.11652 0.085763
0.031594001 0.11568 0.085817002
0.033964001 0.10392 0.086165003
0.034299999 0.10221 0.084342003
0.034180999 0.10416 0.084329002
0.042783 -0.026293 0.099946
0.044702001 -0.026136 0.10021
0.043377001 -0.025544001 0.10023
0.037965 0.1201 0.10291
0.038146999 0.12058 0.10423
0.038511999 0.11995 0.10353
0.017247001 0.071776003 0.099255003
0.01726 0.071437001 0.098237999
0.016365999 0.072315998 0.097203001
0.0060394998 -0.0075576999 0.077817
0.0061975 -0.0073473998 0.077671997
0.0079268003 -0.0079677999 0.076550998
0.063812003 0.010411 0.071020998
0.063484997 0.01113 0.070332997
0.064310998 0.010833 0.070766002
0.015834 -0.019819001 0.072557002
0.064539 -0.0061597 0.018336
0.065128997 -0.0071363999 0.018417999
0.064142004 -0.0055662999 0.017461
0.017026 -0.0055212001 0.071011998
0.018236 -0.0048578 0.070408002
0.010585 0.12843999 0.10454
0.048586 0.046216 0.081106998
0.058184002 0.0093823997 0.035135999
0.059358001 0.0091650998 0.035978999
0.045875002 0.027099 0.064971998
0.038203999 0.017183 0.061512001
0.038118001 0.015836 0.061312001
0.029843999 0.091509998 0.087145999
0.01808 0.11477 0.11626
0.012747 0.12067 0.10236
0.012771 0.12064 0.10209
0.011612 0.12146 0.1022
0.071439996 -0.00017938 0.080146998
0.071284004 0.00058779999 0.079888999
0.072155997 0.00017629001 0.080836996
0.047754999 -0.011775 0.025525
0.048149999 -0.013257 0.025970001
0.048454002 -0.012548 0.026794
0.030435 0.10837 0.11097
0.031177999 0.10806 0.11157
0.031014999 0.10751 0.11275
0.049112 0.0029839 0.037351001
0.049151 0.0027757999 0.037450999
0.048881002 0.0020804999 0.037912998
0.013088 0.13688999 0.098587997
0.010447 -0.028527999 0.084824003
0.010846 -0.026239 0.085087001
0.0097891996 -0.027783999 0.083582997
0.070414998 -0.0019027001 0.067662999
0.071257003 0.00038168 0.067836002
0.046397999 0.083152004 0.094655
0.046767998 0.082484998 0.094869003
0.047370002 0.083731003 0.094152004
0.072240002 0.0010155 0.081123002
0.072149999 -0.00014708001 0.081891999
0.037760001 -0.01859 0.034816001
0.038135 -0.019587001 0.032814
0.037137002 -0.018633001 0.032412
0.010248 -0.013746 0.080325998
0.010317 -0.013436 0.078923002
0.026751 0.038612001 0.081380002
0.027923999 0.039620999 0.080312997
0.027478 0.038422 0.080289997
0.0091014002 -0.022484001 0.097273998
0.0086164 -0.023914 0.096093997
0.0073209 -0.022859 0.097548999
0.035011001 0.14607 0.11723
0.034959 0.14684001 0.11796
0.035526998 0.14521 0.11756
0.016147999 0.072388001 0.095092997
0.014626 0.089515001 0.10237
0.013278 0.089158997 0.10368
0.014155 0.089382999 0.10258
0.010841 -0.022453999 0.096890002
0.011102 -0.021121001 0.097190998
0.011047 -0.021862 0.097581998
0.02932 0.078478001 0.076109
0.030022001 0.079136997 0.075038999
0.027925 0.077955 0.074805997
0.016047999 -0.0060696001 0.095436998
0.015712 -0.0046206 0.094407
0.015246 -0.0057728002 0.093098
0.051635999 0.063968003 0.086857997
0.052552 0.063851997 0.085276999
0.053877 0.064393997 0.086020999
0.064415999 0.015765 0.036458001
0.063532002 0.016092001 0.036286
0.065472998 0.015964 0.036766998
0.045751002 -0.030738 0.1079
0.04775 -0.032584999 0.10648
0.047561999 -0.031042 0.10679
0.0087457998 -0.012762 0.078078002
0.0069994 -0.013183 0.078404002
0.0087738996 -0.012397 0.077786997
0.065164 -0.0087050004 0.048055001
0.022792 0.079755999 0.093206003
0.032745 0.13237999 0.092487
0.033236999 0.1336 0.093684003
0.033032998 0.13316 0.094201997
0.066721 0.011563 0.036281999
0.067726001 0.012425 0.037441999
0.067039996 0.011442 0.037774
0.043575998 0.034290999 0.063872002
0.043547999 0.034813002 0.062628001
0.041731 0.035519999 0.063138999
0.041804001 -0.013106 0.039710999
0.040532 -0.011071 0.039512001
0.044569999 0.029545 0.064530998
0.043986998 0.031230999 0.064406
0.044661 0.086708002 0.10265
0.065477997 -0.019584 0.10331
0.066486001 -0.018340001 0.1046
0.064822003 -0.019011 0.10437
0.10174 -0.022315999 0.10017
0.10277 -0.023716001 0.10028
0.10228 -0.022771001 0.099655002
0.029077001 0.10507 0.11163
0.027849 0.10663 0.11186
0.050439999 0.059158001 0.080599003
0.052391998 0.058692999 0.080081001
0.048865002 0.076507002 0.069770001
0.047798 0.076780997 0.069144003
0.026384 0.10011 0.1192
0.027819 0.10044 0.11905
0.026923001 0.10191 0.11907
0.034577999 0.13788 0.12283
0.033484999 0.13781001 0.1237
0.034373 0.13677 0.12476
0.030762 0.094148003 0.085506998
0.030596999 0.094784997 0.086534999
0.007553 -0.030122001 0.085542001
0.0066562998 -0.029919 0.086746
0.0067091002 -0.029557001 0.087056004
0.015912 -0.0047391001 0.093457997
0.065949 -0.0032315999 0.01912
0.067101002 -0.0044541 0.018949
0.034203 0.15167999 0.11023
0.031491999 0.15199 0.11016
0.087305002 -0.021195 0.10217
0.032938 0.13331001 0.088660002
0.032563001 0.13214 0.088399999
0.032193001 0.13156 0.087049998
0.081065997 -0.022205999 0.086139001
0.079277001 -0.021922 0.083668999
0.010649 -0.033564001 0.097640999
0.008502 -0.033321999 0.098940998
0.0090209004 -0.033034999 0.097521
0.057496 0.074197002 0.099482998
0.058385 0.074023001 0.099106997
0.026221 0.032676 0.073650002
0.026213 0.032857001 0.074036002
0.020953 -0.029362001 0.060525
0.022146 -0.027951 0.061515
0.020803001 -0.028393 0.060908001
0.011114 0.063437998 0.094503999
0.011788 0.064681001 0.094029002
0.038706001 0.12432 0.10495
0.01629 0.1111 0.094380997
0.016763 0.1088 0.096037999
0.016878 0.11009 0.096063003
0.021152999 -0.019715 0.052046999
0.024843 0.029229 0.074453004
0.025165001 0.029753 0.076491997
0.025660999 0.029651999 0.075443998
0.022657 0.13373999 0.095980003
0.023747999 0.13418999 0.097038001
0.024321999 0.13241 0.094874002
0.062654004 0.031504001 0.083304003
0.063851997 0.032556999 0.082383998
0.030812001 0.068016 0.074358001
0.029610001 0.069113001 0.074901
0.030125 0.068212003 0.074516997
0.031104 -0.036037002 0.10431
0.030544 -0.0374 0.10491
0.031305 -0.036524002 0.1066
0.029340001 0.1565 0.10119
0.030069999 0.1583 0.10239
0.028762 0.15848 0.10352
0.05218 0.051305 0.10064
0.052104 0.049993001 0.099477999
0.033188999 -0.00027031999 0.096473001
0.032926001 0.00016245 0.093641996
0.031060999 0.00066159002 0.094994001
0.039515 0.092318997 0.093942001
0.040477999 0.092776 0.093695
0.028884999 0.10811 0.081032999
0.026629999 0.16511001 0.094798997
0.021486999 0.078263 0.096050002
0.021968 0.077462003 0.096341997
0.027068 0.071923003 0.10632
0.075038999 -0.0095728999 0.021470999
0.075392999 -0.0090229996 0.022004999
0.019385001 0.11157 0.11443
0.018874001 0.11176 0.11375
0.018510999 0.11158 0.11435
0.040955 0.10532 0.1131
0.041967001 0.10408 0.11347
0.064492002 -0.016892999 0.10457
0.036091 0.055385001 0.10082
0.037875 0.055459 0.10016
0.033264998 0.092697002 0.083406001
0.033815999 0.093855999 0.082869999
0.070891999 -0.025553999 0.10381
-0.0012813 -0.042686999 0.094236001
-0.0011493 -0.042160001 0.091921002
-0.00020973 -0.042962 0.094155997
0.029687 0.13459 0.088478997
0.030866001 0.13392 0.088120997
0.030383 0.13335 0.088512003
0.038913999 0.049849 0.063409001
0.070455998 -0.026196999 0.10223
0.070166998 -0.02802 0.10126
0.070536003 -0.026587 0.10257
0.0088261003 0.092301004 0.10498
0.0083851004 0.092463002 0.10632
0.0088852998 0.093497001 0.10429
0.052611999 0.054699 0.090797998
0.053358998 0.053996999 0.092087001
0.054216001 0.053305 0.091422997
0.083244003 -0.010578 0.089985996
0.083228 -0.01059 0.089318998
0.031615999 -0.01468 0.045531001
0.033117998 -0.013818 0.04439
0.033613998 -0.015121 0.04445
0.044739 0.099186003 0.10466
0.043855999 0.10061 0.10605
0.062880002 -0.0054158 0.10592
0.061868999 -0.0072875 0.10651
0.063465998 -0.0063676001 0.10626
0.022521 0.059613999 0.079929002
0.022422001 0.059078999 0.080072001
0.022799 0.059625 0.081037998
0.051003002 -0.018645 0.034924999
0.068614997 -0.015728001 0.034906998
0.033486001 0.13203999 0.11111
0.025118999 -0.023651 0.041315001
0.013853 0.12306 0.10415
0.013829 0.12396 0.10436
0.014921 0.12401 0.10398
0.032983001 0.048613001 0.077423997
0.032984 0.048868001 0.077788003
0.056488998 0.033333 0.09172
0.056882001 0.032947 0.092203997
0.082248002 -0.013853 0.075999998
0.081767999 -0.013987 0.07643
0.027109999 0.019063 0.088016003
0.025389999 0.019549999 0.086765997
0.026803 0.018874001 0.088101
0.025409 -0.025436999 0.069436997
0.025116 -0.025944 0.069641002
0.014676 0.092937998 0.10718
0.026715999 0.092827998 0.11296
0.028748 0.091953002 0.11205
0.0154 0.046218 0.092633002
0.010574 0.14842001 0.11002
0.010511 0.15049 0.1103
0.032170001 0.10314 0.079277001
0.033808 0.10338 0.079526
0.020048 0.074326999 0.07818
0.014689 0.13270999 0.10042
0.014567 0.13392 0.10106
0.014593 0.13235 0.10095
0.027876999 0.0051643001 0.066652
0.0085669998 -0.037018001 0.097760998
0.0082719997 -0.035927001 0.098286003
0.0076673999 -0.037494 0.098419003
0.026771 0.099788003 0.11681
0.069650002 -0.030894 0.099026002
0.069972999 -0.02971 0.099909998
0.069496997 -0.030843999 0.09962
0.043265998 0.0096578998 0.039946999
0.042888999 0.0097367996 0.041568
0.0097856997 0.099407002 0.11023
0.0093552005 0.099042997 0.10901
0.010701 0.099271998 0.11058
0.087947004 -0.016743001 0.094870999
0.034650002 0.14318 0.12254
0.033941001 0.14287999 0.12121
0.034449 0.14300001 0.12121
0.023073999 0.097915001 0.086719997
0.023551 0.098347999 0.087476999
0.023592001 0.096757002 0.087550998
0.010875 0.055024002 0.095394
0.029547 0.15266 0.10589
0.0074124001 0.10454 0.11016
0.0088462001 0.10516 0.11065
0.0083871996 0.10696 0.11077
0.021857999 0.14466999 0.095326997
0.022531999 0.1437 0.093753003
0.029579001 0.0044824998 0.087108001
0.028526001 0.0043132999 0.086662002
0.021207999 -0.0047603999 0.096496999
0.021143001 -0.0041998001 0.098237999
0.021512 -0.0035844999 0.098591
0.064401001 0.014469 0.048950002
0.065775998 0.013558 0.049745999
0.063855 0.013034 0.048803002
0.0071361 0.12121 0.10614
0.0068979999 0.12134 0.107
0.0060959002 -0.028735001 0.073779002
0.017542999 -0.028587 0.071148999
0.085735001 -0.014987 0.10033
0.083797 -0.015447 0.099973999
0.025175 0.077565998 0.080112003
0.026493 0.077688001 0.080128998
0.025203001 0.077705003 0.080509
0.026103999 0.16157 0.11005
0.025432 0.16211 0.10824
0.025216 0.16141 0.11072
0.051615998 0.041317999 0.083852001
0.050657999 0.040029 0.084031001
0.050540999 0.041166 0.084742002
0.035663001 0.11318 0.092661001
0.035893999 0.11418 0.092972003
0.037007 0.088405997 0.083159998
0.060811002 -0.032779001 0.10182
0.060509 -0.032882001 0.10127
0.060683999 -0.033114001 0.10006
0.059799001 -0.029000999 0.10089
0.059728 -0.027394 0.10014
0.05906 -0.028419999 0.10065
0.087934002 -0.010374 0.099486001
0.082782 -0.0080439998 0.10972
0.030944001 -0.019137001 0.097052
0.030383 -0.018204 0.095803998
0.030407 -0.019160001 0.095682003
0.056938 0.029081 0.070226997
0.058196999 0.028240001 0.070423998
0.040114 0.12029 0.097257003
0.05345 -0.024549 0.10402
0.05218 -0.025118999 0.10346
0.036403999 0.13666999 0.11033
0.039795 0.012892 0.052873001
0.039344002 0.012924 0.054156002
0.039354999 0.01338 0.052358001
0.0043390002 0.14245 0.11498
0.087927997 -0.022708001 0.075795002
0.086632997 -0.022884 0.076687001
0.085863002 -0.023683 0.076916002
0.021466 0.092826001 0.097749002
0.021941001 0.092115 0.097960003
0.0076787998 0.099391997 0.10826
0.030211 0.15276 0.10681
0.016075 -0.0097751003 0.098663002
0.016899999 -0.0094911 0.099126004
0.017573999 -0.0081439 0.099201001
0.059542 0.016342999 0.034173999
0.058460999 0.017774999 0.034565002
0.042319998 0.090559997 0.11009
0.042380001 0.092606001 0.10922
0.072691999 0.0037253001 0.10178
0.074075997 0.0038661 0.10035
0.056446999 0.070068002 0.096914001
0.056496002 0.070110001 0.094338998
0.052276 0.0022772001 0.10046
0.053808 0.0027578999 0.10044
0.051947001 0.001665 0.099698
0.030019 0.13057999 0.096980996
0.031083999 0.1323 0.096721001
0.091666996 -0.016359 0.094926998
0.092662998 -0.018638 0.094572999
0.059257999 0.0048377002 0.030928001
0.058444001 0.0034761999 0.029708
0.016779 0.1166 0.11719
0.016588001 0.11684 0.11598
0.066151999 -0.0068966998 0.017028
0.067348003 -0.015143 0.041393001
0.065834999 -0.015069 0.043138999
0.066419996 -0.015729001 0.042013999
0.028648 0.088206001 0.10699
0.028715 0.088280998 0.10856
0.029197 0.088904999 0.10872
0.036621001 0.12574001 0.090181001
0.035298001 0.12565 0.088873997
0.036242999 0.12715 0.090600997
0.025799001 0.1481 0.12319
0.025655 0.14842001 0.12081
0.027070001 0.15132 0.10138
0.02816 0.15048 0.101
0.028650999 0.15149 0.099789001
0.034453999 0.037076 0.070630997
0.048733 0.072117001 0.077449001
0.048016001 0.069971003 0.077437997
0.04885 0.070767 0.075961001
0.025698001 0.15714 0.12604
0.026523 0.15773 0.12639
0.025764 0.15767001 0.12540001
0.089313 -0.023062 0.088919997
0.066647001 -0.029247999 0.096537001
0.064953998 -0.0044380999 0.022139
0.065612003 -0.0042431001 0.021832
0.065514997 -0.0040626 0.022444
0.037193 0.1228 0.087807
0.037319999 0.12251 0.088822998
0.037916001 0.12174 0.088483997
0.026798001 0.10195 0.091681004
0.027310001 0.10063 0.090921
0.027634 -0.0076929 0.095175996
0.028555 -0.008812 0.094887003
0.028945001 -0.0096316999 0.094368003
0.020723 0.053238001 0.089708
0.021090001 0.053431999 0.089979999
0.021143001 0.053704001 0.088464998
0.027001999 0.058731001 0.075978003
0.02644 0.057298001 0.075631998
0.0023484 -0.011318 0.087408997
0.034993 0.047694001 0.10003
0.036052998 0.0093019996 0.091635004
0.034625001 0.0092465999 0.090962999
0.034233999 0.0081946002 0.090465002
0.021911999 0.080496997 0.097584002
0.023305999 0.080159999 0.098136
0.022258 0.081759997 0.098102003
0.02139 0.13603 0.11881
0.021039 0.13502 0.1185
0.051585998 0.038447 0.081936002
0.050593 0.039765999 0.081409998
0.051095001 0.039744999 0.081762999
0.037592001 0.077404998 0.10869
0.037404999 0.076807998 0.10864
0.049784001 -0.0061511998 0.039076999
0.049470998 -0.0055360999 0.040355999
0.050285 -0.0050499002 0.039122
0.0081594996 0.15424 0.11331
0.0085298996 0.15362 0.11362
0.016911 0.13883001 0.10234
0.015252 0.13981999 0.10052
0.016533 0.13866 0.10085
0.031587001 -0.016350999 0.039413001
0.031977002 -0.014877 0.039804
0.032395002 -0.016310999 0.037661001
0.044877999 0.0067631002 0.09567
0.045542002 0.0077 0.097335003
0.023333 0.10069 0.11636
0.024832999 0.10042 0.11585
0.025057999 0.10069 0.11682
0.029696999 0.053444002 0.10262
0.03015 0.052887 0.10238
0.030201999 0.053628001 0.10375
0.030307001 0.10388 0.084758997
0.039489001 0.042881999 0.067904003
0.038284998 0.042699002 0.068984002
0.038408 0.042881999 0.067574002
0.036834002 0.012779 0.062785
0.050655 -0.0018626 0.10102
0.048865002 -0.0030457999 0.10024
0.050558001 -0.0036772999 0.10009
0.024435 0.13941 0.089460999
0.023823 0.13864 0.090416998
0.022856999 0.14015999 0.090299003
0.013803 0.125 0.11221
0.015421 0.12563001 0.11253
0.033608999 0.1044 0.11435
0.033969998 0.10387 0.11442
0.04067 -0.0014585 0.096431002
0.04025 -0.0011683 0.094878003
0.039724998 -0.0019838 0.095613003
0.045116 0.092298001 0.10057
0.045538001 0.090567 0.10142
0.0021625001 -0.038865 0.10055
0.0014827 -0.039816 0.10106
0.0026219999 -0.040697999 0.10037
0.058107998 -0.035941001 0.10779
0.059337001 -0.035992 0.10689
0.059108999 -0.034331001 0.1073
0.031153999 0.047750998 0.091669999
0.031366002 0.049194001 0.091949999
0.020603999 0.0036555999 0.089856997
0.027302001 0.045963999 0.10162
0.028661 0.045347001 0.10051
0.025844 -0.024661001 0.043535002
0.046978999 -0.019707 0.039409999
0.028964 0.15989999 0.10516
0.029015001 0.15889999 0.10462
0.027806999 0.15982001 0.10496
0.078406997 -0.02241 0.083168
0.065011002 -0.0027838 0.042801999
0.065348998 -0.0024472 0.043065
0.064692996 -0.0021337999 0.044034
0.057828002 0.016163001 0.055186
0.059145998 0.015003 0.055447001
0.023910999 0.076658003 0.098199002
0.0228 0.077333003 0.097595997
0.052972998 0.057831999 0.092293002
0.053467002 0.057358 0.091678001
0.060564999 -0.024881 0.096531004
0.060557 -0.026289999 0.094347
0.061144002 -0.024390001 0.094800003
0.018019 0.10112 0.096372999
0.017279999 0.10213 0.096093997
0.017647 0.10184 0.096283004
0.066146001 0.014358 0.035241
0.065127 0.015312 0.035642002
0.03204 0.041184999 0.097369999
0.031357002 0.042592 0.098053001
0.050684001 0.045033999 0.093548
0.051167 0.044305 0.092404999
0.018212 0.12066 0.091283001
0.019229 0.12078 0.091178
0.019889999 0.12058 0.090530001
0.032281 0.052090999 0.076190002
0.032147001 0.051155001 0.074895002
0.064152002 0.020090001 0.079678997
0.063284002 0.020586999 0.080426
0.082943 -0.0089932 0.089685999
0.082610004 -0.010535 0.08867
0.021996999 0.15748 0.1003
0.020148 0.15739 0.10112
0.021237001 0.15831 0.1002
0.036809999 0.059918001 0.10777
0.038116001 0.058341999 0.1075
0.048184 0.00012228001 0.097549997
0.063920997 0.014392 0.056892999
0.04183 0.035870999 0.095825002
0.041843999 0.037094999 0.095524997
0.078497998 -0.0098037003 0.10773
0.078659996 -0.0096800001 0.10646
0.079052001 -0.0097741 0.10684
0.021708 -0.0093173999 0.066698998
0.021083999 -0.0092866002 0.067031004
0.021885 -0.0079709999 0.066597
0.063628003 0.0080738002 0.086162001
0.064332999 0.0094485004 0.086476997
0.064057 0.0098118 0.087434001
0.026559001 0.071947999 0.10543
0.026455 0.071658 0.10481
0.076079004 -0.0098695997 0.11342
0.077528 -0.0093906997 0.1144
0.027577 0.106 0.091668002
0.026566001 0.10614 0.090654001
0.046792999 -0.0051426999 0.10026
0.047915999 -0.0041630999 0.10084
0.047222 -0.0038804 0.099885002
0.015513 -0.027148001 0.073191002
0.014626 -0.02806 0.072530001
0.0032164999 -0.014928 0.078932002
0.0041777999 -0.013735 0.086076997
0.0043946998 -0.013627 0.087390997
0.058743998 0.058446001 0.098725997
0.060431 0.057427999 0.099114999
0.0085634999 -0.0044463999 0.078295
0.0098997997 -0.0037688001 0.078771003
0.060683999 0.044849999 0.098941997
0.061324 0.044383999 0.10034
0.060603999 0.044753 0.099606998
0.0043290998 -0.029533001 0.089681
0.0053794002 -0.029401001 0.090521
0.030582 0.072956003 0.10814
0.031008 0.074291997 0.10836
0.031126 0.075326003 0.10934
0.049295001 -0.014247 0.032446001
0.049369 -0.015286 0.032784998
0.04989 -0.014611 0.033346999
0.037703 0.11246 0.11945
0.039108001 0.11196 0.11857
0.00016130001 0.15408 0.114
0.00038218001 0.15396 0.11266
0.00067112001 0.15268999 0.11381
0.024665 0.14995 0.098918997
0.024006 0.14884 0.099462003
0.073475003 0.00088811998 0.10548
0.072402999 0.0013025 0.10429
0.037932001 0.097939998 0.082653999
0.015078 0.13338 0.10135
0.013961 0.13375001 0.10166
0.014651 0.13401 0.10148
0.078065999 -0.0082080001 0.11436
0.076860003 -0.0087532997 0.11508
0.077416003 -0.010303 0.11479
0.028147999 0.011438 0.072603002
0.048043001 0.068588004 0.068149999
0.046721999 0.115 0.097318999
0.046960998 0.11387 0.096357003
0.046224002 0.1152 0.095200002
0.041152999 0.068861999 0.11228
0.02593 0.084991001 0.086438999
0.050990999 -0.025119999 0.10321
0.018089 0.11368 0.089529999
0.017615 0.11346 0.088193998
0.017201999 0.11276 0.089717001
0.085781999 -0.015004 0.073291004
0.086218998 -0.014659 0.073376998
0.086364999 -0.013715 0.073411003
0.029310999 0.14724 0.098669998
0.012039 0.0028472 0.073871002
0.012996 0.0012506 0.074147001
0.011484 0.0018114001 0.074516997
0.071290001 0.0065665999 0.080573998
0.072031997 0.0053633 0.081761003
0.010317 -0.0166 0.097398996
0.010382 -0.016922999 0.097516
0.045545999 0.11285 0.098554
0.046317998 0.11357 0.098996997
0.031998001 0.045676 0.080634996
0.031350002 0.045143999 0.081510998
0.033031002 0.10976 0.084923998
0.031877998 0.11037 0.083959997
0.033576999 0.1117 0.083920002
0.059034999 -0.027062001 0.10116
0.043313999 0.013443 0.044558998
0.042911999 0.012744 0.045311
0.043111 0.012965 0.044897001
0.019561 0.14461 0.12188
0.019750001 0.14264999 0.12296
0.019874999 0.14438 0.12321
0.034154002 0.017378001 0.067561999
0.035232 0.01774 0.067100003
0.034931999 0.016163001 0.066224001
0.027690001 0.045469001 0.088182002
0.013825 -0.030696001 0.094765
0.012696 -0.031668998 0.095353
0.041731 0.091417998 0.092495002
0.042169001 0.091220997 0.091445997
0.042298 0.091462001 0.091596
0.026596 0.035719 0.085055999
0.026621999 0.034991998 0.085248001
0.060134999 -0.023765 0.097658001
