# .PCD v0.7 - Point Cloud Data file format
VERSION 0.7
FIELDS x y z
SIZE 4 4 4
TYPE F F F
COUNT 1 1 1
WIDTH 1499
HEIGHT 1
VIEWPOINT 0 0 0 1 0 0 0
POINTS 1499
DATA ascii
0.019321 -0.011185 0.14926
0.020147 -0.0099187996 0.15054999
0.029054999 0.055638999 0.17064001
0.030247999 0.055695999 0.16988
0.023793999 -0.050167002 0.23366
0.0016733001 -0.039887 0.20981
0.0019239 -0.039779998 0.21135999
0.026403001 -0.0147 0.13643999
0.0091575999 -0.079865001 0.18144
0.0019682001 -0.055649001 0.16565999
0.066808999 0.054476999 0.20219
0.053071 0.058559 0.20006999
0.076110996 0.045701001 0.21690001
0.074068002 0.046539001 0.21571
0.073435999 0.044877999 0.21804
0.044518001 -0.028883999 0.27733999
0.057762001 -0.015494 0.23168001
-0.013878 -0.062881999 0.26266
-0.014987 -0.062780999 0.25924
-0.01396 -0.062657997 0.26034999
0.055032 -0.00084476999 0.12403
-0.0062524001 -0.044073001 0.25870001
0.014926 0.0083972998 0.20818999
0.063079 0.058003999 0.17709
0.061528999 0.057558 0.17945001
0.063271999 0.058619998 0.17823
0.019254999 -0.090117998 0.19397999
0.020377001 -0.090566002 0.19584
0.018065 -0.089281 0.19403
0.047940999 -0.0087433998 0.23277
0.013827 -0.087993003 0.1847
0.060911 0.058894999 0.19286001
0.059753999 0.059039 0.17166001
-0.0085236002 -0.048296999 0.18097
-0.0092091002 -0.047513999 0.18009999
0.056198001 0.057583999 0.17132001
0.016224001 -0.086521 0.18148001
0.014163 -0.084449999 0.18242
0.0032579 -0.077845 0.21744999
0.0017917 -0.079713002 0.21625
0.023135001 0.044773001 0.16592
0.023987001 0.046410002 0.16457
0.023229999 0.044002999 0.16523001
0.077266 0.047244001 0.20738
0.080048002 0.047740001 0.20793
0.079681002 0.048560001 0.20616999
0.052083001 0.059122998 0.1715
0.079773001 0.041485999 0.21754999
0.078901 0.040897999 0.21878999
0.079884 0.040098 0.21754999
0.060679 0.059052002 0.18387
0.062323 0.058733001 0.18192001
0.062493 0.060614999 0.18020999
-0.0040074 -0.026457001 0.1601
0.078408003 0.040651999 0.21985
0.077595003 0.040304001 0.21957999
-0.0052068001 -0.022744 0.16173001
-0.0060417 -0.022074001 0.16281
-0.0057092998 -0.024685999 0.16248
-0.0090728002 -0.035576999 0.16788
-0.0093833003 -0.034933999 0.16806
-0.0095122 -0.035884999 0.16977
0.024924001 -0.011886 0.14101
0.025598999 -0.012209 0.13997
0.026076 -0.013037 0.14128999
0.090947002 0.060741998 0.17175999
0.091021001 0.059323002 0.17024
-0.0056520998 -0.052087002 0.18248001
-0.0057704002 -0.051329002 0.18342
-0.0074565001 -0.049013 0.18288
0.014387 -0.084827997 0.1859
0.013796 -0.086668998 0.1867
0.065600999 0.056650002 0.19603001
0.065852001 0.057195 0.197
0.031079 0.013389 0.22022
0.032106999 0.011864 0.21882001
0.032593999 0.010967 0.22181
-0.0020683999 -0.054880001 0.19159
-0.0044269999 -0.053675 0.19256
-0.0054241 -0.044059001 0.25924
0.0044518998 -0.0051775002 0.14531
0.00030044001 -0.0037477999 0.14559001
-0.0042023002 -0.044698 0.26260999
-0.0036809 -0.047602002 0.26262999
-0.0045285001 -0.046448998 0.26377001
-0.0069387001 -0.066595003 0.25354999
-0.0048762001 -0.058685001 0.21374001
-0.0096175997 0.013214 0.14395
-0.0097553004 0.011276 0.14527
0.016100001 -0.090692997 0.21049
0.014923 -0.089285001 0.21081001
0.01327 -0.090424001 0.21144
0.0025132999 0.033450998 0.17184
0.0028591 0.032896001 0.17147
0.0022115 0.033411 0.17095
0.049311001 0.062812001 0.17314
0.050368 0.062500998 0.17505001
0.050478999 0.061994001 0.17309999
0.015772 -0.087938003 0.191
0.015012 -0.085568003 0.19093999
0.050457999 0.062546998 0.17166001
0.051763002 0.059756 0.17603
0.052742001 0.060412999 0.17737
0.050980002 0.061207 0.17431
0.057307001 0.059547 0.18276
0.058758002 0.061430998 0.18467
0.058391999 0.060591999 0.18129
0.059824999 0.060757998 0.18275
0.051677998 0.061331 0.17794999
0.052338999 0.060410999 0.17916
0.052848998 0.060112 0.17646
0.054127999 0.061218999 0.17901
0.054279 0.059507001 0.18005
-0.0068482999 -0.051403001 0.18171
-0.0059186001 -0.050717 0.18227001
0.060548998 0.059395 0.19025999
0.062578999 0.060047999 0.1895
-0.0094009005 -0.046743002 0.17922001
-0.0098676002 -0.045949999 0.17976999
0.017038001 -0.00050760002 0.21163
0.023587 -0.0515 0.23638999
0.023290001 -0.052175999 0.23828
-0.0083178999 -0.036897 0.16818
-0.0085135 -0.045173001 0.18013
0.0099569997 -0.053574 0.23280001
0.0092158001 -0.053474002 0.23126
0.077578999 0.033978999 0.22414
0.077317998 0.032646 0.22447
0.075795002 0.034768999 0.22477999
0.072632998 0.046269 0.21078999
0.074778996 0.048675001 0.20807
0.073822998 0.043528002 0.2183
0.073762998 0.043976001 0.21765999
0.061935 0.058587998 0.19232
-0.0024067999 -0.071845002 0.20195
-0.0036056 -0.070046 0.19972
0.02029 -0.012283 0.13651
0.026943 -0.046996001 0.24519999
0.025338 -0.047648001 0.24632999
0.015601 -0.0029017001 0.14386
0.016612001 -0.0045523001 0.14424001
0.015413 -0.0020298001 0.14714
0.0096383998 -0.074337997 0.18181001
0.0089204004 -0.076888002 0.18118
0.064891003 0.056820001 0.20038
0.064461999 0.056529999 0.19939999
0.023923 -0.0017422 0.22093
0.0232 -0.0012235 0.21939
0.023561999 -0.0030151 0.22103
0.0031522 -0.083516002 0.21229
0.064871997 0.055748001 0.20096999
0.012313 -0.080691002 0.17896
0.0030542 -0.083495997 0.21142
0.0040903999 -0.082143001 0.21082
0.013696 -0.084108002 0.18285
0.014961 -0.085603997 0.18299
0.01435 -0.085337996 0.18482
0.034208 0.028387001 0.15342
0.033328 0.028935 0.15223999
0.031104 0.030756 0.1547
0.030239001 -0.048213001 0.22023
0.033117 0.034180999 0.15803
0.032584999 0.034226 0.15864
0.033135001 0.036114 0.15956999
0.024846001 -0.042959001 0.22134
0.024633 -0.013522 0.1398
0.027337 -0.013836 0.14211001
0.026317 -0.012577 0.1426
0.096720003 0.048921999 0.19856
0.096565001 0.051509 0.19833
0.096638002 0.049842 0.19965
0.010578 -0.083006002 0.19374999
0.010536 -0.082845002 0.19543
0.032134 -0.04366 0.25821
0.032157 -0.043818001 0.25986999
0.023917001 -0.011327 0.14136
0.0061651999 -0.078419 0.18829
0.0050638001 -0.078109004 0.18662
0.058295999 0.050069999 0.21086
0.018983999 -0.002266 0.14609
0.016716 -0.0025947001 0.14639001
0.019076999 -0.002387 0.14522
-0.00032918999 -0.075998999 0.19721
0.0032738 -0.077485003 0.22510999
0.0035244001 -0.076665998 0.22541
0.059806999 0.059404999 0.1823
0.029138001 0.056139998 0.17055
0.029558999 0.056524999 0.16992
0.065746002 0.058269002 0.18984
0.069599003 0.058795001 0.19416
0.067769997 0.058191001 0.19019
0.063744999 0.059434 0.18478
0.064372003 0.058649 0.18340001
0.069821 0.056759 0.19268
0.069624998 0.058515001 0.19123
0.067957997 0.056550998 0.19225
0.071093999 0.056573 0.19533999
0.071345001 0.058058001 0.19420999
0.0093400003 -0.078065999 0.18178
0.0073119998 -0.078116998 0.18266
0.070618004 0.055787001 0.19529
0.071805 0.054988999 0.19611999
-0.0061113001 -0.055833001 0.19498999
-0.0071155 -0.058301002 0.19407
-0.0075254999 -0.058888 0.19689
0.064622998 0.056256998 0.19788
0.066652998 0.056687001 0.19891
0.066813998 0.055179998 0.19742
0.055695999 0.059698001 0.17646
0.055436999 0.058816001 0.17577
0.067174003 0.053821001 0.20096
0.050721001 -0.0039245002 0.23372
0.050365001 -0.0046635 0.23243999
0.049825002 -0.0035246001 0.23202001
0.044376001 0.062834002 0.18088
0.045469001 0.063047998 0.18122
0.033383001 0.021159001 0.14898001
0.033934999 0.020461001 0.14698
0.031670999 0.021230999 0.14816999
0.034534 0.018985 0.14553
0.031060999 0.020522 0.14862999
0.019300001 -0.0074380999 0.14854001
0.021387 -0.0066547999 0.14930999
0.021064 -0.0087432005 0.1504
0.086199999 0.044217002 0.15586001
0.087572001 0.043430001 0.15763
0.086259998 0.042034999 0.15806
0.0090825995 -0.085825004 0.21988
0.032752998 0.019109 0.14470001
0.0060767001 -0.079053998 0.22392
0.042783 0.0077054002 0.13601001
-0.0069888998 -0.064787999 0.19415
-0.0068633002 -0.063858002 0.19532999
-0.0070147999 -0.044907 0.25813001
0.030853 0.012773 0.21991
0.029704999 0.01263 0.21976
0.045042999 -0.0010713 0.23059
0.046181001 -0.0027991999 0.23062
0.046579 -0.0028462 0.23091
0.0015457 -0.0034041 0.14493001
-0.0079108002 -0.037223 0.16979
0.067349002 0.054065999 0.20215
-0.0082481997 -0.044638999 0.1776
-0.0090217004 -0.043304 0.17806999
-0.0037112001 -0.067975998 0.19291
-0.0039889002 -0.067945004 0.1939
-0.0041439999 -0.066655003 0.19185001
-0.0042894999 -0.067314997 0.19420999
-0.0039595999 -0.065102004 0.19328
-0.0044081998 -0.065087996 0.18960001
-0.0062767998 -0.064819001 0.19164
-0.0051516001 -0.064809002 0.18882
-0.0038066001 -0.070244998 0.19972999
0.011813 -0.054958999 0.2308
0.032042 -0.041806001 0.25747001
0.018885 -0.088702999 0.19575
0.019661 -0.091179997 0.19468001
0.019339999 -0.091399997 0.19682001
0.0094668996 -0.054668002 0.23452
0.010428 -0.055486999 0.23636
0.072405003 0.054237999 0.20295
0.07423 0.054712001 0.20073
0.072770998 0.05373 0.20002
0.071964003 0.04747 0.20848
-0.0078742998 -0.047173999 0.18137001
0.061616 0.058561999 0.19049001
0.062706001 0.058162 0.19383
0.092451997 0.060479 0.19549
0.090324 0.059409998 0.19533999
0.073481001 0.00093063997 0.23446
-0.0069380002 -0.044881999 0.24446
-0.0057538999 -0.043885 0.26089999
-0.0053077 -0.044440001 0.26223001
-0.0051039001 -0.046209998 0.26251
-0.0090971999 -0.046007998 0.1776
0.063465998 0.056536 0.19915999
0.065315999 0.056465 0.1992
0.062510997 0.058944002 0.18927
0.060052998 0.058809001 0.18956999
0.018936001 -0.0075377999 0.15142
0.019413 -0.0066594998 0.15083
0.049778 0.061843 0.17522
0.049617 0.063713998 0.17331
0.0085302005 -0.077569999 0.18196
0.046151001 0.0081463 0.23219
0.045387998 0.0077304002 0.23136
0.046824001 0.0068346001 0.23148
-0.0051278998 -0.047589999 0.26356
-0.0058803 -0.047731999 0.26399001
0.046969 0.0060995002 0.23297
0.047079999 0.0059552002 0.23226
0.046542 0.0051330002 0.23176
0.05914 -0.0076226001 0.23444
0.058320999 -0.0064806002 0.23611
0.057583001 -0.0084656999 0.23305
1.8148999e-07 -0.065952003 0.18525
0.0015098 -0.065599002 0.18407001
0.0072007999 -0.077024996 0.18505
0.0070739002 -0.075919002 0.18562999
0.0063936999 -0.062123001 0.17457999
0.040205002 -0.051925 0.27419999
0.0025169 -0.053351 0.16417
0.0017741 -0.053567 0.16412
0.052159 0.057693999 0.19768
0.0052077002 -0.061863001 0.17718001
0.068507001 0.046153001 0.21606
0.067509003 0.047561001 0.21389
0.011844 0.011564 0.17838
0.0057954001 -0.052108001 0.23925
0.074625999 0.046323001 0.21549
0.020592 0.0045552002 0.21630999
-0.0070437999 -0.047653999 0.18251
0.024339 0.055027999 0.17038999
0.026596 0.054839998 0.16997001
0.025219999 0.054724 0.17045
0.0064174002 -0.051316001 0.24646001
-0.012889 -0.022356 0.18436
-0.012892 -0.020808 0.18527
-0.014669 -0.023032 0.18328001
0.021872999 0.051268 0.16707
0.022723 0.050595999 0.16658001
0.021145999 0.053704001 0.16704001
0.023894001 -0.044227 0.22175001
0.025520001 -0.043526001 0.22226
0.060157999 0.057975002 0.17947
0.055043001 0.058667 0.17442
-6.5892003e-05 -0.075286999 0.19741
0.015001 -0.0038163001 0.1397
0.055527002 0.053714 0.20354
0.057192001 0.054113001 0.20277999
0.033487 0.013369 0.2201
0.035507001 0.0079140002 0.13477001
0.042406 0.011386 0.13699999
0.014898 -0.086553 0.18962
-0.0038046001 -0.043320999 0.20206
-0.0039324998 -0.044273999 0.20046
0.046882998 -0.0026531999 0.23215
0.048618998 -0.0058152 0.23255999
0.048751 -0.0048890999 0.23326001
0.047024999 -0.0051826001 0.23201001
-0.0023399 0.0064115999 0.15195
-0.0027242999 0.0064126998 0.15260001
-0.0011193 -0.073725998 0.20376
-0.018177001 -0.059937 0.26813
0.058132 0.022466 0.22859
0.056906998 0.02427 0.22885001
0.054815002 0.023079 0.22984999
0.032297999 -0.019037999 0.22229999
0.067934997 0.051437002 0.20492999
0.066685997 0.050923999 0.20640001
-0.0067962999 -0.024992 0.16287
-0.0044593001 -0.053647 0.18547
-0.0066261999 -0.060192998 0.19518
-0.0076365001 -0.059526999 0.19653
-0.0048313001 -0.054935999 0.19219001
-0.0058475998 -0.06357 0.19772001
-0.0054058 -0.063695997 0.19757
-0.0060403999 -0.0024763001 0.14203
-0.0078875003 -0.0025843999 0.14241
-0.0062863999 -0.003459 0.14255001
0.011139 -0.0077622999 0.15367
-0.0059187999 -0.064130999 0.19611
-0.0060405 -0.066380002 0.1946
0.0081578 -0.063078001 0.17975999
0.0098161995 -0.055326998 0.23682
0.010827 -0.054234002 0.23563001
0.071074001 0.055016998 0.19964001
0.071220003 0.054919999 0.19781999
0.059696 0.060166001 0.18968
0.048625998 -0.020724 0.22584
0.0078423005 -0.062332999 0.17959
0.03039 0.015258 0.22126
0.030355999 0.015698001 0.22102
0.029827001 0.017646 0.2212
0.029895 -0.034309 0.22118001
0.029217999 -0.032384999 0.22257
0.030164 -0.032138001 0.22095001
0.063169003 0.056811001 0.19615
0.064925 0.058816999 0.19683
-0.0044887001 -0.054202002 0.1926
-0.0058321999 -0.056031 0.19284
-0.0088809002 -0.041526999 0.17512999
0.071928002 0.049575001 0.20685001
0.073149003 0.047690999 0.20622
0.073476002 0.048188001 0.20584001
0.072368003 0.049095001 0.20668
0.065545999 0.056800999 0.19634999
0.013191 -0.0027970001 0.14315
0.013192 -0.0031673 0.14341
0.013311 -0.0024909 0.14279
0.065720998 0.056802001 0.19633999
-0.00022173001 -0.074752003 0.20895
0.019628 -0.0040446999 0.14442
0.032327998 -0.043035001 0.24196
0.033810001 -0.044438999 0.24431001
0.0098085003 -0.063755997 0.18085
0.0068450999 -0.066238999 0.18188
0.0096067004 -0.064934 0.18242
0.0070342999 -0.06583 0.182
0.088830002 0.04634 0.19843
0.088710003 0.045841001 0.19943
0.024600999 0.054733001 0.16946
0.026787 0.054281998 0.16836999
0.086750001 0.042319 0.15759
0.042509001 -0.0014228 0.12465
0.039439999 -0.0010781999 0.12621
0.040844001 0.00027833 0.12549999
0.042190999 0.027302001 0.22305
0.079864003 0.02964 0.22676
0.078492001 0.029990001 0.22599
0.017023001 0.045293 0.16487999
0.01761 0.045662001 0.16418
0.056343 -0.0061169001 0.23492999
0.055385001 -0.0058689001 0.23492
0.054568 -0.0057898001 0.23277
0.062740996 0.0018664 0.23463
0.059925999 0.0060164998 0.23645
0.059096999 0.0041725002 0.23704
0.059877999 0.0044562998 0.23743001
-0.011438 -0.018005 0.17832001
-0.011563 -0.019571001 0.17914
-0.011624 -0.018366 0.18094
0.0075343 -0.054384001 0.24175
0.0029358999 -0.073500998 0.22172999
0.082930997 0.017960999 0.23217
0.081321999 0.020161999 0.23153
0.080493003 0.016830999 0.22943
0.095411003 0.06089 0.17406
0.067608997 0.048560999 0.2115
0.0025865 -0.030555001 0.21073
9.6463002e-05 -0.030555001 0.20959
0.0020528 -0.032325 0.21180999
-0.0083434004 -0.062895 0.19947
0.080367997 0.035475999 0.22144
0.042024001 0.019419 0.22288001
0.042707 0.019964 0.22206999
0.043552 0.02042 0.22268
0.058956001 0.059002999 0.17946
0.023353999 0.053210001 0.16960999
0.023751 0.053863999 0.16741
0.053408999 0.060146 0.17292
0.0047065001 -0.084174 0.21332
0.069256999 0.037356999 0.22338
0.070954002 0.038213 0.22244
0.068120003 0.037385002 0.22322001
0.011507 -0.041039001 0.21882001
0.010946 -0.041967001 0.21754
0.085904002 0.032579999 0.14405
0.023672 -0.015800999 0.13623001
0.02437 -0.016171001 0.13431001
0.10247 0.056584001 0.17608
0.069995999 0.047834001 0.21280999
0.0097476002 -0.0035116 0.15256999
0.055434 0.052985001 0.20387
0.057179999 0.051502001 0.20460001
0.068804003 0.047217999 0.21179999
0.066955999 0.050216999 0.20913
0.056908 0.053996999 0.20517001
0.076183997 0.044468999 0.21614
0.075957 0.043223999 0.21855
0.077155001 0.043667998 0.21683
-0.010321 0.0095199002 0.14636
-0.0091303997 0.010729 0.1468
-0.010068 -0.045564 0.17955001
0.020067001 -0.0013221001 0.21831
0.011872 -0.057084002 0.23717999
0.010918 -0.056124002 0.2357
0.0025732999 -0.073188998 0.18652
0.011963 -0.053803999 0.23424999
0.013568 -0.080695003 0.17648
0.01434 -0.081678003 0.17533
0.014952 -0.082904004 0.17622
0.011306 -0.057009999 0.23695
0.030091001 -0.044665001 0.26012
0.021357 -0.020044999 0.12881
0.020920999 -0.019755 0.12803
0.0019194999 -0.035843998 0.21070001
0.0022384999 -0.036623001 0.21092001
0.0049899002 -0.035595998 0.21081001
0.011156 -0.054469001 0.2322
0.031638999 0.017531 0.14089
0.031392001 0.016502 0.14030001
0.030665999 0.019528 0.14139
0.030554 0.016152 0.13981
0.032471001 0.015555 0.13811
0.031169999 0.016136 0.13926999
0.0030755999 -0.072062999 0.18458
0.040346999 0.01219 0.1398
0.038566001 0.012393 0.13936
0.0032778999 -0.073725998 0.1875
-0.00188 -0.074600004 0.19805001
0.071014002 0.055243999 0.19859
0.070459999 0.056400001 0.19756
0.0024363 -0.075796999 0.21532001
-0.0037801999 -0.068506002 0.19489001
0.05883 0.061317001 0.18790001
0.059078 0.061638001 0.18777999
0.058184002 0.062082998 0.18720999
0.063152999 -0.0055622999 0.2357
0.061693002 -0.0037413 0.23588
0.061112002 -0.0038608001 0.23582
0.064776003 0.042670999 0.2194
0.066753 0.041988 0.22060999
0.066119 0.041503001 0.221
0.059865002 -0.00093818997 0.23543
0.059172999 -0.00044824 0.23593999
0.058855001 -0.00020163 0.23470999
0.038252998 -0.026565 0.22071999
0.037246 -0.025555 0.22070999
0.012747 -0.084206 0.18074
0.021229999 -0.0089758998 0.14817999
0.020933 -0.010599 0.14983
0.020508001 -0.0087753003 0.15017
0.054281998 0.053133 0.20378999
0.063662998 0.056841001 0.19495
0.028441001 -0.016410001 0.14647
0.026906 -0.01487 0.14599
-0.0052920999 -0.054802001 0.19325
0.073040001 0.051991001 0.20432
0.073540002 0.049687002 0.20494001
0.00059769 0.030941 0.16816001
0.0022593001 0.030750999 0.1693
0.0017156 0.032885 0.17048
0.074469998 0.035707001 0.22218999
0.073775999 0.035218 0.22476999
0.0027079999 -0.075245 0.18734001
0.019043 -0.0049724001 0.1499
0.0073978999 -0.053927001 0.24287
0.030214 -0.017027 0.11926
0.028232001 -0.015608 0.11729
-0.0070813 -0.043940999 0.26104
-0.0072268001 -0.044509001 0.26157999
-0.0063431002 -0.045382001 0.2624
-0.0057160999 -0.045912001 0.26368999
0.022606 0.052326001 0.16847
0.022500001 0.052604001 0.16853
-0.016168 -0.038097002 0.28123
0.01198 -0.083632 0.18719
0.013586 -0.082960002 0.18917
0.0078368997 -0.054749999 0.24537
0.0141 -0.086282 0.18666001
0.022753 0.053298 0.17023
0.023056 0.052085001 0.16764
0.081694998 0.041147999 0.21574999
0.081377 0.040213998 0.21656001
0.029718 0.02911 0.22108001
0.0036029001 -0.075884998 0.18903001
0.046948001 -0.0057204999 0.23289999
0.047734 0.062038999 0.18208
0.084974997 0.033852998 0.14426
0.084977999 0.033353001 0.14329
0.043697 -0.027813001 0.28029999
0.068437003 0.053282999 0.20476
-0.0013614 -0.075645998 0.20069
0.069113001 0.053771999 0.20252
0.068319999 0.048377 0.21225999
0.070235997 0.048558999 0.21142
0.071732 0.048377998 0.21303
0.071059003 0.047835 0.21137001
0.039519001 0.011605 0.13839
0.076559 0.044318002 0.21676999
0.015728001 0.049552001 0.16581
0.014 0.048565999 0.16505
0.027326001 0.031451002 0.15563001
0.028518001 0.030208999 0.15592
0.042801999 0.062345002 0.17086001
0.045630999 0.063152 0.17104
0.012749 0.0073147002 0.20558999
0.01226 0.0060923002 0.20534
-0.0011175 -0.066342004 0.21434
-0.0025193 -0.063961998 0.21555001
-0.0024736 -0.064498998 0.21456
-0.014038 -0.042254999 0.28257999
-0.015222 -0.042151999 0.28178
-0.014873 -0.044663999 0.28437999
-0.014047 -0.042716 0.28251001
0.053420998 0.059796002 0.17048
0.053598002 0.060029 0.17166001
0.054793999 0.059262 0.1719
0.055826001 0.059408002 0.17228
0.055085 0.058481 0.17371
0.056269001 0.058805 0.17309999
0.057073999 0.057955001 0.17584001
0.056722 0.057847999 0.17397
0.073887996 0.053022999 0.19953001
0.075886004 0.053243998 0.19833
0.075424001 0.054768 0.19746999
0.073804997 0.053282999 0.19993
0.074887 0.052818 0.20242
0.076447003 0.051794998 0.20042001
0.041627999 0.0060478002 0.1322
0.039459001 0.0052816998 0.13494
0.065816 -0.0075910999 0.23608001
0.0054388 -0.00094939 0.13141
0.0077185002 -5.3158001e-05 0.13262001
0.0086196 -0.0025491 0.13019
-0.0052562999 -0.051254001 0.18211
-0.0017325 -0.046767 0.24683
0.0062898002 -0.082947999 0.20671
0.0052661998 -0.049704 0.24402
0.068603002 0.057688002 0.19547001
0.068424001 0.057381 0.19691999
0.070464 0.055982001 0.19645999
0.01382 -0.081409 0.17633
0.050831001 0.061244 0.17676
0.0042480002 -0.084991001 0.21581
0.052140001 0.061253998 0.18018
0.058706999 0.059631001 0.18553001
-0.0078173997 -0.059962999 0.19341999
0.008715 -0.088168003 0.20773999
0.010694 -0.089293003 0.20557
0.010001 -0.087677002 0.20779
0.072947003 0.049444001 0.20465
0.072394997 0.05201 0.20329
0.054605 0.0028639999 0.12496
0.053748999 0.0022737 0.12369
0.028708 0.016074 0.22001
0.026269 0.017718 0.22018
0.025575999 0.016716 0.22075
0.041699 -0.042800002 0.28591001
0.036369 0.060462002 0.17299999
0.037478998 0.060763001 0.17208999
0.037542 0.059542999 0.17284
0.0085514002 -0.0048914999 0.1323
0.0093817003 -0.0021542001 0.13101999
0.010427 -0.0038954001 0.13269
0.019469 -0.061666999 0.17602
0.017788 -0.063805997 0.17518
0.017085001 -0.062960997 0.17542
0.057261001 0.061496001 0.18941
0.058437999 0.061356999 0.18874
0.019755 0.0082403002 0.21328001
0.022487 0.0084402002 0.21464001
0.020346001 0.0098813996 0.21419001
0.0029225999 -0.050009001 0.24521001
0.0038916999 -0.050237998 0.24855
-0.016058 -0.041852999 0.25353
0.0049041002 -0.055702999 0.25277999
0.0048519 -0.051899999 0.25238001
0.091563001 0.016580001 0.22104
0.015153 -0.089532003 0.19964001
0.038694002 0.061076 0.17478
0.039151002 0.059836999 0.17709
0.040029999 0.061592001 0.17343
0.011364 -0.080245003 0.17821001
0.045506001 -0.027535001 0.27625999
0.081513003 0.041531 0.21696
-0.0090345005 -0.045033999 0.17648
0.071842998 0.052506998 0.20358001
0.071768999 0.053385999 0.20269001
0.0026091 -0.037052002 0.15591
0.068324 0.00084115 0.23642001
0.066717997 0.0026242 0.23615
0.068037003 0.00072672998 0.23453
0.067576997 0.056274999 0.16229001
0.025789 0.042791001 0.16676
0.024342 0.041979998 0.16639
0.040936001 0.00056662998 0.12567
0.042404 -0.00091306999 0.12451
0.041390002 -0.001726 0.1248
0.086066 0.034908999 0.14488
0.082849003 0.034678999 0.14319
0.01305 -0.0038658001 0.13901
0.011351 -0.0040304 0.13965
0.076145999 0.042102002 0.21783
0.076784998 0.043575 0.21799999
-0.0087123998 -0.038123999 0.17094
0.068682 0.048305999 0.20922001
0.036392 0.031218 0.22285999
0.034813002 0.029812999 0.22158
0.035287 0.027756 0.22223
0.016679 -0.0093967998 0.21702
-0.010282 0.0075451001 0.1468
0.010163 0.010794 0.18139
0.056752 0.059613001 0.17624
0.057914 0.058284 0.17613
0.072687 0.055043999 0.19594
0.072930001 0.054648001 0.19837999
0.073155001 0.054083001 0.19599999
0.062334001 0.057794001 0.17825
0.075902 0.055295002 0.19527
0.031182 0.025226001 0.15007
0.029544 0.024917001 0.15085
0.028375 0.026683001 0.15402
-0.0047649001 -0.069081001 0.204
-0.0033434001 -0.054441001 0.18934999
0.066257998 0.058440998 0.19444001
0.066551 0.057856999 0.19012
0.064382002 0.057891998 0.18970001
0.066846997 0.058309 0.19001
0.064179003 0.058042001 0.18713
-0.00049796997 -0.044774 0.15886
0.050554998 0.061246 0.17726
-0.0070842998 -0.065148003 0.25002
0.015425 0.019291 0.17343999
0.016617 0.019432999 0.17312001
0.016696 0.018440999 0.17202
0.0023576 -0.077376001 0.2159
-0.0062397001 -0.049598001 0.17966001
0.011461 -0.078528002 0.17625
0.013108 -0.077609003 0.17619
0.010031 -0.056026999 0.23811001
0.078575 0.045074001 0.21311
0.079140998 0.045049999 0.21294001
0.079129003 0.043706 0.21281999
0.077849999 0.045476999 0.2121
0.064236 0.059640002 0.18667001
0.065967999 0.058272 0.18639
0.040553 0.062661998 0.17203
0.087063 0.044426002 0.15682
0.085942 0.043375 0.15702
-0.0081155002 -0.043818001 0.25959
-0.0070468001 -0.044284999 0.26223001
-0.0077809999 -0.043767001 0.26543999
-0.0058613 -0.045396 0.26424
-0.0060836999 -0.048052002 0.26710001
0.046627998 -0.030011 0.27812999
0.0025828001 -0.054798 0.25336999
0.0035752 -0.054974001 0.25428
-0.00029867 -0.072361 0.18711001
-0.0024331999 -0.069600999 0.21421
0.00077212998 -0.070886001 0.21631999
-0.0019165 -0.070270002 0.21462999
0.0024009999 -0.077737004 0.18960001
-0.0003281 -0.047120001 0.16260999
-0.0012271 -0.045651998 0.16387001
-0.0017382 -0.04414 0.16066
0.078281 0.049118999 0.20339
0.078873999 0.051116999 0.20333
0.079354003 0.049644999 0.20614
0.0039398 -0.077753 0.18998
-0.0082144998 -0.050522 0.18203001
0.0036817 -0.050158001 0.24869999
0.0042647002 -0.0042364001 0.16230001
0.0046530999 -0.0056141 0.16139001
0.0039913999 -0.0045341002 0.16116001
0.039354999 0.062298998 0.17376
0.083669998 0.035324 0.1453
0.085348003 0.034575999 0.14806999
-0.017989 -0.060082 0.2647
-0.017084001 -0.060010999 0.26392001
-0.016457001 -0.059733 0.26320001
0.049297001 0.060192998 0.18403
0.050375 0.060715001 0.18567
0.051176 0.06058 0.18583
0.035133 0.0052133999 0.13144
0.033858001 0.0032047001 0.12971
0.077693999 0.04166 0.21785
0.074429996 0.043476999 0.21806
0.073569 0.042282 0.21919
0.072341003 0.041871998 0.22053
0.074653 0.041954 0.21928
3.3855998e-05 -0.0035198 0.14624
0.015799001 0.021805 0.17141999
0.01458 0.02134 0.17095
0.015379 -0.00019087001 0.21287
0.010782 -0.076631002 0.17799
-0.0065080002 -0.066579998 0.2009
-0.006449 -0.05246 0.18640999
0.073519997 0.056851 0.1957
0.072970003 0.056088001 0.19354001
0.061640002 0.059794001 0.18072
0.073150001 0.056554999 0.19261
0.071401 0.057441998 0.19208001
0.072365001 0.056651998 0.19385
0.072259001 0.057126001 0.19284999
0.074065 0.046907 0.21224
0.073569 0.047765002 0.21021
0.085836001 0.02971 0.14328
-0.0015609 -0.047239002 0.16282
0.063817002 0.058366001 0.18714
0.065371998 0.058355 0.18664999
0.031516999 -0.034666002 0.1497
0.062564999 0.059751999 0.18632001
0.061361998 0.058490001 0.1846
0.073454998 0.053047001 0.20168
0.073599003 0.052370999 0.20511
0.0098994998 -0.05663 0.23916
0.079235002 0.043423999 0.21555001
0.01651 -0.0037318999 0.14861
0.079562001 0.044050999 0.21209
0.067061 0.058028001 0.18719999
0.031138999 -0.017145 0.11896
0.031027 -0.015554 0.11846
0.0050173998 -0.053406999 0.25169
0.018774001 -0.0059540002 0.15008999
0.017713999 -0.003085 0.15048
0.0098999003 0.0094509004 0.18238001
-0.0021130999 -0.030521 0.20586
-0.0015606 -0.030595001 0.2077
-0.0011087999 -0.030903 0.20716
0.037422001 0.059199002 0.16997001
0.004214 -0.051288001 0.25191
0.0038127999 -0.049493 0.25060999
0.0040751998 -0.052561 0.25117001
0.031371001 0.020686001 0.14872
0.054375 0.026115 0.14658
0.051871002 0.026435999 0.14737
0.051431999 0.0274 0.14896999
-0.0056888 -0.040440999 0.16909
0.046572998 -0.00047611 0.12577
0.047439002 -0.00044038999 0.12359
0.044792999 0.00022145 0.12689
0.0040242998 -0.048471 0.24827
0.010493 -0.064545996 0.1804
0.0136 -0.063495003 0.18064
0.011408 -0.066436999 0.18102001
-0.0082524996 -0.042254001 0.26166999
0.042468 -0.0033976999 0.1234
0.0042372998 -0.078657001 0.19153
0.050144002 0.039810002 0.2207
0.051141001 0.037964001 0.21958999
0.049118001 0.038950998 0.21828
-0.0067606 -0.044458002 0.26264
0.084178999 0.036458999 0.14684001
0.086277999 0.034561001 0.1479
0.083438002 0.036223002 0.14543
0.085685998 0.035053998 0.15030999
0.013331 -0.083917998 0.18464001
0.012887 -0.083797 0.19125
0.012412 -0.0031566001 0.1401
0.016243 -0.0032657001 0.14196999
0.076063998 0.034529999 0.22392
0.062835 0.058967002 0.18242
0.068047002 0.056768 0.18708999
0.066138998 0.058221001 0.18664999
-0.0058598001 -0.052444 0.18337999
-0.0033497999 -0.069188997 0.20640001
0.013012 -0.087031998 0.19688
0.010782 -0.082801998 0.19272
0.010501 -0.084045 0.19481
-0.0047733001 -0.069036998 0.20248
-0.0022636999 0.031097 0.15962
-0.0028774 0.030188 0.15911999
-0.0046726 0.029911 0.15997
0.021173 -0.0051258001 0.14748999
0.059773002 0.060504999 0.18471999
0.06027 0.058522001 0.182
0.017654 -0.0067173 0.15162
0.022755001 0.040693 0.16407
0.022892 0.039655 0.16398001
0.021957001 0.039140999 0.16663
0.077490002 0.046117999 0.20987
0.078927003 0.047263999 0.20936
0.067764997 0.058665998 0.18863
0.0038828 -0.081900001 0.20897
0.0042845001 -0.083016001 0.2112
0.057445999 0.047589 0.16141
0.015445 -0.056368001 0.23188999
0.014437 -0.056265 0.23043001
-0.0091359001 -0.044374 0.26212001
-0.0067040999 -0.045434002 0.26519999
-0.0075941999 -0.046863001 0.26741999
0.034435999 0.058793001 0.16940001
0.0033549999 -0.079040997 0.1918
0.025487 0.052173998 0.1674
0.025332 0.051964998 0.16514
0.025254 0.052306 0.16652
0.064631999 0.016802 0.23475
0.065357 0.018185001 0.23401999
0.063375004 0.018541999 0.23243
0.049417999 0.031631999 0.22371
0.048981 0.033135999 0.22216
0.047343999 0.032134 0.22307999
0.0051000998 -0.079832003 0.19487
0.02853 0.056224 0.16996001
0.032683998 0.057146002 0.16940001
0.034060001 0.057781 0.16907001
0.039597999 0.030863 0.22457001
0.040619999 0.029951001 0.22425
0.050161 0.038507 0.22115
0.049031999 0.037508 0.22116999
0.052797999 0.058995001 0.19457
0.0020647 -0.080340996 0.21653999
0.02039 0.0099975001 0.21448
0.027062001 -0.034271002 0.22115
0.028586 -0.033702999 0.22126999
0.068324998 0.029686 0.14598
0.038389001 0.031248 0.22149999
0.072582997 -0.027824 0.16055
0.071797997 -0.026976001 0.15645
0.085464999 0.036929999 0.15079001
0.0064682998 -0.055116002 0.24884
0.0059866002 -0.056232002 0.24946
0.0063248998 -0.053814001 0.24725001
0.10219 0.023487 0.19963001
0.044791002 -0.034069002 0.25893
0.064866997 0.051084999 0.20746
0.066140004 0.050340999 0.20745
0.064351998 0.053309999 0.20424999
0.0059171999 -0.053518001 0.24932
0.019283 -0.090282001 0.19230001
-0.0030983 -0.0074852002 0.19779
-0.0032921999 -0.0074184998 0.19767
-0.0019424 -0.0079517998 0.19657999
0.024026999 -0.064551003 0.23746
0.02287 -0.063552 0.23593999
0.024346 -0.065869004 0.23722
0.070216998 0.058462001 0.19004001
0.071491003 0.056965999 0.18829
0.070570998 0.057801999 0.18706
0.069319002 0.057725001 0.18973
0.068348996 0.056510001 0.19056
0.040821001 -0.034563001 0.28543001
0.028259 0.023596 0.15188999
0.026873 0.026567999 0.15199
0.080348998 0.034164999 0.2228
0.080150001 0.033050999 0.22284999
0.034871999 -0.041758999 0.24496
0.079616003 0.042555001 0.21491
0.081439003 0.040176 0.21754999
0.080347002 0.038796999 0.21946
0.015338 0.0195 0.16874
0.014145 0.019268 0.16788
-0.0028871 -0.053213 0.18866
0.0050170999 -0.080418997 0.19603001
0.076805003 0.045712002 0.20914
0.078314997 0.046144001 0.20947
0.058504999 0.033603001 0.22608
0.056671999 0.031339999 0.22556999
0.027203999 0.054846998 0.16904999
0.0015068999 -0.056152001 0.255
0.0049235998 -0.052432001 0.25358
-0.0042190002 0.028171999 0.15888999
-0.0044455002 0.028103 0.15879001
-0.0041733999 0.028006 0.15632001
0.027291 -0.03435 0.21983001
0.025483999 -0.038121 0.21898
0.028194999 -0.037322 0.21954
-0.0095614996 -0.042700998 0.26128
-0.0082847998 -0.042973001 0.26383001
-0.0065703001 -0.044473 0.26484001
0.054501001 0.058871999 0.16958
0.057599001 0.058481999 0.16977
0.067542002 0.035817001 0.22569001
0.066848002 0.036483001 0.22405
0.065628 0.035020001 0.22363999
0.007739 -0.0022632 0.14981
0.066875003 0.035027999 0.22585
-0.0078063998 -0.04425 0.26596001
0.012176 -0.010846 0.12835
0.014907 -0.014019 0.12919
0.013788 -0.011395 0.12988
-0.0088587999 -0.045350999 0.26666999
0.010543 0.0097324001 0.18492
0.087879002 0.059654001 0.19593
0.086710997 0.060128 0.19583
0.051863 0.032269001 0.22242001
0.051708002 0.031727999 0.22234
0.051330999 0.031282999 0.22482
-0.0077241999 -0.039992999 0.16705
-0.0063813999 -0.064253002 0.19843
-0.0080626998 -0.046983998 0.26851001
0.086177997 0.036834002 0.15074
0.083676003 0.038059998 0.14543
0.085752003 0.037379999 0.15013
-0.0077088 -0.039117001 0.16669001
0.01548 0.019053999 0.21724001
0.014804 0.019939 0.21765999
0.016178999 0.019238001 0.21785
0.041281 0.011493 0.22803
0.040174998 0.0095308004 0.22943
0.040282 0.0084431004 0.22896001
0.019027 -0.0071192002 0.21743
0.093801998 0.053087998 0.19860999
0.094113998 0.051523998 0.19959
0.093088999 0.053296998 0.19858
0.028648 -0.0082133999 0.22334
0.029142 -0.0068260999 0.22363999
0.010325 -0.078096002 0.17682999
0.076756999 0.031051001 0.22699
0.075455002 0.030189 0.22875001
0.0046601002 -0.052205 0.1635
0.016375 -0.090115003 0.19589999
0.041113999 0.063395001 0.17686
0.042304002 0.063574001 0.17618001
0.060578 0.058779001 0.17082
0.015404 0.017943 0.17579
-0.015697001 -0.045231 0.25029001
-0.014694 -0.046932001 0.25139001
-0.015659001 -0.045541 0.25224999
0.071973003 0.056031 0.19901
0.071707003 0.056168001 0.19661
0.065237001 -0.0097447 0.23491
0.064912997 -0.010097 0.23359001
0.069789998 0.057495002 0.18742
0.052896 0.028027 0.22398999
0.053929999 0.030724 0.22578999
0.053660002 0.032721002 0.22577
0.042541001 0.011391 0.22854
0.044376999 0.011263 0.22876
0.042516001 0.013265 0.22708
-0.0046816999 -0.066694997 0.20130999
0.031032 -0.029169001 0.22179
0.031537998 -0.02829 0.22183999
0.032388002 -0.032485001 0.22194
0.080204003 0.040561002 0.21729
0.031484 -0.043827999 0.25490001
0.0074721002 -0.080620997 0.19628
0.0026161 -0.035608999 0.15573999
0.0063254 -0.080169998 0.19870999
0.0084138 -0.081828997 0.20133001
0.0085645001 -0.082229003 0.20051999
0.082119003 0.043065999 0.21318001
0.079715997 0.046000998 0.21283001
0.076899 0.046870999 0.20882
0.0098531004 -0.082635999 0.20207
0.078578003 0.048602998 0.20855001
0.033167999 -0.010782 0.11877
0.026171001 -0.048700001 0.24912
0.026489001 -0.050085999 0.252
0.026761999 -0.049337 0.25066
0.061595 0.058568999 0.19854
0.061347999 0.057232 0.1688
0.029511999 -0.077939004 0.17502999
0.040669002 0.064078003 0.17703
0.043086 0.062270001 0.17769
0.038458999 -0.027109999 0.15123001
-0.0078055998 -0.047396999 0.26890001
0.088671997 0.021329001 0.22601999
0.089033 0.019345 0.22395
0.088674001 0.020744 0.22545999
-0.0017343001 -0.05683 0.18200999
0.03067 0.011929 0.21956
0.028525 0.010218 0.21793
0.031109 0.0089875003 0.21896
0.028565999 0.056841999 0.17211001
0.048893999 0.038686998 0.22014999
0.028829001 0.00081161002 0.22412001
0.030404 0.0013604 0.22346
0.028687 -0.00090553 0.22382
-0.0045015998 -0.067088 0.24666999
-0.0052721002 -0.065699004 0.24595
-0.0044147 -0.065733999 0.24716
0.070280001 0.044583999 0.21837001
0.072733998 0.044659998 0.21651
0.070298001 0.044776 0.21862
0.041637 0.0079899998 0.2297
0.041691002 0.0091978004 0.22830001
0.040587999 0.0061837002 0.23002
0.04459 0.031406 0.15064
0.085790999 0.058295999 0.16590001
0.085928999 0.057487 0.16283999
0.082530998 0.058341999 0.16423
-0.0067667998 -0.062701002 0.19394
0.0054187002 -0.052019998 0.24433
0.053668 0.054878 0.20079
0.054384999 0.054880001 0.20054001
0.054334 0.054848999 0.19959
0.074997 0.054141998 0.19600999
0.075497001 0.054143 0.19689
0.076163001 0.054292999 0.19633999
0.0059622 -0.052863002 0.24454001
-0.0040136999 0.037432998 0.16463999
0.062286001 0.013307 0.13068999
0.0098235002 0.0091524003 0.18505
0.029722 0.0083357999 0.13510001
0.062601998 0.057289999 0.19828001
0.049931001 0.058297001 0.19561
0.050654002 0.061282001 0.19339
0.049888 0.059322 0.19478001
0.044543002 -0.035590999 0.28575
-0.0098444 -0.042252 0.26146999
0.029143 0.012375 0.22029001
-0.0079640001 -0.043552 0.26271001
-0.0087583 -0.043644998 0.26583001
-0.0086508999 -0.043908 0.2667
-0.0085880999 -0.044668 0.26802
-0.0069725001 -0.046452001 0.26783001
0.050684001 0.06002 0.19642
0.020850001 -0.013079 0.22017001
0.054586001 -0.0047892001 0.23417
0.054836001 -0.0037481999 0.23537999
0.053969 -0.0033499999 0.23243999
0.056816999 0.060263999 0.19114
0.057039 0.059441 0.19234
0.056614 0.058444001 0.1935
-0.0017643 -0.05858 0.18883
0.074304998 0.051033001 0.20382001
0.074777998 0.05223 0.20624
0.075521 0.048563998 0.20595001
0.075076997 0.049586002 0.20533
0.073977999 0.054497998 0.19862001
0.075433001 0.054724999 0.19961999
0.062304001 0.059661001 0.17889
0.069650002 0.015436 0.23639999
0.069472998 0.016539 0.23514
0.070311002 0.014572 0.23564
0.052870002 0.012891 0.23204
0.049803 0.013875 0.23264
0.050159 0.01418 0.23238
0.044677999 -0.038610999 0.28595001
0.025975 0.049851999 0.16534001
0.024281999 0.047129001 0.16520999
0.023289001 0.046016 0.16418999
0.018588999 -0.0020087999 0.14140999
0.027186001 -0.021179 0.14753
0.024947001 -0.023363 0.14952999
0.025082 -0.021837 0.14914
0.079460002 0.034697 0.22419
0.078786999 0.032623 0.22476
0.076624997 0.051963001 0.20336001
0.078406997 0.051716998 0.20370001
0.077285998 0.051492002 0.20259
0.076323003 0.049954001 0.20519
0.078888997 0.050795998 0.20288
0.079209 0.048558 0.20904
0.075317003 0.048349001 0.20372
0.077728003 0.048475001 0.2061
0.077540003 0.049304999 0.20727
0.078777 0.048420001 0.2062
0.080569997 0.047205999 0.20952
0.079276003 0.045991 0.21151
0.080767997 0.042458002 0.21457
0.0098868003 -0.083518997 0.20277999
0.076214999 0.047474001 0.2093
0.076219998 0.049081001 0.20736
0.0087807998 -0.084041998 0.20519
0.015830001 -0.086695999 0.18222
0.014167 -0.084546998 0.18258999
0.052372999 0.060164001 0.19603001
0.043120001 -0.0025694 0.12432
0.058125 0.013171 0.13984001
0.059668001 0.0119 0.13773
0.057594001 0.015658 0.13832
0.040564001 -0.0019940999 0.12512
0.059002001 0.024724999 0.22931001
0.05996 0.024868 0.22954001
0.057595 0.025921 0.22841001
0.076502003 0.010345 0.23229
0.074598998 0.010856 0.23466
-0.0037928 -0.052111998 0.19227999
0.0078910999 -0.079692997 0.18799999
0.0083510997 -0.079742 0.18826
0.029087 -0.012661 0.22349
0.028580001 -0.010955 0.22244
0.027698999 -0.012405 0.22244
0.015088 -0.056136999 0.23104
0.018308001 -0.0025524001 0.14552
0.0042007002 -0.052648999 0.24691001
0.0098257996 -0.084784999 0.20581
-0.02141 -0.038947999 0.27050999
0.063322999 0.013963 0.13253
0.0097789001 0.0090904003 0.1868
0.059282001 0.055679001 0.20081
0.048659999 0.061110999 0.18278
0.049732 0.061972 0.18212999
0.051394001 0.061430998 0.1798
0.050066002 -0.0011796 0.23312999
0.047883999 -0.00042431999 0.23208
0.047798 -0.00068459002 0.23136
0.045379002 0.063084997 0.17832001
-0.0017086 -0.013332 0.16265
-0.002109 -0.011085 0.16103999
-0.0021122999 -0.012966 0.15981001
-0.01011 -0.042282 0.26413
-0.0086572003 -0.044257998 0.26530001
0.024798 0.043573 0.16608
0.097981997 0.037094999 0.19632
0.096207999 0.036541998 0.19358
0.056841001 0.057163 0.19389001
0.061792001 0.053268 0.20517001
0.062560998 0.051034998 0.20750999
0.062403999 0.050280999 0.20622
-0.00090365001 -0.057356998 0.18723001
0.075282 0.052685 0.20457999
0.073698997 0.053206999 0.20139
0.076461002 0.050025001 0.20552
0.076454997 0.052708 0.20248
0.066225 0.057964001 0.18242
0.065601997 0.058401 0.1841
0.067217998 0.057581 0.1832
0.066354997 0.058033001 0.18129
0.024217 0.030452 0.15733001
0.024558 0.030768 0.15685999
0.023135001 0.032839999 0.15896
0.031417001 0.015489 0.13940001
0.080502003 0.038352001 0.21898
-0.0051289001 -0.050783001 0.18832999
-0.0040020002 -0.049603 0.18779001
0.081082001 0.030446 0.22628
0.073682003 0.05672 0.19248
0.075098999 0.055158 0.19385999
0.073965997 0.057592999 0.19066
0.075510003 0.054781001 0.19456001
0.075205997 0.053746998 0.19454999
0.015706999 0.047224998 0.17197999
0.017066 0.048818 0.17082
0.052965 0.060332999 0.18977
0.058210999 0.059367999 0.17384
0.076934002 0.052593 0.20093
0.055286001 0.057629 0.17091
0.076796003 0.053575002 0.19927
0.076026998 0.053344999 0.1982
0.075107001 0.053661998 0.19673
0.06594 0.058929 0.18368
0.034070998 0.017029 0.22141001
0.034421999 0.018409001 0.22199
0.033008002 0.018523 0.22183999
0.0052148998 -0.085578002 0.21236999
0.0051672999 -0.084812 0.21244
0.0086211003 -0.087986998 0.20672999
0.026861999 0.039997 0.1618
0.0045551001 -0.0044141999 0.14596
0.01914 -0.0044955998 0.14441
0.018067 -0.0034453999 0.14486
-0.0098043997 -0.042865001 0.26749
-0.0081259999 -0.044248 0.26739001
-0.0082660001 -0.04479 0.26901999
0.074715003 0.0073976 0.23603
0.073099002 0.00679 0.23559
0.073803999 0.0058725998 0.23576
0.044658002 0.063530996 0.1776
0.045728002 0.064244002 0.17456999
0.017379999 -0.0030962999 0.14328
0.029501 0.012031 0.21823999
0.047609001 0.011308 0.23142999
0.047819 0.011657 0.23221
0.04888 0.012093 0.23294
0.077310003 0.028935 0.22834
0.076566003 0.029343 0.22936
0.044675 0.053985 0.16745
0.047109999 0.052205 0.16379
0.045855001 0.051945001 0.16506
0.047141001 0.062481999 0.18035001
0.049481001 0.063022003 0.17892
0.046349999 0.063248001 0.17667
0.049052 0.062867001 0.18179999
0.087768003 0.062677003 0.19526
0.086553998 0.059236001 0.19461
0.01144 0.0082559995 0.18851
0.061891001 0.055691998 0.19912
0.012275 0.0075021 0.19034
0.041873001 0.00077114999 0.1256
0.041940998 0.00050589 0.12552001
0.0044706999 -0.0016908 0.16557001
0.0023868 -0.0042999 0.16688
0.065796003 0.0099723004 0.12715
0.064221002 0.0094996998 0.12716
-0.010392 -0.041264001 0.26521999
-0.0097147999 -0.041839998 0.26672
-0.0094675003 -0.043083999 0.26657
-0.0095600002 -0.043712001 0.26800999
0.063635997 0.049954999 0.20956001
0.064034 0.049738999 0.20976
0.062933996 0.049578998 0.21016
0.064709 0.048741002 0.21159001
0.0078721996 -0.086957999 0.20653
0.077224001 0.051229 0.2036
-0.0066652 -0.051348999 0.18787999
-0.0060597998 -0.049307998 0.18694
0.011914 -0.055296998 0.23143999
0.081211001 0.037937999 0.22054
0.0058295 0.026312999 0.16985001
0.0077992999 0.028930999 0.17173
0.0052513001 0.027612001 0.17128
0.058626 0.058408 0.17529
0.059576001 0.057980999 0.17704999
0.042156 0.00035007001 0.2295
0.041088 -0.0013385999 0.22888
0.04245 -0.0023276 0.23061
-0.0022217999 -0.065886997 0.18759
0.012119 0.022477999 0.16853
0.0096533997 0.021198999 0.16733
0.010049 0.022500001 0.16647001
-0.014353 -0.042459 0.25011
-0.013001 -0.045054 0.24947
0.028845999 0.0089729996 0.21909
0.028648 0.0092786001 0.21849
0.027613999 0.0066267001 0.21895
0.033257 0.019355001 0.2233
0.033048 0.020582 0.22262
0.032933 0.020157 0.22310001
0.010329 -0.089217998 0.20816
0.026605999 -0.051399998 0.25354001
0.028019 -0.052427001 0.25516999
0.028251 -0.053072002 0.25639999
0.075897001 0.049412999 0.20586
0.038887002 -0.061845001 0.21195
0.039872002 -0.063620999 0.21331
0.030281 0.023705 0.14847
0.060029998 0.057805002 0.19645
-0.0095202001 -0.045524001 0.26898
-0.0086455001 -0.044980999 0.27138999
-0.010378 -0.047394998 0.27157
0.046877 0.063373998 0.17727999
-0.020415001 -0.046882 0.28467
-0.018777 -0.051068999 0.28591999
-0.018797999 -0.048020002 0.28716001
0.017694 -0.0044232998 0.14906
-0.011566 -0.063230999 0.25922
-0.010272 -0.063800998 0.25955999
-0.011231 -0.063515 0.26001
0.078445002 0.045756001 0.21391
-0.0041816998 -0.062189002 0.18749
0.010321 -0.089842997 0.21152
0.010933 -0.089782998 0.21145
0.046528999 0.062159002 0.17979001
0.042392001 0.061345 0.17917
0.034097001 0.058564 0.17129
0.024879999 0.041391999 0.16681001
0.025047 0.041042998 0.16527
0.049125999 0.021972001 0.14564
0.046473999 0.022038 0.14561
0.061097998 0.0229 0.14418
0.084190004 0.055013001 0.16099
0.082599998 0.054958999 0.16041
0.063359998 0.051229998 0.20480999
0.056357 0.031132 0.14895999
0.057845 0.028842 0.14966001
0.067630999 0.053987 0.19783001
0.053766999 -0.013324 0.23151
0.053420998 -0.011514 0.2334
0.052813001 -0.013326 0.2325
0.076091997 0.053713001 0.19850001
0.078550003 0.052974001 0.20148
0.014265 -0.056568999 0.23300999
0.013655 -0.058338001 0.23514999
0.013908 -0.060407002 0.23401999
0.055939 0.057998002 0.17027999
0.056102 0.059365001 0.16804001
0.024815001 0.036028001 0.16226
0.078858003 0.051452 0.20127
0.01183 -0.055895999 0.23398
0.011942 -0.054777 0.23252
0.011003 0.0076659 0.19118001
0.023886001 0.036633998 0.16256
0.052145999 0.0085549001 0.23412
0.049738999 0.0073986002 0.23537999
0.051096998 0.0082901996 0.23348001
0.036885001 0.059994999 0.17105
0.079113998 0.035776 0.22141001
0.045033 -0.00051589002 0.23083
0.043853998 -0.0010267 0.23024
0.044087999 -0.0029751 0.23102
0.013392 -0.011141 0.13026001
0.012523 -0.0096265003 0.13155
0.060449999 0.057693001 0.19766
0.038710002 0.061450999 0.17125
0.0018869 -0.0058853002 0.16350999
0.0011629 -0.0031657 0.16368
0.0029537 -0.0054596001 0.16336
-0.011884 -0.040871002 0.26418999
-0.011374 -0.041639999 0.26664001
-0.010286 -0.042144001 0.26728001
0.013365 -0.010046 0.13237999
-0.01146 -0.043738998 0.26866001
0.061894 0.047630999 0.21173
0.060339 0.049171001 0.21382999
0.077239998 0.047343001 0.21085
0.079109997 0.046252999 0.21319
0.077931002 0.036143001 0.22125
-0.00055815 -0.051670998 0.16695
0.060566001 0.055442002 0.19963001
0.026028 0.031279001 0.15898
-0.0111 -0.044611 0.27059999
-0.0096957004 -0.045931 0.27318001
0.050685 0.061078999 0.18409
0.041963998 0.026915999 0.22409
0.014532 -0.039315999 0.21986
0.013792 -0.038038999 0.21859001
0.013582 -0.039023999 0.21856
0.055463001 0.062456999 0.18953
0.056272 0.061951999 0.19058
-0.0018382 -0.059641998 0.18788999
0.061639 0.054552 0.20117
0.061420001 0.052214999 0.20386
0.078261003 0.050285 0.20255999
0.082310997 0.036075 0.2219
0.014788 -0.01133 0.13288
0.024538999 -0.054621998 0.24862
0.025033001 -0.055769999 0.24877
0.025669999 -0.054662999 0.25095999
0.017284 -0.011071 0.13449
0.081413999 0.044495001 0.21010999
0.081295997 0.047208 0.20863
0.077950999 0.053052999 0.1972
0.020849001 -0.0063224998 0.14903
0.017935 -0.010305 0.13675
0.021596 -0.0099334996 0.14002
0.0088360002 0.0076799002 0.19253001
0.0060161999 0.015877999 0.16254
0.0061443001 0.018731 0.16263001
0.0054682 0.01692 0.16
0.0033547999 -0.07147 0.18544
0.0032976 -0.071634002 0.18434
0.021158 -0.010697 0.13928001
0.023907 -0.0094624003 0.14018001
0.072855003 0.056662999 0.19155
0.073454998 0.056478001 0.19005001
0.011986 0.013079 0.18907
0.071837999 0.05742 0.19067
0.080271997 0.039090998 0.2201
0.075929001 0.047956999 0.20693
0.066825002 0.057629 0.1937
0.069789998 0.058088001 0.19381
0.018797001 -0.090926997 0.19591001
0.064177997 0.048946001 0.21089999
0.041090999 0.062609002 0.1726
0.029021 -0.062509999 0.17834
0.027788 -0.062422 0.17734
0.030737 -0.063447997 0.17812
0.062157001 0.058823999 0.17733
0.061815999 0.057957999 0.17626999
0.015162 -0.063598 0.17583001
0.048604 0.019785 0.14323001
0.042557999 0.052696999 0.16793001
0.041437998 0.054598998 0.16865
0.023643 -0.010526 0.14211001
0.062011 0.048530001 0.21272001
0.074409999 0.047024999 0.21101999
0.02854 0.034743 0.15948001
0.026857 0.034529999 0.15967
0.025799001 0.035491999 0.15993001
0.012351 -0.045566 0.1525
0.024437999 -0.011528 0.14452
-0.0048272 0.035179999 0.15951
-0.0031300001 0.037567999 0.16438
-0.0048524002 0.037836999 0.16395
0.064044997 0.031008 0.22815999
0.063573003 0.031723998 0.22846
0.062679 0.031243 0.22743
0.0012696 -0.055996999 0.17084
0.00085084001 -0.057797998 0.17143001
0.073446997 0.040217001 0.14801
0.072921 0.037935998 0.1477
0.071764 0.039115999 0.14858
0.029678 0.015488 0.13752
0.030605 0.013191 0.13880999
-0.012692 -0.041009001 0.26576
0.061572 0.054923002 0.20156001
0.062586002 0.057277001 0.20017
0.022883 -0.012694 0.14359
0.0048278002 -0.085832998 0.21362001
0.024754001 -0.013247 0.14651
-0.011975 -0.041421998 0.26625001
-0.012904 -0.043299001 0.26907
-0.010422 -0.040217001 0.26916999
0.010353 0.012459 0.17143001
0.061524998 0.06036 0.1873
0.065361001 0.059138998 0.18768001
0.080840997 0.046456002 0.20846
0.064002 0.058573999 0.18942
0.082286999 0.043166999 0.21254
0.011212 -0.081690997 0.19717
0.014225 -0.084017999 0.18970001
0.086277001 0.046675999 0.19938
-0.012201 -0.051454 0.24775
-0.013132 -0.050829001 0.24595
0.071912996 0.037248001 0.22104
0.071355 0.039607 0.22156
0.068512 0.038539 0.22398999
0.068167999 0.055886999 0.19752
0.060410999 0.059886001 0.18523
0.062774003 0.048562001 0.21423
0.013391 -0.089363001 0.20183
0.017648 -0.090149999 0.19707
0.015716 -0.086502001 0.19291
0.013338 -0.086579002 0.19563
-0.011835 -0.043960001 0.27085999
-0.01073 -0.045926999 0.27067
0.014564 -0.0038242999 0.13897
0.075893 0.048377998 0.20927
-0.00073671999 -0.074716002 0.20061
0.026525 -0.013336 0.14198001
0.026513999 -0.013081 0.14391001
0.011949 -0.083873004 0.1989
0.015185 -0.014558 0.13117
0.10238 0.01294 0.20706999
0.042270999 -0.030443 0.28580001
0.016849 -0.016332 0.12822001
0.016228 -0.017317001 0.12819
0.017059 -0.016417 0.12914
0.0064809001 -0.078455999 0.18395001
0.0082256999 -0.078754999 0.18669
0.0016191 -0.055413 0.16941001
0.0022265001 -0.056674 0.17227
0.037388001 0.061379999 0.17488
0.037044998 0.060982 0.17509
-0.0022839 -0.064499997 0.24259999
0.016586 -0.0027367999 0.14035
0.024954 -0.0028527 0.22188
0.079268999 0.062394001 0.16927999
0.034612 -0.00010679 0.12791
0.033964001 -0.00050990999 0.12727
0.029875999 -0.0051131002 0.223
0.028705999 -0.0062314998 0.22316
-0.002115 0.038449001 0.16603
0.080820002 0.017716 0.23288999
0.080770001 0.016758 0.23096
0.082060002 0.015135 0.23286
0.026161 -0.0018209 0.22318
0.026862999 -0.0035611 0.22149
0.028479001 -0.015379 0.14372
0.0089867003 -0.076182999 0.17851
0.058763001 0.061540999 0.1822
0.10304 0.022759 0.19908001
-0.016803 -0.036963001 0.27667999
0.10669 0.052588001 0.18505999
