# .PCD v0.7 - Point Cloud Data file format
VERSION 0.7
FIELDS x y z
SIZE 4 4 4
TYPE F F F
COUNT 1 1 1
WIDTH 1527
HEIGHT 1
VIEWPOINT 0 0 0 1 0 0 0
POINTS 1527
DATA ascii
-0.048836999 0.12383 0.14564
-0.049725 0.13021 0.15053999
-0.045159001 0.13581 0.15399
-0.048443999 0.13224 0.15277
-0.046882 0.13382 0.1531
0.084623002 0.10816 0.045637
0.082167 0.105 0.044842999
0.081069 0.10513 0.045044001
0.083084002 0.1059 0.044897001
0.084996 0.1089 0.045706999
0.085837997 0.11184 0.048062999
0.084917001 0.11133 0.048338
0.083926998 0.11123 0.048764002
0.046441 0.059944 0.028696001
0.045743998 0.059349999 0.028302999
0.047246002 0.060743 0.029093999
0.046704002 0.060959 0.029453
0.044257998 0.057479002 0.028240999
0.043343 0.057036001 0.028151
0.082216002 0.11164 0.050508
0.083070002 0.11103 0.049137
0.045809999 0.061271001 0.030537
0.078018002 0.10544 0.047564
0.076802999 0.10598 0.048900999
0.082456 0.11386 0.052530002
0.081803001 0.1144 0.052875001
0.044055 0.062806003 0.032375999
0.059691001 0.084565997 0.041510001
0.060726002 0.085529998 0.041414
0.061666999 0.083525002 0.04276
0.063189 0.084838003 0.044686001
0.050574001 0.071354002 0.036086999
0.051359002 0.071244001 0.037041999
0.054000001 0.076118 0.037714999
0.053936001 0.071209997 0.039611001
0.053782001 0.072463997 0.039255999
0.054722 0.073767997 0.039829999
0.055785 0.075208999 0.039979
0.054639 0.075535998 0.038895
0.073664002 0.10146 0.049454
0.057413001 0.083517 0.040897999
0.057193 0.083067 0.040948
0.058318 0.083976999 0.040824
0.058070999 0.083371997 0.041315001
0.078322001 0.11688 0.057326
0.031114999 0.055922002 0.035146002
0.032014001 0.055349998 0.033916999
0.032224 0.054822002 0.035877999
0.03101 0.057068001 0.036208998
0.030913001 0.057549998 0.036912002
0.031268001 0.058440998 0.037622999
0.070202999 0.11598 0.061491001
0.028716 0.059294 0.040151998
0.04603 0.086806998 0.052386999
0.055518001 0.10038 0.057192001
0.054859001 0.099092998 0.057117999
0.048680998 0.091286004 0.053702999
0.056056999 0.10061 0.057913002
0.055828001 0.10104 0.058618002
0.065204002 0.11429 0.062788002
0.026521999 0.060265999 0.041703999
0.067190997 0.11662 0.064150997
0.067688003 0.11719 0.064076997
0.033943001 0.071134001 0.04637
0.063555002 0.11363 0.064223997
0.062743999 0.11324 0.064213
0.061636001 0.11278 0.064507999
0.060693 0.11264 0.064696997
0.032226 0.074479997 0.050494999
0.032487001 0.073329002 0.049405999
0.059021 0.11141 0.064831004
0.057994999 0.11116 0.064751998
0.031404998 0.074796997 0.051403001
0.053208999 0.10347 0.061797
0.052439999 0.10445 0.062610999
0.052978002 0.10484 0.063883997
0.031030999 0.075928003 0.052924
0.036787 0.084077001 0.056060001
0.052347999 0.10606 0.064163998
0.054451 0.10891 0.065449998
0.053766001 0.10772 0.065279998
0.024235999 0.067987002 0.049502
0.052540001 0.10665 0.065018997
0.022705 0.066853002 0.049339999
0.025072999 0.070202 0.050687999
0.034722 0.085860997 0.057753999
0.035138 0.085221 0.057964999
0.020918 0.064406998 0.049334999
0.028310999 0.075042002 0.053977001
0.023992 0.070423 0.052225001
0.029908 0.078290001 0.055516001
0.028944001 0.078541003 0.056545001
0.038410001 0.091863997 0.061701
0.037735999 0.091286004 0.061489999
0.018236 0.065384999 0.052170999
0.023513 0.072057001 0.054439999
0.035587002 0.088803999 0.059942
0.017532 0.064939 0.051667999
0.035048001 0.088872001 0.061340999
0.039246 0.093418002 0.062284999
0.039816 0.093897998 0.062910996
0.040484 0.096166998 0.063698001
0.023238 0.073284999 0.054786
0.035854999 0.090147004 0.061581001
0.040823001 0.096868999 0.064373001
0.040628001 0.098163001 0.064374
0.016902 0.065467 0.053105
0.040782999 0.098269999 0.065403
0.041473001 0.099441998 0.066257
0.041363999 0.10059 0.066569
0.022802999 0.075622 0.056642
0.022454999 0.075204998 0.057433002
0.023507999 0.076155998 0.057959002
0.041125 0.10099 0.067667
0.017495001 0.068818003 0.054784998
0.041549999 0.1022 0.068195999
0.018073 0.070343003 0.056101002
0.018052001 0.071142003 0.056883998
0.018031999 0.072089002 0.057668
0.041347001 0.10509 0.070568003
0.017929001 0.072407998 0.058437001
0.040872 0.10683 0.072080001
0.040759001 0.10819 0.073284999
0.017353 0.073353998 0.059213001
0.040676001 0.10889 0.074845999
0.015795 0.074196003 0.061425
0.015052 0.074959002 0.060563002
0.014621 0.074597999 0.061866
0.039797999 0.1109 0.075833
0.048413001 0.12224 0.080357
0.039779 0.1101 0.075828999
0.048041999 0.12174 0.080412999
0.011744 0.071125999 0.061239
0.010532 0.071070999 0.061645001
0.039647002 0.11134 0.077141002
0.047219999 0.12208 0.081174001
0.047400001 0.12269 0.081684999
0.0089135999 0.070312999 0.062433001
0.038640998 0.11152 0.078224003
0.0080281002 0.071006 0.063289002
0.038065001 0.11306 0.079655997
0.0068601002 0.071686998 0.063992999
0.037276 0.11345 0.080963999
0.0056336001 0.071852997 0.064843997
0.036265999 0.11452 0.081692003
0.0060802 0.073236004 0.065925002
0.0088942004 0.077039003 0.068070002
0.0071061999 0.075580001 0.067038998
0.034751002 0.1156 0.083632998
0.034805 0.11454 0.083480999
0.0087265996 0.078565001 0.069439001
0.033938002 0.11601 0.084757999
0.0082780998 0.081023 0.071197003
0.0075281002 0.081217997 0.071505003
0.033278 0.11631 0.085546002
0.0043696999 0.080642998 0.074004002
0.0052784998 0.081595004 0.074253999
0.0016120001 0.078286 0.073615998
0.00079923001 0.077691004 0.073537
-0.0016646 0.076759003 0.074445002
-0.00078844 0.077129997 0.073905997
-0.0028682 0.077041999 0.075710997
-0.0035746 0.077454001 0.076350003
0.027307 0.12085 0.093351997
-0.0034292 0.078460999 0.077082001
0.029416 0.12474 0.094967999
-0.0040074 0.078909002 0.077868
0.029261 0.1252 0.095969997
0.029469 0.12598 0.096318997
-0.0047698002 0.079418004 0.078676
0.026744001 0.12276 0.096000001
0.029281 0.12624 0.097282
-0.0025528001 0.083053999 0.080426998
0.02813 0.12498 0.096931003
-0.0044788001 0.082298003 0.08027
-0.0014076 0.086135998 0.082668997
-0.0016017 0.086406998 0.081689
-0.0026036999 0.086842 0.083701
0.02671 0.12865999 0.10072
-0.0053750998 0.088028997 0.086525001
-0.0038683999 0.087495998 0.085081004
0.025877999 0.13037001 0.10326
-0.0097673004 0.082525 0.084710002
-0.010803 0.081363 0.085027002
-0.0076624001 0.085675001 0.086383998
0.023940001 0.13152 0.10491
-0.011005 0.084354997 0.087361
-0.0096436003 0.086942002 0.088515997
-0.0098238997 0.086290002 0.087360002
0.024155 0.13185 0.10512
-0.011831 0.083172001 0.086597003
-0.010207 0.087854996 0.089799002
-0.011061 0.088777997 0.090630002
0.021543 0.13342001 0.10824
0.020965001 0.13418999 0.1094
-0.012822 0.089446999 0.093030997
-0.013735 0.089734003 0.094099
-0.014851 0.09042 0.095154002
0.017115001 0.13590001 0.11363
-0.015914001 0.092253 0.097087003
-0.016000999 0.092646003 0.097232997
-0.016461 0.093015 0.098678999
0.01528 0.13666999 0.11563
0.014455 0.13868 0.1164
0.013487 0.13894001 0.1173
0.013591 0.13756999 0.11744
0.012389 0.13909 0.1182
0.011464 0.13946 0.11922
0.01242 0.13804001 0.11884
0.011038 0.13841 0.11964
0.010409 0.13985001 0.12009
0.01026 0.13912 0.12039
0.010113 0.14026999 0.12098
0.0094429003 0.13950001 0.12109
0.0077995998 0.13691001 0.1201
0.0070885001 0.13542999 0.11986
0.0056934999 0.13496999 0.12027
0.0077197999 0.13863 0.12203
0.0060855998 0.13871001 0.12298
0.002412 0.13333 0.12097
0.0061185001 0.14105 0.12417
0.0015525999 0.13325 0.12152
-0.022949999 0.099738002 0.10841
-0.00049986999 0.13233 0.12196
0.0044596 0.13970999 0.12471
-0.023490001 0.10101 0.10899
-0.023412 0.10167 0.11005
-0.023283999 0.10193 0.11076
-0.0037350999 0.13232 0.12354
-0.024697 0.10347 0.11261
-0.0043143001 0.13228001 0.12474
-0.0030265001 0.13356 0.1238
-0.0034006999 0.13401 0.12506001
0.0012577 0.14031 0.12713
-0.0041982001 0.13477001 0.12602
-0.025629999 0.10352 0.11355
-0.026574999 0.1039 0.11411
-0.00065007003 0.13965 0.12833001
-0.027298 0.10409 0.11416
-0.028398 0.10356 0.11485
-0.0047729001 0.13499001 0.12684999
0.00097077002 0.14179 0.12894
-0.029417999 0.10353 0.11576
-0.001003 0.14224 0.13097
-0.030317999 0.1031 0.11523
-0.0070262998 0.13585 0.1292
-0.0040181 0.14016999 0.13086
-0.0029593001 0.13947 0.13021
-0.0023558 0.14271 0.13155
-0.031392001 0.10294 0.116
-0.0032408 0.14283 0.13271999
-0.033707999 0.10307 0.11743
-0.0042837001 0.14325 0.13373999
-0.0059250002 0.14034 0.13240001
-0.0072248001 0.14114 0.13372999
-0.0050666998 0.14427 0.13469
-0.004985 0.14523999 0.1348
-0.0088154003 0.13672 0.13104001
-0.010201 0.13721 0.13237
-0.035788 0.1037 0.11961
-0.0082047004 0.14153001 0.13507
-0.010934 0.1374 0.13304999
-0.0086805997 0.14179 0.13564999
-0.0095220003 0.14232001 0.13565999
-0.037930001 0.10481 0.12125
-0.01379 0.1389 0.13556001
-0.038525 0.10498 0.12294
-0.0084373998 0.14613999 0.13936
-0.039666001 0.10503 0.12384
-0.015924999 0.13792001 0.13665
-0.015454 0.13917001 0.13654999
-0.040114 0.10581 0.12496
-0.012708 0.14458001 0.1399
-0.040676001 0.10508 0.12483
-0.016696 0.13857 0.1374
-0.017759001 0.13896 0.13824999
-0.042087998 0.10534 0.12564
-0.039503999 0.10725 0.12543
-0.040821999 0.10723 0.12596001
-0.041251 0.108 0.12733001
-0.014061 0.14514001 0.14120001
-0.04005 0.11046 0.12818
-0.014548 0.14459001 0.14205
-0.043377001 0.10591 0.1267
-0.019165 0.1392 0.13945
-0.041623998 0.10891 0.12746
-0.019184999 0.14067 0.13964
-0.044372 0.106 0.12743001
-0.041618999 0.10924 0.12859
-0.040426001 0.1107 0.12913001
-0.019792 0.13991 0.14007001
-0.019566 0.14022 0.14025
-0.015972 0.14462 0.14261
-0.042647 0.10983 0.12967999
-0.045262001 0.10692 0.12804
-0.042102002 0.1111 0.12961
-0.020678001 0.14018001 0.14116
-0.019548999 0.14189 0.14156
-0.041542001 0.11206 0.12999
-0.042240001 0.11241 0.13155
-0.020528 0.14222001 0.14257
-0.045715999 0.10758 0.12857001
-0.044810999 0.10845 0.12946001
-0.042721 0.11103 0.13124
-0.041269999 0.11312 0.13188
-0.021031 0.14149 0.14274999
-0.020083001 0.14172 0.14167
-0.045283999 0.1098 0.13042
-0.044589002 0.10946 0.13005
-0.045042999 0.11055 0.1314
-0.018433999 0.14692999 0.14627001
-0.045788001 0.11042 0.13262001
-0.017394001 0.14940999 0.14756
-0.04662 0.11028 0.13234
-0.017991999 0.1487 0.14714999
-0.047297001 0.11066 0.13339999
-0.024773 0.14106999 0.14470001
-0.025911 0.14050999 0.14426
-0.048250001 0.11096 0.13356
-0.027697001 0.13946 0.14495
-0.026560999 0.13963 0.14406
-0.026556 0.14059 0.14483
-0.047701001 0.11131 0.13445
-0.047132999 0.11332 0.13600001
-0.047219001 0.11256 0.1353
-0.047038998 0.11392 0.13614
-0.029201999 0.13948999 0.1464
-0.046720002 0.11519 0.13727
-0.029677 0.13999 0.14732
-0.030236 0.14013 0.14845
-0.048223 0.12097 0.14336
-0.049070001 0.12182 0.14432999
-0.038989 0.13954 0.15335999
-0.049763002 0.12620001 0.14858
-0.050140999 0.12741999 0.14861999
-0.041230999 0.13858999 0.15357
-0.042507999 0.13783 0.15362
-0.049775001 0.12785999 0.15003
-0.043696001 0.13680001 0.15395001
-0.049803 0.12851 0.15078001
0.080058001 0.10545 0.046246
0.079521 0.10568 0.046944998
0.057330001 0.075277999 0.041515
0.057822999 0.076471001 0.041710999
0.058350999 0.075501002 0.042585
0.070725001 0.098228998 0.047081999
0.074395001 0.10032 0.050080001
0.075349003 0.10158 0.050714999
0.037932999 0.054172002 0.028989
0.03723 0.053934999 0.029465999
0.036269002 0.053683002 0.030369001
0.035096001 0.053569999 0.031187
0.080256999 0.11623 0.055495001
0.079242997 0.11679 0.056097001
0.033530999 0.054155 0.031897001
0.072977997 0.11566 0.059526
0.050117001 0.092295997 0.054483999
0.065684997 0.11452 0.063584998
0.048319999 0.090536997 0.053971
0.066849999 0.11584 0.063878
0.029441999 0.064579003 0.044109002
0.029928001 0.065872997 0.044151999
0.033558 0.070584998 0.046103999
0.041650001 0.082544997 0.050905
0.03393 0.072393 0.047244001
0.028574999 0.073507003 0.052253999
0.029510999 0.074291997 0.052418001
0.030366 0.075502999 0.052478999
0.022026001 0.065440997 0.049724001
0.027070001 0.072607003 0.052528001
0.027935 0.074417002 0.053816002
0.024832999 0.077225998 0.057551
0.016597999 0.066087998 0.054001
0.041324001 0.10198 0.068974003
0.041281998 0.10554 0.072143003
0.040479001 0.10705 0.073233001
0.016077001 0.073954001 0.060621999
0.040392999 0.1084 0.074203998
0.039035998 0.11034 0.076889001
0.0096413996 0.076647997 0.067318
0.0080656996 0.074725002 0.066606
0.0085354997 0.078024 0.068625003
0.031551 0.11758 0.087800004
0.028193999 0.11915 0.092292003
0.028069001 0.12052 0.092702001
-0.00077004998 0.083515003 0.079645
0.00016513 0.084564 0.080008999
0.026420999 0.12182 0.095666997
0.02661 0.12937 0.10166
-0.0095210997 0.083535001 0.085211001
-0.0099518001 0.08608 0.087679997
-0.017704001 0.093828999 0.099477001
-0.018762 0.094377004 0.10042
-0.019633001 0.095275 0.10213
-0.0206 0.096244 0.10395
-0.021817001 0.09815 0.10624
0.0046726 0.13445 0.12014
0.005254 0.13880999 0.12385
0.0065414999 0.13987 0.12455
0.0054695001 0.14094 0.1256
0.0043501002 0.14125 0.1268
0.003083 0.14154001 0.12758
0.0020357999 0.1419 0.12797
-0.0049441 0.14012 0.13175
-0.038091999 0.10649 0.12469
-0.038676001 0.1101 0.12734
-0.039754 0.11147 0.12961
-0.017047999 0.14467999 0.14331
-0.044317 0.10763 0.12835
-0.040183999 0.11293 0.13116001
-0.021988001 0.13996001 0.14202
-0.022523999 0.13905001 0.14228
-0.043731999 0.10965 0.13079999
-0.023010001 0.1408 0.14314
-0.023740999 0.13968 0.14279
-0.024672 0.13981 0.14383
-0.025531 0.139 0.14323001
-0.027766 0.13841 0.14528
-0.034922998 0.14034 0.15274
-0.034001999 0.14009 0.15208
-0.049724001 0.12931 0.15104
-0.049144998 0.12994 0.15178999
0.083890997 0.10669 0.045263
0.079911999 0.11599 0.057041999
0.070670001 0.11497 0.060849998
0.050347 0.092660002 0.054692
0.047161002 0.087794997 0.053105999
0.047534999 0.088898003 0.05342
0.028429 0.063114002 0.043605998
0.031789999 0.068066001 0.045272
0.043503001 0.084210999 0.051530998
0.051011998 0.093877003 0.055328999
0.040442001 0.082415 0.052439
0.059774999 0.11196 0.065531
0.054127 0.10258 0.061170001
0.055856999 0.10902 0.065586999
0.024106 0.067273997 0.050407998
0.035960998 0.084576003 0.056855999
0.024075 0.070929997 0.053566001
0.027043 0.079074003 0.058366999
0.04084 0.099676996 0.066739
0.038109999 0.11035 0.078166999
0.0087267002 0.075664997 0.066565
0.034954 0.11287 0.082454003
0.035904001 0.11281 0.081549004
0.034272 0.1133 0.083214
0.033206001 0.11481 0.084886
0.032905001 0.11435 0.084587
0.032449 0.11513 0.085589997
0.031585 0.11541 0.086539
0.025664 0.12089 0.095432997
-0.010317 0.085665002 0.087883003
-0.015223 0.090620004 0.095454
0.016376 0.13646001 0.11434
0.0078557003 0.13612001 0.11948
0.00040322999 0.14202 0.12997
-0.0024635 0.13947 0.12988
-0.0055247 0.14503001 0.13603
-0.014544 0.13768999 0.1355
-0.037735 0.10765 0.12491
-0.010552 0.14669999 0.14093
-0.037751999 0.10916 0.12639999
-0.018285001 0.13756999 0.13786
-0.019781999 0.13786 0.13891
-0.020810001 0.13847999 0.14026999
-0.039064001 0.11124 0.12909
-0.043432999 0.10682 0.12828
-0.039221998 0.11257 0.13051
-0.021613 0.13877 0.14089
-0.043310001 0.10838 0.12922999
-0.042488001 0.11265 0.13271999
-0.015113 0.148 0.1468
-0.024397001 0.13831 0.14281
-0.026916999 0.13804001 0.14407
-0.04679 0.12039 0.14194
-0.033702001 0.14098001 0.15086
-0.034217998 0.14089 0.15113001
-0.049591001 0.1248 0.14735
-0.049772002 0.12692 0.14940999
-0.041898001 0.13809 0.15408
-0.048847001 0.13115001 0.15293001
0.064718001 0.089166 0.044287998
0.045999002 0.063854001 0.034538001
0.027582999 0.062256999 0.042994
0.031270001 0.066740997 0.045198001
0.032657001 0.069204003 0.045628998
0.042955998 0.082989998 0.051158998
0.039771002 0.082239002 0.053523
0.058701001 0.11122 0.065907001
0.027217001 0.071626998 0.052747
0.024178 0.069173001 0.052097
0.034696002 0.085423999 0.058832999
0.034559999 0.087945998 0.061144002
0.037119001 0.090815 0.061983
0.022493999 0.074203998 0.057560999
0.024564 0.077338003 0.058347002
0.022043001 0.075548999 0.058504
0.039765999 0.10707 0.074215002
0.039597999 0.10868 0.075677998
0.015175 0.074352004 0.062274002
0.038426999 0.10847 0.076931998
0.037058 0.11056 0.078953996
0.0075543001 0.071505003 0.064793997
0.0084047997 0.071222998 0.063812003
0.037176002 0.1121 0.080932997
0.0097933002 0.075121 0.066333003
0.0075999 0.073565997 0.066505
0.0097182998 0.079130001 0.069360003
0.032265 0.11418 0.085924
0.030839 0.11597 0.087388001
0.030045999 0.11763 0.08929
0.029885 0.11636 0.089063004
0.029177999 0.11768 0.090034999
0.027458001 0.11995 0.093466997
0.0011503 0.083843 0.079392001
0.00068808999 0.083206996 0.079341002
0.026389999 0.1208 0.094430998
-0.0030586999 0.081906997 0.080321997
-0.00065429998 0.085653998 0.081940003
0.025185 0.13124 0.10459
-0.010045 0.087259002 0.089610003
0.022094 0.13349 0.10918
0.010722 0.13797 0.1213
0.0080733998 0.13546 0.11991
-0.021516001 0.097184002 0.10534
-0.0037096001 0.13413 0.12616
-0.0014601999 0.14195 0.13268
-0.030693 0.10334 0.11698
-0.0028440999 0.14237 0.13247
-0.0023421999 0.14217 0.13237999
-0.031488001 0.10385 0.11789
-0.033174999 0.10326 0.11839
-0.034756999 0.10311 0.11936
-0.035308 0.10363 0.12034
-0.0057791998 0.14467999 0.13777
-0.012251 0.13726 0.13394
-0.013549 0.13693 0.13494
-0.015337 0.13643 0.13582
-0.016615 0.13714001 0.13664
-0.011171 0.14403 0.13974001
-0.012385 0.1443 0.14026999
-0.017379001 0.13713001 0.13732
-0.040906999 0.10634 0.12654001
-0.011189 0.14688 0.14177001
-0.01915 0.13673 0.13831
-0.013393 0.14473 0.1418
-0.038575999 0.11007 0.12819999
-0.02004 0.13693 0.13897
-0.021276001 0.13704 0.1399
-0.022374 0.13745999 0.14022
-0.023556 0.13775 0.14137
-0.023971001 0.13691001 0.14155
-0.043574002 0.11102 0.13252001
-0.041944001 0.11303 0.13262001
-0.025196999 0.13699 0.14252999
-0.025857 0.13766 0.14303
-0.018066 0.14756 0.14713
-0.045832999 0.13449 0.15403
0.047038 0.058908999 0.029154999
0.045281999 0.05697 0.029092001
0.046456002 0.058222 0.02943
0.044105001 0.055941999 0.028864
0.043161001 0.054708 0.028891999
0.083645001 0.11033 0.050227001
0.058199 0.080215 0.041115001
0.064320996 0.088108003 0.043567002
0.063566998 0.087300003 0.043212
0.076053999 0.10455 0.050004002
0.044617999 0.061721999 0.033328
0.047827002 0.064809002 0.035781
0.048335001 0.065503001 0.036534
0.052852001 0.071664996 0.038456999
0.053690001 0.073898003 0.038442999
0.068660997 0.092490003 0.046879001
0.070263997 0.095112003 0.047763001
0.070721999 0.095687002 0.048039999
0.081436001 0.11485 0.055628002
0.080678999 0.11576 0.056357
0.071046002 0.11467 0.061622001
0.069124997 0.11643 0.065076001
0.053636 0.097329997 0.056396998
0.054125998 0.097947001 0.057085
0.051801 0.095085002 0.055865999
0.052749 0.096026003 0.056072
0.042371999 0.081477001 0.051454
0.041202001 0.081638001 0.051580001
0.051546 0.093289003 0.056285001
0.051297002 0.092952996 0.056340002
0.034327999 0.070761003 0.047876
0.031759001 0.073112004 0.050719
0.053851001 0.10592 0.065572001
0.028200001 0.072834998 0.053102002
0.023150999 0.065986998 0.051024001
0.030123999 0.076885998 0.054643001
0.029558999 0.075819001 0.053943999
0.034616999 0.085568003 0.060284998
0.019634999 0.064318001 0.051778998
0.018762 0.065049 0.052781001
0.037514001 0.090372004 0.062765002
0.038096 0.090800002 0.062512003
0.025594 0.078148998 0.058938999
0.022438001 0.075888 0.058935001
0.041165002 0.10126 0.068774
0.040601 0.10574 0.073186003
0.039264999 0.1073 0.074895002
0.038320001 0.10932 0.077648997
0.036796 0.11114 0.080369003
0.0092080003 0.074649997 0.066535003
0.010606 0.076076001 0.066593997
0.035980001 0.11161 0.081151001
0.031973001 0.11447 0.086228997
0.0071076001 0.081123002 0.073429003
0.028937999 0.11761 0.091078997
0.00014845 0.076964997 0.075142004
0.028971 0.1173 0.091695003
-0.0012291 0.082370996 0.080283999
0.025552999 0.1197 0.095895
0.025022 0.11997 0.096950002
0.024723999 0.12119 0.096381001
0.025250999 0.12174 0.096634001
0.024150999 0.12096 0.098053999
-0.0072817998 0.085369997 0.087458
0.022272 0.13260999 0.10958
-0.0020687999 0.13067999 0.12345
0.0068415999 0.13921 0.12535
0.0055227 0.13965 0.12619001
0.00048198001 0.13978 0.12785
-0.0039599999 0.13343 0.12672
-0.0047610002 0.13352001 0.1278
-0.0059393998 0.13428999 0.12848
-0.010836 0.13661 0.1329
-0.034763001 0.10381 0.12085
-0.01442 0.13629 0.13474
-0.0066839 0.14518 0.13872001
-0.036839999 0.10717 0.12454
-0.037475001 0.10638 0.12423
-0.039129 0.10591 0.12509
-0.0097289998 0.14613999 0.1406
-0.037172001 0.10836 0.1257
-0.042199001 0.10798 0.12898999
-0.038158 0.11213 0.12987
-0.042213 0.10798 0.12883
-0.045924999 0.11582 0.13797
-0.030149 0.13953 0.14891
-0.045745999 0.11813 0.14083
-0.036509 0.13964 0.15324
-0.037261002 0.1393 0.15389
-0.038415998 0.13882001 0.15434
-0.047653001 0.13237 0.15381999
0.084761001 0.10636 0.045767002
0.083768003 0.1051 0.045189001
0.084991999 0.10677 0.045938998
0.080623999 0.10452 0.046930999
0.081524998 0.1042 0.045935001
0.083214998 0.11093 0.051047999
0.078744002 0.10508 0.048505001
0.082961001 0.11206 0.051867001
0.044980001 0.061227001 0.032501001
0.039517999 0.053546999 0.029547
0.038582001 0.053451002 0.030138001
0.059314001 0.081381001 0.041313998
0.074478 0.10267 0.049210001
0.075666003 0.10366 0.049936999
0.048627 0.066711999 0.035980001
0.04989 0.067411996 0.037082002
0.049975999 0.069395997 0.036665
0.050824001 0.070643 0.036667001
0.057071999 0.07779 0.040353999
0.058307 0.078409001 0.041312002
0.060208 0.083815001 0.042305
0.081983998 0.11446 0.055034999
0.078785002 0.11631 0.058150999
0.077969 0.11629 0.058642998
0.077659003 0.11568 0.059411
0.076398998 0.11595 0.059774
0.031713001 0.055952001 0.036460999
0.074426003 0.11531 0.060222
0.071901001 0.11317 0.062385999
0.070165001 0.11627 0.064292997
0.027061 0.059119001 0.042780001
0.028145 0.058563001 0.041544002
0.056818001 0.10048 0.058881
0.05632 0.10115 0.059530001
0.046402 0.086158 0.053174999
0.047155999 0.086933002 0.053943001
0.065761 0.11441 0.064657003
0.067231998 0.11517 0.064608
0.033011001 0.068281002 0.04642
0.041829001 0.080899 0.05181
0.055206001 0.10167 0.060206998
0.034575999 0.071765997 0.048200998
0.032607999 0.072500996 0.050000001
0.040789001 0.08134 0.052824002
0.055057 0.10248 0.061967999
0.062570997 0.11237 0.066284999
0.060532 0.11171 0.066311002
0.054076001 0.10346 0.062685996
0.059055001 0.11099 0.066754997
0.038844001 0.081825003 0.054763999
0.037668999 0.082594 0.055558998
0.054575998 0.10707 0.066001996
0.055147 0.10768 0.066481002
0.031019 0.075580001 0.053987999
0.029022001 0.074106999 0.053934
0.030719999 0.076265 0.055193
0.036166001 0.083883002 0.057082001
0.024321999 0.068034999 0.051566001
0.024087001 0.067295998 0.051380001
0.022188 0.064969003 0.050735001
0.030610999 0.076880999 0.055484001
0.030131999 0.077477001 0.056368999
0.020068999 0.063298002 0.050918002
0.021397 0.063862003 0.050379999
0.020047 0.064055003 0.050223999
0.029637 0.078147002 0.0568
0.034800999 0.084742002 0.059957001
0.039708 0.092698 0.062889002
0.028829001 0.078608997 0.058402002
0.038709 0.091638997 0.063143
0.034325998 0.086978003 0.061383002
0.034421999 0.086125001 0.061096001
0.035594001 0.088772997 0.062531002
0.033909999 0.087305002 0.062914997
0.034974001 0.088326 0.062541999
0.022733999 0.072949998 0.056910999
0.026415 0.07886 0.060237002
0.041641001 0.099018998 0.067876004
0.017162001 0.065646999 0.055055998
0.018176001 0.067263 0.055810001
0.022589 0.074040003 0.058001
0.024548 0.077188 0.059342999
0.018745 0.069725998 0.056738999
0.0189 0.069057003 0.056527
0.022794001 0.075933002 0.059587002
0.023909001 0.076258004 0.058908001
0.019083999 0.070611 0.057668999
0.018239001 0.071593001 0.05799
0.018784 0.071943 0.058951002
0.040394001 0.10474 0.072443001
0.040575001 0.10387 0.072526999
0.040440001 0.10578 0.073717996
0.014527 0.073720999 0.063271999
0.038925 0.1069 0.075998001
0.037898999 0.10919 0.078100003
0.036658999 0.1102 0.079663001
0.010249 0.075228997 0.066613004
0.0094187995 0.073683001 0.066115998
0.0081436001 0.071730003 0.065314002
0.0083469003 0.073881 0.066468999
0.010533 0.076429002 0.068201996
0.0081457002 0.073315002 0.066581003
0.0075345999 0.072732002 0.066207998
0.010325 0.077597998 0.069430999
0.010905 0.078659996 0.070031002
0.034731001 0.11227 0.082827002
0.033178002 0.11286 0.085096002
0.031812999 0.11384 0.087123998
0.031135 0.11482 0.088280998
0.031314999 0.11459 0.087442003
0.0068954998 0.081055 0.074137002
0.029952001 0.11559 0.089663997
0.0016758 0.077014998 0.074940003
0.00030556001 0.077105999 0.075415999
0.0019558 0.082238004 0.078555003
0.0025821 0.083305001 0.079093002
0.027362 0.11892 0.093726002
-0.0033807999 0.078582004 0.078813002
0.026110999 0.11925 0.094802998
-0.0033289001 0.079976 0.079685003
0.026121 0.12262 0.097756997
0.026528999 0.12299 0.096855998
0.025176 0.12161 0.097346999
-0.00061307999 0.085559003 0.083504997
0.027835 0.12729 0.1005
0.027145 0.12781 0.10123
-0.0031715001 0.087030001 0.086754002
-0.0085188998 0.082952999 0.086226001
-0.0079202997 0.083962001 0.087033004
-0.0053714998 0.087568 0.088224001
-0.0062178001 0.086351 0.087968998
0.024992 0.13118 0.10626
-0.011776 0.081722997 0.087288
-0.011545 0.082622997 0.088033997
0.024145 0.13201 0.10769
-0.0099483998 0.086424999 0.090029001
0.021258 0.13378 0.11009
0.020500001 0.13341001 0.11126
-0.014409 0.089055002 0.095973998
-0.015660999 0.091136999 0.098012999
-0.017735999 0.093624003 0.10142
0.012904 0.13727 0.1191
-0.019136 0.095031999 0.10384
0.0088713001 0.13541999 0.12091
0.0066956999 0.13407999 0.12078
0.0074383002 0.13454001 0.12057
0.0097650001 0.13838001 0.1223
0.0055257999 0.13350999 0.12106
-0.021825001 0.098641001 0.10828
-0.02189 0.097926997 0.10777
0.0035989999 0.13305999 0.12208
-0.022263 0.099803001 0.10939
-0.022508999 0.099848002 0.1101
-0.023003001 0.1019 0.11188
0.0028639999 0.13918 0.12716
-0.0032915999 0.13097 0.12454
-0.0041832002 0.13165 0.12554
-0.0040648002 0.13313 0.12606999
0.0022628 0.14057 0.12898
-0.0049840999 0.13218001 0.12650999
-0.0048754001 0.13234 0.1259
-0.00019676 0.14168 0.1319
-0.0014232 0.13877 0.12985
-0.0027516 0.13894001 0.13072
-0.0070783002 0.13456 0.12988999
-0.0081898998 0.13499001 0.13067
-0.031923998 0.10369 0.11906
-0.0044613001 0.13933 0.13262001
-0.0056011002 0.13997 0.13347
-0.0032808001 0.14272 0.13452999
-0.01026 0.13587999 0.13237999
-0.0093782004 0.13517 0.13151
-0.0041506998 0.1433 0.13555001
-0.033812001 0.10343 0.11984
-0.035675999 0.10448 0.12178
-0.011864 0.13571 0.13335
-0.013191 0.13591 0.13437
-0.012514 0.13533001 0.13434
-0.0085933004 0.14138 0.13623001
-0.0091696996 0.14196999 0.13763
-0.036864001 0.10585 0.12412
-0.016202999 0.13559 0.13706
-0.0077335001 0.14528 0.13973001
-0.0087852003 0.14543 0.14065
-0.036088001 0.10719 0.12487
-0.014988 0.13534001 0.13653
-0.010782 0.14358 0.13907
-0.010286 0.14421999 0.14001
-0.036770999 0.1079 0.12556
-0.036621001 0.10867 0.12587
-0.010243 0.14549001 0.14148
-0.01888 0.13594 0.13874
-0.037999999 0.11096 0.1293
-0.011867 0.14688 0.14353
-0.041779999 0.10614 0.12751
-0.037223998 0.11266 0.13067999
-0.038394999 0.11313 0.13064
-0.042043999 0.10681 0.12817
-0.015236 0.14459001 0.14349
-0.012573 0.14737999 0.14499
-0.021109 0.13616 0.14003
-0.039042 0.11286 0.13189
-0.022562001 0.13593 0.14086001
-0.015945001 0.14497 0.14444
-0.013879 0.14771999 0.14580999
-0.023700999 0.1358 0.1417
-0.017147999 0.14644 0.14658
-0.043221999 0.11239 0.13352001
-0.043694001 0.11127 0.13304999
-0.045299001 0.11047 0.13327
-0.025382999 0.13542999 0.14246
-0.026373001 0.13590001 0.14357001
-0.04676 0.11067 0.13367
-0.046682 0.11109 0.13459
-0.046493001 0.11186 0.13539
-0.046261001 0.11363 0.13662
-0.046202999 0.11905 0.142
-0.046470001 0.11955 0.14246
-0.046560001 0.12038 0.1432
-0.047458 0.12099 0.14436001
-0.048036002 0.12184 0.14561
-0.048868999 0.1233 0.14724
-0.036729999 0.13838001 0.15533
-0.039212 0.13891 0.15447
-0.040484998 0.13788 0.15475
-0.049663998 0.12701 0.15075
-0.043056998 0.13625 0.15502
-0.042135 0.13704 0.15488
-0.049456 0.12831999 0.15159
-0.048962999 0.12933999 0.15311
-0.048411001 0.13091999 0.15328
-0.046898998 0.13293999 0.15453
0.087087996 0.10937 0.047115002
0.087610997 0.11045 0.047692999
0.082911998 0.10428 0.045518
0.087468997 0.11131 0.0482
0.086387999 0.11093 0.048958998
0.085529 0.11081 0.049231
0.085139997 0.11032 0.049942002
0.047656 0.060047001 0.030052001
0.047201 0.060059998 0.030554
0.079700001 0.10477 0.047802001
0.04214 0.054908998 0.028624
0.045708999 0.060242001 0.031541001
0.041491002 0.054398 0.029247001
0.040304001 0.054021999 0.029443
0.077587001 0.10499 0.049598999
0.083074003 0.11209 0.052405
0.082525 0.11374 0.053902999
0.065608002 0.090807997 0.044934001
0.076650001 0.10502 0.049754001
0.044969 0.062254 0.033735
0.057369001 0.072100997 0.043005999
0.058366001 0.073790997 0.043623
0.058873001 0.072656997 0.044369999
0.058681998 0.079545997 0.041328002
0.059695002 0.082516 0.041988
0.066078998 0.089414001 0.045435999
0.073183998 0.10019 0.048666999
0.03771 0.052845001 0.030539
0.035700001 0.05291 0.031596001
0.032651 0.054200001 0.034669999
0.03314 0.053553998 0.033867002
0.0317 0.057133 0.037733998
0.073599003 0.11476 0.060316
0.031706002 0.057211 0.038352001
0.031766001 0.058545999 0.038865
0.031047 0.058991998 0.040091
0.030246001 0.059319999 0.040679999
0.068515003 0.11595 0.065064996
0.045364 0.084638 0.052793
0.044064 0.084415004 0.052173
0.050523002 0.092459999 0.055401001
0.053011999 0.096055001 0.056742001
0.056237999 0.099187002 0.058458999
0.02747 0.060233999 0.043485999
0.067832999 0.11599 0.065087996
0.033934001 0.069587 0.046836
0.03026 0.064319 0.045086
0.033477001 0.071059003 0.049167
0.064938001 0.11408 0.065484002
0.064363003 0.11344 0.065264001
0.063023999 0.11294 0.065333001
0.033801001 0.071969002 0.049029
0.039724 0.081722997 0.053865999
0.032005001 0.072768003 0.051288001
0.05937 0.11146 0.065886997
0.032074999 0.073916003 0.052655999
0.059411999 0.11136 0.067102998
0.058249 0.1102 0.066416003
0.054416001 0.10448 0.063869998
0.054444 0.1053 0.064911999
0.031438001 0.074706003 0.053259
0.056903001 0.10909 0.066659003
0.056515001 0.10869 0.066336997
0.035769999 0.083635002 0.057202999
0.029242 0.075023003 0.054067999
0.02083 0.062638 0.050363
0.035007998 0.084008001 0.059296999
0.024248 0.068842001 0.052639
0.023784 0.069623001 0.053061999
0.023968 0.070230998 0.054095998
0.023914 0.071061 0.05494
0.023542 0.071153 0.055427
0.040600002 0.093620002 0.064106002
0.040996 0.094853997 0.064226002
0.041251998 0.096277997 0.065298997
0.017448001 0.064627998 0.0537
0.041172002 0.097167999 0.065606996
0.023305999 0.071897998 0.056496002
0.02712 0.078890003 0.059284002
0.041591998 0.097237997 0.066428997
0.041258 0.098227002 0.067094997
0.022526 0.073664002 0.058162998
0.025395 0.078464001 0.060113002
0.017168 0.066689998 0.055659998
0.041446 0.099950001 0.068706997
0.021754 0.074592002 0.059482001
0.041097999 0.10049 0.069473997
0.041524 0.10128 0.069802001
0.021852 0.076195002 0.061032999
0.041012 0.10226 0.070496999
0.040886998 0.103 0.071281001
0.017858 0.072425999 0.060044002
0.040445 0.1046 0.073790997
0.017061001 0.073618002 0.061448
0.040096998 0.10567 0.074363999
0.039694 0.10605 0.074996002
0.01633 0.073903002 0.062052999
0.015518 0.073853001 0.063066997
0.013456 0.072384998 0.062728003
0.012978 0.071506999 0.062491
0.039026 0.10776 0.076500997
0.012034 0.070804998 0.062072001
0.011195 0.070156999 0.062729001
0.038407002 0.10825 0.077592
0.0099761998 0.069875002 0.062503003
0.0094980001 0.070015997 0.063212
0.0090573998 0.070370004 0.063759997
0.037223 0.10913 0.079373002
0.0091068 0.071116 0.064574003
0.036628999 0.11046 0.080472998
0.011349 0.074545003 0.065815002
0.011394 0.075728998 0.067222998
0.035732001 0.11092 0.081799999
0.0089515001 0.072829001 0.065778002
0.010181 0.077324003 0.068846002
0.035115 0.11114 0.082744002
0.010106 0.079521999 0.071075998
0.034141 0.1123 0.083678
0.032644 0.11339 0.086198002
0.0079600001 0.080771998 0.072935998
0.0037258 0.078845002 0.074515
0.0036889999 0.079057001 0.074398004
0.0042698001 0.080133997 0.075452998
0.0047904998 0.081180997 0.075617999
0.0063927001 0.081345998 0.074910998
0.0025744 0.07722 0.074336
0.029287999 0.11616 0.090508997
0.004737 0.082065001 0.077192999
0.0037352999 0.082717001 0.078019001
0.0037934999 0.081090003 0.076653004
-0.00095843 0.076269999 0.075742997
0.0031165001 0.081770003 0.077357002
-0.0019835001 0.076604001 0.076537997
0.028289 0.11783 0.092588998
0.00079114002 0.082410999 0.079315998
0.0020079 0.083848998 0.080307998
0.02751 0.11855 0.093759999
-0.002809 0.077087998 0.077228002
-0.0022491999 0.077953003 0.077904001
0.00055853999 0.081322998 0.079235002
-0.0003627 0.082578003 0.079893999
-0.0014325 0.081781 0.080118999
0.0011514 0.084574997 0.080926999
0.0011139 0.084622003 0.081564002
-0.0040445998 0.079043999 0.079264998
-0.0024860001 0.081187002 0.080211997
0.00018240001 0.085369997 0.082364999
0.028963 0.12497 0.097930998
0.02712 0.12378 0.098206997
0.029386001 0.12554 0.098118998
0.028905001 0.12564 0.099113002
0.027609 0.12543 0.097291999
0.028018 0.12428 0.098445997
-0.0016691 0.085888997 0.084301002
0.028070999 0.12654001 0.10024
0.026581001 0.1279 0.10239
0.026572 0.12941 0.10329
0.026543001 0.12957001 0.10371
0.026345 0.13028 0.10446
-0.010429 0.080661997 0.085625
-0.0090225004 0.081731997 0.085406996
-0.0094472999 0.082342997 0.085284002
0.025660999 0.13039 0.10542
-0.0044709998 0.087490998 0.087366
-0.01164 0.080963999 0.086801
-0.010202 0.084889002 0.089094996
-0.010866 0.083613999 0.088864997
-0.0095782001 0.085933998 0.089240998
-0.010344 0.087181002 0.091066003
0.023375999 0.13214 0.10853
-0.010318 0.087719001 0.091893002
0.022133 0.13315 0.10963
-0.011427 0.088238001 0.092863999
-0.01193 0.088749997 0.094154999
0.020190001 0.13416 0.1114
-0.013142 0.088880002 0.094795004
0.019316999 0.13407999 0.1125
0.017990001 0.13489 0.11331
-0.01537 0.089840002 0.096717998
-0.015285 0.090521999 0.097113997
0.017835001 0.13493 0.11437
0.016760999 0.13512 0.11529
0.015814001 0.13578001 0.11636
-0.016690001 0.091251999 0.099113002
-0.016207 0.092390999 0.099319004
-0.017246 0.093246996 0.10025
0.014826 0.13661 0.11712
0.014221 0.13665 0.1184
-0.018207001 0.094233997 0.10196
0.011915 0.13755 0.12042
0.0084148999 0.13466001 0.12009
0.0087917 0.13612001 0.12116
0.0085092001 0.13665 0.12147
-0.020462999 0.096611001 0.10623
-0.021219 0.097250998 0.10712
0.0075424998 0.13747001 0.12288
0.0088275997 0.13891 0.1231
0.0078220004 0.13884 0.12447
0.0069466 0.13761 0.12398
0.0027739001 0.13266 0.12195
0.0017246 0.13239001 0.12213
0.0060422998 0.13813999 0.12483
-0.022791 0.10079 0.11093
0.0011024 0.13170999 0.12278
0.00015425 0.13170999 0.12263
-0.00042035 0.1309 0.12265
0.0040140999 0.13835999 0.12650999
0.0046995999 0.13999 0.12729
-0.025149999 0.10303 0.1145
-0.023669999 0.10297 0.11346
0.0034596999 0.14013 0.12767
0.0011904 0.13882001 0.1283
-0.00020399 0.13887 0.12928
-0.026351999 0.103 0.11489
0.00094499998 0.14106999 0.13074
0.0016185 0.14109001 0.13003001
-0.028442999 0.10293 0.11649
-0.029757001 0.10272 0.11775
-0.031066 0.10356 0.11826
-0.0034816 0.13911 0.13214999
-0.0023690001 0.14248 0.13362999
-0.033128001 0.10329 0.11904
-0.010877 0.13561 0.13229001
-0.0064667002 0.14013 0.13467
-0.01041 0.13473 0.13258
-0.011715 0.13493 0.13333
-0.0075150998 0.14058 0.13525
-0.0049374001 0.14406 0.13726
-0.0075936001 0.14284 0.13672
-0.0081521003 0.14167 0.13696
-0.0064154998 0.14269 0.13619
-0.0066152001 0.14369 0.13736001
-0.013747 0.13559 0.13496999
-0.0084690005 0.14343999 0.13789
-0.036922 0.10463 0.12291
-0.037397999 0.10485 0.12395
-0.010189 0.14263 0.13856
-0.038814001 0.1049 0.12488
-0.035482999 0.10779 0.12530001
-0.0093548996 0.14375 0.13908
-0.040002 0.10554 0.12540001
-0.036807999 0.10904 0.12638
-0.035363 0.1091 0.12678
-0.036281999 0.10958 0.12786999
-0.017328 0.13600001 0.13778999
-0.011115 0.14463 0.14047
-0.0097780004 0.14498 0.14066
-0.041480001 0.10545 0.12662999
-0.037319999 0.11017 0.12867001
-0.011703 0.14529 0.14189
-0.011517 0.14594001 0.14255001
-0.041553002 0.10511 0.12608001
-0.01328 0.14470001 0.14322001
-0.042475 0.10539 0.12703
-0.041246999 0.10749 0.12824
-0.036554001 0.11131 0.12907
-0.037624002 0.1119 0.12947001
-0.035762001 0.11213 0.12976
-0.014419 0.14471 0.14273
-0.037608001 0.11285 0.13154
-0.020017 0.13574 0.13941
-0.039253999 0.11264 0.13240001
-0.040488999 0.11273 0.13282
-0.017617 0.14564 0.14566
-0.041802 0.11249 0.13387001
-0.016282 0.14848 0.14777
-0.016368 0.14774001 0.14788
-0.044503 0.1113 0.13366
-0.026301 0.13677 0.14384
-0.02699 0.13692001 0.14477
-0.027496999 0.13767 0.1459
-0.045935001 0.11304 0.13627
-0.045793001 0.11481 0.13762
-0.045318998 0.11509 0.13818
-0.045600999 0.11641 0.1389
-0.045340002 0.11667 0.13988
-0.045641001 0.11751 0.14037
-0.033085998 0.14023 0.15137
-0.047928002 0.12145 0.14506
-0.048204001 0.12269 0.14625999
-0.049219999 0.12384 0.14797001
-0.041425001 0.1375 0.15453
-0.049671002 0.12642001 0.15003
-0.044638999 0.13476001 0.15488
-0.045766 0.13426 0.15470999
0.087536 0.11125 0.048650999
0.046844002 0.064328998 0.034685999
0.064382002 0.087503001 0.044376999
0.065664999 0.088528 0.045088001
0.067601003 0.090325996 0.047099002
0.036913998 0.053190999 0.031138999
0.059356999 0.083683997 0.042146001
0.059480999 0.083571002 0.042346001
0.034681 0.053217001 0.032742999
0.031672001 0.056226999 0.037441999
0.072658002 0.11444 0.060690999
0.02916 0.058929998 0.041113999
0.049715001 0.090355001 0.054916002
0.050457999 0.091673002 0.055463001
0.057172999 0.10081 0.060132001
0.054081999 0.097075999 0.057601001
0.044263002 0.083370999 0.052623998
0.055964999 0.10119 0.061032001
0.031676002 0.073178001 0.051931001
0.037014 0.082634002 0.05683
0.029188 0.073679 0.053181998
0.035921 0.083306998 0.057567999
0.036447 0.089824997 0.062698998
0.033578999 0.086290002 0.062541999
0.023813 0.076879002 0.060488999
0.024641 0.078139 0.06092
0.010938 0.073106997 0.065309003
0.0056258002 0.081620999 0.076577
0.0065476 0.081277996 0.075227
0.029121 0.11679 0.090668999
-0.0025454999 0.079287998 0.07976
-0.0017882 0.080587998 0.079875998
0.025505001 0.12228 0.098605998
-0.0024285 0.086297996 0.085515998
-0.018267 0.094632 0.10309
-0.020138999 0.095513001 0.10504
0.0047412999 0.13844 0.1257
0.0020059 0.13882001 0.12791
-0.032545 0.10393 0.12087
-0.0057950001 0.14093 0.13529
-0.0041574002 0.14150999 0.13440999
-0.0052935998 0.14221001 0.13510001
-0.0044785999 0.14074001 0.13383
-0.0071264999 0.14117 0.13601001
-0.0033475 0.14413001 0.13651
-0.0058154999 0.14307 0.13680001
-0.0076922998 0.14380001 0.13880999
-0.035914 0.10556 0.12326
-0.034972999 0.10641 0.12375
-0.012174 0.14567 0.14375
-0.023979999 0.13507999 0.14195
-0.045124002 0.11164 0.13494
-0.028501 0.13844 0.1473
-0.031936999 0.14012 0.15136001
-0.049226999 0.12466 0.1488
-0.043747999 0.13567001 0.15498
0.086529002 0.10753 0.046518002
0.059776001 0.080215998 0.041988999
0.051543999 0.067864999 0.038446002
0.050349999 0.068122 0.037446
0.052044999 0.068426996 0.038603
0.055792999 0.073457003 0.040739998
0.056582998 0.074123003 0.041501999
0.056426998 0.076265 0.040261999
0.031996001 0.058283001 0.041034002
0.070661999 0.11516 0.062816001
0.070642002 0.11568 0.063482001
0.047986999 0.088230997 0.054152999
0.055275001 0.098255001 0.058343001
0.053091001 0.095113002 0.057032999
0.067120999 0.11481 0.064966001
0.054956 0.10338 0.063463002
0.057514999 0.10813 0.067275003
0.023464 0.067041002 0.052498002
0.019575 0.063455001 0.051624
0.02303 0.068572998 0.053872999
0.040312 0.091683 0.064089999
0.027977999 0.079031996 0.059758998
0.023211 0.076497003 0.060991999
0.021582 0.07519 0.060357001
0.013782 0.073444001 0.064044997
0.012741 0.072378002 0.063584998
0.011952 0.072527997 0.064553
0.012643 0.073872998 0.065163001
0.012514 0.075181 0.066230997
0.01015 0.072035998 0.065426998
0.0091933999 0.080256 0.072517
0.0032374 0.079985 0.076587997
0.0027300001 0.080228001 0.077500999
0.0014496 0.080898002 0.078827001
0.026764 0.1184 0.094803996
-0.0004046 0.080123998 0.079276003
0.024693999 0.12124 0.098535001
0.027435999 0.12664001 0.10158
0.025815001 0.12835 0.10358
0.021303 0.13247 0.11054
0.019459 0.13358 0.11217
0.018347999 0.13414 0.11344
-0.016171001 0.089543 0.097732
-0.020717001 0.096000999 0.10536
-0.027399 0.10253 0.11624
-0.0019515 0.13856 0.13063
-0.0025901999 0.14352 0.13510001
-0.0015845 0.14305 0.13445
-0.0091359997 0.13391 0.13155
-0.034001 0.1044 0.12161
-0.034910001 0.10496 0.12242
-0.0087919999 0.14433999 0.13966
-0.034901001 0.10851 0.12622
-0.017243 0.13479 0.13797
-0.016603 0.13501 0.13736001
-0.021405 0.13517 0.14026999
-0.016365999 0.1462 0.14599
-0.043071002 0.1121 0.13448
-0.026138 0.13587999 0.14487
-0.044484001 0.1121 0.13572
-0.045022 0.11401 0.13719
-0.027965 0.13819 0.14678
-0.029068001 0.13909 0.14833
-0.030764 0.13956 0.15012001
-0.049183998 0.12543 0.14977001
-0.040647 0.13700999 0.15579
-0.041685998 0.1365 0.15629999
0.085686997 0.10487 0.045974001
0.086842999 0.10608 0.046769999
0.082004003 0.10333 0.046967998
0.048186 0.058320001 0.030253001
0.085349999 0.10939 0.050430998
0.086329997 0.10976 0.050174002
0.042291999 0.053927999 0.030005001
0.047033001 0.063748002 0.035409
0.052205998 0.070531003 0.038642999
0.060447998 0.081315003 0.042452998
0.065912001 0.087633997 0.045690998
0.047706999 0.062743999 0.036669001
0.082979001 0.11322 0.054763999
0.076935999 0.11485 0.060447
0.029623 0.058226999 0.042225
0.049079001 0.089317001 0.054857999
0.052113999 0.094118997 0.056867
0.029184001 0.062636003 0.044093002
0.027927 0.061078999 0.044156998
0.031018 0.064577997 0.045680001
0.032441001 0.067172997 0.046124998
0.058405999 0.10904 0.067319997
0.022372 0.067639999 0.053968001
0.023088999 0.069983996 0.055298999
0.041177001 0.094102003 0.064538002
0.041910999 0.094448 0.065412
0.042376999 0.095435001 0.065530002
0.028348001 0.078878999 0.059131
0.026070001 0.078813002 0.061009999
0.038633 0.10698 0.077140003
0.038757998 0.10771 0.079235002
0.011607 0.071787 0.064479999
0.035535999 0.11085 0.083792001
0.0075043002 0.080803998 0.074612997
-0.0010051 0.077492997 0.077145003
-0.00064828998 0.077881999 0.077693
-0.0012474 0.0788 0.078314997
0.0253 0.11946 0.097929001
-0.0055167 0.085239999 0.088852003
-0.011736 0.087335996 0.094848
-0.016035 0.087842003 0.096735999
-0.017117999 0.089479998 0.098812997
0.0045043002 0.1332 0.12185
0.0055840001 0.13759001 0.12646
-0.025646999 0.10193 0.11568
-0.026249001 0.10261 0.11557
-0.0078125997 0.13356 0.13135999
-0.0026195999 0.14077 0.13372999
-0.034525 0.10715 0.1251
-0.035990998 0.11302 0.13079
-0.034814 0.11283 0.12995
-0.020484 0.13445 0.13914999
-0.014091 0.14442 0.14432999
-0.015943 0.14511999 0.14538001
-0.028741 0.138 0.14912
-0.029507 0.13857 0.15005
-0.046069 0.11929 0.14426
-0.035360999 0.13982999 0.15333
0.087311 0.11055 0.049709
0.080889001 0.10355 0.048044
0.045968998 0.055939998 0.029743001
0.083688997 0.11 0.052035
0.079244003 0.10447 0.04947
0.046615999 0.059668999 0.032134
0.046161 0.060373001 0.034152001
0.045410998 0.061195999 0.034520999
0.038139001 0.052416001 0.031566001
0.039475001 0.052260999 0.031415999
0.063561 0.086025998 0.044287998
0.052917 0.067795999 0.039662
0.052937001 0.069225997 0.039262
0.064760998 0.086383 0.045147002
0.071180999 0.095032997 0.049132999
0.074761003 0.099762999 0.050700001
0.082396999 0.11364 0.055941999
0.081885003 0.11397 0.056917999
0.079558 0.11519 0.059328001
0.079016 0.11538 0.059225999
0.032428 0.055959001 0.038770001
0.032503001 0.056967001 0.039324
0.070037 0.11544 0.065759003
0.058458 0.10041 0.060702
0.068011001 0.11432 0.065617003
0.033961002 0.067740999 0.047711
0.034538001 0.068605997 0.048664
0.044096 0.083063997 0.052703001
0.065403998 0.11327 0.066492997
0.056715999 0.10155 0.061914001
0.032706998 0.071010999 0.049855001
0.056155998 0.10215 0.062530003
0.032032002 0.071075998 0.051878002
0.037988 0.080944002 0.056395002
0.038779002 0.080401003 0.055888001
0.056028999 0.10717 0.067134999
0.023120999 0.066049002 0.052609999
0.030819001 0.076312996 0.056945
0.030727999 0.075397998 0.057172999
0.035473999 0.082400002 0.059264999
0.030377001 0.077411003 0.058402002
0.019990001 0.063096002 0.052253999
0.020238999 0.063669004 0.053137001
0.039466001 0.090604998 0.063665003
0.022404 0.068800002 0.055087999
0.041193001 0.092768997 0.065200999
0.037957001 0.089302003 0.063501999
0.037067 0.088845998 0.064033002
0.035378002 0.087600999 0.064171001
0.042750001 0.096289001 0.06679
0.022628 0.073072001 0.059877001
0.022443 0.073664002 0.058984999
0.019493001 0.070690997 0.058589
0.0233 0.076598004 0.062042002
0.018369 0.072774999 0.062070999
0.040259 0.10496 0.075531997
0.01595 0.073737003 0.064203002
0.040810999 0.10523 0.076268002
0.039623 0.10622 0.077120997
0.012769 0.070987001 0.063758001
0.039223 0.107 0.078780003
0.0098393001 0.070027001 0.063886002
0.0141 0.073923998 0.066220999
0.013017 0.074800998 0.067203
0.010357 0.070839003 0.064814001
0.01103 0.076314002 0.068788998
0.036400001 0.11034 0.082687996
0.011955 0.076706 0.069348998
0.010918 0.077352002 0.069605
0.010907 0.078915998 0.071511999
0.03458 0.11154 0.083825
0.034573 0.11123 0.084389001
0.0081925001 0.080159001 0.073536001
0.032325 0.11364 0.087688997
0.0062985001 0.081343003 0.077215999
0.0056568999 0.081722997 0.078694999
0.029918 0.11544 0.091211997
0.029231001 0.11623 0.091853
0.0043819002 0.082437001 0.079230003
-0.00076776999 0.076158002 0.076954998
0.00038864999 0.077983998 0.078319997
0.002815 0.083724 0.081293002
0.0018826 0.084097996 0.082428999
0.0015504 0.084504001 0.081491001
0.026725 0.11803 0.095072001
0.027411999 0.11852 0.095957004
0.00072789 0.084366001 0.083297998
0.026458001 0.12343 0.098966002
0.029043 0.12386 0.099638
0.024754999 0.12014 0.098728999
0.026141999 0.12203 0.099192001
0.026818 0.12302 0.099468999
0.026117001 0.12955999 0.1052
-0.010909 0.080256999 0.088091001
-0.010818 0.083939001 0.090008996
-0.010461 0.084776998 0.089874998
0.019996 0.13301 0.11289
0.019145999 0.13371 0.11389
0.017480999 0.13446 0.11644
0.016264999 0.13484 0.11759
0.015097 0.13497999 0.11832
0.014222 0.13591 0.11878
0.013184 0.13628 0.11996
-0.017614 0.093139 0.10296
0.0077243 0.13398001 0.12092
0.0073826001 0.13301 0.12159
0.0054251999 0.13214 0.12237
0.0040973001 0.13202 0.12249
0.0076152999 0.13707 0.12448
0.0035186999 0.13154 0.12258
-0.021539001 0.099032 0.11093
0.0021661001 0.13748001 0.12922999
-0.024509 0.10202 0.11486
-0.0047690002 0.13067999 0.12730999
-0.0037849999 0.13044 0.12646
-9.3609e-05 0.13788 0.13099
0.0018358 0.14063001 0.13213
-0.00081520999 0.14242999 0.13327
-0.028988 0.10288 0.1186
-0.029993 0.10255 0.11956
-0.0015703 0.14138 0.13457
-0.0028438999 0.14218999 0.13552
-0.0019751 0.14319 0.13595
-0.034302 0.10542 0.1231
-0.033408999 0.10543 0.12344
-0.0051928 0.14397 0.1389
-0.0061809998 0.14484 0.13959
-0.01547 0.1349 0.13677
-0.034460001 0.11276 0.13094001
-0.019269001 0.13462 0.13896
-0.021019001 0.13338999 0.13929
-0.022647999 0.13399 0.13991
-0.023125 0.13402 0.14111
-0.014488 0.14534999 0.14566
-0.038693 0.1118 0.13299
-0.01545 0.14696001 0.14689
-0.044270001 0.11299 0.13681
-0.031891 0.13925 0.15184
-0.032620002 0.13959999 0.15229
-0.047297999 0.121 0.14675
-0.03404 0.13914999 0.15346999
-0.039471 0.13745999 0.15569
-0.038617998 0.13788 0.15555
-0.042992 0.13553999 0.15632001
0.087047003 0.10633 0.047226001
0.088894002 0.10989 0.048842002
0.088602997 0.11017 0.048834
0.083488002 0.10341 0.046371002
0.047210999 0.057101998 0.030133
0.048408002 0.059101999 0.030614
0.080553003 0.1041 0.048588999
0.047786001 0.059234001 0.031801999
0.043825999 0.053998999 0.029501
0.043131001 0.053548001 0.029897001
0.084381998 0.10875 0.051024001
0.083222002 0.1116 0.053316999
0.040178001 0.052822001 0.030817
0.041044999 0.052942 0.030342
0.077702001 0.10431 0.050274
0.077467002 0.10401 0.05074
0.076793998 0.10397 0.050774999
0.045795001 0.061531 0.034669001
0.046735998 0.062479001 0.035395
0.061526999 0.082624003 0.043012001
0.070179999 0.093169004 0.0484
0.073532 0.099188 0.049368002
0.048280001 0.063890003 0.037009001
0.049926002 0.065094002 0.037799999
0.037962999 0.052221999 0.032093
0.077734999 0.11562 0.059702002
0.032582 0.054551002 0.037833001
0.032361999 0.055109002 0.038089
0.073119998 0.11333 0.061494999
0.028829001 0.058247998 0.042309001
0.071358003 0.11434 0.063566998
0.070800997 0.11545 0.064705998
0.068985 0.11523 0.066157997
0.051488001 0.09172 0.056706
0.058155 0.10104 0.060734
0.02798 0.059571002 0.044418
